ply
format ascii 1.0
comment File exported by Rhinoceros Version 7.0
element vertex 491
property float x
property float y
property float z
property float nx
property float ny
property float nz
property uchar red
property uchar green
property uchar blue
end_header
0.0332780670335948 0.078102681071248 0.0508350724507742 -0.06574439 0.7841586 0.617068 90 90 90
0.0341999875447661 0.0778602458141882 0.0505049588190118 0.1483387 0.761919 0.6304562 85 85 85
0.0336905364968532 0.0786755622704483 0.049482309987803 -0.09170648 0.7758307 0.6242408 88 88 88
0.0358000434707177 0.0780430351889729 0.0483838818899513 0.2902301 0.6957262 0.6570628 67 67 67
0.035965454639511 0.0734351385534631 0.0542542901941478 0.4156816 0.6712095 0.613748 30 30 30
0.0363926760208084 0.0721203032630398 0.0548762291255022 0.4030496 0.6622236 0.6316731 49 49 49
0.0289303655047277 0.0713544843534206 0.0565830708740711 -0.4286462 0.4305269 0.7942978 123 123 123
0.0357552001405725 0.0680641941428595 0.0566916738041827 0.3311006 0.6204023 0.7109665 36 36 36
0.0298938002719513 0.0734566428535259 0.0542017961887333 -0.4127565 0.693578 0.590408 112 112 112
0.028848204128654 0.0718425167492074 0.0541524320136961 -0.5740824 0.588999 0.5687791 33 33 33
0.0296028621851443 0.07370288811797 0.0526426214701916 -0.577279 0.6884192 0.4391218 111 111 111
0.0091799305797946 -0.0214542628683538 -0.0432974692852022 -0.01691333 0.5027857 -0.8642457 180 180 180
0.0288609343627506 0.0732026046240877 0.0511361016019531 -0.6701298 0.6371804 0.380693 74 74 74
0.0317925234115113 0.0763041201877048 0.0533780772376481 -0.05141117 0.7518913 0.6572796 101 101 101
0.0346909373591346 0.0749411736991974 0.0506959841886396 0.2287223 0.7681903 0.5979714 49 49 49
0.0363412345279577 0.0753656427260576 0.0501244904442275 0.4547741 0.6505098 0.6082907 51 51 51
0.0266452088095042 0.0711446133276132 0.0508922114544922 -0.6995271 0.6368946 0.3240786 46 46 46
0.0246293867362777 0.0690814835595266 0.0506751303775871 -0.6719318 0.6535882 0.3483248 46 46 46
0.0336199011890725 0.081891807940311 0.0429528395750953 -0.2531918 0.8757182 0.4111102 80 80 80
0.0300485946193176 0.0769071033598754 0.0478439712927429 -0.597179 0.6951337 0.4002078 29 29 29
0.0334218516073124 0.0798785338972101 0.045433579962097 -0.3973033 0.8286752 0.3942682 68 68 68
0.0343605129796645 0.0810526955344637 0.0470133095409146 -0.01282284 0.8812947 0.4723931 103 103 103
0.0361967903637463 0.0793827070045141 0.0467900966686223 0.2988648 0.7568237 0.5812897 63 63 63
0.0312634697576097 0.0779832528767688 0.0471240901895078 -0.4626653 0.750128 0.4724921 53 53 53
0.0315287560396262 0.0803936845095345 0.0439489537779109 -0.5181177 0.7677062 0.3770693 58 58 58
0.0354653998152394 0.0816498037307587 0.0448399377182708 0.07329315 0.8917792 0.4464952 110 110 110
0.0339357557904618 0.0814803909546986 0.0440505023833042 -0.2656825 0.8778697 0.3984439 108 108 108
0.0356981860145016 0.0832672655108093 0.0417544491690362 0.1391613 0.8943536 0.4251656 80 80 80
0.03536272274052 0.0826194145000085 0.0423353507183528 0.1305318 0.8911129 0.4346024 105 105 105
0.0353887375344102 0.084451435507005 0.0390166167385457 0.2560005 0.8981149 0.3575661 85 85 85
0.0341871769634889 0.0831847365997007 0.0404770828908751 -0.2038224 0.8996693 0.3860719 41 41 41
0.0334846973320784 0.0840249718465247 0.0383867150941463 -0.2254415 0.8862198 0.4047105 55 55 55
0.0296050033985851 0.0792086139596158 0.0435282899239419 -0.5785142 0.7279894 0.3679033 80 80 80
0.0489244332980276 0.0378163979752018 0.0227502312977592 0.9620351 -0.04697484 -0.2688527 58 58 58
0.0289233494876462 0.0789887871456225 0.0423271455668479 -0.5770764 0.7294674 0.367233 70 70 70
0.0268992102706616 0.0771182875732876 0.0417770306307452 -0.6667272 0.6485831 0.3671713 65 65 65
0.028642783977638 0.0807261297278654 0.0376117489322342 -0.5893754 0.7171822 0.3718688 37 37 37
0.0311094144452837 0.0804581381202809 0.0415359499478817 -0.5370677 0.758704 0.3686821 45 45 45
0.0325033900423799 0.0808784858439957 0.0409284844394743 -0.4609739 0.7911959 0.4018857 27 27 27
0.0322160582345972 0.0816474460605521 0.0406465949729295 -0.5101286 0.7748564 0.3733179 26 26 26
0.0223577133207535 0.0681468002568419 0.0481311565138828 -0.663752 0.6537974 0.3632936 75 75 75
0.0222490075119794 0.0700927896245049 0.0454028502337735 -0.6700214 0.6542577 0.3507395 24 24 24
0.0207074690662528 0.0682704087178603 0.045312763377393 -0.663753 0.6595385 0.3527618 62 62 62
0.02207664960111 0.0704575898393209 0.0438651493357375 -0.6719117 0.6549258 0.3458422 63 63 63
0.0230823529135287 0.0718484646926945 0.042991120209896 -0.695004 0.6274446 0.3511163 69 69 69
0.021755573551661 0.0716391360789259 0.0407310336279504 -0.7036179 0.6351759 0.3185488 54 54 54
0.0183037664040797 0.0668542924310105 0.0424805860915073 -0.6708417 0.6666731 0.324836 49 49 49
0.0199250665740367 0.0689975905859017 0.0422278717477437 -0.6638594 0.6700891 0.3320713 74 74 74
0.0283174938958277 0.0759226372338915 0.0468200327739682 -0.6798054 0.6309398 0.3738711 62 62 62
0.0285155121034295 0.0755434828920165 0.0472495496580833 -0.6867705 0.629113 0.3640924 46 46 46
0.0261665952123806 0.0721002834911897 0.0474792113935762 -0.6804706 0.6378356 0.3607292 32 32 32
0.0276141856348167 0.0728096292516505 0.048688043797961 -0.701157 0.6250547 0.3430531 53 53 53
0.0260792724238161 0.0749912717070977 0.0444536262087882 -0.6823295 0.6238261 0.3811398 41 41 41
0.0248743676014156 0.0727296069038579 0.0446760750100825 -0.6872987 0.6306453 0.3604263 79 79 79
0.0251795602110554 0.070068774174364 0.0496643734178123 -0.6759338 0.6524512 0.3426672 35 35 35
0.0233995763002315 0.0696926493422383 0.0477226260098479 -0.6658242 0.6570432 0.3535142 74 74 74
0.0232677063606399 0.0711017275683623 0.0448859076833174 -0.6762953 0.6459907 0.3540068 48 48 48
0.0268499051715843 0.0759698603960437 0.0432558897326284 -0.6828575 0.6260028 0.3765983 48 48 48
0.0281653930502843 0.076857114785615 0.04345170922515 -0.6530513 0.6595802 0.3721261 43 43 43
0.0275220055822869 0.077018937772243 0.0422133775305055 -0.6627647 0.6501286 0.3715854 83 83 83
0.0249804695938849 0.0770057199740581 0.0388295949838057 -0.7016441 0.6346051 0.323994 48 48 48
0.0243350503988435 0.0733770478437774 0.0411330279736301 -0.7021787 0.614258 0.3600448 77 77 77
0.0379583514211346 0.0715070841326633 0.0547497345670897 0.4517616 0.6618399 0.5982302 41 41 41
0.039255290334745 0.0704357808518241 0.0550233026493385 0.4876233 0.6388176 0.5950929 65 65 65
0.0376613167459623 0.0694019839039763 0.055986250219052 0.47335 0.6312671 0.6143628 26 26 26
0.0388811897102874 0.0671144766528682 0.0566032113113268 0.5363048 0.5444962 0.6449038 50 50 50
0.0424610416262077 0.0675473636420942 0.0549783921036195 0.5706318 0.5749401 0.5863644 89 89 89
0.0398026758227275 0.0708997887954228 0.0518154301298998 0.5364645 0.6793763 0.5006533 66 66 66
0.0369131665695002 0.074388831388984 0.0508854045842761 0.5056252 0.6465608 0.5712287 47 47 47
0.0393907291393458 0.0735604498918294 0.0491924309721607 0.544717 0.5784149 0.6072229 27 27 27
0.0427348093396076 0.0703270989016185 0.0495991460816633 0.605387 0.6115173 0.5094635 49 49 49
0.0452071733727974 0.070456996532734 0.0473262680972676 0.5852315 0.583124 0.5634452 41 41 41
0.0433822026427415 0.0685398480568298 0.0509240488696756 0.5907152 0.6779222 0.4375809 36 36 36
0.0461991967553947 0.0665708347760161 0.0506595712225668 0.5929121 0.6782596 0.4340728 32 32 32
0.0454546389753148 0.0659534135145223 0.0507651443695205 0.5817271 0.6642628 0.469413 25 25 25
0.0452676335239763 0.0685587629534907 0.0481084556455055 0.5762287 0.64959 0.4959772 35 35 35
0.0484353456637852 0.0656373637940464 0.0486461204203292 0.5969622 0.6661952 0.4470125 38 38 38
0.051588116962352 0.0622430093682758 0.0493102346831186 0.7132561 0.5709153 0.4065976 30 30 30
0.0495892238970974 0.0649510948686334 0.0484874024537678 0.6040519 0.6596358 0.4472157 30 30 30
0.0517650125851095 0.0643834479533261 0.0473063124191215 0.7210842 0.5998608 0.3467054 31 31 31
0.0528618298738959 0.0626392217504004 0.0473616865487871 0.7333992 0.6051616 0.3096856 30 30 30
0.0375899449031603 0.0809156070375801 0.0429128209982281 0.3746714 0.837693 0.3973561 52 52 52
0.0408036292723066 0.0782060050488418 0.044166025109517 0.6243361 0.6809613 0.3827482 31 31 31
0.0391381345945785 0.077499506720631 0.0472823655169951 0.4806206 0.6213856 0.618776 53 53 53
0.039521154823591 0.0762759138160323 0.0467575204516092 0.5117939 0.6104015 0.604547 39 39 39
0.0410803787931888 0.0765819857443841 0.0465655494617489 0.5614817 0.6070063 0.5623892 15 15 15
0.0414509696539156 0.0759403002287142 0.046921386820274 0.5505729 0.5897371 0.5908297 47 47 47
0.0389700581844714 0.0801507310388334 0.0424140250430755 0.5796517 0.757139 0.3012382 23 23 23
0.0423921909231817 0.075851816560897 0.0451592930984856 0.649823 0.6428829 0.4055019 45 45 45
0.0424873514904158 0.0749534367440801 0.0454107765895288 0.6310273 0.5934695 0.4995982 38 38 38
0.0433282920936424 0.0760148140853472 0.0432096197890496 0.6860282 0.6623576 0.3010777 57 57 57
0.0443682570201185 0.0744748453913815 0.043179987956782 0.6782364 0.6610857 0.3208754 43 43 43
0.0379518706360926 0.0818483050122174 0.0394247320373284 0.6137192 0.7444634 0.2629126 65 65 65
0.0392539632637936 0.0810964702063115 0.0382391337342515 0.6994729 0.6938462 0.1712168 61 61 61
0.0371103535101689 0.0831999471789164 0.0360866109864772 0.5656442 0.7976996 0.2090977 44 44 44
0.0392229093887253 0.0812564799362432 0.0365291379332417 0.7171671 0.6823956 0.1414478 57 57 57
0.0403570838507505 0.08042735418948 0.0356461051685519 0.7339582 0.6687229 0.1188068 58 58 58
0.0403085871889339 0.0796324443500736 0.0389295798694471 0.7045054 0.694908 0.1441351 62 62 62
0.0417881506453375 0.0778074705240501 0.0392822247400756 0.7098963 0.6900191 0.1411413 56 56 56
0.0439642691194058 0.0758778222002647 0.0405172587392268 0.7164029 0.6785013 0.1624895 48 48 48
0.0442645114159612 0.0759582192567214 0.0385738829785784 0.728726 0.6788958 0.08977179 58 58 58
0.0417020989707142 0.0786624723824347 0.0366846460620251 0.7295392 0.6753759 0.1078887 50 50 50
0.0422902095512914 0.0784225568617332 0.0361874122694087 0.7401929 0.6650744 0.09894683 31 31 31
0.0445660979317664 0.0759484609149232 0.0357582193580978 0.7495544 0.6605648 0.04268828 81 81 81
0.0407894646484834 0.0748717077504255 0.0471575454452535 0.5374289 0.5571295 0.6330695 32 32 32
0.0441261887030215 0.0726354374185625 0.0459264024196099 0.6353481 0.5590315 0.5327443 34 34 34
0.0454835786786476 0.0735637196147374 0.0425268102461158 0.712916 0.6554826 0.2491854 64 64 64
0.0465731136370615 0.0723047864590047 0.0430804666730348 0.7271678 0.6000946 0.3333367 54 54 54
0.0487124876724909 0.0686772135442395 0.0447981026374215 0.7117216 0.6080791 0.351699 56 56 56
0.0488781533829297 0.0680203076173032 0.0450701841430245 0.6898394 0.619979 0.3738284 53 53 53
0.046961238682909 0.072339469904332 0.0409834327326885 0.7664733 0.6213815 0.162492 55 55 55
0.047303324059325 0.0720810017612068 0.0411076947766202 0.768025 0.6168144 0.1722715 48 48 48
0.0497213201535214 0.0689126062381844 0.0419520247060349 0.8031602 0.5736097 0.1609523 42 42 42
0.0498441156713993 0.0690501098194967 0.040087031907803 0.8189732 0.5647635 0.1016121 80 80 80
0.051002209436295 0.0663430905886944 0.0435513453387368 0.7542153 0.6171112 0.2243502 63 63 63
0.0525979061801305 0.0648325627587896 0.0435544578950421 0.7927138 0.5789778 0.1907604 47 47 47
0.0482696788167276 0.0711108650934074 0.0387822432965803 0.800006 0.59912 0.03233514 49 49 49
0.0472042910279078 0.0729440250614715 0.0384740902289251 0.7677814 0.6382207 0.05644445 40 40 40
0.0464702148793901 0.0735929884504822 0.0382478740730636 0.7605827 0.6466401 0.05805628 35 35 35
0.0490326751147432 0.0703290268028292 0.0395036259835121 0.8032608 0.5915253 0.06978554 59 59 59
0.0492248285889847 0.0700502394928335 0.0391736406738756 0.8125558 0.5810712 0.04592773 78 78 78
0.0506856921178889 0.0677622612462387 0.038319720060522 0.8293874 0.558614 0.008187497 83 83 83
0.0494839723270233 0.0691936904448147 0.0376230883405981 0.8214154 0.5703114 0.004647132 82 82 82
0.0472389692044906 0.072552234308126 0.0364024031449485 0.7906539 0.6122303 0.006365624 82 82 82
0.0475037899908539 0.0720397992444013 0.0355066256546987 0.8035101 0.5952895 0.001365013 70 70 70
0.0475948955129906 0.0714705055002625 0.0345342477075567 0.8125926 0.5827652 -0.008827789 70 70 70
0.0480005133334789 0.0714310146265891 0.0339067823410017 0.815501 0.5787327 -0.005159681 53 53 53
0.0505648743450444 0.0676565629828556 0.0358152944934098 0.8219175 0.5694363 -0.01392992 89 89 89
0.0501091134339631 0.0685473608065903 0.0340132241837571 0.8211155 0.5707612 -0.001014279 62 62 62
0.0511999092341915 0.0666061652059258 0.0380601676631029 0.8266301 0.5625247 0.01576673 58 58 58
0.0537938843759465 0.0637003221303851 0.0378778767771632 0.8279123 0.560765 0.01018821 69 69 69
0.0511007250400843 0.0667254288192349 0.036904070236744 0.8213423 0.5704147 -0.004890784 94 94 94
0.0516318849087631 0.0659196296369891 0.0372786616683156 0.8236169 0.5671417 0.002366071 62 62 62
0.0545235836454503 0.0625119366166567 0.0367966098000405 0.8904492 0.4489997 -0.07415898 86 86 86
0.0558517263794109 0.0598872679251452 0.0368552273346895 0.9725562 0.1765472 -0.1515436 61 61 61
0.0516600009374457 0.0665253918458599 0.0348250933844871 0.8124584 0.5830179 -0.001218086 66 66 66
0.0403480489140904 0.00308478768275022 -0.0292927926573051 0.1886445 0.4628496 -0.8661313 131 131 131
0.0533256429986269 0.0635708159295467 0.035094438161882 0.8878958 0.4579526 -0.04382388 90 90 90
0.0252360996039593 -0.045503199849936 -0.0576288822743063 -0.02638038 0.4944919 -0.8687818 135 135 135
0.0542391733189183 0.0627248823047901 0.0350528734870734 0.902405 0.4239406 -0.07706942 80 80 80
0.0218863268499785 0.0637424088746272 0.0556582178836675 -0.6706892 0.6224805 0.4033536 115 115 115
0.0176820765273411 0.0600761256851909 0.0533903817177443 -0.6696928 0.6090305 0.4249629 98 98 98
0.0203668367178662 0.0656548024790908 0.0496247875929269 -0.6636719 0.6524223 0.3659027 57 57 57
0.0166735698820588 0.0624467099441455 0.0496741458369622 -0.6565865 0.6413772 0.3968998 99 99 99
0.0192700654229734 0.0661989402684229 0.0459433796597645 -0.6676285 0.6577836 0.348702 49 49 49
0.0181994129656848 0.0648932740082688 0.0464678638164077 -0.6423576 0.6830891 0.347514 62 62 62
0.0198549995156734 0.0663288926269792 0.0482219913320662 -0.6603899 0.6603986 0.3574337 80 80 80
0.0174854833960154 0.0629079839417523 0.0488230101973696 -0.6519146 0.651148 0.3886046 81 81 81
0.0166203976827859 0.0631915030478478 0.0465205826861911 -0.6455444 0.6763595 0.3546974 54 54 54
0.0157386455979847 0.0590691990572025 0.0514296795680499 -0.6752166 0.5840259 0.450551 65 65 65
0.014779516840715 0.0607712014821276 0.048881344632657 -0.683769 0.6059399 0.4065671 74 74 74
0.015368402306998 0.062882915835601 0.045727378824425 -0.6552275 0.6701934 0.3485937 29 29 29
0.0134601846782902 0.0614928613081649 0.0450852998246122 -0.686991 0.643779 0.3370342 66 66 66
0.0143868645666685 0.0627308418100336 0.0448573909805371 -0.6660042 0.6696954 0.3285521 82 82 82
0.015182665009867 0.0649357824452921 0.0412182423298639 -0.6688126 0.6715539 0.3189123 43 43 43
0.0141943175079153 0.063357069733821 0.0423683730279358 -0.6682311 0.6712296 0.3208085 52 52 52
0.0151277190567263 0.0626797398077337 0.043615188322273 -0.6617773 0.6722106 0.3319394 32 32 32
0.018185269307708 0.0660918508425377 0.0445555151495164 -0.6585745 0.6624025 0.3570751 62 62 62
0.0171388371104522 0.0663571742916631 0.042341230571963 -0.6687769 0.668551 0.3252338 46 46 46
0.0158890298723247 0.0650826449135062 0.0428759077524654 -0.6669317 0.6709778 0.3240231 73 73 73
0.0167568998787719 0.0667185202099991 0.0409350274304538 -0.6674906 0.6774188 0.309128 26 26 26
0.0114250675207668 0.0591276918347228 0.0462170785335818 -0.6989255 0.6129998 0.3684215 63 63 63
0.0103678197428847 0.0572415083848019 0.0457380573087868 -0.7252687 0.5819666 0.3678317 41 41 41
0.0113250012421844 0.0599713779011368 0.0425876900016126 -0.7025089 0.6300875 0.330864 63 63 63
0.012399846858218 0.0618340517820182 0.0412934435151244 -0.6941994 0.6554966 0.2973406 55 55 55
0.0119122753184078 0.0605077376379135 0.0424672439543471 -0.6974151 0.6418578 0.3187957 86 86 86
0.00879743246508191 0.0571132546091426 0.0438059276962012 -0.7469188 0.5756711 0.3327387 66 66 66
0.0102623493991021 0.0580856678527282 0.0434662091560402 -0.7271168 0.6019 0.330178 23 23 23
0.00960874897480979 0.058536891289273 0.0420175548596322 -0.7354308 0.6002433 0.3144034 30 30 30
0.00880412778289097 0.0575903829311446 0.0423704052431086 -0.7383513 0.5947675 0.317945 49 49 49
0.0106063035593924 0.0534865729889524 0.050797308250688 -0.7151728 0.5468053 0.4353527 38 38 38
0.00975761921681295 0.0549856844393186 0.0485384541996971 -0.727963 0.544535 0.416595 28 28 28
0.0440846980776701 0.0603263565217216 0.0551270300435484 0.5335622 0.2995377 0.7909416 22 22 22
0.0430219467767068 0.0586811682938329 0.055771243158992 0.5221974 0.2999512 0.7983353 31 31 31
0.0434359293592324 0.058512817693525 0.0556503701323645 0.5266894 0.3099871 0.7915215 28 28 28
0.0457358986559102 0.0571226660889719 0.0540471506452404 0.4261105 0.3695961 0.8257291 17 17 17
0.0519586164677577 0.0608828666585233 0.0522543921309219 0.5268024 0.4502652 0.7209303 52 52 52
0.0509502427272874 0.0563075756628015 0.052758199410078 0.5445123 0.2330869 0.8057151 16 16 16
0.0543417037199712 0.0590633512948517 0.0515170888245353 0.7663596 0.3396276 0.5452945 33 33 33
0.0466315962976465 0.0557377860767281 0.054179788490049 0.4704829 0.3162908 0.8237754 22 22 22
0.0533632457574718 0.0525685542115328 0.0522804177199163 0.722003 -0.08909045 0.68613 23 23 23
0.0506016364169053 0.0617268106120397 0.0516667563743125 0.5303513 0.477121 0.7007732 42 42 42
0.0518467635295723 0.06143603408863 0.0501040571331599 0.6537347 0.5606347 0.5082516 26 26 26
0.0547249059711232 0.0601361402828464 0.0455699340997848 0.8784478 0.447793 0.1667656 50 50 50
0.0544163791548167 0.0591512874541646 0.0480526053161376 0.8644282 0.3617732 0.3491191 49 49 49
0.0561942671092179 0.0577724796162686 0.0452139613461985 0.9761187 0.1923479 0.1009676 69 69 69
0.0555752644278025 0.0521749985799194 0.0478474377841919 0.9924074 -0.08538205 0.08852923 38 38 38
0.0556741445232856 0.0535152074147727 0.0474593371022826 0.9916584 -0.01850476 0.1275581 76 76 76
0.0553828924494439 0.0520725086783644 0.0465290171196277 0.9909236 -0.1177444 0.06485908 41 41 41
0.054884207208814 0.0498219284153063 0.0452617282499476 0.972842 -0.1543099 -0.1725307 71 71 71
0.054844320208403 0.0460112979498482 0.0470635826856615 0.9799028 -0.07715473 -0.1839501 56 56 56
0.0547274263250803 0.0481459064059468 0.0456209148269015 0.9779805 -0.1287775 -0.1642269 76 76 76
0.0563160457787575 0.0581658191904679 0.0428845984315773 0.9870774 0.1570178 0.0319951 72 72 72
0.0556457843829783 0.0565704140570567 0.0410628068191713 0.9981267 0.03748729 -0.04834973 55 55 55
0.0554245105639097 0.0577136342637343 0.0393246075900652 0.9906478 0.09122575 -0.1014632 76 76 76
0.0551352531362834 0.0518856218131989 0.0441112653741031 0.9702917 -0.1729522 -0.1691793 63 63 63
0.0548972425999907 0.0520873324286322 0.0419987989293575 0.966511 -0.1951889 -0.1666067 85 85 85
0.0545499469992232 0.054653919761418 0.0393960154059278 0.9705695 -0.1781488 -0.1620428 62 62 62
0.0544021586990469 0.0520146727392377 0.0400240885510421 0.9701135 -0.1947568 -0.1447399 75 75 75
0.0558645193736989 0.0600460603069564 0.0390609701530655 0.9628612 0.2624477 -0.06339995 73 73 73
0.0546107267193308 0.0549495544794152 0.0359073458027543 0.9533956 -0.162853 -0.2539994 71 71 71
0.0536924216001404 0.0509842391601587 0.0374406277984042 0.9710374 -0.1468027 -0.1885081 53 53 53
0.0543323783401775 0.0480061735030495 0.0437895328472963 0.9769437 -0.1213764 -0.1756379 52 52 52
0.0540521389129038 0.0477139593061262 0.0420542977951965 0.9812648 -0.09939905 -0.1650429 87 87 87
0.0532943792297274 0.047892893323578 0.0372810894817623 0.9790967 -0.115895 -0.1671465 36 36 36
0.0525495075959892 0.0456841155932979 0.0340376281258229 0.9600766 -0.07901742 -0.2683452 21 21 21
0.0286633462443073 0.0824727157981184 0.0354605543580841 -0.6094682 0.7167817 0.338781 84 84 84
0.0278763534867577 0.0822715061450634 0.0338190862959453 -0.6552507 0.6930767 0.3004849 109 109 109
0.0288474011714639 0.0833641361697117 0.032374578000907 -0.6241696 0.7234452 0.2950242 59 59 59
0.0329878110163704 0.085437201896551 0.034683678892954 -0.1361591 0.9372921 0.3208492 63 63 63
0.0347496754338601 0.0862042402582721 0.0349125934879574 0.1594444 0.9500562 0.2682736 118 118 118
0.0321479305245242 0.0844920916840468 0.0344913290241328 -0.377311 0.8517504 0.363535 29 29 29
-0.00588851787201161 0.0229114132310058 -0.0169943076765931 -0.01460471 0.5098113 -0.8601623 112 112 112
0.0313275981425365 0.0838816194173522 0.0364504033934531 -0.5078064 0.7638298 0.3983676 30 30 30
0.0316869649015628 0.0862195129975183 0.0310171638515361 -0.3517545 0.9093471 0.2221634 62 62 62
0.0316001209747543 0.0860012450530416 0.0320836625577749 -0.4067573 0.8753884 0.2612347 14 14 14
0.0276357616927529 0.0804833741185045 0.0357672390497352 -0.6477478 0.6918795 0.3189445 54 54 54
0.0252470490701588 0.0778534119566345 0.0374303063604326 -0.6945392 0.64589 0.3169249 61 61 61
0.0274949003362952 0.0812651565487486 0.034415213802541 -0.6694772 0.6814293 0.2957269 105 105 105
0.0261177609931034 0.0807414127550488 0.0330287544253746 -0.7165919 0.6438274 0.2682952 80 80 80
0.0249370801981388 0.0779692721238627 0.0341297148294468 -0.7058235 0.662093 0.2518851 69 69 69
0.0298523723774329 0.0819093044817067 0.0369483767349203 -0.5799814 0.7211871 0.3788283 43 43 43
0.0299090866025091 0.0812781414296284 0.0373631336098205 -0.5724751 0.7314936 0.370391 31 31 31
0.0285793132946259 0.0841059967001361 0.0307100393474122 -0.6171209 0.7501373 0.2376044 90 90 90
0.0266239193175117 0.0822837617195902 0.0284676708514366 -0.6475078 0.7032799 0.2934809 63 63 63
0.0310618996371015 0.086318311477741 0.0283625293745908 -0.3389374 0.8902708 0.3042028 76 76 76
0.0329576758996835 0.0870971432872987 0.0292787599876531 -0.09705178 0.9778848 0.1852629 152 152 152
0.0262822705398875 0.0814990503438977 0.03040876537999 -0.6948336 0.6581611 0.2898796 57 57 57
0.0253777462067397 0.0806181624783731 0.0299055216565329 -0.7124006 0.6343009 0.3002462 106 106 106
0.025054212557555 0.0809985304729668 0.0281660958007692 -0.6762787 0.6608238 0.3255133 56 56 56
0.0257715119194262 0.0823094887779725 0.0283748167708921 -0.6852915 0.6576769 0.3127885 71 71 71
0.0218301461969492 0.0777259100735541 0.0279136652628242 -0.6664779 0.6617804 0.3432986 36 36 36
0.0218455178010513 0.0752295034007384 0.0353370273419428 -0.7067443 0.6427439 0.2956227 104 104 104
0.0209351274201994 0.0730951535377862 0.0358925359264365 -0.7012988 0.6217303 0.3487569 75 75 75
0.0213409711813712 0.0719534944966409 0.0391938985698094 -0.7122797 0.6127775 0.3422884 27 27 27
0.0198235157467876 0.0710418067433924 0.0369213138310353 -0.6869456 0.6317718 0.3591242 98 98 98
0.0189600428370489 0.0700141167273352 0.0372867226331094 -0.6833439 0.646934 0.3384042 80 80 80
0.0172519059491751 0.0677270983895972 0.0398576226148654 -0.6682773 0.6800253 0.3016139 57 57 57
0.0159423244753203 0.0667944446542503 0.0380980886122839 -0.6607689 0.686587 0.3032866 37 37 37
0.0154898195599649 0.0687293022699891 0.0342161646269758 -0.6730269 0.6376615 0.37473 54 54 54
0.0219614461537554 0.0757139096838848 0.0325932562975159 -0.6809626 0.6826075 0.2652111 59 59 59
0.0186007496980172 0.0726598680273531 0.0330293158102998 -0.6683572 0.6431763 0.3736616 64 64 64
0.0185107963267392 0.0731955643460982 0.031518941060826 -0.6667547 0.6520868 0.3608614 51 51 51
0.0198441603252149 0.0758336835337345 0.0290029879837305 -0.6447947 0.6974518 0.3127311 33 33 33
0.0218177704955034 0.0770531949066855 0.0293193607272608 -0.650811 0.6870498 0.3231215 43 43 43
0.0182253356005928 0.0733306678116616 0.0295929182125351 -0.6504126 0.6868695 0.3243049 22 22 22
0.0167721419683731 0.070673719603622 0.0325134567837508 -0.6797124 0.6221733 0.3884475 27 27 27
0.0164719033922971 0.0718899227683403 0.0305933657989985 -0.6887333 0.6293632 0.3599283 52 52 52
0.0233287678272367 0.0773401834205225 0.0326047825474553 -0.6941867 0.6718654 0.2582666 80 80 80
0.0246646655985754 0.0827663476127374 0.0245972551121071 -0.6177119 0.7229356 0.3095096 65 65 65
0.0235313978399354 0.0838378894892606 0.0210892951558176 -0.5923488 0.8051323 0.02974707 27 27 27
0.0285584496149749 0.0873283655374528 0.0208295585137301 -0.3190146 0.9036516 -0.2857333 111 111 111
0.0296648635941605 0.0867825085501959 0.0201100550251427 -0.2241052 0.7859583 -0.5762347 112 112 112
0.0316504558908153 0.0851992249613105 0.0190754049038686 0.006774234 0.6435238 -0.7653961 111 111 111
0.0238101927052083 0.0812691349807417 0.0266020404419415 -0.6549727 0.6549873 0.3768319 70 70 70
0.0219865726580215 0.0809690923794026 0.0235941494718931 -0.6907607 0.6613108 0.2924342 30 30 30
0.0214144754621546 0.0828857189727106 0.0182635813855394 -0.4129922 0.8321814 -0.3700156 60 60 60
0.0230153559238953 0.0828399489993055 0.0177559918936389 -0.2278172 0.771604 -0.5939079 114 114 114
0.0222888039044209 0.0815852811527427 0.016812237112177 -0.1120992 0.6482096 -0.7531653 114 114 114
0.0209017839677665 0.0806382855508787 0.0167076326594701 -0.08258145 0.5426221 -0.8359076 98 98 98
0.0261174993923863 0.0798649883650289 0.016099758642561 -0.01311919 0.5040076 -0.8635996 136 136 136
0.0281625642352168 0.0776392616054118 0.0148127828084272 -0.01613006 0.5106025 -0.8596656 133 133 133
0.0272138791509628 0.0772133094498801 0.0143861529862123 -0.02066547 0.5100423 -0.8599011 116 116 116
0.030093717261471 0.0771009733125416 0.0142980296192571 -0.01450618 0.5136591 -0.8578717 126 126 126
0.0200233414434456 0.0770385231853157 0.0263812183164719 -0.658316 0.6602107 0.3615825 41 41 41
0.0186915150377982 0.0764195245989605 0.0250799375163497 -0.6670275 0.6619449 0.3419113 46 46 46
0.0175956668153807 0.0752548200556797 0.0255836037662706 -0.6644641 0.6766583 0.3172083 12 12 12
0.0171535391858644 0.0751410945056847 0.0245653424785576 -0.6676394 0.6723536 0.3196846 31 31 31
0.0164480912345755 0.0743670427444416 0.0250342964185403 -0.6623436 0.6873711 0.2980301 17 17 17
0.0156760428084484 0.0740509137169083 0.0234380899760699 -0.6883571 0.6589673 0.303194 30 30 30
0.0141231793183723 0.0703437659845132 0.0288568359300898 -0.6889117 0.6363639 0.3470471 64 64 64
0.0127059658977959 0.0710035975255547 0.0239614127142753 -0.694685 0.6522018 0.3033902 49 49 49
0.0140751591006225 0.0712130301610625 0.0263667881290323 -0.6920267 0.6567656 0.2995964 96 96 96
-0.0286585031903894 0.0371252370794377 -0.00826119613425119 -0.170874 0.5571951 -0.8126104 97 97 97
0.0134143053026463 0.0739753873489597 0.0188531746188338 -0.6181782 0.7714224 0.1508749 40 40 40
0.013910478681987 0.0750157631531903 0.0174990588538075 -0.646196 0.7626043 -0.02941807 41 41 41
0.00958878507213345 0.0684258644960558 0.0214688688273016 -0.6881989 0.6489328 0.3244511 58 58 58
0.00876955503904364 0.0690681159838731 0.019381131455783 -0.6765225 0.6644199 0.3175901 32 32 32
0.0364794714366115 0.0850093130828198 0.0357123658895557 0.4612466 0.8600864 0.2179517 78 78 78
0.0371908008799791 0.0838228878728506 0.0341516806180597 0.6017915 0.7829954 0.1573694 41 41 41
0.0379497522739021 0.0832728331744959 0.033995851247736 0.6583799 0.7397162 0.139125 42 42 42
0.0400154522271969 0.0812520780737962 0.0327472092333216 0.7447738 0.6629003 0.07664984 59 59 59
0.0362756950984378 0.0852290014842911 0.0330106574769055 0.5376012 0.8342845 0.122288 47 47 47
0.0376681273352393 0.0841166803305435 0.0320330916679747 0.6746898 0.7312559 0.1002917 40 40 40
0.0363203997928045 0.0852471454171229 0.0303348246193184 0.5877607 0.7979313 0.1335778 29 29 29
0.0382019155236781 0.0832687164115395 0.0315802546490031 0.7079099 0.7017844 0.0797637 33 33 33
0.039524875462138 0.0818583138845554 0.031966279343055 0.7449723 0.6639154 0.0650583 52 52 52
0.0449005892598917 0.0753449201611807 0.0331081941079791 0.7747981 0.6321889 0.005020363 69 69 69
0.0455709085496343 0.0743898174159832 0.0346319209115644 0.7681339 0.6402275 0.0088916 76 76 76
0.044727596233459 0.0755936746072143 0.0308600056683432 0.7812269 0.6240861 0.01417736 75 75 75
0.0447176165823588 0.0753590545402443 0.0288275574472087 0.7865038 0.6174722 -0.01182832 74 74 74
0.0355419387933638 0.0864516487836038 0.0282367635094802 0.4623231 0.8754496 0.1408734 82 82 82
0.0364274213145794 0.0856687151808753 0.0272259975150399 0.568635 0.8016165 0.1845674 83 83 83
0.0380287653266249 0.083398120300058 0.0267361788541509 0.7688292 0.6304706 0.106811 80 80 80
0.0384562052537416 0.0830439753238081 0.026616196593449 0.7690395 0.6311972 0.1008384 79 79 79
0.041490131896988 0.0797406523200721 0.028987101689466 0.7691443 0.6381749 0.03390979 62 62 62
0.040333141099266 0.0815531624186849 0.0249258687116096 0.7724379 0.6278607 0.09555437 55 55 55
0.0414134377628717 0.079703327874739 0.0276840378888485 0.7693719 0.637049 0.04728192 74 74 74
0.0417837168061683 0.0793483468808336 0.0282645821346505 0.7708842 0.635802 0.03864476 80 80 80
0.0436298069397529 0.0771861538956069 0.0268069940317834 0.8017916 0.5971512 0.02325271 72 72 72
0.0443151969850786 0.0760576439487195 0.0268825546353517 0.7929639 0.6089182 0.02065764 91 91 91
0.0428410787237317 0.0783493242040565 0.0238532530194182 0.8102184 0.5828191 0.06219351 93 93 93
0.0432520254647839 0.0776557049209827 0.0242254343320595 0.8149489 0.5766721 0.05751154 69 69 69
0.0457053542172541 0.0739955498986202 0.0281760761286349 0.7773052 0.6290944 -0.006068317 26 26 26
0.045949935239491 0.0743040049434522 0.0269287585422879 0.7863005 0.6177507 0.01075151 42 42 42
0.0452021302698751 0.0751741002016277 0.0225471850626839 0.7957549 0.6029057 0.05726159 54 54 54
0.0440624378059873 0.0754825215295847 0.0239057604711378 0.8005313 0.5976552 0.04424679 21 21 21
0.0469811008406316 0.0728147506606909 0.0238097133355197 0.7649472 0.6422468 0.04873092 67 67 67
0.0483701117295947 0.0707039886288692 0.0325077734649274 0.8148444 0.5795295 0.01319611 64 64 64
0.0472957256349664 0.0722071796711063 0.0299326850300816 0.7960568 0.6051549 0.00900572 68 68 68
0.0474937786856087 0.0725791609356123 0.0288769075368768 0.7944651 0.6072913 0.004733178 60 60 60
0.0496404857110111 0.0690276752125862 0.0303081695301732 0.8081325 0.5881975 0.03075133 74 74 74
0.0509207452569909 0.0671748954925 0.0324692599647315 0.8170382 0.5763806 0.0152938 71 71 71
0.0508439095827171 0.0675139536166476 0.0298334179369332 0.8337449 0.5515633 0.02544418 70 70 70
0.051282094498617 0.0664637871745815 0.0299004563067826 0.8541377 0.5195693 0.02228029 63 63 63
0.0503566248792682 0.0681358810166659 0.0282353682235794 0.8141084 0.578391 0.05187875 55 55 55
0.0543147635708046 0.0623340227641165 0.0325626740854503 0.9425213 0.2580384 -0.2122965 55 55 55
0.0535625750506594 0.0614693063254996 0.031984461970492 0.9593635 0.1180794 -0.2562789 92 92 92
0.0532046361539775 0.0637443869572294 0.0294809972758627 0.9606146 0.242909 -0.1349622 75 75 75
0.0527333253293323 0.0636789494071686 0.0275016771409284 0.9729122 0.07007691 -0.2202976 85 85 85
0.052524417377346 0.0619651745607401 0.0292125726680687 0.9734367 0.04569818 -0.2243496 65 65 65
0.0481085257011515 0.0710942370525791 0.026075323094548 0.7861325 0.6171157 0.034115 49 49 49
0.0508315505291295 0.0677880868154144 0.0259450635833902 0.8476093 0.5306209 4.281484E-05 50 50 50
0.0526659575899608 0.065986096614594 0.0254027361250828 0.9688844 0.181693 -0.1680794 62 62 62
0.0516379313048709 0.0669301979128887 0.0254870531966673 0.8980145 0.4342419 -0.07073857 25 25 25
0.0506906194014904 0.0684159310760732 0.0230860669355423 0.8690695 0.4938282 -0.0291885 59 59 59
0.0515203798928594 0.0673942336901858 0.0220058870138943 0.9494287 0.2882114 -0.1245762 90 90 90
0.0515285219639949 0.0659426142579596 0.021609468889121 0.9702185 0.04530067 -0.2379575 72 72 72
0.0521008488663535 0.0661784071388551 0.0267012128383248 0.9353291 0.3534284 -0.01574255 53 53 53
0.0523078866999627 0.0641368790461174 0.0251362404665256 0.9793878 0.006483329 -0.2018848 21 21 21
0.0522458587032566 0.0608874247350173 0.0278286606083584 0.9363192 -0.1658439 -0.3095193 45 45 45
0.0512861608894339 0.0613014477567997 0.0255186500349393 0.9429658 -0.1832452 -0.277915 54 54 54
0.0514767387613562 0.0635464519258113 0.0233607749580542 0.9594574 -0.09505516 -0.2653413 39 39 39
0.0504726315899093 0.0603701520884685 0.0234127527209648 0.9366851 -0.2135958 -0.2774848 38 38 38
0.0505278945400924 0.0610694200661352 0.0229066688591001 0.9333327 -0.1937706 -0.3022301 67 67 67
0.0383101695046557 0.0839996076184886 0.024143007788733 0.7707152 0.6258869 0.1194308 61 61 61
0.037788694970827 0.0857306982607182 0.0212204904524912 0.5507041 0.7883721 -0.2742161 61 61 61
0.0388023896763103 0.0840500117539722 0.022026096159343 0.7198875 0.6886291 -0.0869022 40 40 40
0.0336664662754051 0.0859698812889624 0.0193253626616185 0.1378233 0.7232949 -0.6766456 102 102 102
0.0376079144259527 0.0839563482838386 0.0181831777934278 0.3059689 0.7227299 -0.6197132 90 90 90
0.036454045897357 0.0840466363568446 0.0183528476120164 0.1168799 0.6678429 -0.735068 109 109 109
0.0397963399372903 0.0825355820769385 0.0228783357992334 0.7757242 0.6197411 0.1190499 44 44 44
0.0412848616054475 0.080746070944784 0.0224469174031962 0.7790891 0.6179949 0.1053683 39 39 39
0.041008646412501 0.0821459865159466 0.0183346764324037 0.6460605 0.729932 -0.2231704 32 32 32
0.043197717136072 0.0784015445073811 0.0224515882864861 0.8201805 0.5634189 0.09931347 30 30 30
0.0427620765038847 0.0788571543860528 0.0209158228801726 0.801921 0.5930492 0.0722174 27 27 27
0.0436860056028876 0.0779539425068279 0.0202295719526432 0.8185945 0.5657455 0.09917195 53 53 53
0.0432331799607812 0.0778731678336635 0.0193736730183211 0.8220577 0.5682291 0.03656345 53 53 53
0.0340940160745031 0.0833339844945511 0.0176377907383062 0.006380433 0.5483341 -0.836235 114 114 114
-0.0182826744469637 0.0390017787583912 -0.00729907942475699 -0.01713126 0.5102018 -0.8598841 91 91 91
0.0348205615542434 0.0819447977034777 0.0171126030219605 -0.008916833 0.5195325 -0.8544042 119 119 119
0.036780923831496 0.0821419663776981 0.0171766322939002 0.07171404 0.5810862 -0.8106762 95 95 95
0.0362070424300782 0.0803343153110323 0.0160188353703645 0.01583546 0.5268401 -0.8498169 126 126 126
0.0411441390081642 0.0815846953536481 0.0172158459854336 0.5643026 0.6696316 -0.4828625 64 64 64
0.0386143926418048 0.0807545651661774 0.016327988888807 0.1649691 0.535066 -0.8285466 127 127 127
0.0433344418580441 0.0793926286805797 0.0161768070699768 0.5978959 0.7130567 -0.3661565 55 55 55
0.0352815960720552 0.0801286322367478 0.0163233663261039 -0.006117098 0.5134429 -0.858102 113 113 113
0.0318627033351579 0.0788398469707172 0.0153201410479226 -0.02104815 0.511847 -0.8588187 124 124 124
0.0359326759265213 0.0779685251632494 0.0148148745348628 -0.007944584 0.5091173 -0.8606605 120 120 120
0.0354741001441483 0.076001415485192 0.0136153128189853 -0.003573057 0.5106762 -0.8597657 98 98 98
0.0331729940269043 0.0758011534913645 0.0134775515536269 -0.009950766 0.5081335 -0.8612208 128 128 128
0.0392706755925505 0.0772602551479824 0.0143141960797175 0.0350931 0.5360613 -0.8434494 157 157 157
0.0374579028824362 0.0752724059156014 0.0132129213946363 -0.0128243 0.5090638 -0.8606333 94 94 94
0.0382489281425284 0.0734695850118487 0.0120424662392219 -0.01103152 0.5078098 -0.8613986 100 100 100
0.0392133649642594 0.0755427261272092 0.0132758888095785 -0.01451281 0.5062709 -0.8622524 100 100 100
0.0447234251083977 0.0761901870353514 0.0201508861627683 0.8142361 0.5649524 0.133598 58 58 58
0.0463633653843822 0.074021009615983 0.0199814702531686 0.7730496 0.6250123 0.1084155 80 80 80
0.0479750637649961 0.0722313824329286 0.0199637007141697 0.7989975 0.5995768 0.04594271 49 49 49
0.0444322935221728 0.0771372727158879 0.0173219913829831 0.7903522 0.6114484 -0.03839497 25 25 25
0.0463818693925826 0.0744294762989386 0.0183610406720329 0.793346 0.6032117 0.08208354 52 52 52
0.0458445839065744 0.0750032267788321 0.0172331276027037 0.7881782 0.61507 0.02154077 30 30 30
0.0442728674714017 0.0783563896697352 0.0157815074646989 0.6919273 0.6619615 -0.288173 39 39 39
0.0455821962929246 0.0759236320758994 0.014123401631598 0.5865047 0.6557018 -0.4754656 82 82 82
0.0452218931009067 0.0746150646979837 0.0124372314053537 0.4161113 0.6010453 -0.6823459 89 89 89
0.0436199855917971 0.0739557369214576 0.0121532240682269 0.1919295 0.5847802 -0.7881594 140 140 140
0.0427764570239786 0.0733115879581259 0.0120020195176277 0.08381037 0.570128 -0.8172697 108 108 108
0.047725165551078 0.0735028912742954 0.0138485497649507 0.810232 0.4612378 -0.3616403 75 75 75
0.0470363448310676 0.0739506988382701 0.0124653578747533 0.6691408 0.5242602 -0.5266895 65 65 65
0.0474293522736451 0.072614651292388 0.0117669740944159 0.714889 0.3929638 -0.5783711 74 74 74
0.0499302827700099 0.0702081170972437 0.0198855238031649 0.8543564 0.5180594 -0.041104 67 67 67
0.0505450667006673 0.0664979619483252 0.020504606636851 0.9486454 0.03984285 -0.3138222 90 90 90
0.0491184589188807 0.0697330899940594 0.0159591440029809 0.9514426 0.1221043 -0.2825731 55 55 55
0.0497319195784574 0.068078258941793 0.0178543657475225 0.946129 0.1221548 -0.2998634 81 81 81
0.0493072374757397 0.0663999763856757 0.0175666280770618 0.9245548 -0.05238613 -0.3774311 58 58 58
0.0505288244691107 0.0678794668111051 0.0178152291080877 0.9432684 0.088907 -0.3199068 99 99 99
0.0499694353081992 0.0634969970482968 0.0197177434491382 0.9176022 -0.1460256 -0.3697062 40 40 40
0.0509191101898701 0.0638650103627973 0.021425165036583 0.958859 -0.07669555 -0.273326 66 66 66
0.0499676454923774 0.0599853972276503 0.0218135069782079 0.9434819 -0.1741284 -0.2819951 26 26 26
0.0498961896029142 0.0612613279522358 0.0197265888430295 0.9305896 -0.1458281 -0.3357635 40 40 40
0.0488002080670884 0.0636758576489844 0.0173442284947946 0.920076 -0.1032783 -0.3778806 71 71 71
0.0487866400815036 0.0624885901855963 0.0174145566917773 0.9264458 -0.1075989 -0.3607224 38 38 38
0.0488094027306181 0.0713077417792769 0.0151561302835843 0.9179754 0.2798797 -0.2810488 56 56 56
0.0485464815105701 0.0717753364293483 0.0146682555025634 0.8707791 0.3508966 -0.3444059 88 88 88
0.0481612485005396 0.0700341223837484 0.0136461587770428 0.9103442 0.1195399 -0.3962115 60 60 60
0.0478196082830111 0.0674962596625044 0.0142628973689795 0.9218197 -0.04318742 -0.3852054 48 48 48
-0.0032295839268679 0.00372513190359025 -0.0281331223823003 -0.02049053 0.5146456 -0.8571581 147 147 147
0.0479774502233692 0.0656497963756417 0.014427997683666 0.9360656 -0.09614442 -0.3384338 49 49 49
0.0473165245940068 0.0677428838064447 0.0120861046179974 0.8901621 0.04542582 -0.453374 67 67 67
0.0483529326769956 0.0644486787326672 0.0156898771003988 0.9256068 -0.09408498 -0.3666062 47 47 47
0.0482858490875091 0.0626098105195887 0.0158512315351939 0.9241222 -0.1032789 -0.3678744 45 45 45
0.0479163369723361 0.0620074060252438 0.0149432187646307 0.9394203 -0.07595007 -0.3342468 52 52 52
0.0475851714125071 0.0640868538066777 0.013656872414202 0.9531898 -0.06804248 -0.2946174 45 45 45
0.0472474838171926 0.0623830959737333 0.0128550442382131 0.9564473 -0.06310885 -0.2850014 48 48 48
0.0472138192894676 0.0606447303749331 0.0128473078669817 0.9606584 -0.0666242 -0.2696231 36 36 36
0.0143233996543772 0.065099749762451 0.037928253193822 -0.6778263 0.6778855 0.284645 24 24 24
0.0133661299097043 0.0632970312469274 0.040808703901203 -0.6695473 0.6716619 0.3171383 89 89 89
0.0121718614079995 0.062305164117282 0.0398562470432428 -0.694986 0.6552792 0.2959791 59 59 59
0.0142028295760923 0.0651876126489659 0.0374435298551727 -0.6789954 0.6750876 0.2884823 45 45 45
0.0144584641733738 0.0663550080831021 0.0364312821926464 -0.6845096 0.6673154 0.2934907 35 35 35
0.0130867179042395 0.0646906328595869 0.0365592347057064 -0.6907914 0.663817 0.2866253 52 52 52
0.0114748363965012 0.0630341399231564 0.0373990223931415 -0.6918183 0.6630892 0.2858324 64 64 64
0.0105509170433336 0.0616236545970865 0.0390703991042535 -0.6946398 0.6542582 0.2990346 68 68 68
0.00923459184450959 0.0594723338225662 0.0411051825778307 -0.7268825 0.6098455 0.3158011 51 51 51
0.009094221883438 0.0586569990018775 0.0381116460365118 -0.7116032 0.6328385 0.3051824 35 35 35
0.0143490460006723 0.0670419775804685 0.0346688955189944 -0.6802298 0.6492869 0.3401674 57 57 57
0.0131927978159525 0.06688026277732 0.0321075850510155 -0.6922908 0.6228495 0.3644063 56 56 56
0.0107816702740458 0.0630960923300139 0.0347693851860195 -0.6981488 0.6534404 0.2925814 84 84 84
0.0116690712405849 0.0671016775202229 0.0290796262296464 -0.7040974 0.6215779 0.3433479 51 51 51
-0.065580368667443 -0.0172743352634479 -0.00441710394752542 -0.8479416 0.5206982 -0.09933986 42 42 42
0.00887220253320731 0.0626349220044877 0.0311598463662756 -0.6854137 0.64558 0.3368005 62 62 62
0.0101837689504309 0.0621277017060315 0.0350837054703363 -0.6911212 0.6601887 0.2941128 63 63 63
0.00908133534445987 0.061663565639728 0.0339892970945387 -0.6980926 0.6476273 0.3053614 60 60 60
0.00751967318327473 0.0593120243891436 0.0357750613558518 -0.7348902 0.6197389 0.2754273 70 70 70
0.00745418123223196 0.0610071323995103 0.0327673136992354 -0.7182287 0.6239615 0.3079278 76 76 76
0.00745813377655891 0.0597778837113976 0.032973074089289 -0.7235647 0.6234773 0.2961929 23 23 23
0.00743451950572815 0.0615608151843825 0.030484651656301 -0.6918103 0.6287529 0.3550609 35 35 35
0.00890714637181267 0.0652720536571139 0.0271502251666049 -0.6844667 0.6454428 0.3389823 46 46 46
0.0107461182961606 0.0674281376104793 0.02743108788709 -0.7046674 0.6249824 0.335918 51 51 51
0.00771234966912893 0.0641995550213841 0.0277857892759938 -0.6816652 0.6427892 0.3495061 64 64 64
0.0086377190959861 0.0664817006425593 0.0233850785596281 -0.6893408 0.6486741 0.3225386 78 78 78
0.00756093028009719 0.0657577008006982 0.022681472609674 -0.6801782 0.6552315 0.3286781 65 65 65
0.00631898150748533 0.0677483487875168 0.0176941295766781 -0.6797995 0.6578012 0.3242997 62 62 62
0.00774684283042415 0.0674604546111366 0.0197641987418866 -0.6754192 0.6586393 0.3316673 13 13 13
0.00562850973749995 0.0654931110260579 0.0195554904292272 -0.6812993 0.6514732 0.3337873 57 57 57
0.053139226366187 0.0575153391053635 0.0317688902892503 0.9131088 -0.1204701 -0.3895116 74 74 74
0.0530082397888112 0.060057819506927 0.0312410771362763 0.9369478 -0.06683336 -0.3430191 96 96 96
0.0524007315677584 0.0565861644468175 0.0313272436115836 0.9088496 -0.1155655 -0.4007954 94 94 94
0.052353801652524 0.0592633412058479 0.0301143424989489 0.9168886 -0.1138413 -0.3825644 71 71 71
0.0516806395442777 0.0560627684050659 0.0280696416346228 0.9286024 -0.09750377 -0.3580372 48 48 48
0.0529098618093551 0.0542951305443753 0.0322045748439072 0.9221804 -0.0990481 -0.3738621 105 105 105
0.0525376766704984 0.0521086266715314 0.0318741178419144 0.9370871 -0.1127454 -0.3303881 85 85 85
0.0519953783876224 0.0544141077248497 0.0301099093172043 0.9221267 -0.09205981 -0.3757758 65 65 65
0.0516783377232914 0.0515862712022106 0.0298383153732921 0.9285678 -0.08867835 -0.3604135 80 80 80
0.0512961478731166 0.0526361038854934 0.0284348558655682 0.9329119 -0.08462577 -0.3500198 31 31 31
0.0514381371020995 0.049009289964576 0.0307049166176303 0.9317686 -0.08247216 -0.3535614 103 103 103
0.0513420478232236 0.051578427723644 0.0294572745984513 0.9300687 -0.08496002 -0.3574269 26 26 26
0.0506629156595144 0.0490624442594279 0.0282288406030386 0.9283105 -0.0485859 -0.3686177 88 88 88
0.0508720800402314 0.0595756506392162 0.0261157462496253 0.9348613 -0.1975039 -0.2950026 52 52 52
0.0506053790713161 0.0559619792129495 0.0259288051661663 0.9416433 -0.1112294 -0.3177042 77 77 77
0.049854325470247 0.0575317699699587 0.0239606610477507 0.9470273 -0.1676029 -0.2739497 44 44 44
0.0495940577759155 0.056112522269063 0.0236793499658409 0.9412389 -0.1456142 -0.3047391 63 63 63
0.0508185624615538 0.0515590375496793 0.0263948160643432 0.9305496 -0.09897087 -0.3525368 65 65 65
0.0494657246811121 0.0522638315686275 0.0241995063310087 0.9298664 -0.1100033 -0.3510666 103 103 103
0.0489795990928719 0.0504158037731852 0.0242061850623582 0.9316294 -0.09464785 -0.3508682 109 109 109
0.0518956033759936 0.0438502207399465 0.0324685027301811 0.9625431 -0.02391724 -0.2700719 42 42 42
0.0513456515376274 0.0481545498526776 0.0302781713381157 0.9364836 -0.07133898 -0.3433792 90 90 90
0.0508766018353461 0.0485097158037429 0.0289114937789671 0.9267439 -0.0452918 -0.3729537 37 37 37
0.05146140795937 0.0452255627503282 0.0294594305156117 0.9487983 -0.02070877 -0.315203 47 47 47
0.050738011794202 0.0418716588635355 0.028300693876794 0.9576139 -0.001564665 -0.2880504 72 72 72
0.0502247214938238 0.0462028845061375 0.0273751901583483 0.9403366 -0.007357908 -0.3401661 51 51 51
0.0500486343057238 0.0446534843267925 0.0265400945957576 0.9421061 0.02484673 -0.334393 96 96 96
0.0482939528869886 0.0480643588241281 0.0222785381618379 0.9533453 -0.01118279 -0.3016747 73 73 73
0.0495845691169707 0.0438244586603804 0.0244584694887115 0.9415277 0.05214169 -0.3328765 88 88 88
0.0486377370271649 0.0439270418711877 0.0226882497695537 0.9466416 0.07295559 -0.3139221 59 59 59
0.0357819651246452 -0.0420679626939455 -0.0433077035126111 0.9629705 -0.2152993 0.1622775 39 39 39
0.0490693910935369 0.0417199052101267 0.022540168834471 0.9522914 0.03674266 -0.3029704 38 38 38
0.0490479673092157 0.055607066027606 0.0219751056315804 0.9488373 -0.1658128 -0.2687266 66 66 66
0.0490767503857059 0.0575372532530596 0.0207616555267384 0.947681 -0.1501755 -0.2816879 15 15 15
0.0484796730780608 0.0595543103947598 0.0173422950026751 0.9340169 -0.1192535 -0.3367359 60 60 60
0.0487866255809175 0.0574541561819968 0.018316287074187 0.9462879 -0.1446607 -0.2891581 34 34 34
0.0487934132857832 0.054795164641652 0.0191179504261105 0.9537418 -0.1423997 -0.2647621 40 40 40
0.0484119785274708 0.0564103184893272 0.0180105452353331 0.9480407 -0.1426485 -0.284377 35 35 35
0.0493698178694575 0.0534028568917913 0.0225757197910501 0.9417496 -0.1278668 -0.3110591 89 89 89
0.0489693147254777 0.0541364897671441 0.0212121775238003 0.9468994 -0.1498766 -0.2844618 78 78 78
0.0482514917237267 0.0518243315114766 0.0207115369522066 0.9560075 -0.1214155 -0.2670356 64 64 64
0.048278926343464 0.0491755554647499 0.0224219106369218 0.9481443 -0.04901346 -0.3140383 69 69 69
0.0476647926922342 0.0534158461946836 0.0188959844764149 0.9553135 -0.1325386 -0.264215 72 72 72
0.0476745205789535 0.0519652003062545 0.0186755194288661 0.961144 -0.109501 -0.2534005 55 55 55
0.0476601059682684 0.0504936125352564 0.0182607400549159 0.9705761 -0.07985574 -0.2271675 59 59 59
0.0472038440165821 0.0499695430594225 0.0166395425994576 0.9758521 -0.05231122 -0.2120761 52 52 52
0.047541248051671 0.0601758082244388 0.0155762851602105 0.9384757 -0.08961839 -0.3335145 55 55 55
0.0475784245218458 0.0555171826024916 0.0161376290938612 0.958155 -0.1026698 -0.267204 97 97 97
0.0466686390640678 0.057991537731138 0.0125388425493082 0.981524 -0.052652 -0.1839523 57 57 57
0.0469360674732751 0.0577460393861335 0.014033442906189 0.9680909 -0.08796871 -0.2346518 55 55 55
0.0468600727597339 0.0549440342036431 0.012811639432849 0.9870981 -0.07003903 -0.1439855 72 72 72
-0.0778225406686244 -0.0342827457936965 -0.0226761504063864 -0.9941138 0.1074661 -0.01373876 65 65 65
0.0471979073855615 0.0545152533837532 0.0145492605333568 0.9711351 -0.08568452 -0.2226091 61 61 61
0.0476521585485079 0.0542764386736818 0.0163534343240609 0.9619529 -0.1038723 -0.2526996 58 58 58
0.0473306195139349 0.0510746412249292 0.0168406268016658 0.9696959 -0.07211092 -0.2334307 81 81 81
0.046487766469522 0.0537433376020278 0.0132256679202882 0.9857938 -0.07031216 -0.1525346 49 49 49
0.046437294571942 0.0524576529222076 0.0139485468727482 0.9774458 -0.06436879 -0.2011379 32 32 32
