ply
format ascii 1.0
comment File exported by Rhinoceros Version 7.0
element vertex 461
property float x
property float y
property float z
property float nx
property float ny
property float nz
property uchar red
property uchar green
property uchar blue
end_header
0.00754551575205875 -0.116360915405077 -0.0276372775031377 -0.05648962 0.004831406 -0.9983915 194 194 199
-0.00979397119746528 -0.132832716210468 -0.0266759320223323 -0.05588233 -0.007305526 -0.9984106 192 192 196
0.00236863797040243 -0.12570311503263 -0.0272798630899871 -0.06004046 0.008154081 -0.9981626 226 224 230
0.00400422337366013 -0.131989716061908 -0.027091950123392 -0.05467974 0.004018851 -0.9984959 198 202 198
0.00890628302969043 -0.130373183334349 -0.0275566706084908 -0.0565919 0.002187591 -0.998395 187 190 191
0.0191680043496247 -0.0874665532333125 -0.0280683864459542 -0.05208414 0.004159105 -0.998634 208 210 217
0.0193844918195971 -0.0914050171921638 -0.028027994354373 -0.05498936 0.0036807 -0.9984801 193 196 203
0.0230006513857774 -0.0893643067056358 -0.0282182310466926 -0.04896887 0.003932078 -0.9987926 187 189 190
0.0308429735716986 -0.0885291255411214 -0.0285879163197287 -0.05882277 0.005612466 -0.9982527 188 187 189
0.0132472757552327 -0.0997214585098109 -0.0278844282694488 -0.06162648 0.005061754 -0.9980865 237 237 244
0.0180609386039183 -0.0989820657193503 -0.0279616934938262 -0.04253067 0.002262671 -0.9990926 210 211 214
0.0120521966942504 -0.106361900355806 -0.0276312482702313 -0.04736007 -0.005197162 -0.9988644 192 190 194
0.0226040079495649 -0.107563191915618 -0.028348878843398 -0.05357154 0.002885697 -0.9985598 226 226 231
0.0253212824706117 -0.0984633931922238 -0.0283794623482397 -0.05374688 0.001840103 -0.9985529 193 193 193
0.0301032890012349 -0.0987280045477779 -0.0286561623371106 -0.04749727 0.006359786 -0.9988511 185 186 187
0.0279388884055627 -0.10297919568293 -0.0284438039807976 -0.05288133 0.00453042 -0.9985905 183 185 187
0.0307569275633242 -0.105052108643538 -0.0288131216864703 -0.05872906 -0.001311081 -0.9982731 191 187 190
0.0408801280786748 -0.0876143708270929 -0.029143865198888 -0.04816274 0.00511487 -0.9988264 185 186 184
0.039559867971521 -0.0900717406735007 -0.0291829277941617 -0.05259167 0.00367576 -0.9986094 182 183 183
0.0412979752066853 -0.0936882974698562 -0.0292147013479992 -0.0573567 0.002395175 -0.9983509 180 180 181
0.0501988330939529 -0.0827947561330288 -0.0295792769069975 -0.05630703 0.002008841 -0.9984115 185 185 183
0.0548453788269407 -0.0869529712936545 -0.0299223989311758 -0.04976163 0.002818291 -0.9987571 186 186 190
0.0550123733775711 -0.0884211949806901 -0.0298996363310348 -0.04767856 0.003527173 -0.9988565 187 188 189
0.0417605105483076 -0.0982645094046748 -0.0292693808799097 -0.05885814 0.01258834 -0.998187 187 188 188
0.0407477092748039 -0.101870461589832 -0.0297308255282593 -0.04910553 0.003865507 -0.9987861 181 181 182
0.0502662156755442 -0.0988556528130322 -0.0297430356515896 -0.0542103 -0.002387966 -0.9985267 188 187 190
0.0560355582935061 -0.0959849800304081 -0.0300291647561243 -0.05948768 0.003516051 -0.9982228 191 190 191
0.0465666646108072 -0.104539884477916 -0.0298724964556152 -0.04329146 0.01069613 -0.9990052 190 190 192
0.0187984709416584 -0.110315353171625 -0.0280510006732724 -0.06546255 -0.005036634 -0.9978423 227 227 233
0.011979173431675 -0.116154566175417 -0.0277414320284861 -0.05110031 0.006882928 -0.9986698 189 191 188
0.0189266969132484 -0.118068731247052 -0.028058775778925 -0.05963334 0.007231804 -0.9981942 221 222 230
0.0522850072108056 -0.128907145830455 -0.0300340893948158 -0.05291056 0.01063811 -0.9985426 184 187 189
0.0307406852348207 -0.111114665130195 -0.0287734425776751 -0.05442357 0.0007773257 -0.9985176 192 192 193
0.0323583684834627 -0.116787284800539 -0.0289805050371778 -0.04846008 0.01305476 -0.9987398 182 185 187
0.0180699472167425 -0.122140401219021 -0.0281366944768146 -0.05366308 0.004245843 -0.9985501 218 217 223
0.0221715267066651 -0.125677202879009 -0.028391857800138 -0.04610034 0.005548388 -0.9989214 191 190 191
0.0270031269546624 -0.120816686342012 -0.0285692050166829 -0.05312111 -0.005043351 -0.9985753 188 190 187
0.0306967914399912 -0.122083789155979 -0.0287363887939837 -0.05351611 0.003479785 -0.9985609 186 188 188
0.0291738719327266 -0.130881673567974 -0.028802153259866 -0.06032811 0.009188994 -0.9981363 184 187 186
0.0345779410760714 -0.110468504179104 -0.0288398923288358 -0.05315806 -0.0008554665 -0.9985858 186 186 187
0.0407844080430144 -0.109216469513716 -0.0291960373969318 -0.06353647 0.004844003 -0.9979678 189 189 189
0.040785131038608 -0.112136847923483 -0.0291296090187219 -0.0584193 -0.009561961 -0.9982463 187 189 191
0.0390458176742259 -0.117527964315008 -0.0292716989186494 -0.04584138 0.01615454 -0.9988181 183 183 183
0.0452816379251706 -0.114843071809348 -0.0296020453635057 -0.06371334 -0.01029288 -0.9979151 184 187 187
0.0525105647084341 -0.110804911414518 -0.0297548809942079 -0.05123112 0.004467937 -0.9986768 189 188 186
0.0478907657624394 -0.112913802935529 -0.029809395119647 -0.05915143 -0.002660373 -0.9982455 185 183 190
0.0476044937776563 -0.116296881724914 -0.0296410210526147 -0.05712132 -0.00487791 -0.9983553 184 185 188
0.0532315796224796 -0.114673929154623 -0.0301405950038113 -0.06091672 0.0004244788 -0.9981428 178 181 182
0.0380962429470633 -0.122076849398033 -0.0293202110405746 -0.05268519 0.0009158999 -0.9986107 184 186 188
0.0360063707543818 -0.124573656885731 -0.0291207762424745 -0.05671091 0.005602453 -0.9983749 187 189 187
0.0479421697830107 -0.118881165227341 -0.0298890062101623 -0.05680905 0.002949694 -0.9983807 189 189 191
0.0532315627105451 -0.11880497076612 -0.0300679400240024 -0.06547483 0.00352444 -0.997848 188 189 190
0.0573044963161076 -0.1206768646607 -0.0304525895130255 -0.05643678 0.00989292 -0.9983572 183 186 187
0.0523073328968762 -0.125650806334032 -0.0300021024386118 -0.05168249 0.01264754 -0.9985835 187 190 189
0.0589343277948977 -0.128240704487661 -0.030377832387061 -0.05766983 0.01264648 -0.9982556 186 187 189
0.0544861530434582 -0.0384539381739854 -0.0297704410562144 -0.05670199 0.01204054 -0.9983186 182 183 180
0.0603817223028842 -0.0360936747227315 -0.030016760614939 -0.0592281 0.00250027 -0.9982414 183 185 185
0.0625188675986452 -0.0391681227484162 -0.0303591682019825 -0.06146065 0.01517752 -0.9979941 178 180 179
0.0629953497048827 -0.0433472668701889 -0.0302071824562063 -0.02440635 -0.002296653 -0.9996995 179 180 177
-0.0087544301295428 -0.199805316324307 0.00819108733937168 -0.05530302 -0.9978284 0.03577955 160 162 133
0.0730117599950386 -0.0384985606375414 -0.0307789717899811 -0.05981356 -0.002682056 -0.998206 177 180 178
0.0640003541522889 -0.0435286885986364 -0.0299687015212222 -0.03647102 -0.003176901 -0.9993297 179 181 181
0.0575942479912954 -0.0479389471920417 -0.0299598613668979 -0.0577861 0.01811383 -0.9981647 185 186 184
0.0620693410403113 -0.0515386624800526 -0.030152690694109 -0.04602687 0.009703788 -0.9988931 181 183 182
0.0643027953074387 -0.0536626156180678 -0.0301787966223337 -0.04279723 0.007578795 -0.999055 176 177 174
0.0656262340810874 -0.0474765559450481 -0.030304821753631 -0.03880749 0.02783963 -0.9988588 173 175 170
0.0696604279275967 -0.0494972049779048 -0.0304955129372086 -0.07713128 0.01043306 -0.9969664 186 186 187
0.0661215240894171 -0.0556633127139113 -0.0304491812926039 -0.04869537 0.009381155 -0.9987696 165 166 161
0.0824021813821427 -0.0357366020714139 -0.0311018141024236 -0.0606517 -0.009983069 -0.998109 181 182 182
0.0759881273537357 -0.0343149486196195 -0.0309381495903127 -0.05491838 -0.01441886 -0.9983867 176 178 177
0.0765246760281331 -0.0386956690524999 -0.0309972090808668 -0.05190974 -0.01848669 -0.9984807 179 179 182
0.0844655393032916 -0.0335863879782388 -0.031297230990306 -0.05651048 0.01190553 -0.998331 179 178 180
0.0787410583061199 -0.0398695933561852 -0.0308945905960463 -0.06497118 -0.02037417 -0.9976791 181 183 182
0.0832255370006294 -0.0398708876896395 -0.0314314563146794 -0.06332479 -0.0106101 -0.9979365 176 176 177
0.0852428041435807 -0.0436650864594719 -0.0314904557785065 -0.05161523 -0.007327288 -0.9986402 180 181 180
0.0921277186962173 -0.0350879253102981 -0.0317918978820216 -0.04070441 0.003461004 -0.9991652 165 173 176
0.0963751910397401 -0.0366330525606519 -0.0319304997450087 -0.05122374 0.0008597756 -0.9986869 174 176 175
0.09297344004275 -0.038912353659904 -0.0320186499269232 -0.04691084 -0.01366453 -0.9988056 177 179 178
0.0935994009373458 -0.0433706096549 -0.0319981629683463 -0.06847938 -0.01282223 -0.9975702 182 184 184
0.0757705005787237 -0.0479965603145371 -0.0305477074737129 -0.04805896 0.01410015 -0.998745 187 187 186
0.0836075666623164 -0.0496401419931121 -0.0313524421978012 -0.04397596 0.0109724 -0.9989724 183 184 184
0.0824200879703376 -0.0561706490713959 -0.0313403765096291 -0.04494059 0.01610609 -0.9988598 174 177 170
0.0899306780217359 -0.0450376181482509 -0.0313186192224569 -0.06121942 -0.005300612 -0.9981102 181 181 183
0.0952129402613329 -0.0464906909112453 -0.032135015359479 -0.05631152 -0.005332964 -0.998399 182 183 183
0.0900255534231422 -0.0537320642991174 -0.031689753182177 -0.06975523 0.01073302 -0.9975064 180 182 182
0.0931701538910166 -0.0547915451055991 -0.0316249477313244 -0.05957882 -0.004016764 -0.9982155 184 188 185
0.0564883801971412 -0.0620224237888867 -0.0298820916132397 -0.04902301 -0.0002451476 -0.9987976 180 183 180
0.0550654750998234 -0.0665698490242904 -0.0298657744308169 -0.04872922 0.006475831 -0.998791 181 181 181
0.0702128521083565 -0.0590927367922685 -0.0306700993205549 -0.04761979 0.01308562 -0.9987798 181 183 182
0.075079317146002 -0.0645965470385263 -0.0310277285933047 -0.0546717 0.00570532 -0.9984881 184 184 183
0.0657428660458135 -0.071562523678416 -0.0305269778006231 -0.06289696 -0.001875173 -0.9980183 175 178 176
0.0691530912711174 -0.0744131444183725 -0.0305236581513116 -0.05689348 0.006066683 -0.9983618 173 180 172
0.073991987123355 -0.0750231169909854 -0.0309716374305277 -0.05246992 0.002855759 -0.9986184 172 176 174
0.0705586067816637 -0.0796227552050875 -0.0307117567606913 -0.0568603 0.001713312 -0.9983807 183 182 183
0.0791023463812759 -0.0624054978826405 -0.0311180158101841 -0.05574349 -0.0003505425 -0.998445 180 182 180
0.0830743700481062 -0.0643408580215288 -0.0313081663191727 -0.05094248 -0.001442202 -0.9987006 174 178 172
0.0881988263245015 -0.0578164772635663 -0.031663673541117 -0.0448807 0.0193097 -0.9988057 174 179 178
0.0945373252480439 -0.0589555837000731 -0.0320012410429832 -0.03333546 0.001432916 -0.9994432 185 186 183
0.093170617996079 -0.0646180084007899 -0.0319356444687581 -0.04365455 0.01259979 -0.9989672 177 178 175
0.0994221437533556 -0.0664062116048127 -0.0323376549960795 -0.05919289 0.01694739 -0.9981027 185 186 183
0.0821688086394516 -0.07806374810328 -0.0313775119945737 -0.05336289 0.01093773 -0.9985153 187 188 185
0.0860389385396401 -0.0781111006541652 -0.0315864454275226 -0.05415314 0.008205991 -0.9984989 182 185 182
0.0945102039979639 -0.073171502943882 -0.0321121432541333 -0.05346042 0.0004939702 -0.9985698 182 183 183
0.0999714257960238 -0.0745270372202828 -0.0323538770699393 -0.03390638 0.002081543 -0.9994228 178 182 181
0.107006702570201 -0.034005243834994 -0.0216470818752034 0.9899166 0.004428223 -0.1415819 145 143 137
0.106304762995221 -0.0398697306187805 -0.0220769183525685 0.992156 0.02197932 -0.1230586 134 139 122
0.10638571134027 -0.0388993551906534 -0.0261267957860405 0.9984255 0.0337643 -0.04479268 151 151 141
0.106937132583099 -0.034034657137271 -0.0277507661179577 0.989524 -0.09760121 -0.1063776 161 163 152
0.0988409223965845 -0.0404673781052619 -0.0321137731056151 -0.05194276 0.004463467 -0.9986401 183 185 184
0.106529055684712 -0.0418725994902401 -0.0274796937326455 0.9937776 0.09264241 -0.06183472 132 136 119
0.105770771359895 -0.0418671616644979 -0.0319590759064363 0.7934936 0.03425634 -0.6076138 179 179 176
0.106834277966226 -0.0475450234295976 -0.0214932087744792 0.9980927 -0.03310683 -0.05210567 139 138 126
0.106805067612963 -0.0493891872927848 -0.0237548899717065 0.9988012 -0.04847521 0.006814041 135 135 121
0.106582998623487 -0.0433466530094512 -0.031137778172473 0.8637022 -0.0009426284 -0.5040015 154 160 148
0.106336038141332 -0.0517412885068524 -0.0315580425306889 0.7489014 0.0260775 -0.6621682 177 179 175
0.0990819816299493 -0.0399633885232146 -0.0323522275325869 -0.05439114 0.005722404 -0.9985033 180 181 180
0.101527577731373 -0.0420560257551006 -0.0322895676320096 -0.03308837 -0.005709026 -0.9994361 173 177 175
0.101476032403401 -0.0477131810486693 -0.0322548040881034 -0.05955396 -0.007786806 -0.9981947 179 182 178
0.103959836763632 -0.0499192665853891 -0.0324569910959234 0.2475429 0.01947122 -0.9686813 186 187 184
0.106879361267008 -0.0559327786671394 -0.0249520496664561 0.9998611 -0.01666348 -9.028412E-05 165 163 157
0.106686787185144 -0.0558422540072703 -0.0296684026825753 0.976146 -0.07270518 -0.2045797 164 166 160
0.106530710693125 -0.0656084745038824 -0.0293075467264885 0.9900492 0.007566208 -0.1405182 152 153 143
0.106735659944821 -0.0671518742371123 -0.0219353177589301 0.9941816 0.106757 -0.0143471 141 142 111
0.107093038707314 -0.0729914112503019 -0.0230791680916079 0.9786373 0.1860258 -0.08754169 162 168 152
0.106321835190427 -0.0700046741043133 -0.0270941484934796 0.991924 0.07557956 -0.1018554 159 159 155
0.106207475924635 -0.0736705035090402 -0.030978062291716 0.8156486 0.07659867 -0.5734544 171 172 170
0.102196471066805 -0.0580012806079364 -0.0321423017683314 -0.02708575 -0.002349089 -0.9996303 178 181 180
0.100893046933685 -0.0622497698576209 -0.032329210255559 -0.0520217 0.01313762 -0.9985595 181 182 181
0.103314881817251 -0.066471857911458 -0.0325721052999879 0.2464103 -0.03756475 -0.9684373 184 186 182
0.0607534217449999 -0.0833785053632793 -0.0303646027967661 -0.05706238 0.003173724 -0.9983656 185 185 186
0.0570704759329446 -0.0885139893586553 -0.0299759735561559 -0.05372607 0.006958541 -0.9985315 182 183 184
0.0669243898601604 -0.0915685416546858 -0.0305562236972293 -0.05349227 0.006187504 -0.9985491 183 185 184
0.070919965070475 -0.0868187439789341 -0.030741556672625 -0.05974045 0.004664402 -0.998203 184 186 182
0.0576946908198024 -0.097708564020648 -0.0301107742017855 -0.05838232 0.001269503 -0.9982935 181 177 182
0.0583409577261076 -0.103986286467344 -0.0301434453402499 -0.05565018 0.002594377 -0.9984469 186 187 186
0.0788043945175527 -0.092531577066804 -0.0312264932423535 -0.05273068 0.008452164 -0.998573 176 177 174
0.0768744976124047 -0.102501023801188 -0.0312155559674149 -0.0478816 0.00450015 -0.9988429 190 192 192
0.0857381916356794 -0.0892278829266962 -0.0317707173187429 -0.05264573 -0.000199607 -0.9986132 192 192 193
0.0968387471166312 -0.0823747425600241 -0.0322614728058125 -0.04614451 0.003682379 -0.998928 185 186 186
0.0990144550817416 -0.086404084964629 -0.0323168215057357 -0.05837075 0.01392459 -0.9981979 191 189 191
0.0851511185519405 -0.0959752358909222 -0.0316373684401442 -0.05624384 0.01225378 -0.9983419 186 188 186
0.0934831536750726 -0.092775533936544 -0.0321553341228262 -0.05925278 0.006669629 -0.9982207 186 184 190
0.0938905175836133 -0.0985523472119498 -0.0322156165341925 -0.05619274 0.006779054 -0.9983969 180 186 187
0.102574967534462 -0.0983996632506286 -0.0325588552629612 0.01044618 0.008678592 -0.9999078 185 186 189
0.0630883314704138 -0.109908224031393 -0.0305110593673579 -0.06301057 0.01090655 -0.9979532 187 189 189
0.0632334943992934 -0.114602340884397 -0.0304981516199582 -0.05694766 0.009757593 -0.9983295 183 187 187
0.0729300953443883 -0.109232136115464 -0.0310190890222026 -0.05451667 0.01266264 -0.9984326 179 185 182
0.0804437092840269 -0.103888408891164 -0.0313576000727637 -0.0587899 0.005112252 -0.9982573 186 186 187
0.0736896469995232 -0.112903233466985 -0.031145275106051 -0.06239066 0.01655763 -0.9979144 188 188 188
0.0749950753455266 -0.114550135426148 -0.0314583041645896 -0.06345817 0.01520329 -0.9978687 175 179 176
0.059146958272692 -0.120900632396803 -0.0304071257618821 -0.06093645 0.002273196 -0.9981391 184 185 188
0.0662049256181891 -0.121668771288421 -0.030638330266767 -0.05264358 -0.01286084 -0.9985306 191 193 194
0.0613745588169143 -0.122453178756465 -0.0304081139280139 -0.05518677 -0.003913449 -0.9984684 189 192 192
0.0654992161404304 -0.122503554018873 -0.0307147714153652 -0.05194123 -0.0169666 -0.998506 196 197 199
0.0751263194265794 -0.116942635019006 -0.031243246707531 -0.05784526 0.007697606 -0.9982959 188 191 188
0.0814908087343116 -0.116188161279761 -0.031570461043061 -0.04780244 0.009275776 -0.9988137 189 190 190
0.0714707728853496 -0.121643836906847 -0.0311321736018781 -0.06065588 0.002139135 -0.9981564 187 189 190
0.0753909757431352 -0.122188311143862 -0.031394474896725 -0.04600881 -0.01140296 -0.998876 188 189 187
0.079947355314316 -0.120698557606202 -0.031393017691405 -0.05903489 -0.006240548 -0.9982364 190 190 194
0.0863808351282258 -0.104257133931726 -0.0319189121390864 -0.06095177 0.004199584 -0.9981319 186 187 189
0.0849243425639745 -0.10990176517212 -0.0317179990402964 -0.06049046 0.005040899 -0.9981561 184 185 190
0.0913363649392589 -0.108217848506514 -0.0319512358956976 -0.05230771 0.01103027 -0.9985701 179 184 188
0.0968864845640711 -0.107093351853032 -0.0323529851625778 -0.05683283 0.006243185 -0.9983642 202 204 209
0.0933777211759002 -0.108743599839945 -0.0320490896236885 -0.04973054 0.01053945 -0.9987071 198 201 204
0.0842201963424336 -0.115696348170794 -0.0317526183854467 -0.06331858 0.001223984 -0.9979926 183 188 183
0.0918835288413011 -0.114104944481899 -0.0321166687991312 -0.04511438 0.006038694 -0.9989636 200 202 206
0.0840210139522379 -0.12619083313328 -0.0317140405009259 -0.05422701 -0.007355489 -0.9985015 188 189 191
0.0918994390420247 -0.123564287682538 -0.0322112191468379 -0.05093466 0.007678198 -0.9986725 190 191 194
0.0997300937201282 -0.116615713925892 -0.0326226900734445 -0.0567634 -0.00817124 -0.9983542 187 188 191
0.103449973863758 -0.122224366473752 -0.0327847147694206 0.02102254 0.02159448 -0.9995458 190 191 190
0.110435481201589 -0.0855344329420668 -0.0209973187331815 0.9608541 0.2756745 -0.02762303 150 154 130
0.110259187670016 -0.0847101746950517 -0.0257486375298999 0.9269096 0.3143523 -0.2049906 143 141 126
0.108334653536585 -0.0821480319360835 -0.0289666503256135 0.847413 0.2142273 -0.4857962 173 174 171
0.113328075876582 -0.0922683026661772 -0.0215500522613989 0.9506735 0.29896 0.08272104 129 146 145
0.114144400522996 -0.0954056415645958 -0.0213913704080427 0.9906365 0.1260879 -0.05235673 155 157 148
0.111994981087836 -0.0914671090559852 -0.027184159494123 0.8927088 0.1673719 -0.4183989 139 148 137
0.110619025160684 -0.0961223241519957 -0.029378318466956 0.7990399 -0.08337871 -0.5954689 151 155 151
0.108448912384624 -0.0952533657951559 -0.0315371330875491 0.5611315 -0.0650418 -0.8251672 181 179 178
0.107907754778584 -0.087992914929821 -0.0323631823132265 0.5465627 0.1719983 -0.8195644 191 195 189
0.108710048098358 -0.0926655806332379 -0.0322186889338189 0.5419235 -0.01558799 -0.8402832 217 214 218
0.11330690543874 -0.105315717390648 -0.0227130445282259 0.923304 -0.07865324 -0.3759301 141 146 136
0.112067443265917 -0.101752114088591 -0.0269539105558272 0.9036781 0.02915816 -0.4272186 153 156 143
0.110778571915537 -0.10575744198605 -0.028992343825839 0.8689675 -0.1088452 -0.4827507 157 160 153
0.110632668584265 -0.111722934904071 -0.0281529492061624 0.916417 0.01290334 -0.4000168 165 164 163
0.111646224113464 -0.115621693006984 -0.0251722892027657 0.9423245 -0.02806233 -0.3335221 138 144 136
0.112263851802592 -0.121379697431083 -0.0241070489141569 0.9366809 0.09710196 -0.3364522 156 157 152
0.110778181483151 -0.113756803069037 -0.0265399497040693 0.9324036 -0.0267449 -0.3604277 135 151 131
0.109749372275329 -0.120116285200229 -0.0305781415039199 0.8433401 0.02673869 -0.5367146 163 169 163
0.105438835026259 -0.112507066524734 -0.0328062854527174 0.1327097 -0.01743837 -0.9910015 181 184 185
0.109409549703313 -0.120112902652745 -0.0315991386790522 0.7369025 0.03536577 -0.6750734 170 182 176
-0.125308907519258 -0.202294335764004 -0.0183364199858262 -0.3996149 -0.7487903 -0.528792 147 147 108
-0.0119981967882556 -0.199310145739331 0.000537904213074647 -0.0314388 -0.9991721 0.02582057 186 179 170
0.109614766012762 -0.152227276574471 -0.0322258741183957 0.9084461 -0.03092326 -0.4168566 165 170 176
-0.024591774680859 -0.200564739796654 0.00702644961874627 -0.1374455 -0.9555987 -0.260653 159 160 139
0.0899394555474333 -0.128093991329344 -0.0321021437193691 -0.06295347 0.005738734 -0.998 186 187 190
-0.113374108916149 -0.19705478819753 -0.0197097018246796 -0.02286535 -0.1468613 -0.9888928 178 175 173
-0.109751118632922 -0.147423511050318 -0.0214248133047909 -0.06655359 -0.009419264 -0.9977384 187 187 186
-0.0838458592821087 -0.172702736992832 -0.0226043826163301 -0.07977403 -0.01009661 -0.9967619 186 186 184
-0.0256488445589409 -0.176088632297608 -0.0259089916156946 -0.05746981 0.01006559 -0.9982965 187 188 188
0.110822187442783 -0.135274341144909 0.0075818442007885 0.9774211 0.1935498 0.0847731 158 154 156
-0.00646381618191061 -0.20032091551101 0.00825700952097408 -0.09114353 -0.9910403 0.09763116 157 156 126
0.0202455563278594 -0.19909835859083 0.00936298413243813 0.0145009 -0.9561011 0.292678 156 158 139
0.00157711407070993 -0.187511940491444 -0.0274569748919353 -0.06044805 0.01345211 -0.9980807 183 185 182
0.111709819892167 -0.148831678716552 -0.00109764835777548 0.9586232 -0.1254894 0.2555267 144 155 149
-0.131756893270712 -0.208932595470847 0.000505796999756947 -0.1428133 -0.9895409 0.02032454 186 184 171
-0.0729288393595886 -0.200637938898314 0.0166406170527807 -0.07793484 -0.9440989 -0.3203177 154 151 131
0.00974378101359719 -0.192839636239028 -0.0279277698105294 -0.09125966 -0.1992331 -0.9756935 177 179 174
-0.0770349566930699 -0.158633860095115 -0.0228768321969123 -0.04218398 -0.006743522 -0.9990871 192 193 194
-0.0635101072379447 -0.19910701683478 0.0114617054828535 -0.1697293 -0.9226614 -0.3462483 155 160 128
0.109207313938549 -0.125600946794758 0.00366608947115843 0.9828754 0.1792943 0.04253742 146 152 141
-0.115094553902548 -0.200827736735798 0.015507783006708 0.0792606 -0.9968023 0.01014493 149 147 101
-0.107886832949435 -0.144953521996816 -0.0210745762073884 -0.06433249 0.005474511 -0.9979135 191 190 192
-0.10269738351107 -0.164740509532328 -0.0214780145603494 -0.08115418 -0.01588898 -0.9965749 194 193 195
0.0948846830507244 -0.149275790044346 -0.0323159216638637 -0.0591323 0.006936263 -0.998226 184 187 181
0.0209332165614593 -0.182207194075163 -0.0284332386414544 -0.06207804 0.005593621 -0.9980556 184 184 186
-0.0931108320144076 -0.199573142963808 0.0162406993614287 0.00996216 -0.9696429 0.2443222 140 140 100
0.109753423741328 -0.195285400699923 -0.0157941788997977 0.4454139 -0.8794665 -0.1677652 168 169 161
0.11201462571702 -0.149452653497815 -0.0210047764004493 0.960914 -0.1428905 -0.2371217 149 151 145
0.0293402114560002 -0.197514959993839 -0.0160143498924746 -0.1015999 -0.9840838 0.1457959 166 166 145
-0.152385981160894 -0.153149378487967 0.0232459224320605 -0.9895592 -0.1424397 0.02198832 133 129 96
-0.148734214365343 -0.168480141113492 0.0225128351560442 -0.9645724 -0.2638143 0.001479995 149 144 128
-0.145842193895316 -0.181950692807608 0.0234271168653458 -0.9738256 -0.2265844 0.01797622 145 140 106
-0.153934039529488 -0.146961961918696 0.0185668104195524 -0.9782882 -0.1920776 0.0778362 152 147 116
-0.152297668880307 -0.153977669331958 0.0179062493894456 -0.9881803 -0.1531517 -0.006646921 144 136 96
-0.153422873165379 -0.149949770930843 0.0136914993728073 -0.9628078 -0.2424521 0.1192401 135 127 93
-0.151850705171022 -0.156450612767187 0.0129013292956163 -0.9816257 -0.1862655 0.04142743 159 144 115
-0.151418652768365 -0.160812269557637 0.0208715319400229 -0.9666367 -0.2560208 0.008169549 130 130 90
-0.150879155123042 -0.161971913209309 0.0167781762309916 -0.9582685 -0.2839701 -0.03290139 154 138 105
-0.150059206612922 -0.164392818481461 0.0114653409665645 -0.9732148 -0.2215086 0.06153788 138 129 101
-0.155986354528614 -0.148341993493775 0.00371820850797883 -0.9487876 -0.2643696 0.1729474 173 164 127
-0.155189676362777 -0.151136424802192 -0.000362744698714224 -0.9348922 -0.3162297 0.1611685 116 107 81
-0.153762438731407 -0.156827251200767 -0.000716004345838295 -0.9469446 -0.2706722 0.1732987 130 118 83
-0.149766328170249 -0.168318829280181 0.00757230065101111 -0.9716938 -0.2239647 0.07517367 149 145 75
-0.151054749730408 -0.164989812495043 0.00306290998337461 -0.9570602 -0.246754 0.1521455 136 129 86
-0.147683811541397 -0.173479911123938 0.0200863264745015 -0.969296 -0.2457286 0.009095208 158 155 119
-0.146190770944602 -0.179979947100791 0.0161622618054006 -0.9815683 -0.1904088 -0.01637501 142 136 109
-0.146912703458177 -0.175418079850365 0.0118671464265222 -0.9622524 -0.2631633 0.06939244 151 145 116
-0.145441226047432 -0.183117230582725 0.017892223932807 -0.9772421 -0.2116476 0.01425499 170 160 132
-0.14586886088714 -0.180475180205811 0.0141561036563979 -0.9835683 -0.1805357 -0.0004359984 161 157 132
-0.145473391312614 -0.186004173789805 0.0121431530300179 -0.9828697 -0.1812446 0.03342898 147 142 116
-0.146527094409537 -0.178088434309129 0.00723600791682388 -0.962911 -0.2504168 0.1004679 144 141 105
-0.14865276805257 -0.176186060494717 -0.00156157492516595 -0.9418388 -0.2350052 0.2402337 127 123 84
-0.145576750472955 -0.184530232739638 0.00518872486362443 -0.9854523 -0.1533282 0.07330895 149 144 107
-0.146050340568505 -0.180636256481687 0.00206809379727446 -0.9594524 -0.2099531 0.1880712 115 112 64
-0.144941326767549 -0.191808015879569 0.001378195764278 -0.9653046 -0.2158673 0.1469296 135 123 107
0.0992929795815898 -0.198126517854757 -0.0224222694380013 0.2343681 -0.9685642 0.08339679 142 150 147
-0.140960983426476 -0.198796904289838 0.021736000705699 -0.6005507 -0.5286737 0.5998691 134 134 90
-0.135193668589299 -0.199729190517126 0.0223074061761745 -0.004074482 -0.8595508 0.5110341 145 134 80
-0.127193003289299 -0.199998138887313 0.021788419744286 0.03765614 -0.9694542 0.2423643 142 138 89
-0.122951970101981 -0.200956620100039 0.0193543015868888 -0.03048287 -0.9690505 0.2449734 141 139 99
-0.119185738831782 -0.201206440298613 0.0195037541471834 0.05285085 -0.9907901 0.1246669 160 157 125
-0.14171714344509 -0.19735189292692 0.0190390195727625 -0.8833628 -0.4010208 0.2425952 127 119 101
-0.143255352140238 -0.195006343663863 0.0100754251424815 -0.951842 -0.2993156 0.06638613 136 124 93
-0.142874195763827 -0.195691105288359 0.00698098536266334 -0.9467461 -0.3030929 0.1086577 135 124 106
-0.144782470874814 -0.194965107019003 -0.0017946155219325 -0.9402717 -0.3107574 0.138993 163 160 113
-0.135074682154797 -0.202413752492038 0.018252488909748 0.1903535 -0.8896829 0.4150057 171 164 114
-0.132911103866869 -0.202020270797653 0.0180815971899494 0.189704 -0.9133027 0.3604034 160 151 111
-0.129353224764434 -0.201874722641325 0.0158546950223528 0.1293102 -0.9261507 0.3542933 158 151 111
-0.140605857470773 -0.202063667908355 0.00989513080727034 -0.8719402 -0.4892209 -0.01957456 138 137 103
-0.140696800033774 -0.203528192016599 0.0152752955021356 -0.6589647 -0.7207001 0.2153063 163 156 121
-0.13112269999756 -0.202918085613316 0.014415358744884 0.1891563 -0.8989808 0.395036 160 152 103
-0.136979469101168 -0.2051041223614 0.0125576866026706 0.08650379 -0.9507877 0.2975229 169 165 125
-0.137114783905862 -0.205597789625252 0.0108483848832542 0.04102127 -0.9626638 0.2675737 178 175 143
-0.131381644342746 -0.203312155216405 0.0130626546984784 0.2068475 -0.9003885 0.3827724 168 160 130
-0.129274990574007 -0.204323800707923 0.0100581708174866 0.2334917 -0.8990921 0.3702903 157 150 106
-0.12335587482374 -0.202526209965381 0.0135458996370977 0.1283478 -0.9636593 0.2342809 152 151 108
-0.125589247583772 -0.202781233230856 0.00863583434169224 0.2359833 -0.9343954 0.2668653 162 146 114
-0.123494016097745 -0.202875043216711 0.00819833159514555 0.1918906 -0.9482467 0.2529947 153 150 107
-0.141107922491016 -0.201336139363076 0.00420300927303263 -0.9026909 -0.4223928 0.08205802 152 152 118
-0.140284848386627 -0.203392419853183 -0.00127831702426395 -0.6181282 -0.7653403 -0.1793649 181 178 162
-0.138363594381729 -0.206288981550596 0.00526395859097883 -0.4607163 -0.8851487 0.06520895 178 175 153
-0.137444042468846 -0.207062039952652 0.00298295029881684 -0.473687 -0.8709258 -0.130801 182 180 154
-0.133635342578292 -0.207466540584123 0.00462255185224042 -0.07618839 -0.9486756 0.3069364 175 173 151
-0.140376182806272 -0.203841291491776 0.00273195717615571 -0.8169087 -0.5757025 -0.03502706 165 164 137
-0.136299960000881 -0.205514412340056 -0.00127804945525506 -0.4886813 -0.8081691 -0.3287145 177 175 160
-0.131532885709605 -0.208662115128757 -0.00176646228437094 -0.2144799 -0.9587752 -0.1864094 179 179 162
-0.127412830745077 -0.206391651929592 0.00544810262614837 0.323354 -0.8278517 0.4583708 170 166 131
-0.123987285803466 -0.20496844616465 0.00460181553985356 0.2981059 -0.8441571 0.4455689 156 152 108
-0.119587856705288 -0.203192342604448 0.00691081646519032 0.0371962 -0.9389507 0.342035 153 149 99
-0.126820131265572 -0.2070703619318 0.000766591376615056 0.3305829 -0.908168 0.2567995 151 148 70
-0.123864520341295 -0.206605478465507 0.000348016855754141 0.2684471 -0.9060369 0.3271595 147 145 94
-0.119745609372407 -0.206996831990618 -0.00227940179263642 0.2436003 -0.9435697 0.2243551 153 150 113
-0.117009879643757 -0.200669420024268 0.0211188939896295 0.04354518 -0.9948456 0.09157572 147 144 103
-0.112846007198065 -0.200536462052157 0.0192389754634578 0.01860739 -0.9998105 -0.005728851 146 147 105
-0.104373551567579 -0.199032556950703 0.0201621769464567 0.2000129 -0.9787701 0.04476483 132 136 99
-0.101264611470363 -0.198676507077047 0.0199979425735908 0.1270904 -0.9897636 0.06493093 153 149 118
-0.0955169366245936 -0.197944168003003 0.0202221308065507 -0.05677802 -0.9808913 0.1860873 127 131 82
-0.0948264310089948 -0.19905719169993 0.0182774467334176 -0.0647106 -0.9608427 0.2694324 148 147 113
-0.0829477841851327 -0.200154304060018 0.0189952150998993 -0.08061624 -0.9788815 -0.1878617 158 159 137
-0.0754217364716059 -0.20025078975141 0.0190305807242245 -0.05909809 -0.9524417 -0.2989352 142 144 113
-0.07302452935836 -0.199914321217698 0.0160821195724501 -0.0525848 -0.9363623 -0.3470742 154 153 125
-0.113143926349896 -0.200604942015147 0.0170693838338432 0.004264935 -0.9998831 -0.01468546 137 136 95
-0.117448239319031 -0.201055453276891 0.0134365835422093 0.1928594 -0.9705078 0.144637 135 136 100
-0.111315796154887 -0.200669898632837 0.0151783554053203 -0.07097945 -0.9895872 0.1252161 143 139 95
-0.103040024416419 -0.199598069450771 0.0162496396068748 0.159898 -0.9774085 0.1382217 137 136 106
-0.103174580274834 -0.199890404763687 0.0145282963704687 0.09338889 -0.9783216 0.1848392 144 142 111
-0.109050641678121 -0.20099962251424 0.0169184688212406 0.1003016 -0.9928007 0.06546978 158 155 124
-0.117457940668976 -0.202716724273055 0.00876748969857555 0.06002506 -0.936857 0.3445228 157 156 116
-0.11174134582139 -0.201540636818031 0.0112627661405575 -0.02716435 -0.9297953 0.3670732 149 143 104
-0.107759497433384 -0.202389976291092 0.00895204053597748 0.1832525 -0.9387983 0.2916782 164 160 123
-0.106197302768028 -0.201741394783728 0.0101951098316322 0.1999111 -0.9441363 0.2619964 138 144 94
-0.0979422553701979 -0.200505557970356 0.0102378475100054 0.03828941 -0.9985306 0.03834806 163 163 130
-0.100656541888624 -0.201182271896869 0.00869986232000575 0.0819607 -0.9942956 0.06825455 146 147 105
-0.0958082121644732 -0.20014612552997 0.00610102322093475 0.192731 -0.9704001 -0.1455282 163 158 136
-0.117745406555138 -0.204468751539221 0.00361767464939011 0.04380937 -0.9426111 0.3310062 160 153 116
-0.115638555555003 -0.205246288325161 0.00118710834031366 0.1150845 -0.9707646 0.2106456 158 154 114
-0.109665554152614 -0.204057259053017 0.00302263993959534 0.2084874 -0.9731605 0.097425 155 153 110
-0.118059633686167 -0.205732598739193 -0.000749518582880471 0.1485518 -0.9618993 0.229526 153 150 105
-0.108492486069574 -0.203955250480332 0.000166186257069989 0.2691948 -0.9590632 0.08793082 156 149 107
-0.105738545441461 -0.20253035159141 0.00262527300908738 0.3805478 -0.9236554 0.04521158 154 151 109
-0.0981119621978344 -0.200303654987038 0.00220403085828746 0.2872884 -0.9573746 -0.02998614 160 159 131
-0.104002476835725 -0.201325917568584 -0.00148752374405448 0.3633235 -0.9316406 -0.006468582 144 144 114
-0.099775229473648 -0.201213174990083 -0.00156935406733194 0.2415928 -0.9696694 -0.03707014 146 145 119
-0.0889756492522682 -0.197881376902477 0.0129305705337431 0.2846411 -0.9586282 -0.003385422 135 129 96
-0.0835336684589039 -0.198170910027258 0.0113382842989783 0.02757434 -0.9688272 -0.2461982 148 150 123
-0.0872864450428479 -0.19735335251439 0.00674004214256685 0.2431097 -0.965127 -0.09709536 167 169 136
-0.0792685530770663 -0.198063214892757 0.0127576143726977 0.0611943 -0.9389814 -0.3384807 141 141 118
-0.0794698784011243 -0.197627596330464 0.00868810514688118 0.01814966 -0.9962171 -0.08498324 153 151 126
-0.0755870358459712 -0.196735605366135 0.0104728532245479 -0.007565164 -0.9821275 -0.1880648 149 156 116
-0.0778294765556771 -0.19771923051158 0.00670434771168327 0.024512 -0.9995694 0.01612944 155 155 122
-0.0940565553275332 -0.200432462741871 0.0153381737152619 0.01728709 -0.9773649 0.2108531 164 163 137
-0.0912572592016858 -0.199842161870065 0.0137799566833235 0.3142119 -0.9493032 0.009714154 154 155 123
-0.0915601591324575 -0.199584173109203 0.00961552369381558 0.2884528 -0.9546391 -0.07388559 160 159 124
-0.0917815571466403 -0.198961328846292 0.00574655622795173 0.2550531 -0.9463504 -0.1984157 147 151 118
-0.0830064458539823 -0.199666235195131 0.0134890534843826 -0.02190251 -0.9673241 -0.2525954 155 148 131
-0.0716484746090691 -0.197780165978639 0.011917945405651 -0.1527467 -0.9180249 -0.3659217 139 141 115
-0.0902528981190451 -0.19849565644445 0.00362471331097991 0.2519573 -0.9468926 -0.1997796 154 156 131
-0.0904459684832266 -0.197632621011872 0.00141588561868222 0.2147532 -0.9667544 -0.1388056 137 140 111
-0.0853692711957594 -0.198004020845672 0.00282212542106342 0.02175797 -0.9984679 -0.0508762 140 142 104
-0.0905813403670097 -0.197574410543426 -0.000608688604276875 0.2296291 -0.9732291 -0.009780118 142 145 115
-0.0932594829008957 -0.198676568172083 -0.00308958962838057 0.2561632 -0.9665244 0.01453037 166 162 137
-0.0865073422637701 -0.197362663525332 -0.00276004223205728 0.03544396 -0.9936164 0.1070989 161 160 135
-0.0802567467997757 -0.197513026724346 0.00129487808191364 -0.001405483 -0.9999852 -0.005247876 150 150 124
-0.0763685694277458 -0.197801537817386 0.000730454543981851 0.066634 -0.9970989 -0.03679265 153 152 121
-0.082454781863095 -0.197739582250148 -0.00528496533739775 0.0905018 -0.9927989 0.07848413 156 152 131
-0.0768272187309194 -0.196875934918889 -0.0012218619806964 0.04892543 -0.9915664 -0.12001 145 145 105
-0.0725954602262413 -0.196562415102444 -0.00169808200496202 0.08496598 -0.9963787 -0.003199708 135 136 108
-0.0741861535647552 -0.197123060482551 -0.00556458963950612 0.01839533 -0.9998208 0.004482471 159 166 129
-0.0688063412214976 -0.200364690886196 0.0164854462655295 0.01843635 -0.9843868 -0.1750508 150 150 124
-0.0645573497620013 -0.200064242771872 0.0179256777885212 -0.06093127 -0.9916471 -0.1136812 149 150 124
-0.0588441834960718 -0.200680893965775 0.015808609745574 0.02282916 -0.985783 -0.1664651 157 160 139
-0.0490385701399751 -0.199849810697798 0.016772210970338 -0.02715058 -0.9447843 -0.326566 146 147 121
-0.046821236573773 -0.199801582410078 0.0146983349705707 -0.006734548 -0.9453852 -0.3258857 158 160 131
-0.0329859025689605 -0.198996175546653 0.0175044994763448 -0.1025412 -0.9740423 -0.201809 113 129 81
-0.0366214546133228 -0.199929431595594 0.0167850192269884 -0.001042053 -0.9631495 -0.2689647 159 158 132
-0.0265415666130062 -0.20075132702461 0.0137771227842237 -0.3021685 -0.9476033 -0.1036439 167 164 138
0.0607697683631567 -0.201051571661494 0.0118072144775294 0.05309835 -0.9985747 0.005392287 161 170 145
-0.065322960565092 -0.199621265295435 0.0140261036582522 -0.05722975 -0.9794735 -0.193278 152 153 129
-0.0658929734151941 -0.197875043897274 0.0111004729862389 -0.06473833 -0.9315144 -0.3578965 164 164 149
-0.0677417110628236 -0.197533309192905 0.0079453950593647 -0.03826554 -0.9872922 -0.1542393 158 158 130
-0.0628756611466503 -0.198048309122732 0.00864533544954005 -0.1273717 -0.9705577 -0.2044362 153 152 132
-0.0618711054190495 -0.197917364130439 0.00551785679641886 -0.0720558 -0.99731 -0.0134459 149 150 116
-0.0550911173045265 -0.198793336901543 0.0129682906373615 0.1486872 -0.9795764 -0.1353596 152 153 123
-0.0554224959961425 -0.199152304378057 0.0115905132356455 0.157752 -0.9831647 -0.09220321 164 166 140
-0.0493281635935556 -0.199343641265354 0.0144473671403569 -0.06054736 -0.9624959 -0.2644535 161 164 129
-0.0498196245131957 -0.198328930772321 0.00895348302816523 0.1064867 -0.9942928 0.006516551 156 156 126
-0.0558930140094618 -0.199216768023732 0.00776873453663696 -0.04621081 -0.9896911 -0.1355582 158 144 129
-0.0540243947012531 -0.198356188596155 0.00695491659424585 -0.005176593 -0.9982305 -0.05923724 166 166 146
-0.0518961213247815 -0.199029760271909 0.00547162005765056 -0.008933542 -0.999665 0.02429359 160 160 135
-0.0496620629825961 -0.198474808776527 0.002943406557954 0.09975024 -0.9949902 -0.006657412 140 143 110
-0.0663102758153156 -0.196842777170605 -0.00199073531358462 -0.1561029 -0.9876425 0.01393623 143 141 113
-0.0706554925864924 -0.196344372087943 -0.00433715186252581 0.03772196 -0.9991613 0.01592819 152 151 125
-0.0642932873427431 -0.197234121089675 0.00173426924549713 -0.1602831 -0.9821857 -0.09808434 149 151 113
-0.0625725790541574 -0.197946922752192 -0.00403335297307378 -0.1507264 -0.9840496 0.09448769 159 155 132
-0.0561531180019847 -0.197969054838605 0.00140238427212969 -0.1520794 -0.9881709 0.01975172 158 159 131
-0.0580181132198661 -0.197950086884381 -0.000316216608069797 -0.1380273 -0.9900019 0.02906632 147 147 116
-0.0538864309520886 -0.199207702654596 0.00331226098042181 -0.08925343 -0.9959901 0.00612757 152 152 125
-0.0497841522993023 -0.198985363167022 0.00128735170069422 0.1119398 -0.9934634 0.02236031 153 151 128
-0.0517255508054615 -0.199291978565061 -0.00122791349174184 0.0710981 -0.9970724 -0.02813784 150 156 116
-0.0592581174125208 -0.197554229626878 -0.00501018148072052 -0.1012727 -0.991446 0.08233328 135 139 100
-0.0502873105792601 -0.198312219181413 -0.00497375706451519 0.06981214 -0.9941339 -0.08260778 153 155 125
-0.0480792055852977 -0.197956950233303 0.0120772087774328 0.02675028 -0.9776343 -0.2086039 136 140 114
-0.0452832034047104 -0.197977074840267 0.0088742254775882 0.0645368 -0.9975849 -0.02567708 160 156 128
-0.0393853268310886 -0.197991693445037 0.0121576733467728 -0.015509 -0.9779235 -0.208387 152 153 126
-0.0370713761302617 -0.197685589178992 0.0103074870044508 -0.1080473 -0.9922596 -0.06121015 137 141 108
-0.0447614327545227 -0.19818878131224 0.00822154342530268 0.08136053 -0.9961001 0.03413289 139 138 106
-0.041873871113479 -0.197557504997459 0.00659905255675192 -0.01048687 -0.9998391 0.01455257 146 148 114
-0.0357002845716998 -0.199425250469728 0.0129705589253307 -0.08655652 -0.9725487 -0.2160022 157 154 130
-0.0317963155308716 -0.198696851441339 0.00822216312413215 -0.1318322 -0.9909955 -0.02341143 161 161 134
-0.0289080474605505 -0.199618332279405 0.0115222997940204 -0.2715364 -0.9559076 -0.1118416 163 161 133
-0.0336193676895369 -0.199318582469878 0.00664166774250546 -0.1158798 -0.9929558 -0.02471149 152 147 135
-0.0315744923381041 -0.199081708210687 0.00762558277096181 -0.1318322 -0.9909955 -0.02341143 176 177 145
-0.0304825654157197 -0.198398042598513 0.00364598335275212 -0.1298707 -0.9794484 -0.1543189 136 140 112
-0.0273052263093692 -0.199152517741186 0.00549701081866916 -0.1796749 -0.9716251 -0.1538227 160 157 131
-0.0485775056681081 -0.198842498831193 -0.00130374874746708 0.1468726 -0.9891071 0.00977062 152 154 131
-0.0383494744246105 -0.197081528018529 -9.38922565951739E-06 0.03924988 -0.9985871 -0.03582143 143 143 116
-0.0481108584435042 -0.198063591438611 -0.00287690428229959 0.09916177 -0.9949667 -0.01442665 167 168 136
-0.0443658096579824 -0.198532173844615 -0.0056148544686152 0.03193912 -0.9980375 0.05386265 165 164 144
-0.0421153792984916 -0.197737866591501 -0.00381902549072966 0.09442823 -0.9942776 0.04995336 135 131 107
-0.0387561198470552 -0.198011626255952 -0.00579777225586064 0.09689908 -0.9928252 0.07006316 158 157 132
-0.0337533631753648 -0.198073624352015 0.00163624703507781 -0.07096601 -0.9794352 -0.1888664 131 143 88
-0.0717639981748786 -0.175464373695284 -0.0232785207699382 -0.05431654 0.01488869 -0.9984128 181 184 179
-0.0362412166712258 -0.197359301304118 -0.00389314667635077 0.09042088 -0.9957392 0.01809511 155 155 121
-0.034197671912175 -0.197471451134989 -0.00641209181006897 0.08528857 -0.9931721 0.07959252 162 160 125
-0.0321793673067021 -0.197278447589615 -0.00415278118839774 0.05282399 -0.9975125 -0.04667379 151 151 113
-0.108956274584521 -0.186830259381922 -0.0210825666484905 -0.07736091 -0.001784783 -0.9970015 178 180 176
0.0702212104256636 -0.169315304494444 -0.0310415543563134 -0.06486633 0.006275607 -0.9978742 193 194 189
0.0110793043763873 -0.176400684941311 -0.028075154793146 -0.05728301 0.002846318 -0.9983539 189 190 191
-0.00836301555668006 -0.140668586169347 -0.026697063743465 -0.06290968 0.00729528 -0.9979926 187 188 186
-0.0123659457551608 -0.189677619961429 -0.0264872151758049 -0.05942109 0.003276931 -0.9982277 179 179 177
-0.15870390829012 -0.146917413838977 -0.00712595233383279 -0.8769476 -0.4202388 -0.2331572 177 174 152
-0.156167782517044 -0.150897692529409 -0.00737582585108498 -0.8733547 -0.2789645 -0.3992874 183 181 157
-0.15725701698672 -0.150411600934918 -0.00808567283599415 -0.8617756 -0.3258549 -0.3887947 176 176 128
-0.154568625973341 -0.154973680557669 -0.0106240363917696 -0.8451801 -0.1905854 -0.4993474 154 143 108
-0.152810373709863 -0.154973147675819 -0.012829918579673 -0.7620801 -0.1582237 -0.6278527 136 130 77
-0.154197752270246 -0.15880075618769 -0.00305598126274875 -0.9669281 -0.2454379 0.06935551 139 138 98
-0.152636094669405 -0.166308893714026 -0.00447367302802748 -0.9631338 -0.2275352 0.1435308 157 155 127
-0.153678062897188 -0.162367044659846 -0.00891883239717861 -0.9799481 -0.09768945 -0.1736621 156 151 125
-0.149344654207607 -0.162814179983678 -0.0135378684583966 -0.7819771 0.2040311 -0.5889679 114 119 0
-0.149363504642857 -0.14832533373215 -0.0168284044333053 -0.5768024 -0.2141638 -0.7883101 153 145 115
-0.148011070013248 -0.154494859208152 -0.0171594400862792 -0.5571883 0.02150939 -0.8301075 159 149 113
-0.148844547851176 -0.158465801115971 -0.016819035892281 -0.6488258 -0.1211654 -0.7512284 156 143 103
-0.147144950809001 -0.160381622334637 -0.0177287079228812 -0.5592757 -0.07397632 -0.8256744 164 157 111
-0.149807489257588 -0.164694157188544 -0.015469786294103 -0.6105929 0.3591952 -0.705801 145 135 80
-0.150603838199189 -0.169374919282144 -0.0175352066056592 -0.5055487 0.2106155 -0.8366969 152 134 91
-0.143055674041251 -0.148089057731775 -0.019318600516778 -0.04038578 -0.01849479 -0.999013 179 180 173
-0.145195198108739 -0.151345997419522 -0.0190346631876679 -0.3263442 -0.03832194 -0.9444739 179 178 164
-0.138434360440299 -0.147917208338582 -0.0195182729007989 -0.07366362 -0.02855491 -0.9968743 186 185 180
-0.137956915193701 -0.149320858781318 -0.0195757571317909 -0.07234906 -0.01337679 -0.9972897 172 172 162
-0.141960903508028 -0.153879720498514 -0.0192460624168875 -0.06316421 0.03088486 -0.9975252 188 188 180
-0.141307540046039 -0.157753302913215 -0.0193748395086213 -0.07888725 0.009072633 -0.9968423 183 182 173
-0.13744100186966 -0.153633791181751 -0.0195100318495369 -0.06611247 0.0004948617 -0.997812 181 180 172
-0.134051780742234 -0.145286446464881 -0.0193691517737064 -0.06128085 -0.02327707 -0.9978491 183 183 182
-0.13206408730671 -0.147079417365413 -0.0199973127131917 -0.05980344 -0.02215181 -0.9979643 176 177 170
-0.128798117748293 -0.146281952908921 -0.0196674905021951 -0.06442492 -0.008628817 -0.9978852 191 192 188
-0.12680213861959 -0.148636502356177 -0.0201065016922101 -0.09040001 0.004744105 -0.9958943 188 187 185
-0.13046583404827 -0.150669837421126 -0.0193483175775836 -0.06294808 -0.01215043 -0.9979429 181 180 179
-0.131402597180029 -0.15472664787343 -0.0194742758759037 -0.05282472 -0.01611255 -0.9984738 175 174 169
-0.125785520463013 -0.150834520969704 -0.0200055658437953 -0.05907625 0.01287504 -0.9981704 187 187 186
-0.126021877877466 -0.15608798326109 -0.020290987989066 -0.07809611 -0.01719496 -0.9967976 181 182 178
-0.13947395006408 -0.157478737524487 -0.0195106558273255 -0.05556437 0.01630743 -0.998322 181 180 172
-0.137576981706558 -0.15945533772165 -0.0194941886308423 -0.03050009 0.001086219 -0.9995342 179 178 173
-0.146148675211997 -0.165857974430965 -0.0181295762438823 -0.3267702 0.1568815 -0.9319922 151 151 84
-0.142637762050353 -0.165833817315451 -0.0190965522351492 -0.1183595 0.03017502 -0.9925122 187 185 174
-0.138699071472201 -0.165542800358182 -0.0194925484671608 -0.06980102 0.002782798 -0.997557 182 183 177
-0.136524148648876 -0.167169482999568 -0.0195002335333015 -0.05252693 -0.01814856 -0.9984546 181 180 173
-0.131778050655577 -0.157523183970163 -0.0189630746324077 -0.05309948 -0.00850613 -0.998553 168 158 151
-0.127772416872071 -0.15602285074954 -0.0197200322421563 -0.06291934 -0.01634461 -0.9978848 170 172 169
-0.125489067134921 -0.158432578946724 -0.0196641506467156 -0.04330622 -0.01052033 -0.9990065 179 181 178
-0.130184922164003 -0.162518900297307 -0.0193391051076068 -0.02935646 0.0167657 -0.9994284 179 173 166
-0.130814440399527 -0.167171942847479 -0.0198518079869227 -0.08499243 -0.03045917 -0.9959159 183 182 175
-0.125808497300983 -0.163041134536901 -0.0192001761123044 -0.03520599 0.0003401808 -0.99938 160 160 158
-0.12384381689996 -0.16693880860478 -0.0197324535179477 -0.08150939 0.03253638 -0.9961414 182 177 175
-0.151144413816478 -0.172451933945583 -0.00514035410128932 -0.9474655 -0.2453818 0.2051751 138 136 90
-0.150148690622045 -0.178337666772874 -0.0109926740092425 -0.9553308 -0.2911799 0.0505689 156 147 101
-0.147803115762694 -0.18285308962663 -0.0033567516503577 -0.9503911 -0.2458164 0.1906069 141 136 106
-0.147271315537097 -0.189578341475207 -0.00766901194568709 -0.9646139 -0.2172677 0.1493812 132 126 98
-0.14747143834887 -0.19082500102019 -0.0117138194705401 -0.9553311 -0.2917458 0.04718947 136 142 89
-0.148165082758405 -0.172241409801999 -0.0188447823302472 -0.2722367 -0.03462577 -0.9616071 175 171 138
-0.1494692797051 -0.180809042069699 -0.015316644782804 -0.9424136 -0.2743153 -0.1913314 136 131 90
-0.14570750332563 -0.178270036452188 -0.0189229095080218 -0.1599 -0.06112449 -0.985239 178 177 145
-0.148331467194307 -0.178353707011553 -0.0180430190707335 -0.5233302 -0.1833002 -0.8321818 174 169 154
-0.148039476244118 -0.185311058985777 -0.0172592958318448 -0.7418817 -0.2093027 -0.6370274 150 147 106
-0.14831664938517 -0.191086566972742 -0.015961605027845 -0.9243528 -0.1857689 -0.3332592 147 133 116
-0.147561066912095 -0.19233086948741 -0.0167280987730751 -0.8630862 -0.2661175 -0.4292594 165 166 130
-0.145448701485248 -0.169017579513875 -0.01789187335481 -0.05788562 0.05280678 -0.9969257 157 162 151
-0.140056577377415 -0.171604758289804 -0.0194129836059406 -0.04388352 0.02159868 -0.9988031 191 190 180
-0.138288610778627 -0.169451810718217 -0.019427253310508 -0.06742207 -0.04940437 -0.9965006 177 179 168
-0.134441077614211 -0.1708221311802 -0.0194936273247679 -0.04568015 -0.01636346 -0.9988221 179 178 168
-0.143302113795381 -0.17657538034228 -0.0193206978420135 -0.04458582 0.008703376 -0.9989676 181 178 160
-0.135858874785208 -0.177381038039776 -0.0196235514767102 -0.1103874 0.01654638 -0.9937509 185 184 176
