ply
format ascii 1.0
comment File exported by Rhinoceros Version 7.0
element vertex 471
property float x
property float y
property float z
property float nx
property float ny
property float nz
property uchar red
property uchar green
property uchar blue
end_header
-0.0255812614832815 0.0362487720765594 0.015942398808069 0.04714752 0.05874426 0.9971591 177 181 188
-0.0404821028667537 0.035105565365244 0.0174206962259501 0.06952382 0.102922 0.9922568 181 181 188
-0.0384685219184338 0.0173827836136352 0.0172684319103054 0.03248303 0.06356796 0.9974487 183 188 195
-0.0372017839833032 0.019241767765533 0.0172042152730269 0.03344212 0.07042821 0.9969561 179 184 189
-0.0366637033660067 0.0162894877528145 0.0173224980914796 0.03530147 0.05339693 0.9979492 183 188 194
-0.0348692332756046 0.017187922480641 0.017219041998624 0.02635573 0.0489525 0.9984533 173 179 185
-0.0353493235044464 0.0205437112955541 0.0171621276929483 0.02455616 0.05141392 0.9983755 181 186 192
-0.0340181555414043 0.0191607536891659 0.0172545767479334 0.04341456 0.04636763 0.9979806 177 182 187
-0.0358911497192338 0.0147948129918248 0.0172584059344973 0.03578769 0.04875274 0.9981695 187 191 198
-0.0339341780505098 0.0135000713315064 0.0174304213287886 0.03881323 0.06318378 0.9972469 190 194 200
-0.0353920873490949 0.0233421213114073 0.0168656135399576 0.02638555 0.0544496 0.9981679 184 189 195
-0.0328803255645873 0.0207163349673632 0.0170165061628015 0.04147132 0.04326771 0.9982024 186 191 197
-0.0311222525724344 0.0221190664938642 0.0167270428745859 0.0342798 0.05923647 0.9976552 189 194 201
-0.0341495154300042 0.0248909468501468 0.016859351624279 0.02878008 0.0606228 0.9977458 179 183 190
-0.0324498851630777 0.023424626416742 0.0168997137923633 0.03412707 0.06165046 0.9975142 181 185 193
-0.0332714999648913 0.0265679616776838 0.0166679899559667 0.03039928 0.05824078 0.9978396 180 187 192
-0.0311013383675398 0.0249387280874291 0.0166828107439227 0.03498899 0.06445745 0.9973069 187 192 198
0.0297326910854978 0.00689485247583588 0.0156347296524154 0.02811807 0.04330556 0.9986661 200 204 213
-0.0298874238308269 0.0180239176680703 0.0169475296979842 0.0365048 0.05041195 0.9980611 192 197 205
-0.0283747280697599 0.0196625116600896 0.0168321789124564 0.02898904 0.04490621 0.9985705 181 186 194
-0.0272493847518822 0.0179315892014426 0.0170590465848862 0.02334069 0.05763479 0.9980649 184 187 194
-0.0290778711837674 0.00932729278313704 0.0174490531716255 0.02752054 0.05855396 0.9979048 191 195 202
-0.0282967834607128 0.00750088967604678 0.0174858629711314 0.01506591 0.045317 0.998859 188 192 198
-0.0269013634355595 0.00932917063348482 0.0174777055066991 0.02839128 0.05792826 0.9979169 185 190 196
-0.0268044260880669 0.0119496326623377 0.0175873768404849 0.01950017 0.06721582 0.9975479 186 188 198
-0.0265507992551197 0.00670738443945851 0.0175207537130542 0.01961915 0.05085826 0.9985132 187 191 198
-0.0238817178717188 0.00359349863107084 0.0180295968902211 0.02736673 0.03183401 0.9991184 198 202 210
-0.0237121813326291 0.00638736586079436 0.0175099763802635 0.03284812 0.04203769 0.9985759 206 210 219
-0.0239799701078254 0.00899436403313625 0.0175196059204044 0.04560793 0.06906369 0.9965692 187 194 201
-0.0255940334232481 0.00795599611591447 0.0176407227070049 0.03176547 0.0567254 0.9978843 189 195 202
-0.0228183475988835 0.00783209864715395 0.0175794462087137 0.04464598 0.06588619 0.9968278 214 218 227
-0.0258129008952137 0.0136917117092068 0.0171450601544099 0.02671829 0.0732205 0.9969578 186 192 197
-0.0240536625776593 0.017631009519504 0.0168463518190952 0.02115183 0.04392888 0.9988107 189 194 202
-0.0227924853920087 0.0162141785740891 0.0168605595886725 0.0254696 0.05299802 0.9982697 209 212 222
-0.0227406636173524 0.0107130297553144 0.0172066834116206 0.05552401 0.06186776 0.9965388 215 220 230
-0.0212805449384255 0.00939538168731913 0.0172272539842509 0.04094334 0.06510154 0.9970383 212 216 227
-0.0210899237790825 0.0124431355417466 0.0170430095452652 0.05386416 0.0658347 0.9963757 226 228 239
-0.031058031085522 0.0274188413892577 0.0165097254441066 0.02660424 0.08057633 0.9963933 174 181 183
-0.0285391093726348 0.0274891894772685 0.0163627522965399 0.02749023 0.06035934 0.9977981 179 184 191
-0.0275284771061566 0.029497542581149 0.0161041118077018 0.01546588 0.07152192 0.9973191 186 191 197
-0.0269246905609091 0.0233731742656369 0.0166741736195422 0.02145401 0.06274965 0.9977987 181 186 193
-0.0250641247490444 0.0249534181882589 0.0166847923273879 0.03006345 0.07028446 0.9970739 167 173 181
-0.0241920734614842 0.0266082712810484 0.0164048453732069 0.02987698 0.07504795 0.9967322 176 182 185
-0.0225755273462633 0.0248866150060174 0.0164381891123316 0.03450438 0.0631336 0.9974084 179 185 191
-0.0216523946236871 0.0234307137454309 0.0166232517356039 0.04567613 0.05641263 0.9973622 192 200 205
-0.025666084741558 0.03044740037909 0.0160930115228843 0.03974628 0.05707531 0.9975784 181 185 192
-0.0254138650368194 0.0335424251258504 0.0161137460332847 0.04767158 0.05736113 0.9972147 182 186 192
-0.0241903966033088 0.0318923013913289 0.0160306930351727 0.04112649 0.05820448 0.9974572 185 190 195
-0.0228523634050473 0.0277943880328796 0.0162057744262329 0.03557774 0.07017875 0.9968998 174 179 183
-0.0214242812779584 0.0264812344731529 0.0161903294434892 0.0468973 0.06275316 0.9969266 179 188 193
-0.0199651626993393 0.0304541801698182 0.0160442170637284 0.0242037 0.06635322 0.9975026 182 187 193
-0.0214149337096066 0.0174809147849179 0.0167037632029023 0.04002203 0.04992091 0.997951 214 218 228
-0.0211291115286709 0.0207921401193686 0.016590288348764 0.04624194 0.04995559 0.9976804 219 223 232
-0.020041370702244 0.0195376421120155 0.0167164724897953 0.04465548 0.05225564 0.9976348 217 220 231
-0.0198305856919272 0.0219435956604236 0.0164912967312697 0.04721248 0.05463016 0.9973899 228 230 241
-0.0186879554956358 0.0149499538480922 0.0166572109827997 0.0463029 0.04164628 0.9980589 217 221 230
-0.0156096227281886 0.012421933993907 0.0167852487358093 0.04236591 0.03698972 0.9984172 190 194 201
-0.0140661803898339 0.0163018401138159 0.0167478668560969 0.04687401 0.04745144 0.9977731 182 187 194
-0.0138124082289757 0.01373418875416 0.0168383925218472 0.03436583 0.04629743 0.9983364 184 189 196
-0.0143170717064476 0.0143289518662149 0.0159910489132691 0.03749908 0.05535697 0.9977622 184 188 196
-0.017191368390427 0.0224955140376268 0.0162530358278586 0.04201482 0.0576046 0.997455 224 226 239
-0.0154466338947885 0.0210982425135641 0.0164915562628547 0.03730507 0.05275198 0.9979106 181 188 196
-0.016434880400138 0.0233009926378392 0.0156168824460307 0.03921718 0.05589988 0.9976659 196 196 209
-0.0141723802704896 0.0223025059551829 0.0162012499400765 0.03116338 0.05309955 0.9981028 185 190 198
-0.0141552826013194 0.0189775622394563 0.0164624760489149 0.03134115 0.04910525 0.9983017 189 193 200
-0.0126839541171253 0.0181925775338528 0.0163145583561937 0.04867487 0.03300817 0.9982691 191 196 203
-0.011241958285749 0.0168339704000322 0.016493547388107 0.03079383 0.04200397 0.9986428 186 191 198
-0.0127930524017996 0.0207123336694945 0.0162368550622883 0.02210325 0.05357549 0.9983191 187 193 199
-0.0125723956498902 0.0233665718718408 0.0163566282801187 0.02389125 0.04518931 0.9986927 186 189 197
-0.0113069088288467 0.0221571745819755 0.0160981893926028 0.02872919 0.04305384 0.9986596 191 195 202
-0.009908938398421 0.0179393447858398 0.016410118030962 0.03701165 0.04799561 0.9981616 191 196 202
-0.0388234658951712 0.0516417508939541 0.0152543519831002 0.02332727 0.08237454 0.9963284 179 184 190
-0.03686478090501 0.0475561385000486 0.0154568152924496 0.03829426 0.06291942 0.9972836 184 187 193
-0.0368426243283548 0.0498386465536201 0.0151748301882057 0.04177676 0.09220645 0.9948632 190 195 200
-0.0359152795074049 0.0488185121797144 0.015424064388441 0.0403048 0.07237717 0.9965626 184 188 194
-0.0381651423951324 0.0537946155339154 0.014695071050347 -0.2489458 0.443013 0.861258 179 181 188
-0.0353704497308174 0.0545051771019551 0.0149698004723578 -0.03993954 0.1853629 0.9818581 184 187 194
-0.0357248183988617 0.0516983526339343 0.0153960333385913 0.02083439 0.06782424 0.9974797 178 181 188
-0.0342724636675369 0.0472133267514041 0.0155624980265107 0.035484 0.04996967 0.9981202 180 185 191
-0.0315414565364072 0.0447236672841211 0.0155579440736916 0.02650652 0.05877184 0.9979195 173 178 185
-0.0330911138879899 0.0486277409007719 0.0154871593903962 0.03695063 0.05895816 0.9975764 177 181 187
-0.030417995212682 0.0486914414967269 0.0152305965597811 0.03130938 0.06092489 0.9976512 188 193 200
-0.0364376262855894 0.0553614211982176 0.0144306219915075 -0.2908097 0.4923799 0.8203607 189 188 192
-0.0355596640970561 0.0563210340648629 0.0143085121007084 -0.3122128 0.5139976 0.7989553 174 176 181
-0.0348905729944295 0.0560236905769566 0.0149528515358239 -0.07270642 0.3113378 0.9475139 180 185 187
-0.0332101151450179 0.0547597287813849 0.0149611160316621 -0.04506448 0.2564099 0.965517 177 182 186
-0.033121551591992 0.0570926370045952 0.0147451199994585 -0.08824901 0.4257517 0.9005263 180 184 188
-0.0302584610719983 0.0547513007100534 0.0150530603503179 0.0382279 0.1623979 0.9859846 180 184 190
-0.032918438079689 0.0515005087341373 0.0151995293726215 0.02756088 0.05452072 0.9981322 184 187 195
-0.0271370662213859 0.0489838627289721 0.0152572453431264 0.03728887 0.06243497 0.9973522 189 192 200
-0.0285726914290132 0.0532635260129483 0.0147838393521988 0.03108587 0.06974699 0.9970803 180 185 190
-0.0259284807214422 0.0502030681629172 0.014982946391498 0.03135142 0.05552818 0.9979648 185 189 194
-0.036781856541428 0.0537337118272441 0.0158558542636199 -0.03067194 0.1837586 0.9824927 161 170 174
-0.0339268961101746 0.0569166745780291 0.0156913251282963 -0.0644933 0.3477159 0.9353792 158 164 173
-0.0302827962777137 0.0432286743331264 0.0156091546695404 0.0330812 0.05967303 0.9976696 178 183 189
-0.0296795639757033 0.0403604767197421 0.0158210484578583 0.03065814 0.06687512 0.9972903 180 183 189
-0.0260850021757708 0.0445770711623081 0.0153862677071041 0.03621381 0.05944648 0.9975744 189 192 199
-0.0272028151380117 0.0377571068603486 0.015807454512561 0.04195951 0.06410339 0.9970608 176 181 188
-0.0260887029432784 0.0388431021074594 0.0156230858114682 0.04326354 0.05419853 0.9975925 183 188 195
-0.0241961017275187 0.0376693964468803 0.0157041476960752 0.04370239 0.05597414 0.9974753 181 185 191
-0.024443995116509 0.0404732706939976 0.015560039171184 0.04327584 0.05589713 0.9974982 189 193 200
-0.0228620135525541 0.038914457889398 0.0154734346748349 0.03673084 0.05378718 0.9978766 194 198 204
-0.027412283780615 0.0460291390462861 0.0153301190487096 0.03274056 0.06079909 0.9976129 180 184 189
-0.025646992751426 0.0476289061319513 0.0152876519506764 0.03699135 0.05892091 0.9975771 187 190 198
-0.0246407546930114 0.0460178040378151 0.0153756939352844 0.03681243 0.06126319 0.9974425 182 187 194
-0.0247816885954744 0.04909369819316 0.0150274624319625 0.0350867 0.06100408 0.9975206 189 192 198
-0.0228704177659278 0.0474268290461172 0.014975152055139 0.03939684 0.05995793 0.9974232 188 191 199
-0.0231141523504346 0.0448414581451579 0.0152201724744553 0.0398438 0.05850585 0.9974916 185 190 197
-0.0215367095729713 0.0402725221187364 0.0155261956953353 0.03244321 0.05649372 0.9978757 184 187 194
-0.0213927549136534 0.046027057258751 0.015175621617409 0.03777955 0.06303311 0.9972961 170 176 183
-0.0191203659292465 0.0430206493933143 0.0152343392705079 0.0461759 0.05793136 0.9972521 183 188 196
-0.0322342488452088 0.0591299937729082 0.0132625030741278 -0.2826616 0.7401747 0.610118 159 166 159
-0.0317841656134825 0.060272951535716 0.0121854743849976 -0.3204306 0.8129097 0.4863147 157 162 151
-0.0320423918823347 0.0579260495813539 0.0147196614161919 -0.1249587 0.470834 0.8733273 178 183 186
-0.0301597637340927 0.0574599611656766 0.0146976124963261 -0.008947917 0.3223793 0.9465683 174 181 182
-0.0275050630460871 0.0574164015168007 0.0144767967730503 -0.02948803 0.2322141 0.9722176 183 186 192
-0.0273606091305836 0.0601410454128417 0.0135928784378361 -0.2077754 0.415335 0.8856219 153 162 162
-0.0262950743598451 0.0589035780158528 0.014219402314353 -0.08940993 0.2318818 0.9686262 168 177 178
-0.026132073170638 0.055703324698519 0.0149032518924531 0.02285665 0.1438272 0.9893388 182 189 192
-0.0260763290231991 0.0530883978748333 0.0149342271372927 0.02721341 0.07574073 0.9967561 180 185 190
-0.024371995129759 0.0544113026955626 0.014683255611275 0.0287624 0.08608136 0.9958729 184 191 194
-0.0234306119806877 0.0529884727763394 0.0147994937883734 0.03281895 0.06353633 0.9974397 179 183 190
-0.0232713616467959 0.0559513319503017 0.014495622869058 0.005294892 0.1152137 0.9933266 180 184 190
-0.0248929159644806 0.0603099294204013 0.0137263538694512 -0.08434316 0.2077527 0.9745384 155 165 164
-0.0218275567279838 0.060063774621068 0.0143542775901112 -0.06272567 0.1258381 0.9900658 185 187 191
-0.0219303197409371 0.0578145703199212 0.0143932133752301 -0.03634188 0.1240746 0.9916071 180 185 191
-0.0200068425480571 0.0591626454629596 0.0140499979658471 -0.02221939 0.08843885 0.9958338 184 188 191
-0.0217676089902015 0.0488913749986831 0.0151159793880088 0.04327253 0.0552015 0.9975371 181 184 192
-0.0201002760990137 0.0500663283081865 0.0148408383256468 0.03687566 0.05326351 0.9978994 179 184 188
-0.0216188294816897 0.054488873285708 0.014826215115324 0.03882367 0.06061516 0.9974059 182 186 191
-0.0204338934498902 0.0531020033732191 0.0147262629032584 0.03627925 0.06402845 0.9972884 172 177 182
-0.0191638127440905 0.0519861636374058 0.0147237393913212 0.02966974 0.05909529 0.9978113 184 186 194
-0.0171318530701972 0.0476788684286266 0.0148532228783547 0.03442905 0.05859068 0.9976882 192 196 201
-0.0172563406298569 0.0451048154998136 0.014932314923198 0.04598701 0.0552711 0.9974118 174 181 185
-0.0174046250841746 0.0507684542778811 0.0146940337944041 0.0393449 0.05515677 0.9977022 172 176 185
-0.0144582573601162 0.0474089747787447 0.0148453900176244 0.0386079 0.05642788 0.9976599 181 186 193
-0.0190987889999223 0.0544706753676795 0.0145033834492457 0.03143893 0.05898289 0.9977638 181 186 191
-0.0161049249153331 0.0577644293439055 0.0143123487995797 0.02595143 0.0494531 0.9984393 184 188 193
-0.0152025049462239 0.0548044106586569 0.0142672691120374 0.0403567 0.05158192 0.997853 187 190 196
-0.0143581341402665 0.0560110730694906 0.0142636842669141 0.03177572 0.04642849 0.9984161 171 179 183
-0.0162436465042282 0.0516256874838856 0.0146509223544619 0.03841318 0.0553352 0.9977286 180 184 191
-0.0145579403997851 0.0504451613325367 0.014601768064633 0.04001943 0.05956228 0.997422 178 181 187
-0.0128986458333782 0.0488630320284629 0.0144283780320786 0.04154051 0.05793929 0.9974555 145 161 170
-0.0131429112380435 0.0516059904794911 0.0146913793467548 0.03936842 0.05954189 0.9974492 176 181 188
-0.0119485416825977 0.0534692171648729 0.0142952453466486 0.03099342 0.04380732 0.9985591 189 192 198
-0.0110614102404072 0.0520534427457819 0.0145232423848896 0.03365074 0.05404723 0.9979712 185 188 194
-0.0228884692095854 0.0359553932868273 0.0155781619476658 0.04010398 0.0561331 0.9976175 176 182 189
-0.0213493546237506 0.0344790920230248 0.0157306291426091 0.03314738 0.05335382 0.9980254 186 192 198
-0.0215714762390369 0.0380486880918787 0.0156238957964963 0.03489829 0.0523544 0.9980186 179 184 190
-0.0186208829040249 0.0350603784345552 0.0156697091745908 0.01896874 0.05682715 0.9982038 184 188 194
-0.0184575622127658 0.0294583578180804 0.0158734568954601 0.0297262 0.06489889 0.997449 202 207 214
-0.0181558323135702 0.0323333349657091 0.0157751257788764 0.02294985 0.06156807 0.997839 182 187 195
-0.0170608271634278 0.0360037964849729 0.015506965445088 0.03263908 0.06988336 0.9970211 187 191 196
-0.01895454896174 0.0375263922108214 0.0155358136783319 0.03322237 0.06490379 0.9973384 189 192 198
-0.0185437375953446 0.0403567022898287 0.0153040106422383 0.03953015 0.06075417 0.9973697 184 190 196
-0.0144097009721 0.0391561074206304 0.0152649314795085 0.02376177 0.06421087 0.9976534 184 188 196
-0.0127665742330065 0.0349104713229832 0.0155161434042445 0.02239557 0.06555598 0.9975975 207 213 220
-0.0144643960999322 0.0360425393282555 0.0154224910588059 0.02816835 0.06883147 0.9972305 190 195 202
-0.0141792468833164 0.0344861758399803 0.0159849400504891 0.02582191 0.05170312 0.9983286 197 203 209
0.0505600726885409 -0.0545272107435976 0.0180878002936115 0.04363257 0.04960597 0.9978153 182 188 193
-0.0124558001992341 0.0321465789590121 0.0154210726393657 0.02877737 0.05399673 0.9981263 229 233 243
-0.0115734069355078 0.0333761735127008 0.0156800497703888 0.03533205 0.05481923 0.997871 223 226 234
-0.0116383088841134 0.0367076067642121 0.0152369962361149 0.01861352 0.06659018 0.9976068 188 196 202
-0.0103821174736498 0.0351580497630445 0.0153828268595778 0.04424853 0.04970848 0.9977831 222 225 234
-0.0143261272605115 0.0277115686173425 0.0160025421714367 0.02572417 0.0535926 0.9982315 203 208 218
-0.0130485195393772 0.0265467371704465 0.0160281226467763 0.0221718 0.06134162 0.9978706 188 192 203
-0.0114529347843364 0.0248486551219016 0.0160439516543319 0.02279831 0.0566876 0.9981316 183 188 195
-0.0102502710970667 0.0295333283953376 0.0158278157078286 0.04114349 0.05699689 0.9975262 183 187 196
-0.0103764641839579 0.0261916756213704 0.0158284374754563 0.04131674 0.06520201 0.9970164 187 191 199
-0.00891365354106188 0.0277884368878814 0.0158484827308722 0.04221748 0.06757803 0.9968204 189 194 202
-0.0098373167710295 0.0241006580255784 0.0160256416067028 0.03943703 0.05509223 0.9977021 183 189 195
-0.00722633329936384 0.0208104774073768 0.0162207303048259 0.02339491 0.04899487 0.998525 187 191 199
-0.0102894533104965 0.0211865282719638 0.0164742526170334 0.03961572 0.04167452 0.9983456 193 197 203
-0.00597938651701391 0.0224860824142233 0.0159352288627614 0.05296971 0.06205305 0.9966663 201 204 212
-0.00589300917882429 0.0251373845081481 0.0158662477932316 0.05055312 0.06876701 0.9963511 192 197 205
-0.00705139262644527 0.02922216096137 0.0156217962376527 0.03792678 0.0547676 0.9977786 183 187 195
-0.00728089532863052 0.0318414468601603 0.0154948147764772 0.0412649 0.05753211 0.9974905 193 196 206
-0.00643637183537349 0.0299951084443926 0.015079750339427 0.03590382 0.06642957 0.9971449 191 193 204
-0.0056391228488919 0.0308001477101525 0.0155782322979129 0.04606456 0.05898793 0.9971953 185 189 196
-0.00325639863035665 0.0250090356861227 0.0156302558688775 0.05400621 0.06048614 0.996707 191 194 204
-0.00459614706499867 0.0295198103502213 0.0154691435280938 0.04314779 0.05141745 0.9977447 191 194 200
-0.00112854077620161 0.0261821002743302 0.0155914954557011 0.05044307 0.06036073 0.9969012 191 194 202
-0.0159072375887499 0.0435564255449117 0.0150907557161216 0.0337803 0.05942426 0.9976611 180 185 191
-0.0143607138263961 0.0447124846990703 0.0149416955111409 0.03782332 0.05983553 0.9974914 189 194 200
-0.0135212572108925 0.0435680620094951 0.0150671735766032 0.02740898 0.06827229 0.9972901 173 179 185
-0.0140177472611707 0.0405674888815724 0.0144323203826101 0.02325399 0.06060221 0.9978911 163 168 174
-0.0118818667297824 0.0421407667331428 0.0150271406830675 0.02491489 0.0608535 0.9978357 183 189 196
-0.00982576974435601 0.0403598019516019 0.0151929074580098 0.01839948 0.06328773 0.9978257 184 189 197
-0.00873879718785364 0.0390567747797361 0.0152968584760231 0.03000207 0.0529309 0.9981474 188 191 198
-0.00746902822423046 0.0405507994019549 0.0149886817745371 0.04513793 0.04717403 0.9978663 189 193 202
-0.00587073632517088 0.0389064697635968 0.0150920112673643 0.04504751 0.04502232 0.9979698 185 189 196
-0.0102359286719262 0.0464912383699996 0.014723501899583 0.0255688 0.06421734 0.9976083 185 191 200
-0.0073310614067954 0.0496720786017959 0.0143222917973066 0.02462808 0.06275167 0.9977252 186 189 195
-0.00597485696044853 0.0477723735281019 0.014496955207454 0.0233677 0.0634367 0.9977123 183 187 193
-0.00457255633466724 0.0405975313522035 0.0149366823982229 0.04711075 0.04932693 0.997671 181 185 191
-0.00326733463419648 0.0450260256609467 0.0146283541724203 0.03334092 0.06444302 0.9973643 182 185 192
-0.00574704800896697 0.033153968330262 0.015248821134624 0.04007093 0.04973032 0.9979585 188 192 202
-0.00304608148154228 0.0328553353633246 0.0154501312386821 0.02941797 0.04922223 0.9983545 185 190 198
-0.00184058003248211 0.0324337853165326 0.0152882491960252 0.02222248 0.04558272 0.9987134 196 201 208
-0.00136826954424096 0.0296190239521475 0.0154528502812038 0.033276 0.03454096 0.9988492 192 195 203
-0.000972637471722049 0.0281220869833672 0.0151013961149917 0.03204941 0.03852052 0.9987437 183 188 196
-0.00047892243214287 0.0307641181150559 0.0153306075589151 0.03996879 0.02969277 0.9987596 193 196 203
0.000947383242660749 0.0292039394460607 0.0153194810745721 0.03109136 0.03368305 0.9989488 191 195 203
0.00113696459513912 0.0324060457814063 0.0152147048356863 0.05031875 0.03933893 0.9979581 182 187 194
0.00273294331170648 0.0310205278289196 0.015273760355223 0.04135564 0.03593555 0.998498 186 190 198
-0.00318539166564502 0.0389110208816326 0.0150078204344339 0.04217703 0.05238494 0.9977359 183 188 195
-0.00171978561751196 0.0408784416115693 0.0147749200160367 0.03613174 0.05608933 0.9977717 181 187 192
-0.00167289281045324 0.0379557942205961 0.0149815138381348 0.02910579 0.05630581 0.9979892 181 186 192
-0.000631414771357086 0.0390831517488053 0.014830814785124 0.03285664 0.05003557 0.9982069 185 190 197
-0.000313037044660458 0.0419120151428531 0.0146227302434291 0.04205123 0.04788115 0.9979675 186 191 198
0.000898215349422138 0.0351521227215411 0.0150263957914716 0.02834435 0.06409643 0.9975411 183 187 192
0.00196076352225427 0.0326072695107746 0.0148453375549211 0.05068165 0.04490319 0.9977049 171 175 179
0.002760661584714 0.0332385588949751 0.0151754705630494 0.03780759 0.04592813 0.998229 185 189 196
0.00437169570351248 0.0323733748716434 0.0150680759365776 0.0307631 0.03730769 0.9988302 195 199 206
0.00236211012654275 0.0369949821645554 0.0147307933469182 0.04383567 0.06171251 0.9971309 181 186 193
0.00665952167736572 0.0354253924500566 0.0150530775354412 0.03483799 0.0707334 0.9968867 185 191 196
-0.0223715087923813 0.0657377251698706 0.011966244513315 -0.2784629 0.8170008 0.5049437 155 154 158
-0.0201810612298416 0.0663194367035864 0.0121257722606623 -0.2291598 0.8179021 0.5277517 166 167 159
-0.0202885714975611 0.0641123410703552 0.0141185284901412 -0.112581 0.3127091 0.9431535 166 171 178
-0.0163801401884323 0.0600217467875089 0.0143238409896707 0.02166392 0.05686082 0.9981471 181 185 192
-0.0173498990132752 0.0645551311496166 0.0139294736728335 -0.04452147 0.3917132 0.9190096 176 183 186
-0.0149789823519373 0.0617474873321686 0.014052131632769 0.01952452 0.07202359 0.9972118 185 189 195
-0.0150393420447053 0.0642864983290328 0.0138085145518282 0.0111862 0.3295398 0.9440754 180 184 190
-0.012011309914977 0.068729604364708 0.0113217380718355 -0.2364959 0.8949239 0.3783924 127 131 130
-0.0105841885727354 0.0683511093019392 0.0112299867973527 -0.2627243 0.903852 0.3376794 122 128 119
-0.014146098288581 0.0670351782775859 0.0132685705416923 -0.1456943 0.7198128 0.6787066 160 172 170
-0.0105431602096453 0.0657181071433937 0.0135494299029235 -0.01089682 0.4402165 0.8978255 185 191 196
-0.0135686790268443 0.0575345057142187 0.014201096505659 0.03577525 0.04765477 0.998223 181 186 192
-0.0121351349319614 0.0588194073678324 0.0141044076321175 0.03423736 0.04312158 0.998483 182 186 192
-0.012109402548218 0.0561220921214836 0.0141790349210525 0.03230952 0.04855422 0.9982979 188 193 199
-0.0136059189520532 0.0604122073978848 0.01400879624234 0.03387059 0.05824878 0.9977273 182 188 194
-0.0116638741837307 0.0615882896422517 0.0139720039481043 0.03859007 0.06869252 0.9968913 182 185 192
-0.0104360511844623 0.0606767213445635 0.0141639666172015 0.03172938 0.06911696 0.9971039 187 193 199
-0.00791781035668571 0.0547524322825252 0.0142762772194138 0.03115433 0.04611422 0.9984502 183 188 193
-0.0105494652696669 0.0576923319946494 0.014072282487507 0.02757985 0.0471359 0.9985077 186 189 194
-0.00901551133849532 0.0591743083489501 0.0139249938007069 0.02255755 0.05595397 0.9981785 180 185 192
-0.0119804054844721 0.0644178594954725 0.013705130202079 0.04095607 0.3138945 0.9485741 184 188 194
-0.0103223203660194 0.0626066541719451 0.0138817577459551 0.03059239 0.06742325 0.9972553 184 187 195
-0.00887394993755297 0.0618316509949066 0.0138173505060155 0.0330384 0.0624243 0.9975027 184 187 194
-0.00890053482216135 0.0642819990659578 0.0135614645802078 0.01409034 0.2395353 0.9707854 184 189 194
-0.0093277846091957 0.0675515968160519 0.013605014472882 -0.1035395 0.5892389 0.8012971 191 193 196
-0.00733819000288971 0.0633898982126131 0.0134655324848891 0.038814 0.1440377 0.9888107 187 188 194
-0.00638786633032584 0.0644138690754068 0.0136132335816209 0.0157569 0.2106566 0.9774331 184 187 193
-0.00652728048037865 0.0585626729505299 0.0138370978433322 0.02924812 0.05110335 0.998265 179 184 190
-0.00638458611001314 0.0615532112661187 0.0136589164466991 0.05439442 0.07632256 0.9955984 184 189 194
-0.00514463791742736 0.0628570771636772 0.0136499526542301 0.04897063 0.09540264 0.9942335 187 190 197
-0.00197654236331557 0.0604734498763868 0.0136361287007651 0.03739825 0.06248477 0.997345 186 190 197
-0.00911849367526685 0.0691990477964033 0.0115710982539594 -0.1568699 0.8739705 0.4599646 97 115 92
-0.00798536224630508 0.0688685487355363 0.0102729457525834 -0.1808505 0.8663489 0.4655456 121 129 115
-0.00667304952950154 0.069359045517889 0.00882539555599668 -0.2320916 0.9666832 0.1079679 116 127 100
-0.0059935946046652 0.0698552662586552 0.0114815567460559 -0.1403837 0.8799235 0.4539021 126 130 117
-0.0066214053304563 0.0685049681255706 0.0121315672344207 -0.1137201 0.7142434 0.690597 181 181 188
-0.00652390384800228 0.0673181561103152 0.013327676414718 -0.08176658 0.4865025 0.8698446 180 184 188
-0.00403491994611871 0.0643144109351934 0.0133943232638035 0.00479328 0.145185 0.9893929 187 193 198
-0.00214270104229053 0.0629042942499483 0.0132178439891445 0.03840788 0.05850204 0.9975482 182 186 191
-0.000867822321513056 0.0621134282090271 0.0134508428917391 0.03419372 0.05680561 0.9977995 181 185 190
-0.00205947004518903 0.0660594859855832 0.0132634121085148 -0.01831501 0.1661493 0.9859305 178 185 190
0.000877387649481864 0.0633505817343798 0.0133162488649053 0.02081145 0.05340866 0.9983559 180 183 189
-0.00269044977196398 0.0709492939715678 0.00908931619140194 -0.2636204 0.9289033 0.2600826 130 135 120
-0.000296092055200869 0.0699798770301011 0.0130527771195381 -0.135698 0.2990831 0.9445292 178 183 187
0.00101707248298011 0.0712778102691136 0.0130899959283441 -0.212332 0.4002186 0.8914821 177 182 183
0.00387469248420791 0.0661381420537489 0.0131031698920327 0.0273464 0.05791362 0.997947 178 185 191
0.00237690622467523 0.0703254663397909 0.0130470115221086 -0.1228613 0.2557891 0.9588937 177 182 188
0.00499341944371157 0.0677220837717788 0.0130160166343321 0.02957406 0.06303483 0.997573 183 187 195
-0.00583994630456797 0.0506921916704387 0.0144387947776652 0.02492236 0.05613429 0.9981121 185 189 194
-0.00399473712204124 0.0534055841575379 0.0141890177706171 0.03540966 0.04733227 0.9982514 185 188 195
-0.0032516230931936 0.0474675577667922 0.0144206903259337 0.03040912 0.05947839 0.9977663 182 186 193
-0.000218918755214403 0.0475184777108831 0.0144344537355894 0.04158619 0.06094702 0.9972743 185 188 196
-0.000603360637736028 0.0447190152257634 0.0143931976949817 0.04779213 0.06220116 0.9969187 187 190 197
0.000743602486040107 0.0459898206328924 0.0144394246657989 0.04103765 0.05749534 0.997502 190 195 198
0.000745615551549506 0.0495867706519281 0.0140774259129543 0.03675892 0.05375284 0.9978775 189 193 199
-0.00179218873779341 0.0547083297842728 0.0139825417486727 0.03904904 0.05043414 0.9979637 175 180 185
-0.00307547289311749 0.0560004401006271 0.0138774829577511 0.05021951 0.06291453 0.9967546 183 187 195
-0.00192545473883277 0.0578765053168285 0.0138312727397454 0.04766562 0.08337355 0.9953777 182 185 192
-0.000679365608233784 0.0565704725046193 0.0136776293755285 0.04074418 0.07546365 0.9963158 181 184 193
-0.000630800914831475 0.0592274037223154 0.0136803254782016 0.03145824 0.06658915 0.9972845 183 188 195
0.00151897741419527 0.0522382590206903 0.0138001428462506 0.02853618 0.05709245 0.997961 187 186 190
0.00342895020264899 0.0492242374223828 0.0141285981925874 0.03138486 0.05558555 0.9979606 184 190 194
0.00382994806352555 0.0508853481352656 0.0140928901191946 0.07251273 0.04240312 0.9964657 185 190 196
0.00232568817613199 0.0445931547471654 0.0144219780226158 0.03920313 0.06330252 0.9972241 192 194 201
0.00152037584726994 0.0437629598027452 0.0146041323247401 0.04764524 0.05558009 0.9973168 188 192 201
0.00384066696279639 0.0407015124602372 0.0146323022055119 0.03767119 0.04961653 0.9980577 183 188 195
0.0049232419881533 0.0420596207251369 0.0144688171875082 0.03426046 0.05865396 0.9976903 184 188 196
0.00288714901330289 0.0400067726045223 0.0146804685253727 0.04428067 0.05459704 0.9975261 201 205 214
0.00382737165874669 0.0433297838170192 0.0144563181949744 0.0370395 0.05371664 0.997869 190 194 199
0.00469605434270948 0.0448983657666704 0.0143190235785025 0.03123112 0.05456063 0.9980219 188 191 197
0.00367082174271793 0.0464869168342538 0.0142767948386252 0.03115181 0.05788664 0.997837 198 201 207
0.00695369117786759 0.0436040554281123 0.0142850811481667 0.01836023 0.06179171 0.9979202 187 192 198
0.00562445468757433 0.0394692138837994 0.014234994177436 0.04068155 0.0564394 0.9975769 179 189 192
0.00591081297676332 0.0398150592668129 0.0145684118432499 0.04327795 0.05844005 0.9973524 161 171 177
0.00767692011007481 0.0393254796357081 0.0145368059875845 0.03084601 0.05284868 0.998126 177 182 190
0.00761588416157011 0.0378653209306063 0.0141881089300329 0.03281489 0.05569666 0.9979084 181 183 192
0.00832443266194893 0.0369894396086353 0.0146467251045697 0.02835059 0.06295031 0.9976139 182 186 192
0.0066486635477756 0.0369736621107966 0.014847740350294 0.03226161 0.05662083 0.9978744 191 195 203
0.00833069961328059 0.0424793163526844 0.0144224856368109 0.03394626 0.03367553 0.9988561 187 190 197
0.00930239664222121 0.04075909728698 0.0144406797759107 0.02315735 0.04121082 0.9988821 187 191 196
0.0104030844074021 0.039469269514856 0.0147205703291965 0.03570797 0.04087723 0.9985259 177 182 186
0.0046851729868771 0.0472429074679384 0.0140658061416431 0.06597205 0.07569618 0.9949461 182 187 191
0.00828895413929898 0.0453245469776556 0.0141648571765936 0.01359971 0.1128885 0.9935146 185 190 195
0.00692128965751193 0.0492904043851228 0.0139694485195315 0.07075189 0.06293468 0.9955066 180 186 191
0.00837347036763525 0.0477181141095266 0.0141508792566098 0.04407943 0.09778422 0.994231 185 190 196
0.00918435803890771 0.0467079623051438 0.014170905505748 0.02617501 0.09321783 0.9953016 189 195 200
0.0104126549562005 0.0480680658467859 0.0136259756099924 0.01801629 0.09552969 0.9952635 187 192 198
0.00974665418612641 0.043560839977177 0.0145186653110633 0.03816166 0.05522648 0.9977443 191 193 201
0.0107414514600936 0.0445865957475097 0.0142928818695886 0.03792579 0.05266071 0.997892 185 190 196
0.0115160338231104 0.041821056796959 0.0143936242766407 0.03821387 0.04967958 0.9980339 187 190 196
0.012433975264845 0.0406180579150339 0.0141208603019178 0.0314713 0.04107874 0.9986601 190 193 200
0.0121084989952878 0.0460515289035089 0.0141224160391345 0.03205832 0.05955932 0.9977099 183 188 193
0.0140772785016186 0.0453159914072715 0.0139552428387854 0.03339718 0.05345836 0.9980114 187 192 199
0.00230161994058786 0.0592066369441776 0.0135767655631729 0.02105072 0.06628243 0.9975788 182 188 196
0.00377316674581341 0.0581287542221429 0.0135173600666357 0.01148287 0.07359286 0.9972222 185 190 195
0.00315272198387984 0.0630658373221241 0.0134516517249356 0.01071467 0.0436851 0.9989879 186 188 196
0.00493454085732914 0.0594547798898655 0.0134047999674352 0.01141563 0.0571555 0.9983 183 188 195
0.00385055936482859 0.0602812453851229 0.0136372963387073 0.008453205 0.05487703 0.9984573 185 190 196
0.00521441587139559 0.0543491474250642 0.0136553470336766 0.05603177 0.0291511 0.9980034 189 193 199
0.00655302359011056 0.0550592655410245 0.0136805460516816 0.03438232 0.05380807 0.9979592 180 184 191
0.00515620485283241 0.0566422929550117 0.0137745882959398 0.006730434 0.06635147 0.9977736 188 192 198
0.00664838161669357 0.0579017183400975 0.0134534675953829 0.03028333 0.06464268 0.9974489 184 189 194
0.00650556212431042 0.0636968466147214 0.0131552130080635 0.02837317 0.05640926 0.9980045 184 186 193
0.00731222829649214 0.0619694529911057 0.0132359688261527 0.03461978 0.05786328 0.9977241 178 182 188
0.00781482226020014 0.067823891475101 0.0128678293639395 0.02753596 0.05569627 0.998068 181 186 191
0.0105892938894092 0.0648185477560372 0.0130070752827013 0.04240189 0.05620663 0.9975184 183 188 193
0.0107011870804179 0.0616359183677229 0.0132535452453716 0.03571079 0.06992006 0.9969132 182 186 192
0.0118284152737123 0.0633217280828666 0.0131118353951672 0.03490566 0.06712263 0.997134 185 188 193
0.011970056663051 0.0609689633927233 0.013266391996295 0.04040075 0.07439025 0.9964105 185 189 196
0.0121371906027075 0.0598670990903279 0.0128299651974492 0.03793136 0.05777227 0.997609 189 194 203
0.00899760364427404 0.0499226533436526 0.0116642256405273 0.04061849 0.06366113 0.9971446 183 184 186
0.00891488766045656 0.0518239872795029 0.013800859999565 0.04814836 0.04035938 0.9980245 184 189 195
0.0108394070416606 0.0536110459878075 0.0136863378516374 0.01831734 0.003722561 0.9998253 182 187 192
0.0104734476841037 0.0548777355672715 0.0136249811793815 0.0393522 -0.007410794 0.9991979 184 189 195
0.0135682908813419 0.0535397395086613 0.0135898145359314 0.01314332 0.05342227 0.9984855 190 193 200
0.0142847776491326 0.0512601949297128 0.0134038837047993 0.00585664 0.06831025 0.9976469 192 194 206
0.0134903679917437 0.0505715052315873 0.0138308950909192 -0.04443283 0.05138567 0.99769 186 190 196
0.0129878178111325 0.048809339675994 0.0141758520503957 -0.02131528 0.08472542 0.9961763 190 195 201
0.0149508312080862 0.044234730762302 0.01406539734438 0.03226253 0.05598559 0.9979102 186 190 196
0.0161657774695656 0.0451316299640236 0.0141241669459701 0.02761376 0.05687039 0.9979996 187 190 198
0.0151297937672177 0.0490109415745166 0.0139226585326781 -0.003545588 0.06527482 0.997861 188 191 199
0.0180031615669707 0.0466047373135592 0.0136394368958901 0.0340405 0.04942513 0.9981976 188 192 200
0.0166218437819556 0.0479284364181671 0.0138741213839827 0.03960345 0.05622585 0.9976323 178 183 189
0.0176626814794592 0.0493214831204348 0.0136347768064544 0.04111596 0.05917194 0.9974007 176 181 186
0.0197025280325618 0.0476668334286112 0.0138050886206397 0.0539266 0.05194796 0.9971927 182 187 193
0.0151130224083418 0.0548059811735616 0.0131023911784722 0.01740415 0.04737267 0.9987257 184 189 195
0.0147826564314784 0.0573184164275869 0.0132922242254301 0.04553941 0.04789173 0.9978139 192 196 203
0.0173888996749287 0.0549081753151429 0.0132762766040199 0.02684793 0.06473631 0.9975412 183 186 193
0.0176715216627854 0.0550463779769433 0.013100991196778 0.02505052 0.0653009 0.9975511 184 190 194
0.0190911907549913 0.0566432918841456 0.0132514754893744 0.02125743 0.07050159 0.9972851 185 188 197
0.0159601875727162 0.0523465078166663 0.0135794075174362 0.000454793 0.05865335 0.9982783 182 187 192
0.0178972424178707 0.0517532885277261 0.0135530234195451 0.03768756 0.06922016 0.9968893 186 190 198
0.0192651433895961 0.0507992893902193 0.013577715394602 0.03133053 0.05672774 0.997898 182 186 192
0.0214514298178492 0.0529942628152105 0.0131546719907552 0.02142062 0.05144188 0.9984462 181 186 192
0.00666006867993563 0.0741255640529791 0.0122848975506934 -0.2111489 0.5399597 0.8147759 179 182 184
0.00897204638409166 0.0718615486888773 0.0125463399407827 0.02011023 0.05648455 0.9982009 181 186 193
0.00929252050837803 0.0748117803599918 0.0125357683321995 -0.1866806 0.439292 0.8787336 181 184 190
0.01019744524032 0.0764467634007735 0.0124430111067755 -0.2991463 0.4247253 0.8544706 180 187 190
0.0123848407953124 0.077578130033422 0.0124816431426876 -0.2519547 0.4853633 0.8372223 176 181 181
0.01426245343385 0.0771395209610951 0.0122437656261582 -0.04912785 0.1401053 0.9889171 179 182 188
0.0152282759132008 0.078640422028988 0.01232200793588 -0.1016567 0.3473805 0.9321978 168 180 177
0.0190280323082987 0.0832558271617543 0.0089573128175213 -0.2117261 0.9251845 0.3149692 107 124 73
0.00898731422922383 0.0687096680994006 0.012927852240051 0.0363192 0.05486774 0.9978329 180 186 192
0.0117170598867489 0.066230725262676 0.0128791418917645 0.04785733 0.05267746 0.9974642 186 190 197
0.0119444702726739 0.0695354261057898 0.0126104428970399 0.03934446 0.03492086 0.9986153 186 189 193
0.0105279119142554 0.0705094425863886 0.0127621214010833 0.03084194 0.05119196 0.9982125 182 186 191
0.0134568785227076 0.0675789790344243 0.0128642875350019 0.04004066 0.04736238 0.9980749 188 191 197
0.0164399518046334 0.0651618996259058 0.0128399025717736 0.01261262 0.05586033 0.9983589 189 193 200
0.0144964594313732 0.0722371369571545 0.0124829441680858 0.04476224 0.04373342 0.99804 184 187 194
0.0160651920361636 0.0733377061448972 0.0122708324818925 0.03753116 0.03713432 0.9986053 177 181 186
0.0148910774370847 0.0749343787333936 0.0122906599393322 0.04259583 0.05173822 0.9977518 178 179 186
0.0177843492319028 0.0716562373969094 0.012259583138425 0.03010768 0.05391123 0.9980918 185 189 195
0.016805408224124 0.067858319142066 0.0122195425958574 0.01012227 0.05564893 0.9983991 188 189 198
0.0164411926485237 0.0675779927702026 0.0127281386748133 0.008462707 0.05688905 0.9983447 186 190 196
0.0187703772170327 0.0685928349101309 0.0123259488773386 0.02328664 0.06623761 0.9975321 181 185 193
0.0207826241151983 0.0690252509521286 0.0125129977529867 0.03583639 0.06199555 0.9974328 183 187 194
0.0216762054815662 0.0674361064169881 0.012883782732624 0.03500488 0.06273347 0.9974163 180 185 192
0.0163708760882035 0.0594299198889937 0.0132057521045047 0.03687855 0.0447808 0.9983159 189 191 197
0.0192094540534349 0.0598641721867721 0.0130274643964934 0.03475051 0.04835371 0.9982256 185 190 195
0.0214736958584427 0.0586788820525865 0.0128039563069504 0.03347189 0.06693604 0.9971957 198 201 209
0.0209759449137943 0.0556129070918874 0.0132937203047762 0.03386099 0.07414713 0.9966723 184 188 194
0.0242499266473288 0.0523699399503581 0.0132858194510881 0.03061218 0.05091881 0.9982335 184 187 195
0.0236373755172767 0.0552262265639213 0.0132746166274637 0.02368044 0.06539759 0.9975783 186 190 195
0.0249475587884245 0.0533966681488622 0.0132438364967926 0.03693271 0.06135453 0.9974325 183 187 192
0.0246326239643944 0.0568531515899419 0.0130182583819266 0.02973174 0.07032918 0.9970806 188 190 201
0.0260424107451738 0.0543475915870165 0.0133002299238993 0.03396128 0.06064616 0.9975814 184 188 195
0.0214809034510464 0.0651501473550101 0.0126467252323679 0.04127535 0.05307044 0.9977373 184 187 194
0.0229789057497287 0.0602778055720015 0.0125849736729561 0.0314395 0.04903987 0.9983019 192 196 204
0.0233046527688341 0.0634748277890026 0.0127285385710167 0.05145236 0.04167593 0.9978055 191 195 200
0.0234216780934551 0.0629175295434267 0.012396131282412 0.05338629 0.03476797 0.9979685 188 193 199
0.0231346892431121 0.0664760986318357 0.0126028599581031 0.04407408 0.05845784 0.9973165 184 188 194
0.0241808758896012 0.0648067524419567 0.0125940901919967 0.04948496 0.04683093 0.9976764 186 189 194
0.0255166451649704 0.0636459598253135 0.0126968990762637 0.04268546 0.05628045 0.9975021 189 192 199
0.0249838538721057 0.0651612489337349 0.0122668970744026 0.05924535 0.05351666 0.9968079 189 191 196
0.0246396704974647 0.059859848281293 0.0126849204985969 0.03264389 0.06473922 0.9973682 187 193 196
0.0248232490860105 0.0607756326576685 0.0129798749202404 0.02807915 0.05590611 0.9980411 194 199 204
0.0256625906532575 0.0580226992727414 0.0129812605351116 0.02522845 0.06973767 0.9972463 191 194 200
0.026909959321697 0.056523020779033 0.0128906870703649 0.04292115 0.06375989 0.9970418 193 199 206
0.0280419603093356 0.0568296325992995 0.0129614274193555 0.02567792 0.07070936 0.9971664 190 194 199
0.0279367870304315 0.0590714102360509 0.0126563024929062 0.03351434 0.05326265 0.998018 192 197 203
0.0276711893871298 0.0622234499828607 0.0126294880271048 0.02862466 0.08141616 0.996269 186 190 197
0.0280333183905039 0.0630716931787422 0.012376800134683 0.0194698 0.0615301 0.9979153 190 195 201
0.028411951500487 0.0635640993151865 0.0125997403956715 0.02790898 0.06051427 0.9977771 189 191 199
0.0292369778046697 0.0610464994448382 0.012533798220732 0.01898614 0.07169189 0.9972461 188 193 199
0.0162132078608592 0.0763237877628118 0.0120733451518965 0.04133893 0.05979841 0.9973541 185 188 194
0.017777104089177 0.0776054470631276 0.0121291830572437 0.03773563 0.06960938 0.9968603 179 184 188
0.0203536927771339 0.0751266096739164 0.0123151648166797 0.0282128 0.05729851 0.9979584 183 188 194
0.0206012637931061 0.07194675932182 0.0122892563536054 0.0285627 0.05660191 0.9979882 181 187 192
0.0219317775729126 0.0711530320325906 0.0123214853848365 0.03514078 0.06251379 0.9974253 184 188 196
0.0217734902376607 0.073503798696951 0.0123326275024813 0.03420042 0.04976268 0.9981753 179 183 189
0.0265285744947414 0.0719836505278367 0.0121259800572521 0.01937084 0.05883426 0.9980798 183 186 193
0.0199904062576457 0.0801729849678072 0.0116863531823635 -0.05829133 0.3750184 0.9251828 183 186 192
0.022703905844295 0.0819212635497152 0.0115556496784262 -0.1417724 0.5429633 0.8277025 181 184 188
0.0229629706330896 0.0828653989791901 0.0115545902636474 -0.1359367 0.6843615 0.7163593 184 184 183
0.0247974843902434 0.0812720686220305 0.0116892054302205 -0.03551666 0.1926068 0.9806331 185 191 195
0.0260988312438535 0.0801524982815555 0.0116279450835579 -0.005153731 0.1492935 0.9887795 183 188 195
0.0259990585375487 0.0746862932841337 0.0119230304953842 0.03587879 0.0543816 0.9978754 183 185 192
0.0269874242309567 0.0728896440394434 0.0120440598340153 0.02035661 0.05694136 0.99817 187 194 202
0.0289922400847105 0.0777366579312794 0.0116608795764024 0.03213325 0.05129959 0.9981662 183 189 199
0.0304894733347827 0.0762064639573373 0.0118491638752516 0.03650485 0.06970759 0.9968993 185 189 196
0.029651163908015 0.0749149155097758 0.0120074143430998 0.02880839 0.06811202 0.9972616 191 190 201
0.0272326679957331 0.0674130066439339 0.0123546468985778 0.03734755 0.04058028 0.9984781 184 189 196
0.0261056069645931 0.0694626730075197 0.0119996325693238 0.04728855 0.05754635 0.9972222 186 188 196
0.0287782639760321 0.0697049373161356 0.0122335441576678 0.03150364 0.04110884 0.9986579 185 188 196
0.0287453161405202 0.0672885196634417 0.0123456997569518 0.01963457 0.0352646 0.9991851 181 186 195
0.0296532948966921 0.0654878888805034 0.0119643005031186 0.02253575 0.04515096 0.998726 182 185 192
0.0302127277365898 0.061828506401104 0.0124379366351433 0.001743616 0.06902728 0.9976133 186 190 197
0.0318614655219567 0.0608272994268189 0.0127139495910675 0.02942489 0.04971627 0.9983298 183 187 194
0.0305724226093278 0.0661966607383937 0.0123552939687794 0.02264274 0.04743653 0.9986176 186 190 197
0.0308734923415139 0.0673303977466662 0.0120925030875987 0.02479798 0.02951389 0.9992567 186 189 197
0.0319134147090065 0.0665790431717519 0.0122529628492949 0.03198262 0.05789684 0.9978101 187 191 197
0.0337740725055218 0.0645142652277226 0.0123298829375433 0.01394199 0.06666972 0.9976777 192 195 202
0.0333248300945765 0.0624515391884137 0.0125613176904202 0.02779572 0.05642255 0.99802 186 190 198
0.0301666191977472 0.0705097464954119 0.0120824594755268 0.02785356 0.04969375 0.998376 177 182 190
0.0321502275454093 0.0692812937425307 0.0121287467552815 0.02528066 0.04737157 0.9985574 184 188 194
0.0326882883455246 0.0711979926510627 0.0121066860539009 0.02240957 0.0621598 0.9978146 177 183 189
0.0318157536366064 0.0712862128997283 0.0123925887629352 0.02769564 0.06281929 0.9976406 186 196 200
0.0318409191084914 0.0748352337844655 0.0119047987423773 0.03495041 0.06254059 0.9974303 191 194 201
0.0321636121147728 0.0734144058521355 0.0117443191444254 0.03758426 0.06093019 0.9974342 195 199 206
0.0333682064256231 0.0666207062722458 0.0124285490944559 0.01682218 0.04576571 0.9988105 189 189 197
0.0337860575411182 0.0659343306895416 0.0121106294129402 0.02460968 0.06592072 0.9975213 185 191 197
0.0366662039029806 0.070138888720109 0.0124159592979452 0.02548643 0.0529568 0.9982715 192 199 215
0.0373923099030709 0.0676377825777432 0.0120854206089526 0.02229954 0.0562557 0.9981673 179 187 190
0.0373359728631839 0.0692804260959905 0.0117161937919234 0.03558648 0.04351411 0.9984188 182 184 191
0.0388562166835826 0.067625349338424 0.0120918002113953 0.02765324 0.05740696 0.9979678 184 188 194
0.0539959075279079 -0.0274547759391069 0.0169951159799541 0.04369958 0.07093687 0.9965231 195 199 208
0.0600504943271951 0.0636379019613339 0.0113896366448007 0.02492867 0.06327125 0.997685 178 184 190
0.0848233589119958 -0.0460965325933396 0.0182749115794637 0.383408 0.01128366 0.9235101 193 196 200
0.0466078706601278 0.0382635376412483 0.0132479252663329 0.03341911 0.06216988 0.9975059 187 191 198
0.065016008886877 0.0225307055453293 0.013414303354715 0.03054335 0.05661221 0.9979289 191 195 203
0.056994688047979 0.000272013833108153 0.0152640393976915 0.02539719 0.0544519 0.9981934 183 188 194
0.0241936748466647 0.0834440055496709 0.00748592576397014 -0.1001877 0.9695552 0.2234395 126 131 124
0.0273162166720318 0.0819322338122703 0.011463621904122 -0.07229247 0.2430975 0.9673042 177 184 189
0.0291977683344182 0.0831918217046631 0.0113390251380184 -0.08802799 0.2155823 0.9725098 180 187 191
0.0316611317617199 0.0834716636300159 0.0111969132023663 0.03457617 0.04218659 0.9985113 184 190 194
0.0348975203070552 0.0813149976129657 0.0115686522241808 0.0454089 0.04910985 0.9977606 182 187 194
0.0343444631054313 0.0865357097649978 0.0111892456176684 0.04270934 0.04767665 0.9979493 180 182 184
0.0358242436165765 0.0853831830949338 0.0107335340091844 0.05129478 0.03113752 0.998198 183 188 190
0.0374409149184549 0.0838500720624679 0.0113175239346754 0.05883168 0.04176812 0.9973937 183 186 193
0.0324835328167596 0.0755988895160099 0.0114532750581106 0.02695664 0.06659374 0.997416 194 197 204
0.0345215106342733 0.0748229786705761 0.0116865224864949 0.03900438 0.06862724 0.9968796 186 190 197
0.0349683765881288 0.0728661680120988 0.0115919648010629 0.03750075 0.06824804 0.9969633 183 190 197
0.0358081406738613 0.0766338329613399 0.0115755895940836 0.02534133 0.06579731 0.9975111 185 189 197
0.0370638572179551 0.0748852011904758 0.0114947286903043 0.02210575 0.07777181 0.9967261 189 194 203
0.0346041116347937 0.0778777289852257 0.0114955198688104 0.03338014 0.05684682 0.9978247 190 193 199
0.0381249686376424 0.0762049204690584 0.0115483936367591 0.005074025 0.07290461 0.997326 187 189 199
0.0375346010010156 0.07226796732757 0.0118367371652955 0.01913252 0.05596649 0.9982493 188 192 196
0.0387285498222205 0.0732216284213288 0.0117602406323689 0.02870754 0.05352956 0.9981535 183 187 195
0.0399567345007168 0.0692784341043831 0.0116256962037267 0.03260093 0.05074086 0.9981796 181 184 191
0.0394997350079263 0.0711450096656161 0.0118318756546092 0.03278084 0.04811805 0.9983036 184 187 192
0.0413438085448314 0.0730165054763166 0.0114170711929066 0.03666748 0.06312706 0.9973317 188 190 196
0.0364354721682445 0.0795542964142752 0.0107261263161206 0.03287733 0.05393342 0.9980031 183 187 195
0.0375033532468256 0.0786144714305383 0.0112301072887233 0.02631645 0.07916161 0.9965144 181 184 188
0.0397173110096549 0.0795237859561895 0.0110508607963623 0.01007011 0.08745386 0.9961177 184 186 190
0.0405879548900332 0.0786138515560024 0.0111040437653591 0.02098091 0.06020113 0.9979658 188 190 198
