ply
format ascii 1.0
comment File exported by Rhinoceros Version 7.0
element vertex 471
property float x
property float y
property float z
property float nx
property float ny
property float nz
property uchar red
property uchar green
property uchar blue
end_header
-0.0349891104460484 -0.0429459268690473 0.0112031866473297 -0.2724965 -0.8631383 -0.4251328 104 104 104
-0.0356555301830083 -0.0424308265824223 0.0101645078444003 -0.2772803 -0.8494275 -0.4489862 101 101 101
-0.037261091460785 -0.0422504419678289 0.0112306651013945 -0.3699083 -0.8320259 -0.4134013 126 126 126
-0.0369928661838653 -0.0413407150860634 0.00954057011379267 -0.3338816 -0.7567437 -0.5620161 124 124 124
-0.0347587949396412 -0.040111184801821 0.00774946480652233 -0.2632033 -0.6273375 -0.73292 129 129 129
-0.0354657793303891 -0.0397469369121557 0.00785277093732634 -0.2824912 -0.5941669 -0.7531032 139 139 139
-0.038368647839789 -0.0410703988482088 0.0106243068263858 -0.4534425 -0.7599033 -0.4657649 120 120 120
-0.0390565330141827 -0.042269538775737 0.0130281187674559 -0.5032567 -0.8222239 -0.2658581 124 124 124
-0.0388151051041042 -0.041590144150949 0.0125720531804812 -0.5416725 -0.7880461 -0.2925306 123 123 123
-0.0407989649027188 -0.0397307880648559 0.0147060823456166 -0.6690114 -0.7288517 -0.1455985 98 98 98
-0.0395883164689851 -0.0405504008001831 0.0116350798505153 -0.5434379 -0.74794 -0.3811312 113 113 113
-0.0359668356881634 -0.0394442862983007 0.0076532482275779 -0.3002922 -0.6019374 -0.7399297 135 135 135
-0.0375321405974421 -0.0393159962031497 0.00755584459791431 -0.3362619 -0.5981176 -0.7274498 122 122 122
-0.0395850299700969 -0.0380586557312472 0.00819869519112787 -0.354009 -0.597166 -0.719771 109 109 109
0.0712426411896842 -0.000367062469064594 -0.0135865861142648 0.4980209 0.1417268 -0.8555049 120 120 120
0.0713520420932551 0.00162382609531098 -0.0129248452469721 0.5609473 0.2189351 -0.7983768 138 138 138
0.0695986111659032 -0.0032708559849326 -0.0148767624339777 0.3921612 0.02113035 -0.9196538 114 114 114
0.0660063062903581 -0.00483054594783483 -0.0160661971919832 0.2430691 0.03239788 -0.9694678 117 117 117
0.0669251929086049 -0.00457195196816707 -0.0157004709839061 0.2921999 -0.009699583 -0.9563081 117 117 117
0.0675385525410782 -0.00386000802863196 -0.015286083118751 0.3104794 0.009927664 -0.9505283 124 124 124
0.0694949980556608 -0.00098670625750219 -0.014881470566207 0.4065129 0.1080697 -0.9072311 109 109 109
0.0653982117458852 -0.00390727151715198 -0.0156229493800061 0.1960932 0.1078412 -0.9746372 115 115 115
0.0651845557180363 -0.000812326919912953 -0.0151874245923573 0.1122567 0.1207221 -0.9863187 107 107 107
0.0646229208561152 -0.00562945516635138 -0.0159677086700223 0.2385895 0.02434236 -0.9708154 128 128 128
0.061903148564073 -0.00664751494119842 -0.0169567932192023 0.1979556 -0.01243398 -0.9801321 117 117 117
0.0634262662149389 -0.00364909852270734 -0.0161633248653006 0.1608735 0.1669876 -0.972746 104 104 104
0.0590338216466481 -0.00511436665920217 -0.0171544099313676 0.1052527 0.1553716 -0.9822329 97 97 97
0.0623426752754054 -0.00185295989859036 -0.0158833586390092 0.1162596 0.202117 -0.9724363 93 93 93
0.0611050761970199 -0.00224215073745104 -0.0160456462423169 0.1096414 0.2186088 -0.9696334 92 92 92
0.060999257206043 -0.00405618669647967 -0.0165458888557764 0.1553113 0.1935567 -0.9687178 95 95 95
0.0590972183957105 -0.0028572605338586 -0.0161414504359128 0.08458526 0.2524498 -0.9639058 98 98 98
0.0692351406973789 0.000212167341561598 -0.0144939537134315 0.3463534 0.1333148 -0.9285831 120 120 120
0.0683141537415314 0.000222700487345406 -0.0151476566285956 0.3095213 0.1433919 -0.9400188 115 115 115
0.0684176420063863 0.00186754075853046 -0.0146763326601256 0.3451405 0.1717117 -0.9227096 113 113 113
0.0672111974146242 0.00148584028343723 -0.014739309842633 0.2243732 0.1406443 -0.9643007 114 114 114
0.0665699285955853 -0.0006011958518648 -0.0150604362634018 0.1691837 0.1175705 -0.9785469 116 116 116
0.0664201378421124 0.00117373241297236 -0.0150390917518484 0.1763031 0.1038207 -0.9788455 112 112 112
0.064333142626401 0.00116138760713436 -0.0149075679889593 0.08666916 0.1122032 -0.9898984 103 103 103
0.0659421640289567 0.00354538201638266 -0.0149129478635531 0.2043115 0.1619582 -0.9654151 107 107 107
0.0669990124381553 0.0048239844416138 -0.0141614295369439 0.2532572 0.177545 -0.9509672 93 93 93
0.063869994115015 0.00234151726316845 -0.015062371447812 0.08876137 0.09510662 -0.991502 104 104 104
0.0637183332439361 0.0050066163181437 -0.0149762884339708 0.1041411 0.1164987 -0.9877159 119 119 119
0.0629643437455071 0.00469787060474824 -0.015076055174549 0.1054917 0.1090335 -0.9884246 126 126 126
0.0626538269690299 0.000394409038557031 -0.0154475755969999 0.08158191 0.1310786 -0.9880095 99 99 99
0.0609585568165488 -0.00085740445373772 -0.0156239973952219 0.08845779 0.2158592 -0.9724094 97 97 97
0.0621589411146034 0.00192126006803273 -0.0150752539214568 0.0562276 0.09104224 -0.9942584 106 106 106
0.0587125262020151 -0.00387469840638954 -0.0168701936588906 0.08976147 0.2305144 -0.96892 98 98 98
0.0578018354679285 -0.00113156422484395 -0.0158583183285636 0.1083884 0.2066221 -0.9723988 91 91 91
0.0597639960126229 0.000269911446890037 -0.0159139440664186 0.09001251 0.1955073 -0.9765627 81 81 81
0.0577438086573913 0.000596694287190447 -0.0155629614884118 0.1169214 0.1978591 -0.9732323 95 95 95
0.0574890606948083 0.00314799432106994 -0.0151488800331814 0.0946617 0.1200763 -0.9882413 108 108 108
0.0569911327971467 0.00447764025453545 -0.0151420481968952 0.0728367 0.08840711 -0.9934179 112 112 112
0.0699099602847927 0.00546109438298026 -0.0127868627060401 0.586425 0.2318975 -0.7760987 109 109 109
0.0692591961116998 0.00793909054926445 -0.0123339563154487 0.5350525 0.1480789 -0.83174 90 90 90
0.0683866023714598 0.0114291136753106 -0.0123986472705024 0.4755618 0.2045042 -0.8555811 108 108 108
0.0705384136203718 0.0133708904509147 -0.0113122321211802 0.5464957 0.1662731 -0.8207898 95 95 95
0.0706652424817328 0.0116214005047779 -0.0100230910796613 0.6237639 0.1513812 -0.766813 73 73 73
0.0684646520480979 0.0131697433720994 -0.0126580909915934 0.4680396 0.2061315 -0.8593304 92 92 92
0.0690139988393513 0.0138487151368023 -0.0114273055361816 0.4680396 0.2061315 -0.8593304 116 116 116
0.0664915034698529 0.013848006778695 -0.0133807091156712 0.3583876 0.1964516 -0.9126692 85 85 85
0.0662001748843631 0.0154610120529284 -0.0130979096737719 0.337576 0.227217 -0.9134631 103 103 103
0.0667322302982193 0.00542709443872957 -0.0143710671785197 0.2459165 0.1640123 -0.9553141 74 74 74
0.0661325275392278 0.00982788222504638 -0.013639229553387 0.3339337 0.1266225 -0.934053 96 96 96
0.0653015028282277 0.0087151933205154 -0.0137625175062229 0.2510225 0.1178389 -0.9607818 96 96 96
0.0620640186712363 0.00602710487403768 -0.0150997086877085 0.1013615 0.07494582 -0.9920227 104 104 104
0.0585904600934889 0.00488228259159484 -0.0150012585178751 0.04312443 0.06477684 -0.9969676 120 120 120
0.0616056510899613 0.00675642096553264 -0.0150561442606376 0.09595739 0.05820883 -0.993682 101 101 101
0.058180664513969 0.00744152147349708 -0.0151255059287825 0.04272209 0.009941038 -0.9990376 91 91 91
0.0564735550435701 0.00667440557711552 -0.0151885873473299 0.05141488 0.03352983 -0.9981143 96 96 96
0.0586401826689297 0.00893216160478993 -0.0148954750349455 0.05930313 0.02420124 -0.9979466 120 120 120
0.059591063348348 0.0104141756279883 -0.0151584208118652 0.1288721 0.08934112 -0.9876286 132 132 132
0.0643328571108176 0.0119208702781675 -0.0136226705653347 0.225311 0.1355405 -0.9648128 93 93 93
0.0624942229590634 0.0155017908966928 -0.0135336985952448 0.1603317 0.1920083 -0.9682079 78 78 78
0.060467213042274 0.0145214615585407 -0.014006511260419 0.1589194 0.2106809 -0.9645508 96 96 96
0.0592124164213857 0.0113867992820633 -0.0150079568430475 0.1245574 0.1158804 -0.9854223 113 113 113
0.0581972109363643 0.0112492390283603 -0.0155844889218933 0.06621979 0.09020148 -0.9937196 103 103 103
0.0573021500523357 0.0111607830029861 -0.015059831428457 0.05451206 0.1001234 -0.9934806 128 128 128
0.0563978458285409 0.0133765010796065 -0.015092430092435 0.03884419 0.1374309 -0.9897494 117 117 117
0.0593424009355564 0.0146996727796964 -0.0141073113693238 0.1554708 0.2150259 -0.9641539 98 98 98
0.0577493539999622 0.0159526719901406 -0.0144818405996048 0.1151638 0.2293672 -0.966503 101 101 101
0.0545465618402902 0.0133942926249702 -0.0149584742227609 0.009785905 0.1212958 -0.9925681 131 131 131
0.0569415414001425 -0.00620724947899931 -0.0179087179317348 0.155931 0.1029292 -0.9823905 86 86 86
0.0577462213390197 -0.00524140697120568 -0.0170398601341207 0.1055305 0.114172 -0.9878401 102 102 102
0.0570652796893657 -0.00386729675024 -0.0168880030169634 0.1043594 0.2232653 -0.9691551 109 109 109
0.0551311613010484 -0.00538870523126023 -0.017816882295376 0.1426401 0.2371188 -0.9609519 105 105 105
0.0528778064081442 -0.00555443110876452 -0.0178504181356687 0.1624816 0.2105092 -0.9639946 92 92 92
0.0543352488032552 -0.00461702112178819 -0.0169072818133607 0.1299837 0.2468859 -0.9602873 108 108 108
0.0527435583262928 -0.00296582937950896 -0.0169322969582058 0.1136284 0.2514737 -0.9611709 117 117 117
0.0524646136269998 -0.00636790797719233 -0.0187803276447151 0.1742278 0.2120664 -0.9615989 82 82 82
0.0485037784072945 -0.00757857980233534 -0.0197226401417728 0.1294007 0.1219056 -0.9840704 114 114 114
0.0466637513710116 -0.00818975504149377 -0.0197737936329608 0.1319799 0.09874608 -0.9863217 135 135 135
0.0483915559411042 -0.00525085233115408 -0.0182612981343366 0.1163043 0.3057519 -0.944981 105 105 105
0.0518276987602159 -0.00363230879089715 -0.0174887219962434 0.1244274 0.2571579 -0.9583254 103 103 103
0.0497623820441383 -0.00270272779698311 -0.0174422897570125 0.105679 0.2426335 -0.9643448 112 112 112
0.0479324027417641 -0.00249315808582229 -0.0174696304909995 0.1053196 0.2530072 -0.9617147 122 122 122
0.0459402187557986 -0.00393217616436092 -0.0180981300477979 0.09065773 0.3019088 -0.9490165 104 104 104
0.0569841361593456 -0.00122979253664535 -0.0160335720269598 0.1120937 0.2295883 -0.9668114 83 83 83
0.0540205502741772 -0.00104056655449392 -0.0167201774479567 0.1399635 0.2026994 -0.9691868 97 97 97
0.0538201606345706 0.00153993979765166 -0.0160086617582914 0.133358 0.1837056 -0.9738932 94 94 94
0.0545324966695545 0.00368504044480988 -0.0155440525163371 0.1245024 0.1391142 -0.9824187 111 111 111
0.0518970425709783 -0.00136224107172267 -0.0168021573535601 0.1161837 0.2226319 -0.9679548 129 129 129
0.0505083449831377 0.00244646920799174 -0.01637123251783 0.1088765 0.193266 -0.9750867 111 111 111
0.0508173566139113 0.00268807600517351 -0.0160380873559201 0.1102111 0.1842006 -0.9766902 128 128 128
0.0491481597569813 -0.0001503665286402 -0.0167932991246529 0.09802256 0.1970321 -0.9754845 119 119 119
0.047835082180039 -0.00085236296511404 -0.017332939304245 0.1034352 0.1881373 -0.9766809 113 113 113
0.0486485157033171 0.00107033356355646 -0.0165514249797108 0.104399 0.1877642 -0.9766501 117 117 117
0.0476911247034916 0.000788022923009946 -0.0168971423337732 0.1060263 0.1783756 -0.9782334 110 110 110
0.0541828487656076 0.00632398534232403 -0.0151851047218384 0.06947947 0.08251841 -0.9941646 103 103 103
0.0534148976172878 0.00542393943683694 -0.0151288869002424 0.09368216 0.133949 -0.9865502 94 94 94
0.0533133757791205 0.00608395981273868 -0.0154581090544235 0.08584572 0.0927677 -0.9919802 102 102 102
0.0508022256170125 0.00444905683642793 -0.0158106597136371 0.1130526 0.1555129 -0.9813434 104 104 104
0.0535472704030532 0.00801997426536949 -0.015203093351311 0.05105123 0.05431447 -0.997218 78 78 78
0.0531034801001199 0.010137816046689 -0.0150650105697955 0.02733983 0.06166963 -0.9977221 79 79 79
0.0525232658692582 0.0114944025821007 -0.0149758077814924 0.03986016 0.1151897 -0.9925435 80 80 80
0.0466044855781761 -0.00336750734024793 -0.0182451699403002 0.09967956 0.2910174 -0.9515108 104 104 104
0.0452438452903602 -0.00212657325881294 -0.0175516957643649 0.08345625 0.2460222 -0.9656646 120 120 120
0.0463757934324919 0.00062218328271979 -0.017221104338318 0.1065825 0.1695158 -0.9797472 110 110 110
0.0462254327489126 0.00300320365933193 -0.0168888976309281 0.128681 0.1563421 -0.9792846 112 112 112
0.0440335997387123 0.00188306863602583 -0.0172925339355048 0.1167491 0.1363471 -0.9837576 103 103 103
0.0454267921743513 -0.00680463439978896 -0.0195376947488595 0.09744344 0.2642905 -0.9595078 108 108 108
0.0415184719462972 -0.00812664310432099 -0.0202721773294661 0.05767667 0.1010888 -0.9932041 129 129 129
0.0400166158295504 -0.00829863703939648 -0.0203269410312519 0.06007218 0.09908988 -0.9932636 122 122 122
0.0441627254589231 -0.00476890107960126 -0.0188098067064504 0.1025977 0.3259281 -0.9398109 108 108 108
0.0421719812157547 -0.00631242470245952 -0.0199184553388768 0.1029011 0.2569872 -0.9609209 83 83 83
0.0425648897637679 -0.00501368329625307 -0.0186583664337782 0.09900239 0.3220633 -0.9415274 107 107 107
0.0403887829284874 -0.00426547657144982 -0.0190009672657166 0.08597832 0.3091708 -0.947112 91 91 91
0.0390094218086895 -0.00444339851656284 -0.0192666311505683 0.08884749 0.2889911 -0.9532 106 106 106
0.0357283716522697 -0.00769845066705832 -0.0201055661792842 0.04727225 0.1464041 -0.9880947 150 150 150
0.034785027875918 -0.0090187342218615 -0.0205564383818012 0.03713723 0.0353117 -0.9986861 88 88 88
0.0359108407312801 -0.00540020337199176 -0.0191376334384384 0.08387144 0.257829 -0.9625434 127 127 127
0.0327589897248942 -0.00623798147368038 -0.0201680451924161 0.006013776 0.1972319 -0.9803385 120 120 120
0.0422406040341886 0.000267032209142704 -0.0175167139825854 0.09953915 0.1627379 -0.9816356 132 132 132
0.0397294942322001 0.000378625062750659 -0.0178599202002055 0.127444 0.159284 -0.9789723 107 107 107
0.0347475675357892 -0.0032476383882758 -0.0190619740594728 0.07154676 0.2032887 -0.9765013 142 142 142
0.0354030983535579 -0.00160546333459366 -0.0188016848245473 0.1300663 0.1739727 -0.9761231 154 154 154
0.0361168019117329 1.11655241823438E-05 -0.0185329582636003 0.1307751 0.148494 -0.9802282 104 104 104
0.0357085029824044 0.0012684317372178 -0.0183505765223465 0.1390996 0.1386592 -0.9805228 117 117 117
0.0317995013388918 -0.00249589378260429 -0.0189417902597127 0.04862378 0.1623568 -0.9855334 121 121 121
0.0347853101985131 0.000623463175911887 -0.0187844090022858 0.1323596 0.1458354 -0.9804147 136 136 136
0.0507231904391653 0.00673528718605598 -0.0159245719093286 0.1152244 0.1100605 -0.9872234 101 101 101
0.0488417969099538 0.00818091102823559 -0.0156208269106596 0.1140772 0.09078755 -0.9893149 98 98 98
0.047817602443052 0.00610380734253368 -0.0159105488590699 0.1354679 0.1271876 -0.9825842 133 133 133
0.0451343779831285 0.00244724733936263 -0.016668683204109 0.1156682 0.1440237 -0.9827909 93 93 93
0.0457432813515789 0.00477313341121222 -0.0165778410599352 0.1424508 0.1391174 -0.9799766 112 112 112
0.0440609222795424 0.00448159564688466 -0.0167225126489854 0.1206775 0.1341128 -0.9835907 112 112 112
0.0473677755189891 0.00761896463696154 -0.0160033234210931 0.1388388 0.1054994 -0.9846795 120 120 120
0.0468148957348727 0.00697444359478738 -0.0162238749333829 0.1452398 0.1080813 -0.9834754 145 145 145
0.0455501432346027 0.00783343224021826 -0.0160291928597125 0.1188634 0.118099 -0.9858621 98 98 98
0.0507001740381122 0.0110370327708542 -0.015112959931201 0.0747253 0.1104072 -0.9910734 93 93 93
0.0500313009908017 0.00915981651854447 -0.0152487261350761 0.1170219 0.08352779 -0.9896105 104 104 104
0.0477236210297457 0.0118579947051287 -0.0158289196209311 0.1206407 0.1107195 -0.9865024 139 139 139
0.0515924684392243 0.0131498338413005 -0.0148972292874335 0.0423703 0.1263406 -0.9910817 97 97 97
0.0512997993814622 0.0145667174746487 -0.0146332127787236 0.0598179 0.1265031 -0.990161 107 107 107
0.0494304195163641 0.0129382501663657 -0.0153172933110224 0.116047 0.1202971 -0.9859319 124 124 124
0.0460880506536504 0.0114203969438307 -0.0159736191041049 0.103643 0.1105107 -0.9884561 133 133 133
0.0449240070689966 0.00953567537752753 -0.0159859105996354 0.08761154 0.108792 -0.9901962 120 120 120
0.041975502432552 0.00911961035570674 -0.0165732633781686 0.08294526 0.17759 -0.9806028 97 97 97
0.042248540067742 0.0078572624759301 -0.0168251718569313 0.08732307 0.1717107 -0.9812697 114 114 114
0.0453269936294972 0.0134507389323326 -0.0158476651991687 0.04510441 0.1230484 -0.9913751 136 136 136
0.0435528962347101 0.0126375578245683 -0.0156589425415259 0.03067538 0.1340505 -0.9904996 154 154 154
0.0422048266490601 0.0110176728753533 -0.0157568016892263 0.04608198 0.1519008 -0.9873209 172 172 172
0.0414009471051368 0.0123845150991568 -0.0156541923230905 0.05356393 0.1355356 -0.9893235 146 146 146
0.0419471974522841 0.0033497654793746 -0.0173322453339778 0.1041072 0.1227148 -0.9869664 95 95 95
0.042477479862829 0.00481444040032453 -0.0170541680549478 0.1102201 0.135572 -0.9846176 99 99 99
0.0407759237270099 0.00481081015341922 -0.0172077796125303 0.1131923 0.1327623 -0.9846632 123 123 123
0.0391285072651658 0.00465999438724629 -0.0172651962740824 0.1148935 0.141899 -0.9831908 119 119 119
0.0400905466735818 0.00736291664543809 -0.0166273705920488 0.1008951 0.1726262 -0.9798063 98 98 98
0.0399714927256726 0.00662262541941794 -0.0172344517653863 0.107742 0.1647941 -0.9804257 98 98 98
0.0384480322055128 0.00687402594781061 -0.0174651755372153 0.1127243 0.1627003 -0.9802152 100 100 100
0.0395541128946436 0.00931340406170578 -0.0163806532278526 0.1044988 0.1895976 -0.9762852 133 133 133
0.0385019938510608 0.00924511509684023 -0.0166472285726442 0.1290496 0.1743968 -0.9761823 153 153 153
0.0400438872790104 0.0123134296977601 -0.01571083665851 0.09131978 0.1343949 -0.986711 84 84 84
0.0377506424016661 0.0107371764887148 -0.0162680855179052 0.174502 0.1522951 -0.9728079 172 172 172
0.0364843735712613 0.00610904257720901 -0.0174388677896563 0.139089 0.1609866 -0.9771068 106 106 106
0.0334611113449542 0.00236761618170767 -0.0184709486707735 0.0950438 0.1375645 -0.9859223 143 143 143
0.0335375971946495 0.00628053842990339 -0.0179623969391388 0.1015124 0.1308077 -0.9861971 155 155 155
0.0315005218776659 0.00594914183535944 -0.0179497922293652 0.06539632 0.1250429 -0.9899938 122 122 122
0.0358484958301873 0.00791698188701839 -0.0172071325886654 0.1586727 0.1452684 -0.9765859 116 116 116
0.035922284825464 0.00977028668965629 -0.0169281271276046 0.182226 0.1333219 -0.974176 163 163 163
0.0396256375791769 0.0134572598894072 -0.015703560720884 0.1557564 0.09824941 -0.9828972 93 93 93
0.0362941823228832 0.0104491968822005 -0.0168663796152871 0.1875444 0.1325587 -0.9732704 150 150 150
0.0343915630992918 0.00782960547154032 -0.0174029730773659 0.1395513 0.12824 -0.9818757 100 100 100
0.033572507684995 0.00948279867397051 -0.0173854942443368 0.1302671 0.09735629 -0.9866875 150 150 150
0.0330390129203132 0.0114258529033453 -0.0173788853180297 0.1384572 0.1030106 -0.9849967 181 181 181
0.0295543781447148 0.00745581083528402 -0.0178380625342616 0.05799275 0.1000021 -0.9932957 118 118 118
0.0325990935734136 0.0128917346817718 -0.0173725918030396 0.09462691 0.1223286 -0.9879683 186 186 186
0.0295611947019919 0.0119064818894745 -0.0173401210289466 0.05951478 0.1459531 -0.9874997 131 131 131
0.0678850622860719 0.017214453723249 -0.00906845229714431 0.4388311 0.3146141 -0.8416919 46 46 46
0.0603081271959399 0.0186597332333494 -0.0128315429956584 0.1579957 0.2625599 -0.9518927 79 79 79
0.0607910988906469 0.0211488983545103 -0.0122394475862751 0.1682327 0.2296492 -0.9586235 86 86 86
0.0570618224657745 0.0166707660367711 -0.0147795974999664 0.1084505 0.2119422 -0.9712461 113 113 113
0.0574521591365506 0.0180042568521774 -0.0138324528197084 0.1384134 0.2264707 -0.9641331 90 90 90
0.0559307077599548 0.0174845481221073 -0.0140757759064487 0.1115021 0.205214 -0.9723449 96 96 96
0.0583928665690699 0.0194334559085412 -0.0132166258917812 0.1830668 0.2425681 -0.9527053 99 99 99
0.0567480912355466 0.0193265486894025 -0.0137928881241006 0.1867994 0.1874253 -0.9643535 98 98 98
0.057672417028895 0.0200782934342538 -0.0128581841436861 0.2300977 0.2139771 -0.9493518 78 78 78
0.0620997893449354 0.0222076805809042 -0.011571832500535 0.1621539 0.2291954 -0.9597789 90 90 90
0.0605599558994284 0.0232939591774215 -0.0113401128863915 0.2273758 0.1988716 -0.953284 98 98 98
0.0606505506442426 0.0227808947032078 -0.0125107450142877 0.2053892 0.2128217 -0.9552603 97 97 97
0.0581970640575981 0.0246081653203334 -0.0119617862250077 0.2717166 0.1456096 -0.9512981 104 104 104
0.0534281109929952 0.0165609277271019 -0.0142552629251484 0.0487575 0.1575616 -0.9863048 93 93 93
0.05263813107425 0.0180973619197131 -0.0142268826349661 0.08395456 0.08346193 -0.9929681 91 91 91
0.055430566530363 0.0192591220127658 -0.0140183985137393 0.1546758 0.1331606 -0.9789503 91 91 91
0.0529817051945728 0.0192939812528565 -0.013967530175967 0.1087192 0.07268108 -0.9914119 100 100 100
0.0517329356783344 0.0205248879683706 -0.014508040503155 0.1366242 0.0330311 -0.9900721 90 90 90
0.0570444728489586 0.0224245660883542 -0.0130632147241849 0.2557146 0.1626475 -0.9529721 96 96 96
0.0522599577306179 0.022436943991641 -0.0143021909061995 0.1797955 0.07918933 -0.9805114 112 112 112
0.0541373603306011 0.0252981377285726 -0.0130213457332312 0.2496468 0.1478636 -0.9569811 91 91 91
0.0531752335585484 0.0273665341861786 -0.013006145763282 0.1847073 0.1790141 -0.9663525 97 97 97
0.0566227633716289 0.0287801952479863 -0.0121306699793483 0.2779433 0.201695 -0.939184 114 114 114
0.0560427617798024 0.0286825595343927 -0.0128426302442642 0.2359921 0.2257105 -0.9451786 106 106 106
0.0554981250187624 0.0309786530448244 -0.0127213946780144 0.2079033 0.2613032 -0.9426011 92 92 92
0.0546072029964272 0.028185978980767 -0.0126594981287637 0.2078516 0.1800561 -0.9614455 100 100 100
0.0550105917668898 0.029421298196364 -0.0123796828189143 0.2146018 0.2517149 -0.9437085 110 110 110
0.0522683669058036 0.0288188052916147 -0.0128854085855377 0.1242674 0.2358432 -0.9638131 104 104 104
0.0541312232001451 0.0301261231502383 -0.0126909833030229 0.1764174 0.2584589 -0.9497768 88 88 88
0.0513001608745568 0.0328712092864989 -0.0127744347751893 0.1142432 0.2282767 -0.9668704 87 87 87
0.0489552477538259 0.0322773968995258 -0.0123088947100149 0.1078615 0.1921619 -0.9754177 62 62 62
0.0537177898183318 0.0342090923237033 -0.00957922066066647 0.1422069 0.2379461 -0.9608116 57 57 57
0.0488031526273659 0.0345642427045434 -0.0118712686505405 0.1849328 0.2220811 -0.9573295 81 81 81
0.0517418014569814 0.0159818703404198 -0.0143298768095362 0.04384557 0.1213026 -0.9916468 89 89 89
0.0495217983468036 0.0156455468028762 -0.0144869762901083 0.1194755 0.1096572 -0.9867628 101 101 101
0.0506762530998396 0.01783930547068 -0.0142583762346156 0.1041145 0.05743121 -0.9929057 89 89 89
0.049487474019592 0.0170056365908986 -0.0144189767255155 0.1247333 0.07563102 -0.9893036 82 82 82
0.0503704883706045 0.0190222635790755 -0.0146520066049659 0.1143656 0.02225282 -0.9931895 93 93 93
0.0462631272803128 0.0179940051392828 -0.0150795307051658 0.115678 0.06245037 -0.9913216 152 152 152
0.047598204094676 0.0184514212280524 -0.0149528512333144 0.1083015 0.04035258 -0.9932988 129 129 129
0.0451083963928253 0.0147456681164655 -0.0157034421778469 0.07283774 0.08545712 -0.9936759 183 183 183
0.0450260969905415 0.0158829653187202 -0.0153358729041407 0.07303373 0.07987396 -0.9941258 170 170 170
0.0430120438146805 0.0146171613478288 -0.0154202540386364 0.04144603 0.07225277 -0.9965249 162 162 162
0.0445065253300349 0.0171424468991803 -0.0153067180511791 0.08645317 0.05661143 -0.9946462 168 168 168
0.0430189521457843 0.0166405282576034 -0.0151554249918598 0.04117234 0.05318842 -0.9977353 144 144 144
0.0455894210728535 0.0223896713067513 -0.0150099752977611 0.006890622 0.1119935 -0.9936851 164 164 164
0.0487895052603849 0.0249802022307739 -0.014763552260384 0.08975103 0.2308095 -0.9688507 136 136 136
0.0414717002687867 0.0188249470266983 -0.0158959552864211 0.09141206 0.08017892 -0.9925801 147 147 147
0.039184976847752 0.0194914646321982 -0.0155768114391655 0.1099266 0.1264707 -0.9858607 122 122 122
0.0482939505811312 0.0276145686883413 -0.0135916419036081 0.02821932 0.2959489 -0.9547868 108 108 108
0.0447424823726973 0.0258757879123845 -0.0142494431313135 0.004104375 0.2403068 -0.9706883 96 96 96
0.0431488760787971 0.0215403494730921 -0.0151455212386754 0.03448465 0.1108175 -0.9932423 172 172 172
0.0408191252756559 0.0224733689370773 -0.0147424923083285 0.01012867 0.1553905 -0.9878012 155 155 155
0.0422526050782909 0.0233563107607411 -0.0149533765505984 0.02874702 0.1780993 -0.9835925 166 166 166
0.0408167352114323 0.0247112518050205 -0.0143358134388964 0.04922901 0.1593382 -0.9859959 140 140 140
0.0392699787554799 0.0214947105298069 -0.015874966801209 0.0809279 0.1699291 -0.9821277 123 123 123
0.0361474878589095 0.0146616836592277 -0.0166380531294988 0.2067354 0.08571777 -0.9746348 112 112 112
0.0372494584171231 0.0151918981997732 -0.0158617847247625 0.2234447 0.07926743 -0.9714881 93 93 93
0.0358233729869853 0.0165763696524457 -0.0166006547176232 0.1640733 0.1087729 -0.9804327 131 131 131
0.0370265437194742 0.0175733826857296 -0.0160699645753559 0.1488227 0.08540534 -0.9851689 103 103 103
0.0372394099495209 0.0183262833450888 -0.0157527090232155 0.1169326 0.1359689 -0.9837882 88 88 88
0.0366449947717523 0.0170304118946716 -0.0165316538532812 0.1854503 0.1148005 -0.9759247 118 118 118
0.0331205928744002 0.0175819140324436 -0.0167947481808976 0.05970084 0.1565052 -0.9858711 171 171 171
0.0353655828253135 0.0188530631070474 -0.0160305144150967 0.1271034 0.1372503 -0.9823477 121 121 121
0.0329264310246654 0.0143199052941536 -0.0172960555468272 0.09125792 0.1296024 -0.9873577 146 146 146
0.0275196314545317 0.0135496711779124 -0.0172344407749739 0.08513683 0.1491135 -0.9851481 124 124 124
0.0286741646086893 0.0121731366431019 -0.0174688730683011 0.05831655 0.1367113 -0.9888929 126 126 126
0.0309934593320905 0.0166453607634764 -0.0166949121489464 0.04772603 0.1538604 -0.9869393 133 133 133
0.0310042684359474 0.0157308248555756 -0.0173024119259383 0.04652857 0.1469962 -0.9880421 153 153 153
0.0311162368507817 0.0190031088156044 -0.0161470629083888 0.07253271 0.1620152 -0.9841189 125 125 125
0.0289943659996265 0.0158697661021894 -0.0169466009378502 0.07215023 0.1480999 -0.9863371 118 118 118
0.0274718528048007 0.0150926623991829 -0.0170267784322118 0.09655582 0.1293454 -0.9868874 125 125 125
0.029348507107079 0.0179361114825269 -0.0165291101214128 0.08082238 0.1433707 -0.9863633 139 139 139
0.037028661256124 0.0217975182570951 -0.0149693416790804 0.1169335 0.1666042 -0.9790657 122 122 122
0.0361422625169902 0.0198661763066672 -0.0159346594063915 0.133451 0.1551097 -0.9788421 99 99 99
0.0345389511807802 0.0205764462843765 -0.0161123775905603 0.08589601 0.190325 -0.9779562 169 169 169
0.0326285409553609 0.019652771702348 -0.01592034865221 0.07086985 0.179381 -0.9812237 148 148 148
0.0328467336320707 0.0195799113335664 -0.0163675576722311 0.07086985 0.179381 -0.9812237 171 171 171
0.0327572628537746 0.020777605443417 -0.0165513785217158 0.08829042 0.1582907 -0.9834372 183 183 183
0.0354956752586665 0.0251832989254581 -0.0148740905906545 0.140255 0.1339298 -0.9810154 93 93 93
0.0314823139602599 0.0237403981422781 -0.0154864155877893 0.1633951 0.0652032 -0.9844037 75 75 75
0.0109720080532602 0.0101948559218732 -0.017575957400527 -0.120508 0.1719949 -0.9776991 149 149 149
0.0496618949284476 0.0277689050218173 -0.013690234309898 0.05385581 0.26105 -0.9638218 140 140 140
0.0442440525182511 0.0266302102720963 -0.013553938406195 0.01866478 0.239185 -0.9707946 88 88 88
0.0437746683360142 0.0284131523539928 -0.0133830702431322 0.07533313 0.2202108 -0.972539 84 84 84
0.0462062545285223 0.0296866243808467 -0.0126182997241649 0.07865004 0.2296201 -0.9700973 60 60 60
0.0430136088597767 0.030209842236274 -0.0133134967401501 0.1307938 0.1470912 -0.9804372 72 72 72
0.0424906881846235 0.0320325797587537 -0.013292205284917 0.1852247 0.06910708 -0.9802632 74 74 74
0.0418020188222444 0.0274003786470169 -0.0140093329758108 0.1173874 0.1718593 -0.9781026 92 92 92
0.0393552665565152 0.0266251914760613 -0.014126212114997 0.1073894 0.1325479 -0.9853418 85 85 85
0.0414281725922782 0.0291535540421026 -0.0141066015976828 0.1627537 0.1377069 -0.9770098 101 101 101
-0.017486754370048 0.051081184855535 -0.0155134664874553 -0.1267736 0.4847919 -0.8653931 66 66 66
0.0411659812837207 0.0298950807975134 -0.0137671265923646 0.1751318 0.1351128 -0.9752299 83 83 83
0.0387646840642252 0.0264728095167317 -0.0150207951799636 0.07634006 0.1260381 -0.9890837 90 90 90
0.0464274784730933 0.0338867772922555 -0.0123728480340965 0.1175691 0.06581741 -0.9908812 83 83 83
0.0449721047478503 0.0328044905324445 -0.0125837817253536 0.1538015 0.08531315 -0.9844119 76 76 76
0.0441798118696636 0.0349278203859169 -0.0129998655823945 0.1773135 0.07546983 -0.9812564 86 86 86
0.0455174033713887 0.036501046693544 -0.0126490942699404 0.2362126 0.2666258 -0.9344059 138 138 138
0.0420349692199345 0.0339557451527173 -0.0132162013998785 0.1706613 0.04625186 -0.9842436 101 101 101
0.0431150855241916 0.0365626808365429 -0.0130293477407588 0.2033069 0.1939898 -0.9597053 103 103 103
0.0416593573903313 0.0356933737125358 -0.0136018919269899 0.1770237 0.09954326 -0.9791597 102 102 102
0.0413857369380565 0.0375405235434156 -0.0130465907692986 0.1822854 0.2438919 -0.952517 110 110 110
0.0402051596039165 0.0334219388534189 -0.0133242378223529 0.170395 0.06205436 -0.98342 78 78 78
0.0388751538417599 0.0329762384010688 -0.0139171985884206 0.1498075 0.06333072 -0.9866848 82 82 82
0.0374911546448226 0.032171840212752 -0.0141223908032977 0.1461674 0.06592093 -0.9870611 108 108 108
0.0403275707599561 0.0366254256880816 -0.0136940960649163 0.1470259 0.1440567 -0.9785863 129 129 129
0.0362605158541601 0.0271767151585505 -0.0149123539927161 0.1515918 0.07602745 -0.9855149 92 92 92
0.0332770995099597 0.025799575531529 -0.0147427883417331 0.2078677 0.05570222 -0.9765697 82 82 82
0.0348453484684209 0.0285971132708289 -0.0143474944113073 0.1989249 0.0612674 -0.9780977 76 76 76
0.0343193168999006 0.0290391776122412 -0.0146552806963372 0.2142163 0.05925805 -0.9749871 93 93 93
0.0279724267264233 0.0178166719653206 -0.0171894684369538 0.1244958 0.1281951 -0.9839038 111 111 111
0.0281076697891113 0.0197179964105787 -0.0165693973875928 0.1319028 0.1125884 -0.984848 110 110 110
0.0297556897554979 0.0213259806693353 -0.0156891874099797 0.1196371 0.1024446 -0.9875181 99 99 99
0.0286057296657435 0.022211468631993 -0.0160820546721865 0.1375929 0.07946327 -0.9872962 110 110 110
0.0269659904595095 0.0240243535340088 -0.0166418692891233 0.1145872 0.04860041 -0.9922237 172 172 172
0.0258983220130625 0.0221167744618023 -0.0169173626035844 0.08679266 0.09312032 -0.9918647 183 183 183
0.0249690327109288 0.0230328716582384 -0.016774020924593 0.04996986 0.09091137 -0.9946045 185 185 185
0.037506442038976 0.0336860685450391 -0.014337159362648 0.1593937 0.06132414 -0.9853086 65 65 65
0.0368934824898218 0.0365638421107002 -0.0139583754370289 0.1820353 0.1071794 -0.9774333 102 102 102
0.0356385820586121 0.0347544802225463 -0.0144356123490577 0.1962086 0.05333781 -0.9791105 78 78 78
0.0348664115265992 0.0356399966755454 -0.0143082081715729 0.2173223 0.06318185 -0.9740529 95 95 95
0.0356035361298749 0.0358916435098371 -0.0138439374336324 0.2090578 0.08278603 -0.9743928 90 90 90
0.0332800604593103 0.0251147531701672 -0.0154714916893807 0.1823538 0.06462819 -0.9811066 68 68 68
0.0309612494094559 0.025741054522064 -0.015876875426653 0.1988734 -0.009578511 -0.9799784 107 107 107
0.0328466693876247 0.0282656472703706 -0.0153546324399803 0.2507953 0.02431673 -0.9677347 91 91 91
0.0323608520254181 0.0264085976305701 -0.0154584447017951 0.2243367 0.02072868 -0.9742912 85 85 85
0.0336784950724868 0.0306528942928603 -0.0149005416219199 0.2458451 0.0489437 -0.9680727 103 103 103
0.029919746706155 0.0274828425338998 -0.0163281404490184 0.1735809 -0.003837622 -0.9848121 128 128 128
0.0320202304974467 0.0300714143693124 -0.0154685962451869 0.2367045 0.05455645 -0.9700488 109 109 109
0.0313932314758395 0.0296492043992893 -0.0162436150369147 0.2245106 0.05302443 -0.9730279 101 101 101
0.0298312855598314 0.0295651822419802 -0.0163587879973323 0.1533261 0.0670071 -0.9859012 126 126 126
0.0289125867280834 0.0250684717272087 -0.0161043304756646 0.1283938 0.003213688 -0.9917181 111 111 111
0.0257746682661314 0.0262875747083082 -0.0162634322061226 0.03872271 0.05982968 -0.9974573 177 177 177
0.02737421826693 0.0288564292172968 -0.0162373704596069 0.01964759 0.06853173 -0.9974555 120 120 120
0.0291339710966133 0.0303989229122139 -0.0164529224557784 0.1166401 0.08578946 -0.9894621 106 106 106
0.0268688534885945 0.0304138186360015 -0.0161382752676577 -0.02176389 0.08565641 -0.996087 124 124 124
0.0252926888101696 0.0280037272566733 -0.0166311722832244 -0.02755797 0.07821825 -0.9965553 188 188 188
0.0322983322264608 0.0331098977043185 -0.0150958483738312 0.2641032 0.06585046 -0.9622439 69 69 69
0.031068290389335 0.0321238634759295 -0.0157181819295945 0.2137494 0.05057365 -0.9755785 85 85 85
0.0301725054181571 0.0338662692321001 -0.0157025421416625 0.1652599 0.06274699 -0.984252 121 121 121
0.0287327877981512 0.0334397636972421 -0.0158144911588999 0.0482473 0.07588062 -0.995949 123 123 123
0.0295672223506015 0.0358098519891545 -0.0158473598925389 0.09325143 0.07815416 -0.9925705 143 143 143
0.0280917771543504 0.0329264467932833 -0.0160557662557708 0.04208885 0.06979911 -0.9966727 111 111 111
0.025094026820408 0.0304142743681493 -0.0161399968533711 -0.040462 0.08292002 -0.9957345 119 119 119
0.0248327912651117 0.0321674897147408 -0.015812394744604 -0.06765909 0.09147351 -0.9935063 101 101 101
0.025897839303766 0.0340754978665669 -0.0159785740697023 -0.0736875 0.07047104 -0.9947884 102 102 102
0.0260089292576177 0.0343731382231189 -0.0156981629761777 -0.05370077 0.07384231 -0.995823 110 110 110
0.0241287097484825 0.0357867509066885 -0.015481545791746 -0.09019953 0.1376062 -0.9863714 130 130 130
0.0227947547345174 0.0348499877757218 -0.0157949637026816 -0.09107874 0.1036134 -0.9904388 130 130 130
-0.0429441879526932 -0.0262599004264721 -0.00354656883665389 -0.5350813 -0.5600664 -0.6324663 106 106 106
0.0468600182156381 0.0398235804321143 -0.010440806778627 0.3226777 0.4670601 -0.823246 94 94 94
0.0460463496946185 0.0405493935278798 -0.00969948633961487 0.2810422 0.5033606 -0.8170945 94 94 94
0.043481982011324 0.0419570072551398 -0.00851959446868594 0.2932793 0.5529103 -0.7799214 122 122 122
0.0433669275991247 0.0413719599098348 -0.010070510246048 0.2675723 0.5372391 -0.799862 73 73 73
0.0421114041922402 0.0409454644112164 -0.0113047914273987 0.2654768 0.537008 -0.800715 133 133 133
0.0417520288041148 0.0425519359043991 -0.0099186546588968 0.3509381 0.5584577 -0.7516432 105 105 105
0.0407301939091206 0.0428983807194816 -0.00955333838903133 0.3575698 0.558942 -0.7481496 78 78 78
0.0347190160744518 0.037345513443573 -0.013875608580281 0.2514776 0.09649719 -0.9630406 72 72 72
0.0356683584949534 0.0404445470697274 -0.0138142635424377 0.2954504 0.1483273 -0.9437733 85 85 85
0.039337974618613 0.0409965357140942 -0.0123138086187745 0.3128797 0.4565939 -0.8328435 166 166 166
0.037663798407172 0.0413662158698809 -0.0124505831533355 0.4003824 0.3814726 -0.8331702 91 91 91
0.0371723516742882 0.0403542447503156 -0.0133532915132369 0.2705524 0.162688 -0.9488593 84 84 84
0.0364254130372127 0.0421106296382681 -0.0127418264039043 0.3783361 0.3645976 -0.850841 80 80 80
0.0366205874631645 0.0425953969676007 -0.0128471757824456 0.417194 0.387151 -0.8222307 120 120 120
0.0348465076562047 0.0425847594228759 -0.0138492866764564 0.2486972 0.3409545 -0.9065868 176 176 176
0.0327375798798447 0.0431818846691705 -0.0142595728131124 0.05321315 0.4648294 -0.8837997 115 115 115
0.0361875096349985 0.0439655569459421 -0.0129464897363274 0.3613138 0.529101 -0.767792 180 180 180
0.0347037687356148 0.0471598674179485 -0.00921741281510152 0.194406 0.725524 -0.6601676 84 84 84
0.0351105278391378 0.0460197573063068 -0.011222485524483 0.222087 0.6705795 -0.7078139 73 73 73
0.0328630798358501 0.0472063171441504 -0.010152443839447 -0.009777144 0.7497392 -0.6616612 120 120 120
0.0313760131979358 0.0386877991851409 -0.0152849030930722 0.1339489 0.1694913 -0.9763864 115 115 115
0.0298029968653305 0.037335802592479 -0.0159944454616045 0.09308545 0.1394437 -0.9858451 103 103 103
0.032425717220755 0.0409971728151215 -0.015165582561556 0.1499542 0.2742732 -0.9498884 126 126 126
0.0294128880061352 0.0405563859160025 -0.015042210941616 -0.06378609 0.3886173 -0.9191887 92 92 92
0.0306762376482227 0.0438772038001656 -0.012519204464161 -0.2189017 0.6221392 -0.7516813 90 90 90
0.0268872523160634 0.043965934218692 -0.01105257252177 -0.1316764 0.6454483 -0.7523681 117 117 117
0.0288591139929281 0.0419926907707386 -0.0130967501092443 -0.2116982 0.591171 -0.7782677 94 94 94
0.0266932992499244 0.0422612470939641 -0.0122633400065846 -0.1062924 0.6329693 -0.7668453 98 98 98
0.0307198730509851 0.0454836890406198 -0.0108299644007135 -0.1827232 0.6919119 -0.698477 78 78 78
0.0303402706827059 0.04696486566011 -0.0102181434383724 -0.1806776 0.7218812 -0.6680143 128 128 128
0.024563482781769 0.0426628851793442 -0.0123144495235117 -0.06704039 0.6222637 -0.7799317 132 132 132
0.0244917044737655 0.0452291329532453 -0.0105602561742014 -0.1090171 0.7512397 -0.6509641 128 128 128
0.025479642027704 0.0460692919829453 -0.0102197227151216 -0.1366601 0.7716485 -0.6211945 120 120 120
0.0225207200019114 0.0447691783018158 -0.0107477057813553 -0.1917589 0.7318571 -0.6539218 205 205 205
0.0267038093133359 0.0389593475873553 -0.0155440006964968 -0.09452267 0.3476229 -0.9328579 108 108 108
0.0277928180190997 0.0411930306917767 -0.0146706480300182 -0.1694396 0.5497109 -0.8179903 62 62 62
0.0256672589880685 0.0364866607325873 -0.0157499622170572 -0.06197538 0.1585307 -0.9854071 109 109 109
0.0219089229417165 0.0356782181052779 -0.0151147223167171 -0.0714815 0.1505639 -0.9860126 119 119 119
0.0228724951908664 0.0379730766644606 -0.015046449243137 -0.1046189 0.2753298 -0.9556403 116 116 116
0.0214642817084406 0.0372358528306187 -0.0151514992935676 -0.07822786 0.2625115 -0.9617527 129 129 129
0.0247040896483871 0.0401832652616034 -0.0139242273125732 -0.1081957 0.4899419 -0.8650148 119 119 119
0.0242522186689876 0.0399092433499126 -0.014798797509397 -0.1249616 0.4170191 -0.9002665 93 93 93
0.0225807342273571 0.039492152716659 -0.0146963599136384 -0.1290113 0.4043277 -0.9054696 107 107 107
0.0216736960136149 0.0411367413822668 -0.0131250097754036 -0.1565445 0.5757979 -0.8024653 125 125 125
0.0220585927909073 0.0426416462662977 -0.0120231058006006 -0.1735673 0.6184672 -0.7664025 112 112 112
0.0202953821328941 0.0434823877632182 -0.011058338779003 -0.3043973 0.684177 -0.6627549 91 91 91
0.0317748068828901 0.0480645654293188 -0.00853771183238011 -0.129225 0.7883956 -0.6014426 129 129 129
0.0302037225579405 0.0481110222214121 -0.00882903977613708 -0.1641234 0.8004866 -0.5764415 163 163 163
0.0265279103032293 0.0470297544955434 -0.00799624799371529 -0.1720372 0.7908243 -0.5873671 72 72 72
0.0279894003435827 0.0472310637539712 -0.00933134581768075 -0.1839741 0.7714116 -0.6091614 163 163 163
0.0252333558645569 0.0468797504691489 -0.00709289805776608 -0.1719451 0.8340294 -0.5242422 53 53 53
0.024408997397083 0.0471469981375872 -0.00660168213673668 -0.1799425 0.8482923 -0.498017 36 36 36
0.0260801981017752 0.0474913268550925 -0.00524902765655716 -0.1777959 0.8455816 -0.503369 71 71 71
0.0249053201429829 0.0475320657296334 -0.0052785420605676 -0.1799425 0.8482923 -0.498017 66 66 66
0.0225137607643499 0.0479436342970863 -0.00555590341695938 -0.2188266 0.862162 -0.4569372 78 78 78
0.0239213626944842 0.0463801641724189 -0.00966961529587301 -0.1407541 0.8058081 -0.5752057 155 155 155
0.0231554234830923 0.0466497373707659 -0.00902461470689736 -0.2012481 0.8269783 -0.524982 116 116 116
0.0314422136459364 -0.00927801000428485 -0.0205183683969886 -0.01098167 0.08838575 -0.9960258 124 124 124
0.0335849716314479 -0.00795118179586884 -0.0202486192642068 0.03610143 0.1091624 -0.9933681 159 159 159
0.0295154346845058 -0.00990422700872018 -0.0206727521714792 -0.02649897 0.06309703 -0.9976555 118 118 118
0.0289079114907628 -0.0105017069486324 -0.0209987186272265 -0.0475051 0.01873518 -0.9986953 114 114 114
0.0285629056224089 -0.00800447223309697 -0.0199160750980046 -0.07054392 0.1914884 -0.9789565 133 133 133
0.0273577988131982 -0.0108744307950606 -0.0209864112983396 -0.03563717 0.01484187 -0.9992546 131 131 131
0.0281805457111136 -0.0101847283020928 -0.0206782666087938 -0.03167841 0.05950742 -0.9977251 113 113 113
0.022993536205509 -0.0102369277630674 -0.0205403478935061 -0.02481263 0.05302615 -0.9982848 126 126 126
0.0274049445105596 -0.00824284273529785 -0.019939811693294 -0.04455454 0.1925805 -0.9802691 109 109 109
0.0265769951907254 -0.0065416311211004 -0.0196174316447553 -0.06859256 0.1935263 -0.9786943 138 138 138
0.0301913464438653 -0.00349235892309019 -0.0196044419556583 -0.03353367 0.1330154 -0.9905465 113 113 113
0.0312252546143271 -0.00349903570464316 -0.0202273258615764 -0.003220526 0.1560692 -0.9877409 110 110 110
0.0282006246462577 -0.00378775088191219 -0.019225761230141 -0.06254645 0.1113605 -0.9918098 134 134 134
0.0310868751766721 -0.000413561120792716 -0.018836939722869 0.04658418 0.1466053 -0.9880975 125 125 125
0.0300340619687566 -0.00119681504836033 -0.0189818203337802 0.008421659 0.1281469 -0.9917194 116 116 116
0.0285168860786337 -0.00143071772765313 -0.0192428222480756 -0.04314368 0.1234073 -0.9914178 131 131 131
0.0265274347404022 -0.00017746394804341 -0.019061251209871 -0.008953327 0.08889675 -0.9960006 111 111 111
0.0268110118151782 -0.00557080600779458 -0.0191894632116179 -0.08905648 0.1189728 -0.9888955 146 146 146
0.0261541509913187 -0.00448576897587105 -0.0192020389486856 -0.0708892 0.1021083 -0.9922442 129 129 129
0.0242454905145667 -0.00572475306860154 -0.0194484758614928 -0.009284033 0.1306021 -0.9913914 136 136 136
0.0252600760617759 -0.00224347822053317 -0.0191715223553859 -0.01185125 0.08171046 -0.9965857 126 126 126
0.0236222046872631 -0.00303477019161869 -0.0190902895646423 0.03611717 0.06742985 -0.9970701 125 125 125
0.0248406195321488 -0.000849199774529241 -0.0190317956930717 0.02662444 0.07826438 -0.9965771 126 126 126
0.02156395951613 -0.00424407319013231 -0.019096473176858 0.08724728 0.03572416 -0.9955459 127 127 127
0.0221674007162348 -0.00299057105589795 -0.0189425573856877 0.08908898 0.02487532 -0.995713 122 122 122
0.01857999117983 -0.0119340276003868 -0.0208425335401255 0.002576182 -0.1078803 -0.9941605 151 151 151
0.0164909273388566 -0.0102686393221036 -0.020713816190441 -0.02051719 0.08270364 -0.996363 122 122 122
0.0185653297049971 -0.00943144876080759 -0.0203327394689373 0.02003471 0.1109225 -0.9936271 154 154 154
0.015928905221288 -0.00769001794898982 -0.0198578365897116 -0.04003093 0.1188359 -0.9921066 114 114 114
0.015463407971383 -0.0124738054955482 -0.0205157252314003 0.00353793 -0.1350844 -0.9908278 151 151 151
0.0130589271637463 -0.0119302925047429 -0.0201144625194782 -0.01708837 0.0206346 -0.9996411 135 135 135
0.0109542101124688 -0.0123963506602081 -0.0203222822194301 0.008970875 -0.0008181385 -0.9999594 142 142 142
0.0142761485787081 -0.0108655397660102 -0.0202423471367791 -0.05002165 0.03312091 -0.9981988 132 132 132
0.0144506624265407 -0.00882339363944795 -0.0197748855403968 -0.07909545 0.1375068 -0.9873377 130 130 130
0.0196643575838774 -0.00458024350846142 -0.019460050467773 0.08280099 0.0341076 -0.9959823 145 145 145
0.0179997614703525 -0.00482774240418204 -0.0199590919458357 0.0275607 0.0147799 -0.9995109 180 180 180
0.0138410727751833 -0.00679847683987012 -0.0194152464981374 -0.0970345 0.1041094 -0.989821 121 121 121
0.029149827340316 0.0015992067755104 -0.0190700247448366 -0.01230724 0.1521207 -0.9882853 128 128 128
0.0286278294058685 0.00291086043531474 -0.0185529889618446 -0.00213504 0.1371012 -0.9905547 125 125 125
0.0267665980248303 0.000827124745901964 -0.0187488035725911 0.0005737912 0.1079679 -0.9941542 115 115 115
0.0264023000092711 0.00196139136293527 -0.0186237345135539 0.02824637 0.1161526 -0.9928296 116 116 116
0.0302278531578656 0.0039127915909638 -0.0187469262039612 0.02658437 0.1324796 -0.9908292 123 123 123
0.0223020405707069 0.00044512216731607 -0.019076072301649 0.1884946 0.02821103 -0.9816689 112 112 112
0.0212098733836846 -0.00103337605049103 -0.0193156825208706 0.1570168 -0.0003167762 -0.9875959 141 141 141
0.020644303135238 -8.91406567389286E-05 -0.0193634298116027 0.200689 -0.007595513 -0.9796256 173 173 173
0.0234512412416664 0.00388398383618482 -0.0183365757685806 0.1822505 0.06752852 -0.9809305 115 115 115
0.0224239866739796 0.00424014043252674 -0.0185253941206592 0.2084404 0.0608593 -0.9761397 141 141 141
0.0285838996539284 0.00591590534035502 -0.0177235511862726 0.02626791 0.08923599 -0.9956641 123 123 123
0.0269287777163506 0.00655061173567817 -0.018359589397867 0.0340181 0.07038855 -0.9969394 111 111 111
0.0266631847295086 0.00882847355646832 -0.0180649683380801 0.08381339 0.06495818 -0.994362 133 133 133
0.0278923911350643 0.010899696568788 -0.0180559561995886 0.07698893 0.09615646 -0.9923843 123 123 123
0.00936026839647164 -0.0144513696696189 -0.0204564977308442 -0.08039883 -0.4226361 -0.9027263 189 189 189
0.00346382751680074 -0.0181413537833659 -0.0151785336353208 -0.06354213 -0.7241844 -0.6866727 152 152 152
0.00466247231003492 -0.0173847949740169 -0.0166932555270147 -0.0849827 -0.7368659 -0.6706762 130 130 130
0.00423455310763099 -0.0163892751681924 -0.017971154416043 -0.08206423 -0.7172297 -0.6919878 139 139 139
0.00310029569340908 -0.0176495829296057 -0.0163070527357208 -0.0493549 -0.7455055 -0.6646696 137 137 137
0.00129973842798459 -0.0190021606135233 -0.0143986022308045 -0.01852842 -0.7135437 -0.7003658 140 140 140
-7.3891455954711E-05 -0.0193231093709429 -0.0140268958957642 -0.0153166 -0.7097027 -0.7043347 140 140 140
-0.00236621546227089 -0.0200654729915819 -0.0136469175978016 -0.003106388 -0.6954029 -0.7186134 135 135 135
0.000182480757095482 -0.0173335962722598 -0.0165161280827975 -0.004435892 -0.745489 -0.6665032 147 147 147
-0.00113562705318204 -0.0189827129587006 -0.0150486134669126 0.009606453 -0.7250078 -0.6886737 133 133 133
-0.00124487641953486 -0.0178180571354611 -0.0161727902191018 -0.008473654 -0.7420586 -0.6702815 149 149 149
-0.00313541214344315 -0.0196139923544905 -0.0144798657825925 0.003355408 -0.7146092 -0.6995159 136 136 136
-0.00375731006195024 -0.0184695330638454 -0.0154345168287386 -0.04284377 -0.710604 -0.7022865 153 153 153
-0.00491937912784912 -0.0186144174540146 -0.0150726662704844 -0.07378954 -0.7039669 -0.7063892 149 149 149
-0.00862328720757655 -0.0204562626632654 -0.0121634631564736 -0.106396 -0.6859077 -0.7198685 131 131 131
-0.00419631938586107 -0.0199562691429789 -0.0140493320675241 -0.03975838 -0.7127298 -0.7003111 137 137 137
-0.00551973911455905 -0.0204628758254344 -0.013662511279873 -0.0796873 -0.7001489 -0.7095361 153 153 153
-0.00567116936076573 -0.0177460152143791 -0.0155284028391121 -0.09423485 -0.7131135 -0.6946862 144 144 144
-0.00812360306798554 -0.0177241034591848 -0.0154071725842655 -0.1301383 -0.7108015 -0.6912491 146 146 146
-0.00939917849837058 -0.0184650834242117 -0.0147450046661908 -0.1100224 -0.6866989 -0.7185678 154 154 154
0.0113388929798172 -0.0134308044359701 -0.0208081779488522 -0.009091035 -0.17279 -0.9849167 129 129 129
0.0171406486696214 -0.00312420321626417 -0.0199048180030104 0.01318275 -0.04447301 -0.9989236 173 173 173
0.0149372175199244 -0.00382698756793998 -0.0196492550583289 -0.1162287 -0.05218636 -0.9918506 170 170 170
0.0150910552324784 -0.00382510338564068 -0.0193571823052381 -0.1162287 -0.05218636 -0.9918506 157 157 157
0.0133356928630933 -0.00498366959785135 -0.0192552279408604 -0.1002888 0.01663022 -0.9948194 142 142 142
0.00962639061932868 -0.00836505194797166 -0.0197912591881886 -0.01957331 0.1775681 -0.9839138 130 130 130
