ply
format ascii 1.0
comment File exported by Rhinoceros Version 7.0
element vertex 467
property float x
property float y
property float z
property float nx
property float ny
property float nz
property uchar red
property uchar green
property uchar blue
end_header
0.0523537458077703 0.0221667305511191 -0.0243178629576114 0.03373165 0.008705491 -0.999393 114 114 114
0.0493034674155468 0.0214090968726983 -0.0243899339609204 0.02726856 0.01282684 -0.9995459 157 157 157
0.047222897267436 0.020785266023877 -0.0244171009701364 0.01272797 0.01664413 -0.9997805 171 171 171
-0.106188079033391 -0.0534837119435044 -0.0173710290974083 -0.07081296 -0.8281053 -0.5560819 114 114 114
0.0456175388651494 0.0210625925574474 -0.024454431798423 0.02146044 0.01882969 -0.9995924 188 188 188
0.0464732588819126 0.022300694142586 -0.0243133731107736 0.02888091 0.002320078 -0.9995801 182 182 182
0.0452617523130541 0.0203707933075667 -0.0245386148254921 0.02069071 0.01501493 -0.9996732 176 176 176
0.0450825259993732 0.0213753367980812 -0.0243375259421235 0.01891664 0.008335966 -0.9997863 176 176 176
0.0414437410918298 0.00695726820696385 -0.024967351167692 0.02928363 0.01641799 -0.9994363 151 151 151
0.0355874492091957 0.00703856722460372 -0.0249657604859224 0.02576764 0.02853944 -0.9992605 172 172 172
0.0366562169395137 0.00752018118556008 -0.0251817559335297 0.02342802 0.02805963 -0.9993317 146 146 146
0.0361280786254694 0.0080616278142438 -0.0250953086493465 0.02425093 0.02970346 -0.9992645 147 147 147
0.0255606462639202 0.00751703805489412 -0.0251524010126603 0.01373969 0.02495868 -0.999594 139 139 139
-0.119756222172085 0.00426824923863223 -0.011945507379028 -0.9402243 -0.3396714 -0.02452743 77 77 77
0.042464977036893 0.00873193848320297 -0.0246725086069677 0.02878192 0.02784902 -0.9991977 185 185 185
0.0414240946351687 0.00975897378054758 -0.0246145636215672 0.01697402 0.03489981 -0.9992467 131 131 131
0.0418662804126444 0.0101844964996728 -0.0248772193271761 0.01322762 0.02982112 -0.9994677 163 163 163
0.0371140123371223 0.00985822497186328 -0.0248158434672784 0.03421776 0.04092986 -0.9985759 131 131 131
0.0396043899566374 0.011090798744591 -0.0247795292610445 0.03121219 0.04022995 -0.9987028 114 114 114
0.0371273170658188 0.012125885692655 -0.0246522145995042 0.04033303 0.03818935 -0.9984562 144 144 144
0.0412874213755168 0.013462919878653 -0.0245865911631769 0.01541178 0.02869892 -0.9994693 148 148 148
0.0392861348092652 0.0135862064843172 -0.0245489944621189 0.03385426 0.02426873 -0.9991321 129 129 129
0.0337984008838181 0.00966499778677443 -0.0247364207575468 0.0179832 0.03193124 -0.9993283 134 134 134
0.00952512909837155 0.0295584562355635 -0.0250959883917996 0.01466344 0.007192117 -0.9998666 63 63 63
0.0352152641360801 0.0122744129161323 -0.0250055109044527 0.03056303 0.02714437 -0.9991642 159 159 159
0.0313829880205625 0.00973474296230037 -0.0248584325107576 0.02622316 0.02671046 -0.9992992 140 140 140
-0.106367251705535 -0.0445479256930768 -0.0284409847674608 -0.08852446 -0.5452176 -0.8336074 82 82 82
0.0323538664293919 0.0119176748398616 -0.0251678782470528 0.02391772 0.02141853 -0.9994845 162 162 162
0.0312954334133919 0.012409679374576 -0.0247373123685943 0.02574334 0.01882461 -0.9994913 120 120 120
0.0354391628275996 0.0159046284357642 -0.024696854881521 0.04425244 0.02128801 -0.9987935 149 149 149
0.0346414365210963 0.0155551293628537 -0.0249058561396239 0.03165348 0.02475278 -0.9991924 136 136 136
0.131980833890514 0.025643839800314 0.0113559201450069 0.1667051 0.9186831 0.3580934 78 78 78
-0.112732348762575 -0.0498586019140348 -0.00936483824157874 -0.9547029 -0.272774 0.1188984 94 94 94
-0.0866067327401185 0.0132284887810085 -0.0273586696315832 0.006181777 0.006687724 -0.9999585 118 118 118
0.0313532744429286 0.014186025508109 -0.0247649751379047 0.0250002 0.01741433 -0.9995357 125 125 125
0.0315319672055043 0.0158286795288186 -0.0248409870729388 0.02767203 0.02479889 -0.9993094 143 143 143
0.0413312477296284 0.0163628145765674 -0.0244221077363034 0.02166115 0.0191857 -0.9995813 124 124 124
0.0413138460483906 0.0177724570428131 -0.0244835052970168 0.02602334 0.01051013 -0.9996061 143 143 143
0.0371479190345831 0.0173722614256766 -0.0246084167622843 0.03777668 0.02880699 -0.9988709 169 169 169
-0.112020336813989 -0.0414157773128716 -0.017674023187927 -0.9365422 -0.03367827 -0.3489334 76 76 76
0.0379432591985691 0.0173210708433184 -0.0247859284951971 0.02947042 0.01437724 -0.9994622 123 123 123
0.0393961037530732 0.0185055145153757 -0.0244983090597944 0.02326242 0.01439122 -0.9996258 97 97 97
0.0374731203679284 0.0194766940814582 -0.0246849425315297 0.0276321 0.03639656 -0.9989553 164 164 164
0.0353359388772638 0.0170254438036087 -0.0247143925396034 0.02736613 0.02600597 -0.9992871 146 146 146
0.0393481379429552 0.0190889162763094 -0.0246515554157251 0.02363205 0.02124776 -0.9994949 77 77 77
0.041942496907073 0.020402329653013 -0.0245380190193002 0.01690987 0.0153682 -0.9997389 183 183 183
0.042928725815969 0.0217750367823509 -0.0245899051978231 0.005159362 0.01484158 -0.9998766 174 174 174
-0.0980053892311381 -0.048154012464105 -0.021771692506887 0.09773397 -0.5997394 -0.7942044 111 111 111
0.0393369871753917 0.0219558123167336 -0.0243192015557412 0.01921266 0.01794843 -0.9996543 158 158 158
0.0406488775782399 0.0220022844065758 -0.0245065281622599 0.01759309 0.01047807 -0.9997903 131 131 131
0.0378556477779202 0.0217688006207064 -0.0245950355475777 0.02262096 0.02032509 -0.9995375 152 152 152
0.0372654781038873 0.0217851927074846 -0.0243967998272096 0.02017742 0.02134521 -0.9995685 147 147 147
0.0366321348165637 0.0203498078786549 -0.0245205835681158 0.03232433 0.0362301 -0.9988205 163 163 163
0.0340314520688292 0.0202989783673646 -0.0247724249464406 0.03457367 0.03046703 -0.9989377 143 143 143
0.0339143767455337 0.0219638444839347 -0.0244296226402547 0.03372911 0.003131215 -0.9994261 145 145 145
0.0333104052838928 0.0215021089566845 -0.0247597956653199 0.03074877 0.01468201 -0.9994193 133 133 133
0.0312250706434241 0.02131029624414 -0.0247350014089252 0.04323782 0.006145196 -0.9990459 129 129 129
0.0297361755578129 0.0118705913485696 -0.0247802394044151 0.009698658 0.01521333 -0.9998372 144 144 144
0.0278500758453379 0.011137501570084 -0.0249552462617312 0.0153774 0.03512248 -0.9992647 141 141 141
0.0270771731840087 0.0110673944850882 -0.0252882697789562 0.01581195 0.03048319 -0.9994102 140 140 140
0.0255339886672634 0.0118449818752226 -0.0249892509276047 -0.001917924 0.0332868 -0.999444 150 150 150
0.0275477293168267 0.0133139822234445 -0.0249299632718217 0.01002332 0.01480216 -0.9998402 143 143 143
0.0250777427452187 0.0129913545021286 -0.0249629326278092 0.006541964 0.00993942 -0.9999292 151 151 151
0.0303935658800332 0.0141539566462344 -0.0252171798868963 0.02380331 0.01699612 -0.9995722 136 136 136
0.0290049490431326 0.0155589072924296 -0.0248258416115126 0.02240311 0.03122643 -0.9992613 138 138 138
0.0231333162592811 0.00977980034555237 -0.0250314717491679 0.01566692 0.04256848 -0.9989707 131 131 131
0.0234897192210539 0.0118575162318746 -0.0252329510916606 0.01681886 0.02454155 -0.9995573 149 149 149
0.025034003350715 0.0153056466090239 -0.0248968333986814 0.00656124 0.008341876 -0.9999437 107 107 107
0.0218404578096756 0.0144117621669633 -0.0245939556952772 0.02447904 0.001512266 -0.9996992 120 120 120
0.0292443218310825 0.0174123395329966 -0.0248683838396482 0.02961917 0.02293294 -0.9992982 141 141 141
0.0275003833942087 0.0173508883657121 -0.024942776345788 0.01910519 0.01856101 -0.9996452 146 146 146
0.0288920522513223 0.0175908093637763 -0.0250461903200975 0.0351673 0.01935153 -0.9991941 151 151 151
0.0263411553519068 0.0165061069089127 -0.0250794400856413 0.00603895 0.004532772 -0.9999715 132 132 132
0.0272650743833531 0.0190103658058813 -0.0249080466083904 0.02670851 0.008428988 -0.9996077 165 165 165
0.0219825523593875 0.0163419324461846 -0.0251616239241171 0.01473597 0.01057279 -0.9998355 144 144 144
0.0245982290225593 0.0182237587093672 -0.0251261228400822 0.01133538 -0.00417846 -0.999927 140 140 140
0.0214500958418014 0.0175658038769417 -0.0251143574695571 0.01724713 0.007936906 -0.9998198 150 150 150
0.0237725747894895 0.019606644139601 -0.0247995505053734 0.01184078 0.01252847 -0.9998514 142 142 142
0.0304379457798656 0.0195304428130102 -0.0249178278288646 0.0409258 0.01819699 -0.9989965 130 130 130
0.0286220034320994 0.0204295705820629 -0.0246496189608103 0.03439519 0.01154747 -0.9993416 139 139 139
0.0273381492635325 0.021426230946014 -0.0248072411671577 0.03352714 0.01275666 -0.9993564 122 122 122
0.0252661202492752 0.0220783066072695 -0.0250883061343976 0.03484818 0.01018694 -0.9993407 128 128 128
0.0210903986649078 0.021887571064571 -0.0249071639048292 -0.001036203 0.008904185 -0.9999598 180 180 180
0.0212868261742596 0.0197282975809171 -0.0249659330223174 0.003100827 0.0170612 -0.9998496 117 117 117
0.016653211038149 0.00796555945132293 -0.0255244060439614 0.04558171 -0.004166777 -0.9989519 110 110 110
0.0134789355174596 0.00794048751362419 -0.0256088327183219 0.03637312 -0.001840658 -0.9993366 131 131 131
-0.118168812580126 -0.00473187012095366 -0.00834478522260856 -0.9824045 -0.144693 -0.11809 65 65 65
0.0113603882919295 0.00641935199862065 -0.0257239607120874 0.02856558 0.001232791 -0.9995912 190 190 190
0.00911256732152488 0.00790071065578124 -0.0254348813546715 -0.005555785 0.01464409 -0.9998773 161 161 161
0.00562865997104778 0.0079953995052966 -0.0255016019689395 0.01375469 0.02999887 -0.9994553 130 130 130
-0.0051773620744302 0.00776966266591206 -0.0255965944179142 0.02706629 0.01189148 -0.9995629 166 166 166
0.017349223243357 0.00977582306302838 -0.0254906634649452 0.04208456 0.01246741 -0.9990363 137 137 137
0.015772586500971 0.0110083343738571 -0.0254062853943038 0.03159277 0.0337591 -0.9989305 114 114 114
0.0148418511922683 0.00885498715569222 -0.0254267304989064 0.03553505 0.02031692 -0.9991619 116 116 116
0.0132471859476322 0.00906063905654086 -0.0254289493231855 0.03701702 0.009795613 -0.9992666 155 155 155
0.0131700388392058 0.0112393931215496 -0.0253735513347884 0.026396 0.04824706 -0.9984866 171 171 171
0.016736602000798 0.0139168483667946 -0.0250790754295509 0.02546935 0.03308746 -0.9991279 107 107 107
0.0173140796055757 0.0151140799114238 -0.0251605207072949 0.0165073 0.02662719 -0.9995092 110 110 110
0.0171214006133216 0.0141406536176688 -0.025351490726183 0.01996251 0.02782522 -0.9994134 82 82 82
0.01071547375658 0.00923342650310011 -0.0254875628998689 0.0007877914 0.01624298 -0.9998677 157 157 157
0.00977393256087522 0.0108819255595749 -0.0253373623195235 0.004207318 0.04317675 -0.9990586 174 174 174
0.00938041634551867 0.0108592264795778 -0.0256891721193613 -0.007148568 0.03725334 -0.9992803 197 197 197
0.00905143638383432 0.0134555325635098 -0.0253812970577559 0.01046325 0.03559992 -0.9993113 115 115 115
0.00907533310306663 0.0154242907068225 -0.025379177818232 0.02063316 0.01584943 -0.9996615 159 159 159
-0.102328407015496 -0.00175245368386656 -0.0279283569316262 0.01265387 0.02654214 -0.9995676 144 144 144
0.0179449865227999 0.0171609212333224 -0.0251267166935874 0.01530642 0.006772713 -0.9998599 133 133 133
0.00670604199855651 0.0190743836962061 -0.0250287411701802 0.03932295 0.00550697 -0.9992114 103 103 103
0.0174646967886281 0.0209883503255976 -0.0249623187201826 0.0215942 0.01238935 -0.9996901 154 154 154
0.0173432326461982 0.0219910729008299 -0.0253272469277279 0.02673615 0.002724066 -0.9996388 155 155 155
0.0154725023238567 0.0216722770551466 -0.0250149482270474 0.02845441 0.002081023 -0.9995929 153 153 153
0.0137468104524721 0.0208789725391287 -0.0252621110969766 0.003652674 0.01536007 -0.9998754 158 158 158
0.0113789403163085 0.0218842977774729 -0.0250719590236468 0.006077521 0.02301199 -0.9997167 125 125 125
0.00961130603308824 0.0216781071013599 -0.0251035986755566 0.02534374 0.03005532 -0.9992269 124 124 124
0.00955111314578794 0.0213696660051264 -0.0254234300997665 0.02534374 0.03005532 -0.9992269 128 128 128
0.00532019441513176 0.00960921537130022 -0.025376211745119 0.02242669 0.03100996 -0.9992675 113 113 113
0.00335113264567166 0.0113834598465082 -0.0255529969260991 0.01697313 0.03228831 -0.9993345 120 120 120
-0.0684717141866646 -0.0455863554909239 -0.0161027936165871 0.2396125 -0.8663436 -0.4382175 72 72 72
0.00647190199524328 0.0118723816659914 -0.0253780070567898 0.02028835 0.02889716 -0.9993765 116 116 116
0.00570400035256791 0.0155949601033647 -0.0252430677960083 0.0289246 0.009648449 -0.999535 127 127 127
0.00351579108570288 0.0150089206517183 -0.0256901743837862 0.02694108 0.01592609 -0.9995102 138 138 138
0.000605316944786605 0.0138074199884839 -0.0255387921719049 0.01981207 0.002611013 -0.9998003 142 142 142
0.0197304472759092 0.0299258575791241 0.0204205819505302 2.647029E-05 0.9537768 0.3005159 54 54 54
-0.000244285787414533 0.0110249152211506 -0.0257482607651239 0.002530911 0.009496211 -0.9999517 114 114 114
-0.00225918548567439 0.010905653570206 -0.0254227364713011 0.01277359 -0.006876485 -0.9998948 79 79 79
-0.040637381124776 -0.0406504472178026 -0.00874900267492287 0.2289168 -0.9440626 -0.2373667 70 70 70
-0.00289191921000542 0.015375982137189 -0.0255420679358305 0.02602251 0.00278878 -0.9996575 120 120 120
0.00544482032769178 0.017110401260924 -0.0253071720850423 0.0322316 -0.001011216 -0.9994799 109 109 109
0.0644595366682066 0.0335536358800215 0.00158550251845765 0.1174353 0.9689236 0.2177064 140 140 140
0.00202106110640132 0.0175962999336021 -0.0255230919280433 0.03718914 0.007109155 -0.999283 72 72 72
0.00278783044715292 0.0192978065325469 -0.025441697690216 0.01911311 -0.001928989 -0.9998155 97 97 97
0.0054268313498862 0.0195079248330184 -0.0253428076204142 0.0370086 0.005990354 -0.999297 85 85 85
-0.00501401981746774 0.017041890392361 -0.0258748238702514 0.0221875 0.02238969 -0.9995031 182 182 182
-0.00498041995520504 0.0176280790838865 -0.0255298970935077 0.024293 0.01943872 -0.9995159 183 183 183
0.00144729157477785 0.0187486912754931 -0.0256836045188909 0.0302914 0.006869619 -0.9995175 102 102 102
0.00149265909290186 0.0219560527796275 -0.0256683733029089 -0.0001010969 0.02099067 -0.9997796 71 71 71
-0.0766129914269738 -0.00526058019711206 -0.0275324899383571 0.02860036 0.02320699 -0.9993215 111 111 111
-0.00198257381731981 0.0199523819711226 -0.0254369711184971 0.02445991 0.01766384 -0.9995447 98 98 98
-0.00506041698144433 0.0201057774035709 -0.0256343537980488 0.02778122 0.03371084 -0.9990454 178 178 178
-0.00312287849331438 0.0212700710339832 -0.0252929686565038 0.01753493 0.03018109 -0.9993906 88 88 88
-0.0171498045099505 -0.0391780680163663 0.00718044525299602 0.05933569 -0.9896379 -0.1307519 59 59 59
-0.121488482685462 0.00688225548705435 -0.0242465421024699 -0.9350843 -0.279524 -0.2179077 30 30 30
-0.132787728004196 0.0602136139968783 -0.0274961443578483 -0.2035189 0.04944725 -0.9778216 112 112 112
-0.0965322046410795 -0.0575435784187401 0.0156527662355034 0.4085594 -0.9127316 -0.0005369353 30 30 30
-0.0585683472033769 0.0168320655871089 -0.0268350546772483 0.01409654 0.02901738 -0.9994795 110 110 110
-0.0345112636309826 -0.0119203114923213 -0.0265604002333054 0.02401999 0.007983829 -0.9996796 125 125 125
-0.11061808552868 -0.0522612025545495 -0.000918670029103202 -0.8689281 -0.4898663 0.07067519 83 83 83
-0.0894060843930045 0.0543434673046763 0.0193330053433275 -0.007818137 0.9713388 0.2375706 80 80 80
-0.0512377651907787 -0.0115814475613389 -0.0270585604709595 0.01546996 0.0158831 -0.9997542 101 101 101
-0.0828585355084042 0.012448249937921 -0.0272214025497257 0.02344696 0.005293823 -0.999711 131 131 131
0.0410851731536797 0.0315850329339354 -0.0241475435991936 0.01189924 0.05504058 -0.9984132 159 159 159
-0.104759514289209 -0.00165895077632083 -0.0279415026122687 0.02328767 0.02033036 -0.9995221 173 173 173
-0.0606731192836083 0.000480009068332232 -0.0270734067229789 0.01791882 0.01723466 -0.9996909 126 126 126
-0.0949029830716732 -0.0173717038109433 -0.0281190052418668 0.03997386 0.02526977 -0.9988812 129 129 129
-0.0793127426482005 -0.00347038038852898 -0.0274568271054519 0.02965483 0.02759778 -0.9991791 138 138 138
0.0383961725424049 0.0352367214677006 0.00099820914396534 0.01454373 0.9531876 0.3020295 138 138 138
0.057248660095599 0.0289543233965051 0.0142423371617002 0.09476471 0.9083145 0.4074119 33 33 33
0.146236805359619 0.0202044980655874 -0.0131836715852239 0.9897557 -0.1353283 -0.04549707 98 98 98
0.00714505024565382 0.0367587203691755 -0.0250983095368675 0.02078368 0.03126653 -0.999295 99 99 99
-0.0900839010913512 -0.0184560072622222 -0.028045129614743 0.02023882 0.030258 -0.9993372 84 84 84
-0.11510069573988 -0.0308655213857109 0.0152646554191165 -0.9997624 0.01861984 0.01133242 53 53 53
-0.0865632541849579 0.0305116800121707 -0.0269944982760891 0.02786443 0.01940496 -0.9994233 112 112 112
-0.00637933415684833 -0.0210178583249573 -0.0262270499477565 0.02358972 0.01775478 -0.9995641 96 96 96
-0.104623006171463 0.0582570462913461 0.00914808420662722 0.04532339 0.9453167 0.3229893 116 116 116
-0.107836989602333 -0.0524809044870778 -0.0180690341715666 -0.1895078 -0.8087767 -0.5567468 108 108 108
-0.104413119509693 -0.00294773364126155 -0.0281042357781172 0.01047918 0.01901411 -0.9997643 139 139 139
0.111857490590355 0.0336068980447043 -0.00511630377507233 0.0361808 0.9484824 0.3147572 153 153 153
-0.0706831098479968 -0.00117657533036952 -0.0272581184446987 0.02478778 0.01589957 -0.9995663 148 148 148
-0.0123206608050008 -0.0346295442260375 -0.0145051007146789 0.09469591 -0.9173846 -0.3865723 73 73 73
-0.0758099503660361 -0.0424072155134334 -0.0245889904629816 0.1055857 -0.836165 -0.5382192 61 61 61
-0.118050377029467 -0.0144632943845332 -0.00218230055535934 -0.9947582 -0.08714593 0.05349553 43 43 43
-0.0711535876588338 -0.0404798497835441 -0.0273130017413226 0.07832652 -0.641973 -0.762716 49 49 49
-0.104725027276416 0.0646098279327785 -0.016533847775924 0.02783375 0.9861089 0.1637516 38 38 38
-0.112072360848074 -0.0516132930637875 -0.0138778926201117 -0.8615258 -0.4903556 -0.1316231 46 46 46
-0.104095602384107 -0.0545240351614651 -0.0146238835441701 0.03454639 -0.8836756 -0.4668233 110 110 110
0.00691551278763436 0.0359254283890527 0.00249787119202594 -0.000168425 0.9672449 0.253845 30 30 30
0.11946856687653 0.0353598116327299 -0.013998061980038 0.1448604 0.980478 0.1329598 51 51 51
0.10641766393316 0.031388276102716 0.00278839449568505 0.05402142 0.9630445 0.2638691 94 94 94
-0.116093490540313 -0.0375705974957994 -0.00353102557885959 -0.9096805 -0.4085942 0.07437792 56 56 56
-0.0938079588617438 0.0191409221583101 -0.0275450378021171 0.02762652 0.01713573 -0.9994714 121 121 121
-0.10594257305987 -0.0485213019942213 -0.0236183837823347 0.07034441 -0.7265676 -0.6834846 83 83 83
-0.0669724550100641 -0.0495200546372511 0.0133719769991685 0.1069195 -0.9872428 -0.1179827 51 51 51
-0.121824960580831 0.0610509381689294 -0.000940822002647917 0.01479862 0.9759011 0.2177108 91 91 91
-0.050116151750685 -0.0388391301338121 -0.0210226726984087 0.1847749 -0.9520582 -0.2438103 76 76 76
0.0449341660934977 0.0385815714461606 -0.0104997274944985 0.05988443 0.9683013 0.2425003 150 150 150
-0.00751968611815679 -0.00501408286829796 -0.0255406848674639 0.00941179 0.02336028 -0.9996828 158 158 158
0.144161383184741 0.0236344675720954 0.0112406257317506 0.285836 0.8892134 0.3572076 53 53 53
-0.0985085480722416 -0.0316019492846237 -0.0282713166888652 0.01729887 0.009899111 -0.9998013 136 136 136
0.0731877079761891 0.035391255826331 -0.00995681769524223 0.02624003 0.9690114 0.2456185 156 156 156
-0.101894059673254 -0.032939960710526 -0.0283433982818074 0.04739943 0.02176285 -0.9986389 112 112 112
0.0611381758381269 0.0290401532523783 0.014158237550454 0.1002614 0.9133191 0.39471 51 51 51
-0.134848742440701 0.047060737982337 0.0133442933700454 -0.9488561 -0.09948242 0.2996254 44 44 44
-0.0193268386398957 0.0349811309502851 -0.000831720394397106 -0.06546561 0.9583836 0.2778761 25 25 25
0.0139733948692045 0.037446429332978 -0.00126408945269285 -0.02708885 0.9772602 0.2103062 150 150 150
-0.0806681495127095 0.057038178508253 -0.0265532750243331 0.01452818 0.01819444 -0.9997289 94 94 94
-0.0709302263181835 -0.0501331142311481 0.0152888944593639 -0.0005488087 -0.9988898 -0.04710429 42 42 42
-0.0902453866932933 -0.0274365082058003 -0.0282203888867152 0.02866221 0.01992824 -0.9993905 127 127 127
-0.118006577640872 -0.0101705731923948 -0.0187726025412972 -0.9994617 0.01222782 0.03044458 60 60 60
-0.1100211351779 -0.00956870842631286 -0.0280196395492557 0.02786842 0.04945787 -0.9983873 140 140 140
-0.0528210871677475 -0.0173472862535634 -0.0273179922139295 0.02454112 0.01237601 -0.9996222 133 133 133
-0.117613953422899 -0.0183401773330119 -0.000802673479564975 -0.9793086 -0.1373353 0.1486392 65 65 65
-0.119017646061855 -0.00401092916402845 -0.0044549322934056 -0.9544941 -0.1413733 -0.2625922 87 87 87
-0.000220834933237768 0.0352072145980487 0.00362358100516272 -0.1423198 0.93934 0.3120665 29 29 29
-0.0885323494384904 -0.0094734325588105 -0.0280800283537893 0.0102217 0.004574508 -0.9999373 138 138 138
-0.112492723839499 -0.0468749340280848 0.000223857834997065 -0.964945 -0.2549829 -0.06216875 93 93 93
-0.0479657263066464 -0.0391635278689484 -0.0188845994891996 0.1923623 -0.9389405 -0.2852851 114 114 114
-0.0499321877573355 -0.0398517229808977 -0.018727178982443 0.2021361 -0.9344115 -0.2932851 76 76 76
-0.107603470649402 -0.0091448904262702 -0.0281299788673636 0.008487812 0.02863944 -0.9995538 117 117 117
0.108907657308603 0.0353182483171101 -0.00999404653529276 0.06372748 0.9565492 0.2845215 142 142 142
-0.118114409286833 -0.00579820396166875 -0.0180950176315333 -0.9955385 -0.05811561 0.0743349 31 31 31
-0.114433219212565 -0.0465633731877649 0.00921001678443598 -0.9653397 -0.2411208 -0.0999001 55 55 55
-0.103730936542892 -0.0128394004780072 -0.0282352600440985 0.01580158 0.03331959 -0.9993199 149 149 149
-0.0525831346947463 -0.0434750327800494 -0.00978800797236995 0.2389046 -0.9189939 -0.3136474 107 107 107
0.0749785326132932 0.0371676604354237 -0.0183936867263952 -0.0727148 0.9969341 0.02889491 137 137 137
-0.136992397059695 0.0395956455218052 -0.00188798677339524 -0.9349575 -0.3547012 -0.006441365 82 82 82
-0.0687292167599631 0.0446324427622218 -0.00647432619011198 0.8324616 0.4923196 0.2542224 26 26 26
-0.102347543139343 -0.0465131384500337 -0.0238995159916439 0.2344245 -0.7009784 -0.6735536 121 121 121
0.0172991601362731 0.0390673300419657 -0.0245826078858398 -0.0126492 0.1510137 -0.9884507 93 93 93
0.0216667528842684 0.0311211354875787 0.0179765941705522 -0.01176754 0.9572543 0.2890081 106 106 106
-0.115222254460191 -0.0298531752611118 -0.0171898282996537 -0.91704 -0.3198904 -0.2381341 120 120 120
-0.107361419757954 0.0469045650718705 -0.0271343213058134 0.03166171 0.017175 -0.9993511 135 135 135
0.124653440039784 0.0312866741285636 -0.00272529689454662 0.1591169 0.9368148 0.3115444 88 88 88
-0.0239177828573767 0.0325112815541135 0.0052399569989614 -0.05404035 0.9549699 0.2917399 46 46 46
-0.0243841176478004 0.00145206914569518 -0.0262371415905315 0.02706886 0.01609725 -0.999504 119 119 119
-0.10583614300954 -0.0357269942820253 -0.0287471104415007 -0.09159486 0.01236 -0.9957197 119 119 119
-0.0437447149802592 0.0383648253149796 -0.0152129644493344 0.1472284 0.9862831 0.07462908 40 40 40
0.110262183193495 0.0274016998046445 0.0127357393075326 0.05312517 0.9229809 0.3811614 84 84 84
-0.0264010413201912 -0.0296542100842834 -0.0267353036945364 0.06118672 -0.2644062 -0.9624684 81 81 81
-0.0607321359346056 -0.0413150471842643 -0.0177896254878514 0.2336759 -0.9078646 -0.3481055 80 80 80
-0.112532495679408 -0.0447076995380417 -0.0158617915853384 -0.9621646 -0.06241932 -0.2652228 102 102 102
-0.0707674521827721 -0.0109113093538941 -0.0274375096573459 0.03464931 0.005696413 -0.9993833 188 188 188
-0.00121958518445542 0.0334306003054545 -0.0251472583237354 0.006371913 0.0208639 -0.999762 122 122 122
-0.0963750740194516 -0.0198021651730338 -0.0282041191373373 0.02782122 0.009411219 -0.9995686 118 118 118
0.147836114442171 0.0210101848343749 0.0155799557390167 0.6561674 0.7288077 0.195662 45 45 45
-0.110556536086058 -0.00552817423489593 -0.0281051488377752 0.02997116 0.01584543 -0.9994252 125 125 125
-0.050770264098547 -0.0437474408751448 -0.00774820670708587 0.2431087 -0.9345337 -0.2598943 108 108 108
-0.0498637640760933 -0.0468794928693556 0.0173321089766807 0.1676103 -0.9805155 -0.1024508 32 32 32
-0.0717737331922201 0.0614667602978539 -0.00693631174407697 0.4185085 0.8387971 0.3482385 196 196 196
0.00201331100352897 0.0336189051358168 0.0104177353226247 -0.08717419 0.9343163 0.3456209 71 71 71
-0.0481814089912689 -0.0351632252010563 -0.02756230914362 0.03928715 -0.2780564 -0.959761 99 99 99
0.0868663363747437 0.0366637207972645 -0.0231011315815619 0.07335444 0.5350302 -0.8416423 74 74 74
-0.133803434249104 0.0652746274973562 -0.0135387255675588 -0.5504958 0.7643983 0.3356332 199 199 199
-0.0645725524575025 -0.0481774614052309 -0.0038726437631604 0.2531438 -0.9487869 -0.1890015 46 46 46
-0.0119260962746828 -0.0353442252493522 -0.013083702012632 0.1041818 -0.9400628 -0.3246971 21 21 21
-0.0936690412329817 -0.0394945137915144 -0.0278335721653216 0.07081577 -0.3544876 -0.9323753 113 113 113
0.147459485648373 0.0266316046324671 -0.00446307040193375 0.9348388 0.3328355 0.1236806 65 65 65
-0.0887268737242315 -0.0238204339422157 -0.0280043112974903 0.02261635 0.02892345 -0.9993258 96 96 96
-0.0195237425747421 -0.0385727634807627 -0.00188891842343827 0.1006583 -0.9686141 -0.2272766 87 87 87
0.0576935378997332 0.0238856966826752 -0.0241532724992781 0.03633003 0.02174644 -0.9991032 138 138 138
-0.130120040770566 0.0275627944474113 0.0124807970738167 -0.9640585 -0.1753259 0.1996295 40 40 40
-0.112077719310752 -0.0479351506829099 -0.00481477001778047 -0.9689067 -0.2436652 0.04297728 90 90 90
-0.0481458365609284 -0.041204742447444 -0.0132889313876002 0.1988785 -0.9325857 -0.3012162 51 51 51
-0.076336927417215 -0.00315954743899738 -0.02757085728796 0.03130021 0.02155048 -0.9992777 121 121 121
-0.0503885640920689 -0.0295853339341731 -0.0273452804016436 0.0235716 0.01863891 -0.9995484 114 114 114
-0.11732272060617 -0.02633045829259 -0.00611094057316036 -0.995217 -0.09135115 0.03461413 45 45 45
-0.0688380440670615 -0.0477362791045491 -0.0100106725553374 0.254963 -0.9435804 -0.211305 35 35 35
-0.094228052323341 -0.0332560472640928 -0.0282781967277582 0.002844067 0.02479102 -0.9996886 79 79 79
-0.107972556671049 -0.0511076194611225 -0.020508976283512 -0.169616 -0.7872692 -0.5928217 72 72 72
-0.0867558834782982 -0.0472029614674699 -0.0204439747947248 0.1967549 -0.7601229 -0.6192743 87 87 87
0.109190044048276 0.0243276841537216 0.0200874998521638 0.0680408 0.9075392 0.4144188 23 23 23
-0.0909976862439561 -0.0507742055002555 -0.0179614865170381 0.2434364 -0.7682299 -0.5920824 89 89 89
-0.0311099976536924 0.0157870934351064 -0.0262959517464436 0.0268468 0.03016064 -0.9991845 111 111 111
-0.0885361618068949 -0.00595497356604624 -0.0278538920849081 0.01429503 0.01625948 -0.9997656 157 157 157
-0.0275242995055969 -0.0428026812929763 0.0158370513694665 0.07809357 -0.98606 -0.1469257 54 54 54
-0.0361850865151472 -0.0293611025183226 -0.0270803971905414 0.04135915 -0.02255028 -0.9988899 77 77 77
-0.116513782472007 -0.0241239589238542 -0.0148986339727246 -0.981979 -0.143356 -0.1231516 66 66 66
-0.0465232267871412 -0.0128780566789899 -0.0270017271382537 0.02235803 0.01297913 -0.9996658 131 131 131
-0.00908070260292826 -0.0366257677574069 -0.00826739111704849 0.03766933 -0.9821443 -0.1843194 49 49 49
-0.118027777640674 -0.0100058569633515 -0.0174303419899367 -0.9984148 0.04676012 0.03132875 37 37 37
-0.0348648126212869 -0.0246497655561965 -0.0268687179176544 0.03053042 0.02051305 -0.9993233 96 96 96
0.128830246628207 0.0293542826949161 0.00214124161537452 0.133594 0.9474275 0.2907468 69 69 69
-0.0131172396364847 0.0395597303561702 -0.0208476752850689 0.1299441 0.9678123 -0.2155315 42 42 42
-0.0984750798815166 -0.0579606015798543 0.00860371410316602 0.3174945 -0.9482056 -0.01016352 44 44 44
-0.0767735022959717 0.0273007178130359 -0.0268874844651454 0.02437447 0.01298111 -0.9996186 116 116 116
0.145820745526437 0.0156133544227879 -0.00687323265219675 0.9755341 -0.2003836 -0.09044104 70 70 70
0.0276335399561081 0.0358059588904053 -0.000965342995276564 0.07608611 0.956059 0.2831292 53 53 53
-0.0328114317636095 -0.0325970186202322 -0.0272846795092599 0.1096329 -0.3200338 -0.9410414 77 77 77
-0.0206715188037045 0.0167479458145289 -0.0259698135333039 0.01815759 0.009941706 -0.9997857 106 106 106
-0.120332114205268 0.00177428064213536 -0.00440717175485955 -0.9364924 -0.2234549 -0.2702774 86 86 86
-0.0768555329663534 -0.049532503691336 -0.00455319051118969 0.1597408 -0.987028 -0.01608141 57 57 57
0.0912752794532676 0.0361098663833656 -0.0229172315175488 0.03931075 0.4086607 -0.9118394 85 85 85
-0.042736722431076 -0.00647684028497431 -0.026870558086804 0.02059143 0.01483594 -0.9996779 130 130 130
-0.0418661115085159 -0.0378065614872911 -0.0195480563922575 0.1479215 -0.9514047 -0.2700895 115 115 115
-0.0710574559186012 0.0186268229533201 -0.026731630322082 0.003074967 0.0190545 -0.9998137 175 175 175
-0.119734864809147 0.00159263009326449 -0.0262145224702484 -0.8342631 -0.2305388 -0.5008562 149 149 149
0.00685152348132378 0.0306537364066515 -0.0250246529547327 0.01194062 0.02370095 -0.9996478 74 74 74
-0.0739367568786067 -0.000725105466645615 -0.0271744123978964 0.02624841 0.01528663 -0.9995385 142 142 142
-0.0166113481324928 -0.0334518923012797 -0.0184292829437584 0.1228228 -0.9314575 -0.3424931 91 91 91
0.0556195254680092 0.0273497257676709 0.0189264739922017 0.1035202 0.9143705 0.3914207 26 26 26
-0.0345760887632709 -0.00935921322654309 -0.0266659592046859 0.03103016 0.001411687 -0.9995174 172 172 172
0.0278504634530763 0.0344012756806287 0.00733991415393348 0.05497129 0.9549366 0.2916749 106 106 106
-0.12024334268493 0.00330591472022224 -0.00938784545193513 -0.9453367 -0.3169869 -0.07653615 56 56 56
-0.114156050762945 -0.0361009649212058 -0.0156080592095335 -0.8906527 -0.1995365 -0.4085622 76 76 76
-0.123015991442223 0.00480775176767401 0.00171280527755016 -0.9380558 -0.3350759 -0.08817931 35 35 35
-0.113054657425897 -0.0430242072301739 -0.00207636817022319 -0.9591567 -0.2777916 -0.05338776 91 91 91
-0.0188669354621034 -0.0330294195495726 -0.0219917257469106 0.1313046 -0.9282047 -0.348131 76 76 76
-0.0945500441414007 -0.055956854159631 0.00304998742669751 0.474757 -0.8800315 -0.01226105 42 42 42
-0.115786875504957 -0.028263225901065 0.00534893437548253 -0.9842106 0.01318253 0.1765098 60 60 60
-0.0092329292797011 -0.0404304879396641 0.00749849572820524 -0.08539734 -0.9847974 -0.1512657 50 50 50
-0.118663806764366 -0.010174963589018 -0.0246624331459679 -0.9776465 -0.07801073 -0.1952477 43 43 43
0.0498525340217357 0.0412361701723749 -0.0232905796882488 0.1192764 0.6820586 -0.7215049 142 142 142
-0.0945853917301847 0.0647491741580051 -0.0180983991191592 0.06441455 0.9762736 0.2067379 142 142 142
-0.0795425476237579 -0.0500384289473803 -0.0032051476041377 0.1475388 -0.9879767 0.04619905 36 36 36
-0.0285052457576569 -0.0406403093093737 0.00483566116219666 0.09765048 -0.9723942 -0.2119291 121 121 121
-0.0960597243053658 0.00385023455625699 -0.0274749114656433 0.01453731 0.02078804 -0.9996782 145 145 145
-0.118233768209659 -0.0105838756350776 -0.0148607336461748 -0.9953997 0.05016778 0.08162577 48 48 48
0.00332017982480304 0.0371662239253503 -0.0249155671841924 -0.01842991 0.143278 -0.9895109 74 74 74
-0.118522472456229 -0.0123163752996203 -0.000283402669838978 -0.9850911 -0.1163624 0.1267093 35 35 35
-0.0628538502962881 -0.0481482236725023 -0.00194870417831075 0.2863865 -0.9469222 -0.1460177 61 61 61
-0.0382292978713807 -0.016722383217294 -0.0267680717380319 0.03130976 0.03292337 -0.9989673 127 127 127
-0.115500289371751 -0.0286389643629807 -0.0195751451828492 -0.8978778 -0.3423927 -0.2767358 72 72 72
-0.021256003929659 -0.041164085770178 0.0114213376879991 0.2202066 -0.9605706 -0.1697447 74 74 74
-0.13586217088882 0.0500451474790933 -0.0112387098361151 -0.9638782 -0.02324856 -0.2653268 75 75 75
-0.0245970514977176 -0.00860148165696784 -0.0263866949722849 0.01466441 0.02204096 -0.9996495 103 103 103
-0.0322170322390862 -0.000403440464947225 -0.0266603290655961 0.02722999 0.02254946 -0.9993748 99 99 99
-0.123041613977709 0.0121255572105362 -0.0155398699701566 -0.945181 -0.3250303 0.03143511 52 52 52
-0.068731862550278 0.0172712352991716 -0.0267728978970086 -9.814648E-05 0.0193606 -0.9998125 154 154 154
0.0240993758356276 0.0326816116978218 0.0119758755437108 0.005515132 0.9550425 0.2964175 138 138 138
-0.0545862465991287 -0.000834083334059321 -0.0270003781021646 0.03789904 0.013655 -0.9991882 124 124 124
0.0546289537455662 0.0301981839418354 -0.0240047742843627 0.03023006 0.02926724 -0.9991144 97 97 97
-0.0381288149269441 0.0372848260743645 -0.0103365731821901 0.1338047 0.9676515 0.2138852 31 31 31
-0.11694275112861 -0.0321868580126794 -0.00885414568897711 -0.968967 -0.08371413 -0.232583 92 92 92
0.0155736482160744 0.0398532548593651 -0.0149054396956076 -0.007321136 0.9848819 0.1730724 41 41 41
-0.117008433147419 -0.0170986465784785 0.0149835297175409 -0.989953 -0.134184 0.04458218 54 54 54
-0.0314857558295469 0.0326731056536157 0.00331808273421688 -0.003720136 0.9348785 0.3549485 77 77 77
0.0297646248255541 0.0316323986725392 -0.024588184816655 0.02437396 0.0290243 -0.9992815 115 115 115
-0.129309745477196 0.0312972893986007 -0.023550575919209 -0.8046845 -0.5010173 -0.3185351 45 45 45
-0.105457206028236 -0.058448915081295 0.0145587296763022 -0.4787524 -0.8519863 0.2119327 145 145 145
-0.050773542620298 -0.00511317103764308 -0.0268235591344848 0.02370202 0.02627058 -0.9993739 137 137 137
-0.0561190593541587 -0.0154081413319881 -0.0271954925411761 0.02829899 0.02188894 -0.9993598 127 127 127
-0.0905136298280187 -0.0426133150632546 -0.0267003633899891 -0.01206312 -0.5561946 -0.8309645 65 65 65
0.00862914074919274 0.0321239406978318 -0.0251485052515087 0.01759638 0.03309084 -0.9992974 109 109 109
-0.0297148185587894 -0.0426969859534098 0.0161625125838777 0.08959184 -0.984414 -0.151335 44 44 44
-0.112644955994089 -0.0483531467861937 0.00490009971016403 -0.9451314 -0.2875563 -0.1550421 72 72 72
-0.136280347148883 0.0383478710702798 -0.00867938929488538 -0.9293587 -0.3657432 -0.05024313 40 40 40
-0.0225657828850849 -0.0382712753654262 -0.0031804680375955 0.1491195 -0.9658777 -0.2117632 85 85 85
-0.118527494566155 -0.00534411418080327 0.0124519370852672 -0.9487419 -0.3098083 0.06251094 56 56 56
-0.11005756918621 -0.0350574451587427 -0.0288864569638967 -0.5876319 -0.1578459 -0.7935826 133 133 133
-0.0245926303358153 -0.0333416767655109 -0.0226819330594267 0.1537921 -0.933058 -0.3251935 69 69 69
-0.0804089598433024 -0.0211745501384977 -0.027926380925138 0.0200901 0.02071517 -0.9995835 137 137 137
-0.0394381023804158 -0.0433882004303602 0.00669268563595737 0.296441 -0.9419381 -0.157719 88 88 88
-0.0693234743312763 -0.0484980801243146 -0.00579606066852995 0.1387217 -0.9754715 -0.1709141 43 43 43
-0.0432535579752913 -0.0430212666362074 -0.000596798534613363 0.251168 -0.9467532 -0.2014273 100 100 100
-0.118307788819436 -0.00611206857393987 -0.0080588037131207 -0.9847486 -0.09780093 -0.1438929 54 54 54
-0.0434851053910221 -0.0253532849994015 -0.0274436007505396 0.007338266 0.03259747 -0.9994416 140 140 140
0.100670433415835 0.0309516791323389 0.00419241504850695 -0.002967238 0.9439794 0.329991 36 36 36
-0.0793850284715267 -0.0451496687372718 -0.0212753597741613 0.1758464 -0.7796233 -0.6010537 68 68 68
-0.0225034725747979 -0.032637695015245 -0.0246268075905898 0.1850062 -0.8429416 -0.5051952 98 98 98
-0.00367516066777807 0.0322208505636019 0.0137596972775509 0.01999572 0.9477953 0.3182519 92 92 92
-0.070091948325953 -0.0486379984377495 0.00293701847654457 0.01722434 -0.9967313 0.07893037 39 39 39
-0.118487606605385 -0.0155945548408895 -0.0154171785928791 -0.997559 -0.06097917 0.0340224 55 55 55
-0.120618933376714 -0.00158455908061716 0.00202500199733543 -0.9557304 -0.2925206 0.03179818 108 108 108
0.0466391199303455 0.0365520565618253 -0.00269359249491344 0.02996559 0.9602804 0.2774231 122 122 122
-0.128080763228838 0.0612796203198732 0.00155727376880965 -0.02806755 0.9718033 0.2341165 133 133 133
-0.115645631304606 -0.0228633605047502 -0.0265217445020947 -0.7934896 -0.3118944 -0.522586 60 60 60
0.13611823813044 0.025830553030079 0.00726862662021682 0.1592139 0.9257175 0.3430716 59 59 59
0.0689924374068882 0.0315939178679269 -0.0234195383966213 0.009515007 0.02668068 -0.9995987 87 87 87
-0.0465595624119608 -0.0413331748024015 -0.0119259004031202 0.2312092 -0.9348105 -0.2695769 134 134 134
-0.118900236527117 -0.0160057340176196 -0.00602015399534989 -0.9980235 0.0005111674 -0.0628402 43 43 43
0.0835009216818143 0.0281780682081717 -0.0232925690468215 0.02859849 0.01803288 -0.9994283 118 118 118
-0.0698273160612763 0.0374762645318785 0.0179215624545982 0.7393568 0.4928347 0.4587652 10 10 10
-0.11496778018697 -0.0285349877682961 0.0147449751926625 -0.9994324 -0.02957639 0.01613061 49 49 49
-0.112022502069537 -0.0335006325951485 -0.0227656762421312 -0.9588072 -0.2081561 -0.1932869 55 55 55
-0.0608218537671728 -0.0450240348756916 -0.0121267701186541 0.2608828 -0.8908897 -0.3718275 95 95 95
-0.0714694108868255 0.0485914043551646 0.00980782640978992 0.7815144 0.3906416 0.4864508 14 14 14
-0.12213545611859 0.00817994858315585 -0.0276399828429865 -0.7099988 -0.2690861 -0.6507644 104 104 104
-0.0562252476236411 -0.0401290140271994 -0.019724497586919 0.1011031 -0.9443384 -0.3130544 97 97 97
-0.120315091970496 0.00437256576697387 -0.0279550905776395 -0.568204 -0.279954 -0.7738023 170 170 170
-0.0106066087720813 -0.0232879278865518 -0.0264617327647666 0.02923045 0.02488678 -0.9992629 125 125 125
-0.0667615622686686 -0.0493654500831486 -0.00173225896747481 0.1229452 -0.990197 -0.06629027 56 56 56
-0.0684174441549463 -0.0490260498203668 -0.0028611721750802 0.07667597 -0.9942863 -0.0742664 48 48 48
0.0863517694024876 0.0373294875913486 -0.0182138568732254 -0.03464958 0.9973324 -0.06424583 132 132 132
-0.0691681388954821 -0.0489556038945617 -0.00407315095867294 0.09231678 -0.9860842 -0.1382587 39 39 39
-0.076630990637188 -0.0499734867125006 -0.00216857546321736 0.1106293 -0.9933462 0.03200829 28 28 28
-0.101637923516296 -0.0591824456783576 0.0129017281641203 0.0661465 -0.9977098 -0.01413799 67 67 67
-0.10317570180575 -0.0589843613308052 0.0109411493240804 -0.1298002 -0.9915402 2.839768E-05 116 116 116
-0.0963077317889751 -0.0569340371866228 0.00881431219981857 0.4412947 -0.8972042 -0.01684258 27 27 27
-0.095102133821853 -0.0566897438848706 0.00708771401955302 0.4628755 -0.8864045 -0.005764696 61 61 61
-0.0966521599741887 -0.0570427057437548 0.00753356675240949 0.4415872 -0.8972161 -0.002015844 59 59 59
-0.0970763730051991 -0.0570850854115496 0.00477827442800061 0.4109147 -0.9116693 0.002858927 65 65 65
-0.101266010919053 -0.058600259325387 0.00855163994434277 0.1375158 -0.988956 -0.05527633 65 65 65
-0.0988734098301598 -0.0588101453294441 0.00600723809776291 0.292375 -0.9561728 0.01582814 89 89 89
-0.101419947262591 -0.0596451117268032 0.00573591764706494 0.0786659 -0.9950265 0.06110631 97 97 97
-0.0998444031643675 -0.0588427547689755 0.00508721112937041 0.2281166 -0.9725087 0.04679398 101 101 101
-0.0977006192983816 -0.0576043178277681 0.00730905403320184 0.3872945 -0.9219547 0.001573658 69 69 69
-0.0903704382632493 -0.0536465925149879 0.00119998539496299 0.4306485 -0.9025111 -0.003964076 50 50 50
-0.0840777372816577 -0.0505502199218094 -0.00129645457340696 0.3531912 -0.9334234 0.06306137 80 80 80
-0.0806234480117629 -0.0500813448598501 -0.00176987842636114 0.1854411 -0.9821951 0.03007117 33 33 33
-0.0806990417271192 -0.0503657752596248 -0.00419236108797483 0.1983088 -0.9783569 0.05908746 48 48 48
-0.0842157315830838 -0.0507166948683374 -0.00200192572094052 0.351227 -0.9347286 0.05405526 108 108 108
-0.0837621041424539 -0.0508162976156895 -0.00298495421355324 0.3368908 -0.9395537 0.06118335 99 99 99
-0.0623402562449313 -0.0132071958536958 -0.0273554080875231 0.02170132 0.02058303 -0.9995526 115 115 115
-0.0842908492901726 -0.0509566504923117 -0.00445327101209339 0.3346731 -0.94089 0.05215209 96 96 96
-0.0867795231341959 -0.0525106408435636 -0.00223200799679069 0.4162609 -0.9089696 0.02238305 28 28 28
-0.0848581947343567 -0.0513320543875802 -0.0008381453545796 0.3820399 -0.9225096 0.0549684 52 52 52
-0.0882085636422025 -0.0528629790017086 -0.000986037881264473 0.4413829 -0.8969118 0.02702502 63 63 63
-0.0993385994927838 -0.0585773311871216 0.000251765378626118 0.3217387 -0.9468278 -0.00113431 44 44 44
-0.0972089817661104 -0.0574692900842826 -0.00170783283039538 0.3979033 -0.9171879 -0.02095798 94 94 94
-0.101012471095901 -0.0592984517467997 0.000414581316041523 0.08206753 -0.9947773 -0.06068901 43 43 43
-0.0872611283079481 0.00132988987016136 -0.0277446270038471 0.02904836 0.03501568 -0.9989645 142 142 142
-0.101182193049738 -0.0590148538114349 0.000174252285208981 0.04836117 -0.9962135 -0.07224905 41 41 41
-0.0934243037188551 -0.055784592925058 0.00523729159254785 0.4457953 -0.8943891 -0.0365329 58 58 58
-0.0907066918746353 -0.0537881977931767 0.00526896607656879 0.4274496 -0.9033473 -0.03536224 45 45 45
-0.0943967158654391 -0.0560865904633226 0.000888263074883988 0.4624156 -0.8866633 0.0002647534 73 73 73
-0.0907882604252799 -0.0537241759180974 0.00356398630840443 0.4324302 -0.9008961 -0.03728588 69 69 69
-0.101934986800409 -0.0592160565509483 0.00179866613725504 -0.09436479 -0.9955377 -9.691211E-05 55 55 55
-0.0948097068297895 -0.0560253302573657 -0.00499429576889882 0.4347325 -0.8973086 -0.07645167 42 42 42
-0.0917278920206748 -0.0550384456335417 -0.00706827924153836 0.417527 -0.9049501 -0.08207534 83 83 83
-0.102562375399574 -0.0592539352158874 -0.00490723608560642 -0.04620309 -0.9860521 -0.1598956 83 83 83
-0.0966715274417269 -0.056715734357318 -0.00431365216409588 0.4160267 -0.9060861 -0.07700503 62 62 62
-0.0996138729052629 -0.059201141031476 -0.00347384052502131 0.267743 -0.9570477 -0.1112357 96 96 96
-0.0991857891334944 -0.0575513123556031 -0.00758058849903778 0.1926878 -0.9610363 -0.1981936 87 87 87
-0.0982119991321899 -0.0573306860691003 -0.00919793702953173 0.2221771 -0.9377078 -0.2670983 80 80 80
-0.0925592135946798 -0.0552079999456159 -0.00339304128234888 0.4383768 -0.8979392 -0.03912751 62 62 62
-0.101637002329065 -0.0251487086337178 -0.0284355479620191 0.02387406 0.01050669 -0.9996598 113 113 113
-0.0936021017265714 0.0594657473364001 0.0044377249239192 0.05356869 0.9569529 0.2852571 110 110 110
-0.1221851950032 0.00904313807457813 -0.0224616508929665 -0.9579247 -0.2859138 0.02517243 50 50 50
-0.115069590769559 -0.00338439085351594 -0.028411402832951 -0.1740305 0.02074435 -0.9845217 173 173 173
-0.0818148571949604 0.0633821179056258 -0.0174112927860016 0.01341762 0.9897638 0.142083 146 146 146
-0.0183548453289148 -0.0384096500972579 -0.00399382817975885 0.1097864 -0.9443206 -0.3101704 84 84 84
-0.0461574312060677 -0.0367981881568504 -0.026966142760179 0.1063059 -0.5933253 -0.7979124 125 125 125
0.049683506418817 0.0342338206029144 0.00475258302210971 0.02813341 0.9505618 0.3092586 130 130 130
0.0256457027491326 0.0314772679820803 -0.0247697502982098 0.01950001 0.02298691 -0.9995456 120 120 120
-0.0479636710301605 -0.0463638477787827 0.017044447208655 0.1740684 -0.9806173 -0.0899431 65 65 65
-0.00734229731539982 -0.0419490855223856 0.0155262592881697 0.01108699 -0.989908 -0.1412769 67 67 67
-0.0156125515164258 -0.0416206424991145 0.0177501135058038 0.03389379 -0.9715149 -0.2345423 53 53 53
-0.0169595785810821 -0.040913109411469 0.0173800876675757 0.07459307 -0.9767754 -0.2008622 92 92 92
-0.0869688812259559 0.063558309656424 -0.0153183362413763 0.0700132 0.9864581 0.1483194 175 175 175
-0.0424712326263328 -0.00295012290977614 -0.0265805207523981 0.01128092 0.01886986 -0.9997583 120 120 120
-0.0241033074246859 -0.0424901604984691 0.0154726511282994 0.1431423 -0.9763967 -0.1617395 95 95 95
-0.0256237133434434 -0.0432856534961589 0.0176108204185131 0.107455 -0.9801632 -0.1665338 71 71 71
-0.0254852965257752 -0.0427621383116997 0.0170050598991644 0.107455 -0.9801632 -0.1665338 33 33 33
-0.0267854835716372 -0.0429221983049407 0.0166168335024133 0.08526838 -0.9832543 -0.1610597 37 37 37
-0.0288298500028312 -0.0431625985479911 0.0168980269024632 0.07430919 -0.9868893 -0.1432746 47 47 47
-0.0302160610366808 -0.0432999286470903 0.015577575652737 0.09132559 -0.9848456 -0.1474405 72 72 72
-0.0310949909892653 -0.0429406423325055 0.0164288908912537 0.1023453 -0.9834535 -0.1494817 71 71 71
-0.110984089927777 -0.0518920690178724 -0.00776923287181633 -0.9031186 -0.412997 0.1175168 105 105 105
-0.00737769053172821 -0.0412639369612415 0.011260667979279 -0.03328618 -0.9846885 -0.1711159 78 78 78
-0.00722102520008461 -0.0403674471772333 0.00938276005854927 -0.05030266 -0.985258 -0.1635127 80 80 80
-0.00895239700768213 -0.0403973546883509 0.00942061767827587 -0.1019924 -0.9813567 -0.1629005 85 85 85
-0.0114261369515711 -0.0399971547723311 0.00753069709924298 -0.09623833 -0.9849843 -0.143332 63 63 63
-0.00708415525461259 -0.0391778347551159 0.00388344589651538 0.0202829 -0.9614089 -0.2743748 85 85 85
-0.0113459430758107 -0.0398098752379903 0.00564814634660366 -0.05626328 -0.9861966 -0.1557265 61 61 61
-0.00917148782851784 -0.0392859355087979 0.00395737785765604 0.02931169 -0.9643658 -0.2629439 103 103 103
-0.0148080674769955 -0.0392495702744102 0.0072998397939836 0.00882046 -0.9912911 -0.1313932 56 56 56
-0.0170340329245442 -0.0392596646439869 0.00364439891392815 0.06624604 -0.9915491 -0.1115432 69 69 69
-0.0232473523839185 -0.0414633306127569 0.0109148309859357 0.1868266 -0.9642226 -0.1880709 71 71 71
-0.0253268311471935 -0.0417922383060736 0.0109081325636474 0.1374517 -0.9719204 -0.1909917 66 66 66
-0.0271230678071852 -0.0420711829128585 0.0110072412960325 0.08215936 -0.9815297 -0.1727695 107 107 107
-0.0253186435203276 -0.0416707149971507 0.00878079100719145 0.1186651 -0.9693856 -0.2149655 86 86 86
-0.0187311668715253 -0.0395611888179176 0.00752547413047763 0.1495598 -0.9760922 -0.1577207 70 70 70
-0.0236951681965714 -0.0412697256860314 0.00778756008154274 0.1508964 -0.9637469 -0.2200503 54 54 54
-0.0228019042250041 -0.0400670472951655 0.0052205446881568 0.1329818 -0.9736066 -0.1854885 77 77 77
-0.0207816989380718 -0.0400198351261604 0.00572690351514249 0.1601099 -0.9727563 -0.1676602 85 85 85
-0.0223197858697399 -0.0398189977901211 0.00377711146348744 0.1175798 -0.97916 -0.165592 105 105 105
-0.0263377913606657 -0.0415756560174282 0.00711013003611555 0.108262 -0.9675613 -0.228264 135 135 135
-0.0247758335187025 -0.0410035174871144 0.00704060708942833 0.1343637 -0.9643508 -0.2279778 97 97 97
-0.0246604814575946 -0.0404857537346458 0.00641259682528939 0.1162692 -0.9702757 -0.2122418 98 98 98
-0.0251506269697321 -0.0401930452364839 0.00514445712602749 0.114643 -0.9716399 -0.2068159 107 107 107
-0.0275779747057538 -0.0403866587915754 0.00525233283134924 0.09326313 -0.9706461 -0.221694 118 118 118
-0.00975453640590063 -0.0411792518268786 0.013962802995073 -0.1078667 -0.9703828 -0.2161531 85 85 85
-0.00691930603842783 -0.0406588544073005 0.0106035538555302 -0.01770094 -0.982806 -0.1837911 125 125 125
-0.0118203697580026 -0.0401993945389126 0.0111230255287568 -0.1256686 -0.9748135 -0.1842448 104 104 104
-0.0132260699290878 -0.0404616458069604 0.0132469860995559 -0.09540203 -0.9705477 -0.2212138 52 52 52
-0.0149324390985988 -0.0403796290836174 0.0132027031414372 0.0006812122 -0.9795516 -0.2011921 94 94 94
-0.0151953499596376 -0.0406396942712636 0.0151422975001442 0.003641393 -0.9804221 -0.1968736 60 60 60
-0.0128724992145934 -0.0403175803145948 0.0114977964713715 -0.1068199 -0.974108 -0.1992565 75 75 75
-0.0130005837046179 -0.0397757114388784 0.0097352239432841 -0.08868453 -0.9828669 -0.1615786 94 94 94
