ply
format ascii 1.0
comment File exported by Rhinoceros Version 7.0
element vertex 470
property float x
property float y
property float z
property float nx
property float ny
property float nz
property uchar red
property uchar green
property uchar blue
end_header
-0.026477566630644 0.0146076749647994 -0.0201980763343248 0.05446694 -0.05753279 -0.9968567 98 98 98
-0.0473775597699713 -0.0368425881035466 -0.0132608886002724 -0.04768029 -0.1463289 -0.9880862 127 127 127
-0.0334154410321399 0.00314217011505646 0.013226764113996 -0.05618431 0.5049769 0.8613023 75 75 75
0.00876578965365571 0.0117308343727853 0.0243626789667769 -0.2886994 0.6566153 0.6967848 189 189 189
0.00397679637186021 0.0100892905287482 -0.0185102358336848 0.03110456 -0.1356573 -0.9902675 98 98 98
-0.051450509618606 -0.0048861716329458 0.013422012397953 -0.9264475 0.2234491 0.3029283 98 98 98
0.0214086606692949 0.0279419063537334 -0.0154548874825033 0.1112493 0.5151542 -0.8498469 101 101 101
-0.00643131973936173 -0.0145313294130309 -0.0152871630685902 -0.07077131 0.0182074 -0.9973264 135 135 135
-0.047902199207611 0.0140758989869278 -0.0194638824560474 -0.09174821 -0.0033924 -0.9957765 88 88 88
-0.0469142581378899 -0.0421977375432938 -0.0114362325258338 -0.1463991 -0.3352704 -0.9306777 84 84 84
-0.0285600382163036 -0.0435703757557795 -0.0146099229526761 -0.06254698 0.005725887 -0.9980256 62 62 62
-0.0088520410661439 0.0231864847755088 0.00508979422867997 0.1985764 0.9716629 0.1282131 193 193 193
-0.0326236347424032 0.0256045489196559 -0.0195237813718073 0.2096233 0.8904336 -0.403963 108 108 108
-0.00405457452297542 0.0242630788017386 -0.00341702118562701 -0.1720871 0.9696864 0.1734769 168 168 168
0.0128038197626732 0.0298457052476397 -0.0149676536383585 -0.28694 0.8392451 -0.4618799 107 107 107
-0.0505652588601619 -0.036900252463099 -0.0133373492454777 -0.3829389 -0.127021 -0.9149991 95 95 95
0.0295107680904811 0.0240282548688628 -0.019797797393255 -0.127329 0.2317163 -0.9644142 117 117 117
0.0143812045725209 0.00999525935678935 -0.0180217069272804 0.0415647 -0.09971208 -0.9941478 56 56 56
-0.00386336511616703 0.0171818781810045 -0.0191898374684113 0.00229154 -0.0558056 -0.998439 100 100 100
-0.0516496716152828 -0.0339779508007265 -0.00412303751760743 -0.9739861 -0.1592456 0.1612199 76 76 76
-0.0376029179458333 0.0180837366642839 0.00696330803566272 -0.09709328 0.6935937 0.7137932 84 84 84
-0.0342901625355858 0.0157276391612153 -0.0211491868259382 -0.03559847 -0.09379003 -0.9949554 100 100 100
-0.00832411345885431 -0.00644187001639662 -0.0159444913078461 0.01044195 -0.1774106 -0.9840815 203 203 203
-0.0229863789537652 -0.0349299360284487 -0.0152333022495819 -0.101088 0.01947612 -0.9946868 75 75 75
-0.019653284330472 0.0253473997561324 -0.0135817062463389 -0.03342057 0.9978149 -0.05699518 74 74 74
0.012365411194986 0.00742871873394946 -0.0177008219915803 0.02292498 -0.1222978 -0.9922286 130 130 130
-0.0538148971868249 -0.00285450577673729 -0.00578147230778944 -0.9930887 -0.01060674 0.1168864 91 91 91
0.00790717410923625 -0.04365818259526 -0.0152116748304011 -0.04655353 -0.03073345 -0.9984429 102 102 102
-0.00245348553726643 0.0245513186618114 -0.00420748446242555 -0.1948273 0.9667169 0.1658335 219 219 219
-0.0224822753858738 -0.000391627684856344 -0.0180707661955699 0.06860902 -0.1718935 -0.9827235 120 120 120
0.0346243023522628 0.0124310674966031 0.0289296948179854 -0.1625963 0.8197914 0.5490943 104 104 104
0.0367684184834012 0.0161588519205738 0.0226489452655997 -0.2442379 0.8939549 0.3757558 66 66 66
-0.0526867971746219 -0.014440381647326 -0.0165266061969444 -0.4505827 -0.129032 -0.8833606 53 53 53
-0.0491687981550148 0.0157850198797995 -0.0193218593475362 -0.06665277 -0.02161439 -0.9975421 68 68 68
0.0360759132159538 0.0246299284228428 0.0114115274441266 -0.1030575 0.8206074 0.5621234 215 215 215
-0.0189954474365468 0.013542219313196 -0.0205401052968256 0.1469459 -0.04672657 -0.9880403 140 140 140
0.0405469089837402 -0.00490576654991148 -0.0176578281037934 0.2516345 0.1921733 -0.9485513 121 121 121
-0.0533926255776564 -0.0224705749245688 -0.00777390200047864 -0.999531 0.03031286 0.004338649 92 92 92
-0.0140409476971324 -0.000444072098591652 0.0195735449916928 -0.3199235 0.522909 0.7900729 44 44 44
-0.0246225903951118 0.0200243876004664 0.00577530131057394 -0.0732018 0.6070789 0.7912627 54 54 54
0.0480983281599032 0.0246091444366159 -0.000653345165572888 0.9477056 0.190511 0.2560463 43 43 43
-0.00184557696571108 0.00145019973141158 -0.0178358938772605 0.0802228 -0.1681601 -0.9824899 76 76 76
0.044827884786808 0.0314813416319726 0.00472888355260706 0.5518337 0.716105 0.4274028 72 72 72
0.0160823885764008 -0.00108478554126012 -0.0174060062446509 -0.04129241 -0.01088164 -0.9990879 95 95 95
-0.0465654504642998 0.0176722905071982 0.00357073091498231 -0.3333489 0.8266674 0.4533206 233 233 233
0.0183222448448483 -0.00796503114415836 -0.0169754677039952 -0.0856594 0.03358455 -0.9957583 72 72 72
0.0336628811809949 0.0233351308941294 -0.0198842570976949 0.03705939 0.007227845 -0.9992869 90 90 90
0.0496743319379438 0.0104224421652266 0.00365951340692441 0.9929717 0.1179348 0.009924327 33 33 33
-0.0325286462614405 0.0115765090965345 -0.0201419470045938 0.04972866 -0.1016544 -0.9935761 202 202 202
0.0489201845094165 -0.00246876071073565 -0.0135136908334559 0.4825722 0.1894083 -0.8551307 122 122 122
-0.0123259294423379 0.0240264603670306 -0.00617904595081684 0.104037 0.9872821 0.1202096 71 71 71
-0.0256769007607449 -0.0356267035449374 -0.0151586259389052 -0.08439955 0.009871709 -0.9963831 93 93 93
-0.0204753519606835 -0.0229239173019549 -0.01594716785101 -0.04742592 0.006044072 -0.9988565 157 157 157
0.0492964612281304 0.0143642151122305 0.0114300237759906 0.972124 0.2339684 0.01528782 50 50 50
-0.0520632584828262 -0.0254689693951904 0.00615249867545944 -0.994691 -0.08954609 0.05070779 81 81 81
-0.0525518986265419 -0.0256980900289658 0.00372110821226448 -0.9947324 -0.08978357 0.04946046 114 114 114
-0.0428139408997317 0.01209419679345 -0.0205434409948258 -0.1137779 -0.01025037 -0.9934533 199 199 199
0.00117457382085773 -0.0441924456786362 -0.0155108530791982 0.06742971 0.02894155 -0.9973042 77 77 77
0.0280901065368 0.0339807500792009 -0.00316021352169446 -0.205881 0.8157151 0.5405755 218 218 218
0.0293990340887111 -0.0316678292590789 -0.017090049746695 -0.200137 0.05332805 -0.9783155 124 124 124
-0.038329886488397 -0.0290283153669604 -0.0143825003957745 -0.05412116 -0.1122495 -0.9922051 75 75 75
-0.036442341865198 0.00118663356369519 -0.0189042803850361 -0.000916892 -0.1746776 -0.9846253 143 143 143
0.0495980516286596 -0.024145920338652 -0.0101424446507532 0.9765323 -0.1202456 -0.1786773 46 46 46
0.0354271499617203 0.0304811557869966 0.00424994718750263 -0.1662708 0.7807521 0.6023123 184 184 184
0.0493480937601056 0.0248780175138386 -0.0110478467445328 0.9063655 0.130196 -0.4019336 95 95 95
0.0173617641193871 0.00780752307138544 0.0316289607660087 -0.171069 0.7132587 0.679704 67 67 67
0.04160127288764 -0.00997563038401661 -0.0184306942398493 0.07828647 0.1101925 -0.9908223 117 117 117
-0.0197979185988371 0.0251143051810871 -0.0154953228512082 -0.197398 0.9618111 -0.1896139 106 106 106
0.0201061129898528 0.0342875900942181 -0.00785370288257756 -0.2687131 0.9561514 0.116481 77 77 77
0.0130623681600168 0.0304742353235337 -0.0111703013258715 -0.4135675 0.9015973 -0.1268236 86 86 86
-0.0560358574221307 0.0106726429450197 -0.0189298099005114 -0.411946 -0.02420063 -0.9108868 71 71 71
0.0379690389482943 0.0217693812489133 0.0154489725321255 -0.1269417 0.7424609 0.657752 92 92 92
-0.0283401571955015 -0.0163178981844483 -0.0159366502451105 -0.01529659 -0.1225815 -0.9923406 52 52 52
-0.0371194373514139 0.0189907267466038 0.00554707396218937 -0.1490519 0.7475339 0.647284 100 100 100
-0.024135617952965 0.0249584431035104 -0.00182704697176658 -0.1594938 0.9714379 0.1756992 127 127 127
0.0170540089650033 0.0333661634873237 -0.00915829969481605 -0.3246071 0.9415379 0.09020257 43 43 43
-0.0261679024386807 -0.00586214861590251 -0.0177157549508312 0.000563567 -0.1672257 -0.9859185 100 100 100
-0.0147191459975811 0.0139059742073784 -0.0196269267390966 0.113262 -0.1014271 -0.9883745 103 103 103
0.00844897917694976 0.0198750229257043 -0.0196754069649958 0.07988459 -0.05466468 -0.9953041 66 66 66
0.0210672083393431 0.0187590849678323 0.0163327386028315 -0.112241 0.827498 0.5501354 28 28 28
0.0137643514082897 0.0308573587366274 -0.00749713345488187 -0.279832 0.9361358 0.2129408 28 28 28
-0.0325386432880754 0.000865450294797565 -0.0187005062218597 0.02041335 -0.1721897 -0.9848523 161 161 161
-0.0488004875743857 0.00248343784408034 0.014463223752221 -0.5332822 0.4430835 0.7206158 62 62 62
-0.054219469574988 -0.0119802624000589 -0.00560025388889238 -0.9873787 -0.1000916 0.1227396 42 42 42
-0.00811698802799299 0.0210150204280335 0.0103497322383607 -0.1516117 0.7996778 0.5809727 215 215 215
-0.0238332387778546 0.0256034291893656 -0.00300644531469094 -0.1894012 0.9760804 0.1067444 226 226 226
-0.0540754568108262 0.0193028969001707 -0.0169274545001613 -0.4812609 0.7153621 -0.5066014 80 80 80
-0.011339437166626 0.0262396982841409 -0.0198831941839598 -0.06963754 0.7710704 -0.6329305 62 62 62
0.0209037489588018 0.0205991284868676 0.0145450763989226 -0.162145 0.7705413 0.6164213 90 90 90
1.22293510695926E-05 0.000848439938280432 0.0244005815309683 -0.4640849 0.3111451 0.8293455 31 31 31
0.0300932416669122 0.0138808114003062 -0.0190869214244761 -0.03841263 -0.002257916 -0.9992594 135 135 135
-0.015460717191432 -0.00452455940724783 0.0213882934102485 -0.2491648 0.5208435 0.8164796 38 38 38
-0.0264604260950487 0.00387270928192285 0.013819016975057 -0.1508663 0.4768635 0.8659334 48 48 48
-0.034933115760249 0.00366955431544502 -0.0190516465756534 0.02548813 -0.1332055 -0.9907606 119 119 119
0.00227490041622946 0.00604030772756792 -0.0180685877796612 0.09255996 -0.1211846 -0.9883051 91 91 91
-0.0166912947169116 0.0255543445989361 -0.00572381762977667 0.2507123 0.964546 -0.08242732 93 93 93
-0.0428031556566797 -0.0181053224036614 -0.0154044647112694 0.01443032 -0.1612429 -0.9868093 155 155 155
-0.0481483199214421 -0.00237623122704456 0.0178956602920518 -0.4657181 0.5006235 0.7297142 64 64 64
0.00631090654279065 0.0266585463193711 -0.0155139564981737 -0.2057446 0.9251932 -0.3188835 104 104 104
-0.0183532797897401 -0.0317275897763754 -0.0161957856991759 -0.04658831 -0.01310431 -0.9988282 149 149 149
-0.0548796134747174 0.0142870285753556 -0.00736100279217619 -0.9367959 0.1509367 0.3156445 109 109 109
0.00823031427630205 0.0202757729607348 0.0134424522273199 0.0177284 0.7924838 0.6096352 212 212 212
-0.0112214130584856 0.0106479855278352 -0.0191887383929733 -0.03019828 -0.1593515 -0.98676 142 142 142
-0.0135947635836891 0.0236436207007245 0.00439945192980642 0.1202107 0.9565871 0.2655005 121 121 121
-0.0268745049543857 2.01028674091663E-05 0.0160933826200693 -0.1609199 0.4924147 0.8553553 207 207 207
-0.000616725664627893 0.0222597654572634 0.00524246346598103 -0.1176605 0.9619365 0.2466457 66 66 66
-0.0364540229487358 0.0248682981285939 -0.0115312373548497 -0.05084869 0.9762083 0.2107886 172 172 172
0.0481717658874063 0.019292886057692 -0.0141209175636649 0.6604576 0.04883356 -0.7492737 100 100 100
-0.0279594750668881 -0.0404557712050464 -0.0147943403625563 -0.05691298 0.03402565 -0.9977992 65 65 65
-0.0495694066999102 -0.0392199134633331 -0.0126907170409459 -0.2742306 -0.2498622 -0.9286369 110 110 110
0.0517034558243754 -0.00680401417209597 -0.00604173301406727 0.9951835 -0.09794167 0.004148191 50 50 50
-0.0132305523624212 0.0252868652547373 -0.0127059829297115 -0.146615 0.9619597 0.2305159 92 92 92
0.0313440502942584 0.0307419185102609 -0.0150186721313005 -0.2097916 0.6208185 -0.755362 64 64 64
-0.0350187139558162 0.000834951058191535 0.0150294914667474 0.0008699037 0.5268499 0.8499579 70 70 70
-0.0548296245204645 0.00434894976885958 -0.00859802711567412 -0.9784142 -0.05243969 0.1998894 89 89 89
-0.0494794047390799 0.021663136005442 -0.0160174636500675 -0.3279035 0.8541155 -0.4036904 88 88 88
-0.0384148960264308 0.0239181305630236 -0.0212384227420309 -0.09660032 0.4654263 -0.8797992 80 80 80
-0.0345102110748163 -0.00940089312087267 -0.017159767461963 -0.01441307 -0.1668294 -0.9858804 187 187 187
0.0470128141840864 -0.0189905766294467 -0.018249519120263 0.3446655 0.01178752 -0.9386516 107 107 107
-0.0559830866743254 0.0108348172956625 -0.0201279446192442 -0.2605317 -0.05113394 -0.9641103 89 89 89
0.0299948223134767 -0.0221180443505717 -0.0162758642466382 -0.1075062 -0.01858547 -0.9940307 153 153 153
0.0495048817957411 0.0219472138837935 -0.011531837123325 0.9100051 0.08109391 -0.4065889 84 84 84
-0.0321406717611898 0.0231226290118576 0.00187964946107425 -0.1506851 0.9128736 0.3794151 74 74 74
0.0492032489895005 -0.0225611538913715 -0.0171902101363462 0.8938732 -0.07905703 -0.4412945 43 43 43
-0.0457502089940331 0.0125850159285692 -0.0195929566663093 -0.1467875 -0.008633342 -0.9891304 138 138 138
0.00913888242305427 0.0136720185195462 -0.0193678975377371 0.04013352 -0.114529 -0.9926089 85 85 85
0.00769719505015098 0.0277020291677199 -0.00204613679624119 -0.2958609 0.9135262 0.2791705 229 229 229
0.0208492412924541 0.0224183852141393 -0.0175192399038429 -0.05828668 0.3293764 -0.9423979 67 67 67
0.0508269355407238 0.000894381948041145 0.0139821358056737 0.9933963 -0.02879152 0.1110626 32 32 32
-0.00452021909710343 -0.0334822958671184 -0.0157013330865455 -0.07428905 -0.06304894 -0.9952416 98 98 98
-0.0297520520956489 0.000448617012237085 -0.0192844891857452 -0.002389961 -0.1010105 -0.9948825 123 123 123
-0.0121301671311786 0.00194988265297957 -0.0172069595695861 -0.03983102 -0.09652988 -0.9945328 74 74 74
0.025351042164826 -0.0264226165451742 -0.015949875617687 -0.0535018 -0.003918756 -0.9985601 136 136 136
0.00812993101538728 0.00310448013527909 -0.0175797325316698 0.04905672 -0.06361776 -0.9967679 86 86 86
-0.0240224037623276 0.0183506660016226 0.00770963963027674 -0.1330702 0.4800917 0.8670665 40 40 40
-0.0447137037718282 0.00126634379012525 -0.0186382124454151 0.01620886 -0.07809628 -0.9968141 190 190 190
0.0353469719474955 0.0357851945574406 -0.0107240851807483 0.2758538 0.907162 -0.3177448 118 118 118
-0.0256082593700908 -0.00367238934559899 0.0182597471621804 -0.2423185 0.4822345 0.841862 52 52 52
-0.0287469864045384 -0.00464825709709338 -0.0180363742002596 -0.04697603 -0.1779946 -0.9829096 183 183 183
-0.0523589304133241 -0.0284777151406377 -0.0126374979751475 -0.7513894 -0.03608328 -0.6588718 96 96 96
-0.0356512428165954 0.0233277660522775 -0.00191229168610027 -0.1999723 0.9635023 0.1779729 78 78 78
-0.0462307775505799 0.00112251831574994 0.0158861039696893 -0.155592 0.5396209 0.8274058 68 68 68
-0.0337760575654458 0.0123184141772901 0.00975528503572656 0.08119243 0.3092949 0.9474938 59 59 59
0.0410702205741371 0.0109159493998656 0.0317798486679425 0.2864238 0.4138118 0.8641303 61 61 61
-0.052908439789622 -0.0181466936098391 -0.00206488788710532 -0.9946427 -0.02809437 0.09948212 71 71 71
0.0435074491289198 -0.0357682015528595 -0.0174019705270882 0.3716632 -0.3198451 -0.8715306 71 71 71
-0.0526910918651313 0.0158048734852847 -0.0194730031305022 -0.1590466 0.1091286 -0.9812213 99 99 99
0.0485826928589117 0.014931477570731 0.0158475279953381 0.9596987 0.2809443 -0.006976861 65 65 65
-0.043068571532519 0.0239158534354083 -0.0196956022618854 -0.417017 0.650772 -0.6345019 77 77 77
-0.000237641418368462 -0.0306963282917261 -0.0162072909036473 -0.06072744 -0.08251278 -0.994738 74 74 74
0.0230701020822335 0.019281123608377 0.0163487288390081 -0.1461017 0.7940814 0.5899906 39 39 39
-0.0213657891230978 0.00277197541942131 0.0156937891461057 -0.2075004 0.5157728 0.8312172 210 210 210
-0.0115267533899304 0.0211583847106223 -0.0199035664288409 0.06188181 -0.05415953 -0.996613 113 113 113
0.0258985394017843 0.0223349728765034 0.0136461365382436 -0.1511162 0.7889481 0.5955878 46 46 46
0.0128372652132502 0.0125976889652206 0.0255184841988429 -0.2848959 0.6782171 0.677389 101 101 101
0.0400542177786254 0.0333649872191861 -0.00518044504001222 0.3173847 0.9464439 0.0592525 46 46 46
-0.0107066846687536 0.0246218623921799 -0.00889102605613454 -0.08849353 0.967676 0.2361612 66 66 66
0.0512199750775983 -0.00933767547433284 -3.25568815377764E-05 0.9887576 -0.1430248 0.04361487 31 31 31
-0.0363058621958343 -0.0283379020414105 -0.0146203341236953 -0.01105996 -0.09867706 -0.9950581 68 68 68
0.0321051318906309 -0.000594171145315014 -0.0186330157838776 -0.1321748 -0.03739036 -0.990521 155 155 155
-0.0550649871798901 0.00710422977971747 -0.00765153434981 -0.9776494 -0.05015504 0.2041718 112 112 112
0.0134288151395068 0.0213857898644376 0.0114292665175425 -0.04895761 0.7673935 0.6393046 213 213 213
0.013435076715429 0.0189295340119975 0.0144972107120436 -0.06268572 0.8145167 0.5767434 97 97 97
-0.0450901841113245 -0.024525097193971 -0.0148493180181413 0.03392218 -0.1128033 -0.9930381 92 92 92
-0.026125192149995 0.0242602652469019 -0.00678081572672037 -0.1687814 0.9800753 -0.1047153 189 189 189
-0.0241733568342384 -0.00404064176512131 0.0193518168868169 -0.2553284 0.4921619 0.8322164 32 32 32
0.0473083173611841 -0.0137668732475713 -0.0181350249043997 0.3992677 0.175405 -0.8998991 106 106 106
-0.0121396270786622 -0.012126825275544 -0.0154025419979306 0.05321378 -0.07696734 -0.9956126 184 184 184
0.0415152050573413 0.00788922497107158 -0.0155932495675038 0.6358047 -0.1557325 -0.755976 55 55 55
-0.00587606536997454 -0.0300596331353753 -0.0158508559799409 -0.06958301 -0.0865402 -0.9938154 46 46 46
0.0100529814312198 -0.01551506921234 -0.0172696110445144 -0.03857169 0.03399177 -0.9986775 89 89 89
0.0491055260393418 -0.0262620493065935 -0.012867293581609 0.9655021 -0.1792135 -0.1889129 34 34 34
-0.0446544877986601 -0.0183431941894818 -0.0155657830479086 0.004665387 -0.1720791 -0.9850721 165 165 165
0.0136244850668863 0.0238638209984139 0.00911840218340734 -0.06981046 0.7924228 0.6059642 226 226 226
-0.0390116260819546 0.0204406853391172 0.00341608079082947 -0.2071124 0.8407263 0.5002837 91 91 91
-0.0346654788436629 0.0244204687373204 -0.00914128807983669 -0.02650961 0.9883879 0.1496215 188 188 188
0.0231304068115716 -0.0118373864320391 -0.0181310098652384 -0.06604156 -0.02775782 -0.9974307 115 115 115
-0.050961095177898 -0.0133344537713322 0.0156482257356937 -0.9890223 0.06055196 0.13479 62 62 62
-0.0170554652820569 0.0254965334902701 -0.0152566524692739 -0.04958694 0.9964176 -0.06850591 61 61 61
-0.00442976793241723 0.0196456485056897 -0.0193405701862413 0.04096156 -0.07895856 -0.996036 90 90 90
-0.0539672758019014 -0.012663207700865 -0.00814766240172923 -0.9811032 -0.1138542 0.1564408 51 51 51
-0.0465559931311517 -0.00708004875579249 0.0219032882964799 -0.1946688 0.4461932 0.8735077 62 62 62
-0.00146380355496634 0.0263566262745369 -0.0144353440548727 -0.02140805 0.9987571 -0.04500952 66 66 66
-0.036603944910274 0.0123212864050233 -0.0201015625591741 0.001294125 -0.08125414 -0.9966926 187 187 187
0.0490772626182761 0.0151695446217399 0.0104678378309852 0.9753 0.2178473 0.03650443 67 67 67
-0.0531857301820198 -0.00846717507927974 -0.0178283979676181 -0.1470405 -0.3125949 -0.9384367 123 123 123
0.0104378746621818 0.015815726286823 0.0200777639659381 -0.1374145 0.8499189 0.5086797 233 233 233
0.0497736628721652 -0.00840791037182775 -0.013990904071957 0.7154704 0.03391139 -0.6978196 52 52 52
0.0319612047043201 -0.0283019219049405 -0.0174360327509389 -0.2001423 0.07863238 -0.9766064 118 118 118
0.0219144015152941 0.0184809288240717 0.0169180331971376 -0.1297611 0.8274529 0.5463367 70 70 70
-0.0219600304723806 0.0253414118859043 -0.00752709393004877 -0.1587255 0.9819252 -0.1030974 237 237 237
-0.0211187561218211 -0.00507260763847306 0.0211803958691439 -0.2334647 0.4943778 0.8373081 40 40 40
0.00825936988184539 0.0283919270257129 -0.0106917029560392 -0.4046361 0.9113733 -0.07528887 239 239 239
0.0395426280747855 -0.0317565679473224 -0.0184281323206548 0.04429664 -0.09648812 -0.9943479 112 112 112
-0.0525908137898368 -0.0133941378847546 0.00536088152878159 -0.9909554 -0.06893342 0.1151331 79 79 79
-0.0303038345634437 0.0170063177007682 -0.0207202636550981 0.0712608 -0.07540358 -0.9946035 112 112 112
-0.0334869614048219 0.00769794993387363 0.0107214712580125 0.02213118 0.3888902 0.9210182 54 54 54
-0.0259203576353895 -0.0280129990445541 -0.0146492454409312 -0.1014072 -0.02551007 -0.9945179 106 106 106
-0.0527213731011398 -0.00978418433262562 -0.0170912328357411 -0.2159373 -0.3200584 -0.9224607 88 88 88
0.00987826805618841 0.0295500487461078 -0.00544390988078755 -0.3058707 0.9388893 0.1578924 220 220 220
0.0169335212984318 0.0218483889113872 -0.0182742610665678 0.1297616 0.1826232 -0.9745823 97 97 97
0.0405933136767542 0.0187392641242725 0.0195716179116248 -0.226355 0.8254161 0.5171574 64 64 64
0.023699233685663 0.0242283212009249 0.0102192334083075 -0.173066 0.8227984 0.5413419 56 56 56
0.0204217688717279 0.024934012457231 -0.0168205879970625 0.03262301 0.4145315 -0.9094501 67 67 67
-0.0317972495192498 -0.0113503292125845 -0.0165402515261988 -0.01838775 -0.1826145 -0.9830126 168 168 168
-0.0331496391499848 0.0172034764456463 -0.0215712746152923 0.02158429 -0.05998733 -0.9979658 96 96 96
0.0289497255163069 0.0128190346555981 0.0277884573895843 0.009448267 0.8152546 0.5790256 199 199 199
-0.00606551356531781 0.0148794532501053 0.0151722344177491 -0.4038751 0.4069172 0.819331 74 74 74
0.0348165445459574 0.0164723826984257 0.0215378610805252 -0.1968789 0.8838044 0.4244154 54 54 54
-0.022302933822421 0.000432060831416781 0.0166423604257281 -0.2173623 0.5302618 0.8194975 76 76 76
0.0452831937099289 0.0248616234299466 -0.0160689967232057 0.5759395 0.07402939 -0.8141335 170 170 170
-0.00644685643224285 -0.00726233414061928 -0.0159693032354152 -0.01482064 -0.1763123 -0.9842227 123 123 123
0.0273572268675117 -0.0159557079168948 -0.0172232239143391 0.02956521 -0.213098 -0.9765834 147 147 147
-0.010606099653955 0.00201802853522914 0.0197128176514988 -0.3654378 0.4970791 0.7869991 41 41 41
0.0321943980352395 0.0348445011441187 -0.00270171600432464 -0.05923509 0.8586328 0.5091571 211 211 211
0.04816558915347 0.000853017412096868 0.0213379241607099 0.9330021 -0.09693113 0.346571 42 42 42
-0.0410429379291499 -0.021079727011051 -0.0152416958362091 -0.005410068 -0.1437368 -0.9896011 75 75 75
-0.0237839074358064 0.0210906975403116 0.00562544527684086 -0.1443184 0.6982756 0.7011301 52 52 52
-0.00178880136211435 0.0210470244299283 0.0118711551158588 -0.1187536 0.8958247 0.4282472 230 230 230
0.0115706385866048 0.0303020585025395 -0.00878259704384662 -0.4155541 0.9093793 0.01854835 105 105 105
0.0418669438028041 0.0239356551660053 0.0139099662808869 -0.07629374 0.7723339 0.6306184 53 53 53
-0.00838623092577162 0.0242537893009713 -0.00638245796210765 -0.080374 0.9729431 0.2166144 73 73 73
-0.0530617688063781 -0.0110870755123065 0.00417673230326501 -0.984873 -0.1014254 0.1404921 73 73 73
-0.04102014377523 0.0138641310753507 -0.0202242766484914 -0.101362 0.01825644 -0.9946821 109 109 109
-0.0246673312337933 -0.0371293618495638 -0.0149532556129871 -0.1090705 0.02678211 -0.9936731 98 98 98
0.018428866369518 0.0253533379872559 -0.0171704057541477 0.2286559 0.292502 -0.9285252 45 45 45
0.036337347829023 0.0353028551690142 -0.00883646394144774 0.3584205 0.9318013 -0.05728193 58 58 58
0.0452397060178358 0.00606982692840496 0.0274171131217672 0.7930608 0.05880102 0.6062979 52 52 52
0.0342950082783973 0.0160102973832155 -0.0191622187087122 0.07559223 0.04869004 -0.9959493 101 101 101
0.0241249872044245 -0.000302626423059671 -0.0170958074670586 -0.06644664 0.01991958 -0.9975911 110 110 110
0.0509970495575924 0.00344703950252967 -0.00439441509446312 0.9810599 0.1898595 0.03840347 66 66 66
-0.038748442535852 -0.0299747272211655 -0.0139516138828871 -0.07647617 -0.1263829 -0.9890292 60 60 60
0.0257182424138356 0.0272921952753151 -0.0156916432362396 -0.1833577 0.6342598 -0.7510623 77 77 77
0.0142589933058512 0.0180317684317708 0.0162183674058975 -0.1084642 0.8734321 0.4747124 106 106 106
0.041306629109005 -0.0381845070207194 -0.0165637565946339 0.257081 -0.3006425 -0.9184353 44 44 44
-0.0447851249253555 -0.0068172045017727 0.0211460039786433 -0.04256025 0.5319722 0.8456916 56 56 56
-0.0190325061900971 -0.00916777298539095 -0.0168856826489181 0.1317688 -0.1344226 -0.982124 192 192 192
-0.0295096842298759 0.0244399572450815 -0.012314041338887 0.07913976 0.9961074 0.03881912 113 113 113
0.017558123799664 -0.0328652004377288 -0.0154813544367335 -0.01384166 -0.01879185 -0.9997276 61 61 61
0.0358474793025256 0.0165365624088192 0.0209854537763258 -0.2379057 0.8815747 0.4077094 50 50 50
-0.0307954355511377 -0.022259732213983 -0.0150496566562982 -0.01753671 -0.1351476 -0.9906703 74 74 74
0.0504116280450955 0.00127062571349845 0.0143305610042747 0.9920112 -0.03421123 0.121422 59 59 59
-0.0446962491795322 0.0138476842183868 0.00866623066588304 -0.2828907 0.5274683 0.801093 147 147 147
0.0159572567851587 0.0101159973597909 -0.0177495181422092 0.01027079 -0.09756368 -0.9951763 81 81 81
-0.0025187796813384 -0.00693246150319582 -0.0162849504796881 -0.08837643 -0.1387967 -0.9863697 91 91 91
0.00408681285681611 -0.019202869377315 -0.0169537827616538 -0.08164699 0.0426596 -0.9957479 159 159 159
0.0433924154012235 0.0205465673628549 0.0182054504856053 -0.06365225 0.7929518 0.6059504 50 50 50
-0.0510116944734875 -0.00817798599509634 0.0142358859721931 -0.9802302 0.1001291 0.1706543 63 63 63
-0.0359752826306967 0.0191749107752641 -0.0208744115906403 -0.0423311 -0.06105379 -0.9972364 78 78 78
0.0508612376915547 0.00213335036638429 0.000575376949814382 0.9860211 0.1666074 -0.002098261 71 71 71
0.0148655116897625 -0.0421677062069077 -0.0162022766193115 -0.05798144 0.03210375 -0.9978014 60 60 60
0.0381502802062532 0.0136833393489542 -0.0190101140551079 0.3440228 0.1473173 -0.9273327 113 113 113
-0.0178259247712753 0.0242965895841512 0.00279566262523448 -0.09317334 0.9423204 0.3214825 116 116 116
-0.00833801259465927 0.0197587994074706 0.0116975817199263 -0.2450903 0.6572269 0.7127297 206 206 206
-0.035043920815236 -0.00113240652407653 0.0159925245308787 0.06890867 0.5284111 0.8461875 185 185 185
0.0466015393392669 0.0286034374773081 0.00540091381430333 0.8309367 0.4676943 0.3013408 82 82 82
0.0524800386109767 -0.00439880684106475 -0.0104616622975784 0.9618233 0.01671141 -0.2731603 39 39 39
-0.0537907094090913 -0.0195660526717611 -0.0137370492621847 -0.7670057 -0.3607695 -0.5306106 78 78 78
-0.0284429369950518 -0.0250779933407175 -0.0144536651011361 -0.06585366 -0.08773118 -0.993965 88 88 88
0.010237325464443 -0.0097427653217308 -0.0169283582294615 -0.03827421 -0.005962724 -0.9992495 44 44 44
-0.0530018241242174 -0.0209665781617889 0.00335652026365721 -0.9973269 -0.05667181 0.04612284 102 102 102
0.0269454794379889 0.034083147331966 -0.00327485447777773 -0.2411924 0.8395914 0.4867366 223 223 223
-0.0524014908396531 -0.0341085367832672 -0.0119584235549588 -0.6886107 -0.1585892 -0.7075767 66 66 66
-0.0379712288768599 0.008698610673886 0.0113931414527059 0.1424548 0.3595954 0.9221702 59 59 59
0.0130599904716879 0.00721828267789149 -0.0178618540008035 0.01930435 -0.1247823 -0.9919963 72 72 72
-0.0444895345326612 0.00954473090237729 0.0112963869917344 -0.1815744 0.4874353 0.8540712 199 199 199
-0.0311805160821668 0.023500908845921 0.00048019265011659 -0.09916418 0.9657776 0.2396668 80 80 80
0.022321609703877 0.0291978092041147 -0.0145761147736434 0.1708077 0.5561799 -0.8133195 109 109 109
0.00868397239864871 0.0175657223764178 0.016401564862501 0.01807648 0.8190864 0.5733854 228 228 228
0.0389226418193336 -0.0218225716447211 -0.0173878620178121 -0.1268207 0.02174473 -0.9916873 100 100 100
0.00276201833742595 0.0262114220024714 -0.0176496235497296 -0.05931235 0.8733302 -0.4835044 100 100 100
0.0161225289268612 0.0193167120703739 -0.0188307958827711 0.08376426 0.04981386 -0.9952397 63 63 63
-0.0108056439823003 -0.0306101175072815 -0.0155515222600664 -0.02483829 -0.06404769 -0.9976377 105 105 105
-0.0149425094366973 0.0234831562116116 0.00642107708652032 -0.0737007 0.8750092 0.4784633 66 66 66
-0.0524417748686044 0.0160154119148341 0.00320987625502736 -0.6450081 0.6164978 0.4515473 60 60 60
0.0471814597769686 0.0242760625326115 0.00887865923388734 0.8918028 0.4039511 0.2037428 60 60 60
-0.0469873699666232 -0.00136104658723668 0.0172979964029047 -0.2723935 0.5086775 0.8167307 76 76 76
0.00382506409530148 0.0212682380287978 0.01195429893589 -0.08248229 0.8783829 0.4707867 226 226 226
0.00714575460192535 0.0177179902360363 0.0170109643665837 -0.008245681 0.8280759 0.5605554 152 152 152
-0.0279521746039215 0.0239707920353867 -0.0137284454308434 0.07029525 0.9966992 0.04061136 81 81 81
-0.018420112738097 -0.0217503496134024 -0.01579565303385 0.008485704 0.006295293 -0.9999442 165 165 165
0.0382041664423243 0.00780749683787629 -0.0188636264464806 0.3959285 -0.06899291 -0.9156859 98 98 98
-0.0535388442352307 0.000714584868279022 -0.0019716579515516 -0.9936035 -0.04230689 0.1047009 115 115 115
0.0321437956238855 0.0232718861716767 0.0135858443173957 -0.01705651 0.752515 0.6583542 217 217 217
-0.0133425942943854 -0.0040588202513907 0.0222273189117448 -0.2826395 0.498969 0.8192343 37 37 37
0.0172268555074409 0.0311289326576654 -0.0133405573000963 -0.08345406 0.8200114 -0.5662303 91 91 91
-0.0456297495573121 0.0115771774595173 0.00983834167031652 -0.3124282 0.5071654 0.8032259 176 176 176
-0.0331883887145921 0.024561132474902 -0.0126725892359159 0.09840323 0.9810413 0.1669572 89 89 89
0.0170912044045948 0.0309330569808177 -0.00490305803845689 -0.2844632 0.8706914 0.4012196 31 31 31
0.0207161010866246 0.00150075397631388 -0.0174305593426981 0.01717097 -0.03411847 -0.9992703 46 46 46
0.0420464889730647 -0.00896183433454123 -0.0183667802105135 0.07855772 0.1503917 -0.9855004 99 99 99
0.0155736522643859 0.0280593913265357 -0.0171442447295996 0.1176715 0.4916131 -0.8628267 76 76 76
-0.0117348162328397 0.0269467998644943 -0.0171748174405095 -0.1111766 0.9894827 -0.09254069 81 81 81
0.0500148051369638 0.00621652724479116 -0.00357508743952559 0.9888333 0.1448757 0.03492425 36 36 36
0.0416171693523784 -0.018957242240353 -0.0181049868570414 -0.1090834 -0.01621243 -0.9939004 107 107 107
-0.0169304299680775 0.00690995748484435 0.0142406497133508 -0.2291398 0.460709 0.8574626 208 208 208
0.0408685244800857 0.00522181256848775 -0.0160356437601676 0.6487066 -0.08120312 -0.756694 89 89 89
0.0341324659478817 0.00270496145476806 -0.0187171191905403 -0.03761837 -0.0971264 -0.9945609 101 101 101
-0.0474662270650641 -0.0339610862064652 -0.0131534669796342 -0.07316349 -0.1419998 -0.9871591 121 121 121
0.0373011805003696 0.000611163743159837 -0.0199708960134989 0.2619647 -0.12152 -0.9573961 91 91 91
-0.0205763687790883 0.0251302783636596 -0.0146084100787645 -0.2028022 0.9647347 -0.1678039 53 53 53
0.0519934372826065 -0.00392975337366863 0.00475984303672586 0.9975963 -0.02047337 0.06619988 47 47 47
-0.0312674281989009 0.0254260899229675 -0.018208668025767 0.275962 0.9262263 -0.2568071 76 76 76
-0.034167211183445 0.00538258236404765 -0.0189435170265902 0.01877783 -0.1080452 -0.9939686 155 155 155
0.0428212606478691 0.0334511692711774 0.000619656855586653 0.2095242 0.9695609 0.1266933 147 147 147
-0.0280392271635219 0.0122488749465735 -0.01992459957246 0.05000394 -0.07545257 -0.9958948 89 89 89
-0.0109642741207421 -0.0396867540161534 -0.0157956363360408 0.009288658 0.06070692 -0.9981124 88 88 88
-0.0165763222664852 -0.022998855149261 -0.0160350971801521 -0.0172649 0.03868474 -0.9991023 192 192 192
-0.0477982336053464 0.00476446475833758 0.0132149639911121 -0.4240281 0.4996586 0.7553419 69 69 69
8.78132324748648E-05 -0.00374124669876474 -0.0168865800681461 -0.07092824 -0.1510654 -0.9859759 65 65 65
0.0222058817626234 0.0182551530034112 -0.019265677149795 -0.1231316 0.009913464 -0.9923409 122 122 122
0.0210857684465622 -0.000446578955024313 -0.0170710213497947 -0.009097094 0.000997805 -0.9999581 98 98 98
0.0514691490420858 -0.0180336515278214 -0.00416828113025411 0.9997271 -0.02310266 0.00345335 80 80 80
-0.040152438386766 0.0230617452932487 -0.00452184384383011 -0.1907575 0.951517 0.2413025 103 103 103
-0.0545792564354435 -0.0309608229664229 -0.0088958607079038 -0.9873391 -0.1252214 -0.09737104 57 57 57
0.0498927254645509 0.0233793701663443 -0.00337438850432334 0.9604349 0.1343386 0.2439633 122 122 122
0.00318921082476598 -0.00750296184652299 -0.0168563349973043 -0.09481294 -0.08490596 -0.9918677 157 157 157
0.0427142619332717 0.0322616705881147 -0.00345075346803422 0.3338948 0.9412623 -0.05039337 93 93 93
-0.0183643045703281 -0.0189761676254649 -0.0153123474416412 0.02125647 -0.03456973 -0.9991762 185 185 185
-0.0529345855392482 -0.0312703658310973 -0.004738412579084 -0.9790261 -0.1194447 0.1650482 110 110 110
0.0494847804118557 0.0115742306032416 0.00830535853540018 0.9814761 0.1907776 0.0175647 85 85 85
-0.0211477744148527 -0.0358875054444898 -0.0152669637669509 -0.1316339 0.02667373 -0.9909395 86 86 86
-0.0466603063422859 -0.0408139513822559 -0.0123135499967824 -0.1012081 -0.3355696 -0.9365628 108 108 108
-0.0487051109601664 -0.0256264718496786 -0.0148248175222666 -0.1524547 -0.1620407 -0.9749361 53 53 53
0.0340340324522512 0.0262364111143452 0.00833845023084825 -0.09730285 0.8247622 0.5570453 197 197 197
0.0292756921961792 -0.0357048811858995 -0.0172185175410776 -0.1765437 0.02829501 -0.983886 137 137 137
0.0324106294553568 0.0312464781434643 0.00246690343472969 -0.1610211 0.8020586 0.5751297 96 96 96
0.0482860912236456 0.0201588278880558 0.00387884761037774 0.9709699 0.2109228 0.1128229 48 48 48
0.0260244103305078 0.025509398311774 -0.0183731986746936 -0.2907653 0.4914842 -0.8209134 69 69 69
-0.0511070188744687 -0.0135398746196151 0.0168488674701137 -0.9856845 0.07029925 0.1532449 91 91 91
-0.0244102580046088 -0.00453232231007861 -0.0176813794905236 0.0633106 -0.1536994 -0.9860874 154 154 154
-0.0208005289637962 -0.000752347880657922 -0.0182730453565687 0.1398087 -0.163472 -0.9765912 141 141 141
0.00840423151925451 -0.0380463881507918 -0.0157558640129495 -0.02580913 -0.1054849 -0.9940859 39 39 39
-0.0108175312448462 0.0262952997120898 -0.0201887877649943 -0.06203818 0.7255033 -0.6854168 86 86 86
0.0033829686357949 0.0250497645730205 -0.0200184167056376 -0.0637411 0.5981361 -0.7988556 122 122 122
-0.0463164967920382 0.0197723750092933 -0.00204474691133347 -0.3178114 0.8803723 0.3520519 147 147 147
-0.00736217932586358 -0.00203296186881952 -0.0170623563352685 -0.04102128 -0.20733 -0.9774106 205 205 205
-0.0156777405747248 -0.00318377362410849 0.0208554312675243 -0.2529926 0.5257044 0.8121759 22 22 22
0.0323283337384255 0.0120911255295926 0.0287437190940677 -0.09007625 0.8510929 0.5172302 203 203 203
-0.0087764006605151 0.0266887167477845 -0.0161356190832519 -0.05389358 0.994382 -0.09110419 76 76 76
-0.0542911324792166 -0.00654052294386021 -0.00357587573724358 -0.9961334 0.05771503 0.06623594 79 79 79
-0.0401900967129936 -0.00817598215696358 0.0211100875205209 0.1370486 0.5157815 0.8456874 51 51 51
0.0452643223526348 0.0137120630991849 -0.0150457341829826 0.3672425 -0.1471045 -0.9184189 230 230 230
-0.0404306219578388 -0.0025853168123271 0.0179409000699771 0.160133 0.5281271 0.83393 152 152 152
0.0348547748297072 0.00999147137415624 0.0326457179807671 -0.1117414 0.8056574 0.5817473 78 78 78
-0.00478516453699607 0.0212039623240257 0.011945621234766 -0.1219737 0.8349801 0.5365917 233 233 233
-0.030292616948663 0.0234021733934404 0.000302489200609962 -0.09983637 0.9702284 0.2206573 86 86 86
-0.0190469133203814 -0.0464735380608388 -0.0154711158140761 -0.05885733 -0.03501091 -0.9976523 68 68 68
0.0200906267137619 0.00527466428311474 -0.0176670629755564 -0.02020926 -0.09841917 -0.9949398 118 118 118
-0.0512101969803855 0.0159618806449122 0.00428706424998784 -0.6155891 0.5981629 0.5130802 71 71 71
-0.00984998664850689 -0.0175939698571286 -0.0151372724120712 -0.04144928 0.06453513 -0.9970542 75 75 75
0.0502606136856873 0.00350852106745503 0.010945285905405 0.9978949 0.03310415 0.05576705 20 20 20
-0.0514883148165675 -0.0163313782293153 0.0153681688908599 -0.9961962 0.03811051 0.07836348 68 68 68
0.0429726866817788 -0.0390984247176973 -0.015677842539292 0.5219277 -0.4649285 -0.7151454 67 67 67
-0.00847971147166415 0.00669419366104584 0.017998865454047 -0.4457783 0.4553048 0.7707005 31 31 31
-0.0428604359824263 -0.0102730792164545 -0.0163560999529121 0.0385916 -0.1741084 -0.98397 126 126 126
0.00508772569458316 0.0274854851793327 -0.0119648777735702 -0.2702105 0.9585001 -0.09090573 243 243 243
-0.0237446486623343 0.0173836284070641 -0.0201249706465064 0.003841837 0.04196568 -0.9991117 70 70 70
0.0232466630740151 0.0157224371355156 0.02245289074251 -0.01226971 0.9104801 0.4133709 69 69 69
0.0333271012172771 0.0155620522257216 -0.0190432802125559 0.05144436 0.03363737 -0.9981092 124 124 124
-0.0403406600927183 0.0216725664750459 -0.00105567231334633 -0.2997761 0.9121933 0.2793521 85 85 85
0.00113001545424529 -0.0321780681521475 -0.0162487765656537 -0.05092523 -0.09751648 -0.9939302 97 97 97
-0.0524610727970529 -0.0227739199969139 0.00115702646603302 -0.9954575 -0.0672023 0.06744058 101 101 101
-0.00984936042609608 0.0143457654681654 -0.0192079680847414 0.02999325 -0.09391665 -0.9951282 182 182 182
0.00741486738236663 -0.021978559516344 -0.0174906918602522 0.02530601 -0.03275935 -0.9991428 189 189 189
-0.055047962085732 0.000671482694994063 -0.0107890756359374 -0.9924896 -0.08322149 0.08965795 95 95 95
-0.050906828718142 0.0111069225855653 0.00746479772165945 -0.5432197 0.4292076 0.7215908 93 93 93
4.71845826655048E-05 0.0184311001385351 0.0150858543034625 -0.1475393 0.7359888 0.6607213 149 149 149
-0.0433202525388108 0.0106347712764521 0.01120087682665 -0.1154035 0.4644833 0.8780304 195 195 195
-0.00482666553232391 0.00350549193354799 -0.0185948065520576 -0.04118176 -0.1538008 -0.9872433 53 53 53
-0.0505496551200171 0.000196865451633998 -0.018650615473931 -0.06030869 -0.02603766 -0.9978401 105 105 105
0.0472727697058835 0.024167681566031 0.000719986179541082 0.9575971 0.2193465 0.186802 69 69 69
-0.028924006814528 0.0241388001542262 -0.00987953443703757 0.02386886 0.9993865 0.02562714 194 194 194
-0.0277692700891063 0.0179134985829894 -0.0199645791127744 0.08424709 -0.05553584 -0.9948961 129 129 129
0.0175000500801814 -0.017056190738018 -0.0174236301470912 -0.01052457 -0.09782013 -0.9951485 54 54 54
0.00817311978831281 0.0285565662147282 -0.0110754469100112 -0.3788311 0.9189634 -0.1095138 219 219 219
-0.0160354039446089 0.0147928917974109 0.0106564281694088 -0.2260052 0.3726053 0.9000483 220 220 220
0.0103730286718653 0.0175296997380616 0.0165296668507713 -0.01371188 0.8560986 0.5166306 232 232 232
0.0303167861648737 -0.0418327836131012 -0.0168889470703404 -0.1062734 -0.1244569 -0.9865173 80 80 80
0.0151976892655044 0.0118257578246563 0.0270941285164607 -0.2303367 0.6811039 0.6950126 144 144 144
0.0433075677028891 -0.0331892200272024 -0.0176072448353186 0.3144895 -0.1801438 -0.932011 58 58 58
0.0262224311657149 0.0129412043631356 -0.01903647167566 -0.06000951 -0.06585588 -0.996023 174 174 174
0.000547141575269361 0.0111069710757474 0.0210735249263735 -0.4518057 0.5395288 0.7104788 71 71 71
0.0492210449593351 -0.0269787802609824 -0.0102840234874339 0.9663975 -0.1399281 -0.2156292 45 45 45
0.0182230083943034 0.0237678068267331 -0.0176692423256576 0.1693087 0.2873444 -0.9427448 61 61 61
0.0504140631536965 0.01847771051174 -0.0117412566692356 0.9352301 0.06700365 -0.3476424 40 40 40
0.023780755204811 -0.00815257116437662 -0.0179828855132996 -0.1013017 0.04860472 -0.9936677 129 129 129
-0.0410091760099012 0.0213518817577059 -0.0209168150973294 -0.1876735 0.02085239 -0.9820101 70 70 70
0.0482503949694828 0.0110944407139655 0.0240481197361246 0.8609868 0.1528482 0.4851177 67 67 67
0.0213301239681143 -0.035733708695773 -0.0158604804277173 -0.08764941 0.04222161 -0.9952562 87 87 87
0.0226788566171541 -0.0164261477182106 -0.017171936616967 0.02670218 -0.1554169 -0.987488 101 101 101
0.0412648473512021 -0.0223727002627541 -0.0182605936901458 -0.1249986 0.02911841 -0.9917296 103 103 103
-0.00178790562557296 0.0207827859880585 -0.0195183776344177 -0.0117595 -0.02782772 -0.9995435 56 56 56
-0.05217811189639 -0.0258788163066155 -0.000910384593439367 -0.9839421 -0.07292277 0.1629117 75 75 75
0.0360788237627929 -0.00539756128688684 -0.018197263146611 0.07422853 -0.03681722 -0.9965614 97 97 97
0.0321891591543149 0.0365473612615255 -0.00614317978595166 0.04804536 0.9771037 0.2072681 160 160 160
0.0503387090699396 -0.0262353917195792 -0.00627800493117844 0.9859771 -0.1052043 -0.1295421 37 37 37
0.037032255068465 -0.0394735087082876 -0.016469637385365 0.1412501 -0.165996 -0.9759579 104 104 104
-0.0218585908029594 -0.00224483879039594 0.0191456005274487 -0.231529 0.5141239 0.8258759 41 41 41
0.0269510338950063 0.0183644686233511 -0.0192720710942655 -0.001953985 -0.08217426 -0.9966161 111 111 111
0.0133716082307016 0.0104620030270144 -0.0185786510823077 0.06380622 -0.11858 -0.9908923 47 47 47
-0.0296542237307569 0.0221712246751424 0.00497538402003664 -0.1258872 0.7288883 0.6729593 88 88 88
0.0459941060661708 -0.00905248299131367 -0.017206005596776 0.4283254 0.3050415 -0.8505804 110 110 110
-0.00988843330027622 0.0105314335832487 -0.0188388771749363 -0.04238166 -0.1613563 -0.9859858 170 170 170
-0.00705879834538203 0.0202263727176348 -0.0193707525273263 0.05870123 -0.1119308 -0.9919807 72 72 72
-0.0447900366239118 -0.00226777156577196 0.0186165667544914 -0.004826434 0.548151 0.8363655 93 93 93
0.0011430881532557 0.0219272669195929 0.00831033878167955 -0.1358663 0.9741886 0.180269 92 92 92
0.0125122610041899 -0.0237434117785646 -0.0164880418601033 0.01348263 -0.08095678 -0.9966264 60 60 60
0.0365037424733088 0.0328493405274102 -0.015281205759764 -0.08069258 0.6919735 -0.7173991 100 100 100
-0.0172654757978337 0.0162300652733864 0.00994651150733475 -0.2328891 0.3707294 0.8990675 142 142 142
-0.0122313187200738 -0.0358726976060562 -0.015711876370164 0.03711 0.03208848 -0.9987959 97 97 97
-0.049329392520022 -0.00481420681228117 -0.0185147831063439 0.0146153 -0.1991329 -0.9798635 95 95 95
-0.0514884495566701 -0.0297103796962439 -9.61094158998532E-05 -0.9823293 -0.104412 0.1553297 87 87 87
-0.0166510713493464 0.0131487150406469 0.0112491301389394 -0.2324605 0.3606732 0.903259 177 177 177
-0.05022769127521 0.0139193843945129 -0.0190261024697357 -0.0464927 -0.02406794 -0.9986286 60 60 60
0.0114771431748331 0.0212615828730525 0.0116885921237556 -0.02597305 0.7887571 0.6141561 219 219 219
-0.0204351491453778 0.012226536777544 -0.020338284242916 0.1052043 -0.0462494 -0.9933746 135 135 135
-0.0320848908185529 -0.00615620919868221 0.0191544597123276 -2.364837E-05 0.5421584 0.8402763 57 57 57
-0.00852319438209781 -0.0177533747558585 -0.0155149003644853 -0.08181146 0.0933312 -0.9922682 111 111 111
0.00134800057869722 -0.0224770804963736 -0.0168224999183421 -0.08080342 0.002778376 -0.9967262 88 88 88
0.00220201184150026 -0.0105507311262625 -0.0168289787228998 -0.09422144 -0.05479686 -0.994042 130 130 130
-0.053543004492167 0.0201631934049598 -0.00973500660493806 -0.544728 0.8208751 0.1715675 116 116 116
-0.0428317717855502 -0.0310100438100627 -0.0137503440581324 -0.0162129 -0.1484893 -0.9887811 43 43 43
-0.0248039235290114 -0.0345573327680666 -0.0148025663128951 -0.08329356 0.01558125 -0.9964032 69 69 69
-0.0525126406146113 -0.02162571468097 -0.000575246286443981 -0.9949375 -0.04881915 0.08784113 82 82 82
-0.0529384809783 -0.015733101803135 -0.0165993966346056 -0.3809944 -0.2258314 -0.8965732 110 110 110
-0.0567455633491947 -0.000977398759510306 -0.0166807843726201 -0.860618 -0.06984551 -0.5044385 148 148 148
-0.00294342724338925 0.0181355434098021 0.014478838501807 -0.2349688 0.6002237 0.7645399 228 228 228
0.029358388055801 0.0122159447254275 -0.0195421341805989 -0.05547502 -0.01974422 -0.9982648 191 191 191
-0.0423429507159829 -0.0398174556518491 -0.0131982694991298 -0.07276677 -0.2027279 -0.9765278 82 82 82
-0.0203999590693384 0.00329622865976309 0.0155417556613137 -0.1944442 0.5042701 0.8413698 204 204 204
0.0392424148215635 0.0340032376824742 -0.0135869875103906 0.2001863 0.9049543 -0.3754771 176 176 176
-0.00965532411186665 0.00586367547660704 0.0176838603707156 -0.4176583 0.478821 0.7721995 30 30 30
0.0409159901790224 0.0179047060580222 0.0217584861953159 -0.2042542 0.8702701 0.4482301 121 121 121
0.0206048582121419 0.0176429506190285 0.0175256172174485 -0.06921408 0.8700182 0.488137 47 47 47
-0.0404626783888262 -0.0251416528459105 -0.014464964624895 -0.02698461 -0.1027818 -0.9943379 47 47 47
-0.00517887257862171 -0.0424864160491603 -0.0161516540761369 0.01622458 0.06579756 -0.9977011 75 75 75
0.0302074982305167 0.0264769067460353 -0.0190088301577313 -0.1674384 0.5147003 -0.8408614 105 105 105
0.0334071207689375 0.0206275932185931 0.0158361475780148 -0.02875476 0.702473 0.7111293 205 205 205
0.0190506919576454 0.0223856415562731 0.0113350789719353 -0.158547 0.781125 0.6039094 203 203 203
0.0501835120536587 0.0156937449822974 -0.00304439489964756 0.997717 0.03541174 0.05750562 24 24 24
-0.0160131615607879 0.0247928604055629 0.00040317342964738 0.1495261 0.9817772 0.1172839 92 92 92
0.0395002380289493 0.0146161341652944 0.0278508155774807 -0.1293788 0.8126754 0.5681723 197 197 197
-0.0113738873580664 0.0250671745581696 -0.010301919925716 -0.1429887 0.9581777 0.2478906 83 83 83
-0.0123733435033486 -0.0379502175549153 -0.0155547205696166 0.03564367 0.04072836 -0.9985343 74 74 74
-0.0510373255275005 -0.0116050786401318 0.0152642062320291 -0.9898232 0.07157717 0.1229913 77 77 77
0.0493434596282634 -0.0253761928159724 -0.0105247489463895 0.9728337 -0.1106443 -0.2033529 46 46 46
-0.0433491697239905 0.00979043635165433 -0.020070941885613 -0.1299 -0.08615056 -0.9877774 169 169 169
-0.0413878278601447 0.00248087865079816 -0.0188181630577958 -0.01240092 -0.1251136 -0.9920649 164 164 164
0.0322852007855188 0.028175091629663 -0.0175315949519052 -0.1581589 0.6177219 -0.7703282 63 63 63
0.0498171574155428 0.0125990014770525 0.0026744137969156 0.9896103 0.1061652 0.09695558 55 55 55
-0.0532557496681654 -0.0100250886318383 0.00376335774089268 -0.9864423 -0.06998194 0.148439 88 88 88
0.0504941306981777 0.00133931327224102 0.012595324457343 0.9967519 -0.006150392 0.08029828 30 30 30
0.0506675563945596 0.0130422787735927 -0.0101196242807438 0.9814293 0.006003912 -0.1917304 9 9 9
-0.0537558337489203 -0.0238636748235843 -0.00826776088452005 -0.9967863 0.04529217 -0.06607355 79 79 79
-0.0129054647430613 -0.0292059327922893 -0.015694512297106 -0.001376752 -0.05961326 -0.9982206 65 65 65
-0.0270198559372492 0.0238198128529237 -0.0128239887726438 -0.01299312 0.9999153 0.0007772257 77 77 77
0.0255650115109258 0.0322754660245375 -0.00164116833692915 -0.221059 0.8179443 0.5311309 158 158 158
0.0157037579584496 -0.0223539342704362 -0.0168996694506779 0.002400602 -0.08340298 -0.996513 86 86 86
-0.0323937334489628 0.00119969985879131 0.0146435253808366 -0.05641195 0.5015687 0.8632767 59 59 59
-0.037925519662334 -0.0328441469173484 -0.0135028522687691 -0.09579564 -0.05925089 -0.993636 128 128 128
0.0504587161261707 0.020425577990393 -0.0100785942763699 0.9728232 0.05024599 -0.2260317 22 22 22
-0.0532399366439655 -0.0210063745766842 -0.00860683624557032 -0.9986838 -0.03792688 -0.03452756 89 89 89
0.00578310823648742 0.015346886826423 -0.0190738021600662 0.02116753 -0.1403196 -0.98988 82 82 82
0.040631213690101 0.0312067075944344 -0.0167346885261278 0.1585252 0.6115672 -0.7751486 126 126 126
-0.020244403246628 0.0206889726301556 -0.0202400220058251 -0.08514374 0.2668743 -0.9599628 76 76 76
0.0338882629601818 0.0254220475179685 -0.0201584430156142 0.03558737 0.2722472 -0.961569 87 87 87
0.0427902973634406 0.0168017949769699 0.0246197421458674 -0.09482468 0.8775786 0.4699618 207 207 207
0.0158951054751157 0.0101647087742707 0.0290671321540323 -0.1419278 0.6647002 0.7335054 101 101 101
-0.0451746261151595 0.0227066798239579 -0.00773065354696953 -0.2727362 0.931785 0.2395656 212 212 212
