ply
format ascii 1.0
comment File exported by Rhinoceros Version 7.0
element vertex 466
property float x
property float y
property float z
property float nx
property float ny
property float nz
property uchar red
property uchar green
property uchar blue
end_header
-0.0545209914962963 -0.023817494883671 -0.0204598146721963 0.3536547 -0.8491898 0.3921798 94 94 94
0.0525128552200593 -0.00543195951856423 0.00200267418283677 0.2720161 -0.7730326 -0.5730862 164 164 164
0.0286778689655085 -0.0125929958466521 -0.00539931862169669 0.1553353 -0.8975503 -0.4126431 140 140 140
0.0137243843128965 0.0151859468226009 -0.0109478259595934 -0.08324723 -0.2292639 0.9697979 249 249 249
-0.0350152497190912 -0.00368559501688159 -0.0173003881326273 0.03647631 0.05875194 0.997606 243 243 243
0.0572681577025427 0.0268160053296324 0.00632786522445954 0.1070151 -0.7196001 0.6860929 96 96 96
-0.0610532406196935 -0.0272922441167164 -0.0145762925922788 -0.2725634 -0.2430893 0.9309226 115 115 115
-0.00499966776227811 0.00150998111012945 -0.0194586785881612 -0.06639284 -0.2083005 0.9758089 77 77 77
0.00649358410947132 -0.0173989244941825 -0.00557763939014451 0.3179739 -0.8845621 -0.3412367 121 121 121
0.00475179647389457 -0.00753449288897878 -0.0201271828818613 -0.04671124 -0.4559663 0.8887704 109 109 109
0.0624847804929236 0.0074204487093027 0.00715160029450272 -0.9203064 -0.3453558 -0.1837536 87 87 87
0.0385432131936496 -0.00690334917898683 0.00563451048566314 0.3406226 -0.7074893 -0.6192214 156 156 156
-0.00585595469763733 0.0224456692781673 -0.00774583969326548 0.08240073 -0.004094619 0.9965909 203 203 203
0.0346732041663742 0.0324396809078141 -0.000839517997799147 -0.1181607 -0.3599845 0.9254454 76 76 76
0.026855044112851 0.0358489143538206 -0.000672811634837969 -0.08845424 -0.1942347 0.9769589 252 252 252
0.0314455820861945 -0.0113366712217106 -0.00905277226368056 0.1555618 -0.9543219 -0.2550886 199 199 199
0.0275885242212426 0.0207718989679627 -0.00681656983425094 -0.1820253 -0.09756962 0.9784411 244 244 244
0.0239631237048386 -0.0127440082366425 -0.0109153412390646 -0.0419619 -0.9602006 -0.2761413 211 211 211
0.0170900610214892 0.00399725523043093 -0.0147074075189665 -0.1534451 -0.208285 0.9659565 217 217 217
0.0261267428432626 -0.00872357961124604 0.00681579527315622 0.01593121 -0.455508 -0.8900891 145 145 145
0.0239273257100465 -0.00694719970400126 -0.0157804564070952 -0.2226985 -0.3990915 0.8894556 89 89 89
0.0306117197198907 -0.00822193124862214 0.00401914331861718 0.05334791 -0.4974898 -0.8658279 93 93 93
0.00771023061961928 0.0136304815380491 -0.012310205930179 -0.2188417 -0.19689 0.9556896 108 108 108
0.00624233298975874 0.0230640674682484 -0.00790346302054157 -0.09969412 -0.1294412 0.9865627 75 75 75
0.0210428209957629 -0.014715339241229 -0.00486086863015207 0.2872646 -0.8694951 -0.4018176 180 180 180
-0.0426760768989194 -0.00928627808788207 -0.0189024102764842 0.1266186 0.08389231 0.9883976 108 108 108
0.0153723173289406 0.0295861824846332 -0.00425403685322963 -0.1453576 -0.2334008 0.9614547 149 149 149
0.038762398315884 0.018624699217524 -0.00465767707724631 -0.2976379 -0.2642125 0.9173895 58 58 58
-0.0625548897185841 -0.017386986815274 -0.0143873052841868 0.3310983 0.09894101 0.9383947 59 59 59
-0.011694913013804 0.0194076610782606 -0.00793523932206402 0.1184568 0.05345446 0.9915193 92 92 92
-0.0199767397806143 -0.0133311737191467 -0.0250648173913564 0.02796813 -0.2666223 0.9633952 207 207 207
0.039897303337074 0.0228727011131932 -0.00100397451678348 -0.2505958 -0.2901321 0.9235936 63 63 63
0.0614574686624616 -0.00245188399670127 0.00642061288932864 -0.07631227 -0.8793916 -0.4699435 194 194 194
0.0320108792699583 4.8575633005643E-05 -0.0120518348910301 -0.1944432 -0.4765071 0.8573989 156 156 156
0.0286374149652135 0.0459925926272232 0.00543264360748101 -0.6796242 0.5229023 0.5144746 82 82 82
-0.0646211423872129 -0.000225974743311208 -0.00388116178120286 0.3106942 0.1449241 0.9393967 59 59 59
0.00904161528682623 -0.00130657296952597 -0.0179585924018889 -0.09355726 -0.310955 0.9458086 135 135 135
0.0508219249738251 -0.00442764721987976 0.00721074102320267 0.1668933 -0.745156 -0.6456696 124 124 124
-0.0518127556810455 -0.00953776915124338 -0.0154527286224131 0.2103694 0.1189916 0.9703534 70 70 70
-0.0142854186414154 -0.00830463914908453 -0.0226523468352709 0.04493914 -0.1626295 0.9856633 123 123 123
-0.0334298827800761 -0.0228514405720676 -0.0182139284282679 0.445368 -0.8949361 -0.02714365 191 191 191
-0.0426327422088997 -0.0233175723069664 -0.0174249214249484 0.3771005 -0.9119132 -0.161894 190 190 190
0.0581058589510932 0.030713360157217 0.00250233575641555 -0.1117132 -0.455339 0.8832817 72 72 72
-0.00865226657955143 -0.0111483954350847 -0.022999713300479 -0.03744691 -0.4881977 0.8719293 114 114 114
-0.0532801036923909 0.00537610015846812 -0.00744927039351029 0.192139 0.06907339 0.9789339 125 125 125
0.0190133506552823 0.0468672173956951 0.0069352839464477 -0.4618503 0.5742894 0.6759334 31 31 31
0.0559111769311804 -0.00421061233738229 0.002821030853758 0.1841993 -0.8307884 -0.5252249 175 175 175
0.00168337843928201 -0.011185354410331 -0.0206268712937248 0.07330131 -0.6714364 0.737428 124 124 124
-0.0318312826101583 -0.0196088503251345 -0.0233575835777474 0.3888673 -0.8313304 0.3970793 205 205 205
-0.0237007849212243 -0.0177338044512548 -0.0253714915050142 0.3174742 -0.5714858 0.7567127 240 240 240
0.0496359003782554 0.0242844248902493 -0.000392264341276108 -0.07026736 -0.3691222 0.9267207 79 79 79
0.0252916600689961 0.0297114689829773 -0.0028685978829512 -0.09007604 -0.2044706 0.9747195 247 247 247
-0.051060668351756 -0.00106772315148185 -0.0113714516008797 0.233705 0.04975555 0.9710336 70 70 70
-0.00293974366604699 0.000411152261409531 -0.0198329154043307 -0.1072133 -0.2713201 0.9564992 94 94 94
-0.00185981495624743 0.00313299179840454 -0.0176946786084469 -0.1332834 -0.2478382 0.9595894 227 227 227
0.0437037544077952 -0.00558964101579706 -0.00780627214696999 -0.5353868 -0.7223191 -0.4377397 149 149 149
0.0378490630482329 -0.0036396233849586 -0.00947503072765293 -0.250333 -0.6109394 0.7510568 112 112 112
-0.0114769129490315 -0.0058813825207934 -0.0220818488623584 0.01701697 -0.2712027 0.9623718 105 105 105
-0.0132958760162625 -0.0226378347525781 -0.0121884845038163 -0.0809634 -0.9787398 -0.18845 78 78 78
-0.0581575958309086 -0.0102810316241487 -0.013217109912116 0.2551054 0.1613447 0.9533567 60 60 60
0.0248510962544173 0.0446778889833145 0.0034084040132915 -0.4075036 0.2633013 0.8744217 107 107 107
0.0628509653961689 -0.00266908974256708 0.00272206711146748 -0.36984 -0.925725 -0.07906702 79 79 79
-0.0164739010720067 -0.00806296004420093 -0.0216343581927643 0.06037585 -0.003036699 0.9981711 92 92 92
0.00370724854524207 0.0456601041603787 0.00540524028575277 -0.3662701 0.2747791 0.8890122 78 78 78
-0.0522239013206072 -0.0120418065681384 -0.0157422351527325 0.2106552 0.06626019 0.9753122 63 63 63
0.0197774092550493 0.0457846805154619 0.00462815642499352 -0.4141078 0.5134353 0.7515976 120 120 120
0.0157813204747406 -0.00763696742811615 -0.0167765279735827 -0.1421534 -0.3915003 0.9091314 106 106 106
0.010516692200786 -0.019922916011058 -0.000569814741393129 0.2426984 -0.843608 -0.4789813 79 79 79
-0.00333521728409059 -0.0170154904992742 -0.0136042617988015 0.3846219 -0.913281 -0.1341037 120 120 120
-0.0626697136439747 0.00163305151815674 -0.00414710649682611 0.3458709 0.12982 0.9292578 103 103 103
0.0394719542082567 0.0324122542806083 0.00148969688076482 -0.1403512 -0.2715837 0.952126 69 69 69
0.00907864688715554 0.0226359375821866 -0.00776919712944379 -0.1032963 -0.09154843 0.9904286 122 122 122
-0.0179871633927218 0.0277094424615817 -0.00187845499365798 0.09508367 0.1066334 0.9897416 78 78 78
0.0521335105077481 -0.00205592715311587 -0.00369565245964616 -0.2294079 -0.6195125 0.7507172 116 116 116
0.0616044163835694 0.00893843854362764 0.0126340595887643 -0.9305704 -0.2916664 -0.2212906 36 36 36
0.0231664802272626 -0.00986547451959663 -0.0170042956934174 -0.154031 -0.54024 0.8272939 111 111 111
0.017032932041058 0.0333284395068268 -0.00341823318082364 -0.1457474 -0.322596 0.9352484 228 228 228
0.0218001312603771 0.0314064848943795 -0.002370041997542 -0.0861876 -0.278879 0.9564508 52 52 52
0.0199846821949037 -0.0136506956554306 0.00296158376278387 0.06509575 -0.6147801 -0.7860076 144 144 144
0.00515857253938945 0.0151359031940209 -0.0120428583945384 -0.1361303 -0.1484555 0.9795047 83 83 83
0.0461938585236097 0.0347062661609868 0.00226574989125371 -0.02774237 -0.3422022 0.9392167 67 67 67
0.0123489165238797 -0.0172141952750232 -0.00801574726852933 0.3341663 -0.8124589 -0.4777483 216 216 216
0.00383186239152611 0.0472192972102529 0.007357946059295 -0.368522 0.2897044 0.8833249 109 109 109
-0.0637487156608711 -0.0188839740737962 -0.0144974185266789 0.3824109 0.05846434 0.9221409 58 58 58
0.0214974044704501 0.0466833261472962 0.005495296301454 -0.4977272 0.601256 0.625107 75 75 75
0.0378916665055993 0.0052704442790289 -0.00901313105050427 -0.3292017 -0.4167976 0.8472933 139 139 139
-0.0392557407014393 0.0184666823965786 -0.00250012440504462 0.1135849 0.1461152 0.9827252 51 51 51
0.00791165908847669 -0.00151262354606485 -0.018239618598429 -0.09410568 -0.2982924 0.9498241 112 112 112
0.0643517743902744 -0.00122314418441782 0.0109828605980482 -0.7998559 -0.5676659 -0.1948998 56 56 56
0.0629859265440031 -0.00173400334967122 0.0103547376371983 -0.6967008 -0.6555365 -0.2913416 106 106 106
0.0637752706713965 -4.00378128351253E-06 0.00919021472860503 -0.7720347 -0.5861765 -0.2456819 102 102 102
0.0633444819179547 -0.00138488697651928 0.00560321496299425 -0.6470621 -0.7336563 -0.2075069 50 50 50
0.0637879555109024 0.00205767460737272 0.0105329458399811 -0.862234 -0.4799725 -0.161799 67 67 67
0.0628722664139949 0.00303979874774429 0.00822973142224014 -0.8831072 -0.3927923 -0.2565849 101 101 101
0.0643824186972517 -0.00069812202258579 0.00271298672576618 -0.6068156 -0.7573392 0.241272 103 103 103
0.0630300572517029 2.89195585911894E-06 0.00253525090145283 -0.5487719 -0.749041 0.3711967 72 72 72
0.0645603990365116 0.00421039392938549 0.00707755867465325 -0.8803006 -0.3968961 -0.2598929 102 102 102
0.064483167711689 0.00166826403792297 0.00302742642712721 -0.7149168 -0.6664409 0.2115432 95 95 95
0.0644177756100146 0.00576295648324787 0.00379925643086897 -0.7640501 -0.5706474 0.3009803 83 83 83
0.0642443299029671 0.00346519859658423 0.00364916471940945 -0.7160432 -0.6846687 0.1360544 97 97 97
0.0621747709122626 -0.00480542174399401 0.00481565452410586 -0.01762968 -0.8467467 -0.531704 82 82 82
0.0531939645482775 -0.0068768386602166 0.00818728804147527 0.1200381 -0.7463701 -0.6546163 117 117 117
0.0522257814575693 -0.00427035006874543 0.00836236836890523 0.1389515 -0.7393627 -0.6588135 115 115 115
0.0566874145749763 -0.00310200251834203 0.00598096169502686 0.1952506 -0.7551095 -0.6258488 170 170 170
0.0552616702864603 -0.00341420858749564 0.00592024164107995 0.1027118 -0.7293044 -0.6764358 159 159 159
0.0531846678482144 -0.00377055343512522 0.00663700851151598 0.1163036 -0.7370367 -0.6657705 159 159 159
0.0635850778661031 -0.0014799507442943 0.00393538584081958 -0.7117196 -0.6983114 -0.07626551 85 85 85
0.0630600895453202 -0.00278841928982587 6.83879213436017E-05 -0.2777615 -0.9535338 0.1167128 184 184 184
0.0580710288181332 -0.00451911611695188 0.00191519979376518 0.2154322 -0.8963346 -0.387522 220 220 220
0.0574055862991618 -0.00477587755123154 0.00191966920648322 0.2712826 -0.8516452 -0.4484486 217 217 217
0.0599081812605817 -0.00509982890841221 -0.000509776658421515 -0.009436303 -0.9930155 -0.1176064 120 120 120
0.0591397652293204 -0.00458621897243117 -0.00213164793540795 -0.1270594 -0.9862688 0.1054981 197 197 197
0.0578043063172244 -0.00594705292550268 -0.00147749175951169 0.1048606 -0.9556375 -0.2752475 102 102 102
0.0605355088500068 -0.00283326484459157 0.00337860863449339 0.07140719 -0.9197316 -0.3859985 219 219 219
0.060713058983592 -0.000236210917748614 0.00137937493514338 -0.3012654 -0.7268443 0.6172006 102 102 102
0.0602259423426381 0.00226520928720542 0.00150065002317949 -0.3702949 -0.5707313 0.7329034 94 94 94
0.0573939518370969 -0.00332237528226609 0.00358217070150306 0.1493858 -0.8327551 -0.5331066 212 212 212
0.0552563586690251 -0.00340089606017291 0.00442142137293121 0.1388233 -0.7805126 -0.6095311 157 157 157
0.0643275386793465 0.00307653487122594 0.0134042569261241 -0.9118609 -0.3152947 -0.2628668 112 112 112
0.0632199979411232 0.001444852411432 0.0125173806567643 -0.8641612 -0.4472451 -0.2306452 77 77 77
0.0622227013481509 0.00315892020878816 0.0131872827964788 -0.9118609 -0.3152947 -0.2628668 45 45 45
0.0638910140513889 0.003908125528714 0.00885535472642678 -0.899627 -0.3794475 -0.2160808 111 111 111
0.061473977723558 0.00839721201995924 0.0134835582433373 -0.9388607 -0.2685436 -0.2154645 39 39 39
0.06366306472203 0.0103230577410961 0.00989161285077371 -0.9146372 -0.3220831 -0.2443383 75 75 75
0.0651823899689643 0.00555305379652704 0.00776903140988798 -0.9003528 -0.3598687 -0.2446616 150 150 150
0.0641177639061739 0.00535771936548624 0.00783823410724642 -0.8929874 -0.3835254 -0.2355458 110 110 110
0.0647984048497703 0.00691332702077807 0.00839106916370751 -0.921431 -0.3426503 -0.1831819 111 111 111
0.064096283083551 0.00838170235474289 0.00865848384954231 -0.9295151 -0.2928745 -0.2241119 101 101 101
0.0626427300481285 0.00744262339366208 0.00897109820592916 -0.9209473 -0.3056447 -0.2417385 93 93 93
0.0638791162635646 0.00909146422797258 0.00768696197775824 -0.9328148 -0.3262166 -0.1530991 118 118 118
0.0645559995959113 0.00795665740180895 0.00462833948191931 -0.9157467 -0.386078 0.1111384 66 66 66
0.0637937866978224 0.00995427800344661 0.00491912854571268 -0.9021529 -0.3965137 0.1699914 70 70 70
0.0630821697485637 0.00536033554070225 0.00602594010195122 -0.9070995 -0.4016949 -0.1257442 54 54 54
0.0629338345613308 0.0125499671496648 0.00898091112638881 -0.8828109 -0.3926394 -0.2578357 68 68 68
0.0631314253259969 0.0154965460275774 0.00869290266480115 -0.8792087 -0.4284926 -0.2082931 65 65 65
0.0625859796599508 0.0132773838810679 0.00749276848068751 -0.8548616 -0.5031692 -0.1266194 81 81 81
0.0549919279576412 -0.00252316414216802 0.0111898698008118 0.214209 -0.7320889 -0.6466532 106 106 106
0.0534286156871473 -0.00308014689581715 0.0108218762413736 0.1238789 -0.7394927 -0.6616681 117 117 117
0.0551655656999066 -0.00277483173826909 0.0099060681582938 0.2038856 -0.74219 -0.6384236 153 153 153
0.0507233441532429 -0.00450398833704935 0.010106758427119 0.175893 -0.6939813 -0.6981773 99 99 99
0.0518906973974453 -0.00363292509687396 0.0112479958271468 0.1534247 -0.7212361 -0.6754845 129 129 129
0.0520116388063134 -0.00249726414072449 0.0118106458316442 0.1534247 -0.7212361 -0.6754845 118 118 118
-0.0416231758876948 -0.00651802450463734 -0.0172498964356096 0.1180784 0.1307158 0.9843632 90 90 90
-0.00930446204880608 0.0224652699795466 -0.00682477341798121 0.118023 0.02502514 0.9926955 75 75 75
0.0224875567117677 -0.0127297505408172 -0.0116329177735449 0.2243294 -0.9523081 -0.206847 173 173 173
-0.0160397430628363 0.00499082257982886 -0.0153693788339991 0.1408401 0.1481937 0.9788783 132 132 132
-0.0341612338468438 -0.0148211933455055 -0.0237327867253692 0.2390533 -0.2766072 0.9307749 86 86 86
0.0309250422687604 -0.0112970344573077 -0.00982657394951975 0.1471845 -0.9850934 -0.08903843 222 222 222
0.043166494230571 -0.00539722385561869 -0.00364198980347998 -0.2701107 -0.8860346 -0.3768061 164 164 164
0.034518153518913 0.0167980765740593 -0.00598489805993725 -0.2995494 -0.32022 0.8987376 75 75 75
0.0572194019858174 0.00791833944356035 0.00106678724045932 -0.1783618 -0.4577069 0.871029 69 69 69
0.0259276841008851 -0.0111466025235391 -0.0139438496317855 -0.1230547 -0.9460533 0.2997345 163 163 163
-0.0576879442944391 0.00630400950382748 -0.00541737537050792 0.3118876 0.1417466 0.939486 112 112 112
-0.0637078830554791 -0.0214641071554876 -0.0147707481156454 0.3827807 -0.1208068 0.9159064 62 62 62
0.0214707848202322 0.0429896456422062 0.00230722944193539 -0.2392157 0.09299071 0.9665033 104 104 104
-0.0380303750298898 0.0201258944075769 -0.00192855785031644 0.1227111 0.1564619 0.9800314 50 50 50
-0.0210515040673629 -0.0182586917266815 -0.0234690696123058 0.3250349 -0.8157096 0.4785083 239 239 239
0.0247213752066053 0.0261487068788185 -0.00381901506205447 -0.1040346 -0.1901693 0.9762235 100 100 100
0.0140653426706105 0.0248615315270629 -0.00630001543912234 -0.1479417 -0.1392208 0.979148 139 139 139
0.0587113972287239 0.0223045637934008 0.00116877187606278 -0.06502692 -0.5072144 0.8593632 79 79 79
-0.0482217942677545 -0.00566423405052807 -0.0147904820860986 0.1889289 0.1377887 0.9722757 74 74 74
-0.0168969250112725 -0.00972375657589664 -0.0228778148834784 -0.04475797 -0.05531437 0.9974653 133 133 133
-0.0567819827436236 -0.00862858071400774 -0.0128696966073806 0.2196081 0.1590669 0.9625331 71 71 71
0.00771156797635486 0.0361745030869768 -0.00166008197774377 0.06236904 -0.05522963 0.9965239 105 105 105
-0.0318238209287265 -0.0240478036203783 -0.0182874234475688 0.3656539 -0.9301367 -0.03380765 240 240 240
-0.0145446782927694 0.0408334100167286 0.00443137553517119 0.02720029 -0.01344311 0.9995396 76 76 76
-0.0558371627521492 0.0109394524178009 -0.00348281109416194 0.1270786 0.1642701 0.9781955 57 57 57
0.031975118949334 0.0142461495913851 -0.00862058229809798 -0.236196 -0.3646163 0.9007033 183 183 183
-0.053318634917314 -0.0240765351472146 -0.019385366385834 0.1896535 -0.9779193 0.08777967 80 80 80
0.0605939301099014 0.0170303561882376 0.00140712188096596 -0.1952012 -0.621186 0.7589628 91 91 91
-0.00652870239153236 0.0289951704270796 -0.00440066918352379 -0.001669764 0.03337773 0.9994414 225 225 225
-0.0145943813044256 -0.026505904617257 -0.00860907610516387 0.1973046 -0.859375 -0.4717473 28 28 28
0.00254618832039499 -0.000113306668694801 -0.0175339193047189 -0.1290401 -0.2276197 0.9651621 91 91 91
0.0481154903148755 -0.00498293508670955 0.00694962521277857 0.2657424 -0.7626276 -0.5897289 105 105 105
0.0410164099216934 0.0278033084381336 -0.000201379856304432 -0.1087048 -0.3178454 0.9418904 78 78 78
-0.0598187784053297 -0.0176264099610485 -0.0161095003366869 0.3218104 0.08005018 0.943414 28 28 28
-0.0533480837647649 -0.0234522183493372 -0.0211881587168435 0.4315972 -0.7661312 0.4762004 99 99 99
0.00644775516783769 0.00952087316468864 -0.0143780674762457 -0.1422045 -0.2107514 0.967141 95 95 95
-0.0533825179955043 -0.00460425224838767 -0.0119010492943665 0.2604351 0.08585287 0.9616667 97 97 97
-0.0112237736245002 -0.018256202634284 -0.0174672425825183 -0.0005687065 -0.9823817 -0.1868848 119 119 119
0.0482126983561035 0.00326461937283218 -0.00373891632442287 -0.2422421 -0.4247157 0.8723161 57 57 57
0.0158442193375219 0.0108722533811519 -0.0120099850796822 -0.09135792 -0.2455312 0.9650742 132 132 132
-0.00465920276187282 0.0157304010326328 -0.0113789255919052 -0.01895834 0.04591992 0.9987652 184 184 184
-0.0606997852912976 -0.00197641106173363 -0.00714925856261539 0.3235575 0.1486669 0.9344564 50 50 50
-0.00954632585477855 -0.0196853670483045 -0.0100385457698782 0.09942297 -0.9734807 -0.2060349 177 177 177
0.00540862556679089 0.0062283591303528 -0.0156656916995654 -0.1838251 -0.2038828 0.9615821 109 109 109
-0.0410301921511442 -0.0214720774263598 -0.0215152809119599 0.484735 -0.7510615 0.4482618 81 81 81
0.0393179053320458 0.0240697180397195 -0.00106721390696048 -0.2247368 -0.2568028 0.9399711 86 86 86
-0.0269135931384414 -0.0249466354304527 -0.0019069219794708 0.4373466 -0.8647857 -0.2467257 123 123 123
0.0216011963974512 0.00435950982881816 -0.0135932757090409 -0.1085603 -0.3534513 0.9291323 165 165 165
-0.0272833649063449 -0.0191376189619151 -0.0225253040140753 0.4431872 -0.893797 -0.06864382 230 230 230
-0.0333114802829311 -0.00673458614651434 -0.0188163314908705 -0.0120148 0.01993346 0.9997291 110 110 110
0.0338365063489436 0.0155518453811055 -0.00613873999417852 -0.2551236 -0.3200561 0.9124013 89 89 89
-0.0175031665045817 -0.0238910123337593 -0.00155816580622449 0.4603719 -0.7493384 -0.4759724 91 91 91
-0.0428989124680392 -0.0253758116695536 -0.00916680738511072 0.2845781 -0.8794846 -0.3814737 84 84 84
0.00148360929100777 0.00916022445660569 -0.0159424357219743 -0.1883344 -0.2270943 0.9554885 233 233 233
-0.0297212182917668 -0.0185133261454996 -0.0249342875955235 0.2116125 -0.6907633 0.6914234 241 241 241
0.0238063244906064 0.00642064880760163 -0.0129104534172412 -0.1269996 -0.3328636 0.9343837 251 251 251
-0.0432126940330153 -0.0151259525896411 -0.0217072598098933 0.291496 -0.1266249 0.9481541 66 66 66
0.0217318225531549 -0.0153592291958847 -0.00638330928643333 0.3631265 -0.8345295 -0.4143666 198 198 198
0.0520805520069918 -0.00738457795675729 0.00514730626056974 0.226013 -0.768157 -0.5990434 118 118 118
0.0495031203038052 -0.00514868218567488 0.00557368034964999 0.3073468 -0.7609278 -0.5714253 111 111 111
0.046944964502909 -0.00611824040831721 0.00597185746139493 0.2903747 -0.7856089 -0.5463525 102 102 102
0.0544771112820768 -0.00758761431014465 -0.00275287875303777 0.4270593 -0.9027753 0.05115658 100 100 100
0.0517164693915189 -0.00503727624413164 0.0040427486931444 0.2151379 -0.7742158 -0.5952358 108 108 108
0.0503758388613229 -0.00562410511499445 0.00329385020691413 0.2945342 -0.784256 -0.5460697 140 140 140
0.049488740665351 -0.00562467155504243 0.00482050867121035 0.3312552 -0.7765757 -0.5359106 108 108 108
0.0481525866218759 -0.00623533898893636 0.00260303647233738 0.4247374 -0.8058894 -0.4124809 168 168 168
0.0518790909206763 -0.00551559485662667 0.000813844716003362 0.3198035 -0.8880385 -0.3303232 173 173 173
0.0493450127727075 -0.00567047287143152 0.00136892086724104 0.3875277 -0.8638894 -0.3217412 175 175 175
0.0482965030764562 -0.00566632898251485 0.00142484267495073 0.4088953 -0.827127 -0.3855717 183 183 183
0.0468721767922466 -0.00477365492443671 0.000408085238796416 0.372304 -0.8831445 -0.2853867 180 180 180
0.0451344954287944 -0.00670924262373063 0.00509657553734204 0.2786537 -0.8046717 -0.5242667 129 129 129
0.0421849584536811 -0.0059440332998143 -0.00116943788506448 -0.03509557 -0.8922746 -0.450127 144 144 144
0.0399675491331051 -0.00953716776806168 0.000622388672556359 0.001138648 -0.8666385 -0.4989352 97 97 97
0.0377522271624651 -0.00888150614719108 0.000211184230518122 -0.05482837 -0.7903488 -0.6101989 174 174 174
0.0385318277763904 -0.00950363872738669 -0.00211746882401549 -0.1749297 -0.8271386 -0.5340799 196 196 196
0.0395473460007492 -0.00755441063559237 -0.000314712229840433 -0.0986285 -0.8813807 -0.4619962 188 188 188
0.0368402281307607 -0.011082501768178 -0.00128906840973227 -0.06633747 -0.8431507 -0.5335693 199 199 199
0.0369762694168805 -0.00898481988667588 -0.00241216769090442 -0.1256988 -0.848868 -0.5134423 182 182 182
0.0347740148533151 -0.0126851163036995 -0.00236202881618371 -0.04614956 -0.8025472 -0.5948009 166 166 166
0.0347421076200196 -0.0101402249568231 -0.00244254804914186 -0.1036082 -0.8556483 -0.5070812 182 182 182
0.0329185905473914 -0.0110850373334211 -0.000675011122197769 0.1132118 -0.6755912 -0.7285325 201 201 201
0.0506273172630745 -0.00498838427098358 0.00926305360326589 0.1874042 -0.6990072 -0.6901221 95 95 95
0.0483674512372558 -0.00528378959561004 0.00999694014575069 0.1980266 -0.6810827 -0.7049197 109 109 109
0.0453979941062848 -0.0054108718582474 0.00909557481597749 0.2061026 -0.7806301 -0.5900325 113 113 113
0.0481761021789482 -0.00552073061301905 0.00760207979419163 0.2437785 -0.7371651 -0.630206 115 115 115
0.0462409040174063 -0.00562828566307838 0.00827690957607501 0.2386306 -0.7386003 -0.6304959 120 120 120
0.0443087633441319 -0.00780080095577651 0.00878179984810128 0.2620023 -0.7958593 -0.5458597 102 102 102
0.0452152962026706 -0.00568550347860575 0.00865678337849422 0.2416958 -0.7996274 -0.5497082 101 101 101
0.0406588245072679 -0.00733448648042379 0.00855287435185552 0.34593 -0.7880761 -0.5091841 116 116 116
0.0440562123467942 -0.00543349669118121 0.01021925621471 0.2538593 -0.8086858 -0.5306436 106 106 106
0.0442514559255174 -0.00640677495290343 0.00543466532548552 0.2950118 -0.8264366 -0.4795525 142 142 142
0.0408029516809605 -0.00741070093763241 0.00544116530589182 0.2968982 -0.7524642 -0.5879194 154 154 154
0.0390923780229437 -0.00776987942060792 0.0071383192805191 0.3456078 -0.6969602 -0.6283325 151 151 151
0.0396677476901872 -0.00718587998108611 0.00506047680881848 0.312363 -0.767438 -0.5598824 153 153 153
0.0363649435808857 -0.00690746070235326 0.00543961302579614 0.3170234 -0.6663641 -0.6748741 120 120 120
0.0343446507356173 -0.00720807663646694 0.00601827340325649 0.255461 -0.6550876 -0.7110555 104 104 104
0.032498661379087 -0.00776450413275731 0.00559329667854207 0.2069578 -0.5403516 -0.815591 108 108 108
0.037226164484562 -0.00818670374231012 0.00155231491472767 0.04024048 -0.7564476 -0.6528153 176 176 176
0.0342108826916596 -0.00695659996106712 0.00506379404785716 0.2473252 -0.6365728 -0.730483 109 109 109
0.0400619147519161 -0.00615247320712642 0.000907589414335483 0.0133838 -0.8672886 -0.4976256 164 164 164
0.0342841226773669 -0.0106321993203441 0.000478085383934609 0.008231493 -0.6338179 -0.7734386 207 207 207
0.0294802880903755 -0.0130613916685648 -0.000426458420492562 0.1778397 -0.6408131 -0.7468144 216 216 216
0.0274416114540244 -0.0136312538136357 -0.00224326696755624 0.06989985 -0.7911915 -0.6075607 127 127 127
0.0261428885551926 -0.0136242476568386 -0.00368441707475321 0.1356216 -0.8632328 -0.4862468 211 211 211
0.0240808366695773 -0.0179154739910216 -0.00376761288055601 0.2004356 -0.7963635 -0.5706406 219 219 219
0.0188728761282611 -0.0193828975999767 -0.00219266759518506 0.2832521 -0.7442216 -0.6048988 189 189 189
0.0237453763612852 -0.0100987295832961 0.00661680154762749 0.01527139 -0.4647914 -0.8852885 149 149 149
0.0211364543724888 -0.0130430778269744 0.00389474552154394 0.04671029 -0.591187 -0.8051808 143 143 143
0.0196286934501599 -0.0125967123950693 0.00510962483836623 0.03892525 -0.566923 -0.8228506 112 112 112
0.0207057597128948 -0.0114470790302784 0.00680644167351256 0.02239807 -0.5069606 -0.8616782 161 161 161
0.0201759395021219 -0.0109521545579591 0.00656294425164076 0.02483175 -0.5223624 -0.852362 162 162 162
0.0289062436819818 -0.0126611182741759 0.000909558809017205 0.09923384 -0.6207728 -0.7776848 227 227 227
0.0280620821345874 -0.0115677121367125 0.00231895714916956 0.06653352 -0.5659193 -0.8217717 146 146 146
0.0268756199003861 -0.013813454351615 -0.000667517904528694 0.1537746 -0.692233 -0.7051006 217 217 217
0.0251231545853492 -0.0138760778093284 -0.00188696827548253 0.1466319 -0.7389106 -0.6576551 228 228 228
0.0251187206184671 -0.0140006181019668 -0.00259606937642816 0.170766 -0.7621458 -0.624478 223 223 223
0.0213030708311988 -0.0151567286930007 -0.00132562028370482 0.1678087 -0.7096698 -0.6842579 192 192 192
0.0232810885454113 -0.0132953717002039 0.00205362781699873 0.1088366 -0.5848544 -0.8038034 176 176 176
0.0192212713255482 -0.0154594028582958 0.000529247215093939 0.1273251 -0.6631982 -0.737534 198 198 198
0.020719839118243 -0.0147309245302726 -0.0019094151768579 0.1935171 -0.7498599 -0.6326621 176 176 176
0.0211568545593681 -0.0148272976381142 -0.00257042259573888 0.2305831 -0.7710034 -0.5936204 199 199 199
0.0232365299341981 -0.0117720712687351 0.0039627302362155 0.07018354 -0.528432 -0.8460697 175 175 175
0.0101734798674031 -0.0206748040885648 0.0019843702717232 0.1122134 -0.8010788 -0.5879464 87 87 87
0.0161056515438012 -0.0145878165406238 0.00340696326307614 0.05737086 -0.6887181 -0.7227558 128 128 128
0.0140554711910807 -0.0160518552112118 0.00300185524852729 0.006151526 -0.7098892 -0.7042865 180 180 180
0.0141284710000602 -0.0150803000078837 0.00457062306505988 -0.005537562 -0.6822709 -0.7310784 115 115 115
0.01505636102566 -0.0142541603570409 0.00572175809954294 0.01168691 -0.6511235 -0.7588818 138 138 138
0.0161785363387357 -0.0137552046822612 0.00528927141387263 0.04079717 -0.6211402 -0.7826368 146 146 146
0.0103476606806816 -0.017719619642771 0.00251658831376737 0.06676244 -0.79141 -0.6076291 134 134 134
0.00602080867319588 -0.0183398039538653 0.00339698349023658 0.1710313 -0.9204936 -0.3513401 89 89 89
0.016579354355613 -0.016203659063209 0.000326119198310978 0.108761 -0.7127466 -0.6929382 197 197 197
0.0140997812865744 -0.0163447231099479 0.000420982497089148 0.05690423 -0.7979519 -0.6000289 186 186 186
0.0191406199928017 -0.0158147436488597 -0.0025187139320116 0.3447644 -0.7538516 -0.5593258 195 195 195
0.0196454897299678 -0.0172951393255444 -0.00370592458905152 0.392481 -0.7637313 -0.5125166 215 215 215
0.018300473349798 -0.0157136733580042 -0.00219997379352073 0.2428928 -0.7791997 -0.5777984 189 189 189
-0.065090759007967 -0.00641137532283287 -0.0075992581033163 0.3265768 0.1755481 0.9287252 56 56 56
0.0153771686270221 -0.0161202215975796 -0.00120309501887429 0.1816125 -0.7564979 -0.6282737 153 153 153
0.0155042157096381 -0.0158316596401867 -0.0038970057132844 0.2505505 -0.8433186 -0.4754347 106 106 106
0.0121173206746565 -0.0200992517226252 -0.0041128608577269 0.1803319 -0.888212 -0.4225635 85 85 85
0.01244319566996 -0.0168357871377628 -0.00199057600082421 0.0842201 -0.9221976 -0.3774369 134 134 134
0.0110422258139757 -0.0172026488950149 -0.00329038271784156 0.1940369 -0.8823234 -0.4287833 138 138 138
0.00980975073415857 -0.0174361053103508 -0.00413239782743592 0.3693883 -0.8661553 -0.3366411 130 130 130
0.0171046366699295 -0.0152015550107066 0.00261454125777143 0.06602163 -0.6704414 -0.7390192 177 177 177
0.0177618304316902 -0.0144662942945214 0.00171477249392353 0.1182149 -0.7001904 -0.7041013 163 163 163
0.0117650775590747 -0.0169745728343168 0.00167436727848767 0.1012937 -0.8159826 -0.5691326 123 123 123
0.0195680000276899 -0.00645600373634647 -0.0150773702373855 -0.2353034 -0.3179958 0.9184285 102 102 102
0.00572897482756574 -0.020035036736343 0.00339288842114475 0.196939 -0.8849101 -0.4220771 135 135 135
0.00269826261242878 -0.0218247228496974 0.00288006219881447 0.1681755 -0.9037955 -0.3935361 77 77 77
0.00258395483673191 -0.0206243594642496 0.00403037565987723 0.2055272 -0.9149053 -0.347429 114 114 114
0.00121867107931317 -0.0231008078241463 0.00120635406986506 0.2077256 -0.9112317 -0.355678 68 68 68
0.00139019987020772 -0.021126945031439 0.00369766434869377 0.1953343 -0.9051961 -0.3774446 95 95 95
-0.00271078926508883 -0.0216450672001759 0.00331392257027112 0.2630317 -0.8901806 -0.3720118 48 48 48
0.000518077899669844 -0.022646794365489 -0.00371602240660064 0.1669273 -0.9526365 -0.2542025 88 88 88
0.00665186502388293 -0.0185805860021763 7.44789301011933E-05 0.3551542 -0.8780686 -0.3207194 115 115 115
0.0071088862711215 -0.0183103529647449 -0.0016309308275992 0.3140638 -0.8829526 -0.3489393 97 97 97
0.00477728749162276 -0.0187347743487313 -0.00241503664124167 0.2174985 -0.9117312 -0.3484831 89 89 89
0.00475129763167859 -0.01821556977512 -0.00364772536977205 0.269695 -0.914242 -0.3023676 67 67 67
0.00237072548831874 -0.0193640909458436 -0.00340546617594735 0.2009906 -0.9227606 -0.3288094 69 69 69
-0.00141724704640112 -0.023611391555541 -0.00306937645318729 0.2569133 -0.9031675 -0.3439243 93 93 93
0.00049944077647579 -0.0202885184027589 -0.000226790532715307 0.2123685 -0.914116 -0.3453861 117 117 117
0.00189246186188452 -0.0198032052079046 -0.00210622646083565 0.1442612 -0.9404585 -0.3077767 64 64 64
0.00159182504278688 -0.0194900002311323 -0.00398635842904367 0.163921 -0.9427468 -0.290445 97 97 97
-0.00027644960554829 -0.0200773827615074 -0.00393795861958941 0.258159 -0.9489809 -0.1810776 131 131 131
-0.00190978607311854 -0.0201114252054525 -0.0041009568760302 0.3513364 -0.9108532 -0.2165853 103 103 103
-0.00585163597741634 -0.022902285826001 -0.00136747888304552 0.2200685 -0.9255892 -0.3079846 201 201 201
-0.00578999347518616 -0.021474188204632 -0.00136961744085586 0.2057326 -0.9361597 -0.285095 152 152 152
-0.00851445882480517 -0.0221974086399875 -0.00246472500750534 0.2699956 -0.9456224 -0.1813852 155 155 155
-0.00393015300252619 -0.021992955787742 -0.00476480551342807 0.3236292 -0.9333485 -0.1553212 97 97 97
-0.00714461245629705 -0.0219179616567285 -0.00224498113981987 0.2489295 -0.9424599 -0.2231667 155 155 155
-0.00838264955803103 -0.0234147515056439 -0.00483297375999588 0.1235768 -0.9810719 -0.1490862 203 203 203
-0.0105382641160143 -0.0264764015287676 -0.00201439067713106 0.3322684 -0.7895939 -0.5158867 172 172 172
-0.0116798550154766 -0.0226384021210916 -0.00466374046586633 0.2335034 -0.9328973 -0.2741874 120 120 120
0.0312030866977753 0.0338166397400607 -0.00118326362616535 -0.1205477 -0.2831048 0.951483 105 105 105
0.0116368228716976 0.0261946613048275 -0.00598863669851658 -0.1103466 -0.1518004 0.9822323 240 240 240
-0.0387850945445189 0.00762276311438093 -0.00914682207917528 0.01903946 0.143495 0.9894679 100 100 100
0.0347454348836895 0.0365541531840222 0.000542152925989067 -0.1498722 -0.2721823 0.9505026 142 142 142
-0.03570606920746 0.00766654457827476 -0.010073545812919 0.03607907 0.1251025 0.9914876 195 195 195
-0.00681362860581514 -0.0227476216431631 0.00223680450379431 0.2405966 -0.9269226 -0.287972 212 212 212
-0.0132609335879317 -0.0229189489089406 -0.000480164245945172 0.3924321 -0.8609753 -0.3236024 111 111 111
-0.0158734879901634 -0.023492187355083 -0.00145378480793852 0.3921773 -0.7558407 -0.5243109 81 81 81
-0.0124196079080252 -0.0226393627710842 -0.00241589417567613 0.3918124 -0.8524531 -0.3461313 160 160 160
-0.014026552214085 -0.0231774279406231 -0.00306029582249868 0.3725927 -0.7761434 -0.5087004 122 122 122
-0.0153252609237375 -0.0232527154069057 -0.00363870559668263 0.4301964 -0.7539298 -0.4965087 147 147 147
-0.0406168456553906 -0.0124224502598634 -0.0205868437529132 0.1610627 0.03281945 0.9863983 118 118 118
-0.0167552447890134 -0.0232790023220072 -0.00457115155263378 0.3404517 -0.7799889 -0.5250809 93 93 93
-0.0197119911016688 -0.0243266840184152 -0.001778579234697 0.4013796 -0.8093872 -0.4287035 90 90 90
-0.0189300571639692 -0.0238933689190185 -0.00437828429299254 0.4206052 -0.7450545 -0.5176727 121 121 121
-0.0205739988592852 -0.023803021026544 -0.00361675318970296 0.4016334 -0.8135463 -0.4205151 110 110 110
-0.024604572239233 -0.0253361427261644 -7.24836512824428E-05 0.4236887 -0.8495113 -0.3143541 110 110 110
-0.025916441028889 -0.0253552219290875 -0.000559169529330897 0.4161497 -0.8511983 -0.319814 123 123 123
-0.0265796788213919 -0.02425323054603 -0.00397828985331251 0.4681573 -0.8311915 -0.2999158 94 94 94
-0.0287395347104265 -0.025344897687226 -0.00152909252578094 0.3855571 -0.9103588 -0.1503084 117 117 117
-0.0327594491393675 -0.0259526724170757 -0.00118203739012158 0.4351897 -0.8818246 -0.1816462 135 135 135
-0.0306648305702431 -0.0255836087845619 -0.00161974430767937 0.4227602 -0.8907861 -0.1666549 88 88 88
-0.0286939699563833 -0.0251820194598248 -0.00303749659527409 0.4080151 -0.8907905 -0.2000398 128 128 128
-0.0337801340580364 -0.0260376033836635 -0.00273513531481324 0.4886227 -0.8465926 -0.2110185 132 132 132
0.0422935732390464 0.00781264369668022 -0.00526353607684051 -0.2685359 -0.439474 0.8571762 107 107 107
-0.0377773648926802 -0.0241010093127233 -0.00297940103947882 0.5016618 -0.7594202 -0.4142661 57 57 57
0.0464098653199243 0.03698805844782 0.00271108518009881 0.0981582 -0.3464273 0.9329272 55 55 55
0.00600378784495392 0.013757876453608 -0.0131316167252949 -0.1286754 -0.1894993 0.9734129 80 80 80
0.0470985184370005 0.0176737735071456 -0.00190476655947315 -0.1714003 -0.483703 0.8582851 90 90 90
0.0511158930096309 0.0182084507671229 -0.000805174643488907 -0.1286096 -0.4798488 0.8678737 97 97 97
-0.0498647249018029 -0.0217243352549913 -0.0211779197523222 0.3102731 -0.8852586 0.3464791 75 75 75
-0.0525556040975335 0.013754914770442 -0.00215637224388283 0.05683596 0.168743 0.9840201 222 222 222
-0.0381726072936304 -0.0236847697310772 -0.0138593060229814 0.428184 -0.8328763 -0.3506786 122 122 122
0.0103963438406569 0.00148756385266935 -0.0167845317064853 -0.1716515 -0.2311536 0.9576554 76 76 76
0.00323001355031849 0.0177935041289535 -0.0110504760618882 -0.09671051 -0.07890032 0.9921803 173 173 173
0.0375928709632576 0.00822297697790397 -0.00640623691830183 -0.3574159 -0.4785084 0.8020496 87 87 87
0.0614473237701874 0.0100372180871963 0.00143274137844167 -0.3612752 -0.5741407 0.7347399 94 94 94
-0.0571934544570638 0.00031048707545589 -0.00808366668244659 0.3229269 0.1122128 0.9397481 71 71 71
0.0136925000328074 0.0202605729400854 -0.00906585576847752 -0.1072015 -0.1516739 0.9826 218 218 218
0.0587962635498207 0.00296148629098913 -0.000289761715042983 -0.3308183 -0.525141 0.7840831 69 69 69
0.00730456953348435 0.0383887063186495 -0.000880821306577698 0.05412318 -0.008670721 0.9984966 102 102 102
-0.0446860949581289 0.00792434871390835 -0.0086489140037122 0.03738703 0.1380822 0.9897149 225 225 225
0.0455466556186539 -0.00379250626675798 -0.0057066372576003 -0.1463321 -0.9710091 -0.1890191 55 55 55
0.0386525240336746 0.00673827875684385 -0.00836185187242972 -0.3871425 -0.4223679 0.819589 116 116 116
-0.0135034941688659 -0.0204834038769705 -0.015262290936034 -0.1125091 -0.9905596 -0.07831648 148 148 148
0.00263106197959617 -0.0173455172435811 -0.0136875674071125 0.4290364 -0.8752652 -0.2232455 139 139 139
-0.012063879909364 0.0312437801604583 -0.00271236827926942 0.06255798 0.1261839 0.9900324 180 180 180
0.0640141103285878 0.0271493722682775 0.00395818254093648 -0.4699588 -0.5134919 0.7179588 66 66 66
-0.0541301427548213 0.00465416208079794 -0.00747313181728271 0.2234235 0.06212588 0.9727396 61 61 61
-0.0404049171581413 -0.0222144456411225 -0.0197206351881232 0.4649893 -0.8850016 -0.02360309 125 125 125
0.0249850710427935 -0.0120685301400797 -0.0100350872012842 0.09164435 -0.9891863 -0.1145064 165 165 165
0.0237283306739116 0.0281459625328823 -0.00356093551919635 -0.08429337 -0.2097315 0.9741187 117 117 117
0.0107581168585673 0.0232147995722379 -0.00770914072409618 -0.113753 -0.097605 0.988703 227 227 227
-0.0186500772454821 0.0118423499180794 -0.01068361455885 0.01259044 0.003412945 0.9999149 58 58 58
0.025790763368327 -0.00637569106760616 -0.0142704836834645 -0.2007346 -0.4754939 0.8565111 60 60 60
0.0467128743984442 0.0310463096545704 0.00130757772219568 -0.1107207 -0.2756759 0.9548528 31 31 31
-0.0185007184646673 0.00891483845708552 -0.0121731341379413 0.03874409 0.04663529 0.9981603 128 128 128
-0.00210687783715047 0.03560735211011 -0.00057314891543038 -0.01294633 0.0461059 0.9988527 97 97 97
0.0427949188917363 0.0114423940065221 -0.00504799481419334 -0.2488318 -0.5293053 0.8111218 80 80 80
-0.00232084699336665 -0.00559073882034833 -0.0210952393033107 -0.05641356 -0.4241143 0.9038499 77 77 77
0.0234443205449106 0.0412568159636121 0.011037458784604 -0.6868964 0.4730785 -0.5516973 79 79 79
0.0588129730797911 0.0107314441662213 0.000532310479470097 -0.1118513 -0.4809192 0.8696011 124 124 124
-0.0214340387465923 -0.00127025711648587 -0.0177620295376795 0.09190124 0.07734799 0.9927595 85 85 85
0.0152102343050546 0.0127795239990162 -0.0111433167894991 -0.1126507 -0.2750905 0.9547958 142 142 142
0.0397291072367927 -0.00874584163420666 -0.00549874056795958 -0.0877558 -0.7690785 -0.6331013 201 201 201
-0.00393270734226236 0.0436515641645315 0.004511312666427 0.02794057 0.1186207 0.9925464 110 110 110
0.0481269734267538 0.00164135854986169 -0.00522693039084728 -0.2712517 -0.371563 0.8878983 137 137 137
0.0535905676069395 0.0267754308276854 0.000356950728739966 -0.0893162 -0.3697141 0.9248427 101 101 101
5.55639692767507E-05 0.00170417032426073 -0.0190037941480464 -0.1276092 -0.2248996 0.9659896 95 95 95
-0.00513035590953015 0.00980737170527701 -0.0158277184306368 -0.08129489 -0.01493569 0.9965782 77 77 77
0.0444451816548432 0.00295438571515849 -0.00658567046079284 -0.3284365 -0.3766607 0.8661733 97 97 97
-0.019844059613003 -0.00115747868929816 -0.0182710426231555 0.1028576 0.09088453 0.9905354 96 96 96
0.0352997834195619 -0.0126845303463871 -0.00755042787386362 0.2321157 -0.9062728 -0.3532591 215 215 215
0.016259222377244 0.00590355968328582 -0.0132822467559636 -0.07930355 -0.1955052 0.977491 231 231 231
0.0508384324959432 0.031105326203165 0.0016795729386299 -0.07119352 -0.240456 0.9680457 106 106 106
-0.0396720650668396 -0.0247429036344254 -0.0083250905143909 0.3316551 -0.8632323 -0.3805718 147 147 147
0.00988485243062565 0.00215750023733341 -0.0173458373342566 -0.189923 -0.2227828 0.9561889 75 75 75
-0.0380777111613517 0.0144208298818972 -0.00568527041820606 0.1441483 0.1431525 0.9791469 58 58 58
-0.0118117263863105 -0.0108270692716984 -0.0234462742263237 -0.01367968 -0.3807126 0.9245923 108 108 108
0.0353838878595236 0.0208399030093548 -0.00499260532641528 -0.3424503 -0.3502702 0.8718019 86 86 86
0.0276311801406863 0.00764774486640152 -0.0118577903961253 -0.1461594 -0.3874528 0.9102295 183 183 183
-0.064099058784016 -0.010113643646302 -0.00996309474058427 0.3518918 0.1472957 0.9243788 90 90 90
0.043069765576123 -0.0067703435832599 -0.00902504631125983 -0.3554202 -0.8072899 -0.4711257 213 213 213
0.0135457973785642 0.0420536848561387 0.000519915745232732 -0.2392885 0.1898462 0.9522076 92 92 92
0.0233720069457752 0.022468717977273 -0.00614168500727552 -0.1770838 -0.08913887 0.9801508 79 79 79
0.0222226108596728 0.0368611939469959 -0.0017655724755208 -0.1146706 -0.276069 0.9542728 245 245 245
0.0199019853600482 0.0308116146188907 -0.00214295349008793 -0.146658 -0.2678506 0.9522329 70 70 70
-0.0603430818426869 -0.00344124996752082 -0.00787663286411866 0.3066111 0.1468752 0.9404346 67 67 67
-0.0298888985377261 -0.0119752324365389 -0.0230026567719171 0.04318652 0.02752274 0.9986879 91 91 91
-0.0310289213293351 -0.0237932703292082 -0.00523483087536654 0.4079164 -0.8851014 -0.2240528 104 104 104
0.0642765799511786 0.0158517399134838 0.00224802140127682 -0.5109493 -0.7026687 0.4951641 81 81 81
-0.0378252745607259 -0.00580495664948344 -0.0178600143265422 0.08048601 0.08439177 0.9931768 83 83 83
-0.0246700570380249 -0.00992983739024134 -0.0217229347831422 -0.02021441 0.1029948 0.9944765 124 124 124
0.0445932708278778 0.0142542622141658 -0.00364425212111981 -0.2610568 -0.5273716 0.8085348 111 111 111
-0.0123688510697737 0.0407615077432374 0.00381488754359997 -0.01043206 0.005631765 0.9999297 92 92 92
-0.000868266147751928 0.0281215102482316 -0.00537303014163999 -0.03980556 0.04218131 0.9983167 81 81 81
0.00384878689063184 0.0429726504723494 0.00214378334558261 -0.1159234 0.1580406 0.9806044 109 109 109
0.0279540757648098 0.0356983163915033 -0.000582101397464688 -0.1058152 -0.2073414 0.9725291 227 227 227
0.0253057706650117 0.0166030165889867 -0.0091567748402297 -0.08183733 -0.2120365 0.9738292 113 113 113
0.0206561204667151 0.0366691578301365 -0.00122484937660884 -0.1792982 -0.3020388 0.9362824 236 236 236
-0.0246697681807775 0.0206755619430171 -0.0059221744379422 -0.03713991 0.01779563 0.9991516 64 64 64
0.0425661034417653 0.00199357122873456 -0.00786862604755389 -0.3639914 -0.3882214 0.8466371 143 143 143
-0.00295243579618898 -0.00367856537061029 -0.020457265647738 -0.1071378 -0.3406452 0.9340677 98 98 98
0.00172097357109724 0.0452688543572232 0.00411147587229059 -0.1719862 0.2080469 0.9628797 79 79 79
-0.0281837520504107 -0.00920047102712307 -0.0216430861552395 -0.04242603 0.09211868 0.9948438 118 118 118
0.0360543933631079 -0.00962967188804986 -0.00938488883122079 0.09019457 -0.9864557 -0.1370041 177 177 177
-0.0168853598806096 -0.0241892880277838 -0.0107185246608688 0.3380817 -0.8783399 -0.3379641 189 189 189
0.0327342306133507 -0.0111095240329843 -0.00397401028358225 0.1747956 -0.8648677 -0.4705852 145 145 145
-0.0031304244006054 -0.0150803617459555 -0.0183534305545264 0.3824567 -0.9131975 0.1407025 108 108 108
0.0196667951425895 0.0227062633044056 -0.00656616647376801 -0.2381796 -0.1634056 0.9573761 133 133 133
-0.0355641145473617 -0.0201887623249778 -0.0238322543679843 0.474221 -0.755855 0.4514395 215 215 215
-0.0234036783125995 -0.023980761715337 -0.0124177433699004 0.3872187 -0.9026629 -0.18778 222 222 222
0.0311760518061726 -0.00827989262609197 -0.0129835390913528 -0.1795617 -0.7707927 0.6112579 132 132 132
0.0387668254081475 0.01519304947505 -0.00654475118070491 -0.2579736 -0.3658602 0.8942013 90 90 90
0.0133163829799376 0.0262382806510998 -0.00564788004203638 -0.1359852 -0.1499868 0.9792916 197 197 197
0.00137241485218098 -0.0183041441378627 -0.00766126291760078 0.3021011 -0.9216061 -0.2436742 93 93 93
0.0182713168060675 0.0126731781011898 -0.0111481242150918 -0.1226036 -0.2030039 0.971472 86 86 86
0.00791109948231883 0.0480466802078955 0.00960304208639749 -0.4078186 0.3825679 0.8290511 90 90 90
-0.00407604270069006 0.0212525332704326 -0.00882798086871039 0.05057596 -0.01108093 0.9986587 223 223 223
0.0183128200198452 -0.012494210708215 -0.0159148424739891 0.09063666 -0.9416645 0.3241189 156 156 156
-0.0447460618775586 -0.0267675107325781 -0.00886332794255312 0.2799286 -0.8934306 -0.3513143 65 65 65
0.0254928596881348 -0.00509384431231841 -0.0144186344210508 -0.1765696 -0.3912857 0.9031714 83 83 83
0.00214847352444059 0.0153682166009433 -0.0121160873184112 -0.08332823 -0.08605735 0.9927993 209 209 209
-0.0312203896155325 -0.0178093224850712 -0.0248945309401335 0.267792 -0.4845711 0.8327535 224 224 224
-0.0311566868501463 0.0275267381517249 0.000625808430509286 0.03789801 0.2760015 0.9604098 105 105 105
0.0117304325368495 0.00968298879939489 -0.0137579265996211 -0.2043622 -0.2602217 0.9436741 227 227 227
0.00633581165957064 0.0167417327380645 -0.0107078912833046 -0.1231456 -0.1213565 0.9849405 62 62 62
0.00314246827765485 -0.0188980966748399 -0.00577242587991818 0.201656 -0.9475919 -0.2477992 126 126 126
0.00423360988592147 0.0221689835598798 -0.00837593652565921 -0.1173823 -0.1295034 0.9846067 74 74 74
0.0449622609625382 0.0277479490726603 -0.000305700149025492 -0.05247813 -0.2831985 0.9576245 56 56 56
0.0337297742253972 -0.0107766552605043 -0.0093031981615404 0.1367505 -0.9894385 -0.0480701 198 198 198
0.0221085828062244 -0.0108480739032625 -0.017285637802098 -0.1002062 -0.603804 0.7908094 129 129 129
0.0300465049686096 0.028802984336057 -0.00270766614601455 -0.1199761 -0.2387907 0.963631 60 60 60
-0.0494431187651592 -0.0102027154230441 -0.0167697622816302 0.2296207 0.09472373 0.9686598 58 58 58
-0.0434794156706799 0.0126371826017949 -0.00518688678852271 0.04870504 0.1148465 0.9921886 97 97 97
-0.0353650471633427 -0.0238436428826715 -0.0076525808750097 0.3744094 -0.8713983 -0.3169899 124 124 124
0.0643536436596164 0.00640209870761888 0.00240602614525369 -0.6588358 -0.6163953 0.4312681 92 92 92
0.0640532751286877 0.005039623429555 0.00239063142706646 -0.664625 -0.6213465 0.4149724 159 159 159
0.0591191437999101 -0.000931722748254704 -0.00186837483884401 -0.2834535 -0.5348229 0.7960016 96 96 96
0.0564929155465088 -0.00342378238779129 -0.00198084400558286 -0.007054088 -0.855445 0.5178456 125 125 125
0.0596605523219353 -0.000203996194273359 -0.00119413374799006 -0.389074 -0.5054839 0.7701347 92 92 92
0.0580604815639671 0.00214838442769338 -0.000520025198776433 -0.3283736 -0.5475586 0.769643 82 82 82
0.0608800181651303 0.00382549018724465 0.00181899934738276 -0.440327 -0.5832008 0.6826339 83 83 83
0.06102248886135 0.0035490139575477 0.00103846692370972 -0.3972539 -0.5540199 0.7316087 67 67 67
0.0597963927740746 0.00411185297368888 0.000182507775158866 -0.2821819 -0.5418976 0.7916567 131 131 131
0.0569529722236131 0.00252878074157181 -0.00121288146819017 -0.3205075 -0.4942223 0.8080961 101 101 101
0.0557964185804045 0.0035415463582259 -0.00139526170191924 -0.2911347 -0.4634208 0.8369479 69 69 69
0.0544338808997309 -0.00309318005152781 -0.00216025420598855 -0.06301468 -0.826816 0.5589315 86 86 86
0.0521042986847093 -0.00105226382803891 -0.00261773439898373 -0.2287411 -0.6249032 0.7464405 140 140 140
0.0547980093618352 -0.000349045595903541 -0.00332801071722007 -0.2639805 -0.507774 0.8200487 75 75 75
0.0554031270412323 0.000927952820093281 -0.00282453327818134 -0.2385596 -0.5050842 0.8294452 70 70 70
0.0530826725818758 -0.000557031082491943 -0.00411639962300421 -0.263952 -0.5406082 0.7987942 132 132 132
