ply
format ascii 1.0
comment File exported by Rhinoceros Version 7.0
element vertex 473
property float x
property float y
property float z
property float nx
property float ny
property float nz
property uchar red
property uchar green
property uchar blue
end_header
-0.0266466099961081 -0.0431106401276926 0.00278291685722959 -0.3789315 0.9223834 0.07496523 37 37 37
-0.0253898362042912 -0.0436806974210342 0.00167061491467801 -0.3743568 0.9265652 0.0365232 37 37 37
-0.0302279279588167 -0.0440420331364373 0.0127228380607216 -0.5147569 0.7912118 0.3301654 69 69 69
-0.0297381067302024 -0.0442644043005425 0.0120854235234296 -0.4926455 0.8311694 0.2577944 77 77 77
-0.0269525112418611 -0.0450734921107443 0.0117506817072572 -0.336118 0.9001423 0.2770713 60 60 60
0.00370668782109523 -0.0472574708449875 0.00991550525577475 -0.01436461 0.984302 -0.1759065 49 49 49
0.02879302319473 -0.00982555236833238 -0.00251893301091677 0.2579027 0.1533285 0.9539269 110 110 110
0.00171991285882334 -0.0467374663307738 0.0103110771833222 -0.0180426 0.9820445 -0.1877847 24 24 24
-0.0262647489126007 -0.0250002025637268 -0.0164574850198056 -0.1036705 -0.004738618 0.9946004 165 165 165
-0.0301394343492836 -0.0274770965381887 -0.0154193924441579 -0.8105957 0.07597022 0.5806575 67 67 67
-0.0280735486129102 -0.0273254448099336 -0.0164388992670486 -0.3620063 0.06703142 0.9297625 198 198 198
-0.0285065478543644 -0.0287769132185638 -0.0163065156767771 -0.3273917 0.1375558 0.9348225 146 146 146
-0.0242505293961906 -0.0265530441569648 -0.0156046194562861 0.1416721 0.1080726 0.9839966 159 159 159
-0.0263254101184652 -0.0267690244974179 -0.0163935515763599 -0.0557375 0.091979 0.9941998 209 209 209
-0.0297423749422401 -0.02966266310211 -0.014805506665492 -0.8295497 0.1457396 0.53908 91 91 91
-0.0297042449515155 -0.0304975602902293 -0.0131254358687298 -0.8141503 0.1669821 0.5561262 27 27 27
-0.027950612758711 -0.029050103431979 -0.0152742248712202 -0.2919671 0.196827 0.9359564 137 137 137
-0.0261012408248871 -0.0297259848781863 -0.0151418680389058 -0.0132898 0.2079827 0.9780422 143 143 143
-0.0264646553757324 -0.0310412973183187 -0.0147890331517422 -0.07224441 0.2402078 0.9680294 129 129 129
-0.0306098659737604 -0.034310315392351 -0.00944382544067893 -0.9411563 0.1883632 0.2806138 90 90 90
-0.0303090129009197 -0.0343951041272821 -0.0116537578249375 -0.8607661 0.2285277 0.4548153 36 36 36
-0.0305405152417542 -0.0360489552980405 -0.0101022394325521 -0.8237785 0.3530542 0.4435557 96 96 96
-0.0296352536495215 -0.0336434065437905 -0.0135935329978643 -0.5816606 0.2850731 0.7618427 67 67 67
-0.0282121466512679 -0.0347767206024954 -0.0136197311388195 -0.3913634 0.3883816 0.8342628 136 136 136
-0.0263754791531195 -0.032696636699032 -0.0142024182924999 -0.04552879 0.3348895 0.9411568 146 146 146
-0.0244979159114495 -0.0331694958194353 -0.0134906117247192 0.09845621 0.2766427 0.9559159 142 142 142
-0.0268900421764435 -0.0346934908280616 -0.0137370130115064 -0.2053837 0.3954388 0.8952349 180 180 180
-0.0261306896577522 -0.0353212072497306 -0.0121368012623328 -0.1433639 0.4118691 0.8998948 68 68 68
-0.030151756890278 -0.0368371437256134 -0.0109408833208266 -0.7082505 0.4597931 0.5356973 115 115 115
-0.0264179882910411 -0.0393900925051789 -0.00952742598917936 -0.2872765 0.5866696 0.7571598 36 36 36
-0.0280537331770837 -0.0410516607707854 -0.00660620600917225 -0.5423993 0.6341417 0.5510601 42 42 42
-0.0277839044288476 -0.042455133705056 -0.00388809654583666 -0.5929872 0.7227202 0.3550234 37 37 37
-0.0283105848678512 -0.0423744274834239 -0.00254896550871908 -0.6595296 0.7164927 0.2272862 45 45 45
-0.0262543552548887 -0.0434088991194514 -0.00571206731127025 -0.4501152 0.7090241 0.5428454 69 69 69
-0.025828226543241 -0.0447192588609131 -0.00429643639955768 -0.4790431 0.7702829 0.4209299 67 67 67
-0.0264398786518045 -0.0446005179836191 -0.000308538108041434 -0.4206223 0.9054306 0.05720509 64 64 64
0.035316171204778 0.0161961750415591 -0.00593773156281929 0.2651395 -0.01424052 0.9641049 113 113 113
-0.0207568519245299 -0.0265200873521336 -0.0147316406312168 0.2407233 0.169703 0.9556428 91 91 91
0.0252928309841831 -2.34863765797844E-05 -0.00588862059039802 0.2816051 0.1306964 0.9505877 69 69 69
0.0271773489800173 0.0391944078929041 -0.0108812411319398 0.2114762 -0.1856826 0.9595832 94 94 94
0.0207178240884827 -0.0328579569688208 0.00147877241227648 0.2595536 0.1113866 0.9592836 88 88 88
0.0339106938442232 0.0359886332183916 -0.00905528899310726 0.2482385 -0.1004942 0.9634721 65 65 65
-0.00552124071089083 0.0407457826122832 -0.0194289749045664 0.01837709 -0.2495443 0.968189 104 104 104
0.00058646991093958 0.0225118005670737 -0.0186235170317032 0.2229425 -0.07773079 0.9717276 169 169 169
-0.0164331662268609 -0.0139800890549182 -0.0166477978151462 0.1253027 0.03994894 0.9913139 84 84 84
-0.000827380785978049 -0.0475702478143722 0.00962760401041149 -0.01918694 0.9797275 -0.1994138 50 50 50
0.0239214282845864 -0.00626765020676001 -0.00511440674921898 0.1981594 0.02627355 0.9798176 102 102 102
0.021632502478865 -0.0104414133561661 -0.00483885138673482 0.2181113 0.1185198 0.9687004 103 103 103
0.0239421455331084 0.0173143336725068 -0.0100821389528665 0.2287424 0.09916067 0.9684235 74 74 74
-0.00956503714618179 -0.0355832328857189 -0.00882808171644361 0.1674106 0.1362176 0.9764315 110 110 110
0.0198342788923958 0.0424100198715185 -0.0131180454695362 0.194248 -0.4374109 0.8780316 94 94 94
-0.00907377668559312 0.0358136299231409 -0.0194988920320418 -0.05808414 -0.2465649 0.9673841 65 65 65
-0.00609736122295784 -0.0483629960835965 0.00602742945794543 -0.1153918 0.9867989 -0.1136341 22 22 22
0.0413639009867078 0.0333532940079113 -0.00645114338384789 0.2779236 -0.1030256 0.9550624 55 55 55
0.00185248983630137 -0.0493574389246294 0.000657002261062328 0.1148341 0.8469492 0.5191244 60 60 60
0.0370219787336757 -0.0379302155192796 0.0111405428237219 0.2750269 0.6283544 0.7276888 67 67 67
0.0290483575160023 -0.0111738680393141 -0.00180945453758552 0.2740754 0.1668824 0.9471182 88 88 88
0.00401919564588249 0.0375658060194577 -0.017640191011448 0.1784445 -0.1875045 0.9659191 104 104 104
0.0425739429073581 -0.0110252933600543 0.00346324882173518 0.2412023 0.122287 0.9627395 79 79 79
0.00354076075744958 -0.0157993908041563 -0.00909452670295924 0.2622283 0.1403074 0.9547513 173 173 173
0.0251608732066937 -0.0121866179578023 -0.00298640588118296 0.2255463 0.1791696 0.9576153 173 173 173
0.0120372970936007 -0.031968539828503 -0.00168995293886159 0.2542374 0.1515542 0.9551935 176 176 176
0.0136702318025668 0.00603575187983751 -0.0107812818968256 0.2432306 0.07279008 0.9672334 175 175 175
0.0267098811653173 0.0458319349945895 -0.00983714217123044 -0.004724653 -0.819428 0.5731627 75 75 75
0.0224077971187543 -0.0423511426869261 0.0078686865873473 0.3339595 0.8943161 0.2977746 59 59 59
-0.00110038194303153 0.00767772737720018 -0.0159152775957225 0.1745607 0.005545799 0.9846308 93 93 93
0.0298502087163445 -0.0400342201076991 0.00968049153011971 0.313481 0.8086637 0.4977877 54 54 54
-0.00747584533213941 0.0378386713557981 -0.019764498490804 -0.04468964 -0.2217702 0.9740744 88 88 88
0.0255783254620645 0.0309986989701785 -0.0111685201657262 0.2554527 -0.05858643 0.9650449 90 90 90
0.0160902297310984 -0.038262504160697 0.00143802914238847 0.2358827 0.1587334 0.9587299 167 167 167
0.0381973463208432 0.0264951637534101 -0.00589620881252881 0.270537 0.03272748 0.9621531 96 96 96
-0.00312096401351342 0.0372280823860687 -0.019592506744054 0.06844257 -0.2293391 0.9709373 116 116 116
0.0215198750945488 -0.0367381445836246 0.00291619677002733 0.2696892 0.1462186 0.9517815 65 65 65
0.0145933149373264 0.029022608687548 -0.0148425094990022 0.2246616 -0.0308782 0.9739475 76 76 76
0.0196443341911114 0.0167218390430279 -0.0111880798217546 0.2211889 0.126054 0.9670501 70 70 70
-0.0151859225261163 0.043198599805452 -0.019834340839134 -0.1615843 -0.4265665 0.8899053 66 66 66
0.00349918954867584 0.0425971063327089 -0.0175285753888158 0.1759405 -0.2337078 0.956256 103 103 103
-0.0142089494212412 -0.0465123311038791 -0.00628872939148006 0.01155406 0.7050024 0.7091108 107 107 107
0.00170210708304902 -0.04647524966309 0.0124497927249731 -0.02737153 0.9855703 -0.1670393 37 37 37
0.0175865744171757 -0.010726527051268 -0.00613815796921349 0.2239633 0.07487062 0.9717175 168 168 168
-0.00645716204974656 -0.0470125915998687 0.00819577197171253 -0.08319885 0.9844945 -0.1544298 54 54 54
0.0220417846216431 0.0393099581797407 -0.0123793724327441 0.2423208 -0.2116787 0.9468225 115 115 115
0.0200761181476713 0.0471967387992516 0.00287699441714537 0.1355881 -0.9736075 -0.1835869 103 103 103
-0.0173148546906101 -0.00478126683023494 -0.0181749916637007 0.1313489 0.02558022 0.9910061 93 93 93
-0.00912559466490576 -0.0188554599846911 -0.0135473294548435 0.250298 0.1096239 0.9619426 168 168 168
0.00287817270156404 0.0467673799975719 0.00320421966953643 0.04602763 -0.9936573 -0.1025994 13 13 13
0.00679117455870282 -0.0299755724294906 -0.0043077211602332 0.2822099 0.1642985 0.9451791 182 182 182
-0.0238546751575399 -0.0348234025275664 -0.0125332364040241 0.08954151 0.3352599 0.9378609 113 113 113
0.0192478044780423 -0.0314512411905741 0.000713493521768915 0.249535 0.1082119 0.9623006 83 83 83
0.0220521241384655 0.00110837166984412 -0.00741520965643669 0.2389906 0.1175132 0.9638849 93 93 93
-0.0158402578258263 -0.046227113292503 -0.000568580002878738 -0.09013223 0.9948346 -0.04669419 43 43 43
-0.00883292308577271 0.0460911140594302 -0.00315063627520459 -0.07579897 -0.995086 -0.06370556 26 26 26
-0.0182944401907479 -0.044739644909416 0.013168371725719 0.03860379 0.9974785 -0.05955048 60 60 60
0.0378580047602093 0.0314237338800987 -0.00743373709002099 0.2224307 -0.05221216 0.9735494 48 48 48
0.0404610864229573 -0.0316057984297933 0.00950282905132074 0.2815532 0.2104331 0.9361868 107 107 107
0.0350415009471578 0.00584211337149831 -0.00377792163770768 0.2684356 0.132525 0.9541381 62 62 62
0.0206750167245245 0.00110006140638585 -0.00818779718383397 0.2093267 0.09565924 0.9731555 199 199 199
0.0063438884398983 0.023204939305056 -0.0169899078681402 0.1769231 -0.03188331 0.9837081 74 74 74
0.0268571917137659 0.0269268736084927 -0.0105763573164939 0.2448791 -0.05457234 0.9680166 118 118 118
0.0173849932326821 0.018621745556004 -0.0128423199408029 0.1928719 0.1038783 0.9757099 102 102 102
0.0441998065673085 -0.0212979246571394 0.00674261885700131 0.2914768 0.1551963 0.9439043 63 63 63
0.00908430835847063 0.0443475026733324 -0.0154233022467989 0.08662629 -0.6733534 0.7342282 107 107 107
-0.0071666544860281 -0.0438055620403472 -0.00557606857367701 0.2772695 0.2901617 0.91593 109 109 109
0.00156004786371733 -0.0130134272290299 -0.0110868307473567 0.2670192 0.1775344 0.9471971 220 220 220
-0.0119258253212324 0.0285479273169409 -0.0213352377457959 0.1028405 -0.2782421 0.9549896 172 172 172
0.0423666474989711 -0.00892256065229868 0.0139712671522756 0.6879991 0.7223234 -0.07004357 46 46 46
-0.0228551185603322 -0.0380324540752854 -0.0104847952097157 -0.07447583 0.3410381 0.9370946 55 55 55
0.047039432240905 0.0203774432972463 -0.00196609293982172 0.309035 -0.06536726 0.9488016 62 62 62
0.0160898393796137 -0.0337021332816612 0.000224639425420919 0.2353652 0.1176674 0.9647578 59 59 59
0.0141732317526355 -0.0451756045477043 0.00381999356272714 0.3834712 0.702308 0.5997611 59 59 59
-0.0174002608101082 0.0461333982432528 0.000202900675408985 -0.1793454 -0.9657444 -0.1875447 33 33 33
-0.00717559364618836 -0.0484472415980379 0.00516282541914684 -0.1366278 0.9856921 -0.09871083 13 13 13
0.00533131808079995 -0.045867386930796 0.0163925271168741 0.0625849 0.9834064 -0.1702795 48 48 48
0.0221712905799043 0.015836600259163 -0.0100061188006138 0.218055 0.1021287 0.9705781 56 56 56
-0.0167495555587203 -0.0444869711472138 -0.00805679834118769 -0.1017358 0.4159935 0.9036588 83 83 83
-0.0135215186248714 0.0409886455125634 -0.0196503281540057 -0.09584665 -0.2761803 0.9563147 85 85 85
0.00117539416558082 -0.00920139499805384 -0.0126572479651643 0.2490875 0.08994006 0.9642957 192 192 192
-0.00192198005452732 -0.0015119032405535 -0.0143842852465658 0.2486479 0.02424735 0.9682904 151 151 151
0.0158589249804241 0.0469503780151856 -0.011814554495137 0.1798772 -0.8890134 0.4210695 46 46 46
0.011127884180651 -0.0282705530490091 -0.00323001336752043 0.2535326 0.1640998 0.9533061 195 195 195
-0.00689573637070545 -0.00229774852821296 -0.0160378795347596 0.2120683 0.02235994 0.976999 196 196 196
-0.0152572857897891 0.0350608011936959 -0.0204494201969911 0.03584734 -0.3734089 0.926974 61 61 61
-0.00763125845202073 -0.020905009532167 -0.0117451148086417 0.2229166 0.07377023 0.9720423 85 85 85
0.0153986977917644 0.0463398090757361 -0.000112413224255481 -0.05981392 -0.996484 -0.05866722 25 25 25
0.00227313908369214 -0.000983426977539503 -0.0127920980360469 0.2072538 -0.01802935 0.978121 35 35 35
-0.0118237984393744 -0.0474070660482526 0.00412882451397534 -0.287717 0.9564041 0.05009985 29 29 29
0.00139440614620917 -0.0308183072405426 -0.00695286918490096 0.3698066 0.1054038 0.9231105 227 227 227
-0.00177894112963833 0.00857546923612795 -0.0165460821116999 0.1682415 0.01773141 0.9855863 120 120 120
0.0447921406132771 0.00210195614600139 0.00117053935676276 0.3232956 0.05819187 0.9445071 90 90 90
0.00269090451935111 0.0260221633457571 -0.017980308093656 0.2018218 -0.08483436 0.9757413 113 113 113
0.0278902069588216 0.0409114175453194 -0.0105727909159761 0.2117089 -0.2403806 0.9473101 82 82 82
0.0248044165326127 -0.0278078827144783 0.00190965546708072 0.315156 0.09806687 0.9439595 124 124 124
-0.024472848988241 -0.0443640910075829 0.00148835611571146 -0.3299443 0.9440001 -0.0007038692 38 38 38
0.00780042589325775 -0.0477661269836227 0.00663893660202519 0.3107739 0.950149 0.02522747 36 36 36
-0.00939859069306459 0.0137851763556349 -0.0198821402543143 0.2209091 0.1241921 0.9673549 107 107 107
-0.0141848033925593 -0.030635823292267 -0.0115943848662445 0.09096515 0.1190963 0.9887069 122 122 122
-0.00156889084106143 0.00305378985480975 -0.0155589277786407 0.2355361 0.06046753 0.9699827 75 75 75
0.00126086228125827 0.0253452765613134 -0.018257292695556 0.1990172 -0.08028831 0.9767016 123 123 123
-0.0193987230797663 0.0101879625492731 -0.0215715139078314 0.1609454 0.1458443 0.976128 150 150 150
-0.0165813433693391 -3.05672665554813E-05 -0.0189370081870725 0.2100107 0.0008958061 0.9776987 58 58 58
0.0007391049160963 0.0473086527243254 0.00295068775306023 0.04131829 -0.9945846 -0.09536419 23 23 23
0.0283522105562007 0.00495904261595381 -0.00619883411932301 0.2420422 0.1440629 0.959511 88 88 88
0.00609049067852274 -0.0152388406563699 -0.0084568904688668 0.264992 0.1268422 0.9558715 186 186 186
-0.0135541508099201 0.0223175824602344 -0.02249178692544 0.1355832 -0.1643452 0.9770404 212 212 212
0.0165940337113705 0.0435935240674119 -0.0139187725893113 0.2122721 -0.5119851 0.8323532 111 111 111
-0.0225579149310492 -0.0421006743354637 -0.0077111156363309 -0.304682 0.5055557 0.8072065 31 31 31
0.00960169231782765 -0.0417736133634918 -0.000706793679973922 0.3270253 0.1493937 0.9331324 127 127 127
0.0120066526305894 -0.0461509383268737 0.00543681360174583 0.4489103 0.8461993 0.2870999 46 46 46
0.0278230603126312 0.0436900541721941 0.00030374293193719 0.5995401 -0.6494783 -0.4676853 15 15 15
-0.0154894188902751 0.0262372590579603 -0.0223397141729883 0.1480414 -0.2432368 0.9586029 203 203 203
-7.60282548599722E-05 0.00243165908160248 -0.014524410442029 0.2447235 0.08791643 0.9655988 67 67 67
0.019709906121158 -0.0167563640592943 -0.00330884025715331 0.266251 0.1254961 0.9556993 139 139 139
0.0287592903351285 -0.0133586971096404 -0.00142832218273592 0.255968 0.1916204 0.947503 124 124 124
-0.00581944908498166 -0.00287485295442402 -0.0151909787895161 0.2215783 0.0310881 0.9746469 203 203 203
0.047397745053653 0.00460323307558852 0.00181172445202113 0.287733 0.1386494 0.9476212 85 85 85
0.0382851548855012 -0.0173519625066785 0.0034406843067811 0.1936611 0.05287305 0.9796427 61 61 61
0.0319032539842838 0.0420517562058935 -0.00916195776526249 0.2981868 -0.4220653 0.8561224 93 93 93
-0.00441905590153457 -0.0212371801962365 -0.0112141186386514 0.2352514 0.06621297 0.9696766 117 117 117
0.0434275873144287 -1.03483175293295E-05 0.000846267819988117 0.3001342 0.03059401 0.9534063 57 57 57
0.0038875228573097 -0.0462496985194172 -0.00145052734087059 0.2617584 0.3668662 0.8926879 127 127 127
0.0108689947536112 0.0208151454224701 -0.0153987143590688 0.2300492 0.07349711 0.9703997 125 125 125
0.0315095657088523 0.0319641709404848 -0.00903212881318205 0.2454971 -0.07310283 0.966637 101 101 101
-0.00966746143725977 -0.0482457534549137 0.00607012851873884 -0.2135459 0.9756153 -0.05072476 31 31 31
0.0247190645855812 -0.0219335360913311 0.000283963009603261 0.2711293 0.1397175 0.9523486 179 179 179
0.0332746334469393 0.00587803240744189 -0.00469225147014962 0.2886634 0.1186041 0.9500561 66 66 66
-0.000742231837367102 0.0469754834389444 0.000709784480785347 0.0401722 -0.9929669 -0.1113688 21 21 21
0.0161676308752414 0.0283528002013 -0.0141762370038445 0.2290433 -0.03170986 0.9728996 36 36 36
0.00489016515213164 0.0432208830670322 -0.0170642721682589 0.2722734 -0.5088466 0.8166654 86 86 86
-0.0174420752640136 -0.0477391799761362 -0.00532184971770683 -0.1828384 0.8895293 0.4186976 58 58 58
-0.00410851821059371 -0.00881532901193793 -0.0141984934128486 0.1721997 0.01407404 0.9849615 101 101 101
-0.014223707750438 0.0465259160366125 -0.00269313015320666 -0.05058771 -0.9791877 -0.1965509 35 35 35
0.00945179462139223 0.0463482647208657 -0.00600709740983579 0.01860647 -0.985109 -0.1709213 15 15 15
0.0144482944121864 0.017234422511285 -0.0124897671278349 0.2029648 0.1484311 0.9678706 131 131 131
0.00740270397644543 0.00697365483222412 -0.0136335381361896 0.2110845 0.06611349 0.9752294 156 156 156
0.020349388971924 0.0189118860014259 -0.0119534316009279 0.2342707 0.1130311 0.9655782 79 79 79
0.0239747902162108 -0.0102909085006238 -0.00381336381343772 0.2199767 0.1397384 0.9654447 77 77 77
0.00932206223125032 0.010835512478466 -0.0132295898042573 0.2564024 -0.01087554 0.9665089 103 103 103
0.0362263302363605 0.0403048008478795 -0.00786434207382888 0.3429075 -0.3287661 0.8799587 58 58 58
0.027473126982658 0.0140742787240937 -0.00830787205806224 0.2036623 0.04543248 0.9779865 57 57 57
-0.0196337130009326 -0.0457178816233283 0.000237260365513414 -0.168735 0.9854602 -0.01991853 45 45 45
0.04671420555873 -0.0130205964226833 0.00491199549815396 0.2199533 0.062463 0.9735085 72 72 72
0.0199445044922254 -0.0436233071611716 0.00497825520754289 0.3150117 0.7165808 0.6223179 67 67 67
0.0193000175599876 0.00172655928460785 -0.00839981751006169 0.1919836 0.07699077 0.9783735 181 181 181
0.0296394906739491 -0.00364914199974065 -0.00371343411259017 0.2350736 -0.03466668 0.9713591 125 125 125
0.0337029710615488 0.0220048493135498 -0.00691452283978677 0.2722963 -0.006395196 0.9621922 97 97 97
0.0103365969517267 0.0240538968751403 -0.0162529289379572 0.2156705 -0.03449165 0.9758568 212 212 212
-0.00761413986553827 0.0243111847236346 -0.0209675016604043 0.1623836 -0.1550755 0.9744656 90 90 90
0.0402211028067172 -0.00787608895452241 0.00126616795793774 0.2773584 0.1636449 0.9467273 95 95 95
-0.0175228921056467 0.00417679244424796 -0.0200641219269944 0.2179794 0.03677502 0.9752603 175 175 175
0.00980112013823342 0.0262679712246341 -0.0161333509127158 0.2080118 -0.0806279 0.9747975 191 191 191
0.0141605327501557 -0.00253006735156114 -0.00893999893670108 0.2406292 0.1093294 0.96444 80 80 80
-0.0214225252626141 -0.0460864729963868 -0.00386428301654448 -0.3542685 0.9046344 0.2369187 40 40 40
0.0184961677789749 -0.0438578014727589 0.00558276897944973 0.3413503 0.7322791 0.5892769 47 47 47
0.00307325316686202 0.0473931102758351 -0.00944642093988224 0.02632502 -0.9902355 -0.1368962 14 14 14
-2.3490452421504E-05 -0.0491828598071897 0.00408536608583465 -0.01993373 0.9993612 -0.02966292 47 47 47
0.0515850726099532 -0.014996760813125 0.010162576813654 0.6689463 0.2760263 0.6901596 58 58 58
-0.0118399225268905 -0.0191619693652612 -0.0141275064132871 0.2394109 0.1266945 0.9626167 186 186 186
0.0175637087315616 -0.0442596959898971 0.00624550188198883 0.4340886 0.8155896 0.3825973 48 48 48
0.00944995132425902 0.022897907243506 -0.0164542170785314 0.1911438 -0.01001946 0.9815109 96 96 96
0.0142716118063249 0.0233224170763118 -0.0143836711624357 0.2634533 -0.05312365 0.9632083 191 191 191
0.0544539444210184 -0.00154008784736659 0.00481265208785708 0.4258328 0.1281375 0.8956825 107 107 107
0.00344087270234311 -0.00353651328069504 -0.0129713576209931 0.2367864 -0.02739193 0.9711755 90 90 90
0.0380786720177353 0.0364497321485719 -0.00714528829533786 0.2747128 -0.1663188 0.9470327 56 56 56
0.0386961727558547 -0.0216818759192301 0.00457490805366798 0.2470981 0.1747382 0.953105 105 105 105
0.027959903844704 -0.036802038496353 0.00568739554549025 0.3678412 0.2755684 0.8881187 93 93 93
-0.0116332916572685 -0.0467415580988468 0.0079170652620692 -0.1952042 0.9668411 -0.1646621 29 29 29
0.0229123634505713 0.0466928930942407 -0.00259011619043853 0.07508717 -0.9800945 -0.1837844 39 39 39
0.00211150638737517 -0.0293173109847937 -0.00663012138677999 0.3648613 0.101344 0.9255299 218 218 218
0.016298892399084 0.041393196912014 -0.0141946666823027 0.2012895 -0.3473858 0.9158633 107 107 107
0.0182568749169175 0.0289647979152667 -0.0133691463659638 0.2259344 -0.03207543 0.9736143 97 97 97
0.0248740327626286 0.0210491122212098 -0.0108944931607864 0.2831786 0.03415823 0.9584587 92 92 92
0.0036761008916989 -0.0232315607412181 -0.00733983157538243 0.2895859 0.06899498 0.9546621 174 174 174
0.018668369365794 0.0463083996723062 0.00259523499651768 -0.03455553 -0.9968527 -0.07134888 107 107 107
0.0133735044584832 -0.0108026167779152 -0.00721601093627242 0.2057178 0.06294126 0.9765851 217 217 217
-0.0132995575735391 -0.047697825837195 -0.00472840137770827 0.05261387 0.9010612 0.4304887 28 28 28
0.0348716630312042 0.0445804087226447 -0.00463200897723884 0.4320074 -0.6693454 0.6044388 29 29 29
0.0144414063666347 -0.0393859168755633 0.00113470368347168 0.2711905 0.1352411 0.9529772 186 186 186
0.000951431694029004 -0.0180176385167252 -0.00963797599944136 0.2942784 0.08083682 0.9522949 160 160 160
0.0306877560580965 -0.0103961801714658 -0.00155278281375151 0.2878799 0.1665192 0.9430782 94 94 94
0.0352764618829217 0.00969538332085951 -0.00450554407907414 0.2081138 0.05921844 0.9763103 77 77 77
-0.0205174159753252 -0.045568273688612 -0.00619729433911448 -0.3261394 0.7159082 0.6173398 41 41 41
0.03322371766474 -0.0398142079547095 0.0151307600475956 0.1933988 0.9058537 0.3768634 41 41 41
0.0068248953640192 0.0414245633505037 -0.0163756684997156 0.2129073 -0.2994914 0.9300405 83 83 83
0.017468322016076 -0.00633995011937216 -0.00678299051437092 0.227946 0.06486506 0.9715108 199 199 199
-0.00746063788146206 -0.0322009242970756 -0.00955747875934398 0.1569017 0.1977762 0.9676086 101 101 101
0.00707331146936829 0.0132155680925519 -0.0147979317135838 0.2339105 0.01728235 0.9721045 104 104 104
0.0121871310270679 -0.029177963419017 -0.00274793717823732 0.2569289 0.1617234 0.9528028 183 183 183
0.0221087360253212 -0.0408907992216241 0.00422670920234355 0.3222806 0.4658218 0.8241027 77 77 77
-0.00497150037292188 -0.0326181932862948 -0.00908075039892625 0.1699115 0.1930356 0.9663681 157 157 157
-0.00280453157482186 -0.0462042763912125 0.0121459924735189 -0.01351566 0.983095 -0.1825966 44 44 44
0.0325352364787479 -0.00991491591273963 -0.000961592849383325 0.2962076 0.1673814 0.9403427 90 90 90
0.0237566362247489 0.0153754551540182 -0.00945808045150512 0.2163597 0.09439131 0.9717401 69 69 69
-0.0209842578919638 0.0220838592927501 -0.0239101633266149 0.1247555 -0.07544792 0.9893147 128 128 128
-0.00975592370307082 0.00843501032905603 -0.0188425548923636 0.2094284 0.09146111 0.9735371 81 81 81
0.0322346723801453 -0.0178214555999607 0.00183933643170986 0.2493884 0.1123154 0.9618683 68 68 68
0.0361069865891981 0.0336178559468068 -0.00777415907182047 0.2402292 -0.07388917 0.9679 41 41 41
-0.00542648316074335 0.0263803600678727 -0.020217909000038 0.1250139 -0.1306433 0.9835161 124 124 124
0.0353576229079856 0.0111340815180114 -0.00483286896566187 0.1984006 0.06025214 0.9782673 63 63 63
-0.0231191336849316 -8.19296440308648E-05 -0.021101613676711 0.1663439 0.03623218 0.9854019 102 102 102
-0.0227948627169106 0.00300021405615936 -0.0209344379033503 0.1551393 -0.003076184 0.9878878 112 112 112
0.00200445721921833 0.00683725443751348 -0.0151246682315378 0.181571 0.05425091 0.9818802 74 74 74
0.0211559660411749 -0.00669428705550446 -0.00564113019113618 0.2115984 0.05014188 0.9760696 84 84 84
-0.0204423970227562 0.0456745670275436 -0.00468865732832824 -0.1998151 -0.9486242 -0.2453284 32 32 32
-0.0183490464505561 -0.00953784025921389 -0.0176683355922794 0.1242414 0.02914578 0.9918239 130 130 130
-0.0051680938172125 -0.0309435799813536 -0.00973871675165597 0.197576 0.1610941 0.9669604 174 174 174
0.047174154294493 0.0061755306704232 0.00119482401184409 0.2990121 0.1832725 0.9364843 86 86 86
0.0231989284470558 -0.0420412732661113 0.00614719618866461 0.3513813 0.7247307 0.5927027 64 64 64
-0.00391783618770997 -0.0132837845579472 -0.0130980730833998 0.2132653 0.1428622 0.9664928 152 152 152
-0.022748818514621 -0.0441217317752356 0.00562250155523686 -0.3140176 0.9322371 0.179797 61 61 61
0.026690096782355 0.033276894877269 -0.0109294276104652 0.2456141 -0.09887656 0.9643117 105 105 105
-0.0159903781979679 -0.0443235553427546 0.0125252877416758 -0.03308826 0.9932762 -0.1109393 57 57 57
0.00123486940191064 0.0200951103180675 -0.0182754662511203 0.2491292 0.01032225 0.9684153 117 117 117
0.00882457972725909 -0.0318675098140684 -0.00288460318239336 0.2565492 0.1537067 0.954231 174 174 174
0.0404363017917417 -0.0229484154497979 0.00578492294169694 0.2466376 0.2086613 0.9463775 88 88 88
-0.00313044848082772 0.0452498207503247 -0.0181620696306823 0.02095977 -0.676011 0.7365934 109 109 109
0.0315608430070066 0.00578118096151736 -0.00544403969471036 0.2717144 0.1459824 0.9512415 73 73 73
-0.0127214147558549 0.0461683939617965 -0.00370138704934483 -0.0005562418 -0.9888189 -0.1491206 36 36 36
0.0134273598940183 0.00338446731725806 -0.0101579099997158 0.2591729 0.05548116 0.9642361 72 72 72
0.00424771474942365 0.0147880145608834 -0.0157610914105612 0.2276465 0.05811083 0.9720083 84 84 84
0.0390923193026505 -0.00193331199717273 -0.000626162855866363 0.2428132 0.05548015 0.9684852 120 120 120
-0.00226171680974435 -0.00336304588387937 -0.0144730821286276 0.215087 -0.01453842 0.9764867 204 204 204
0.0315051880364926 0.046202975522682 -0.00827657909833646 0.1958221 -0.6801828 0.7064029 84 84 84
0.0297382968705453 0.0298740419982164 -0.00973551242616408 0.2399072 -0.05450714 0.9692644 98 98 98
-0.00356733731126818 0.0320650998978118 -0.0200787550829284 0.08672458 -0.1953318 0.9768953 198 198 198
0.0179467475553199 -0.00377562963231992 -0.00724848709480552 0.2351701 0.1100083 0.9657086 179 179 179
-0.0139029841525146 0.0123087686506769 -0.020867358922468 0.2315075 0.165467 0.9586579 118 118 118
0.0362935415924461 -0.0236177280802952 0.00429090866209272 0.2101158 0.2035039 0.9562622 81 81 81
0.00741988008326749 0.0148034711152898 -0.0149882391881837 0.2582932 0.05374221 0.9645706 76 76 76
0.0152799857188571 0.024897842959575 -0.0142354358459661 0.2456846 -0.06972063 0.9668393 117 117 117
0.00826823942481109 -0.0481299283928494 0.00325048186009877 0.4050606 0.8374155 0.3669622 71 71 71
0.00418699046956145 0.0108668778096017 -0.0151025101765529 0.1771514 0.0323096 0.9836531 82 82 82
0.0498976444626126 -0.0168595177145803 0.00713167386379718 0.5221061 0.2093743 0.8267815 151 151 151
0.0435504027215864 0.0296042953235762 -0.00477551253315731 0.273982 0.01016373 0.9616811 76 76 76
0.039943215670101 0.0199700204300628 -0.0046261227582319 0.2618667 -0.02856907 0.9646811 41 41 41
-0.00298588547446066 -0.0264514535403295 -0.00932022797992152 0.2891113 0.03612201 0.9566137 110 110 110
-0.0106443335314502 -0.0233594190336808 -0.0132832708026355 0.1582395 0.07138152 0.9848172 85 85 85
-0.017286424877223 -0.00144690844341455 -0.0189875998359027 0.1899223 0.007061384 0.9817737 72 72 72
0.00796153648463926 -0.00620569229642132 -0.0101614513026885 0.2996627 0.09898714 0.9488961 53 53 53
0.0474232347116463 0.0101859265739059 -0.000327474432373409 0.2844653 0.1443253 0.9477603 98 98 98
0.0348011017548195 -0.00234457187959403 -0.00179906076822839 0.2371961 0.02525559 0.9711334 111 111 111
0.0453862028118823 0.0239216472690393 -0.00320955967372885 0.3007006 -0.02005344 0.9535077 77 77 77
0.0342829630860145 -0.0140640084670536 0.00170811433640125 0.2941824 0.1493111 0.9440143 58 58 58
0.0376853743600497 -0.030261832982126 0.00784242596165322 0.2227335 0.1940985 0.9553615 91 91 91
0.043285202711984 -0.0132655664399202 0.00444154924101078 0.1857123 0.04797692 0.9814322 61 61 61
0.0232862670890203 0.00113855028285714 -0.00694710495045264 0.2503894 0.1367071 0.9584447 75 75 75
0.0226381286656254 -0.0198089975788331 -0.00137974094143775 0.302117 0.1248974 0.9450534 189 189 189
0.00736958013362105 -0.0261088958005324 -0.00519568196925255 0.2525986 0.1316151 0.9585778 187 187 187
0.00315968631605734 0.0366439154050973 -0.0176936105935734 0.1822232 -0.1954451 0.9636368 99 99 99
0.0116321459368512 -0.0066452819430658 -0.00868653536050532 0.2357137 0.1029873 0.9663502 74 74 74
0.0181610225458341 0.031080956278684 -0.0139933752414999 0.2230321 -0.0406821 0.9739618 116 116 116
0.0180752560261314 0.02523550988407 -0.0133394117496653 0.2128102 -0.0759709 0.9741356 70 70 70
0.00565084903331459 -0.0103005741353428 -0.0104875456196219 0.3163512 0.1126263 0.9419327 135 135 135
-0.0217945831991497 -0.044763344389364 -0.00464640119077425 -0.3678724 0.8078657 0.4604594 34 34 34
-0.00253388286944239 -0.0327156772249226 -0.00824611585309537 0.2801885 0.1484284 0.9484004 215 215 215
8.83673226359516E-06 -0.00713743261885758 -0.0132050736204877 0.2051637 -0.002733425 0.9787239 208 208 208
-0.00201592547097901 -0.00598041514298009 -0.0140937368798969 0.1733205 -0.0349815 0.984244 228 228 228
0.00317989818506426 0.0471943776945856 -0.0118162240904529 0.02324071 -0.9970441 0.07323161 11 11 11
0.00980576519877047 0.00266343113516587 -0.0115587622127404 0.2306858 0.06656469 0.9707488 73 73 73
0.0112451684536351 -0.0378421364900206 -0.000302335554789646 0.2767421 0.1074668 0.9549161 91 91 91
0.0506222566346914 -0.00359516936784576 0.0042743056941052 0.4078475 0.09995402 0.9075624 124 124 124
0.0266360091432552 0.0412316822591672 -0.0108851319067002 0.2230405 -0.2463673 0.9431628 79 79 79
0.0115144583492631 0.0465351992333805 0.00175098402918938 0.001621188 -0.9974181 -0.07179485 55 55 55
0.0507954630702699 -0.00727782676935762 0.00526687160086894 0.2936814 0.08645285 0.9519859 75 75 75
-0.00546409580262958 -0.0492012584417636 0.0025576740925834 -0.1441254 0.9863075 0.08015846 26 26 26
-0.0120415955050197 -0.0391724759507353 -0.00861106301110201 0.1317653 0.1006431 0.9861587 63 63 63
0.0193509327721821 0.0461407171538286 -0.00510374260807492 -0.03061601 -0.9889243 -0.1452287 28 28 28
0.0312385259408343 0.0199749813289407 -0.00783606068399076 0.2775314 -0.01990301 0.9605104 70 70 70
0.0527863902132762 -0.0096673510507399 0.00634404013348602 0.4526174 0.1515251 0.8787364 121 121 121
-0.0102813361002538 0.0465967664782496 -0.0176071030199141 -0.02449799 -0.9119462 0.4095777 94 94 94
-0.0197597089977559 -0.00489384523302006 -0.0190276719028388 0.1742013 0.03960235 0.9839134 95 95 95
0.0089637721296057 0.0328959406332159 -0.0166166781061881 0.1588185 -0.1846336 0.9698903 109 109 109
-0.0188395803855964 0.0367741493222318 -0.0204356386962072 -0.01829509 -0.4358374 0.8998395 95 95 95
0.037698971625478 0.036071213038041 -0.00757886803534424 0.2747128 -0.1663188 0.9470327 64 64 64
0.0202827258972231 -0.0371371703933234 0.00241575217944828 0.2520857 0.1417013 0.957274 109 109 109
-0.0135450063636253 0.0362502681648689 -0.0200762276118096 -0.001055767 -0.305355 0.952238 76 76 76
0.0137486060253112 0.0463494552394095 -0.00456200842722601 0.02195976 -0.9832225 -0.1810836 22 22 22
0.0153470656130918 0.0465696417700106 -0.00713052323836977 0.0355424 -0.9883083 -0.1482684 22 22 22
-0.00494635138768573 -0.0277533092989652 -0.0101687193301343 0.2374477 0.040829 0.9705419 131 131 131
0.0409955151401183 -0.0366257220957211 0.0115872212613282 0.3459917 0.3832818 0.8563789 115 115 115
-0.0199272819115365 -0.0167539064392601 -0.017140317009558 0.1245497 0.0620281 0.9902726 110 110 110
0.0481093421816779 0.0233991554011881 -0.00136578161761189 0.3899197 -0.02960107 0.920373 56 56 56
0.019055725856524 -0.00592507544490561 -0.00634114070718045 0.2143287 0.05888975 0.9749847 184 184 184
0.011713397398448 -0.00477198969287196 -0.00926112672699347 0.233006 0.114401 0.9657229 59 59 59
-0.0199642962219554 0.0127647255280121 -0.0233290771371227 0.11453 0.1139484 0.986863 222 222 222
0.00881775076017843 -0.0419509612324209 -0.000154196436171344 0.3392077 0.1443552 0.9295697 148 148 148
0.0354022018382733 0.0295257065149535 -0.00776725403585332 0.2393506 -0.0330399 0.9703709 45 45 45
0.054146175177859 -0.00369573833566306 0.00532629001532386 0.3926013 0.05123416 0.9182806 128 128 128
0.0302168419977584 0.0376973039715913 -0.00990264768214166 0.2094437 -0.1486897 0.9664495 89 89 89
-0.0215673387980524 0.0390954059229518 -0.0197101281140035 -0.1858538 -0.4678748 0.8640321 89 89 89
-0.00906086679581319 0.0155193571826511 -0.0203682518356997 0.2036261 0.09174237 0.9747409 80 80 80
0.0232168571331797 -0.0421686190999147 0.00701875712046127 0.3351247 0.8572351 0.3909467 58 58 58
0.0286849781924063 0.039282158870444 0.00127130000464834 0.688639 -0.4955651 -0.5293312 26 26 26
0.0105677305295276 0.0243182370731865 -0.0159753433688631 0.2198427 -0.04590799 0.9744545 184 184 184
-0.0151083627277893 0.00912783163775011 -0.0200069670403321 0.2064767 0.1100226 0.9722461 193 193 193
0.046577220067815 0.000711651555973081 0.00202158961547599 0.2861347 0.02134728 0.9579516 92 92 92
-0.00603080219749158 -0.00920417457627809 -0.014442195016176 0.1850489 0.02039046 0.9825178 65 65 65
0.0395324280637834 0.027726200478243 -0.00636893218870574 0.2737102 0.02716392 0.9614286 50 50 50
0.0279903216584738 -0.0071179120937066 -0.00374870089397017 0.2344787 0.06081136 0.9702173 156 156 156
0.0210018449888429 0.00515172588500734 -0.00853675313502802 0.1959164 0.03940956 0.9798284 130 130 130
0.0361171913425026 -0.0332679708048462 0.00833100391594785 0.2470961 0.1884895 0.9504816 95 95 95
-0.0224126404958335 0.0461806415249859 -0.0113157407380523 -0.3122024 -0.9475329 -0.06863726 40 40 40
-0.0205278512188061 0.0466229217451504 -0.0107147113368543 -0.2294607 -0.9706808 -0.07160068 31 31 31
-0.0148296034561285 0.0474993128968093 -0.00836769350749769 -0.02366601 -0.9777222 -0.2085649 34 34 34
-0.0117840787519908 0.0469850237360558 -0.0101296512724514 0.04216603 -0.9843792 -0.1709374 32 32 32
-0.0092985903417161 0.0471126921113485 -0.0112143749893906 0.01519511 -0.9901326 -0.1393076 17 17 17
-0.00875331022414116 0.0467610024789851 -0.0100605546013474 0.01351163 -0.9841492 -0.1768269 34 34 34
-0.00296673805994696 0.047220746586258 -0.00987953562240251 -0.02992462 -0.9896598 -0.1402785 29 29 29
-0.00218357147532594 0.0467985778730868 -0.00936803773363543 -0.02787526 -0.9902968 -0.1361445 30 30 30
6.40629464950249E-05 0.0467532933178403 -0.0103717058872103 -0.002059241 -0.9938176 -0.1110056 20 20 20
0.00123406813413918 0.0467227101567056 -0.0111487896998501 0.004274998 -0.9999178 -0.01208858 23 23 23
0.00393846963405259 0.0467119343305806 -0.00865061760058605 0.01949993 -0.9884562 -0.150247 12 12 12
0.004999608800901 0.0467646096408052 -0.0104973329025517 0.03221925 -0.9992748 -0.02029236 24 24 24
0.00539723879083093 0.0468123070509872 -0.00702083340516835 0.0400136 -0.983408 -0.1769395 12 12 12
0.00998210916476228 0.0469401017733282 -0.00953153794656891 -0.003362209 -0.9971222 -0.07573716 18 18 18
0.0109057097499178 0.0465911440230464 -0.00958942531225415 0.02007319 -0.9997869 0.004812822 23 23 23
0.0084524007680577 0.0466345211046881 -0.00887619889114424 0.02769865 -0.9884842 -0.1487675 13 13 13
0.0118064332314379 0.0468202303355498 -0.00633695048794219 0.01904912 -0.979683 -0.1996457 21 21 21
0.0139080518458571 0.0469107223440388 -0.0064187861566061 0.02108241 -0.9769366 -0.2124862 32 32 32
-0.0189405672068052 0.0454521693279879 -0.00258847526220032 -0.2077651 -0.9509887 -0.2290286 21 21 21
-0.0147731572997603 0.0473412528346271 -0.000310042737987404 -0.0844898 -0.9833484 -0.1608959 23 23 23
-0.0228966817809111 0.045047484510663 0.00109133163348898 -0.2781167 -0.9377241 -0.2081459 49 49 49
-0.0194603225020527 0.0460027138009549 0.000881389361594043 -0.1969545 -0.9559706 -0.2175526 39 39 39
-0.0212828009974811 0.0457484902075747 -0.000446852288289556 -0.1974808 -0.9554498 -0.2193559 67 67 67
-0.0236050854593714 0.044042510841577 -0.00194302356509415 -0.3298621 -0.9207208 -0.208481 60 60 60
-0.020343425568321 0.0452004062293057 -0.00152360031321672 -0.1974808 -0.9554498 -0.2193559 57 57 57
-0.0148834517056521 0.0469461036680072 0.00152002309210914 -0.1111066 -0.9828123 -0.1474293 32 32 32
-0.021084940603122 0.0465407874979917 -0.0084791924657345 -0.2502075 -0.9505125 -0.1841799 27 27 27
-0.0210881721683788 0.0460033189787115 -0.00683564264873601 -0.2272535 -0.9443864 -0.2376768 32 32 32
-0.0166728599035655 0.0471047823018729 -0.00645551339632558 -0.09110048 -0.9756144 -0.1996929 48 48 48
-0.0123666208431948 0.0465446913528578 -0.00624937708780454 0.01238387 -0.9793755 -0.2016689 21 21 21
-0.0146470904204299 0.0471208067453073 -0.00728038129102571 -0.03132951 -0.9753661 -0.218356 34 34 34
-0.0176968591169225 0.0464040148250748 -0.00499819463437734 -0.167124 -0.9572113 -0.2362545 16 16 16
-0.0113901758473708 0.0471688295026091 0.000498414668471725 -0.09278435 -0.9945911 -0.04668668 20 20 20
-0.00788151024298311 0.0469487981756647 -0.00155228440046887 -0.07676835 -0.9947841 -0.0671652 27 27 27
-0.0128775348534813 0.046493611810811 -0.00264789268988563 -0.02957456 -0.9875306 -0.1546244 37 37 37
-0.00788117011769485 0.0468431869256092 -0.00238220876619433 -0.07402813 -0.9946206 -0.07245432 29 29 29
-0.00731125604364474 0.0466943180934636 -0.00369241440641069 -0.06829905 -0.9955776 -0.06450249 24 24 24
-0.00240410356096471 0.0477535694451634 0.00204495383408684 0.03585514 -0.9962139 -0.07919781 35 35 35
-0.0030469460432902 0.0470523578299735 -0.00293136374403191 -0.01633994 -0.9946083 -0.1024074 22 22 22
-0.00899242918404752 0.0463698553664877 -0.00752081207723757 0.0242273 -0.9839794 -0.1766285 33 33 33
-0.00444324616283925 0.0469330218082997 -0.00548550080568028 -0.05729976 -0.9894417 -0.1331234 23 23 23
-0.00484444844897358 0.0469040839611665 -0.00673407069409293 -0.06791981 -0.987403 -0.1429059 23 23 23
-0.00240550112560051 0.0472840126988572 -0.0053397782773115 -0.02529576 -0.9909182 -0.1320652 17 17 17
-0.0048853196441232 0.046342271152072 -0.00846849387167445 -0.0516298 -0.9878602 -0.1465149 40 40 40
-0.00106518598916788 0.0472195933893758 -0.00349791719429976 0.01084487 -0.9925787 -0.1211191 13 13 13
0.000436529664197771 0.0466393485532772 -0.0030572787815244 0.04731466 -0.9898035 -0.1343517 30 30 30
0.00385047176404146 0.0460512897568943 -0.00127657994363045 0.04062875 -0.9908602 -0.1286286 17 17 17
0.0082662157238978 0.046963226240027 0.000998149565986511 0.02581722 -0.994499 -0.1015147 23 23 23
0.0088316024401151 0.0468113279446982 1.4693706586022E-05 0.02419702 -0.9932688 -0.1132767 31 31 31
0.00208544337789185 0.0468425188148573 0.00278494530435766 0.04350838 -0.9944173 -0.09613219 21 21 21
0.00418978829710442 0.0469961800532042 0.0029475635956176 0.04672469 -0.9934695 -0.104092 21 21 21
0.0092887124968099 0.0461225265590719 0.00246647841257905 0.01908342 -0.9963476 -0.08323021 21 21 21
-0.000184739575468829 0.0472117194068287 -0.00684526802201069 0.0007787376 -0.9893135 -0.1458016 16 16 16
0.00375140137142471 0.0470041143635245 -0.00509339820245933 0.0591369 -0.9846393 -0.164281 16 16 16
0.00494001740744471 0.0467951331813061 -0.00432783697562439 0.03864423 -0.9872692 -0.1542923 13 13 13
0.00761973155522777 0.0466876187970289 -0.00609287076752468 0.009703179 -0.98473 -0.1738181 11 11 11
0.00923290318356734 0.0462722962507232 -0.00341486307058445 0.02439433 -0.9870756 -0.1583878 16 16 16
0.0120056123459285 0.0466621716057525 0.000300520989660685 0.02198251 -0.9957532 -0.08939921 67 67 67
0.0117230748603441 0.0462434164350456 0.0014421595580601 0.004561428 -0.9980849 -0.06169098 60 60 60
0.0146084652310609 0.0462627706633794 0.00106715570133922 -0.03130457 -0.9980406 -0.05417683 26 26 26
0.0166273149826476 0.0466764009502392 0.00198740071975534 -0.05476968 -0.997335 -0.04820058 65 65 65
0.0186957049415148 0.0476438567665638 0.00426549671815576 0.05474767 -0.9813893 -0.184059 93 93 93
0.0212419364107704 0.0469247856358987 0.000769156571274715 0.1368336 -0.9812185 -0.1359662 65 65 65
0.020433310214185 0.0462973392888504 0.00185984508771658 0.1258298 -0.9821153 -0.1400584 85 85 85
0.0108828597013959 0.0463456560438325 0.0037719753317903 -0.009842457 -0.9993544 -0.03455401 27 27 27
0.0145823210829167 0.0464469881396368 0.00357317238206128 -0.03452335 -0.9991558 -0.02226607 39 39 39
0.0158193542876661 0.0463473201404534 0.00363449206304256 -0.04231962 -0.9987671 -0.02594725 77 77 77
0.0111483417960162 0.0465635353799776 -0.00482478701883518 0.03606227 -0.9869333 -0.157042 13 13 13
0.0145917363485712 0.0458115365718856 -0.00258474799442651 -0.01329663 -0.991055 -0.1327905 26 26 26
0.0183207548082889 0.0461410563935065 -0.00503153764271583 -0.01395338 -0.9907439 -0.135025 22 22 22
0.0207146127478597 0.0467217946672314 -0.00363554836505672 -0.05327599 -0.9926237 -0.108903 29 29 29
0.0198767377478435 0.0466467126835373 -0.00407500153326631 -0.03359327 -0.9898698 -0.1379464 38 38 38
0.0203126196808717 0.0461667270330954 -0.00654574664059354 0.02712831 -0.997566 -0.06423408 28 28 28
0.00395698899611058 0.0327696587110495 0.00537074306623253 0.1856381 -0.2230844 0.9569597 37 37 37
0.0200636760677042 0.0319054416046585 0.00535007142955563 0.197028 -0.1590436 -0.9674116 46 46 46
-0.0112326200605388 0.0200169881077077 -0.0218082328128144 0.1822498 -0.08926832 0.9791916 82 82 82
0.0258311271439126 0.0471541218556437 -0.0064281207501084 -0.1094155 -0.9741048 0.1978585 28 28 28
0.0233165454615084 0.0462954414740238 -0.00477082857233507 0.0317418 -0.9845979 -0.1719284 20 20 20
0.0252553085798793 0.0464717457625914 -0.00537279125378648 0.01010009 -0.9930578 -0.1171927 32 32 32
0.0268957861121294 0.0466145531560682 -0.00478589498310061 0.03188067 -0.9798137 -0.1973544 28 28 28
0.0276574978121039 0.0463738618156546 -0.00848626172128736 0.003078092 -0.8208333 0.5711595 36 36 36
0.0295691382222336 0.0466641790874209 -0.00493667921126981 0.2743211 -0.9519748 -0.1359848 34 34 34
0.0293464321487644 0.0466773830101481 -0.00611630696822604 0.07541875 -0.9625635 0.2603526 32 32 32
0.031751242169631 0.0469016153725799 -0.00569139447187336 0.2869731 -0.9075083 0.3067168 25 25 25
0.0323099143359029 0.0470651558802928 -0.00657556786227517 0.1889425 -0.7347655 0.6514755 27 27 27
-0.0186268542190024 0.0268892534264686 -0.0235742864504385 0.2108077 -0.2369692 0.94837 74 74 74
0.0234797464729609 0.0467474837146109 0.00233108533201781 0.2683952 -0.9236059 -0.2737083 31 31 31
0.0246042677335115 0.046957997551677 0.000834403467348838 0.292993 -0.9002613 -0.3220009 42 42 42
0.0245007804902762 0.0454615557414195 0.00324333532307519 0.5116403 -0.7525895 -0.4145277 30 30 30
0.0253405359683375 0.0438073590180603 0.00573694395644636 0.529676 -0.6309105 -0.5669174 47 47 47
0.0261482914090946 0.0440229739396518 0.00108188445255361 0.5341299 -0.7398483 -0.4090597 20 20 20
0.0290102673850213 0.0396687996988461 0.00207770222857781 0.688639 -0.4955651 -0.5293312 10 10 10
0.0295019590821898 0.0368047766881408 0.00398426288609463 0.4021862 -0.2797769 -0.8717632 26 26 26
0.0308925803925742 0.0357010022620468 0.00314383670284862 0.8093922 -0.3334279 -0.4834357 25 25 25
0.0217416009620908 0.0292713787536989 0.00548354749352495 0.8706711 -0.3330916 0.361914 46 46 46
-0.00920327845882163 0.0208157366061179 -0.0210797037949222 0.1644035 -0.09193843 0.9820992 105 105 105
-0.0234087477190021 0.0447225919534311 -0.0172448373199615 -0.4163155 -0.6806772 0.6027935 105 105 105
-0.0196729824796376 0.0436807442641978 -0.0183095229039841 -0.2280731 -0.4691074 0.8531828 111 111 111
-0.0173121551481374 0.0444586303851457 -0.0181476766789566 -0.1634752 -0.5605198 0.8118457 81 81 81
-0.0218944547627942 0.0432841708788072 -0.0184626946807359 -0.3149293 -0.5031952 0.8047448 102 102 102
-0.0141452888592725 0.0471220361168549 -0.0143255862118741 -0.09372398 -0.9914523 0.09076484 20 20 20
-0.013803841249211 0.046669145989912 -0.0123980476217337 -0.07489283 -0.997017 -0.01866171 35 35 35
-0.0170046295981551 0.0463395513558964 -0.0175836759546253 -0.1479392 -0.8053297 0.5740715 78 78 78
-0.0152509893423672 0.0450179577911438 -0.0182665082906731 -0.1792217 -0.6845218 0.7066183 71 71 71
-0.0133846019007535 0.0464360523806706 -0.0168403667310992 -0.1276222 -0.9413005 0.3125155 77 77 77
-0.0130160286504709 0.0454217534226617 -0.0180000455692433 -0.1045128 -0.8169408 0.5671727 73 73 73
-0.0177676799554344 0.0428590623795326 -0.0193047051968379 -0.1588599 -0.4175762 0.8946472 88 88 88
-0.0198777600048526 0.0424623190565321 -0.0192323689086558 -0.1885982 -0.4448219 0.8755365 99 99 99
-0.0197477731731945 0.0410457107519691 -0.0196143446429262 -0.1642864 -0.4238386 0.8907137 93 93 93
-0.0230201870989422 0.0401658394155913 -0.0192256960118739 -0.3195089 -0.4848221 0.8141631 88 88 88
-0.0195770399758806 0.0388193325159654 -0.0198594651227277 -0.09598935 -0.4046389 0.9094247 75 75 75
-0.0179695618755705 0.0403095595958398 -0.0196162155246977 -0.1212563 -0.3521828 0.9280432 68 68 68
-0.0166286321836736 0.043914917739553 -0.0183727080422696 -0.1415363 -0.5238922 0.8399431 72 72 72
-0.0120010150988443 0.0452932663385468 -0.0185826612651664 -0.08762525 -0.7598096 0.6442136 106 106 106
-0.0117773729424283 0.0424389261793119 -0.0197752366390389 -0.09328353 -0.3357965 0.9373041 79 79 79
-0.0155442540805074 0.0390195772775759 -0.0196656420400112 -0.07171403 -0.286835 0.955292 75 75 75
-0.0170288579970505 0.0387351479704607 -0.0199535960712862 -0.07363315 -0.3285337 0.9416176 70 70 70
-0.0131206385495986 0.0389090383933903 -0.0197121142989274 -0.03996161 -0.1821978 0.9824495 91 91 91
-0.00800516250369304 0.0464968960549355 -0.01840701895766 -0.08188117 -0.7659682 0.6376427 119 119 119
-0.00235330303317938 0.0463447415195943 -0.0183040942796771 0.03677164 -0.7138116 0.6993718 113 113 113
-0.00651190685127173 0.0468788853805322 -0.0131641734895858 0.0452765 -0.9981384 -0.04086418 28 28 28
-0.011989059227742 0.0465453157849327 -0.0120938440220414 -0.002240649 -0.9977208 -0.06743924 41 41 41
-0.00778454395790446 0.0467442187593718 -0.0122719185122661 0.02217223 -0.9947462 -0.09994213 14 14 14
-0.0110928026868484 0.0465506452353253 -0.0178119729326369 -0.08966888 -0.8976564 0.431477 98 98 98
-0.0036251944742266 0.0468145436856813 -0.0124678773797796 -0.02439771 -0.9996839 -0.006072334 22 22 22
-0.00114828597422828 0.0465863795780548 -0.0123807500776669 -0.02701614 -0.9994894 0.01705766 29 29 29
-0.00495591874281831 0.0462376569596423 -0.0180128556637974 0.03193189 -0.8051106 0.5922645 116 116 116
-0.00209126420825678 0.0464306632107276 -0.0175849504011222 0.05707101 -0.7192305 0.6924236 105 105 105
-0.0111503371576891 0.0442985949035846 -0.0194538322486396 -0.1330936 -0.4614546 0.8771236 65 65 65
-0.00951370987788208 0.0427715999695637 -0.0199626618860566 -0.02694914 -0.3146859 0.9488132 89 89 89
-0.00771627802286246 0.0421650224230072 -0.0195096076358438 -0.02826045 -0.3040466 0.9522379 101 101 101
-0.00929173355449675 0.0411542581385484 -0.0197207951907487 -0.04843685 -0.2811455 0.958442 92 92 92
-0.0115111762843421 0.0383861188081549 -0.019545234611785 -0.05385304 -0.1834653 0.98155 87 87 87
