ply
format ascii 1.0
comment File exported by Rhinoceros Version 7.0
element vertex 468
property float x
property float y
property float z
property float nx
property float ny
property float nz
property uchar red
property uchar green
property uchar blue
end_header
0.0723946411988505 0.0261450762614794 -0.00509996726817563 -0.6117331 -0.1302754 0.7802634 186 186 186
0.0683841962961305 -0.0135066106659045 -0.0026398365173417 0.4572258 -0.886359 0.07288504 29 29 29
-0.0623494998663423 0.0251199814419845 0.003210978987091 -0.1502262 -0.4607063 0.8747467 66 66 66
-0.0195506143495316 -0.0367646566229425 -0.0184379069752807 -0.02529449 0.2127247 0.9767847 67 67 67
0.0690420508336858 -0.00160787487480407 -0.0101633390401198 -0.04316029 0.009401612 0.9990239 122 122 122
-0.0133315815802564 0.0314037738013999 -0.00267547696105824 0.0510855 0.2312866 0.9715435 188 188 188
0.000966029723315831 0.0434395116982664 0.0168166435455842 0.08852334 -0.8964483 0.4342168 9 9 9
0.0226543478453742 0.0534231179651705 0.0023464164480993 -0.2319037 0.1377054 0.9629423 84 84 84
-0.0217414619310279 0.0157111857508856 -0.00517384346931735 -0.1343696 0.1053155 0.985319 53 53 53
0.00872285384037164 -0.00503430750426981 -0.0138245788149856 -0.1273867 0.04888548 0.9906477 75 75 75
-0.0550802610456005 0.0432030657722231 0.00391798441365943 -0.0173327 0.2053633 0.9785323 124 124 124
-0.0252189163403924 0.0282019162001228 -0.00328560857096755 0.08023854 -0.03580882 0.9961323 56 56 56
0.0449589230042795 -0.015613283613533 -0.0146132638689783 -0.2609689 -0.1161649 0.9583324 135 135 135
0.0267521668225876 0.0677980318413536 0.0054681874091545 -0.1032876 0.08737794 0.9908061 83 83 83
0.0175214014426079 0.0439101893820846 0.00302552797669969 -0.05651892 0.2068843 0.9767315 149 149 149
-0.0585524301913203 0.0310214756655371 0.00430169288351101 -0.1201786 -0.04409748 0.9917724 91 91 91
0.0531669839544158 0.00449361866786924 -0.0094138347474528 -0.1453167 -0.03543185 0.9887505 102 102 102
-0.0134702278314127 0.0490530235787217 -0.00153263534979245 -0.07414977 0.05250004 0.9958642 44 44 44
-0.0791480249368997 -0.0246138484922895 -0.00545735714117956 0.0672605 0.318161 0.9456477 126 126 126
-0.077421323347707 -0.0283415229562904 -0.00692056803738816 0.1248589 0.348603 0.9289167 136 136 136
-0.0764768991581131 -0.0270854100136193 -0.00719286201801964 0.1250586 0.3369399 0.9331837 64 64 64
-0.0733202387286347 -0.0267669097704277 -0.00855790018195748 0.1288435 0.3007915 0.9449465 45 45 45
-0.076773574309192 -0.0319703197425238 -0.0063260424136497 0.139024 0.3531108 0.9251946 149 149 149
-0.0744033024031454 -0.0385770489479764 -0.00913053634325922 0.07871717 0.3376345 0.9379801 92 92 92
-0.0722594370484508 -0.0290591300244885 -0.00890617014657097 0.1475129 0.3006834 0.942247 66 66 66
-0.0708253716681977 -0.0292030012756006 -0.00899658623435329 0.1450769 0.2611239 0.9543411 83 83 83
-0.0788418348552331 -0.0235071393815138 -0.00593859185875883 0.01541034 0.3039251 0.9525713 108 108 108
-0.0764852712699937 -0.0219662553915121 -0.0059251828172143 0.03551096 0.3120568 0.9493995 123 123 123
-0.0779734118569524 -0.0210253618372653 -0.00593925302385923 0.03652033 0.3017556 0.9526856 72 72 72
-0.0759473401228916 -0.0194798344707805 -0.005934697513169 -0.01142931 0.2871032 0.9578315 68 68 68
-0.0748393578052506 -0.0213552210283281 -0.00505396504568048 0.02911273 0.3189756 0.9473157 72 72 72
-0.0754442306412073 -0.0145858427360224 -0.00471211058245305 -0.06379844 0.2043897 0.9768084 124 124 124
-0.0742243765141692 -0.0156926156475565 -0.00528814600506042 -0.06994902 0.1621153 0.9842895 128 128 128
-0.0753080117387994 -0.0179391993450393 -0.0037886364432605 -0.1543885 0.1405343 0.9779643 72 72 72
-0.0729388984513291 -0.0147034006872884 -0.00409917144568472 0.06613203 0.09316346 0.9934521 125 125 125
-0.0757596641862934 -0.0249806124580252 -0.00718457735780606 0.03172601 0.3616638 0.9317686 99 99 99
-0.0753608693122316 -0.0237454753554214 -0.00747281955366735 0.04587303 0.3658119 0.9295576 72 72 72
-0.0735810812074642 -0.0260702628169076 -0.0074593505815809 0.08605325 0.3501289 0.9327404 73 73 73
-0.0728940626843286 -0.0213324919624012 -0.00678980366306178 -0.01961021 0.3527046 0.9355292 116 116 116
-0.0721968762512961 -0.0207255581486021 -0.00731295898239881 0.004065742 0.3520486 0.9359729 109 109 109
-0.0716281019593992 -0.0214801013109704 -0.00811850777847709 0.009779029 0.3414817 0.9398376 77 77 77
-0.0736716100922739 -0.0171503416196168 -0.00569918370089917 -0.1297112 0.2381798 0.9625203 140 140 140
-0.0705112614796846 -0.0157291101495534 -0.00437736961075574 0.06537373 0.2952837 0.9531704 87 87 87
-0.0695919349327627 -0.0198497126294033 -0.00803262665416835 -0.03739816 0.2933918 0.9552605 68 68 68
-0.0694507500643151 -0.0201882111779055 -0.00854641125863059 0.02319608 0.23847 0.9708728 78 78 78
-0.0676863875834803 -0.0159152073020699 -0.00683819597453469 0.01252039 0.3657119 0.9306439 97 97 97
-0.0679778532769499 -0.0226225639038224 -0.006256506372364 -0.1257019 0.1909609 0.9735158 80 80 80
-0.0651726777261608 -0.0172406238394505 -0.00566104752642563 0.003137984 0.3277738 0.944751 94 94 94
0.0672485435324532 -0.0162167990599673 0.00853719915072637 0.4037837 -0.8905327 0.2095478 81 81 81
-0.0762710235886548 -0.0099304975920369 -0.00316167665517744 9.977853E-05 0.1814271 0.9834044 129 129 129
-0.0751810556750077 -0.00855811612474011 -0.0024991804908393 -0.02917414 0.2143683 0.9763171 93 93 93
-0.0733748632139921 -0.0077611800865065 -0.00419928950907614 -0.01018085 0.3194758 0.9475397 48 48 48
-0.0728640269186089 -0.00722745210048159 -0.00496379913161171 -0.03714036 0.3230482 0.9456534 90 90 90
-0.0746545606172797 -0.00467888927773807 -0.0027135394125738 -0.0309645 0.2412221 0.9699758 120 120 120
0.0105498624477525 0.0317781092175009 0.00304719972517872 0.9772657 0.1542895 0.1454181 98 98 98
-0.073689612808451 -0.00455339207028516 -0.00360554186033743 -0.01926342 0.2313636 0.9726766 106 106 106
-0.0724558010578147 -0.00171925538736328 -0.00348364340709792 -0.1111399 0.1748184 0.978308 89 89 89
-0.0715653423619194 -0.00480261668942794 -0.00426070548350693 -0.01726701 0.2749642 0.9612994 53 53 53
-0.0712229241137001 -0.0034634385774468 -0.00399354578767561 -0.1084602 0.2504933 0.9620236 67 67 67
-0.0697309782182813 -0.00209301364181269 -0.00365015586157061 -0.01692294 0.2554033 0.9666865 111 111 111
-0.0742800329716642 0.00207849973893803 -0.00254139226779176 -0.05679569 0.2072521 0.9766375 98 98 98
-0.0698216452580567 -0.000111619800048146 -0.00342411103035209 -0.05408999 0.2680056 0.9618977 95 95 95
-0.0696444143105337 0.00297077146198199 -0.00274233160312759 -0.08755983 0.1952908 0.9768289 114 114 114
-0.0686029080508384 0.00327069992194806 -0.00298731447447684 -0.05813374 0.2720042 0.9605385 103 103 103
-0.0682370714597407 0.00806640984361473 -0.00110722289699317 -0.09693161 0.2038742 0.9741866 82 82 82
-0.0656078081064904 0.00872581461238719 -0.00186162579036395 -0.1504282 0.1706923 0.9737738 89 89 89
-0.0719506422976652 -0.00892698669114145 -0.00314377833454374 -0.01868438 0.285444 0.9582133 34 34 34
-0.0731862004158546 -0.00896822577923428 -0.00471286385531447 0.0313138 0.2734672 0.9613715 129 129 129
-0.0718693645064707 -0.00819944542905193 -0.00481876980704163 -0.08030308 0.330581 0.9403551 74 74 74
-0.0728704636000661 -0.0130857942415743 -0.00308425403067483 0.05312149 0.1950702 0.9793497 141 141 141
-0.070639242161957 -0.0137193434754337 -0.00298542373045241 0.09576055 0.2329718 0.9677572 118 118 118
-0.0712970141748883 -0.0125287079097502 -0.00586030156958647 0.1281318 0.2239302 0.9661457 103 103 103
-0.0703639495929602 -0.0103060533524533 -0.00573276954173632 0.0440754 0.2328067 0.9715238 61 61 61
-0.0691885593226391 -0.01147307572323 -0.00634901511073729 0.06380758 0.2819468 0.9573059 74 74 74
-0.0703708445269184 -0.0132406265803597 -0.00610940954724828 0.1283532 0.3053166 0.9435609 121 121 121
-0.0672442007598257 -0.0107376118645721 -0.00618527870428839 -0.05414471 0.2558381 0.9652022 99 99 99
-0.0653139670084595 -0.0100998996609438 -0.00616212337374719 -0.03229814 0.2169626 0.9756455 85 85 85
-0.0679156092901212 -0.00503841733519295 -0.00458685881302326 -0.01289523 0.2174959 0.975976 104 104 104
-0.0649135099636333 -0.00520506104547747 -0.00409158277567487 -0.03267433 0.2778402 0.9600714 110 110 110
-0.0653432321634519 -0.00972489708108681 -0.00449145238383736 -0.1284781 0.2470007 0.9604604 104 104 104
-0.0642355842072195 -0.0104475753920297 -0.00572590423431413 -0.0342782 0.2505222 0.9675038 72 72 72
-0.0692803696045741 0.000370136241986785 -0.000886011604203901 0.05109895 0.2533376 0.9660274 77 77 77
-0.0686005574458772 0.000517822745390584 -0.00199023916771654 -0.1078574 0.276111 0.9550547 106 106 106
-0.0665985010635102 -0.00139098207255905 -0.00364901541136237 0.01481755 0.1752534 0.9844118 135 135 135
-0.0643243107757752 0.00345507907731002 -0.000536021405701942 -0.1281138 0.136069 0.9823808 157 157 157
-0.0681133185766365 -0.00173668985992648 -0.00383924918471126 0.01522251 0.2200254 0.9753754 89 89 89
-0.0655885517419448 -0.00132473712488301 -0.00468844065261856 -0.02821136 0.224196 0.9741356 88 88 88
-0.0653045231350009 -0.00353478494883119 -0.00517414445898268 -0.1289393 0.2330359 0.9638822 56 56 56
-0.062709429117815 -0.00363977049080977 -0.0035510633662954 -0.08211888 0.2824287 0.955767 56 56 56
-0.0625670344862448 -0.00355158686441026 -0.00462976691223793 -0.08248427 0.2961031 0.9515878 39 39 39
-0.0630239804248327 -0.00441749487364884 -0.00581687637039646 -0.09641629 0.30111 0.9487026 104 104 104
-0.0630575266602926 0.00337857523650631 -0.00376480327806461 -0.1607817 0.2588988 0.9524288 123 123 123
-0.064327295662882 0.00606275034438641 -0.00265517833472367 -0.09667525 0.2089986 0.9731256 84 84 84
-0.0623097419845462 0.0070186229394924 -0.00326239708414089 -0.1536507 0.2761911 0.9487413 86 86 86
-0.0626840173834469 0.00303341885074504 -0.000991446000137619 -0.07955831 0.05269496 0.9954364 153 153 153
-0.061319983117341 0.00337422967011158 -0.00425569468762271 -0.1286132 0.2939822 0.9471183 120 120 120
-0.060203312083851 0.00333207262347957 -0.00331517612708462 -0.09714941 0.1745259 0.9798483 107 107 107
-0.0590173898164335 0.00167702397266245 -0.00524687013984229 -0.244107 0.2408676 0.9393586 74 74 74
-0.0586923952334613 0.00628178982955307 -0.00434339826516736 -0.1479809 0.3053743 0.9406637 69 69 69
-0.0585776246586458 0.00343943383476919 -0.00468493626469316 -0.1804975 0.1866664 0.9656999 82 82 82
-0.0612893079578984 -0.0033180271582447 -0.00279812679535257 -0.2129711 0.1590448 0.964027 57 57 57
-0.0567236350643288 -0.00457671200806953 -0.00100722754364035 -0.8303785 0.18271 0.526392 55 55 55
-0.0577872331910465 0.000498758199044991 0.00136523095222177 -0.3557674 -0.5055808 0.7860137 34 34 34
-0.0568281060736251 0.00139185799725516 0.000344596611838915 -0.5378261 -0.3309676 0.7753731 36 36 36
-0.0589565111069779 -0.0115084005260842 -0.00104980668358323 -0.4735083 0.1044588 0.8745732 42 42 42
-0.052884674914383 -0.00337524428060187 0.000554460689470571 -0.3532531 0.1796763 0.9181114 30 30 30
-0.0733118387949483 -0.0380343276429251 -0.0105819126669685 0.08429319 0.2907262 0.953086 36 36 36
-0.0727399033714726 -0.0391988288231477 -0.00956584738575639 0.06902082 0.2856499 0.9558453 31 31 31
-0.0707740956119798 -0.0358706536935374 -0.0108291326118043 0.02606337 0.2185507 0.9754775 38 38 38
-0.0695387632702753 -0.0366705328277781 -0.0107696333755846 0.02797327 0.1891501 0.9815497 57 57 57
-0.0705777468981983 -0.0308167639926433 -0.00982957717699798 0.1066548 0.2670757 0.9577553 42 42 42
-0.0705251653599837 -0.0310699031407831 -0.0101980549028743 0.08461097 0.238829 0.9673684 74 74 74
-0.0679258949360046 -0.0335973425230411 -0.0103848883421943 0.01038829 0.1508803 0.9884974 56 56 56
-0.0690132993673054 -0.0310627347313348 -0.00833378895275341 0.0310765 0.1824797 0.9827183 56 56 56
-0.0673064688269609 -0.030280107717112 -0.0106592975039781 0.04392634 0.1492053 0.98783 44 44 44
-0.0692359741370812 -0.0278375499451295 -0.00995415264051386 0.04326121 0.2020427 0.9784208 24 24 24
-0.0679023741991485 -0.0250449753036093 -0.00937280051343353 -0.09623852 0.224128 0.9697962 80 80 80
-0.0651507936072222 -0.0238577055845426 -0.00988952591148573 -0.07385531 0.2094713 0.9750216 71 71 71
-0.0662710061233054 -0.0276825749422771 -0.0104980665229246 0.0009995587 0.1361883 0.9906825 44 44 44
-0.0648208648038915 -0.0276168075643912 -0.00968172068322226 -0.1150791 0.1308023 0.9847068 33 33 33
-0.0656653514879386 -0.0252863596064981 -0.0100344303440558 -0.1655145 0.1955475 0.9666262 84 84 84
-0.0656879437196414 -0.0210655964961877 -0.0088653336634909 -0.01750572 0.1998577 0.9796686 67 67 67
-0.0653402621157053 -0.0172753239866683 -0.00858252865695108 -0.01535061 0.2327501 0.9724154 94 94 94
-0.0652618454969582 -0.0218480499723233 -0.00971219228410114 0.03726009 0.128388 0.9910238 56 56 56
-0.0624789203851701 -0.0219757028917438 -0.00952556079161271 0.0574453 0.1490159 0.9871648 75 75 75
-0.0627466179731138 -0.019851662482989 -0.00945209374125763 0.07425535 0.2537776 0.9644082 60 60 60
-0.0613196393113631 -0.0205540010155785 -0.0097492731225827 0.01859607 0.1512778 0.9883164 80 80 80
-0.0599625980869212 -0.0207131963669209 -0.010109744024209 0.05254188 0.113272 0.9921738 60 60 60
-0.0617196592253382 -0.00990118580291743 -0.00841454990464241 -0.02143244 0.2557463 0.9665063 76 76 76
-0.0626487019368893 -0.0109919388128732 -0.00771967076021546 -0.03795767 0.2498145 0.9675494 56 56 56
-0.0619821490293686 -0.0125451217474426 -0.00549048143682482 -0.02916533 0.1691025 0.9851668 59 59 59
-0.060662902929971 -0.0123827983081928 -0.00799895003196083 -0.1415086 0.1046783 0.984387 37 37 37
-0.059420694499807 -0.0128903906486648 -0.00837137285421866 -0.1098944 0.1337649 0.9849011 90 90 90
-0.0598663214471173 -0.0176288806615734 -0.00937059955479849 -0.1150751 0.114597 0.9867245 31 31 31
-0.0576170387351349 -0.0142324722128147 -0.00848995326613969 -0.1661784 0.1137504 0.9795129 65 65 65
-0.0601376543681811 -0.0105868095803843 -0.00714627100635262 -0.02281764 0.1959236 0.9803537 24 24 24
-0.0597098970129877 -0.00613514430918727 -0.00720423619573507 -0.07221244 0.1634501 0.9839052 91 91 91
-0.0586417409203097 -0.00690580669569041 -0.0073497376046833 -0.1654582 0.05334703 0.9847729 78 78 78
-0.0605311486841456 -0.0121790715149293 -0.00612439164883019 -0.05375654 0.1056762 0.9929465 85 85 85
-0.0591964663691826 -0.0103367131856622 -0.00807585682056128 -0.08703479 0.09982737 0.9911909 11 11 11
-0.0581399749227112 -0.00985606116461013 -0.00749782672757815 -0.1831183 0.08085309 0.9797604 119 119 119
-0.0556322745306537 -0.0085826429501723 -0.00771030143652846 -0.2259863 0.1230043 0.9663334 162 162 162
-0.0565294324721051 -0.0156544293622132 -0.00929469053373178 -0.1108843 0.1003438 0.9887547 22 22 22
-0.055893696845037 -0.0107356619870722 -0.00834141491395055 -0.02589083 0.0915586 0.9954631 207 207 207
-0.0590649947981849 -0.00330553213600338 -0.00707425253144098 -0.08609243 0.2709651 0.9587315 117 117 117
-0.0589855123336112 -0.00216899795072423 -0.00614861102426045 -0.1349737 0.2747514 0.9519946 56 56 56
-0.0586353137641746 -0.00100519414859401 -0.00576940625336339 -0.00972023 0.3169527 0.9483915 58 58 58
-0.0578983585641852 -0.00581832838928187 -0.00537545436292641 -0.1945234 -0.01301315 0.9808115 93 93 93
-0.059533190556603 -0.00471562925925784 -0.00679868082899401 -0.06112905 0.2169175 0.9742741 107 107 107
-0.0588989015467487 -0.00355824488994494 -0.00673652631068106 -0.0647734 0.230932 0.9708114 60 60 60
-0.05705478486778 -0.00317192257572185 -0.00696930397398574 -0.1309643 0.0757983 0.9884852 60 60 60
-0.0554336445366423 -0.00543070613423957 -0.00419044469297941 -0.2673424 -0.2522027 0.9300117 34 34 34
-0.0577090882582489 -0.00549476338350408 -0.00710063250825091 -0.03838082 0.07282349 0.9966061 73 73 73
-0.0562559053102025 -0.00193873107665632 -0.00676000788161599 -0.1538229 0.1065841 0.9823331 59 59 59
-0.0554963670897648 -0.0058096794976501 -0.00750524387587065 -0.04944963 0.09545312 0.9942049 49 49 49
-0.0539016016130351 -0.00356267366363583 -0.00757923471550678 -0.128273 0.1709832 0.9768883 105 105 105
-0.0549821434214588 0.00440117429558851 -0.00570670093030723 -0.08149947 0.238076 0.9678211 54 54 54
-0.0536851352578231 0.00193014974566896 -0.00486386983664952 0.006573142 0.3160515 0.9487193 89 89 89
-0.0544255102589022 -0.00215840139890711 -0.00480126918961943 -0.02525733 -0.02193404 0.9994403 101 101 101
-0.0540371893334786 -0.00191590608875769 -0.00633855644198325 0.0186363 0.1305126 0.9912715 77 77 77
-0.0526238188954162 0.0018082549929479 -0.00644381396119104 0.09124941 0.301321 0.9491466 69 69 69
-0.052045051394372 0.0018833511215739 -0.00710378497383121 -0.09058519 0.2959519 0.9508979 60 60 60
-0.0510076706430476 0.00300046030730416 -0.00696422352812279 -0.04214418 0.2792932 0.9592806 44 44 44
-0.0527507893443167 -0.00765705112280757 -0.00829414898571695 -0.06203023 0.05541384 0.9965348 108 108 108
-0.0516804569292131 -0.00587437196014817 -0.0081506991702068 0.03217365 0.1156531 0.9927685 52 52 52
-0.0520186923170431 -0.00317808060763447 -0.00790021597789534 -0.06538777 0.2849698 0.9563036 81 81 81
-0.0509122806424394 -0.00128913175347467 -0.00766968714029009 0.1155779 0.3049062 0.9453433 79 79 79
-0.0493130800510864 -0.00123295524733025 -0.00798915195523783 0.02691047 0.167653 0.9854787 71 71 71
-0.0501950495919083 0.000933181076409273 -0.00720332350759303 -0.1341185 0.3402632 0.9307165 100 100 100
-0.0494363930366235 -0.000260412950101596 -0.00806171436671541 -0.07262352 0.1982808 0.977451 128 128 128
-0.0481145198176729 -0.000445632910812011 -0.00724005544076328 -0.0767445 0.1652165 0.9832669 88 88 88
-0.0676245849652715 -0.0383830976878758 -0.0118380124502059 -0.0004983323 0.1835678 0.9830069 58 58 58
-0.0668806293533015 -0.0368740891542783 -0.0097465851335547 -0.02854921 0.1737392 0.9843778 79 79 79
-0.0658240369539917 -0.0385877208397474 -0.0113252081309991 0.00241415 0.2238165 0.9746283 53 53 53
-0.0658726370463028 -0.0308563419480321 -0.00940025200282441 0.04092862 0.175885 0.9835595 39 39 39
-0.0647769140853391 -0.0323523809726638 -0.00934959046639366 0.1052964 0.2316276 0.9670891 49 49 49
-0.0638095606383027 -0.0307709094704753 -0.0113911323792647 -0.002092702 0.2071301 0.9783112 23 23 23
-0.0615290666290753 -0.0424765084700811 -0.00620949807809876 -0.2267468 0.1459097 0.9629623 59 59 59
-0.0660709284873768 -0.0407311603598104 -0.0123123725400587 -0.02896029 0.2210871 0.974824 51 51 51
-0.0647521054333597 -0.040981551272615 -0.0128408293893592 0.002925379 0.2773512 0.9607642 45 45 45
-0.0640458333546274 -0.0374351127775339 -0.0115746039828279 0.01720148 0.2436352 0.9697144 79 79 79
-0.0629096844436721 -0.0422532179140032 -0.0135073116739949 0.003731969 0.2439217 0.9697877 57 57 57
-0.0603630545654243 -0.0388859452730737 -0.013086062123033 0.02503968 0.2191114 0.9753785 49 49 49
-0.0599084857048451 -0.0392833398280084 -0.013721336729738 0.01961639 0.2064624 0.9782579 52 52 52
-0.0641853222623459 -0.0345155739772542 -0.0108448992812305 0.08136521 0.2467801 0.9656497 106 106 106
-0.061015707786332 -0.03202169468084 -0.0117934911991427 -0.02692686 0.2807579 0.9594008 87 87 87
-0.0611298721279514 -0.0345354446368922 -0.0124336327623732 0.05117643 0.2664469 0.96249 78 78 78
-0.060630258763041 -0.0330429926461582 -0.0123977055756398 0.01361917 0.2664168 0.9637617 106 106 106
-0.0601993300434991 -0.0371507730593528 -0.0127314074569717 0.02805383 0.2272322 0.9734364 95 95 95
-0.0596000627065105 -0.0370426598509741 -0.0135667262135852 0.03901741 0.2155669 0.9757093 43 43 43
-0.0596052010671628 -0.0336467205427018 -0.0129522804417519 -0.01728186 0.2085049 0.9778686 82 82 82
-0.0613414962556842 -0.0433634695459324 -0.013231932328621 -0.00769135 0.2234196 0.974692 54 54 54
-0.0609503760665586 -0.041670410091555 -0.0128696399637419 0.01434151 0.2317032 0.9726808 79 79 79
-0.0593300186717109 -0.0397643115660029 -0.0123438455631385 0.01892149 0.2185696 0.9756379 58 58 58
-0.0598105832540821 -0.039886333277831 -0.0134935580598455 -0.002176533 0.2142605 0.9767742 34 34 34
-0.0587955710208086 -0.038066110714601 -0.0126371714606562 0.03375357 0.2032367 0.9785477 117 117 117
-0.057675595984459 -0.0317807399337049 -0.00541628989439494 0.7160196 -0.5494438 0.4306128 71 71 71
-0.0609250949071136 -0.0305552906976023 -0.0118187448994702 -0.03955891 0.2863391 0.9573113 30 30 30
-0.0588527294907055 -0.0266216155443639 -0.00968414631452194 -0.08842145 0.2489865 0.9644622 77 77 77
-0.059146948705914 -0.0285285113020131 -0.0108173736035762 -0.07537156 0.268456 0.9603387 107 107 107
-0.0587665371630184 -0.0291838399272741 -0.0116598483412993 -0.05028259 0.2337044 0.9710066 79 79 79
-0.0572442541844402 -0.0317390395615775 -0.0126095395280199 -0.04437595 0.2215957 0.9741284 84 84 84
-0.055969728388326 -0.0300217200817343 -0.0125383823926356 -0.04181861 0.2429998 0.9691245 49 49 49
-0.0575949972441634 -0.0276206820622957 -0.0112315134006175 -0.09845936 0.2576073 0.9612201 40 40 40
-0.0595556244243842 -0.0214738334589608 -0.00939663159652762 0.05462082 0.1255962 0.9905767 72 72 72
-0.0577286851165164 -0.0200236068281248 -0.0101649114625622 -0.1075676 0.05389938 0.9927356 48 48 48
-0.0562185360804206 -0.0228301001253741 -0.00971561150978634 -0.1175913 0.06842443 0.990702 58 58 58
-0.0566241628029351 -0.0254505570315389 -0.0115157702590663 -0.1017906 0.2230547 0.9694768 85 85 85
-0.054296513022744 -0.0249822531559754 -0.00985981688212048 -0.1695919 0.2358657 0.956873 121 121 121
-0.0559919172355361 -0.0268435088154362 -0.0116455201897442 -0.07083458 0.2711023 0.9599406 86 86 86
-0.0535884378941756 -0.0241916227924348 -0.0063441268937037 0.7910616 0.4134894 0.4508303 117 117 117
-0.0512208371069627 -0.0290722790134479 -0.00539889077597669 0.652292 -0.323675 0.6853828 90 90 90
-0.0529319999402271 -0.0349131420985285 -0.00570398016404838 0.9537881 -0.2951159 -0.05652386 74 74 74
-0.0506765499984647 -0.0328264960074445 -0.00620355659599689 0.8698373 -0.3071308 0.3860748 80 80 80
-0.052227993215527 -0.0296153941260604 -0.0038857799915617 0.6822846 0.1168771 0.7216837 40 40 40
-0.0581610695773465 -0.0380559858048983 -0.0136450740098369 0.02357381 0.2074261 0.9779666 94 94 94
-0.056520015276126 -0.0355569919632517 -0.0136461957629548 0.007119317 0.182666 0.9831492 35 35 35
-0.060044051614053 -0.0434204011404529 -0.0142017851592433 0.006707814 0.2293551 0.9733197 87 87 87
-0.0590431348252209 -0.0416326242455938 -0.0139784106331402 0.01745594 0.2265751 0.9738373 78 78 78
-0.0527657488233353 -0.0424214099640419 -0.0152914219913717 -0.01400468 0.2026716 0.9791466 124 124 124
-0.0571658350822866 -0.0394552408913735 -0.0141996809399664 0.003343148 0.2257913 0.97417 92 92 92
-0.055290505139298 -0.0374822148239524 -0.0130307665159786 -0.01344632 0.2323628 0.9725362 116 116 116
-0.0535570844203996 -0.0398685001304633 -0.0147064161064453 -0.02405676 0.2302968 0.972823 38 38 38
-0.0523607275555047 -0.0382733566639437 -0.0143235294364804 -0.03316682 0.2035601 0.9785005 80 80 80
-0.0517762608209205 -0.0388541901206705 -0.0147951782430669 -0.03406809 0.1849923 0.9821493 126 126 126
-0.0507150310018356 -0.0384731416488209 -0.0153426904172306 -0.05811848 0.1650229 0.9845759 93 93 93
-0.0525622527560032 -0.0442671031787245 -0.0159535928206785 -0.005034667 0.1938721 0.9810139 147 147 147
-0.0543368311424959 -0.0288579685424593 -0.0125038731759301 -0.08303881 0.2038303 0.9754782 48 48 48
-0.0526999330769564 -0.0336025705900602 -0.0139458881133189 -0.01989218 0.2216966 0.9749128 69 69 69
-0.0535738499773006 -0.0300323331365746 -0.0124565713405386 -0.09296948 0.2074782 0.9738118 135 135 135
-0.0525817425674155 -0.0292431647166809 -0.0130272923118126 -0.123658 0.2099713 0.969856 49 49 49
-0.0516859616440359 -0.0348186474225254 -0.0144482706828835 -0.03456284 0.2041228 0.978335 55 55 55
-0.0515642255300257 -0.0354237496848027 -0.014494873949965 -0.02607202 0.1794071 0.9834294 56 56 56
-0.0519836762470589 -0.0261969990864199 -0.0122655822015443 -0.2070963 0.1920111 0.9592929 100 100 100
-0.0501016264612892 -0.0277607196882557 -0.0107230630520972 -0.1749914 0.2127647 0.961306 119 119 119
-0.0519544144153101 -0.0275246858353804 -0.0125742711409681 -0.1714273 0.1741585 0.9696811 97 97 97
-0.0512218016560604 -0.0241739591812844 -0.0108675478278091 -0.1228442 0.2217312 0.9673389 120 120 120
-0.0504899522849986 -0.0258637439224521 -0.0121617297584476 -0.1873666 0.217694 0.9578638 140 140 140
-0.0491150044742754 -0.0260499579923419 -0.0122797601541472 -0.165529 0.1425108 0.9758539 85 85 85
-0.0496950177427598 -0.0297881809155998 -0.0133982095181088 -0.1345847 0.2093626 0.968532 116 116 116
-0.0462483425295983 -0.0295171213786622 -0.0136670163940661 -0.1195264 0.1806862 0.9762509 78 78 78
-0.0488644017309618 -0.0353559064681972 -0.0151018283224878 -0.1050136 0.04062129 0.9936408 151 151 151
-0.0476688125924773 -0.0373628129613259 -0.0150038265526986 -0.1758689 -0.019898 0.9842125 86 86 86
-0.0476548293922219 -0.033415599467528 -0.015076770053956 -0.1106513 0.02479525 0.9935499 86 86 86
-0.0457903550497081 -0.0341112659475886 -0.0144863611954114 -0.05218564 -0.01415783 0.9985371 89 89 89
-0.0441695308006635 -0.0301464789668262 -0.0138849283322929 -0.05678543 0.09177559 0.9941593 188 188 188
-0.0454264833916245 -0.0282302735887328 -0.0132938814842224 -0.1462132 0.2249717 0.9633325 156 156 156
-0.0525024163356334 -0.0471388273817044 -0.0157365464571147 -0.02355939 0.2411603 0.9701993 152 152 152
-0.0517380468743722 -0.0456353573223578 -0.016239087031413 -0.01072766 0.1955392 0.9806372 160 160 160
-0.0505188986165148 -0.0471893321156769 -0.016380864989323 -0.0768362 0.1529518 0.9852421 139 139 139
-0.0482307639678878 -0.0446741843033989 -0.0167214930294978 -0.08727323 0.06925088 0.9937745 107 107 107
-0.0478910051940757 -0.0483325821974527 -0.017369954841394 -0.1341606 0.09947459 0.9859542 108 108 108
-0.045395656928124 -0.0474834202350722 -0.0169208952983322 -0.2066534 0.04444097 0.9774044 62 62 62
-0.0483046936022995 -0.0463762003161425 -0.0162075914434151 -0.09114583 0.09772121 0.9910313 48 48 48
-0.0444040470659819 -0.0459514116860915 -0.0165052283160053 -0.2536612 -0.008472644 0.967256 57 57 57
-0.0486600093863223 -0.0412345902040325 -0.0158108369443267 -0.1300903 0.04592112 0.9904382 18 18 18
0.0250459410903388 0.00384727637960047 -0.00922499951911973 -0.4865186 0.08463315 0.8695613 158 158 158
-0.048869720489221 -0.0412839150422921 -0.0166573823664605 -0.1381592 0.05562545 0.9888467 72 72 72
-0.0473763708838257 -0.0396942623353977 -0.0150046595076911 -0.1764995 -0.0166512 0.9841599 74 74 74
-0.0467664685889306 -0.0427702050253156 -0.0159296921089825 -0.1626443 0.01079874 0.9866257 36 36 36
-0.0436725425127442 -0.0434624581861831 -0.0157940772190051 -0.1952659 -0.01595114 0.9806206 59 59 59
-0.0451174411832838 -0.0411791397962074 -0.0152150479929713 -0.2040982 -0.03770972 0.9782239 47 47 47
-0.0445727090614427 -0.0278612754413052 -0.00523106882341987 -0.1816884 0.983099 0.02248771 135 135 135
-0.046125625851781 -0.0374647850603631 -0.00600838623780611 0.8960953 -0.4147422 -0.1581207 102 102 102
-0.0449959904202832 -0.0373830633217469 -0.00627620785410624 0.9993262 0.03411514 -0.01353817 155 155 155
-0.0431630733366328 -0.0329370187954532 -0.0140840863213427 -0.00438427 0.1087089 0.994064 81 81 81
-0.0444417392476686 -0.037323640841785 -0.0136512168867297 -0.08052927 -0.001888296 0.9967505 108 108 108
-0.0442641771598675 -0.0386105734852422 -0.0145397461381137 -0.1509787 0.0007264828 0.9885367 51 51 51
-0.0422384041616521 -0.0376339992952137 -0.0143263105333177 -0.003556232 0.1106062 0.9938579 77 77 77
-0.0411435365541915 -0.0383220801019775 -0.0148940835991882 0.03197142 0.1591203 0.9867414 105 105 105
-0.0404075499235859 -0.0368629356172159 -0.0150985311941017 0.07965074 0.1868582 0.9791526 84 84 84
-0.0425783172588721 -0.0316583241269339 -0.0143164206469241 -0.01625615 0.1135569 0.9933985 124 124 124
-0.0419709709326757 -0.0330778297764878 -0.0145184986378239 0.02050623 0.09529243 0.9952381 142 142 142
-0.0418574323556533 -0.02971956531439 -0.014278605769444 -0.0500889 0.1293599 0.9903318 197 197 197
-0.0417835220224303 -0.0278160285290634 -0.0140655778881954 -0.1076166 0.1614206 0.9810005 195 195 195
-0.0394804248567053 -0.0310467576015296 -0.0145547300712255 -0.05963417 0.1181173 0.9912074 188 188 188
-0.0385795267542353 -0.0329458170068408 -0.0150194327390714 -0.03844586 0.1516324 0.987689 184 184 184
-0.0574787872557818 -0.0151191875768493 -0.00627810079720284 -0.2763121 0.1555384 0.9483984 47 47 47
-0.0562037656144891 -0.0168976928542792 -0.00739427734066439 -0.1526914 0.1150558 0.9815536 79 79 79
-0.0560932256821809 -0.0141927889567481 -0.00664170999971231 -0.101535 0.1663711 0.9808217 173 173 173
-0.054945547954294 -0.0190109206628339 -0.00134046028407325 -0.8756849 0.1733117 0.4507095 122 122 122
-0.0498324968941277 -0.0191701061805252 -0.0011386571567851 0.6542279 -0.4295413 0.6224791 140 140 140
-0.0494815960124391 -0.0190652365806054 0.000152692464111426 0.2867022 -0.4991314 0.8177222 147 147 147
-0.054597943708278 -0.0154760051293295 -0.00881636471983827 -0.1165889 0.1578053 0.9805633 188 188 188
-0.0526747710198117 -0.019183841638208 -0.00870756328148523 -0.007208975 0.1572009 0.9875403 137 137 137
-0.0521488935201415 -0.0200177194023889 -0.0107586126605651 -0.05323861 0.1766367 0.9828352 131 131 131
-0.0526780835238494 -0.0188267845185315 -0.0102577911557552 -0.04973884 0.1951627 0.9795088 167 167 167
-0.051033850957926 -0.013756008168669 -0.00908803450352091 -0.06848346 0.1809485 0.9811053 187 187 187
-0.0511261316868334 -0.0146909571174438 -0.00984149311980423 -0.003869574 0.1668245 0.985979 164 164 164
-0.0495094208253659 -0.0140807396589766 -0.00961474419061489 -0.04771436 0.1587874 0.9861591 200 200 200
0.083815760094635 0.0180736465643916 0.0134918975982816 -0.8378618 -0.5177882 0.172867 91 91 91
-0.0502910033300119 -0.0133982630989984 -0.00871952386152938 -0.05437572 0.1837401 0.9814698 215 215 215
-0.0479041037438921 -0.0137628982002853 -0.00998184878820466 -0.0527239 0.1461862 0.9878511 139 139 139
-0.0483167193813627 -0.020069625673061 -0.004382971113888 0.4900146 -0.8328626 0.2573433 121 121 121
-0.0459876202619753 -0.0133873589854143 -0.00709255699243705 -0.05721903 0.2957506 0.95355 63 63 63
-0.0526053028256146 -0.00799045134264653 -0.00492026460249062 -0.4543983 0.04327495 0.8897468 99 99 99
-0.0524202448792503 -0.0043198675117686 -0.00497071295229182 0.1495402 0.0534385 0.9873105 32 32 32
-0.0513375100612523 -0.00380972774983146 -0.00163217482258096 -0.5753899 -0.6488953 0.4978567 59 59 59
-0.0495436178504045 -0.0028053344750385 0.00010153467903054 -0.5040426 -0.03840507 0.8628245 73 73 73
-0.0516891504795074 -0.00266116932702798 -0.00447107169191363 0.3526464 -0.9312544 -0.09168334 92 92 92
-0.0487522147855994 0.000562859972032648 -0.00424746535161843 0.193974 0.4323936 0.8805736 89 89 89
-0.0516767092561874 -0.0092189239512257 -0.00690477920055857 -0.1812733 0.2200521 0.9584973 157 157 157
-0.0506263457048333 -0.00819900110329708 -0.00866811252189495 -0.04151333 0.2316903 0.9719034 160 160 160
-0.0482200902352941 -0.00717988945508941 -0.00570004262764709 0.1841281 -0.05854689 0.981157 199 199 199
-0.0482524824815511 -0.0101918828701024 -0.00967610631472654 -0.07304968 0.1735914 0.9821048 187 187 187
-0.0485636350846925 -0.00644126761594488 -0.00889503149511145 -0.08625883 0.06898654 0.9938814 179 179 179
-0.0480335315068914 -0.00498795805333052 -0.00832889875246653 -0.02252685 -0.03929249 0.9989738 188 188 188
-0.0458319199587507 -0.00813127963565718 -0.00856080470253848 -0.1865046 0.08804829 0.9785007 174 174 174
-0.0451785195805841 -0.00138721846524703 -0.00482297457157882 0.01344315 -0.001386847 0.9999087 154 154 154
-0.0480509204667088 -0.00336696762781874 -0.00806389435711385 0.02209783 -0.0313556 0.999264 219 219 219
-0.044931011978157 -0.00212185565678591 -0.00817455971719352 -0.05198438 -0.003824634 0.9986406 170 170 170
-0.0443629542746475 -0.000443057455904006 -0.00750528835939288 -0.01670761 -0.08379036 0.9963433 99 99 99
-0.0452064418705256 -0.00571638653646489 -0.00531037196709322 -0.06246404 0.1593754 0.9852399 183 183 183
-0.0436206041615914 -0.00998269124621798 -0.00474439066765017 0.9797625 0.01657405 0.1994761 130 130 130
-0.0401721674393218 -0.00281113120700316 -0.00613018928301437 -0.1389868 0.2277977 0.963738 197 197 197
-0.0436406895318844 -0.0261561825993279 -0.00330654296076435 -0.1321175 0.8483607 0.5126687 57 57 57
-0.0434794651134369 -0.0235996773383096 -0.00354448376483618 0.9144848 0.3329727 -0.2298842 51 51 51
-0.0393152690036922 -0.00704111224198156 -0.0018965037215502 0.3426058 -0.4100156 0.845286 146 146 146
-0.04616390472998 -0.0149599624907444 -0.0104138631530507 -0.06161498 0.113443 0.9916321 68 68 68
-0.0451736127857922 -0.0136630603451062 -0.0101527871717323 0.02985431 0.1077026 0.9937348 63 63 63
-0.0496974055455557 -0.0227918592964391 -0.0116124336114533 -0.05556921 0.1701038 0.9838581 145 145 145
-0.0460149777276579 -0.018966294274698 -0.0110578778625182 -0.1364149 0.2044162 0.9693322 101 101 101
-0.0467338117708302 -0.0225015727529325 -0.00995904287059302 -0.05351268 0.1580469 0.9859805 220 220 220
-0.0480847349267561 -0.0230094080638379 -0.0119166350444525 -0.04969019 0.1506774 0.9873334 199 199 199
-0.0459694196561737 -0.0236270213086376 -0.0119928306381886 -0.04748202 0.1555687 0.9866832 183 183 183
-0.0436877171510173 -0.020057428046186 -0.0125090622465286 -0.1498199 0.1877408 0.9707252 168 168 168
-0.0445401097806115 -0.0154819790417189 -0.0104852735981378 -0.09834463 0.1975019 0.9753571 55 55 55
-0.043151479831768 -0.017316163658085 -0.0075947522488575 -0.4843186 0.380183 0.7879698 25 25 25
-0.0422956346366457 -0.0143067578839988 -0.0110788854904815 -0.1345801 0.08774009 0.9870106 87 87 87
-0.0432909640923771 -0.0187378208982025 -0.0110596581006865 -0.07701975 0.1139343 0.9904983 83 83 83
-0.0400436926865768 -0.0173342706131634 -0.0114436123735346 -0.06825732 0.2055412 0.9762652 77 77 77
-0.0422477996854689 -0.0247219659573175 -0.013056414221985 -0.04410243 0.2299987 0.9721912 99 99 99
-0.0412414510519783 -0.0190415301160198 -0.011789931753254 -0.1201706 0.2171811 0.9687061 53 53 53
-0.0401512963208577 -0.0212265010071488 -0.0123911806685199 -0.0941209 0.1726783 0.980471 144 144 144
-0.0398163936248452 -0.0150401301499965 -0.0110892353511253 0.008276514 0.2311959 0.972872 39 39 39
0.0141065441988992 -0.0373686232140513 -0.019983537808351 0.118426 -0.1496726 0.9816177 103 103 103
-0.042586623403134 -0.00832694462064332 -0.00904735776322493 0.1048362 0.1694227 0.9799517 150 150 150
-0.044220235441589 -0.00446343843941621 -0.00864818706444176 0.01902663 0.1286041 0.9915135 171 171 171
-0.0431029943757553 -0.00582628555831244 -0.00933371969145472 0.03620747 0.2658145 0.963344 138 138 138
-0.0430615973498432 -0.00407664918764539 -0.00798021532946994 0.02749678 0.3561594 0.9340206 212 212 212
-0.0419925269832351 -0.00111433470277267 -0.00756144207859885 0.0388997 0.1839162 0.9821719 212 212 212
-0.0405962187936018 -0.00407578997678737 -0.00901072148493873 -0.06491754 0.1772039 0.9820308 196 196 196
-0.0400486801684214 -0.001802703459445 -0.00862798921444163 -0.01908163 0.1773461 0.9839635 207 207 207
-0.0442080353668142 -0.0120080258652775 -0.010221073692827 -0.08802586 0.1862886 0.9785438 163 163 163
-0.0414935632551159 -0.0103252544540147 -0.00804084186325901 0.04010654 0.2435789 0.9690515 51 51 51
-0.0395529970208908 -0.00948159820427241 -0.00693332578860353 -0.2872551 0.2551962 0.9232332 133 133 133
-0.0400406296499527 -0.0125713268532563 -0.0109960766994947 -0.1234684 0.2339161 0.9643852 36 36 36
-0.0415239942697245 -0.0103473410494739 -0.0100168027083309 -0.07657275 0.1821163 0.9802909 90 90 90
-0.0403956289672416 -0.0085083714640295 -0.0098107580561855 0.02400523 0.1953356 0.9804426 77 77 77
-0.0392706484976515 -0.0131871713797795 -0.00706113586639442 -0.02671196 0.4352959 0.8998911 73 73 73
-0.0397849963678583 -0.00690537976033978 -0.00953627251270447 -0.007332267 0.09568608 0.9953846 125 125 125
-0.0377095948194368 -0.00588460242829969 -0.00967350441763287 0.0458886 0.08653302 0.9951916 181 181 181
-0.0366781466579655 -0.0150137305935965 -0.0112275411961734 -0.1475545 0.1802655 0.9724876 96 96 96
-0.0373575878694197 -0.0121744595695379 -0.0106753219494442 -0.05952856 0.2623048 0.9631472 76 76 76
-0.0351794408372539 -0.0123049359859746 -0.0112616429545521 -0.05938294 0.123476 0.9905692 138 138 138
-0.0354696127909231 -0.0110946882747358 -0.0106729019076148 -0.0160788 0.1944177 0.980787 129 129 129
-0.0341943494074761 -0.00480296253892476 -0.00993588116003841 -0.07328584 0.1794821 0.9810277 195 195 195
-0.0396965293916332 -0.0193308625154778 -0.00970735602530598 -0.1133077 0.2848412 0.9518544 85 85 85
-0.0367110487243807 -0.0248013178299478 -0.00295611084291458 0.8011073 -0.490472 -0.3430224 56 56 56
-0.0362769279780017 -0.0237203881419257 -0.0133013536057469 -0.1039233 0.02782043 0.9941961 95 95 95
-0.0378558334139578 -0.0207496532426388 -0.0120066605491825 -0.05806562 0.1470415 0.9874246 82 82 82
-0.0373657720642742 -0.0209990590527893 -0.0124062510562591 -0.0851756 0.1256417 0.9884125 73 73 73
-0.036503427325278 -0.0170296588433503 -0.0118929241422074 -0.1001767 0.179865 0.9785771 144 144 144
-0.0334841824941963 -0.018566033180639 -0.0122983645925868 -0.1877908 0.06146741 0.9802838 86 86 86
-0.0353682193863876 -0.0218649389755932 -0.0126977980780608 -0.08108488 0.05553364 0.9951589 64 64 64
-0.0321145903847202 -0.0186381317729014 -0.0119275084910085 -0.08991484 0.1299918 0.9874297 64 64 64
-0.0332783958757041 -0.0240630078749731 -0.0047715376068006 0.8062679 -0.5911533 -0.02167388 15 15 15
-0.0301242080432793 -0.0213112230563375 -0.00998001830491974 -0.004332745 0.02701101 0.9996257 72 72 72
-0.0354834678089455 -0.0100325514539505 -0.007256028303915 -0.222513 0.1801725 0.9581366 87 87 87
-0.0333319874471043 -0.0116139935833268 -0.00291363432330724 -0.6615229 0.4856573 0.5714232 132 132 132
-0.0318573685517087 -0.00912932867870775 -0.002821914851382 -0.963568 0.2674596 0.00147564 98 98 98
-0.0339226702054192 -0.0145210113223384 -0.000888148385306708 -0.6066223 0.007366189 0.7949561 138 138 138
-0.0325874344258148 -0.0154121653257355 -0.0094073950930689 -0.08860378 0.118134 0.9890367 96 96 96
-0.0345345299335682 -0.0144852569346117 -0.0114493289135618 -0.11727 0.07729329 0.9900876 122 122 122
-0.0328163711228973 -0.0118047065828681 -0.0112111735864443 -0.1239877 0.1247459 0.9844112 132 132 132
-0.0309933604183017 -0.0127236347624247 -0.0113355193462028 -0.09980609 0.05922488 0.9932427 211 211 211
-0.0298370563387493 -0.0110720222542013 -0.0113221666068868 -0.1036141 0.09454732 0.9901136 215 215 215
-0.0286166517761532 -0.00845522083700367 -0.0111359759525703 -0.06373018 0.1698894 0.9834003 184 184 184
-0.0285743899093627 -0.0112645683633941 -0.00848791302609803 0.01168857 0.1838601 0.9828829 187 187 187
-0.029641333484502 -0.00981611766866863 -0.00877280550789858 -0.06546156 0.1081074 0.9919816 207 207 207
-0.0290678851147625 -0.00765880994677537 -0.00867376017132668 -0.141906 0.1142373 0.9832662 188 188 188
-0.0249832766758982 -0.0104826419256525 -0.0028035459612458 -0.9415835 0.2676872 0.2043627 69 69 69
-0.0624783053119389 0.0335274981216278 0.00385764142717904 -0.1265353 -0.03533642 0.9913325 143 143 143
-0.0609839690481351 0.0295936162341612 0.00430285425895446 -0.06905781 -0.03888489 0.9968545 39 39 39
-0.0637870617465686 0.0127615034957089 -0.000161343741418019 -0.08930179 0.1434723 0.985617 99 99 99
-0.06288898624546 0.0127021312406284 -0.000750981111744514 -0.1152115 0.1930447 0.9744024 93 93 93
-0.0649875883279825 0.0200750293639269 0.000696640273838894 0.01088277 -0.004365639 0.9999313 124 124 124
-0.065810113960501 0.0196198473465143 0.00116202719059827 -0.07062163 -0.08696946 0.9937046 108 108 108
-0.0648170494653957 0.0159581522141383 0.00119641050011762 -0.1730185 -0.02547066 0.9845892 128 128 128
-0.0640840171312627 0.0166626256923863 0.000625157169072799 -0.02442559 0.04407994 0.9987293 100 100 100
-0.0626850739497686 0.0208034559009855 0.000203244815440928 -0.02964872 0.003262354 0.9995551 64 64 64
-0.0628307204952694 0.0180224178431341 -0.00013911839803471 -0.07546802 0.2007383 0.9767337 47 47 47
-0.063542191488106 0.0166392230860657 -0.000610647326251462 -0.02608476 0.2041587 0.9785903 111 111 111
-0.0609622064619226 0.0200265594506999 0.00142877061991323 -0.02371727 0.1121214 0.9934114 83 83 83
-0.0604654297183118 0.0194832285864848 0.000127333068595359 0.03902366 0.1592077 0.9864736 102 102 102
-0.0587045309275331 0.0192343514031543 -0.000297034255962392 0.003955971 0.106765 0.9942764 90 90 90
-0.0621298388829135 0.0121032117824269 -0.00129635940851816 -0.1414807 0.2384696 0.960789 85 85 85
-0.0631407291367476 0.0273247200525033 0.00120376466395444 -0.06188883 -0.1801013 0.9816992 87 87 87
-0.0638086896177987 0.030176842326971 0.00161626871686227 -0.1214467 -0.05340228 0.9911604 73 73 73
-0.0620977661090447 0.0294866451807458 0.00125017295311661 -0.09967551 0.110906 0.9888198 67 67 67
-0.0628645680957525 0.0313662241106385 0.00182196485305158 -0.1203097 0.0240173 0.9924458 92 92 92
-0.060630688913037 0.0329278714112182 0.00198180506110787 -0.08602912 0.03529249 0.9956673 81 81 81
-0.064466780666131 0.0242397645112644 0.000928504819448783 -0.07549832 -0.3260573 0.9423304 81 81 81
-0.063162706378145 0.023617250487713 0.000989980604129415 -0.09423932 -0.1694779 0.9810179 56 56 56
-0.0627583610270279 0.0244612675175833 0.000593967426908509 -0.0929708 -0.191911 0.9769987 62 62 62
-0.0616987508425584 0.0218052333559819 0.0013320545762969 -0.1882872 0.173228 0.9667161 46 46 46
-0.0605794327163167 0.0219018321127695 0.00344974537160739 -0.2225254 -0.1518877 0.9630226 96 96 96
-0.0605497915938344 0.02348704435182 0.00391569631901215 -0.1400623 -0.2346183 0.9619443 103 103 103
-0.0603623404353006 0.0241943249582655 0.00171796165030699 -0.155929 -0.1372626 0.9781846 83 83 83
-0.0596456827054701 0.0241581178250196 0.00335816216407858 -0.239707 -0.2601407 0.9353434 96 96 96
-0.0586352769960066 0.0243693462221624 0.00353715211802696 -0.02219772 -0.07496279 0.9969392 124 124 124
-0.0615732787703036 0.0242049119581909 0.000363054159333742 -0.1191193 -0.1425426 0.9825946 60 60 60
-0.0606925019715709 0.0248005086324143 0.000521222679911726 -0.01189478 -0.2163214 0.9762498 107 107 107
-0.060057854583542 0.0215061258703539 0.000292446171338251 -0.1642966 -0.02176365 0.9861708 96 96 96
-0.059564805469996 0.0207232836864708 0.000994209159653342 -0.09869248 0.1260816 0.9870984 140 140 140
-0.0598497472650299 0.0302316545884254 0.00191786395771534 -0.214176 -0.03166686 0.9762816 58 58 58
-0.0592297054176216 0.0301531080038022 0.00132367621928661 -0.1600205 -0.008780174 0.9870747 67 67 67
-0.058514383820593 0.0317117319531721 0.00161768049607242 -0.1263475 -0.04269675 0.9910668 72 72 72
-0.058229121082642 0.0293609049473451 0.0022560396165176 -0.1362106 -0.04986151 0.9894243 49 49 49
-0.0581628545959971 0.0255078198862431 0.0032892472279222 0.01535119 -0.07344264 0.9971813 126 126 126
-0.0585142722840892 0.029364221909318 0.00400808297697572 -0.112705 -0.2131907 0.9704882 44 44 44
-0.0573666196546121 0.0292345387488471 0.0046699021872747 -0.1061054 -0.2085703 0.9722345 44 44 44
-0.0594549251976264 0.0286154116518784 0.00102249546661076 -0.2622033 -0.1109221 0.9586166 43 43 43
-0.0579277884513092 0.0290566663731606 0.00121115045239098 -0.1760351 -0.1105729 0.978154 55 55 55
-0.0592847255594682 0.0270425580185722 0.00175247095841127 0.09107221 -0.2339435 0.9679754 65 65 65
-0.0579322859663707 0.0281232253880399 0.00122275146188996 -0.1556466 -0.1159349 0.9809859 83 83 83
-0.0574692606470162 0.0271667075232782 0.00171649740688476 0.04067663 -0.1131622 0.9927436 121 121 121
-0.0560644638086498 0.0238407633549109 0.000624632965687627 -0.03193843 0.2451601 0.9689564 98 98 98
-0.0558393908998946 0.0307588725915051 0.00264790827817629 -0.09887678 -0.1977969 0.9752434 110 110 110
-0.0543656894665889 0.0276678842218729 0.00204752510768355 -0.07826139 -0.09571616 0.9923273 158 158 158
-0.063534515577244 0.0126446927473371 0.00197042688496221 -0.2445099 0.06159176 0.9676887 107 107 107
-0.0641497729183071 0.00997485407844811 -0.000676165482103586 -0.1935407 0.195726 0.9613705 72 72 72
-0.0623466684489213 0.0104784094785759 -0.00154223446150328 -0.3055518 0.2313314 0.923647 84 84 84
-0.0614394222801227 0.00998196002434937 0.000896281968764873 -0.1841809 0.2662286 0.9461499 87 87 87
-0.0610146364074724 0.00951161700563818 0.00034837603107063 -0.2184616 0.07995596 0.9725644 97 97 97
-0.0606521218402862 0.0171194683806968 0.00241881211081169 -0.07790051 0.285868 0.9550974 82 82 82
-0.058919864892651 0.0167805931466176 -0.0005660391843825 -0.1102857 0.03818021 0.9931663 93 93 93
-0.0581979804859727 0.0180790514559432 0.00218880075510644 -0.1835463 0.1645751 0.9691366 124 124 124
-0.059491717225963 0.012618300259049 0.00119257051323604 -0.2527792 0.4055367 0.8784319 90 90 90
-0.0612442702458098 0.00829784763581509 -0.00260269727003462 -0.08458187 0.327236 0.9411496 80 80 80
-0.0604915257393004 0.0116721913948414 -0.00201460659665872 -0.08911206 0.3050977 0.9481426 84 84 84
-0.061124309707012 0.0125465775633906 -0.00139222859780391 -0.09264092 0.2956912 0.9507809 84 84 84
-0.0588600187940393 0.0120173164426185 -0.002045689076586 -0.1158371 0.2485187 0.9616757 67 67 67
-0.0600207931965535 0.0111867946927919 -0.0020590760020324 -0.147832 0.2149525 0.965371 101 101 101
-0.0597725091077979 0.00688284121860683 -0.00147210667014278 -0.1532826 0.2426925 0.9579169 115 115 115
-0.0400486664994415 0.00464983069165359 -0.00771637027839667 -0.1954563 0.09538712 0.9760625 77 77 77
-0.0599370599762161 0.00711774031958901 -0.00361706540003534 -0.1733264 0.1940598 0.9655562 74 74 74
-0.0565360878538019 0.00712494088121729 -0.00453091504543543 -0.03983631 0.3395471 0.9397451 62 62 62
-0.0569415113604022 0.00962001437395132 -0.00349650280166197 0.01503629 0.3373948 0.9412431 107 107 107
-0.0579777810656177 0.0153339369179246 -0.000944609265832869 -0.2307394 0.2265301 0.9462788 90 90 90
-0.0579853735462272 0.0155651680929045 -0.00116287703651738 -0.1578974 0.1300321 0.9788565 76 76 76
-0.0566982788724295 0.0144118664319814 -0.0009109295088644 -0.1709294 0.3013809 0.938058 79 79 79
-0.0558795774333178 0.0122563709762575 0.00050461635721441 -0.4673455 -0.05402832 0.8824223 34 34 34
-0.0537091996241932 0.0126109251791464 -0.00322365292989596 -0.230717 0.3559111 0.905592 80 80 80
-0.0550423423168194 0.0146405965291672 -0.00148950060786607 -0.02762047 0.2608991 0.9649709 99 99 99
-0.0543192048067749 0.00784799664343527 0.00294472921299196 -0.01874553 -0.2105329 0.977407 61 61 61
-0.0559132715778525 0.00480984223977421 -0.00240305909167957 0.3868277 0.4231679 0.8193249 35 35 35
-0.052642060826819 0.010980594759386 0.00272899990582376 -0.004200442 0.4194622 0.9077631 75 75 75
-0.0536285516326143 0.0126006204429738 -0.000124754336612742 0.4898878 0.5278421 0.6938246 63 63 63
-0.0526851843970966 0.0111527107297666 -0.00115740439401707 -0.2595632 0.4108618 0.8739677 99 99 99
-0.0509414798426508 0.011609155263661 -0.00068623157028827 0.2346578 0.4330361 0.8702962 121 121 121
-0.0511949580436342 0.0133568115225502 -0.000434258053954834 0.1751878 0.5012593 0.8473773 95 95 95
-0.0582185518260088 0.0187577306360232 0.00282328604909907 -0.07439798 0.04295937 0.9963029 130 130 130
-0.0569998667606626 0.0219963780614263 0.00348203908786934 -0.1603008 0.2491962 0.9550942 145 145 145
-0.0550419731945841 0.0205018798173817 0.00258553808695036 -0.07906959 0.1557635 0.9846247 90 90 90
-0.0561354054489873 0.0263184231858078 0.00434874577209993 -0.01988514 -0.08912934 0.9958215 125 125 125
-0.0547736147530955 0.0245069117108863 0.00318455394404385 0.03030026 0.3427617 0.9389336 116 116 116
-0.0559357565731489 0.0279353698091516 0.00341476488033382 -0.1825495 -0.1689212 0.968577 139 139 139
