ply
format ascii 1.0
comment File exported by Rhinoceros Version 7.0
element vertex 477
property float x
property float y
property float z
property float nx
property float ny
property float nz
property uchar red
property uchar green
property uchar blue
end_header
0.0852388434282149 -0.0285705800348199 0.0132773920339861 0.9953564 0.01991649 0.09417466 141 141 141
0.0170664183965529 0.164247823209199 -0.0245866373735151 0.5990043 0.6981443 -0.3921587 69 69 69
-0.0718382604250108 0.0184597496694647 0.0132819815916338 -0.1967758 0.47717 0.8564975 82 82 82
0.056403666006645 -0.0131333346658624 0.0601053043646135 0.336409 0.4601234 0.8216541 110 110 110
-0.154586733115593 -0.0201336617761529 0.0159351929468431 -0.5008851 -0.5765697 0.6455088 66 66 66
0.0148031108251417 -0.0150728698068536 0.0596766575617113 -0.1455353 0.6495355 0.7462729 192 192 192
-0.0718609101900255 -0.0103730435663141 0.0421468421263018 -0.02254082 0.9149449 0.4029487 146 146 146
-0.0170197494157945 0.165756416768464 -0.0294560090261183 -0.716469 0.6495889 -0.2543746 38 38 38
-0.0611552603372728 0.0333295588201605 0.00618569100325489 -0.1603731 0.5698208 0.8059682 172 172 172
0.00298839734705336 -0.00617890313204894 0.0500965222162523 -0.1493956 0.5947176 0.7899317 173 173 173
-0.118644536269585 0.0368390803045355 -0.0374964669900618 -0.6365504 0.6572873 -0.4034562 80 80 80
0.0534160427919234 0.0487617973989569 0.0434569522184649 -0.3363658 0.2871987 0.8968695 187 187 187
-0.0895377404817735 0.0585814242071234 -0.0126010969835005 -0.3432167 0.2747766 0.8981649 134 134 134
0.00706243442209609 0.107278180570038 0.00821943128531361 -0.3404204 0.2862385 0.8956459 138 138 138
0.00440299438150771 0.0158197407430731 0.0358119710726061 -0.3287256 0.2840837 0.9006864 164 164 164
0.0295602075925673 -0.100914525538055 0.0150823398870745 -0.4011857 -0.9020478 0.1592475 91 91 91
0.00235462115915663 -0.0865637536340631 0.0352616413873949 -0.4019593 -0.8966172 0.1857587 102 102 102
-0.150173128379265 -0.00236706688937316 -0.0281420246320448 -0.9123225 0.3777654 -0.1579901 81 81 81
0.0720208577981795 0.0989541535085761 0.00764877641623402 0.9582873 -0.0373604 0.2833543 151 151 151
0.00269412921579726 0.0675007824606024 0.0188414856237688 -0.3513319 0.2881106 0.8908188 170 170 170
0.0568201236596907 -0.0443008418374933 0.0682022079271593 0.07393908 0.2797362 0.9572255 106 106 106
0.067629902826866 0.124653172940644 -0.0217849508481703 0.5920741 0.8057447 -0.01495616 93 93 93
0.0545929663053358 0.0417606358236395 0.0462040408891954 -0.3354021 0.2764335 0.9006053 164 164 164
0.0862347178331221 -0.0341156001382745 0.0069367393297472 0.9899064 -0.05765814 0.129464 154 154 154
0.0337247841230238 0.158928585500153 -0.00677054082924938 0.6619712 0.7462978 -0.06952493 77 77 77
0.0868684940210188 -0.0414184804254449 5.86315435686102E-05 0.9854442 0.0682457 0.1556989 142 142 142
0.0632390074601973 -0.0485512490564264 0.0692663892549791 0.02556056 0.3162787 0.9483219 85 85 85
0.0803198211065138 -0.105173754244415 0.000896941070012092 0.9921511 -0.1178559 0.04178806 73 73 73
-0.0969389684328233 0.00315995261135926 0.0216187640470781 -0.1822236 0.6553236 0.7330386 164 164 164
0.0833376340738142 0.0144664768880927 0.018785844687871 0.9730921 0.2122228 0.08973945 132 132 132
0.0365947477689589 0.0715987209982001 0.0303289099973955 -0.3507119 0.2787095 0.8940482 194 194 194
0.0226644866338576 -0.0365052695566095 0.0677392884535112 0.1090961 0.2190466 0.9695961 98 98 98
0.0842580489984358 -0.0256416077905572 0.0262206598562517 0.999271 0.02663858 0.02734718 128 128 128
-0.0694209940561449 0.011708927602204 0.0184621020597734 -0.1764386 0.6215038 0.763284 101 101 101
0.0828759066930617 0.0212556843465888 0.00638387644713306 0.8957623 0.4276562 0.1213264 104 104 104
-0.0909636623987352 -0.0362973685556329 0.0383882626337328 -0.5507299 -0.6343842 0.5424511 135 135 135
-0.134080649150292 -0.0387381787591852 -0.0200266138272963 -0.4083853 -0.8981353 0.1630166 33 33 33
0.0527822666040266 0.113332105130585 0.023526291493825 -0.3288635 0.2608363 0.9076416 174 174 174
-0.0227686770090257 0.0965871338552557 0.000243376140049933 -0.3422307 0.2764639 0.8980233 131 131 131
-0.0820686824449693 -0.0476707692438043 0.0275909110349932 -0.4026127 -0.8547412 0.327598 47 47 47
0.0821380607953871 -0.0881226535135187 0.0255772873205461 0.9856266 -0.1651722 -0.03547148 136 136 136
0.0838204913011397 -0.0727688546472467 0.0402833923143663 0.9914088 -0.1300164 0.01429181 101 101 101
-0.104747534526268 0.0591198925680243 -0.0329826668458662 -0.6822516 0.6844339 -0.2570662 99 99 99
-0.0208221681245958 -0.0731466288858331 0.0349297031206408 -0.4431033 -0.7055934 0.5529895 177 177 177
0.0690784447065199 0.0655965332693182 0.0324980422300615 0.9730174 0.1550182 0.1708992 71 71 71
-0.132134199870506 -0.00326268628176818 0.0244028373998919 -0.1895631 0.7741771 0.6039169 73 73 73
-0.0149827010759508 -0.046793269663421 0.0709089740556993 -0.06861586 0.6324912 0.7715223 17 17 17
-0.00601983143178575 0.158278775662812 -0.0126705959993086 -0.3361523 0.2759219 0.9004825 155 155 155
-0.0775872476228868 0.045310092420014 -0.00424783384377575 -0.3080359 0.3529094 0.8834981 174 174 174
-0.013172031176964 -0.0883020634942926 -0.0111009374814711 -0.3899697 -0.8965175 0.2101905 73 73 73
-0.0406944759020006 -0.0617840762430109 0.0342680319589891 -0.4301873 -0.7489125 0.5040525 96 96 96
-0.115317404998223 -0.0027167077356256 0.0242554053110399 -0.1005006 0.8660069 0.4898283 69 69 69
0.0307447306981886 0.137265396565827 0.0080390080255785 -0.3389078 0.2780897 0.8987812 171 171 171
-0.0614268190988695 0.0993591074651801 -0.0410986736970625 -0.6943696 0.6217014 -0.3624062 25 25 25
-0.125298858416954 -0.0401882405572809 -0.00710253870064831 -0.4033471 -0.8867317 0.2258716 40 40 40
0.00805830882700331 0.0991826777166449 0.0110530957025805 -0.3492261 0.2815908 0.8937269 127 127 127
-0.0657272346147691 -0.0643365855508722 8.03574365892401E-05 -0.3836301 -0.8974268 0.2178374 24 24 24
0.0782073430887068 -0.114749717264739 0.0123177870554247 0.9670548 -0.2504946 0.04535901 93 93 93
0.071907668577751 0.0397536282247626 0.0405359669966021 0.9604916 0.2601653 -0.09884255 79 79 79
-0.149577141536156 -0.00688867524203429 0.0221708818716326 -0.5342884 0.2971587 0.7913486 176 176 176
-0.132541597617546 -0.0278509135538019 0.0156470044893541 -0.3289982 -0.7425247 0.5834528 23 23 23
0.0362823598256911 0.109007430524262 0.0186521514696398 -0.3363765 0.2803247 0.8990378 156 156 156
0.0389305345884169 -0.0402235265069879 0.0680587395471849 0.07508235 0.2312621 0.96999 147 147 147
0.0287001125684584 -0.0862759824090875 0.0777769192499437 -0.5099889 -0.5574579 0.655097 151 151 151
0.0792635969987715 -0.0618491645151056 0.0731620892328539 0.1371437 0.2914225 0.9467125 123 123 123
0.0860924713483656 -0.0484109397226251 0.0422954663080492 0.9985927 -0.05288349 -0.003984465 120 120 120
-0.0539577610620653 -0.023829984217254 0.048695991877965 0.189191 0.429794 0.8828838 94 94 94
0.0301033847204054 0.00384612128201356 0.0491556628984728 -0.314721 0.2698177 0.910027 186 186 186
-0.0594803102144396 0.112197351903351 -0.0249996379571638 -0.7684583 0.5946981 -0.2362329 47 47 47
-0.0314599282869493 -0.027877139597503 0.0532152458471575 -0.07939932 0.5150387 0.8534817 109 109 109
-0.115928531421105 -0.02950732663211 0.0239355369848528 -0.3912133 -0.7700163 0.504011 104 104 104
-0.154315114749352 -0.0233649487787164 0.00587461436217213 -0.507265 -0.8284694 0.23732 81 81 81
0.0687465064397658 0.0781235222524725 0.0308553084177294 0.8176823 0.496828 0.290788 126 126 126
0.0709796838632429 0.0967795376485907 -0.00342803155953503 0.9921849 -0.1216803 -0.02762437 105 105 105
0.084209024178108 -0.0744618649774469 0.0505915387911119 0.9927121 -0.09351918 -0.07600612 102 102 102
-0.0854184634813463 0.0846615557378851 -0.0215234652715406 -0.6384259 0.692267 0.3364205 42 42 42
0.0777244858613814 -0.115606236010162 0.0222750409883776 0.977102 -0.2050825 0.05668079 80 80 80
-0.107486189139763 -0.0146542067819513 0.0430170401377001 -0.2794248 0.5212127 0.8063865 98 98 98
0.0468183152547682 -0.0620706553750909 0.073773066644124 0.03363627 0.2524744 0.9670188 92 92 92
0.05368760155352 -0.0547922129922784 0.0714811786455431 0.05831317 0.2764775 0.9592496 105 105 105
0.0728054635396803 0.0371270899480902 0.0248941584867754 0.9103915 0.4129562 0.02558123 93 93 93
0.0843334786763991 -0.084912108927337 0.0805796786588945 0.9179614 0.1056318 0.3823463 87 87 87
-0.0116555698045885 0.15972299620572 -0.014869888182231 -0.3441247 0.2754709 0.8976046 151 151 151
0.00516116546305068 0.0518965248769843 0.0248494848055162 -0.3277296 0.288383 0.8996825 135 135 135
-0.0926612026819383 -0.0534562344842828 -0.0019014970021925 -0.3915623 -0.9015203 0.1842284 43 43 43
-0.00497865749684923 0.175620508641633 -0.031942059155055 0.3621737 0.9146706 -0.1794655 85 85 85
0.0370066754690016 0.0961601261800848 0.0230335995001116 -0.3379116 0.2787214 0.8989606 169 169 169
0.0896637134424055 -0.0523425813012994 0.000261317138127326 0.9967163 0.01649352 0.07927577 128 128 128
0.0441362254491652 -0.106799888163177 0.0141745909494677 -0.402715 -0.9099678 0.09889006 125 125 125
0.0832169048658217 -0.0824084754281915 0.0478252276224413 0.993161 -0.1123113 -0.03189614 166 166 166
-0.135882318747917 -0.036602782755462 -0.0117682412820539 -0.3808878 -0.9103835 0.1616364 62 62 62
0.082024901377281 0.0325505261129462 -0.0223913983064375 0.8897324 0.3511897 0.2916197 79 79 79
-0.0176534659990465 -0.048540997057525 0.0720959111494341 -0.2325275 0.3104976 0.9216953 57 57 57
0.018605529533943 0.0502272371954047 0.0302918359083452 -0.3357896 0.2946709 0.8946588 142 142 142
0.0853746526113356 -0.0345876689248956 0.0121026440901079 0.9923787 -0.04220561 0.1157722 181 181 181
-0.0719831593164598 0.0573814634985053 -0.00598060047204113 -0.3417784 0.2842433 0.8957641 159 159 159
0.000419437157234026 0.0835325245565497 0.0131282612127581 -0.337469 0.2784368 0.899215 144 144 144
0.087253242003044 0.00731689974728456 -0.00638045823151684 0.9790051 0.02104673 0.2027462 128 128 128
-0.121451140178124 -0.00143890336093078 0.0195890768808641 -0.03172516 0.8542148 0.5189514 24 24 24
-0.0949471600183641 0.0335897926992499 -0.00247909581238842 -0.3838966 0.3847513 0.8393985 103 103 103
-0.0484351523050462 -0.0751941676431573 -0.021660704966136 -0.3929915 -0.8968481 0.2030296 32 32 32
-0.153070212138573 -0.0102093692117609 -0.00726061021859264 -0.9625649 0.2627028 0.0667544 48 48 48
-0.133437813056389 -0.0388969655328668 -0.0178542033391676 -0.3880698 -0.9072571 0.1621308 64 64 64
-0.020731628669182 0.0566900496191107 0.0139775677961626 -0.3307808 0.2740687 0.903034 131 131 131
0.032230972515663 -0.0117832894616998 0.0609284147066393 -0.1612861 0.6400122 0.7512464 152 152 152
-0.0972331769594347 -0.00118915989932189 0.0283112629694262 -0.1936854 0.8705186 0.4524195 153 153 153
0.0619865946641768 0.0015564684576117 0.0557507976335802 -0.1050693 0.08293035 0.991001 93 93 93
-0.098364890349785 0.0706618551916205 -0.0241545335012159 -0.8399777 0.5419945 -0.02606578 126 126 126
0.018673478828987 -0.0412084336572565 0.0699273153585711 0.133986 0.2490895 0.9591674 59 59 59
0.0404243461957777 -0.100303577929107 0.0481151148123064 -0.4274352 -0.8890498 0.1639806 43 43 43
-0.0341307528146898 0.0804073338216864 0.000851939563206672 -0.3418789 0.2882319 0.8944502 159 159 159
0.0784827165475691 -0.108722853212921 0.066554616336278 0.9615034 -0.2744819 0.01307142 96 96 96
0.0522843592038954 -0.10629754021701 0.0441979869646349 -0.3670312 -0.9169212 0.1566641 34 34 34
0.0853294126859511 -0.0324489350610651 0.0181297763628283 0.9995854 -0.008132217 0.02762101 152 152 152
-0.0615173585542833 0.00685389086666932 0.0244478389066973 -0.1978266 0.6382847 0.7439471 205 205 205
0.026949822174629 0.155008626431855 0.00102139556830311 -0.3282258 0.2806501 0.9019442 200 200 200
-0.0234023935922777 0.154043031186494 -0.0177727833944044 -0.3487426 0.2754818 0.8958172 152 152 152
0.0264820449224318 0.0777331118291937 0.0245893999380388 -0.3589967 0.270332 0.8933319 184 184 184
0.0306013815275038 0.149957013577851 -0.0395765498834333 0.5047534 0.8515306 -0.1418439 115 115 115
-0.0258694298395311 -0.0739000315957941 0.031091581229619 -0.4360386 -0.7681412 0.4688598 164 164 164
0.0770002298227156 0.000157428235443735 0.0575409337324419 0.1632747 0.330681 0.9295114 87 87 87
0.0736957185140455 0.0415035013860785 -0.00293638264710522 0.925251 0.3328363 0.1820179 95 95 95
0.0920402400365675 -0.0545242305093683 -0.02745797192628 0.9880518 0.1540984 -0.002729164 57 57 57
0.0376517169347609 0.149353218526276 -0.02158998405511 0.5889133 0.7234114 -0.3603568 158 158 158
0.0856915109029616 -0.0388557191186822 0.00847364509528065 0.9944379 0.03056947 0.1007907 180 180 180
-0.0238550908693468 0.0499184851354681 0.0144086583895006 -0.3379364 0.2861246 0.8966224 121 121 121
-0.0161596543916857 0.124462557286652 -0.00595729505593395 -0.3383648 0.2769261 0.8993449 150 150 150
0.0836544923654402 -0.00569050267275939 0.0335630282205858 0.9948934 0.08372299 0.05637084 133 133 133
0.0326836101880873 0.151971173734101 -0.0232572749810896 0.5211926 0.7818916 -0.3420582 111 111 111
-0.0680584914812242 -0.0687163348489679 -0.0277990595060072 -0.3854311 -0.9033605 0.1881028 30 30 30
0.07899197863253 -0.106900739222137 0.0420277222437181 0.9580777 -0.2863608 -0.00920403 94 94 94
0.0360937707296217 0.1548746351904 -0.0117973879533491 0.682537 0.6707771 -0.2901747 65 65 65
0.0201898805967177 -0.00847237065371642 0.0557917758268633 -0.2198776 0.5537581 0.8031225 116 116 116
0.0580332867971266 0.0294432167715155 0.051513145808629 -0.3388533 0.2895865 0.8951638 202 202 202
0.0505868189206923 -0.107319402247039 0.0384111210150042 -0.3728822 -0.9165954 0.1442629 42 42 42
-0.0755954392084276 -0.0611333127313531 -0.00564407264763928 -0.3693885 -0.9025223 0.2213721 86 86 86
-0.149075389636437 -0.00225417569216857 -0.0035746291833601 -0.8855401 0.3204142 0.3363829 185 185 185
-0.0195546753534471 0.029541802853974 0.0226530834478655 -0.3285623 0.2841699 0.9007187 153 153 153
0.0865968756547774 -0.00249319031771789 -0.00152843153054333 0.9927363 0.01832166 0.1189074 179 179 179
-0.0283365256914293 0.0283510212606513 0.0196739240927019 -0.3350671 0.2720003 0.9020786 166 166 166
-0.105607629550377 0.057410192937287 -0.0341617063241682 -0.7250849 0.6316633 -0.2743236 58 58 58
0.0875022106042708 0.0230352406210028 -0.0183812276082716 0.8485294 0.5069474 0.1516648 127 127 127
-0.151372731460015 -0.00980834916171203 0.0226311489385881 -0.5490674 0.1014949 0.8295925 141 141 141
0.00787722991617568 0.144510817975434 -0.00297482764298534 -0.3243344 0.2728995 0.9057224 166 166 166
0.0767286114564741 0.103975129575165 -0.033914168234416 0.9590626 -0.0480783 0.2790833 133 133 133
0.0486176602712477 0.139263225049409 0.0141279503149309 -0.05346876 0.613398 0.7879619 207 207 207
0.0937792651525343 0.00309534117642274 -0.0334681168752394 0.9956681 -0.02922484 0.08826623 103 103 103
-0.00737780405370347 -0.0650680537515558 0.0600810452741899 -0.4807045 -0.7790846 0.4024305 87 87 87
0.0742932550779188 0.0473455910390936 -0.0179300204473219 0.8915232 0.3337218 0.3062941 113 113 113
0.074940591322502 -0.114517616777984 0.0509392126840868 0.3029556 -0.9361961 0.1781985 124 124 124
0.0683089189401472 -0.0923344369226373 0.085500578526906 -0.03997669 0.3398025 0.9396468 62 62 62
0.0603871636262739 -0.108938741236297 0.0469500228208818 -0.4034185 -0.909327 0.1018715 10 10 10
0.0599345259538496 -0.0559900279336847 0.0712699397844591 -0.02525336 0.2318196 0.9724309 135 135 135
-0.0598877675661241 0.0779641394323431 -0.00782637750680065 -0.3382458 0.2789708 0.8987575 128 128 128
0.0123699896207655 0.145497394055756 -0.00142761027390576 -0.3504133 0.2621364 0.8991635 156 156 156
-0.0433652408250963 0.00220842406216493 0.0330056949896135 -0.09518337 0.644721 0.7584689 156 156 156
0.0850804142824019 -0.0665292020135797 0.0664782627863207 0.995718 -0.08532517 -0.03557001 109 109 109
0.0035315744748915 0.0872251515096747 0.0131536825937548 -0.3603404 0.2853312 0.8881109 179 179 179
0.0366897575727309 -0.00409667447146544 0.0541093751234331 -0.2858139 0.3978678 0.8717864 206 206 206
0.0706175260415877 0.0514686827367865 0.014649520759038 0.9980351 -0.06260683 -0.002516506 98 98 98
0.013852476345619 0.0416992430395209 0.0311607822222033 -0.332818 0.2812054 0.9000865 184 184 184
-0.0154625184663927 0.165539098233613 -0.0181963936048231 -0.3466925 0.2688058 0.8986366 137 137 137
0.0712060026994551 0.105621409863862 0.00430653536742115 0.9559202 0.2120774 0.2030759 68 68 68
-0.0757991678842699 0.047612977475556 -0.00431307112748242 -0.3383478 0.2845035 0.896983 137 137 137
-0.0498293645509874 0.103712273091706 -0.0121838644700727 -0.3333785 0.2811333 0.8999016 105 105 105
0.0144410126081312 -0.0563197608285821 0.0740151807112017 0.04298609 0.2472736 0.9679917 40 40 40
-0.0541689999231493 0.108906817883881 -0.015493233557292 -0.3372715 0.2900325 0.8956166 129 129 129
0.0797162346711958 0.0365780119604193 -0.0209011629777632 0.8907114 0.2704532 0.3653606 57 57 57
0.0859178595414961 -0.0462135548883356 0.0265152558130541 0.9984774 0.03576212 0.04199965 120 120 120
-0.000768841041008161 -0.0945659156137384 -0.0137330487924299 -0.3635213 -0.9110394 0.194575 47 47 47
-0.151674509776512 -0.0268929477029718 -0.00324146902138805 -0.4391097 -0.8781902 0.1896437 31 31 31
-0.0489783890375292 -0.0736945147806085 -0.0109954372602186 -0.3948259 -0.8948886 0.2080548 8 8 8
0.0102039568296278 0.0377097849554144 0.0312243803781786 -0.3309568 0.2773154 0.9019777 165 165 165
0.0453131787649 -0.0442680592828668 0.0687539979261675 0.01200379 0.2488683 0.9684629 125 125 125
-0.0548178560861742 0.101391506642731 -0.0131781593518934 -0.3444272 0.2686597 0.8995509 218 218 218
0.0714776210656966 0.099256945104035 -0.00162609374100781 0.9940813 -0.08681898 -0.06530667 68 68 68
0.0254408709874953 0.0312388663000189 0.0388720735353746 -0.339635 0.283919 0.8966817 135 135 135
0.0195108644834364 -0.0793601746850885 0.074592272881917 -0.6163924 -0.6364833 0.4636264 80 80 80
0.0704817466607893 0.00430686518612733 0.0555748745245256 0.04010011 0.2147336 0.9758491 78 78 78
-0.0275971300729906 0.103606653661164 -0.00380595480973339 -0.3491172 0.2917622 0.890501 132 132 132
-0.0781869895586168 -0.000708031206694937 0.0277947887224474 -0.01806601 0.7601442 0.6495032 210 210 210
0.000770270096381975 0.0308383230871283 0.0297765835565844 -0.3438511 0.2815592 0.8958185 157 157 157
0.0774529270997847 -0.0183915372186578 0.0624609097284594 0.01378476 0.3650429 0.9308887 124 124 124
0.0746010832658613 0.112344933003815 -0.0212900236802778 0.9807794 -0.176241 0.08373058 56 56 56
-0.0100485689767992 -0.093607234507171 -0.0267275766092024 -0.3959945 -0.9031132 0.1660567 112 112 112
-0.0342212922701036 0.13071007773343 -0.0144764379220686 -0.3224409 0.2743996 0.9059452 124 124 124
0.0358976118436659 0.0233149056142889 0.0454704567236223 -0.3306063 0.2985682 0.8952969 241 241 241
-0.0414187319406664 0.128033233136567 -0.0359775320249281 -0.7125837 0.6084622 -0.3492824 52 52 52
0.0382967584005202 -0.0835760112100519 0.0791467829984941 0.001374429 0.2455582 0.9693809 47 47 47
-0.0234023935922777 0.0527665142721259 0.0137407287401476 -0.3354404 0.2817631 0.8989379 178 178 178
-0.00118374897328966 0.0974195723241889 0.00808779442732716 -0.346248 0.2733727 0.8974295 216 216 216
-0.100379229319969 0.0583581452077948 -0.0171419874387465 -0.3338563 0.2923605 0.8961391 150 150 150
0.0842610888353194 -0.0703378196054376 0.0404563649935045 0.9911199 -0.1270238 0.03932221 100 100 100
0.08424299882563 -0.0250015731149591 0.0419455572408953 0.9971005 0.02472876 0.07196639 133 133 133
-0.0818876035341417 -0.0634958024316705 -0.033996571655818 -0.3810047 -0.9180496 0.1096371 110 110 110
0.0813005857339705 0.00809891268673768 0.0440226300997057 0.9920067 0.09812825 0.07933261 119 119 119
-0.0569906838068163 0.0846261505788886 -0.00878872429902172 -0.3258636 0.2688983 0.90637 102 102 102
0.022849320637306 0.153269601315888 0.000162224416188239 -0.3504153 0.2678921 0.8974647 180 180 180
0.0162516825071181 0.169573259801301 -0.0137451187329969 0.6211374 0.782863 -0.03624743 126 126 126
0.0380365245214308 -0.0125099892908014 0.0627910896581926 -0.02758035 0.6335539 0.7732068 142 142 142
0.068127869831642 -0.096809196024505 0.0864233478349962 0.002539153 0.3197144 0.9475105 118 118 118
-0.0397664911874925 0.0630393747991644 0.00455815637534046 -0.3304879 0.2876992 0.898892 164 164 164
0.0656985037198866 -0.0142645116144098 0.058963279370717 -0.052808 0.3902134 0.9192088 77 77 77
-0.132813215983788 -0.00691871598300109 0.0276259883684435 -0.2889332 0.7350169 0.6134066 94 94 94
0.00888818429621108 0.157160950154694 -0.00626965319687939 -0.3425162 0.2757486 0.8981344 98 98 98
0.0848465554586256 -0.0246435876184381 0.0206220253748217 0.997375 0.03396092 0.06395125 83 83 83
-0.155492068065087 -0.0242634291940607 -0.0279239014344893 -0.9458048 -0.3085637 0.1012013 90 90 90
-0.0111802823671495 0.0185250763601386 0.029317180756978 -0.3292737 0.2900841 0.8985711 172 172 172
0.00113242791803725 0.175451231450471 -0.022871185894557 0.3533369 0.8627945 -0.3615782 58 58 58
0.0576258592477644 0.0739188914007269 0.0370045110029497 -0.3423951 0.2833571 0.8958094 192 192 192
0.0402432672849501 -0.0966101165109552 0.0731594964308062 -0.5219323 -0.8040879 0.2846565 73 73 73
0.0849672548642958 -0.0201889748865045 0.0179080470842638 0.9942853 -0.01274169 0.1059922 100 100 100
0.0707646601072157 -0.0641556258493341 0.074307392482213 -0.0386024 0.2948183 0.9547732 68 68 68
-0.0228592164644396 -0.0413541074090875 0.0627347930712023 0.02722456 0.6333073 0.7734214 65 65 65
0.0709344439378584 0.0556408886617743 0.016425232533864 0.9956265 -0.07365657 -0.05746811 84 84 84
0.0746915929189528 0.033759069890412 0.0277130409521379 0.8897722 0.4561573 0.01503474 68 68 68
0.0380251996389235 0.149915290326508 -0.0198007420259199 0.6100073 0.7272297 -0.3146872 209 209 209
0.00430113004358657 -0.0988232369714654 -0.0274684921460829 -0.3954108 -0.8918765 0.2195599 119 119 119
0.0708891444078291 0.0514789347356879 0.0348678633016863 0.9999542 0.007075666 0.006448988 56 56 56
0.0524201385846937 0.131411743611725 0.0178572639269152 -0.3095571 0.2842789 0.9073918 209 209 209
0.0690784745088423 -0.0796932454400934 0.0792463823599138 -0.05959759 0.3854342 0.9208087 74 74 74
0.020325659977516 -0.00733022645053039 0.055213074330739 -0.1943333 0.5716842 0.7971271 59 59 59
-0.128807008994499 -0.0218825812631525 0.025946329478673 -0.3629801 -0.699012 0.6161394 97 97 97
0.0420086972585524 0.111861896962556 0.0202822192949572 -0.3297437 0.277615 0.9023298 164 164 164
0.068557887541374 0.00358374163571229 0.0558049186510363 0.04213268 0.2176292 0.9751217 66 66 66
0.00339573548944838 -0.0048686738305963 0.0491790875238695 -0.1941187 0.5507728 0.8117679 205 205 205
0.0207783572545851 -0.0280513043695367 0.0672906144899645 0.1775215 0.01542677 0.983996 103 103 103
0.0678109817376936 0.0940716986364447 0.0187488004011431 0.9076037 0.1481388 0.3928235 110 110 110
0.0818324975839461 0.00512237593594422 0.0405806704801836 0.9898958 0.07723458 0.1189164 111 111 111
-0.127698004973808 -0.00697045281466613 0.0297620996279039 0.02843077 0.721968 0.6913421 94 94 94
-0.0317768461832201 0.0229998354620062 0.020160447005681 -0.2072424 0.5663698 0.797669 158 158 158
-0.151870668662468 -1.48291879571438E-05 -0.00655185138756847 -0.8178336 0.09444007 0.5676524 112 112 112
0.0667472176423872 -0.0480423445993341 0.0691448553842821 0.04054178 0.3076182 0.9506458 103 103 103
0.0343132607808913 -0.057033109217254 0.0732528671068468 0.09410497 0.2712092 0.9579091 72 72 72
-0.0921632654794847 -0.0550522084527887 -0.0107310012536726 -0.3976869 -0.8997316 0.1798002 18 18 18
0.0705496661535109 0.0575650458044135 -0.00130691086823559 0.9943753 -0.105751 0.005875715 49 49 49
0.0086241357198561 0.11352450892392 0.00695140207236195 -0.3638345 0.2728253 0.8906126 124 124 124
0.00774139093073256 0.0196161989873969 0.0358476146501818 -0.3312794 0.2870162 0.898819 169 169 169
0.0836726121774519 -0.0746458049112237 0.0442796155256548 0.9962029 -0.08591153 -0.01410529 112 112 112
0.079037248360237 -0.106142806559173 0.0321993335527697 0.9668975 -0.2546316 0.01649111 87 87 87
0.0828849367967451 0.0138114218420111 0.028031061534337 0.9766173 0.1566657 0.1472229 224 224 224
0.0349469773641432 -0.106012272387115 -0.00245781695420361 -0.3410183 -0.9306185 0.1328748 103 103 103
-0.0723362572321092 -0.0172243590646661 0.0547360285562792 0.2123222 0.5536956 0.8051959 46 46 46
-0.119685650599877 0.0415955309576117 -0.0299405649858198 -0.6935275 0.6100678 -0.3831929 79 79 79
0.0896297685972059 -0.0698760028177179 -0.0199320510583601 0.9868663 -0.09742481 0.1288539 63 63 63
0.0463694326749647 0.0593882326788031 0.0378767355722704 -0.3391552 0.2790742 0.8983826 166 166 166
0.0329099886289442 -0.04986386254367 0.0711801155847826 0.09439658 0.2922986 0.9516569 91 91 91
-0.040966094268242 0.0716109995550238 0.00142980659430408 -0.3393655 0.2756339 0.8993648 164 164 164
-0.0234023935922777 0.0241423372930609 0.0226208671373644 -0.3334795 0.2805771 0.9000378 162 162 162
0.0105819694867934 0.141236496419343 -0.00104131257111645 -0.3411697 0.2832857 0.8962993 176 176 176
-0.0954095132478868 0.0616986279195868 -0.0160074428277693 -0.3437061 0.2780778 0.8969609 128 128 128
-0.029445589316765 0.127313566655549 -0.0117113486486158 -0.3320529 0.2869902 0.8985419 123 123 123
-0.102710545791069 -0.0355555291467584 0.0257943376344957 -0.4963786 -0.710317 0.4990571 181 181 181
0.0363050095907057 0.103428316563996 0.0204310818952837 -0.3375171 0.2758175 0.9000039 168 168 168
-0.141821385157982 -0.0234600777917779 0.0154461070341387 -0.2365169 -0.7367907 0.6334028 32 32 32
-0.095331967605034 0.0674688343710028 -0.0334498480516157 -0.688802 0.6298955 -0.3588642 48 48 48
0.0406506650319899 0.125655961484345 0.0154772504610338 -0.3362693 0.2811951 0.898806 174 174 174
0.0227701060643996 -0.107037233858672 -0.0261378780561171 -0.397459 -0.901946 0.1688778 27 27 27
-0.110360682738701 -0.0507603164010919 -0.0284356669145308 -0.3885095 -0.8967426 0.2119272 98 98 98
0.0444870583883131 -0.0992798085504449 0.0689915820402422 -0.4422506 -0.8831077 0.156637 106 106 106
-0.0436368591913378 -0.078421163111297 -0.0260324374395094 -0.3611813 -0.9147466 0.1810709 46 46 46
0.0189375274053419 0.161273193807038 -0.0276246563153944 0.5885373 0.7467219 -0.3098875 72 72 72
0.0848314456811751 -0.0576773162179864 0.0452629431528368 0.9936217 -0.07945297 0.08001986 118 118 118
-0.0422335870393907 0.0380844597524725 0.0114769443315783 -0.3439003 0.2822361 0.8955866 223 223 223
-0.00562745405522935 0.147442055196198 -0.00896929657036877 -0.3401075 0.277404 0.8985398 153 153 153
-0.0937747366556322 -0.0385599608713068 0.032473634128026 -0.5805261 -0.7142411 0.3909591 49 49 49
0.07185485886248 0.0392571215337836 0.00820590103094959 0.9190212 0.3615052 0.1572071 109 109 109
0.0506094686857069 0.038153601140412 0.0459851428312578 -0.3156437 0.2853446 0.9049572 203 203 203
0.0489949576726759 -0.107995080500213 0.0243321760935106 -0.4010959 -0.9074882 0.1248493 87 87 87
0.0897203080526198 -0.0380849118524469 -0.0198301569181166 0.9941146 0.05611624 0.09266694 117 117 117
-0.0263674266466295 0.0120039705938422 0.0316451593679705 -0.2164341 0.4848897 0.8473714 88 88 88
0.0209594361654127 0.0453670744604193 0.0328475936693468 -0.3283978 0.2769378 0.9030284 140 140 140
0.0819645218721236 -0.0966808076196588 0.0762943729204454 0.970954 -0.2350218 -0.04486769 113 113 113
0.0626278810373152 -0.0203570599847711 0.0619030698580065 0.05645674 0.4047862 0.9126669 104 104 104
-0.0735584504732286 0.00775463625851502 0.0212751134676256 -0.2359747 0.6630271 0.7104301 161 161 161
-0.0295134790071642 -0.0327253814035333 0.0567481919569292 0.007366091 0.5809249 0.8139238 109 109 109
-0.0602951653131639 0.100130272359284 -0.0419702128129683 -0.6925734 0.6259159 -0.3585685 29 29 29
-0.0769534714349901 0.0111125235265814 0.01599506581252 -0.2393192 0.5383884 0.8080001 122 122 122
0.0644159607759321 0.128493142575654 -0.00982948100144482 0.6908871 0.7192106 -0.0735599 91 91 91
0.0518316917291487 0.0998950724310004 0.0273812516969957 -0.3470608 0.273933 0.8969445 173 173 173
-0.0153674490579759 0.047738504857453 0.0183389588636675 -0.335724 0.2873177 0.8970719 134 134 134
0.0605003528467024 0.105196428746613 0.0282834574026384 0.4773105 0.2969739 0.8270315 124 124 124
-0.0513548858293688 0.0854181770986639 -0.0071052209096632 -0.3457275 0.272506 0.8978936 113 113 113
-0.046036005748192 0.0677874808019721 0.000625650529316901 -0.3331102 0.2772013 0.9012197 140 140 140
0.0794446759095991 -0.113281774073211 -0.00897251522118664 0.9933994 -0.09122799 0.06953491 127 127 127
0.0792635969987715 0.0210240606969916 0.0523795589250841 0.8509133 0.2733029 0.4486113 218 218 218
-0.0267069347032701 0.0668057923025214 0.00822062337820911 -0.3399108 0.2911075 0.894269 219 219 219
0.0576258592477644 -0.111868309527007 0.0209839745802202 -0.384167 -0.9067435 0.1738731 124 124 124
-0.0432747013696825 0.109053326100739 -0.0112854138570509 -0.339295 0.2796355 0.8981553 121 121 121
0.0641443424096907 0.0114676480001532 0.0545948847574511 -0.04961573 0.009292873 0.9987252 106 106 106
-0.0265258557924425 0.0145273928350531 0.0302375062746325 -0.08433531 0.6127272 0.7857817 75 75 75
0.0166364304891432 0.153760624379548 -0.00239201342637158 -0.3480407 0.268708 0.8981446 195 195 195
-0.0114156611093675 0.149596763104829 -0.0117637709336958 -0.3437007 0.2773335 0.8971934 157 157 157
-0.00970906092015855 0.140237999410065 -0.00805108701760388 -0.3405266 0.2869358 0.8953823 130 130 130
-0.0589371330866014 -0.0461472745233453 0.048628579024724 -0.1992305 -0.8373497 0.5090704 59 59 59
0.00830727742823012 -0.0779086823755182 0.0587106748861589 -0.5415993 -0.7320778 0.4131976 62 62 62
0.0808479480615462 0.0135174517339789 0.0475782259744921 0.9932563 0.09021866 0.07281875 143 143 143
0.0283153645864332 0.0602802757925116 0.0306668385309496 -0.3185855 0.2787049 0.905995 152 152 152
0.0179718129506911 0.157056403607758 -0.0024202958303175 -0.3403693 0.2753805 0.899063 188 188 188
0.0697574906221236 -0.125900077372161 -0.0253360763745985 -0.1948599 -0.9805207 -0.02467379 107 107 107
0.0853067629209364 -0.0507004733377374 0.0546350582880297 0.9991856 -0.003254595 -0.04022022 106 106 106
0.0839261107316817 -0.0722080941491998 0.0265470548910418 0.9873814 -0.1556967 0.02892289 101 101 101
0.0636916451326216 -0.108627724199859 0.0704391702455797 -0.3324995 -0.9341002 0.130004 34 34 34
-0.0571717031129991 0.0229788546270453 0.0165002747816362 -0.3087168 0.3913678 0.8669055 74 74 74
-0.0608156926759874 -0.0190276379877008 0.0480963989538469 0.2818705 0.4214833 0.861917 67 67 67
-0.077813566459099 -0.015437650232879 0.0505008205217638 -0.05156343 0.8389878 0.5417017 28 28 28
-0.0936208374628221 -0.0490843529992975 0.0123449667734423 -0.3475964 -0.8967592 0.2738608 52 52 52
-0.00162887646047227 0.149099898785981 -0.0080486134248457 -0.3451482 0.2771815 0.8966845 214 214 214
-0.00733256412831895 0.08969433352414 0.00818283403342152 -0.3386615 0.2751566 0.8997762 148 148 148
-0.100175560248772 -0.0303879256540216 0.0386989518446245 -0.4861485 -0.7415137 0.4624036 63 63 63
0.079308836924156 0.0441420798009955 -0.0295132294851027 0.9769291 0.1811583 0.1130984 89 89 89
0.0782337479463423 -0.118953394442169 0.000290046576909064 0.9819422 -0.166685 0.08947405 95 95 95
0.050764679180702 -0.0564270491891778 0.0721679731649675 0.07781451 0.2994808 0.9509239 52 52 52
0.0440796606412733 -0.0142564053827203 0.0641244753641405 0.04525518 0.5085576 0.8598379 169 169 169
-0.059910357726494 0.0391163353628241 0.00442705595915699 -0.3342988 0.2944574 0.8952872 152 152 152
0.0736504487863386 0.0354235892004096 0.0241712435526171 0.9137274 0.4055652 0.02488204 84 84 84
0.0897203080526198 -0.0343100304895319 -0.0312230185228071 0.9977646 -0.04849987 -0.04597277 63 63 63
-0.00543886495916002 0.173199010342988 -0.0394382671075544 0.5209283 0.8193216 -0.23947 84 84 84
0.0534612827173079 0.0274949793523871 0.0503353580278673 -0.3345564 0.2906178 0.8964448 216 216 216
0.0389757745138014 -0.110511946230499 -0.0125144914346418 -0.3354849 -0.9079287 0.2512278 28 28 28
0.0743520848623122 -0.126575994043914 -0.025512148495265 0.1893988 -0.9748416 -0.117524 141 141 141
0.0849446050992811 -0.0702401871972955 0.0748515232843676 0.7833472 0.1403816 0.6055246 121 121 121
-0.134442806971947 -0.0326657767587579 0.00553477847998524 -0.3684272 -0.9054541 0.2107469 4 4 4
0.052571057545265 0.139832091779145 -0.00163294827515698 0.665422 0.7426264 -0.07562785 24 24 24
0.0821606807580794 -0.0122288937860406 0.056451152209691 0.9166589 0.2003209 0.3458438 159 159 159
-0.0810275085100328 0.0372656111425482 0.00284938061659717 -0.217268 0.5867592 0.7800694 98 98 98
0.0440909855237807 -0.0162439818674005 0.0646596952719011 0.03463611 0.306337 0.9512928 171 171 171
0.0780413441530073 -0.0205219264322198 0.0629302963060656 0.1107301 0.1561342 0.9815095 131 131 131
-0.0380463011392748 -0.0280348534875787 0.0523586078924456 -0.2584068 0.5898643 0.7650399 39 39 39
-0.0312336094507372 0.144844603986176 -0.0295680359559736 -0.7156146 0.5630808 -0.4133227 26 26 26
0.0838129215112532 -0.0290409798913873 0.0440555616659441 0.9985755 0.0453985 0.02803541 96 96 96
0.0844240479341353 -0.0739135022455133 0.0541172429365435 0.9943892 -0.1029675 -0.02424622 125 125 125
0.0896524183622206 -0.0684955592447198 -0.0195125535684309 0.9771578 -0.1475566 0.1529365 53 53 53
0.0854350023141707 -0.0505502696329034 0.0504958137316027 0.999742 0.001121001 0.0226851 146 146 146
0.0444757335058058 0.0737143282598578 0.0325887008947649 -0.3325088 0.2795154 0.900727 174 174 174
0.0704365067354048 -0.114201473742095 0.0436168714803972 -0.1664458 -0.9754984 0.1438705 64 64 64
-0.0757312781938707 -0.0109847064309991 0.0442329450887957 -0.02870779 0.8745344 0.4841132 136 136 136
-0.0377822525629198 0.0654208187765204 0.00440112793867969 -0.3285722 0.2862166 0.9000669 157 157 157
-0.0415545709261095 0.0231294159597479 0.0192407771391191 -0.08341252 0.7728083 0.6291341 128 128 128
-0.101790071261803 0.015412164182099 0.0103502675337114 -0.07639442 0.6976221 0.7123814 109 109 109
0.0229058854451979 0.0306045536703192 0.038045208100728 -0.3247575 0.2889569 0.9005756 148 148 148
0.0332268469205702 0.138805103749665 0.00837008202498341 -0.3395802 0.2805842 0.8977515 193 193 193
-0.102936864627281 -0.0346838708215631 0.027670691852025 -0.5024705 -0.7157996 0.4849272 121 121 121
0.0866692952981795 -0.0842439408594049 -0.0194795921998701 0.8833854 -0.4474825 0.1392468 112 112 112
-0.115125001204888 -0.0283287043863214 0.0261910363477983 -0.3840224 -0.775571 0.5010152 125 125 125
-0.0258355147966539 0.122033191174897 -0.00881524836594677 -0.33791 0.2881795 0.895974 151 151 151
0.0639632634988631 -0.0493559117608942 0.0697745486540117 0.02181203 0.3389916 0.9405365 104 104 104
-0.00385832859365098 0.173460793942841 -0.0357762471395216 0.5118539 0.8001416 -0.3126962 119 119 119
0.0146672718396986 -0.0649527783685602 0.0758325561327257 0.05968037 0.1960389 0.9787783 123 123 123
-0.118282438052574 0.0433225159353339 -0.0296577111440382 -0.7153 0.5893959 -0.3754443 112 112 112
0.0706779055467451 0.0695141081518256 -0.00130175506646252 0.9992949 -0.03488566 -0.01388326 55 55 55
0.0683541886678541 0.0767499928182684 0.0350497468752184 0.8551153 0.3561627 0.3767306 103 103 103
-0.100039780867973 0.0640319113439642 -0.0186279908376417 -0.3615603 0.2982053 0.883373 142 142 142
-0.00356781555501573 0.101627660245331 0.0059425040525713 -0.3336712 0.2774464 0.9009368 138 138 138
-0.0694391138681566 0.0892275099462592 -0.0151604906278334 -0.3407874 0.2747503 0.8990974 106 106 106
-0.0600688464769518 0.0145519499487006 0.0197759970468798 -0.314766 0.5128577 0.798686 232 232 232
0.0159800641408766 0.0959106211370551 0.0151402159971514 -0.3315496 0.2712597 0.9036 116 116 116
0.0736504487863386 0.0410902027792059 -0.00151412641579723 0.9254124 0.3298615 0.1865564 68 68 68
0.0935679964891279 0.00530130907955995 -0.0335667029576979 0.9938446 -0.06482243 0.08983807 91 91 91
0.0851709537378157 -0.046593713312713 0.0521739527029314 0.9997616 0.01120582 -0.01874112 123 123 123
-0.0676284439691698 0.00346095606747499 0.0262709959787645 -0.173448 0.7124161 0.6799846 231 231 231
0.0846503965726698 -0.0688781018548883 0.0625186070246019 0.9967988 -0.0770418 -0.02137215 92 92 92
-0.0815028555521166 0.0775777821249091 -0.0394138292031965 -0.5745128 0.7043819 -0.4168706 51 51 51
0.0835639827123488 -0.0785928244882501 0.0458165510935106 0.9974292 -0.07032712 -0.01375125 97 97 97
0.060839860903343 -0.0357021565729059 0.0649665399832048 0.08416966 0.1881331 0.9785302 109 109 109
0.0614283375612105 0.130406928510102 -0.0074118570047102 0.6610095 0.749222 -0.04162863 54 54 54
0.0809007279744948 0.0216387037939154 0.028647403363637 0.930948 0.3611017 0.05423503 145 145 145
0.0832018546930159 -0.0937144036584772 0.0828195914072313 0.921711 -0.02376476 0.3871488 95 95 95
-0.138018906844536 0.00741357848111024 0.00489876711790943 -0.2878752 0.8361177 0.4669423 69 69 69
0.0407864444127882 -0.0115569110208429 0.0620409055990496 0.06222851 0.7314587 0.6790404 142 142 142
0.0126755826345289 0.170376134366425 -0.00994162714058971 -0.002061761 0.5868456 0.8096963 246 246 246
0.0741182260385359 0.119685721845063 -0.0175145760732374 0.8264549 0.5594702 0.06297051 150 150 150
-0.0575507886537706 -0.0243559356027521 0.0505493089002886 0.3275139 0.5268808 0.784303 44 44 44
-0.00520497633306138 0.0381581310934149 0.0251301332754412 -0.3348846 0.2766772 0.900723 226 226 226
0.0762306742540205 -0.115836309938995 0.0484640404028215 0.4418724 -0.8872993 0.1320934 82 82 82
-0.026042998565117 0.0735901121801459 0.00624246442740345 -0.3439228 0.2715713 0.8988693 215 215 215
0.065909772383293 0.129493070096406 0.00754065359061146 0.8530313 0.480621 0.2033247 115 115 115
0.0642348818651045 0.129198861569794 -0.00111352359826183 0.6309716 0.7510447 -0.1944396 49 49 49
0.0506886832586134 0.0636188511556708 0.0381379231256762 -0.3472388 0.2884504 0.8923125 243 243 243
0.0764796428552473 -0.114551829844085 0.0447739466470995 0.7819584 -0.6116588 0.1200608 95 95 95
-0.125917495025078 -0.0208722825342096 0.0286650761408129 -0.3563453 -0.7124106 0.604557 93 93 93
-0.0256204612383043 0.0459950689977728 0.0150006815237322 -0.3317408 0.2836467 0.899718 224 224 224
-0.0305546529421007 0.122103405446442 -0.0102735952096663 -0.3306022 0.2797017 0.9013707 115 115 115
-0.0645050413736498 -0.0691384549432672 -0.0231931403833113 -0.4020258 -0.8946658 0.1948035 28 28 28
0.0708529345861281 0.0936719898885809 -0.0074082211213789 0.9879373 -0.1116992 0.1072532 67 67 67
-0.0738526589998399 0.0672075276083075 -0.00963364994103527 -0.3435948 0.2843029 0.89505 151 151 151
-0.103581906093041 0.0123351340002142 0.0127627059263506 -0.1582172 0.6188285 0.7694274 145 145 145
-0.131217480433861 0.00754768893185487 0.00673441136305714 -0.1236695 0.8159655 0.5647178 73 73 73
0.0432308904996718 -0.045881199389068 0.0690545841497698 0.03642394 0.2859789 0.9575434 135 135 135
0.0876379899850691 0.0189902310079657 -0.0123990074353895 0.9162174 0.3383404 0.2146427 150 150 150
-0.0216218836435472 0.153932047337922 -0.0169581667142591 -0.337756 0.2801282 0.8985817 133 133 133
0.0789467387071455 0.0578962092107855 -0.0326784149366102 0.9104846 0.2486235 0.3304605 115 115 115
-0.120123267901817 -0.0281119818979181 0.0221664413255968 -0.3456742 -0.7999623 0.490479 63 63 63
0.00230932162912734 0.0220893149084174 0.0330659254831591 -0.3362063 0.2944431 0.8945773 158 158 158
0.0398509495130385 0.0153755669302069 0.0490217610639849 -0.3378341 0.2728535 0.900788 179 179 179
-0.135031283629814 -0.0417205567651666 -0.0389651850419722 -0.4006678 -0.9028989 0.1556886 80 80 80
0.0712965421548689 0.0400758509344183 0.0106904312414446 0.9470899 0.3110543 0.07915848 113 113 113
0.0289717309346998 -0.0936170096689142 0.0634652479929247 -0.5332749 -0.8035073 0.2645637 42 42 42
0.0879699580541456 -0.0509375806146539 0.0125079258722582 0.9935797 0.0341009 0.1078729 101 101 101
-0.141142369044701 0.0147083525365912 -0.0288526908117018 -0.7508099 0.5867406 -0.3033479 60 60 60
-0.0143489844926988 0.0891822104162299 0.00592572534506702 -0.3437616 0.2645077 0.9010348 109 109 109
0.00787722991617568 -0.0720330949121393 0.0693512364668169 -0.5941221 -0.7568139 0.2724916 81 81 81
0.0846730165353621 -0.0963376040750421 -0.0335469440179548 0.9562548 -0.292087 0.01618489 132 132 132
-0.0435915596613085 0.0200666908926093 0.0220484539312639 -0.2093573 0.5666957 0.7968848 81 81 81
0.0266178243032301 0.147122455090912 0.00359613740866566 -0.3420043 0.277673 0.8977365 189 189 189
-0.0148016221651232 0.173656654805573 -0.0200673237996778 -0.3561346 0.3602747 0.8621892 146 146 146
0.00832986758859999 -0.0929573054605402 0.00718970144217396 -0.3827083 -0.9108429 0.1545949 97 97 97
0.0702554278245772 0.0725663428014838 0.0179470583242693 0.9884981 -0.1356437 0.06687571 92 92 92
0.0484365813604201 0.0426021341985785 0.0437359317583361 -0.3239605 0.2807402 0.903457 183 183 183
-0.121586919558922 -0.0270747418695367 0.0226743027014055 -0.3149393 -0.7990522 0.5121804 80 80 80
0.0793541364541853 -0.111296700983611 -0.00179698025757885 0.9890644 -0.1447503 0.02826557 110 110 110
-0.0918916471132433 -0.034615444689361 0.0388960644048967 -0.5132829 -0.6791576 0.5246767 87 87 87
-0.0577601797708666 0.106093001813325 -0.0358483985620222 -0.7102113 0.5939065 -0.377988 38 38 38
0.0696443014016951 0.122755599469575 -0.0138801530557356 0.616437 0.787302 0.01269057 50 50 50
0.0712060026994551 0.0547683958715521 0.0353828176302233 0.9918726 -0.002452866 0.1272111 93 93 93
0.0702101580968703 0.0876320128149115 0.0146556004328051 0.9544905 0.2139971 0.2077332 78 78 78
-0.0375483639368211 0.00197870776120057 0.0342164739412584 -0.1771215 0.6120996 0.7706893 132 132 132
-0.0884966261514818 0.0335105185216986 0.000919680241993903 -0.3326083 0.3476436 0.8766503 96 96 96
-0.103321612609307 0.0299330477422797 -0.00367643391663647 -0.2676614 0.5204344 0.8108671 113 113 113
0.071432381140312 0.0185991053289496 0.0550722583574572 0.09943765 0.0311915 0.9945548 91 91 91
-0.0479522950777208 0.0454673294729315 0.00684158051436329 -0.3418172 0.2770459 0.8980014 134 134 134
0.0232680432668532 0.116899800748261 0.0114956303877153 -0.3400285 0.2692958 0.9010329 152 152 152
-0.00554901434270494 0.127452087850007 -0.0028560057836256 -0.3355512 0.2703551 0.9023932 239 239 239
-0.0956261761316454 0.0728874926275336 -0.0199105337815962 -0.5428669 0.5080724 0.6686987 106 106 106
-0.0142132051119005 0.168450189084443 -0.0187426701741896 -0.3309577 0.2687728 0.9045597 158 158 158
-0.0379331715234911 -0.0572808261209405 0.0433827444357195 -0.4408337 -0.7731699 0.4559319 120 120 120
-0.0718835599550401 -0.0521400447183527 0.0232600673479357 -0.3397688 -0.8806624 0.3301377 34 34 34
-0.00149309707967393 -0.0950398917489923 -0.0212759271817884 -0.3758189 -0.8946576 0.2415531 78 78 78
-0.148022950423638 0.0130825762456976 -0.0126280978875837 -0.7990176 0.6003246 0.03436832 42 42 42
-0.153581739200035 -0.0191441054635919 0.0160381003660479 -0.5038844 -0.5605635 0.6571675 83 83 83
-0.0329084999689256 0.0137577776617133 0.0287041171831408 -0.2699779 0.42909 0.8619708 80 80 80
0.0759590558877791 0.0270093207067572 0.0516148015302935 0.7008913 0.4456422 0.5569151 234 234 234
-0.0869122750887071 -0.060861873179046 -0.0275516704278669 -0.3904133 -0.9028652 0.1800329 37 37 37
-0.0296605832704698 0.000809145421417856 0.0378537281793871 -0.1585029 0.64206 0.7500905 191 191 191
-0.102438927424828 -0.0554670567804254 -0.0338159695821486 -0.3883441 -0.9102032 0.1439412 73 73 73
-0.0526450283655321 -0.0276864047342218 0.0508436664385118 0.2145774 0.5721833 0.7915573 119 119 119
-0.0421430475839769 -0.0650043959909357 0.0246969863218584 -0.5216449 -0.7158706 0.4641291 56 56 56
-0.0745090849527513 -0.0263504262262262 0.0581973298830309 -0.09447541 0.1614741 0.9823444 91 91 91
-0.0180608637460863 0.151900005788239 -0.014835377092906 -0.3264548 0.2764605 0.9038788 154 154 154
-0.0842415101656114 -0.0589612002664484 -0.0136304691987715 -0.3836639 -0.9080538 0.1680484 78 78 78
-0.0680584914812242 0.0510046009725653 -0.00234990274483776 -0.3370598 0.2794566 0.8990521 130 130 130
0.0841071896425093 -0.0762905354791559 0.0547869607252398 0.9927948 -0.1170754 -0.02553118 105 105 105
-0.103095293773094 -0.0545856232934869 -0.0298740462022505 -0.4088793 -0.9006421 0.1471783 68 68 68
-0.0230553753503954 0.0892608885473334 0.00259182894652271 -0.3420355 0.2697208 0.9001458 191 191 191
0.0432761304250563 0.140731764287385 -0.0303906992631636 0.5577105 0.8144855 -0.1599133 61 61 61
0.00874864982279189 0.0814256195730292 0.0168277427000322 -0.3268988 0.286856 0.9004725 175 175 175
0.00692659543665297 0.161476088017853 -0.00849904572541332 -0.334167 0.2812391 0.899576 235 235 235
0.0161610834470595 0.161643457860383 -0.0313837722497664 0.6167654 0.7478374 -0.2456413 64 64 64
-0.126973748935143 -0.0318896050744928 0.0142198308748522 -0.3265422 -0.7046306 0.629973 97 97 97
-0.0442479260095751 0.124143672437104 -0.0322593048768721 -0.7151164 0.5790967 -0.3914787 31 31 31
-0.122401715053002 0.0322845701879584 -0.0417123035150251 -0.6147751 0.7116998 -0.3399042 58 58 58
0.0649440579286421 0.127271485776337 -0.011810828800746 0.6817858 0.728747 -0.0640002 57 57 57
0.0860235087743605 -0.0810516352945245 0.000621627215794562 0.945228 -0.3233806 0.04437327 93 93 93
-0.0601367361673509 -0.019233512430755 0.0481575831217089 0.268981 0.4143254 0.8694732 64 64 64
-0.0643239624628221 0.102327299565705 -0.0304670230107985 -0.7128282 0.5949765 -0.3713207 41 41 41
0.0679920606485213 0.124731374234589 -0.019463439341136 0.5983723 0.8005809 -0.03195084 83 83 83
-0.136253476870934 -0.0371711726480402 -0.0184989765840254 -0.4158399 -0.8959703 0.1559306 49 49 49
-0.0151185400613939 -0.0744328971200861 0.0390907629770555 -0.5222468 -0.6609687 0.538868 119 119 119
0.0763212137094343 -0.0224242682748712 0.0637649699491777 0.1081632 0.08677362 0.9903389 113 113 113
0.0784261219373549 -0.108250784426299 0.0344766184133806 0.9680586 -0.2507226 0.0008436567 94 94 94
0.071907668577751 0.0994647268957221 -0.0142329231458387 0.992066 -0.006178537 0.1255658 71 71 71
-0.135981918109337 0.0279564385122382 -0.0179035559850416 -0.7861537 0.6123948 -0.08327632 24 24 24
0.0227022163740004 0.0872817759222113 0.0202980145258226 -0.3333754 0.2680548 0.9038846 155 155 155
-0.0184230215677416 0.103900027722748 -0.000677336807795526 -0.3330281 0.2883089 0.8977584 183 183 183
-0.0606120236047899 0.067241621465119 -0.00457354342515087 -0.3270674 0.2949254 0.8978006 146 146 146
-0.0948792703279649 0.019767952412995 0.00733716333334827 -0.2439655 0.5956441 0.7653032 99 99 99
0.0841411046853865 -0.000229167490569449 0.024572114591054 0.9925694 0.01728777 0.1204454 127 127 127
-0.0147111423143541 -0.088157581835357 -0.0130256310659132 -0.3962798 -0.8970752 0.1954952 60 60 60
0.0521937899461592 -0.0402966018014825 0.0672441228670397 0.06584842 0.2918516 0.9541942 105 105 105
0.0700743489137495 0.0875545267767035 0.00888900006239796 0.9862366 0.1624051 -0.03101485 55 55 55
0.0429321520200575 -0.0447464461618341 0.0688126786989489 0.01263281 0.260767 0.9653191 165 165 165
-0.119527221454064 -0.0401554580026544 0.00202019060080433 -0.398857 -0.8838695 0.2443108 42 42 42
0.0184320204130018 0.0634428982442938 0.0260945066255846 -0.3364967 0.2815303 0.898616 112 112 112
-0.0634638674387132 0.0826828007406317 -0.0105777577119551 -0.337461 0.2751293 0.9002355 116 116 116
-0.0195546753534471 -0.0428966756158746 0.0642017229837694 -0.1021165 0.6921803 0.7144639 48 48 48
-0.00396013332692735 -0.0970681186014093 -0.0333670273977003 -0.4355737 -0.8935456 0.108866 141 141 141
-0.0719287998804247 -0.00867598012026916 0.0382369860452929 -0.06525254 0.8876514 0.4558697 96 96 96
