ply
format ascii 1.0
comment File exported by Rhinoceros Version 7.0
element vertex 478
property float x
property float y
property float z
property float nx
property float ny
property float nz
property uchar red
property uchar green
property uchar blue
end_header
0.00672006969526584 -0.0355844784571742 -0.0129253965631161 -0.2686595 -0.9632218 -0.005079555 75 75 75
0.00691924705957936 -0.0355449369283753 -0.0161139116405171 -0.264552 -0.9596106 -0.0957066 73 73 73
0.0136020206865803 -0.0370147796580174 -0.0115214522906161 -0.2595114 -0.9655427 0.01952422 70 70 70
0.0146710301846138 -0.0376316817084725 -0.0110777499533802 -0.2568862 -0.9660574 0.02724881 61 61 61
0.0133827783569469 -0.0369371430650041 0.00264537021058978 -0.2858281 -0.957521 0.03815508 46 46 46
0.0126162587931069 -0.0366359407156203 0.000578740132273409 -0.2975288 -0.9540392 0.03585972 55 55 55
0.0157160537377485 -0.0379431167319464 0.00240957234972447 -0.2709667 -0.9614536 0.04673359 52 52 52
0.0167496829029852 -0.0382473161503443 0.00342778950304909 -0.2251343 -0.9705115 0.08615106 51 51 51
0.0146850943644776 -0.0374577035085828 0.00376401903851276 -0.2709667 -0.9614536 0.04673359 37 37 37
0.0116243733449206 -0.0352908721309586 0.00563279687768098 -0.2704927 -0.9618955 0.03988459 53 53 53
0.0172057037553677 -0.0363393486812655 0.00486289659927558 -0.1541933 -0.9729882 0.1718087 48 48 48
0.0143112759359063 -0.0369851565135095 -0.00493081570354018 -0.2856406 -0.9580366 0.02398565 50 50 50
0.0160012334813402 -0.0370349659762392 -0.00481308224621327 -0.2945303 -0.955488 0.01716313 69 69 69
0.0198623661438342 -0.0386979112034278 -0.000340507020197445 -0.2202678 -0.970837 0.09464467 58 58 58
0.0217362884315093 -0.0389507769181709 0.000529075853718863 -0.09754685 -0.9806381 0.1698042 46 46 46
0.0209109689365099 -0.0392587979644599 -0.00391736220874322 -0.2414178 -0.9690646 0.05129638 71 71 71
-0.00657955417566281 -0.0317986083057646 0.00337909594012339 -0.2726933 -0.9618959 -0.01986534 33 33 33
-0.00781611634495749 -0.0303360992862522 0.000596835118889999 -0.2338472 -0.9722712 0.002034001 70 70 70
-0.00476210901617358 -0.0312773562672133 0.000852329235394328 -0.2725475 -0.9616494 -0.03079601 74 74 74
-0.00405104269410672 -0.0305590425248068 0.00515470259049239 -0.2725166 -0.9615431 -0.03419868 60 60 60
-0.00280420982975671 -0.0315495314442962 -0.000630182549125557 -0.2718642 -0.9620731 -0.0224746 62 62 62
-0.00110835136060827 -0.0321486488672631 0.00147365303975452 -0.2766286 -0.9605581 -0.02836734 45 45 45
0.0246100117722083 -0.0287255068819872 0.0163490435514919 0.8998331 -0.162639 0.4047825 68 68 68
0.0223080229412194 -0.0353918371334279 0.0114204983045668 0.429314 -0.8644857 0.2614457 64 64 64
0.0232448545149369 -0.0307290927064168 0.0170190391434963 0.8475655 -0.3009767 0.4370877 71 71 71
0.024369834891913 -0.0332786919685197 0.0139739223190919 0.8442889 -0.3779725 0.3798855 98 98 98
0.0270546162915997 -0.0314635996988091 0.0151765065359906 0.8159841 -0.4039241 0.4135399 72 72 72
0.0267915603713511 -0.0274752558627327 0.0178386952390504 0.8536884 -0.1221319 0.5062608 72 72 72
0.0270631020337471 -0.0297747666866057 0.00854452579471254 0.8558464 -0.4250518 0.2947167 92 92 92
0.0262613795946873 -0.0305388351217735 0.0126330619600893 0.8130175 -0.4184255 0.4048735 96 96 96
0.0280896678877265 -0.0300937189797401 0.0153223586910666 0.8361037 -0.3585224 0.4152015 66 66 66
0.0286965237572225 -0.0295057888456716 0.0132190131744687 0.8431357 -0.2808211 0.458543 75 75 75
0.027700265482328 -0.0299200905671155 0.00914642032573967 0.8558464 -0.4250518 0.2947167 88 88 88
0.0285157219061722 -0.0298016563543992 0.00809322538481794 0.9093332 -0.3027275 0.2854282 89 89 89
0.025421874064163 -0.0248828034610475 0.0152516264631797 0.8730912 -0.06842963 0.482731 87 87 87
0.0269682636803428 -0.0246546400016585 0.0121396805507251 0.8918362 -0.1114187 0.4384222 82 82 82
0.0219880762491866 -0.0209413165376067 0.0209797787061931 0.8511004 -0.04646815 0.5229424 78 78 78
0.022422643707791 -0.0190606906739801 0.0212894976975762 0.7968791 -0.07777867 0.5991112 76 76 76
0.0228011656348972 -0.0218910767776235 0.021189070531073 0.8511004 -0.04646815 0.5229424 74 74 74
0.024795841573731 -0.0201951953256669 0.0186004529906928 0.8438642 0.008012728 0.5364969 105 105 105
0.0218828580160211 -0.0117369613915717 0.0248678149754604 0.8341509 -0.2910416 0.4684945 91 91 91
0.0224956781272188 -0.0114668456870908 0.0234099241818571 0.8166043 -0.2920578 0.4978551 76 76 76
0.0252719230140488 -0.0174776817547644 0.0173077384288756 0.8383654 -0.1007095 0.5357248 106 106 106
0.0278508602034715 -0.0183800710484858 0.0129388754376359 0.8582056 -0.01856884 0.5129701 93 93 93
0.0277082040587642 -0.0140497746076369 0.0146455432137476 0.8845349 -0.0694055 0.4612818 84 84 84
0.0290491849108878 -0.0190515586251576 0.0148598474603237 0.8745516 -0.02472099 0.4843019 53 53 53
0.0256301887237746 -0.0146763225868591 0.0185154798119364 0.8318877 -0.1308664 0.5392928 69 69 69
0.0271138585697319 -0.0128913933931329 0.0148985710310368 0.8655128 -0.06988635 0.4959874 96 96 96
0.0276515319200192 -0.0127887904315145 0.0190899613080489 0.830307 -0.2129042 0.515036 70 70 70
0.0128936505909782 -0.0363900104708785 -0.0201651706940303 -0.2916559 -0.9493876 -0.1166196 88 88 88
0.0130486010316313 -0.0357409262645914 -0.0228682956778411 -0.3290275 -0.8857442 -0.3274114 69 69 69
0.0176464796027307 -0.0383608775721742 -0.0207908560101801 -0.3319332 -0.9358725 -0.1181651 70 70 70
0.0168638087853337 -0.0366996422269494 -0.0254628050320977 -0.3679283 -0.824576 -0.4297712 81 81 81
0.0189561016676825 -0.0386344870085586 -0.0196931667731984 -0.3265183 -0.9429774 -0.06464828 67 67 67
0.017599422747395 -0.0382026010642547 -0.0184442920081634 -0.3158019 -0.9473577 -0.05275092 69 69 69
0.0196885841730468 -0.0393512328476591 -0.0179459876755036 -0.3247078 -0.944895 -0.04169239 77 77 77
0.0230294285658879 -0.0398213880112759 -0.0171517146884887 -0.2952761 -0.955313 -0.01374999 63 63 63
0.0207274487214757 -0.0387371623206345 -0.0154001206989128 -0.3052807 -0.9520553 0.01985757 82 82 82
0.0111651040274476 -0.0358976182829502 -0.0173422487130144 -0.278933 -0.9539335 -0.1104866 91 91 91
0.0130134273655151 -0.0367316097538737 -0.0189172614005142 -0.2952889 -0.9494163 -0.1068327 93 93 93
0.0213708769002885 -0.0396604363490123 -0.0106211443633047 -0.3026161 -0.9525094 0.03390211 71 71 71
0.0195059072814725 -0.038532267670716 -0.012563923751187 -0.2791316 -0.9600844 0.0179858 58 58 58
0.0255610366129617 -0.0410983935797893 -0.00986686940359513 -0.2035964 -0.9762936 0.07347956 67 67 67
0.0275337547627599 -0.0417464554631859 -0.00460719331018589 0.2199167 -0.8916492 0.3957251 85 85 85
0.0290054662987647 -0.0416248560571659 -0.0157532521414823 0.1549387 -0.9846304 -0.08060376 64 64 64
0.0289527033596106 -0.0426687799015 -0.0123792547831874 0.0815784 -0.9944472 0.06648154 105 105 105
0.0284745253451182 -0.0423877593778537 -0.0111495538815982 0.05470509 -0.9925527 0.1088417 107 107 107
0.032423285062422 -0.0394455288693272 -0.00842633471771428 0.6338223 -0.6645648 0.3957561 116 116 116
0.030843765927012 -0.0424897500741843 -0.0130994464463369 0.4143457 -0.9023651 0.1185532 109 109 109
0.0322987729531363 -0.0403835245126625 -0.0117996149732573 0.6379761 -0.745944 0.1911911 105 105 105
0.0171191892489375 -0.0380447881532877 -0.009300425889914 -0.2913412 -0.9561579 0.02970695 63 63 63
0.0188527458906693 -0.038760402599012 -0.0110897929195174 -0.2866641 -0.9576516 0.02696518 62 62 62
0.0206104676158845 -0.0383494693430781 -0.00818834734911467 -0.2745393 -0.961356 0.02056334 72 72 72
0.024632942564895 -0.0397739574368847 -0.00259018763161359 0.166815 -0.9455371 0.2795215 95 95 95
0.031769729065402 -0.0378426449794382 -0.00774815234720422 0.737414 -0.5145934 0.4375091 111 111 111
0.0329205010099549 -0.0336175276940021 -0.00776410017194704 0.9381058 -0.1967245 0.2850563 84 84 84
0.0217710030472074 -0.0350875759041365 -0.029442507297528 0.08960173 0.03172656 -0.9954723 78 78 78
0.0210831571795316 -0.0326010770176173 -0.029182652426814 0.1295543 0.09008518 -0.9874717 66 66 66
0.0229473225201746 -0.0368392450417443 -0.029046417733671 0.06190724 0.03526104 -0.9974589 102 102 102
0.0241806550756269 -0.0383105503834422 -0.0290072412696989 0.09183603 0.04345755 -0.9948254 109 109 109
0.0240273119288383 -0.0324080541536467 -0.028745700297042 0.1571662 0.1515281 -0.9758781 71 71 71
0.0264670791626846 -0.0379743602131228 -0.0293064867007051 0.1091212 0.05768262 -0.9923534 98 98 98
0.028510553193773 -0.0384894333051482 -0.0283882979868956 0.1072774 0.1113854 -0.9879701 118 118 118
0.0281333199121836 -0.0326784419308681 -0.0278243854691962 0.2036944 0.1760505 -0.9630757 101 101 101
0.0312806384372877 -0.0323595647371338 -0.0274362685900707 0.295947 0.1615619 -0.941442 123 123 123
0.0221318943504598 -0.0266294039864727 -0.027806653333143 0.1559441 0.1417288 -0.9775451 118 118 118
0.0202475671964286 -0.0226353687834333 -0.0278530892110764 0.1233999 0.05542007 -0.9908083 125 125 125
0.023683767512334 -0.028527715312936 -0.0280499386287833 0.1608585 0.1583569 -0.9741908 103 103 103
0.0263183008667573 -0.0301756346617035 -0.0278124114303474 0.1910674 0.2000323 -0.9609789 87 87 87
0.0265120510845367 -0.0282823669157815 -0.0275968215594835 0.2098931 0.170087 -0.9628163 130 130 130
0.024721550015786 -0.0272789474716375 -0.0277906947855709 0.1760617 0.143091 -0.9739236 122 122 122
0.0217680367730526 -0.0235648892424836 -0.0278473465347318 0.1305825 0.06043802 -0.9895936 164 164 164
0.0232276484851013 -0.0243966895779826 -0.0275533356839822 0.1385904 0.07246106 -0.9876953 118 118 118
0.0227361520293869 -0.023075509005728 -0.0275154011568372 0.1392438 0.04929971 -0.9890302 137 137 137
0.0208052013207591 -0.0200940329076786 -0.0276658070780673 0.07509556 0.0786532 -0.9940696 152 152 152
0.024516896397907 -0.0244295309256306 -0.0275271217088819 0.1635393 0.07937947 -0.9833381 94 94 94
0.0237966613259222 -0.0198711587882689 -0.027427279435797 0.1405417 0.0513843 -0.9887404 113 113 113
0.0237342120543831 -0.0187321384781884 -0.0273047119864958 0.1656722 0.06817243 -0.9838217 83 83 83
0.0254471803023062 -0.0235589500488089 -0.0273690959473113 0.1783489 0.06621176 -0.9817371 104 104 104
0.0267312829458599 -0.0241080377969711 -0.0269424496690044 0.2163577 0.05027299 -0.975019 110 110 110
0.0275249776595636 -0.0223843118597573 -0.026710816092427 0.2096119 0.03359969 -0.9772072 111 111 111
0.025423636815421 -0.0182887328441708 -0.0269096643319192 0.1852653 0.08894724 -0.9786548 90 90 90
0.0281717652212941 -0.0198063156738006 -0.0265932230426503 0.2509151 0.08756677 -0.9640403 101 101 101
0.0300181344025541 -0.0268930628460402 -0.0260185624631612 0.2640147 0.1757466 -0.9483719 94 94 94
0.033254169614245 -0.0301211486103834 -0.0261800774448886 0.543503 0.07713223 -0.8358559 108 108 108
0.0321157767438811 -0.0289351243417129 -0.0261092007597388 0.3633059 0.1770663 -0.9146892 92 92 92
0.0333351515451847 -0.0262170078420618 -0.025323172898443 0.4432057 0.06077423 -0.8943574 111 111 111
0.0284661711043634 -0.0234010013819619 -0.0263740350252027 0.2462683 0.05420082 -0.9676849 114 114 114
0.0310549392593396 -0.0247164440344181 -0.0255947921537782 0.2682181 0.07402832 -0.9605097 126 126 126
0.0279528434592164 -0.0414142536132711 -0.0188137691187407 0.02814476 -0.948213 -0.3163858 60 60 60
0.0291226548185302 -0.0414771489895671 -0.0189745587568833 0.1567719 -0.9039271 -0.3979176 61 61 61
0.0307749001904136 -0.0413146863742724 -0.0172965040383559 0.2839066 -0.8984345 -0.3349814 73 73 73
0.0328444501369496 -0.0371607203645012 -0.0153877067387273 0.8717987 -0.4896261 0.01527422 81 81 81
0.0331387242465371 -0.0410559258830241 -0.0130696826794361 0.6738307 -0.7367378 0.05629976 107 107 107
0.0351584288510762 -0.0352807678858467 -0.017128573062928 0.9455669 -0.3254234 0.001685139 91 91 91
0.0363064780977898 -0.0383687026673454 -0.0200000861882105 0.8166434 -0.5197819 -0.2508392 78 78 78
0.0371538662076425 -0.0351402125317422 -0.0175675164377888 0.961942 -0.2727004 0.01737916 89 89 89
0.0345003671656952 -0.0347424180209788 -0.0100723905273674 0.9446697 -0.1468168 0.2933324 117 117 117
0.034764837336148 -0.0333577258881044 -0.0119124913719019 0.9624342 -0.1060601 0.2499433 113 113 113
0.0229972617322702 0.021442400976827 -0.00749878113210908 0.5251411 0.8457588 0.09444027 99 99 99
0.0339441656696253 -0.0335256269512627 -0.00853415796775414 0.9370477 -0.1774431 0.3007585 98 98 98
0.0348563038300416 -0.0359905541179102 -0.0137377526117227 0.955357 -0.2694935 0.1211041 102 102 102
0.0355945088113678 -0.0347450551577082 -0.0138542440243901 0.9724112 -0.2059548 0.1095402 105 105 105
0.0354120611848974 -0.0268092685802894 -0.0114536556471428 0.9867267 -0.09543135 0.1313898 125 125 125
0.0357175345826395 -0.0267463608101604 -0.0130490377061135 0.9925922 -0.08613994 0.08567816 100 100 100
0.0361259420065978 -0.0309298287438873 -0.0236959253492391 0.7906526 -0.2258683 -0.5690799 129 129 129
0.0373957923636197 -0.0338120268253499 -0.0152808263176321 0.9828593 -0.1596156 0.09225257 111 111 111
0.0362215131307442 -0.0263306344760614 -0.0160563923947273 0.98004 -0.07975237 0.1821018 87 87 87
0.0376381875184073 -0.0286668624837203 -0.0120000194711547 0.9857464 -0.07576939 0.1502096 96 96 96
0.0225518474996187 -0.0170442675075395 -0.0270298699304441 0.1085168 0.1362446 -0.9847139 89 89 89
0.0220487472125264 -0.0147694864084107 -0.0271866880978272 0.09179476 0.1508164 -0.9842907 123 123 123
0.0234091642150305 -0.014721710551989 -0.0269638364578505 0.1651563 0.16484 -0.9723945 125 125 125
0.0252250781460206 -0.0163044894635691 -0.0267181972616927 0.2207966 0.1392776 -0.9653241 125 125 125
0.0255927123140121 -0.0155815126543011 -0.0266899807378042 0.2373589 0.1512752 -0.9595711 132 132 132
0.0262433352763303 -0.0141876520751225 -0.0259006914036805 0.2806368 0.1700128 -0.9446368 114 114 114
0.0225883501408946 -0.00367460580997148 -0.0244963141721385 0.145774 0.1884873 -0.9711964 156 156 156
0.0342903073570298 -0.0226105168736075 -0.0110009900001277 0.9928948 -0.006815278 0.1187997 80 80 80
0.0353958271590102 -0.0232468971042088 -0.00992052825972239 0.9789692 -0.05677446 0.195949 73 73 73
0.0353886598096584 -0.0158155973236402 -0.00724431807040557 0.9599707 -0.1403476 0.242402 57 57 57
0.035462377071473 -0.013147011092526 -0.00598613876233556 0.9572541 -0.0433424 0.2859825 87 87 87
0.0352353751524983 -0.0224284349504449 -0.0112773608877837 0.9911544 -0.02094392 0.1310504 86 86 86
0.0355535400550677 -0.0182713603275326 -0.0111448794229491 0.9736722 -0.18011 0.1397239 56 56 56
0.0364910382214383 -0.0175526807362694 -0.0147324535881772 0.9702129 -0.1495793 0.1905595 67 67 67
0.0369129551267895 -0.0179489808287194 -0.0160032805338891 0.9861775 -0.1427184 0.08417504 82 82 82
0.0355082060442944 -0.0160896253212464 -0.00904008997751107 0.9682783 -0.1639478 0.1885686 77 77 77
0.036953708377002 -0.0139062391175713 -0.0130303416759918 0.9557033 -0.182549 0.2308835 63 63 63
0.0386935948940152 -0.0154893280026527 -0.0119029418137339 0.962464 -0.1776712 0.2051731 77 77 77
0.0384048387720746 -0.0128663973106187 -0.00892381450533369 0.9471338 -0.1256153 0.2952259 50 50 50
0.0381963557913569 -0.00981792405496162 -0.0115736963693805 0.9591373 -0.09971028 0.2647895 94 94 94
0.0355348637971253 -0.0106506600306213 -0.00454933918408143 0.9534504 -0.0409616 0.2987547 82 82 82
0.0344687183406416 -0.00992956297338954 -0.00455809782590186 0.9656322 -0.0360193 0.2574044 107 107 107
0.0352782543521057 -0.00858738755651123 -0.00705814319596523 0.9494039 -0.1483305 0.2768219 52 52 52
0.0373247549575979 -0.00865918753681916 -0.0106262286833446 0.9399613 -0.08658908 0.3301139 71 71 71
0.0359945944328983 -0.00370126254929826 -0.00492457457033044 0.9780201 -0.1462971 0.1485726 82 82 82
0.0365748786113778 -0.00241840791591086 -0.00526554884210692 0.9827274 -0.0962593 0.1580538 95 95 95
0.037469906591272 0.00133771669866078 -0.00710327792922116 0.9557317 -0.07642027 0.2841424 80 80 80
0.0287993192033527 -0.0383675119463891 -0.00287255459582184 0.4930525 -0.793207 0.3573821 95 95 95
0.0283297689579582 -0.0312796131450652 0.00472729007579289 0.876343 -0.3779188 0.2986644 82 82 82
0.0302036046080665 -0.0301914355870239 0.00140350597475175 0.8918321 -0.2243316 0.3928243 84 84 84
0.0304517245569444 -0.0306437664684247 0.00656896009094274 0.9108748 -0.3522692 0.2149734 84 84 84
0.031331390773683 -0.0344520788719971 -0.00431623737485853 0.8418028 -0.3267756 0.4296345 101 101 101
0.0329978024497435 -0.0366068702103675 -0.00681910746062445 0.8686289 -0.2653691 0.4184054 109 109 109
0.0317964035695883 -0.0317433645309786 -0.00175008382209479 0.9346607 -0.2167146 0.2818583 103 103 103
0.0334927028882301 -0.0327360039360989 -0.000943934169448879 0.9222028 -0.1897332 0.3369619 98 98 98
0.0339602989680217 -0.0310850248057972 -0.000384658004809801 0.9274713 -0.1928849 0.3203006 80 80 80
0.0331104832951608 -0.0314266466777999 -0.00517770461970454 0.9156778 -0.1587602 0.3692281 111 111 111
0.0327957329608348 -0.0304116433289223 -0.00401646619011581 0.9010342 -0.2348914 0.3646414 91 91 91
0.034439112544731 -0.030707584733257 -0.00367833596201994 0.9032977 -0.2001622 0.379458 88 88 88
0.0335552874053409 -0.029555403697608 -0.00650807728747879 0.9440815 -0.171341 0.2816955 97 97 97
0.0347298915428849 -0.031995778099724 -0.00382365341312396 0.9031343 -0.1608739 0.3980805 95 95 95
0.034160894767461 -0.0278223803442919 -0.000975042329520087 0.9298701 -0.08391991 0.3581886 91 91 91
0.0357708259020646 -0.036253281092425 -0.00872201870599029 0.9268997 -0.181658 0.3284165 104 104 104
0.028208882206193 -0.0281096650853654 0.00671355587612707 0.9440729 -0.2583235 0.2049275 110 110 110
0.0290504782994967 -0.0285533846419239 0.00403977916557083 0.9220267 -0.2544536 0.2917536 103 103 103
0.0306516759986044 -0.0260210654018829 0.00259191896806715 0.9305233 -0.1347923 0.3405251 87 87 87
0.0293747282292034 -0.0213933324872981 0.0066274873326547 0.9456071 -0.1640795 0.2809006 96 96 96
0.0314069439971802 -0.0277745477750333 0.00829050803028791 0.9266715 -0.3014254 0.2245498 87 87 87
0.0317937438104063 -0.02758761493344 0.00719767406377134 0.9175248 -0.306832 0.2529869 100 100 100
0.0294822920085216 -0.027399738365554 0.00750407002572573 0.9472624 -0.2150444 0.2375919 97 97 97
0.0311450475752713 -0.0266891039751755 0.00992275492982966 0.9343848 -0.2030935 0.2927081 87 87 87
0.0300636147560489 -0.0234313519166385 0.0119998215072827 0.8871016 -0.05924403 0.4577564 79 79 79
0.0288806933678447 -0.0208827829048672 0.0108801812133744 0.8848278 -0.007222353 0.4658622 94 94 94
0.0307544759786749 -0.0214778804029925 0.0119586832517319 0.8851321 0.003769071 0.4653246 68 68 68
0.0320216153874904 -0.0191656878596509 0.00913557514423505 0.9196596 -0.08257967 0.3839361 68 68 68
0.0313886692801644 -0.0267928455759894 0.00177109926123437 0.9244945 -0.111358 0.3645673 77 77 77
0.033605600715455 -0.0263499517730357 0.00259126144982461 0.9570385 -0.0681252 0.2818443 78 78 78
0.0323035402107208 -0.0232181809581511 0.000572947454970996 0.9277452 -0.1472629 0.3429321 84 84 84
0.0330787850711465 -0.0235248768295566 0.0022281620432405 0.9029442 -0.139929 0.4063393 68 68 68
0.0325767673704564 -0.0248776785554132 -0.00186572456997816 0.934282 -0.04045943 0.3542318 72 72 72
0.0333849526009873 -0.0246387972417557 -0.00324639244266098 0.9343557 -0.1048464 0.3405681 52 52 52
0.0332150056489375 -0.0226774709651909 -0.0024472359711141 0.945789 -0.1668217 0.2786642 59 59 59
0.0336721814913528 -0.0253062381192741 0.000295516094196591 0.9191423 -0.1029436 0.3802368 75 75 75
0.0305895854800695 -0.0222317201524393 0.00335401194992549 0.9436744 -0.1208628 0.3080108 53 53 53
0.0324827044587681 -0.0176395567347725 0.00187573529259891 0.9118464 -0.1574762 0.3791272 90 90 90
0.0323020768508351 -0.0156869453508137 0.00326707236936483 0.9452729 -0.1958422 0.2609695 96 96 96
0.0298337191861933 -0.0117484436974347 0.0093445059956565 0.9186183 -0.02648283 0.3942577 124 124 124
0.0279034234995756 -0.0155083173738129 0.0132123486509203 0.8642082 -0.1124608 0.4904046 113 113 113
0.0308334402949799 -0.0125107074672124 0.0129474085603438 0.8797539 -0.08634517 0.4675227 113 113 113
0.0311420607287296 -0.0114523570438725 0.0107632262626933 0.926504 -0.0699898 0.3697186 104 104 104
0.0290716100370125 -0.00672334824629162 0.0134775619492369 0.9170007 -0.05920115 0.394468 81 81 81
0.0307603122675324 -0.0125125667689059 0.00777844821573306 0.9377064 -0.08266597 0.337451 120 120 120
0.0317828481463553 -0.0122333800737504 0.00421346728701646 0.9234033 -0.1006072 0.3704113 119 119 119
0.0304202312612667 -0.00927445281571404 0.00979465968112789 0.9164363 -0.1738058 0.3604664 124 124 124
0.0314857351331375 -0.00820365249566612 0.00746807771929983 0.857909 -0.1194104 0.4997332 120 120 120
0.0304820092629299 -0.00690843653441853 0.00986342064529913 0.9200181 -0.098223 0.3793665 103 103 103
0.0313120572271204 -0.00436227899676389 0.00912578664262598 0.9134459 -0.1941291 0.3576736 113 113 113
0.033771770857183 -0.0201919496851042 -0.00411224379772829 0.9395304 -0.1192511 0.3210326 60 60 60
0.0348625989980154 -0.0214511241311557 -0.00578956175288059 0.9553679 -0.1720558 0.2401435 66 66 66
0.0358819535417507 -0.0218930503693575 -0.00325963084419303 0.9241233 -0.1478879 0.3523142 56 56 56
0.0367873368788436 -0.0228041654695277 -0.00822661668029739 0.9761791 -0.05518973 0.2098294 49 49 49
0.0350452601757736 -0.0192041588128447 -0.00493045772320874 0.9560267 -0.1232542 0.266123 70 70 70
0.0369863248571694 -0.015813263049508 -0.00543804739056658 0.9604645 -0.0895201 0.2636174 54 54 54
0.0336761180441936 -0.013272038801855 -0.000227380163321939 0.9589903 -0.08260632 0.2711341 73 73 73
0.034802314704103 -0.0129800384218872 -0.00200471882624731 0.9727219 -0.06762183 0.2218993 51 51 51
0.0345443235677183 -0.0130579978134047 -0.000949079992552171 0.9551689 -0.1029626 0.2775807 57 57 57
0.0341632244047543 -0.00873815162782976 0.00220950930621677 0.9240589 -0.2063444 0.3217721 110 110 110
0.0362618358576792 -0.0117312867685444 0.000467457440400332 0.9573915 -0.1737743 0.23066 81 81 81
0.0358305370402998 -0.00881033865169756 0.00359640824245311 0.9038676 -0.2254193 0.3636062 100 100 100
0.0345102805477226 -0.00486650388778753 0.00667492160414923 0.8543172 -0.1700762 0.4911377 83 83 83
0.0339189118208891 -0.00277576619645115 0.00405342108377429 0.9176284 -0.1452064 0.3699637 110 110 110
0.0354416566869671 -0.00554757421754015 -4.92211251671704E-05 0.959613 -0.05394625 0.2761026 131 131 131
0.0351026414258695 -0.00354640078389057 -0.000700776086350829 0.954836 -0.1057997 0.2776593 105 105 105
0.0365726970550138 -0.00481059894861358 0.00333937205721405 0.9248889 -0.1689199 0.3406561 119 119 119
0.0371661964083039 -0.00733159952202667 -0.00496476665454132 0.9567055 -0.1822308 0.2269506 63 63 63
0.038121048716286 -0.00375876852988055 -0.00285439617560257 0.9866722 -0.09806587 0.1298503 84 84 84
0.0357755536894133 -0.00273735350981363 -0.00209198241044684 0.9763377 -0.0711679 0.2042054 98 98 98
0.0366056276627056 -0.000926006855042294 -0.00213268028919361 0.9868127 -0.05062681 0.1537457 98 98 98
0.0379758617535464 -0.00147192279502084 -0.00163860435823321 0.9895232 -0.0490435 0.135789 102 102 102
0.0381170807392761 -0.00150330581074654 0.000280733607372241 0.9627866 -0.09114011 0.2544317 107 107 107
0.0383605449117563 -0.00383585060699931 -0.00385503988997773 0.9801672 -0.1239159 0.1546517 101 101 101
-0.0147519893627006 0.0371817192784787 0.0264265892580969 0.3470478 0.9367732 0.04487468 132 132 132
-0.0103065838106147 0.0353383532750495 0.0272866571058047 0.4139803 0.9101704 0.01449553 117 117 117
-0.0116181930368089 0.0342819002839094 0.0304236065634995 0.3901503 0.9197326 -0.04329643 95 95 95
-0.00981568723632931 0.0341710209587618 0.0305286930508334 0.3824433 0.9236697 -0.02390492 113 113 113
-0.00752745895619422 0.0336727693570129 0.0314103980806026 0.3554966 0.9337484 -0.04166645 75 75 75
-0.0072983207856494 0.0330498531802255 0.0234401241414323 0.3995083 0.9160781 -0.03455566 112 112 112
-0.0119453693271667 0.0360032011949782 0.0228067134244979 0.4132997 0.9098158 -0.03766343 97 97 97
-0.0142898998338841 0.036366348550771 0.0237734227442495 0.3714122 0.9273306 -0.04594521 135 135 135
-0.00843087365284667 0.0339754784433486 0.024716826832563 0.3812935 0.9241911 0.02204695 119 119 119
-0.0094432872795549 0.0349582121846717 0.0258072887615347 0.4067639 0.9131392 0.02683045 135 135 135
-0.0105944086941363 0.0358135995023414 0.0213308130071148 0.4164321 0.9089127 -0.02149494 81 81 81
-0.00929042607602093 0.0352186300287964 0.0227939833788993 0.3901236 0.919256 -0.05264975 91 91 91
-0.00830025996780948 0.0343302500439921 0.0205113988807391 0.3991679 0.9166089 -0.02220878 110 110 110
-0.00878775362708462 0.0348863430046948 0.0277189529880104 0.3721966 0.9281526 0.001568724 124 124 124
-0.0054462968233866 0.0327955369231261 0.030744067368309 0.3145661 0.9479974 -0.04846761 126 126 126
-0.00482557184161547 0.0324943874579242 0.0277557244591243 0.3222446 0.9457402 -0.0416398 148 148 148
-0.00533779335860896 0.0333011577568092 0.024121205197372 0.3806073 0.9244954 -0.02112681 98 98 98
-0.00631737867985827 0.0334288875759674 0.0320376612146762 0.333727 0.9419243 -0.03748213 57 57 57
-0.00203375078236134 0.031718506283994 0.0287659747434367 0.3028184 0.9522382 -0.03928633 123 123 123
0.00160741241894424 0.0308808005198427 0.0289348615397424 0.3009565 0.9533842 0.02199487 82 82 82
0.00224261364210809 0.0307212356253743 0.0297175205834763 0.2942911 0.9551456 0.03301015 99 99 99
-0.00399381951792144 0.0336825719198566 0.0321164618648582 0.3299334 0.9437857 -0.02030992 148 148 148
-0.00374791641972094 0.0332938235735531 0.030815059018596 0.3429363 0.9388848 -0.02983444 115 115 115
0.0037239324791456 0.0292433496992175 0.0317634433248683 0.3061692 0.9492875 0.07150961 64 64 64
0.00120664673368087 0.0310702457668539 0.0134853038431402 0.2040517 0.9767782 0.06532414 98 98 98
-0.00844280383227503 0.0340425625413729 0.0169497926391547 0.4130124 0.9107254 -0.000301738 89 89 89
-0.00419383190958067 0.0319184041875333 0.0169299288068551 0.3250187 0.9456348 0.01173252 88 88 88
-0.00205851182992989 0.0312021757380492 0.0179208727008655 0.2831104 0.9590474 -0.008755864 68 68 68
-0.00110579718821335 0.0313137257274854 0.0223914230746599 0.2609701 0.9644476 -0.04165792 111 111 111
-0.000238054295764067 0.0311484388231604 0.0238859041808077 0.257493 0.9658028 -0.03036718 96 96 96
0.000537993450776764 0.0311924036408133 0.0181570755469344 0.2193694 0.9754744 0.01807792 93 93 93
-2.95301959110095E-05 0.0311414197319266 0.0151755283571809 0.2143238 0.9757402 0.04468134 101 101 101
-0.000737428172939314 0.0313523012457382 0.0124420559797944 0.2436172 0.9663862 0.08214851 127 127 127
0.00352335328367404 0.0301667864544144 0.0170441148340736 0.2093103 0.977251 0.03420087 78 78 78
0.00487103818641588 0.030319166251382 0.019078566907978 0.2488464 0.9677901 0.03818052 113 113 113
0.00908507327896957 0.0287626517524155 0.0210905996138586 0.2584985 0.9643175 0.05718699 59 59 59
0.00963309324754769 0.0286668267300072 0.0188115986447545 0.2490502 0.9662593 0.0657032 84 84 84
0.00969423804954794 0.0281768119691259 0.02387430833506 0.2977103 0.9537255 -0.04214555 108 108 108
0.0122169470409523 0.0279958407705554 0.0226172646779567 0.2950826 0.9549459 0.03169463 64 64 64
0.0153025867574392 0.0268861459141638 0.0249116147735954 0.3326488 0.9430189 -0.00776004 107 107 107
0.00040727854072542 0.0314163048954368 0.0252345654799325 0.2360852 0.9714208 -0.02460611 70 70 70
7.89653260979684E-05 0.0316212280764478 0.0264329473468732 0.2816873 0.958962 -0.03231501 69 69 69
0.0043858028352739 0.0303075502491337 0.0276766923863676 0.2722346 0.9616391 0.03374354 133 133 133
0.00210596122268947 0.0308859714329965 0.0223610703494897 0.2255646 0.9732987 -0.04254628 86 86 86
0.00372958982363847 0.030572798007465 0.0220238706068267 0.2542745 0.9659347 -0.04811068 122 122 122
0.00689236846947017 0.0310447182132183 0.0263670161639719 0.3043445 0.9525573 -0.002997494 102 102 102
0.00562280588113229 0.0298144794905968 0.0292717950857849 0.2880646 0.9548204 0.07305362 65 65 65
0.00881297277191706 0.0288939555242149 0.0305175124383588 0.2761308 0.9596868 0.05247016 106 106 106
0.00911512319809815 0.0287298405474552 0.0286280004751243 0.268675 0.9626943 0.03214483 102 102 102
0.0125839863717154 0.0278099158219971 0.0291053087363449 0.3227086 0.9461008 0.02743072 98 98 98
0.0122862233664314 0.0293714546268116 0.0297975439378801 0.3433433 0.9385953 0.03397387 81 81 81
0.00600266809891647 0.029865457755039 0.0201512101593225 0.2688335 0.9628544 0.02529612 86 86 86
0.00794019944349933 0.029165176601603 0.0233468000315664 0.3024843 0.9529818 -0.0181396 53 53 53
0.00961194081481742 0.0287922013534057 0.0244742614664163 0.2817841 0.9590935 -0.02715415 108 108 108
0.0104840103104289 0.0280219286013128 0.0256966750405735 0.3136709 0.9494112 -0.01512975 116 116 116
0.0235393840115163 -0.00557398073503212 0.0271523495948434 0.9324104 -0.2501579 0.2608294 59 59 59
0.0230173044706485 -0.00519069208174239 0.0282346656752215 0.9509154 -0.2260653 0.2113159 80 80 80
0.0238935804511009 -0.000253288809112018 0.0282077487024336 0.9623126 -0.139605 0.2333773 105 105 105
0.0261535383879268 -0.00816443699250913 0.0227759096979669 0.8967758 -0.1769081 0.405582 62 62 62
0.0237174702514205 -0.00651604644020254 0.0236034576643697 0.9015965 -0.291118 0.3199593 79 79 79
0.025938772779321 -0.00534610186006956 0.025323037612578 0.937677 -0.1921479 0.2895531 65 65 65
0.0267114519082829 -0.00589836263032795 0.0232059615307545 0.9382721 -0.1628098 0.3051858 60 60 60
0.028520217594368 -0.00543599453519761 0.0196908628037828 0.8584689 -0.2695377 0.4363261 72 72 72
0.0248730840718578 0.00128981015707552 0.0257219885925004 0.9639049 -0.132161 0.2311293 107 107 107
0.0258266871966155 0.000832311110385842 0.0219062346740007 0.9354568 -0.130776 0.3283567 115 115 115
0.0282778452859616 0.000604991272550093 0.0227537279379421 0.9575437 0.009852643 0.2881197 79 79 79
0.025028989808576 0.00907702688650236 0.0274188242671259 0.9727904 -0.01684606 0.2310737 114 114 114
0.0251841332569984 0.00348565814027446 0.0248299572754296 0.9645447 -0.02117073 0.2630692 101 101 101
0.0274006723737676 0.00437151439460437 0.0248831060334579 0.9636574 -0.07678408 0.2558682 72 72 72
0.025150510581549 0.00767921679231298 0.0253681080909692 0.9685931 -0.03000209 0.2468346 91 91 91
0.0243952118331066 0.0103905473001489 0.0301009142800091 0.9736547 -0.004753827 0.2279778 92 92 92
0.0250240836794782 0.0112374590371804 0.0271624129000984 0.9687424 -0.03653425 0.2453637 98 98 98
0.0276645680139356 0.0103011065710623 0.0269826417413936 0.9602332 -0.04345277 0.2757974 79 79 79
0.0248706101752938 0.0120340117864246 0.0285372823526352 0.9652251 -0.04317156 0.2578308 51 51 51
0.0258301611303289 0.012514965826983 0.0269818000296805 0.9609532 -0.05347905 0.2714941 83 83 83
0.0247157766685699 0.00110164578512673 0.0285387190542569 0.9645337 -0.1136577 0.2382367 89 89 89
0.0266252617480243 -0.00678108670393307 0.02556133529572 0.8791927 -0.3022198 0.3683524 60 60 60
0.0268712064081802 -0.00238857477015575 0.0267986269268358 0.9569158 -0.1766985 0.2304122 71 71 71
0.0255127576677452 0.00327432094781588 0.0325183121500008 0.969757 -0.04821785 0.239262 103 103 103
0.0234509150359412 0.00884737375825573 0.0352451991009957 0.9823966 -0.01547044 0.1861653 130 130 130
0.0240405693580399 0.0107510296682196 0.0317289784902161 0.9857417 -0.005287793 0.1681827 104 104 104
0.0266410074543755 0.0106158199092479 0.0289435182048766 0.9728673 -0.007779596 0.2312331 63 63 63
0.00968208350587529 0.0280226380073634 0.0360171803277629 0.3044663 0.9431127 0.1335618 104 104 104
0.0123438080796572 0.0262055725724959 0.0380795430575912 0.3817319 0.9144551 0.1343606 118 118 118
0.0199132524084042 0.0228955250492315 0.0369175242217685 0.5043232 0.8337514 0.2247594 89 89 89
0.0199474371918897 0.0225581429021846 0.0389127116799484 0.5820982 0.6955582 0.4211419 101 101 101
0.0157415110883767 0.0263123219385355 0.0286797937279311 0.3490399 0.9344033 0.07114492 75 75 75
0.0148105511630938 0.0269539585764631 0.0280716411863174 0.3363341 0.9402677 0.0526868 80 80 80
0.0168112861437346 0.0261355608423683 0.0275775059538851 0.3569054 0.932692 0.05200134 79 79 79
0.0173696495223246 0.0261490361463104 0.0241483408201059 0.3658926 0.9305161 0.01620016 120 120 120
0.0195405147417413 0.0247934475854437 0.0288087041524202 0.3705361 0.9254351 0.07920124 85 85 85
0.0204128611022292 0.024985582417838 0.0280044814490257 0.4130535 0.9090155 0.05547504 79 79 79
0.0247627170860618 0.0181700744400524 0.0322458479740724 0.9580256 0.2251221 0.1775018 88 88 88
0.0195151099324682 0.0252045935716789 0.0312664274699722 0.3748649 0.9198115 0.1158582 47 47 47
0.0217956765600913 0.0234969473424937 0.0341956270442686 0.5933365 0.7813819 0.1933758 90 90 90
0.0214553414762815 0.0232602901130203 0.0350088930577648 0.5644641 0.7988921 0.2077301 121 121 121
0.02164699895928 0.02353493332325 0.0326136052790947 0.5845171 0.791087 0.1803362 117 117 117
0.022533154867139 0.0240298377399115 0.0311393628995805 0.6302506 0.7657211 0.1282784 98 98 98
0.0244887695012932 0.0221851137034232 0.0317566726082221 0.7956352 0.5932656 0.1224767 128 128 128
0.00928377374956879 0.028241900694417 0.0335775818955998 0.2863187 0.9526626 0.102252 119 119 119
0.0133992903428024 0.0272234179763682 0.0356779339973492 0.3699138 0.9183199 0.1408983 92 92 92
0.0135413735171854 0.0268298079649374 0.0352139395722689 0.3699138 0.9183199 0.1408983 112 112 112
0.0147067914046002 0.0264496960838891 0.0309012428135828 0.3668906 0.9282272 0.06152614 100 100 100
0.0151699423917258 0.0263609397374795 0.0328667847779527 0.3830671 0.9164196 0.1159088 66 66 66
0.0147966239235893 0.0253056121118467 0.0388842934659888 0.3989878 0.8939872 0.2039501 103 103 103
0.0155710021979416 0.0252881471099624 0.038327616191857 0.4055291 0.892061 0.1994326 88 88 88
0.0150839994942158 0.0262271218947454 0.0362040689312551 0.4015426 0.897838 0.1806945 73 73 73
0.0180107763854738 0.0237224092902735 0.0394953764461506 0.4761222 0.8483472 0.2315484 72 72 72
0.0235690569167026 0.0123832265230224 0.0354637173175288 0.9828249 -0.06591677 0.1723667 136 136 136
0.0234655488508697 0.0156245769575953 0.0370481492072072 0.9577315 0.05696643 0.2819664 125 125 125
0.0236836028284064 0.0163615955087744 0.038634574220447 0.8918028 0.179486 0.4152982 118 118 118
0.0221175073094022 0.0226552866239484 0.0370033652097894 0.7142038 0.6042647 0.353238 100 100 100
0.0238077370610643 0.0188227705909887 0.0358916378028418 0.901798 0.3561189 0.244826 128 128 128
0.0243415062300392 0.0213150329982037 0.0353453554072165 0.8254927 0.5118151 0.2379226 128 128 128
0.0247890344960806 0.0208157456277773 0.012092150895818 0.5938952 0.7973125 -0.1076165 132 132 132
0.0157107204491123 0.0245246397041765 -0.00333978044431882 0.4994878 0.8662106 0.01382297 107 107 107
0.0149175554021574 0.026020190315458 -0.00563621252108812 0.4843081 0.8728517 0.05979607 74 74 74
0.0156869752122553 0.0245536435179687 -0.00585775298417421 0.4771796 0.8748855 0.08291524 101 101 101
0.0206759358527635 0.0223561437197008 0.000643483521733934 0.5057364 0.8588715 -0.08105865 97 97 97
0.0176402366808925 0.0237163317068867 -0.0029545585312282 0.5144263 0.8574921 0.008532838 78 78 78
0.017897659539291 0.0232668675740526 -0.00537574588921622 0.4643818 0.8779692 0.1162739 133 133 133
0.0212036762934731 0.0220980439560541 -0.000560299622416827 0.4761138 0.8787422 -0.03358205 125 125 125
0.0188231341133005 0.0240529955302262 -0.00962620866780345 0.4588095 0.8843853 0.08576947 142 142 142
0.0170438864554712 0.0246100187892562 -0.00728056301119964 0.4696167 0.8785489 0.08724632 125 125 125
0.0182552833612584 0.0246702525976135 -0.00847555016121823 0.4530917 0.8866074 0.09292565 128 128 128
0.0184940720941107 0.024419095456248 -0.0128689394712299 0.4724562 0.8508793 -0.2297599 124 124 124
0.0204836058119064 0.0229154630139461 -0.00972809612391681 0.4654557 0.8795301 0.09888266 142 142 142
0.0237354162037833 0.0213673203237255 -0.0106298777626903 0.5428207 0.8363967 0.07606781 98 98 98
0.025508590265056 0.0192807998845332 -0.00827493514266164 0.5260707 0.8437458 0.1065019 124 124 124
0.0230125426021526 0.0218498392770139 -0.00530374955796339 0.5329108 0.8432246 0.07055687 71 71 71
0.0363881118379787 0.0103708729150545 -0.000522760149668622 0.8529888 0.3902754 0.3465475 125 125 125
0.0213566048059655 0.0221668822490073 0.00373882677003989 0.5245067 0.84944 -0.05783075 128 128 128
0.0226819853761422 0.0221105770567667 0.00632930666676756 0.5825119 0.8114823 -0.04665165 115 115 115
0.0232716482447985 0.0215317647301378 0.00651257048719514 0.6017164 0.7971485 -0.04991583 113 113 113
0.0245069833036498 0.01997386377639 0.00104013628544061 0.5904868 0.8060799 -0.03950528 142 142 142
0.0275272922097347 0.0174070833060089 0.00174018353868144 0.5397205 0.8412783 0.03086614 111 111 111
0.0259203540384585 0.017761311834716 0.00454688904068803 0.6227961 0.7820621 -0.02244645 67 67 67
0.0241891592539516 0.0209130719869604 0.00633914651992507 0.6091267 0.7915 -0.0499238 85 85 85
0.0269679407513417 0.0179565354173206 0.00951420605204809 0.590683 0.7979516 -0.1198618 110 110 110
0.0262869656205471 0.0181557203852338 -0.00204823074131694 0.5650122 0.8239031 0.04409984 84 84 84
0.0288227686224423 0.0168842571263688 -0.00121444229334144 0.5247094 0.850926 0.02459635 94 94 94
0.0282868360387618 0.0174226761492497 -0.00654027803012117 0.5321446 0.839851 0.1071091 125 125 125
0.0291666022256474 0.0168354088440501 -0.00676329168935833 0.5213706 0.8472736 0.1014896 130 130 130
0.0318243418583646 0.01566515096675 0.000632355598942619 0.5898076 0.8039879 0.07569914 103 103 103
0.0336815213897153 0.0132561746869853 0.00238341354349964 0.7868556 0.6057057 0.1182323 124 124 124
0.0325322462036477 0.0146217668246456 -0.00306476094645786 0.5395408 0.8369579 0.09163612 133 133 133
0.0311856789838194 0.0153383524887378 -0.00248617822492064 0.5157279 0.8535865 0.0735853 137 137 137
0.0336630884262223 0.0139599766978251 -0.00252736847444088 0.5997069 0.7875996 0.1415572 139 139 139
0.0336763759065095 0.0134150536446578 -5.00407574143547E-05 0.6675776 0.7283202 0.1545634 104 104 104
0.00162794598330285 0.0312320890536806 0.00724984320725977 0.231838 0.9683521 0.0924414 77 77 77
0.00304276906929424 0.0318555467406161 0.00317023295893168 0.2739228 0.9570747 0.09473284 69 69 69
0.00758811225239908 0.0297821647304437 0.00740238603907692 0.3577506 0.9331362 0.03565454 118 118 118
0.0128420232113671 0.0264683513115642 0.00963790318131677 0.4556509 0.8875244 -0.06842951 86 86 86
0.00567158588416894 0.0305356181858629 0.012891921844378 0.2588277 0.9650405 0.04129281 86 86 86
0.00657514147408556 0.0306771683753606 0.0108038169575276 0.3080518 0.9513683 0.001577875 85 85 85
0.00898730312837448 0.029080595619577 0.0135478542107458 0.3362257 0.9417346 -0.009388101 131 131 131
0.00811761127296262 0.0297055606850951 0.000630562370216664 0.4450757 0.8950013 0.02967033 135 135 135
0.00916319008407562 0.0299426675299734 -0.000309760230278899 0.4772736 0.8787546 0.0004430157 100 100 100
0.0118843936774096 0.0271093413399137 -0.000705167329486472 0.5383648 0.8409862 -0.05390259 86 86 86
0.0104791220299034 0.0289405761821764 0.00290032172712401 0.453108 0.8914555 0.0004019811 67 67 67
0.0124542642144307 0.0279728656969125 0.00101289684515521 0.5274035 0.8449566 -0.0888477 98 98 98
0.00619345860143361 0.031247359122959 0.000173925258191265 0.3865518 0.9203436 0.05954344 120 120 120
0.00823939719974875 0.0295815070404706 0.00229312132494963 0.447904 0.8931726 0.04030682 122 122 122
0.0135175189028158 0.0258946263979027 0.00368425534699468 0.507951 0.8611965 -0.01806644 140 140 140
0.0135859380232721 0.0269030767934126 0.00327233323885318 0.5200911 0.8540173 -0.01264357 121 121 121
0.0162014998501019 0.0250854161975367 0.00589337199938228 0.504161 0.8624155 -0.04540079 78 78 78
0.0167279963067601 0.025364800855983 0.00431072616633324 0.5304349 0.8467528 -0.04060226 131 131 131
0.0130512865861416 0.0285340354374288 0.0155253008731228 0.3766428 0.9256297 -0.03673954 145 145 145
0.0111986820725605 0.0288095142501146 0.015221413169658 0.3380817 0.940823 -0.02351429 152 152 152
0.0118490916594827 0.0284545191256946 0.0172522683429805 0.344977 0.9384565 0.01703723 129 129 129
0.0121812544802882 0.0272926994661897 0.0116293549125359 0.4247762 0.8974487 -0.118958 96 96 96
0.0177174269750922 0.0247334605494951 0.0174275499430107 0.4689379 0.8768899 -0.1056472 80 80 80
0.0188453017536487 0.024360936699197 0.0149657196905576 0.5004227 0.8541402 -0.1414982 93 93 93
0.0184126844963539 0.0248694208452223 0.0143563933218269 0.485364 0.8615655 -0.14875 71 71 71
0.0198958416078316 0.0236020172816156 0.0159774869662356 0.4870373 0.8631102 -0.1335496 82 82 82
0.0224475594329465 0.024114085532694 0.0190100591780102 0.4570403 0.868478 -0.19199 104 104 104
0.0167649381134558 0.025684354492777 0.0183376127638383 0.4444572 0.8923076 -0.07902437 82 82 82
0.016076377162219 0.026966221866076 0.0190844431772141 0.417541 0.9069531 -0.0556385 53 53 53
0.0151107963157648 0.0288364954143838 0.0180082341966842 0.4221464 0.9057081 -0.03853936 97 97 97
0.0168797020434632 0.0255361328083583 0.0116229311907297 0.4947821 0.8655066 -0.07803118 106 106 106
0.0171536594308948 0.0250665908355678 0.0058281036123308 0.4941921 0.868102 -0.04661733 72 72 72
0.0184257544969078 0.0239382411337821 0.00843487936758591 0.4754153 0.876552 -0.07507931 54 54 54
0.0193485861369147 0.0240061696291987 0.0137764516406379 0.4935673 0.8633314 -0.10512 97 97 97
0.0224772601038901 0.022181380863312 0.010934668381804 0.5487577 0.8324412 -0.07685447 75 75 75
0.023462953217199 0.0218222371168737 0.00936740223788413 0.5875499 0.802161 -0.1064091 108 108 108
0.0115406128088982 0.0271707157583281 -0.00498936985382939 0.5605152 0.8272569 -0.03832484 76 76 76
0.0128434809981044 0.0266750667670543 -0.00522533882357556 0.5276732 0.8490456 0.0261271 60 60 60
0.0124065206435984 0.0270683595031804 -0.001996462767724 0.5523553 0.8314236 -0.06031827 96 96 96
0.0134920110976438 0.0271254145574349 -0.000363120741612766 0.5411159 0.836118 -0.09000109 104 104 104
0.0135972847384513 0.0259819988475685 -0.00439350028478416 0.5267481 0.8499815 -0.008233492 88 88 88
0.0124049969181379 0.0271772720061492 -0.0078701305574676 0.5174276 0.8543226 0.04900634 84 84 84
0.0132885414115871 0.0269994977477972 -0.00709961140584553 0.5154431 0.8551184 0.05559671 51 51 51
0.0156235927665025 0.0249605032847795 0.000318605817558909 0.5277829 0.8452526 -0.08362526 129 129 129
0.0155844515584895 0.0254857134320088 0.00103322660190305 0.5454741 0.8332837 -0.08997927 132 132 132
0.0163502201064663 0.0259314205223011 0.00237018402772629 0.5365208 0.8407964 -0.07215848 111 111 111
0.0290387120667142 -0.00572456926563514 0.0129155826504848 0.9116375 -0.06009015 0.4065785 75 75 75
0.0268317729956986 -0.00643492920227917 0.0166832107034054 0.8595383 -0.1900781 0.4744093 84 84 84
0.028747756966516 -0.00660084749942746 0.0184764898595058 0.8755138 -0.1497797 0.4593927 79 79 79
0.0288037335957299 -0.00234383091776569 0.0194450647125385 0.8248991 -0.1475531 0.5456825 68 68 68
0.0305443205439337 -0.00518489477664552 0.0153864953694594 0.9178776 -0.08230307 0.3882357 56 56 56
0.031486133145787 -0.00338644026381818 0.0159895026132135 0.9221346 -0.09948034 0.3738603 54 54 54
0.0286461441904073 -0.000209550598900377 0.01684858285727 0.9214011 0.009677521 0.3884924 79 79 79
0.0266507973212295 0.00310038625309139 0.020415667372736 0.9034922 -0.04021898 0.4267133 101 101 101
0.0298903428192046 0.000401002057212274 0.019686010563525 0.8518251 -0.04565088 0.5218333 72 72 72
0.0286287280330695 0.00131039974892611 0.0178168048699228 0.8796637 -0.01791032 0.4752588 69 69 69
0.0285980853227943 0.00573378086143084 0.0168772583956082 0.8781431 0.0491171 0.47587 74 74 74
0.0313430276761133 -0.00171119779916196 0.00998806533784868 0.9067183 -0.06126451 0.4172632 73 73 73
0.0305558129211796 -0.000918098361484487 0.0114501749908756 0.9385711 -0.1215547 0.3229686 125 125 125
0.0310304364173284 -0.000136412196431568 0.0113550245840414 0.9360949 -0.1234728 0.3293641 123 123 123
0.0322215888876427 0.00412833057963224 0.00995799114777157 0.9107468 -0.06029302 0.40854 86 86 86
0.0306463896437661 0.0081343882199747 0.0113540996902123 0.9259374 -0.008034396 0.3775915 98 98 98
0.0300183339316393 -0.0011557902298529 0.0133459145192021 0.9335352 -0.1334561 0.3327184 116 116 116
0.0324704481957012 0.00155120285371657 0.0122780818246035 0.9350816 -0.09739961 0.3407869 78 78 78
0.0325428915121264 0.00464350144252301 0.0138223902239002 0.9132207 -0.07438602 0.4006179 73 73 73
0.0328741900273302 0.00553190599887277 0.0132489011206599 0.9351586 -0.006714023 0.3541657 85 85 85
0.0259464227660817 0.00786911629369702 0.0231142266466653 0.9714115 -0.04699979 0.2327033 64 64 64
0.0265706613105336 0.00810374290296689 0.0203970488681767 0.9188623 -0.02167909 0.3939823 48 48 48
0.027599267608166 0.00557478444173065 0.0185518671727561 0.8921285 0.05438633 0.4484963 80 80 80
0.0276126119982711 0.0079692373581719 0.0182416639271121 0.9098337 -0.03917659 0.4131197 58 58 58
0.0275082218119196 0.0120148800571285 0.0196567938448178 0.9266921 -0.07090294 0.3690725 65 65 65
0.0261645211000805 0.0108261012352635 0.023402851668208 0.9651086 -0.08773215 0.2467155 87 87 87
0.0262069592591159 0.0127556968452578 0.0243096607917197 0.9567261 -0.05010554 0.2866438 98 98 98
0.0265484869209094 0.0114201422472229 0.0218770761850677 0.9419624 -0.08911815 0.3236738 78 78 78
0.0263311516952811 0.0149782549514648 0.0247148146437104 0.9537221 0.03174332 0.2990091 80 80 80
0.0271723503483188 0.0143321098501579 0.0232312150483465 0.9558088 0.03275296 0.2921589 59 59 59
0.0276657533439517 0.0146720484790228 0.0211879182963225 0.9351004 0.03514531 0.3526359 81 81 81
0.0289680967423098 0.0149507220837251 0.0230094604762314 0.9431748 0.03746491 0.3301782 68 68 68
0.0291334511537251 0.00854419867157286 0.0161875516628797 0.8815345 -0.02627058 0.4713883 85 85 85
0.0295616543619142 0.00777718682789796 0.014966264468717 0.8875926 0.03404609 0.4593695 93 93 93
0.0300623872465813 0.0084536416233012 0.0141624146822652 0.8898138 0.0198179 0.4558932 110 110 110
0.0311782891678263 0.010761323625617 0.0124939375907913 0.9236111 0.0757603 0.3757697 108 108 108
0.0280627514282799 0.0180867908969264 0.0186779394741381 0.90399 0.409794 0.1219463 112 112 112
0.0294753120091567 0.0181905549843744 0.0177176130085505 0.8975056 0.4258039 0.1147811 129 129 129
0.0306747557247951 0.00930339739651065 0.0173621983266918 0.8814093 -0.01902908 0.4719699 52 52 52
0.0331857451580919 0.0031661188852008 0.0058635052443046 0.9122996 0.009217993 0.4094197 112 112 112
0.0345923768950389 -0.0026413544113868 0.0074166650461599 0.8645763 -0.1444817 0.4812826 72 72 72
0.0348257302342576 0.000760217118501272 0.00259947826885515 0.9618003 0.05279169 0.2686135 123 123 123
0.0320563190939047 0.00897082900166168 0.00984495612616734 0.9236431 0.03129674 0.3819737 91 91 91
0.0366789725313204 0.0070170450572542 0.000618284621107135 0.9341218 0.1025066 0.3419192 114 114 114
0.0342012226619344 0.0116930078440114 0.00291302388603842 0.8866121 0.4123381 0.2095145 99 99 99
0.0344584015993588 0.0108197348238919 0.00206550114691675 0.9070742 0.3593302 0.2193133 37 37 37
0.036841376995612 0.00795233227927916 -0.000566447439300344 0.927315 0.1774599 0.3295373 115 115 115
0.0370278892729192 0.0086936431241238 -7.49515523414124E-05 0.9011154 0.2324111 0.3660276 97 97 97
0.0322904216307101 0.0123501378448863 0.00866446731970733 0.90827 0.3287928 0.2587293 111 111 111
0.0299754982294014 0.0158052861881965 0.00801481893767228 0.6538741 0.7555838 0.03926459 143 143 143
0.0320453432385421 0.0109391068249876 0.00967615160740373 0.9081323 0.2146069 0.3594993 92 92 92
0.0325407491450531 0.0135551871133039 0.00592193666050339 0.808044 0.5740371 0.1324626 122 122 122
0.033166945869757 0.0120633885871342 0.00686581878685746 0.911548 0.3295555 0.2459134 116 116 116
