ply
format ascii 1.0
comment File exported by Rhinoceros Version 7.0
element vertex 478
property float x
property float y
property float z
property float nx
property float ny
property float nz
property uchar red
property uchar green
property uchar blue
end_header
0.0609258734068973 -0.106704265961791 -0.00368580260559143 0.2206342 -0.9728873 0.06936033 38 38 38
0.0239115827164752 -0.0367040943004142 -0.0516821447877508 0.2973488 0.3589008 -0.8847451 142 142 142
0.127519997247229 0.0412667680881966 0.00906828007415711 0.4408514 -0.3241955 -0.836987 85 85 85
0.0703078233084781 -0.00313916910662759 -0.0113154355554205 0.308217 0.3175059 -0.8967677 113 113 113
0.0802115969739062 0.104375331511353 0.0632808502645868 0.129314 0.4607664 0.8780503 123 123 123
0.0275087528309924 0.122533767332887 0.00285899600700318 -0.04314427 0.9397436 0.3391468 130 130 130
0.131589623578559 0.0907342125080575 0.0527666207285303 0.6632977 0.5052523 0.5520474 125 125 125
0.0231928848109347 0.108448712935304 -0.0496507886914831 0.3904224 -0.01594808 -0.9204977 169 169 169
-0.00324632000111513 -0.0805043290950309 0.0334592159719843 -0.3768453 -0.5879593 0.7157454 151 151 151
0.0702941589436633 -0.101042659173156 -0.0765931908158881 0.2480025 -0.6460851 -0.7218509 196 196 196
0.101959677823554 -0.0958353589869987 0.0544227655859369 0.09451085 -0.8959216 0.4340416 149 149 149
0.157608272918235 0.034684150328492 0.0268192883463281 0.3821945 0.01871076 -0.9238924 108 108 108
-0.0215944178023236 0.110027282347535 0.0252503450842279 -0.207764 0.9631588 0.1707606 123 123 123
0.189656408914099 -0.0565096448756706 -0.0059461001424414 0.4060454 0.4430184 -0.7992883 98 98 98
0.0520259164652926 -0.108398826012756 -0.0208122138051611 0.2201697 -0.9717512 0.08500019 78 78 78
0.0233236126980884 -0.113331944832946 -0.0290447477368933 0.1455382 -0.985574 -0.08638553 15 15 15
0.143823208697806 -0.0903220485545646 -0.00304335394187988 0.1836514 -0.9829295 0.0110388 147 147 147
0.188259633668433 -0.0838910650111686 -0.007845461752854 0.3894404 -0.8946775 -0.2188338 56 56 56
0.173824998029242 -0.0438735793925773 0.0550250407190698 0.8237743 -0.1795924 0.5377198 66 66 66
0.0977346323809726 -0.10346451509967 0.0165162678690332 0.1266185 -0.9871121 -0.09786464 101 101 101
0.183788003810416 -0.0397810052730094 0.0456909533472437 0.7136563 0.0001196522 0.700496 134 134 134
0.157932641395102 -0.0511526178218376 0.063488721463241 0.4061842 -0.4263473 0.8082342 84 84 84
0.121683003791342 0.116348593344544 0.0245684381456751 0.5591113 0.6754438 0.4808016 186 186 186
0.0315389208874804 0.120585410704469 -0.0391592983274084 -0.3021373 0.9532617 0.002271576 178 178 178
0.0632549696049792 -0.106408269295837 -0.0208033327130896 0.09530807 -0.9933243 -0.06498581 94 94 94
0.157030793317328 0.072122066130494 0.0315204258890527 0.7739274 0.5804055 0.2533098 129 129 129
0.00983354676581449 -0.102787167916442 0.0248303409548181 -0.2687471 -0.8100832 0.5210953 143 143 143
0.140558274873267 0.0727572132252206 0.0100450809927362 0.3751054 -0.277666 -0.8844193 80 80 80
0.0964426719031436 0.00638505708203208 -0.000453234103165279 0.35797 0.07389468 -0.9308045 180 180 180
0.0114775024733645 0.1185418058537 -0.0271297697095496 -0.2598211 0.9642646 -0.05183505 121 121 121
0.174869867452155 -0.00346818674578775 0.013312369200744 0.3456008 0.5531988 -0.7579784 121 121 121
0.0248106591782672 -0.102310926804687 0.0345829125376123 -0.2374758 -0.6639125 0.7091019 134 134 134
0.127469422706137 -0.0431703637935172 -0.0224307779340369 0.2760027 0.5866281 -0.7613738 131 131 131
0.0940457009158236 0.114269464125489 0.054290175053634 0.1740075 0.7069833 0.6854896 163 163 163
0.0495454989752871 -0.0433765958644401 -0.0421308878926855 0.3051291 0.4770409 -0.8242137 89 89 89
0.141245128997336 0.0785376716755379 0.0089542265863794 0.4426282 -0.3171018 -0.838765 97 97 97
0.0769282155118091 0.106550424208497 -0.0282483700780493 0.3199492 -0.3663401 -0.8737434 123 123 123
0.125827195533286 0.0784688879154671 0.000493049237288823 0.4844335 -0.3191865 -0.8145208 226 226 226
0.0998648725829226 -0.100623280892516 0.000977307173766484 0.1974923 -0.9622002 -0.1875302 114 114 114
0.178298296817313 0.00618812333569418 0.0237900312872308 0.287542 0.8138009 -0.5050225 124 124 124
0.167582543977271 -0.088886291871215 0.0177094634504694 0.158791 -0.952662 0.2592693 119 119 119
0.175836982615958 -0.0100872825480949 0.0448376532526392 0.78478 0.4436499 0.432776 121 121 121
0.050408589132796 -0.091008455643798 -0.0795886222390753 0.3219298 0.5258772 -0.7872829 85 85 85
0.163765164502631 -0.0552200387813102 -0.0190213624505621 0.3141347 0.2734567 -0.9091429 112 112 112
0.027601274140845 0.12053462754712 -0.0312894884614569 -0.1366831 0.9767183 -0.1653454 130 130 130
0.163402321227561 0.0269181419514168 0.0292898412676233 0.5064819 0.03967074 -0.8613375 101 101 101
0.107688339837561 0.00289425145611655 0.00524929127410828 0.3695988 0.4431683 -0.8166998 121 121 121
0.16117659438468 -0.0900801729060661 0.00785604080871521 0.1046343 -0.9862018 -0.1282879 90 90 90
0.0361161254725558 -0.112673432717467 0.00892227849677979 0.2351509 -0.9669207 -0.09883545 76 76 76
0.0582890086255176 -0.107493908295776 -0.0154773596791846 0.1113896 -0.9937103 -0.01149484 113 113 113
0.0896641038737399 0.0188504148624886 -0.00404858627601684 0.429599 0.07799646 -0.899645 117 117 117
0.00378105271674223 0.104842870344972 0.056649326893844 -0.1454152 0.9545752 0.260078 100 100 100
0.0153251462063891 -0.115164310822631 0.00937259158805787 -0.01828877 -0.9600569 0.2792065 169 169 169
0.147980245240699 -0.0644342016078483 0.0628184970350641 0.4439601 -0.4755437 0.7594456 124 124 124
0.0652789347252948 0.0577220607899178 -0.0187181834249121 0.2712659 -0.1614229 -0.9488717 106 106 106
0.156804861911307 0.0520904947422494 0.0514707561464685 0.7683216 0.2199463 0.6010869 103 103 103
0.0423898570618731 -0.109984309563781 -0.0205761794118506 0.2129784 -0.9684734 0.1292263 96 96 96
0.00978599716044493 0.105245082487916 0.0604788061113733 -0.1099346 0.7245517 0.6803964 149 149 149
0.076082172282706 0.102458326926087 0.0639834996195215 0.06581452 0.4644802 0.8831345 114 114 114
0.0542001299939258 0.105019657721375 0.0651952173443216 -0.1578317 0.4546057 0.8765973 138 138 138
0.0474870078644855 0.000657527556275239 -0.0219569210080725 0.3547054 0.0724725 -0.9321651 160 160 160
0.0495746903500659 -0.0854362558223258 -0.0762942735223395 0.3200098 0.5049682 -0.8016239 94 94 94
0.0688909761986835 0.0605899978779305 -0.0182949904470068 0.2765909 -0.09323048 -0.9564546 128 128 128
0.144161018022071 -0.0900756429530631 0.00420045814231812 0.07046396 -0.9959136 -0.05648878 138 138 138
0.0113146178803546 0.123364060034608 -0.00936257877632202 0.0499997 0.9955828 0.07946647 134 134 134
0.159413101562033 -0.0804609369136344 0.0342608388395685 0.3525692 -0.8485353 0.3945666 47 47 47
0.20096039999343 -0.0528825830317985 0.0109075005979913 0.9549091 0.07713858 0.2867023 134 134 134
0.161549570449362 -0.0904324363566886 0.0102673467131036 0.1136496 -0.9922386 -0.05046058 99 99 99
0.111265393384467 -0.0974047492839347 -0.019260496285401 0.2745917 -0.9603146 0.04894147 77 77 77
0.098756732829581 -0.0105306218959342 -0.0103019777803046 0.3414295 0.6348678 -0.6930864 136 136 136
0.124957891591559 -0.0613411973811637 -0.0336012844113928 0.2371497 0.5098683 -0.8269185 133 133 133
0.189923944362174 -0.0279175351954948 0.0055188234777826 0.4103231 0.5085176 -0.7569972 155 155 155
0.051234873422156 -0.108131916413451 -0.00459545889183105 0.156161 -0.9873158 0.02865854 99 99 99
0.0136148505292041 0.114185898413514 0.0243627723188776 -0.1405934 0.9758139 0.1673936 88 88 88
0.0894291423640353 -0.0868131231166374 -0.0673982802896124 0.1651853 0.6785295 -0.7157595 150 150 150
0.0278057329735858 0.078597633948182 -0.0388844017057043 0.3748891 -0.3032442 -0.8760715 106 106 106
0.0563417248807055 0.0182395864628304 -0.0177384022740942 0.4112649 0.04477453 -0.9104155 110 110 110
0.0573928974948031 -0.0157090734340202 -0.0253556672601324 0.4077822 0.4679647 -0.7840425 133 133 133
0.163755091317664 -0.0888715099193107 -0.004639655735932 -0.006071365 -0.9997131 -0.02316969 139 139 139
0.100025775321494 -0.0536440919734489 -0.0356037024526221 0.2230801 0.7100716 -0.6678575 99 99 99
0.0637875818095309 -0.0327835391856681 -0.034573555376969 0.2564966 0.471063 -0.8439841 128 128 128
0.115706088431845 -0.0813703845836173 -0.0490968827275854 0.5341371 0.4225722 -0.7322092 123 123 123
0.0456445835909945 0.109456508269166 -0.0375925902394873 0.3356482 -0.2648861 -0.9039777 138 138 138
0.0331164472184283 -0.0607625554896842 -0.0607447926072699 0.3355686 0.6399603 -0.691263 128 128 128
0.0858235530934436 0.0951462675236214 0.0667287703485864 0.01262339 0.4084407 0.9126976 69 69 69
0.123808237203131 -0.097572119126464 0.0107356902094263 0.1517983 -0.9747405 -0.1638238 177 177 177
0.0283038489899737 -0.110862762818481 0.026406406971969 -0.200013 -0.8566635 0.4755233 108 108 108
0.113619180806647 -0.100356728921081 0.0112328823538202 0.2210719 -0.9701424 -0.09975454 118 118 118
0.050012784489165 -0.108938248047973 -0.0388638679055792 0.04376117 -0.9986058 -0.02951953 82 82 82
0.0903369211039645 -0.103162796387817 0.013660132500686 -0.07188622 -0.9893167 -0.126826 33 33 33
0.0279850386462314 0.121458380331849 -0.00726798215194763 0.1887129 0.9251003 -0.3295101 162 162 162
0.160112353452216 0.0341260124348153 0.0282374020548242 0.4231433 -0.009660966 -0.9060113 115 115 115
0.0902016185603244 -0.103978426346923 -0.0387003127603155 0.2358472 -0.971346 0.0293782 109 109 109
0.103383215554724 0.118730394949769 0.0464490946264642 0.2292645 0.7468447 0.6242281 183 183 183
0.0994583689055545 0.124088614096497 0.0363244112463373 0.04433474 0.991361 0.1234419 212 212 212
0.0875577651343448 0.0669351507328499 -0.0119249824552161 0.3940806 -0.0589736 -0.9171819 141 141 141
0.0645954631648166 -0.0643116544581901 -0.0520434383420569 0.3062739 0.6659241 -0.680251 74 74 74
0.18903532851554 -0.029517919907714 0.00371938905433594 0.3771712 0.4646088 -0.8011745 163 163 163
0.201821359284888 -0.0598056625224601 0.00900539717391907 0.9054441 -0.1777914 0.3854365 215 215 215
0.0553604983172519 -0.108480603585387 -0.0349749926595312 0.1249888 -0.9822789 0.1396638 144 144 144
0.116353365071784 -0.100437314400817 0.0215023454161066 0.2484115 -0.9685331 -0.01534225 66 66 66
0.177237334140311 -0.0875721286632072 0.0133326943846124 0.2943065 -0.9479266 0.1217327 98 98 98
0.0558835290751559 0.046256153693055 -0.0201792720822913 0.4032302 -0.1570753 -0.9015169 100 100 100
-0.0337100676813024 0.103792994131898 0.0375649329157251 -0.2326644 0.9658636 0.1139069 95 95 95
0.123336883672248 -0.0987834047175895 0.0270970161886591 0.2162547 -0.9759033 0.02909914 93 93 93
0.197371216901313 -0.059486181626464 -0.00279557743354858 0.4442905 0.3665952 -0.8174435 106 106 106
0.113888116963874 0.0411207367084969 0.00440615377143799 0.2916538 -0.3465135 -0.8915528 96 96 96
0.108302118667136 -0.0146683763362419 -0.0106910769013983 0.2568461 0.6786663 -0.6880713 162 162 162
0.145525398143302 -0.0528554033137809 -0.0221316520242316 0.1461518 0.461851 -0.8748333 89 89 89
-0.00633890699528628 0.118179290404176 0.000449031207122197 -0.1180678 0.9595429 0.2556119 121 121 121
0.0315498881421191 0.0114926983021248 -0.028427839663468 0.4713255 0.08437755 -0.8779138 175 175 175
0.109635355361472 -0.0971380781032096 -0.0131987635163885 0.2425605 -0.9628741 0.1184813 71 71 71
-0.0262337453284162 0.100639431586121 0.0582804079981226 -0.1513986 0.8765469 0.4568851 172 172 172
0.00896215666152067 0.124132602324342 -0.0151526037721258 0.08062529 0.907451 -0.4123498 137 137 137
0.157598676570426 0.0384068180225838 0.0267959531278986 0.3752312 -0.1736187 -0.9105263 98 98 98
0.190444918759833 -0.071243674645568 -0.011831194546662 0.4358179 0.3288074 -0.8378237 109 109 109
0.0617799334607226 -0.00870290506854166 -0.0193839077024084 0.2725093 0.6305336 -0.7267504 104 104 104
0.0920291565737826 0.122670381178712 0.00899368486122071 -0.2268332 0.9553496 -0.189351 100 100 100
0.0124767594418628 -0.092590601334716 0.0376051362486261 -0.6743424 -0.4313959 0.5992996 163 163 163
0.186419340260993 -0.041830570588256 0.042743533465423 0.8456511 -0.01225486 0.5335954 134 134 134
0.117088707574378 0.102493255247926 0.056418716523208 0.504977 0.6740942 0.5390688 106 106 106
0.0412667863450152 0.0968498874805916 -0.0363839272527319 0.5308025 -0.157835 -0.8326684 171 171 171
0.0044113420329196 0.11566504727826 0.00964751801208436 0.01569665 0.947795 0.3184936 194 194 194
-0.0274329758801358 -0.0654402088023673 0.0363526936502832 0.03009432 -0.5398172 0.8412442 87 87 87
0.0090795480094058 -0.105496556649352 0.0202918346853632 -0.2920776 -0.7503439 0.5930217 137 137 137
0.109592231400977 0.020290224661683 0.00494077763275086 0.2960942 -0.001669997 -0.9551573 124 124 124
0.127990695127021 0.000726788153504243 0.00956472716049134 0.08490871 0.5406449 -0.836955 92 92 92
0.043837698586951 0.0107087780140389 -0.0234999362496954 0.3842117 0.05956295 -0.9213217 142 142 142
0.0292980842671496 -0.0430844138957511 -0.053770423319779 0.3122143 0.4970303 -0.8096191 147 147 147
0.0356477521739108 0.110117523779725 0.0601254101725 -0.2956168 0.7538072 0.5868436 89 89 89
0.00332811702109403 0.123185007681702 -0.00914862790390075 -0.3194396 0.9317097 0.1728449 123 123 123
0.137269976027976 0.1014040399693 0.023529916617431 0.6962643 0.6538364 0.2961653 134 134 134
0.175544204600821 -0.0855578492976676 -0.0186654035119635 0.1992164 -0.8405312 -0.5038057 45 45 45
0.127392055877219 -0.0865134309627067 0.0544660683603662 0.1837659 -0.9445632 0.2720853 65 65 65
0.106165470965872 -0.0215345929957877 -0.0161078278092963 0.1453244 0.4981453 -0.8548287 88 88 88
0.127340110429297 -0.0242708038188468 -0.0115705732373816 0.2341736 0.3208209 -0.9177345 124 124 124
0.0579769038043124 0.058879821410035 -0.0215100053815466 0.3776654 -0.2055679 -0.9028348 134 134 134
0.00980442989684172 0.123116462340211 -0.00701499023719848 0.02607525 0.9851939 0.1694492 118 118 118
0.124170424827109 -0.0573461364604484 -0.0312116447953802 0.1807859 0.477587 -0.8597832 100 100 100
-0.00615383457325869 0.113934009184693 0.0185167189569849 -0.09342945 0.972111 0.2151074 120 120 120
0.117534818538199 -0.0687983344890128 -0.0405823294190985 0.3573931 0.5260788 -0.7716938 96 96 96
0.103523316272269 -0.0533505987025749 -0.032981336501084 0.2056554 0.7045888 -0.6791616 93 93 93
-0.0115330345549481 -0.0685631345607292 0.0372259911032098 -0.3032045 -0.4063057 0.8619645 89 89 89
0.0835758470378024 -0.102579386124755 0.0114082690210718 0.09759823 -0.9909393 -0.0922709 29 29 29
0.123265119679938 0.0482933212421883 0.0053473409147638 0.3796482 -0.08538641 -0.9211821 102 102 102
0.0959635101637942 0.0394962717197884 -0.00275260248466552 0.5128509 -0.3091284 -0.8008893 243 243 243
0.118357571252356 0.124271838774537 -0.00978440084739746 -0.05371824 0.9861203 -0.1571024 138 138 138
0.0155970327935321 0.120083301176881 -0.024881422903977 -0.1440331 0.988601 -0.04384593 175 175 175
0.0689833782992465 -0.0921573947764884 -0.0765887800721747 0.1919691 0.4991252 -0.8449982 185 185 185
0.12009793747283 0.0852595258854378 0.0697499509783167 0.4717326 0.2837013 0.8348544 71 71 71
0.0132765941701037 0.124205200781678 -0.0115467313794714 0.0367178 0.9992778 0.009777672 139 139 139
0.167828711160193 -0.0491768430568229 -0.0138432089357001 0.4005605 0.4035183 -0.8226325 115 115 115
0.0283940010151965 -0.113258154282714 -0.00667575040145935 0.2570793 -0.9583813 -0.1241595 96 96 96
0.0335386567196948 0.112247674574708 0.0509044524164575 -0.09853137 0.9896325 0.1044946 108 108 108
0.0453626387200458 -0.1098996709682 -0.0212591890363318 0.1719045 -0.970428 0.1694645 73 73 73
0.188046487458716 -0.019815714249755 0.0263529118032831 0.7957527 0.2655761 0.5442858 98 98 98
0.131966950782309 -0.0334298919536125 -0.0139309767751318 0.2099484 0.3865675 -0.8980463 105 105 105
0.15567881096221 -0.0884129117824088 -0.00928038397117675 0.06349231 -0.9973022 -0.03683897 52 52 52
0.0594417475543124 0.118514983763551 0.0270299609632867 -0.04481031 0.9595401 0.2779835 57 57 57
0.00171298015929289 -0.116536767373229 -0.0130512420205695 -0.07363496 -0.990573 -0.1155118 106 106 106
0.124378594048987 0.0485045601032723 0.00588613710121094 0.4345995 -0.04830804 -0.8993273 103 103 103
0.0213195555291278 0.119494884123658 -0.0239753428964239 -0.2355966 0.96105 -0.1444894 98 98 98
0.0996660016856296 0.123699514975404 0.00300133189872681 -0.1328949 0.9767839 -0.1680243 121 121 121
0.0235562794289691 0.117083518614625 0.0146784778566736 -0.1350923 0.9784622 0.1560827 92 92 92
0.0831494503102405 0.12197038423047 0.00896742901519715 -0.04989109 0.9862698 -0.1574251 168 168 168
0.0572435431561572 -0.104170949349548 0.046620577189483 -0.006650079 -0.9708048 0.2397787 130 130 130
0.019571843036185 0.0442850280903329 -0.0368279222516638 0.4411763 -0.05868107 -0.8954999 107 107 107
0.105390878804694 -0.0469336818553459 -0.0269493762521368 0.06540795 0.6027508 -0.7952441 144 144 144
0.164595397599707 0.0377595115803231 0.0300491746397394 0.4611289 -0.1999521 -0.864511 134 134 134
0.13601425517417 0.0968712259434212 0.0413784976930994 0.608182 0.66772 0.4292606 141 141 141
0.101389708407889 0.0164245058201302 0.00263386926368653 0.4216256 -0.05096404 -0.9053367 126 126 126
0.114605578073035 -0.0506711315013419 -0.027715325739823 0.165416 0.549508 -0.8189496 123 123 123
0.0536897503218753 -0.0993112634517204 -0.0828220848111731 0.3021279 -0.3737108 -0.8769601 221 221 221
0.0390025698027713 0.113809912314271 0.0497969981165308 -0.1971396 0.9671425 0.160535 67 67 67
0.0878537021956546 0.0451050687931527 -0.00799211898132385 0.3634195 -0.126654 -0.9229762 117 117 117
0.149239393361579 0.00640973340496909 0.0163417752714533 0.2068896 0.7123654 -0.6706208 137 137 137
0.140793951638709 -0.0491991351939689 -0.0223650042085272 0.2601465 0.4923983 -0.8305828 124 124 124
0.140980365165244 0.0984525371693123 0.023962080094375 0.6469028 0.707396 0.2847941 200 200 200
0.0635812305293185 -0.0289401124812614 -0.0317961577443701 0.2598142 0.6051087 -0.7525556 105 105 105
0.0654514305672748 0.0220149446629037 -0.013950825121842 0.3473752 -0.06456067 -0.9355012 98 98 98
0.0971029721579654 0.0883230854176034 -0.0130780641107184 0.1998395 -0.300456 -0.9326255 125 125 125
0.0218237959227664 -0.114691407570983 -0.015393525746308 0.2049767 -0.9767941 -0.06211085 106 106 106
0.139916660674582 -0.040615708718444 -0.0158762041596991 0.1055036 0.4800645 -0.8708657 112 112 112
0.118930461295615 -0.0432052921153556 -0.0225454274682623 0.04273794 0.5019392 -0.8638463 128 128 128
0.0937504493079288 -0.0105101178981315 -0.0119889978437048 0.2192024 0.6168357 -0.7559524 105 105 105
0.132020892985831 -0.0929621766902458 -0.0245943967370612 0.1903781 -0.9307032 -0.3123263 65 65 65
0.0987792931876285 -0.100595028290893 -0.00402379074379028 0.2828945 -0.9562519 -0.07451866 62 62 62
0.0690817259631259 -0.104950339684631 0.0426144894094843 0.003879285 -0.9984614 0.05531566 92 92 92
0.013577642329703 -0.0951007913447868 0.0365703102083582 -0.6547328 -0.5067015 0.560873 150 150 150
0.00145301450110502 0.104657142271851 0.0571286674471277 -0.1174782 0.9233403 0.3655702 91 91 91
0.145503791459571 -0.0895175050593864 -0.0169710222749335 0.1306548 -0.9730293 -0.1901137 61 61 61
0.055644469746123 -0.0517390083171378 -0.0454063121347052 0.3078861 0.2802667 -0.9092067 144 144 144
0.192198338397513 -0.0747081350184928 -0.0119159523515326 0.5134135 0.2758366 -0.8126012 137 137 137
0.121694000848304 0.00750562440380942 0.0120838280649561 0.3365491 0.122138 -0.9337114 125 125 125
0.0952692650637729 -0.102157266030456 0.0263310965032953 -0.1865645 -0.9792981 0.07854218 60 60 60
0.0354188107333285 -0.0416525911189567 -0.051425487187348 0.3557185 0.3998902 -0.8447201 129 129 129
0.0810481481633288 0.061200230231141 -0.014574855950318 0.3515225 -0.1285095 -0.9273172 104 104 104
0.168021949418555 -0.0115005086757194 0.0618318315477747 0.7044649 0.4144425 0.5761654 53 53 53
0.0137367122254474 -0.0885337900020133 0.0408657189340967 -0.6397768 -0.4191467 0.6442063 169 169 169
0.0851721339306933 -0.0755156587459098 -0.0585470501451117 0.1195841 0.6874498 -0.7163186 80 80 80
0.165745648034583 0.0580800462864388 0.0330353375406641 0.8748639 0.3790668 0.3015319 143 143 143
0.0498678706965549 0.0366215397022713 -0.0215120915441138 0.492282 -0.1016541 -0.8644795 146 146 146
0.15302595723487 0.0939049411915291 0.0105817314119714 0.8171123 0.5161467 -0.2567492 149 149 149
0.0667203240475757 -0.0946526836253654 -0.0784227851895911 0.1954315 0.3348385 -0.9217861 159 159 159
0.121374281533728 0.0960272241734017 0.0621628459425348 0.6689296 0.6222206 0.4066628 113 113 113
0.0675417356572253 -0.0698397468425285 -0.0570659045247656 0.237176 0.6826881 -0.6911472 115 115 115
0.154096188434134 0.0503297735355843 0.0219536717863458 0.4490245 -0.2062028 -0.8694006 93 93 93
0.176748218425284 -0.0720805238582145 0.0366774197550195 0.3575627 -0.7811254 0.5118515 106 106 106
0.0279983751854999 0.118462650885438 -0.0432270471124274 -0.405346 0.8674164 -0.2885885 190 190 190
0.121596249230872 -0.0874609063960563 0.0473148818941492 0.4125859 -0.8977289 0.1544531 31 31 31
0.063688191064368 0.0552990127705086 -0.0186032060651404 0.266801 -0.1740173 -0.947911 127 127 127
0.11941018927909 -0.0775057386256706 -0.0452307764558417 0.5124518 0.4069349 -0.7561727 167 167 167
0.175205978044043 -0.0751113008357536 -0.0190815631417853 0.3318474 0.2524261 -0.9089326 125 125 125
0.0357647262892825 -0.11297789324298 0.0186274047823328 0.1419037 -0.9887705 0.04686464 165 165 165
0.179921480306159 -0.0110428642131339 0.0371803041429895 0.8405772 0.2216779 0.494256 102 102 102
0.0596667103848559 0.0990794588230599 -0.0310470167665106 0.1739896 -0.3808642 -0.9081135 92 92 92
0.0938086383423907 0.00705644380078208 -0.00158211627288879 0.4612783 0.0331042 -0.8866377 151 151 151
0.0996705614409549 -0.0968728374339591 0.0523996647329706 0.06092251 -0.9046059 0.4218728 183 183 183
0.116248878129492 0.124685971846436 0.00215688309387146 -0.0639608 0.9695589 -0.236357 221 221 221
0.0581118040166003 -0.0334245275355827 -0.0359281603364569 0.2203702 0.4042814 -0.8876899 125 125 125
0.0918846451125247 -0.0211202215053092 -0.0173584524659735 0.08469977 0.3689 -0.9256018 172 172 172
0.150178881772528 0.036415426840638 0.0239166911573785 0.422237 -0.01388037 -0.9063792 163 163 163
0.0813585393509967 -0.0733871768809806 -0.0572011772660834 0.171728 0.6961334 -0.6970708 156 156 156
0.154137107022773 0.0610230852268685 0.0201143022508997 0.434118 -0.1857498 -0.8814979 126 126 126
0.113185169585715 -0.0787159513331901 -0.0496389571694952 0.4708236 0.5118461 -0.7185671 76 76 76
0.0970390163741214 0.0674888778828133 -0.00885438957496704 0.3922061 -0.06178987 -0.9177998 115 115 115
0.0212531708560092 -0.114631445298339 -0.0208154920606238 0.1834433 -0.9806199 -0.06879766 115 115 115
0.0843181185803515 -0.101669342408324 -0.01769042053505 0.09801745 -0.9946348 0.03307849 152 152 152
0.19240623939849 -0.0490519117213737 -0.00207683482452453 0.3169999 0.3492373 -0.8817847 119 119 119
0.0655136727175815 -0.105788142571593 0.0207717712850946 0.2051199 -0.9769008 -0.05992287 50 50 50
0.00773422647334165 0.121233432402467 -0.0025848154096228 -0.03012399 0.8621207 0.5058066 149 149 149
0.0160740934691531 -0.111788661370422 0.0146655138464349 -0.166488 -0.7693262 0.6167811 148 148 148
0.147540392764579 0.0661593366764535 0.0159569676847833 0.4369423 -0.2848575 -0.8531926 143 143 143
0.159233661778937 -0.00549057234301675 0.00699603519157349 0.1717808 0.64095 -0.748114 105 105 105
0.0511705004057986 0.116472094168519 0.0368471439810175 -0.1147422 0.9723775 0.2032638 122 122 122
0.0742058180651767 -0.0549584936000358 -0.04081013837143 0.1340065 0.5936164 -0.7935123 157 157 157
0.157618644126425 0.0431713749073495 0.0520710345240015 0.7896845 0.2031777 0.5788931 89 89 89
0.085479589589606 -0.0933736871577751 0.0597473975153345 0.14101 -0.8132178 0.5646176 115 115 115
0.0576118998608691 -0.0251872848369132 -0.0300239626435858 0.3220572 0.5579004 -0.7648702 128 128 128
0.0755242281041247 0.122227399458741 -0.0151945058374029 0.01086984 0.9925462 0.1213834 133 133 133
0.0795376174531085 0.120871155371522 -0.0290228430299383 -0.2355482 0.9150733 -0.3273497 155 155 155
0.0596786909184558 0.120404451002931 -0.00914257803245605 -0.1354353 0.9907781 -0.004007294 97 97 97
0.0713916592679126 0.118923394789552 -0.0288399759797675 -0.1771567 0.9627748 -0.2041573 158 158 158
0.0414177798113925 -0.0554210256434928 -0.0527936820058447 0.2989151 0.5441992 -0.7838986 110 110 110
0.13553869951583 0.0182701040409554 0.0166319902868646 0.1997412 0.1758123 -0.9639468 59 59 59
0.136110546477805 0.0134961296223153 0.0158888693781274 0.290121 0.2087981 -0.9339342 128 128 128
0.0197561554989917 0.118395059218263 0.0107179578276056 -0.1095228 0.9392699 0.3252335 114 114 114
0.0694180153689486 0.119081585516785 0.026930123183288 -0.1263165 0.9566044 0.2625874 91 91 91
0.13025048602439 0.0867905307911385 0.0598175521822351 0.6658766 0.4573777 0.5894184 105 105 105
0.113547536023627 0.123461215605592 -0.000504017260513911 -0.08429819 0.951528 -0.2957841 136 136 136
0.0900383018336398 0.12275048982129 -0.0272611383466345 0.3095554 0.7513043 -0.5828527 187 187 187
0.130116286166678 -0.0746703456737052 -0.039030045655213 0.3806 0.4696834 -0.7965809 65 65 65
0.0234898053488833 0.112125842680787 0.0384615059824365 -0.1392261 0.9653701 0.2206282 68 68 68
-0.0101082451262372 0.102705090155457 0.0587158199282068 -0.08251274 0.8870052 0.4543276 236 236 236
0.027280645855437 -0.0979608606196891 0.0394536848993677 -0.1081583 -0.6944723 0.7113439 132 132 132
0.0599227272353274 -0.0153717111445915 -0.0239617232350928 0.3726356 0.4455918 -0.8139967 120 120 120
0.0110744707665545 -0.0818134855128776 0.0433069463701624 -0.5725251 -0.5334728 0.6225927 149 149 149
0.128018977530966 -0.0525116037227165 -0.0277450982598883 0.3145827 0.4530565 -0.8341328 81 81 81
0.166664870866309 -0.0885154317714225 0.0183627899618524 0.1761417 -0.9362811 0.3038943 101 101 101
0.0911356978497607 0.121361582388734 0.0449622567625421 -0.06557751 0.9848108 0.1607711 180 180 180
0.0781046025834186 -0.104446442017699 0.0303367670507806 0.02139333 -0.9991424 0.03545182 84 84 84
0.185259553082953 -0.0487213443614494 0.043732702347793 0.8694049 -0.1620077 0.4667856 69 69 69
0.0876203351101977 -0.0698445152141105 -0.0524717275170904 0.1583276 0.6957176 -0.7006493 97 97 97
-0.0145066357769864 0.117155640234803 0.00256288013175904 -0.1173255 0.9255375 0.360021 135 135 135
0.133110644706259 0.0888570238255013 0.000764995429076543 0.4777117 -0.05002967 -0.877091 107 107 107
0.123636486419211 -0.0411100696422111 -0.0212486092118842 0.122562 0.6029833 -0.7882828 103 103 103
0.079509364851485 -0.103000314126159 0.00471523365692078 0.1184784 -0.9915948 -0.05198652 40 40 40
-0.00159793864869051 -0.116855890641357 -0.00183981695457519 -0.1876655 -0.9702814 0.1527601 178 178 178
0.114492537864218 0.0988341261051644 -0.0119503144292456 0.2891518 -0.289645 -0.9124127 81 81 81
-0.020094168893327 0.104124276747559 0.0467483695478815 -0.03965198 0.9953257 0.08805989 69 69 69
0.0917386286339862 -0.0434594463206779 -0.0286327306298834 0.3422648 0.5100642 -0.7891067 92 92 92
0.124970348962317 0.0303179908894051 0.0108580883474725 0.3980843 -0.1598376 -0.9033166 132 132 132
0.1030905865512 -0.0914711068965446 0.0595138665171045 0.2531605 -0.5790615 0.7749823 159 159 159
0.0734467678151233 0.0565099407337655 -0.0165421370534521 0.2665423 -0.1285483 -0.9552123 157 157 157
0.0838904552540881 0.122155277838563 0.0326612885923761 -0.2395337 0.9668119 0.08887288 123 123 123
-0.0108759082474607 -0.0972485851146232 0.0167697068186182 -0.8753076 -0.3562082 0.3270356 114 114 114
0.163142266162406 0.0591678310535897 0.025289326521911 0.5553246 -0.05569167 -0.8297669 119 119 119
0.0367983602366549 -0.0169188093043815 -0.0344721380738837 0.4964507 0.3677152 -0.7863346 56 56 56
0.0199707322201831 -0.0818554471827995 0.049241393420257 -0.3448757 -0.4501584 0.8236614 95 95 95
-0.0338040642061131 0.0975123335026253 0.0596280094118494 -0.233467 0.7992237 0.5538363 164 164 164
0.161993625052939 0.0426826168201913 0.0471526976557153 0.7573569 0.2152867 0.6164919 97 97 97
0.134370269664298 -0.0818277906276237 -0.0399045948056799 0.5191084 0.2166708 -0.8267891 172 172 172
0.0898626320443255 0.123066036810731 0.0326218303175348 -0.1669636 0.9857454 -0.02071867 109 109 109
0.197148176320563 -0.0757727931834709 -0.0102424923448187 0.7231891 -0.2258402 -0.6526819 80 80 80
0.15890643227912 -0.0900723050929557 0.00639817080215394 0.08871347 -0.9843336 -0.1523723 161 161 161
-0.0514617092528241 0.0940086532734383 0.0591785307855981 -0.3892816 0.8728369 0.2943053 101 101 101
0.12478903163291 0.116174428572511 0.0183446105451959 0.6091215 0.7401148 0.2849581 151 151 151
0.13841071952201 -0.0222690414287101 -0.00834918060585083 0.1711339 0.3501632 -0.9209229 101 101 101
0.0248995893082721 0.109352796187257 0.0516610439749139 -0.2805463 0.8878751 0.3646527 141 141 141
0.176251115687857 -0.0575630973674308 0.0509634908171075 0.6450208 -0.2305432 0.7285588 71 71 71
0.14996546734191 -0.0675081323482047 -0.0259583298234564 0.4403071 0.1596342 -0.8835421 67 67 67
0.0956212006888492 0.0483209777973641 -0.00545793810173095 0.4258939 -0.2064574 -0.8809028 237 237 237
0.0390759282193286 -0.0722469400264274 -0.0714521709947211 0.2478002 0.747137 -0.6167507 174 174 174
0.029603826292525 0.12018427144513 -0.0354322496919257 -0.2241451 0.9676583 -0.1157425 121 121 121
0.0804666750512225 -0.00472644079699625 -0.00849050321861328 0.260816 0.546191 -0.7960216 126 126 126
0.14118775952674 -0.00547257174029459 0.00369730553344666 0.04351796 0.7150324 -0.6977355 130 130 130
0.123644562848578 0.0143180776737679 0.0124585922689813 0.360583 0.08241978 -0.9290785 52 52 52
0.09468920756198 0.121956794371461 -0.0110583607225043 0.02243549 0.9990041 0.03856698 119 119 119
0.0927376769862277 0.0355974126957406 -0.00267776885315002 0.4987502 -0.249961 -0.8299204 94 94 94
0.0494822882495028 0.116155712714051 0.0366890128584283 -0.1262633 0.9669271 0.2216067 139 139 139
0.131964566596518 -0.00583699453845132 0.00335857233718811 -0.07238413 0.6892701 -0.7208795 136 136 136
0.00211777020312376 -0.0789183687068473 0.0393608804674524 -0.4438598 -0.5188037 0.7306376 158 158 158
0.110772701390753 -0.00935033072009195 -0.00321564116760314 0.1000801 0.7267618 -0.6795596 131 131 131
0.185922297128211 -0.00178340185656656 0.0185090299578088 0.5856133 0.5872707 -0.558722 149 149 149
0.0598770998797519 -0.10428968180194 -0.0711321834592444 0.09940147 -0.9715928 -0.2147713 72 72 72
0.0600968175015552 -0.0873221467830192 -0.0751400593785864 0.2173781 0.5595599 -0.7997746 98 98 98
0.191918673404227 -0.0820428441859733 -0.00718295612617553 0.5776734 -0.7924874 -0.195594 94 94 94
0.097842516788016 0.0856231142185677 -0.0122502748040778 0.1760204 -0.2876362 -0.9414256 117 117 117
0.0559547566256625 0.119479982962464 -0.0212999884156805 -0.001264414 0.9880435 -0.1541698 152 152 152
0.0635565840087039 0.117072193732118 0.0449446733923334 -0.08038257 0.9963753 0.02783721 72 72 72
0.0832157455763919 0.0607843090198983 -0.0135598484544379 0.41637 -0.2008264 -0.8867382 116 116 116
0.0698901288590533 0.0699089456699837 -0.0176710788278204 0.3129077 -0.1795449 -0.9326588 224 224 224
0.165273579247962 -0.0231715749598991 -0.00248542466445983 0.2473137 0.4130816 -0.8764699 149 149 149
0.187808575519095 -0.0189479898311149 0.0105606611700433 0.4211435 0.4708713 -0.7751893 125 125 125
0.127448054440985 0.118079154600953 -0.00648230352684082 0.5598816 0.2313185 -0.7956282 137 137 137
0.0343652390322787 -0.109005601296569 -0.0466483537225348 0.1616535 -0.9700601 -0.1812498 53 53 53
0.0977270625910861 -0.10385707129016 0.0209991332025903 0.008469227 -0.9997547 0.02046668 158 158 158
0.00980681408263273 0.116891591658448 0.00860431751922547 -0.1155858 0.895344 0.4301153 146 146 146
0.154343011268149 0.0115394283436288 0.0219261940451044 0.4153402 0.3931178 -0.8203358 167 167 167
0.149531783946524 0.0548550773762215 0.0191351767511743 0.4962077 -0.06545526 -0.8657329 106 106 106
0.0446180425963504 0.111246316542481 -0.0381453637151343 0.3320408 -0.2538371 -0.9084688 109 109 109
0.0336295240006549 0.118632524123048 0.0150909419985193 -0.1240222 0.9446098 0.30386 101 101 101
0.162224146016608 0.0504889179371346 0.0263165827722925 0.4951335 -0.2136441 -0.8421395 98 98 98
0.129684092887412 -0.00141778696551431 0.00856459102348267 0.001972558 0.6150548 -0.7884818 60 60 60
0.0225178473076922 -0.000910670647765288 -0.0352399055032355 0.4576413 0.4644893 -0.7581649 179 179 179
0.0536286853633029 0.119452207197999 -0.00319415369316162 0.03072498 0.9753595 -0.2184716 155 155 155
0.180242183097373 -0.0540775369502555 -0.0104551319150549 0.4025477 0.4800672 -0.779417 110 110 110
0.0855679981789691 0.122987835516785 -0.0252818171052557 -0.06050485 0.9946153 -0.08413989 149 149 149
0.0017468504986865 0.122418372740601 -0.00310739913269104 -0.2215633 0.8989226 0.3779523 213 213 213
0.145656468757163 -0.0388905118800651 -0.0148535970716101 0.105823 0.4249228 -0.8990229 95 95 95
0.0768377952656848 0.0222327400349129 -0.00877106228157104 0.4199554 -0.006898473 -0.9075185 73 73 73
0.122083785422812 0.0775408435963143 0.0713783349724191 0.4787349 0.389582 0.7867901 93 93 93
0.155619087108145 0.0347381521366585 0.0259125526876825 0.3822711 0.01651068 -0.9239027 109 109 109
0.0851802401623828 0.109026043524598 0.0600212808580774 0.1370084 0.469936 0.8720028 120 120 120
0.0160696976266009 0.121714561095094 -0.0160084966687781 -0.04608836 0.9218093 -0.3848942 150 150 150
0.0933384471020801 0.0195656705997933 -0.00208652057930053 0.4804877 0.0868881 -0.8726867 102 102 102
0.186830463298331 -0.0222548555232536 0.00764319262222229 0.4206547 0.540601 -0.7285603 116 116 116
-0.00183033715866976 0.121108858694886 -0.00755110421463073 -0.2514094 0.9646667 0.07881351 199 199 199
0.0686644487462146 -0.104348809609557 0.0115385349722284 0.197183 -0.9782888 -0.06379476 17 17 17
0.0434626959643466 -0.0774835656978141 -0.0733340982465369 0.3452027 0.5886707 -0.7309596 111 111 111
0.131870272048484 -0.0453893255092155 -0.0213021043805701 0.3145102 0.5777858 -0.7531579 116 116 116
-0.0101236231245893 -0.0991365026332389 0.0157287713022607 -0.8251981 -0.4359811 0.3591221 125 125 125
0.0615614824376208 -0.0132311891414176 -0.0225698653726202 0.3478907 0.4617555 -0.8159375 128 128 128
0.0772795252881152 0.121002404799317 0.0287947352857965 -0.2245795 0.9454303 0.2360628 97 97 97
0.0478310309729678 -0.106886298546935 -0.0610234443215948 0.05773747 -0.9897879 -0.1303313 45 45 45
0.168540599235068 -0.0222100328303825 -0.000387609389267574 0.3462235 0.5077498 -0.7888722 155 155 155
0.0177662246308429 0.118782608618592 -0.032580227044068 -0.07444733 0.9599202 -0.2702051 133 133 133
0.0548326842866046 -0.107736379990722 -0.0255098942784888 0.2642586 -0.9642889 -0.01773053 88 88 88
0.111584784873496 -0.0758849691249381 -0.0484701696900946 0.3951502 0.5488976 -0.736592 140 140 140
0.0121795408806903 0.120373456587647 0.00247594675735413 -0.1885971 0.9432371 0.2733767 141 141 141
0.151570680030356 0.0687715698383797 0.0167550738783258 0.4340711 -0.3199908 -0.8421332 110 110 110
0.0336329959712131 0.0403099943302621 -0.0297970775632483 0.4278977 -0.1090764 -0.8972212 220 220 220
0.135101797469626 -0.0829613517619621 0.0571139152975458 0.3141411 -0.7630532 0.5648585 83 83 83
0.155904742368231 -0.0896510194636833 0.0210616882772821 0.1875524 -0.8954244 0.4037811 128 128 128
0.168238850720893 0.0206560779713143 0.0474813576670068 0.8946812 0.2328304 0.3812291 66 66 66
0.121347548850547 -0.0882782052852165 0.0517129596205133 0.3429293 -0.9391456 0.02012616 59 59 59
0.0235186539969546 0.114141433348512 0.0308351810903925 -0.1578191 0.9685134 0.1925486 118 118 118
0.0994016252837283 0.121955363859986 -0.00484827199264587 0.05382115 0.9663835 -0.2514083 140 140 140
0.0260513000569446 0.107651202788209 0.0549361403913873 -0.3553941 0.8397884 0.4104272 167 167 167
0.105679097064505 0.0188035656116952 0.00408512315467774 0.2633727 -0.02509906 -0.9643676 122 122 122
0.1205186866603 0.112754194846009 0.0295805331201929 0.3681161 0.8621246 0.3481833 144 144 144
0.0612836502871615 -0.104046733269836 0.0496322210760492 -0.03474393 -0.9784983 0.2033072 169 169 169
0.113780321963797 -0.0488492559291374 -0.0267177824048621 0.2191945 0.5623077 -0.797348 121 121 121
0.033978524096976 -0.0247339319087516 -0.0413257185487372 0.3793707 0.4010195 -0.8338233 127 127 127
0.0389372282109363 -0.11060825098529 -0.0012054745225531 0.3204374 -0.9455526 -0.05701011 42 42 42
0.178803624995719 -0.0157680820323478 0.0449155267210382 0.8681513 0.4648511 0.1738584 108 108 108
0.167767288573752 -0.0311718295909416 -0.00484684148117126 0.1768829 0.3145634 -0.9326105 85 85 85
0.121921899207602 -0.0946415971614372 0.0399706061811823 0.4529336 -0.5405363 0.7089933 67 67 67
0.113516422399054 0.0965705801151742 -0.0110659901170355 0.2866578 -0.2594764 -0.9222252 98 98 98
0.0737093709788424 0.120362727751588 0.00254997572616517 -0.01023122 0.9989884 0.04378767 161 161 161
0.11254567135192 0.107958524336671 0.0561451610060114 0.3769693 0.6333637 0.6758288 105 105 105
0.037438081987868 0.00629529248700034 -0.0270067159204108 0.4133682 0.06595986 -0.9081718 155 155 155
0.109559717067252 0.0937865663670052 0.068525895092048 -0.02225135 0.4882884 0.8723986 48 48 48
0.134409012683402 0.0986334968708504 0.0427393015356439 0.6515293 0.6367742 0.4123448 146 146 146
0.0754913412413699 0.120231597533082 -0.0309265259770972 -0.2840905 0.8658394 -0.4118432 143 143 143
0.19683447707511 -0.0759874891139518 0.00206831059173523 0.7596446 -0.6021997 0.2455515 113 113 113
0.00744562078333921 0.112409679999207 0.0311972197027582 -0.09398363 0.989008 0.1141503 107 107 107
0.203254076131354 -0.0687783073283683 0.000150769564666142 0.9635017 -0.2610555 0.0592837 126 126 126
0.104678454288016 -0.0382665704585563 -0.0224086348085028 0.09466861 0.4922403 -0.8652961 127 127 127
0.0713573865971667 -0.105894000420715 -0.0194451812772375 0.2045915 -0.9780114 0.04044782 167 167 167
0.177390279658805 -0.0731538843013297 -0.0179000202684027 0.2524675 0.2197908 -0.9423121 109 109 109
0.0977818690619571 0.0762275148533333 -0.00897714534088195 0.3887121 -0.2386591 -0.8899128 137 137 137
0.1339504145465 -0.0689884733058463 -0.0343295637635809 0.3370619 0.3798684 -0.861446 102 102 102
0.173251571544181 0.00243648778424155 0.0173535641165155 0.180603 0.6702782 -0.7197984 140 140 140
0.105857255347739 0.0386321235798348 0.00359082183555542 0.2975977 -0.226501 -0.9274335 202 202 202
0.0877522997937304 -0.00846293676867593 -0.0117037300138098 0.1498761 0.6824784 -0.7153743 107 107 107
0.0277860783419711 -0.0445828746654044 -0.0554450754193884 0.3359298 0.5716611 -0.7485685 113 113 113
0.171266915687094 -0.0138064931727897 0.00640273055747925 0.3815202 0.4090875 -0.8289088 113 113 113
0.0480459951243503 0.115734427084779 0.0487739141912836 -0.1451576 0.9794713 0.1398758 72 72 72
0.150723578818808 -0.0792196105815421 0.0484444197149652 0.6617092 -0.6420066 0.3872575 66 66 66
0.111572923549185 -0.097325594315673 -0.029063791420899 0.2271879 -0.9643233 -0.1358908 91 91 91
0.175565096028815 -0.0868152688838493 -0.0130849484471899 0.2064439 -0.968384 -0.1400478 139 139 139
0.0997535609088046 -0.0972048353053581 -0.0627770725755316 0.23785 -0.786672 -0.5697144 184 184 184
0.0933724515519244 0.121918528189515 -0.0133867863683325 -0.006242766 0.9998158 -0.0181509 107 107 107
0.0517958127341372 0.11209055673108 -0.0365413133172613 0.1635313 -0.3056557 -0.9379936 58 58 58
0.134603562243949 -0.0953846286632072 0.0157918032141107 0.33128 -0.9398519 -0.08325849 92 92 92
0.103776725419532 0.12224349271283 0.0409259196253198 0.1495657 0.935557 0.3199424 203 203 203
0.171340736039649 -0.00548091639056314 0.0110130604238886 0.3320206 0.510741 -0.7930359 114 114 114
0.163968654759894 -0.0573412488795768 -0.0191186968354803 0.30126 0.2163012 -0.9286852 123 123 123
0.173598559983741 -0.0785709928370963 0.0284151729078668 0.4103987 -0.9110105 0.04040828 47 47 47
0.183021100648413 -0.0194076608516227 0.0338107343645471 0.8776625 0.3125735 0.3633267 98 98 98
0.0516117833933932 0.12075480710492 -0.0158632103471381 0.09941104 0.9853656 0.1384631 166 166 166
0.0550796859345538 0.111074774374818 0.0613604780168909 -0.2567713 0.7405096 0.6210588 163 163 163
0.0795683585486514 -0.0552594970561515 -0.0405626598863226 0.06774276 0.5484195 -0.8334548 164 164 164
0.163301678784857 -0.00231328714861978 0.0110242660971063 0.1495243 0.6631376 -0.7334105 75 75 75
0.122087182887564 -0.0939197849132072 -0.00993460455223144 0.1934936 -0.9763965 -0.09596941 63 63 63
0.151386442073355 -0.040980846772338 -0.0141255263356787 0.2651209 0.4493169 -0.8531267 143 143 143
0.186906101592551 -0.0213183473445426 0.0289755161734003 0.8164017 0.2862868 0.5015258 108 108 108
0.063754531034003 0.116149036993836 0.052839397999801 -0.09327858 0.9701315 0.2239287 98 98 98
0.0837890081486804 0.0871469665668954 -0.0184714499978644 0.3774555 -0.2529261 -0.8908175 93 93 93
0.0770542197308642 0.0645506073139657 -0.0161246065168005 0.2712588 -0.06956071 -0.9599895 91 91 91
0.0239601903042895 -0.114484460244323 -0.0115262869863135 0.2511885 -0.966398 -0.05458229 62 62 62
0.0257166944823367 0.0791151214741219 -0.04056599774643 0.4064509 -0.3302137 -0.8519135 101 101 101
0.089050608166228 -0.0718130182124626 -0.0547820929555518 0.1736894 0.703635 -0.6890064 84 84 84
0.0916985296092135 -0.102845222840453 0.0405299659700769 0.1037818 -0.9842214 0.1433095 142 142 142
0.125776740201483 -0.0975539993144523 0.0130962427587885 0.1807256 -0.9765748 -0.1167896 142 142 142
0.195036413558493 -0.0409660648204337 0.026954650494613 0.9356909 0.1253083 0.3298186 166 166 166
-0.0184514201798337 0.113848774542664 0.0128954049082178 -0.1615538 0.9511308 0.2631551 100 100 100
0.196314217933188 -0.0572192977763664 0.0227869745226282 0.90281 -0.18684 0.3873305 175 175 175
0.0195978753647906 0.116198270430421 -0.0392884317903143 -0.1876525 0.9422269 -0.2774798 167 167 167
-0.0184739954390424 0.111454098334168 0.0174267586202997 -0.1683684 0.8820174 0.4401107 126 126 126
0.0295223616442782 -0.112121851334716 -0.0208195749787909 0.1248626 -0.9919621 0.02050408 49 49 49
0.0756142162165744 0.120078532805299 -0.0293909613160712 -0.272112 0.922528 -0.2736733 112 112 112
0.154074075110923 -0.0532462905742179 -0.0212730173139197 0.255516 0.3716504 -0.8925176 139 139 139
0.057996320017348 -0.106704862008239 0.00216296276763855 0.2058044 -0.9777648 0.04025647 39 39 39
0.0593380354724032 0.091433851828431 -0.0277363661794287 0.312389 -0.3315403 -0.8902214 112 112 112
0.129331292994986 0.00875505696759116 0.0127865966291803 0.1175746 0.1878922 -0.975127 62 62 62
0.0476899318776233 -0.088620931992675 -0.0797365013627631 0.3797113 0.5302786 -0.7580395 89 89 89
0.167242112048636 -0.00719705332293619 0.00842687449172913 0.2592452 0.5280838 -0.8086528 110 110 110
0.084063785561095 0.0989920784138192 -0.0225084129838568 0.344959 -0.4642747 -0.8157526 163 163 163
0.173311772235404 -0.0648354600764762 0.0467741187544244 0.4678285 -0.6293811 0.6204966 82 82 82
0.0870498739562137 -0.0961654495097648 0.0555837746591943 0.1699584 -0.8198193 0.5468184 151 151 151
0.0918768369040591 0.121342389693116 -0.00350031295105041 -0.1869811 0.9800089 -0.06797533 135 135 135
0.191278757937918 -0.0142634223796378 0.0187324579687494 0.8604997 0.50295 0.081127 110 110 110
0.0154224656901462 0.116341917624329 0.0184867676229852 -0.1426126 0.9764393 0.1619504 128 128 128
0.0655104987702472 0.115439860930299 0.056097477290191 -0.1604355 0.9485158 0.2730902 167 167 167
0.122836830504904 0.109928219427918 0.0370849665136713 0.4124197 0.9041025 0.1118422 142 142 142
0.162551345714102 0.0594991136692513 0.0381444092722314 0.7727401 0.4881295 0.4057121 178 178 178
0.0536660574755771 -0.0812496255733024 -0.0725323561696631 0.2161096 0.5942382 -0.7747113 122 122 122
0.0492631219706637 -0.0192747424937736 -0.0313472751645666 0.2647781 0.3331169 -0.9049451 130 130 130
0.131750109084616 0.00657340775952231 0.0128822322817224 0.1283286 0.2988137 -0.9456438 75 75 75
0.177507879622946 -0.0438585590220939 0.0505478974314111 0.8227004 -0.1384153 0.5513667 106 106 106
0.161195638068686 0.0628848959110726 0.0238242145510095 0.5767463 -0.09929239 -0.8108667 142 142 142
0.153230311759482 -0.075787336716796 -0.0272938910989386 0.2373874 0.2582796 -0.9364501 170 170 170
0.0463198744139773 0.113804071059083 0.0546019967527765 -0.1116293 0.9913123 0.06956159 125 125 125
0.00232440460539884 -0.0673140596248161 0.0455968674154657 -0.5550057 -0.4103827 0.7235708 141 141 141
0.0178247861943347 0.105885713209962 0.0583351548643488 0.03004872 0.9027645 0.4290842 142 142 142
0.0460349046073062 0.120154945959901 0.0182960625620264 -0.1686008 0.9167277 0.3621933 133 133 133
0.0660518430552585 0.00459071885571372 -0.0131423179177863 0.3965363 0.06704861 -0.9155673 183 183 183
0.181177171357642 -0.0687345575191032 -0.0162654224900824 0.4179021 0.3028884 -0.8565141 154 154 154
0.061770277508269 -0.106186063180114 -0.0287564400701147 0.1010927 -0.9871807 0.1235092 110 110 110
0.0957204126200778 0.0271795679234017 -0.00020545759483398 0.3641248 -0.04973751 -0.9300211 99 99 99
0.179505529292594 -0.0554029058314811 -0.011647016194306 0.3780521 0.4894888 -0.7857972 129 129 129
0.0421230368695361 -0.0243821452952873 -0.0356542471913916 0.4339387 0.5033362 -0.7472281 112 112 112
0.0328936450562579 0.103076427092408 -0.0425448123483282 0.5032692 -0.2071356 -0.8389368 141 141 141
0.0378914945206744 0.119143216719483 0.0153630372019189 -0.1844712 0.9299297 0.3181214 64 64 64
0.113658221848975 -0.0894840072490226 -0.0591776076821905 0.7450283 0.3105553 -0.5903289 171 171 171
0.0233746491751773 0.0450360466145028 -0.0349331501988989 0.397858 -0.03443477 -0.9168006 112 112 112
0.131364824660788 0.0867396284245003 5.50445051568649E-05 0.4378446 -0.1765361 -0.8815482 76 76 76
0.110032977946768 -0.0648358177043449 -0.041010767605744 0.3231896 0.544115 -0.7742656 116 116 116
0.119441183694373 -0.0808364461757194 -0.0465758446721655 0.5272835 0.3715267 -0.7641596 110 110 110
0.013660656698714 -0.0713060211040031 0.0522997971506494 -0.4298592 -0.3995643 0.8096724 74 74 74
0.0715667926154239 -0.104811699280883 0.0327498312921899 0.1365651 -0.9906307 -0.0008027503 64 64 64
0.148269595988761 -0.0821024488307487 0.0465759333105463 0.6071255 -0.6852219 0.4023301 109 109 109
0.0956227057061297 0.12398180257306 0.00898414811805665 -0.2019286 0.9721494 -0.1189559 149 149 149
0.102160992511283 0.0704826999805916 -0.00582397022529663 0.3735156 -0.1732107 -0.911309 158 158 158
0.0472505860409839 -0.108114869485046 -0.0117690269021613 0.1566063 -0.9871679 -0.03120882 39 39 39
0.069162371047507 0.068677036871766 -0.0183413032559973 0.3471737 -0.1404049 -0.9272308 226 226 226
0.165307226069937 0.0357716966770638 0.0467476840944666 0.8203751 0.260043 0.5092763 113 113 113
0.00961448479510374 0.115099637617921 0.0151733752222437 -0.113866 0.9810818 0.156566 87 87 87
0.144344481118689 -0.0496312688685905 -0.020829886582337 0.1851221 0.4662784 -0.8650516 86 86 86
0.117482694276343 -0.095934779534484 -0.0250709656743628 0.2068314 -0.9782868 -0.01325505 44 44 44
0.0532694481692416 0.102534382452821 -0.0326332155732733 0.1597598 -0.3399737 -0.9267657 75 75 75
0.144414129146109 0.0478328157566537 0.0169335897894281 0.5487545 -0.3231628 -0.7709956 103 103 103
-0.0205205209174054 0.106427281012391 0.0366627868147272 -0.127674 0.9689133 0.2119111 151 151 151
0.0518284313759906 -0.102848083863402 -0.0771270100144965 0.04609973 -0.934072 -0.3540964 62 62 62
0.0380025081715686 0.0795567918919076 -0.0357936624555212 0.4279644 -0.1535682 -0.8906533 124 124 124
0.0514292143664462 0.0712387252949227 -0.0266134146718603 0.4578872 -0.1114858 -0.8819922 143 143 143
