ply
format ascii 1.0
comment File exported by Rhinoceros Version 7.0
element vertex 468
property float x
property float y
property float z
property float nx
property float ny
property float nz
property uchar red
property uchar green
property uchar blue
end_header
0.0524089998689412 0.00494718146661788 -0.00202944152092227 0.6363047 -0.7520224 0.1719842 58 58 58
-0.00624983912582966 0.0312282258307869 0.0159278479890239 0.02146023 -0.330898 0.9434225 108 108 108
0.00487524229969472 -0.00847849760731256 0.00835804632079193 -0.1529642 -0.1345942 0.9790232 133 133 133
-0.0099317372149974 -0.0507322605819561 -0.0218206507827291 0.2394693 -0.9687201 0.06508245 174 174 174
-0.0182310910159353 -0.00719292241474301 0.0047982634912966 -0.1761807 -0.03018111 0.9838951 77 77 77
-0.0237972319592261 -0.0443121472937715 -0.0167517189120037 -0.0282772 -0.7129156 0.7006795 123 123 123
0.0304267216423058 -0.014915324882338 -0.00115442517886023 0.7257689 -0.6758412 0.1284452 74 74 74
0.00788947611676916 0.036011644875822 0.0190784110246129 -0.2953807 -0.2285912 0.9276294 107 107 107
0.0273532946785 -0.0198173852973589 -0.00854541756268946 0.6503857 -0.7547443 0.08578773 191 191 191
0.0160034934551234 -0.0292150043338032 -0.0148168472017013 0.696766 -0.7137746 -0.07101335 202 202 202
-0.0149750706804168 0.0238165013083808 0.0143340402155883 -0.05018751 -0.05798273 0.9970553 85 85 85
-0.0567279420090334 -0.0133812534018871 -0.00499202357613279 -0.2790995 -0.7243274 0.6304389 76 76 76
0.0367716234416227 0.028870039367434 0.0177813714939771 0.2884532 -0.483556 0.826419 40 40 40
0.00220590338063253 0.036035615384023 0.0172727731990824 -0.1456508 -0.3033693 0.9416755 99 99 99
-0.0439727201809439 0.00241296054355888 0.00810990889753747 -0.07766663 -0.4080681 0.9096419 230 230 230
0.0232756595378829 -0.0216983145503569 0.00146485939005415 0.6726577 -0.7394051 0.0284915 101 101 101
0.0492546771807465 0.00573872195637148 0.00620560863173004 0.5516667 -0.4193343 0.7209872 113 113 113
-0.0167446251163628 0.0134426920522258 0.0114349714015774 -0.1769904 -0.3754574 0.9097835 138 138 138
-0.0118107099693545 -0.0501269420425358 -0.0191668897553769 -0.04179027 -0.8787029 0.4755363 140 140 140
-0.0546373327166694 -0.0170233634848868 -0.0094255217340409 -0.2043473 -0.7982586 0.566591 99 99 99
0.00320770096403278 -0.00839248270539972 0.00812385736291911 -0.1086221 -0.1289707 0.9856814 137 137 137
0.0468346922795271 0.00103759163707806 0.00184128377200844 0.5864626 -0.7597151 0.2808818 93 93 93
0.0236475901407083 -0.022280801234668 -0.00663763046930918 0.6345917 -0.7704386 0.06097355 79 79 79
0.0430405212661666 0.0367553072101202 0.0188543699936151 0.5628081 -0.3285357 0.7584928 47 47 47
0.000240978890624355 -0.0368156621529908 -0.00734130545323637 -0.1355555 -0.686569 0.7143162 129 129 129
-0.0253609222367857 0.0266987304776464 0.0136928631099443 -0.03037315 -0.02666323 0.9991829 85 85 85
-0.0204403439146121 -0.0373014760026104 -0.0112763832984294 -0.06453494 -0.627546 0.7759003 107 107 107
0.0196486111293157 -0.00940845972252602 0.00904295252139362 -0.1080304 -0.19297 0.9752395 90 90 90
-0.0268563598886602 -0.027444298201483 -0.00890057715693683 -0.312964 -0.5326438 0.7863486 104 104 104
0.0414646511201666 0.0324129079059742 0.0187754119025811 0.388682 -0.4688793 0.7931447 81 81 81
-0.031421033817093 0.0232642995302049 0.0131362490706668 0.1954173 -0.2786818 0.9402917 145 145 145
-0.0217693554140315 0.00502126540984815 0.00800523216882905 0.01097166 -0.433623 0.9010276 101 101 101
-0.0123322554364815 -0.0509566912036982 -0.021255895425059 -0.03750606 -0.9563199 0.2899063 139 139 139
-0.0201711959508111 -0.00136325996333964 0.00508960663356145 -0.05869319 -0.2315246 0.9710569 119 119 119
-0.0475959293464752 0.0104391279046251 0.0103564570998041 -0.134534 -0.4170254 0.8988829 77 77 77
0.0364546205161913 0.00292688190355828 0.0105296453374054 0.1846378 -0.1003282 0.9776723 216 216 216
-0.0320557491015396 -0.0448532047378939 -0.0183757290108595 -0.2696377 -0.5860364 0.7641053 98 98 98
0.0112476042894341 -0.00718091682927702 0.00938814237081237 -0.06481678 -0.2401562 0.9685679 143 143 143
-0.0287671996108605 -0.0217386056024813 -0.00401902442010604 -0.2760571 -0.7135446 0.6439306 143 143 143
0.0273048075027273 -0.0199230842746009 -0.0109935264248869 0.6408036 -0.7676341 -0.01042109 119 119 119
0.0141136570785276 -0.00553548763720391 0.00996793250359525 -0.001231496 -0.2541406 0.9671665 163 163 163
0.0129084960927397 0.0208649362731156 0.016877444764948 -0.311928 -0.3334993 0.8896511 138 138 138
-0.0105823271604977 0.00707166054684361 0.00994805029493957 -0.2275987 -0.3754614 0.8984584 161 161 161
0.000722921166282919 -0.016660106862275 0.0075238957336403 -0.1395984 -0.2394012 0.9608327 97 97 97
-0.00486752477316976 0.0286281093553097 0.0142528608181146 0.07541746 -0.3065195 0.948872 121 121 121
0.00357859648422476 0.0302430561177344 0.016340911972062 -0.2475124 -0.2705034 0.9303578 85 85 85
0.00185090142880817 -0.0188617169280419 0.00702810699274793 -0.1449078 -0.3334755 0.9315556 114 114 114
-0.0330806312981453 0.028905964172416 0.0155409352354416 0.2516521 -0.2265183 0.9409361 120 120 120
0.0212880458588187 -0.0236493500631971 0.0033666207665376 0.5131355 -0.7904288 0.334536 82 82 82
0.00129530708902781 -0.0303140001042742 -0.0240139485516657 -0.05093136 -0.5016062 -0.8635955 86 86 86
-0.0299054067451636 -0.0370903898201344 -0.0132006221751868 -0.394846 -0.2944013 0.8703014 62 62 62
-0.00979916195306263 -0.0471069637613754 -0.0225985847444511 0.1971091 -0.9288312 -0.3137206 94 94 94
0.0396425851781377 0.0342820718825713 0.0209921179569462 0.2724358 -0.4165698 0.8673225 83 83 83
0.000295126840436755 0.0163761452042396 0.012529482726807 0.01789003 -0.1460179 0.9891202 132 132 132
0.0321537921932258 -0.0128647558831237 -0.00138302505080938 0.7115463 -0.6893644 0.1359359 74 74 74
-0.0108719461264095 0.0089570896523633 0.0108173490622702 -0.2214763 -0.396576 0.8908848 127 127 127
0.00421108594641595 0.0256317541085932 0.0146688406652225 -0.2575457 -0.2606812 0.9304383 189 189 189
-0.0124637666616363 -0.0340731264735376 -0.00596307154729318 -0.1409152 -0.7316691 0.6669356 176 176 176
0.00691023556237713 -0.0346370990877797 -0.0241825350826683 0.549103 -0.7319985 -0.4033164 190 190 190
-0.0234693287674288 -0.0457838546097004 -0.020147039346367 -0.004389738 -0.7501568 0.6612454 82 82 82
-0.0332244261628762 -0.0154135700987766 0.00233702327129164 -0.07635187 -0.4660231 0.881472 225 225 225
0.0308794155433696 -0.00414530539247837 0.0115387049120732 0.09769084 -0.1150718 0.9885418 33 33 33
-0.0263752926652328 -0.018476231307451 0.000411936132415872 -0.1817911 -0.6326708 0.7527812 154 154 154
0.0107876291578326 -0.0110357148979622 0.00902607845169076 -0.07633933 -0.1378307 0.9875095 100 100 100
0.0544782611912593 0.00693798185116601 9.37394844062467E-06 0.6197455 -0.7381846 0.2664564 113 113 113
-0.0389064800829155 0.0141541111124223 0.0121453465374318 0.07200172 -0.3468244 0.9351623 136 136 136
-0.0139881125303232 -0.045721799147317 -0.0162334176296573 -0.2085018 -0.6336353 0.7450055 142 142 142
0.0219245683441214 0.0180959842804266 0.0161309589526537 0.06668495 -0.2773036 0.9584653 215 215 215
-0.0299732644132389 -0.0255934040022894 -0.00841444506360256 -0.3223889 -0.581305 0.7470943 132 132 132
0.0163287016000533 0.000941673755904593 0.011279821462906 -0.1494628 -0.1507617 0.9772061 133 133 133
0.00394127734831562 -0.0400915794873317 -0.0135717481132344 0.6214581 -0.7834269 -0.005675521 191 191 191
-0.0037628314498801 -0.0442585371696137 -0.0234675695583664 0.6241014 -0.6669866 -0.4069722 159 159 159
-0.0649615142111277 0.00199530052170627 0.00315135016606513 -0.1940874 -0.6168704 0.7627588 74 74 74
0.00476175696264969 -0.0324811327128732 -0.00193703965921323 -0.09669665 -0.7443347 0.660769 130 130 130
0.0424075775374457 0.0431533887642016 0.0236910794927102 0.2254952 -0.306071 0.9249176 105 105 105
0.0202794353059397 0.0359196019305289 0.0211103834014006 0.02730482 -0.04533348 0.9985987 112 112 112
-0.0460497565773648 -0.0183511376825455 -0.00933183879358875 -0.2160694 -0.7812291 0.5856579 104 104 104
-0.0258702066630687 0.00671105803904448 0.00853132864021564 0.004511724 -0.2996148 0.9540496 102 102 102
-0.0443902659312254 0.0306801563758087 0.0159288534156719 -0.07948879 -0.05311799 0.9954195 67 67 67
0.00193756167320336 0.00171808419468611 0.0103213946445573 -0.03848362 -0.2439447 0.9690253 129 129 129
-0.029959559627573 -0.0202043436496727 -0.00199708558725215 -0.1217411 -0.7780893 0.6162435 61 61 61
-0.0521715767999678 0.0013754849184372 0.00492641836661807 -0.2101248 -0.4643137 0.8603839 110 110 110
-0.000642411622250982 0.0312717689969381 0.015492881780799 -0.1120344 -0.3226424 0.9398671 114 114 114
0.00609775405101542 0.0195155556307794 0.0135581872013299 -0.1775494 -0.1965692 0.9642804 229 229 229
0.0239612785331662 0.0146076563505387 0.0158167983358828 0.08867335 -0.2090814 0.9738696 223 223 223
0.00282985479341447 -0.0401476780062592 -0.0181688858824757 0.674361 -0.7066495 -0.214205 209 209 209
-0.00386457926638428 0.0158772239034969 0.0131505991596373 0.09020682 -0.1670803 0.9818079 99 99 99
0.0469426096038617 -0.000159588814707567 -0.00395186564184161 0.6511023 -0.7557538 0.07001461 93 93 93
0.059669527003452 0.0144857812457136 0.00402279594522366 0.5182018 -0.4130194 0.7489205 65 65 65
0.000718822711830658 0.0104500939267648 0.0117831530976461 -0.08769192 -0.2001548 0.975832 234 234 234
0.00198590889661787 -0.0199341299622103 0.00608886344186527 -0.1512642 -0.4204332 0.8946257 93 93 93
-0.017548183912361 -0.0431875062613316 -0.0148705849100752 -0.1429322 -0.6041496 0.7839475 154 154 154
-0.000583807457980701 -0.0418342121391345 -0.0122334974458699 0.07068592 -0.8163515 0.5732135 123 123 123
-0.0184193345737493 0.00191497222899228 0.00619911877907367 -0.1281045 -0.3733292 0.9188115 95 95 95
0.0219151538188975 -0.00227898494659107 0.0117004735959276 -0.106285 -0.233472 0.9665373 143 143 143
0.00913974220788427 0.0291615638345416 0.017677589012737 -0.3309609 -0.2259959 0.9161827 107 107 107
0.0354116769228554 0.0475133215708562 0.023336495905869 -0.05290311 -0.118582 0.9915339 101 101 101
-0.0611080803088253 0.014831169580768 0.0117581746022008 -0.07686844 -0.304964 0.9492567 177 177 177
-0.0124607522927791 0.0158464142148093 0.0139167983138763 -0.1369253 -0.2500786 0.9584947 232 232 232
-0.0262682787849764 -0.0317998416010508 -0.0102318486981859 -0.3533369 -0.3281727 0.8760455 63 63 63
0.0123090181583398 -0.0298308460133655 -0.0240679476418829 0.6549537 -0.7163616 -0.2405447 179 179 179
0.00251285825820435 -0.0362948124836836 -0.00637072673343529 -0.06158699 -0.7058775 0.7056515 124 124 124
0.0414007265897638 0.0460480215758158 0.0243848342444793 -0.005557658 -0.2020679 0.9793558 66 66 66
-0.0239526792494709 -0.036319318432714 -0.0105924503978823 -0.2206596 -0.4657389 0.8569694 77 77 77
0.0496324254553522 0.0296876756288443 0.011636177147106 0.38463 -0.338183 0.85889 78 78 78
0.0589260506529921 0.0133778403121835 0.00405396977703636 0.5147657 -0.4466192 0.7318112 79 79 79
-0.0407784269624112 -0.0052672854320609 0.00396697854300321 -0.1817608 -0.4387751 0.8800224 229 229 229
-0.0470387109266945 -0.00759731508845285 0.00146325676541313 -0.2449672 -0.4774265 0.8438335 93 93 93
-0.00636799041578362 -0.00115234760784333 0.00835113731005588 -0.2399701 -0.2562188 0.936358 227 227 227
0.0272786979921653 -0.016977744764943 0.00862115827966854 0.3695114 -0.4911259 0.7888325 134 134 134
-0.0199763362761631 -0.0468259848278535 -0.0203212418917384 -0.1547231 -0.7858045 0.5988089 87 87 87
-0.00978924537543424 0.0193775873517191 0.0144000547107678 0.02359468 -0.04044767 0.998903 232 232 232
0.0529519083527239 0.0111457536433245 0.00558702975458088 0.4443708 -0.3135915 0.8391633 52 52 52
0.00467080941390208 0.0113175876453203 0.0127193563866952 -0.06845266 -0.1952534 0.978361 204 204 204
-0.0551371599647652 0.0104382535154527 0.00969653450131129 -0.02136375 -0.4494802 0.8930348 174 174 174
0.053322638512415 0.00674725334998849 0.00198026993100785 0.6406096 -0.6913472 0.3341531 91 91 91
0.00529373169265757 -0.0106543509463545 0.00823772176568932 -0.1148482 -0.1060245 0.9877088 123 123 123
-0.0441807863845654 -0.0149115022095677 -0.00233169819428676 -0.3274281 -0.6854808 0.6503129 101 101 101
-0.0303265932306394 0.00145376786705709 0.00733465908995266 0.09630927 -0.3122105 0.9451186 136 136 136
-0.00342727629257 -0.032218924389131 -0.00352595587067744 -0.07437442 -0.7478806 0.6596538 98 98 98
0.0375096572922149 0.0109532328916638 0.0113912375043444 0.278136 -0.1744455 0.9445682 223 223 223
0.0245311438424096 -0.0205729617671913 -0.0185064050936612 0.6534415 -0.717229 -0.2420676 164 164 164
0.0230719616301176 -0.0222631909139616 -0.0168029503533494 0.6526397 -0.7323452 -0.1942471 163 163 163
0.0146944900465185 -0.028254503456272 -0.02246218983815 0.6518861 -0.725686 -0.2200555 201 201 201
0.0307172896143961 -0.00972391514140936 0.00978665645521748 0.1423905 -0.3962562 0.9070314 152 152 152
-0.0374306431488534 -0.0207748714032884 -0.00780089279210441 -0.3209348 -0.7856982 0.528847 109 109 109
0.028425584053585 0.00341629174196811 0.0123542384736901 0.1806968 -0.1591575 0.9705759 144 144 144
-0.0085669077082926 -0.0213249243905757 0.00261947431381944 -0.1821352 -0.6252484 0.758875 125 125 125
-0.00825261452606485 0.00277421231287789 0.00884028159666103 -0.2237339 -0.3066703 0.9251467 158 158 158
0.0491080362614666 0.011298229438404 0.0079513164625578 0.3162484 -0.1282696 0.9399648 70 70 70
-0.0328446034122409 -0.0376039920657493 -0.0143930042991659 -0.4278746 -0.2873669 0.8569385 51 51 51
-0.0592070799161819 -0.00430174649047876 0.000527382059691994 -0.3312761 -0.5292156 0.7811447 85 85 85
0.0417189168729828 0.0303351681446201 0.016878652471136 0.3156767 -0.5394883 0.7805771 78 78 78
0.0338062120353988 -0.0131843231861711 -0.0150068786038206 0.6851391 -0.7171044 -0.1278508 189 189 189
-0.00040765619027594 -0.00576045403575975 0.00825996925984239 -0.08552884 -0.1924433 0.9775738 227 227 227
0.0296881292068485 -0.00893063276555461 0.0102888943701118 0.01389453 -0.2755382 0.9611897 161 161 161
0.0508983111072618 0.00759735630813252 0.00632951689398578 0.561291 -0.3514002 0.7493133 82 82 82
0.0441997049207243 0.0198330271853498 0.0102342648868156 0.3179599 -0.2107071 0.9243939 49 49 49
-0.0644486443508079 0.00409221957066375 0.00570687399908548 -0.1173055 -0.5858328 0.8018973 130 130 130
-0.00479676896789272 -0.0384806254955107 -0.0233975391839951 -0.08076324 -0.1539095 -0.9847788 70 70 70
-0.0151933982612276 0.0198961884874312 0.0143738965026666 -0.0697011 -0.1275885 0.989375 147 147 147
0.044767303900886 0.0260217667014012 0.0129674719820443 0.3483821 -0.5050448 0.789658 82 82 82
-0.0487537023454387 0.0105200961762862 0.0107537746313464 -0.1653115 -0.4398667 0.8827171 119 119 119
-0.0139925768108111 -0.0504237723655119 -0.0212721854241916 -0.2048598 -0.9547932 0.2154125 96 96 96
0.0364428576012821 0.00112079372903751 0.0108636272870926 0.1941678 -0.08326245 0.9774284 187 187 187
0.0343543731793199 -0.0129966953788377 -0.00777239300006197 0.692033 -0.7063015 0.1490922 66 66 66
-0.0581035662370595 0.0192452914293023 0.0125951020863215 -0.1312395 -0.1883863 0.9732866 103 103 103
0.0453009971588934 0.0163476255653269 0.00948750865719143 0.2998704 -0.1968095 0.933458 62 62 62
0.00489146402592766 0.00384065501613817 0.0111723247902761 -0.08772662 -0.2311617 0.9689522 140 140 140
0.0383829723582245 0.0387270053308851 0.0225464810303097 0.1156603 -0.253287 0.9604522 85 85 85
-0.0455849767334184 0.0268541219464221 0.0160638986515659 -0.06432112 -0.1703006 0.9832906 98 98 98
-0.0149075256986948 -0.0295853162576957 -0.00381803823452666 -0.3319906 -0.5143987 0.7906809 118 118 118
-0.0312643836328514 -0.0413468939452263 -0.0145889290261344 -0.3337575 -0.4869306 0.8071583 100 100 100
-0.0300408242442045 -0.0453625766872812 -0.0188261557664879 -0.1767693 -0.7117288 0.679849 76 76 76
-0.0528568664083959 0.0133287129690142 0.0109509121491773 -0.1145949 -0.4142333 0.9029279 121 121 121
0.0204925747990057 -0.0251338871799065 -0.00235954338089603 0.6875716 -0.7232123 0.06487808 55 55 55
0.0183309568036853 -0.0272740586242696 -0.00643151995265873 0.6868749 -0.7262318 -0.02811175 102 102 102
-0.0360128045329429 -0.0384853510543016 -0.0164352073703075 -0.4822751 -0.3112485 0.8188621 78 78 78
0.0151373466206315 0.0190349870176022 0.0168569458994205 -0.1936586 -0.3733664 0.9072452 131 131 131
0.0423389481817829 0.000736583630637111 0.00829969538699094 0.5207083 -0.5091757 0.6852759 82 82 82
0.0443902916296852 -0.000287238099134446 0.00248429093873841 0.5666902 -0.7642277 0.3079257 72 72 72
-0.0324640432409757 -0.018544975170509 -0.000592582272627332 -0.159628 -0.769884 0.6178977 107 107 107
0.0149503457860098 -0.0298323133412094 -0.00891581423760175 0.7100934 -0.7038135 0.02034465 69 69 69
-0.00753385513465377 -0.0189064981536395 0.00546273041805892 -0.1176662 -0.4406514 0.8899332 118 118 118
-0.0361223228587897 0.00127938047021792 0.00739539667518478 0.03521563 -0.3174587 0.947618 100 100 100
-0.0135428773080921 -0.0326160838102461 -0.00507648769416133 -0.2484027 -0.5897815 0.76841 127 127 127
0.00262243382115912 0.0258619083499142 0.0145368668636381 -0.2337956 -0.2384321 0.9425973 205 205 205
0.00658879016575264 -0.037760599889942 -0.0110575792835897 0.589134 -0.7948499 0.1453777 183 183 183
0.0597845944187063 0.017660117690849 0.00537202389526774 0.4589587 -0.2999229 0.8363032 72 72 72
-0.000530908852450551 -0.0205911722496154 0.00513586708247846 -0.1969095 -0.4808318 0.8544164 74 74 74
-0.0155494799112144 0.00747980091308398 0.00879802029982757 -0.1461079 -0.3499801 0.9252926 120 120 120
0.0429588904926885 -0.00354768658922755 -0.00187847256724061 0.5692504 -0.7988646 0.1943432 63 63 63
-0.00940206174307923 0.023442479755272 0.0141361007562838 0.08667821 -0.0770457 0.9932526 183 183 183
-0.0186995414571087 -0.0438772560140331 -0.016383902996947 -0.1453938 -0.6790542 0.7195457 105 105 105
0.0237951973199739 -0.0220185113074438 -0.00303402386354892 0.6679624 -0.736842 0.1043558 66 66 66
-0.0280792569070689 -0.0172229624794968 0.00132776538139308 -0.08174292 -0.5821055 0.8089941 139 139 139
-0.0126383489959312 0.0127784119309881 0.0121741941668637 -0.1764126 -0.3752705 0.9099729 131 131 131
0.000352220667467318 -0.0102180146006797 0.00805270632827593 -0.07517517 -0.1016823 0.9919725 137 137 137
0.0256383058577137 -0.00655934123823887 0.0106524253148941 -0.02765656 -0.2656479 0.9636734 141 141 141
0.00272053841199682 -0.0408663481410954 -0.0160396351174613 0.6463245 -0.7565035 -0.09983518 214 214 214
-0.00711002226252333 0.00891126507312145 0.0115698899900148 -0.127484 -0.315403 0.9403557 146 146 146
-0.0293502199295101 0.0253528175379808 0.0137349532727803 0.1215961 -0.2668447 0.9560378 108 108 108
-0.0346774903200346 -0.0381578805058495 -0.0156753337178508 -0.4822751 -0.3112485 0.8188621 79 79 79
0.0372164491279756 -0.00929945276062438 -0.00560750601137562 0.7311826 -0.6567705 0.1844576 85 85 85
0.0427350070810104 0.00880868704326676 0.00923690602296472 0.3341671 -0.04680922 0.9413508 55 55 55
-0.0525050362377382 -0.0014439145568178 0.00369122315239026 -0.1383463 -0.469014 0.8722879 126 126 126
0.0041931366592376 -0.0189556535931231 0.00672988668376961 -0.07641168 -0.3480797 0.9343457 55 55 55
-0.00259059824193431 -0.00418445836832004 0.00834672561228533 -0.152989 -0.1925758 0.9692827 229 229 229
-0.0661890131965883 0.00608104774102391 0.0061824149583507 -0.09257305 -0.5823236 0.8076692 95 95 95
-0.0112327581821772 0.0293838021740446 0.0147289964865167 -0.03740859 -0.1946891 0.9801514 107 107 107
-0.041858511593492 0.0236373353045188 0.014657316851922 0.04874282 -0.3238606 0.9448484 95 95 95
0.00039201310205339 -0.0375893714493197 -0.0253724609356992 0.5032948 -0.6311429 -0.5902144 44 44 44
0.0388593221343148 -0.00791615670408319 -0.00749827109885214 0.6947719 -0.6955466 0.1830488 74 74 74
0.00901398781997687 0.0260821938933716 0.0169619801466969 -0.3350006 -0.2540769 0.9073145 115 115 115
0.00382962544318932 0.0360251989953148 0.0177111386252896 -0.2251693 -0.2662183 0.9372441 108 108 108
0.0363872443012636 0.0205293949459365 0.0132817647769806 0.3441738 -0.3361412 0.8766719 157 157 157
-0.00373267242144726 0.001087115794833 0.00949594167938314 -0.197274 -0.2832514 0.9385369 231 231 231
-0.0174515906093378 -0.0344875072349021 -0.00766825597360829 -0.2293462 -0.6051101 0.7623923 106 106 106
-0.0282841420725415 0.0152991601275153 0.0108520318631213 0.04713779 -0.3226302 0.9453506 222 222 222
-0.0174932295851109 0.023639414498286 0.0141918200116952 -0.05897751 -0.02937583 0.997827 89 89 89
-0.0555248250046709 0.00950439486688415 0.00911001589910403 -0.002449657 -0.4967119 0.867912 134 134 134
0.0206658243907678 0.0426024534746853 0.0210067158210118 0.042038 -0.1405142 0.9891858 103 103 103
-0.0133844757471229 -0.0500907114581174 -0.0199627093487751 -0.2225229 -0.8741973 0.4315816 139 139 139
0.0270137569132167 -0.00033498715835123 0.0123698275893581 0.09708098 -0.1194141 0.9880868 212 212 212
-0.00164276883441605 -0.0438640192036036 -0.019358259279226 0.6504967 -0.7207183 -0.2396231 209 209 209
-0.0468159667388584 0.0314841261826196 0.0158113157199572 -0.110074 -0.05325624 0.9924956 51 51 51
0.0153996589484482 -0.0268137001974978 -0.0248141643836029 0.6525341 -0.7211109 -0.2328053 197 197 197
0.0293264996358666 -0.0163631820473137 -0.00114240331819147 0.7052969 -0.7025945 0.09443129 82 82 82
-0.0113117886897651 -0.0126916336198531 0.00601651520300031 -0.199203 -0.1665789 0.9656965 115 115 115
0.00809225807220404 -0.0357764312077405 -0.0163449171580857 0.6345698 -0.7498833 -0.1870727 185 185 185
-0.0205658199670902 -0.0224316879923315 -0.000556481814962012 -0.2420278 -0.5827854 0.7757472 139 139 139
-0.026019774286087 0.0141656206546271 0.010022728243239 -0.01349422 -0.3167771 0.948404 199 199 199
-0.0562565674844278 0.00436017805620315 0.00589538938839534 -0.04216297 -0.4754327 0.8787411 88 88 88
-0.00216671382519351 0.0349151822516099 0.0165611696070921 0.01438066 -0.3371578 0.9413383 102 102 102
0.0553088229001251 0.00841857194798801 0.00190957718472307 0.6199065 -0.6672451 0.4129163 131 131 131
-0.032518747117364 0.0200958218618291 0.0125414678108824 0.2178487 -0.2471016 0.9441836 123 123 123
0.0372139125829309 0.00666278158281852 0.0106837046257856 0.2224996 -0.1001632 0.9697738 200 200 200
-0.024112300564358 -0.0188472119411259 0.000705244432430849 -0.1978056 -0.5693731 0.7979268 113 113 113
0.00613669889070723 0.0231281100202717 0.0147743641020971 -0.2699277 -0.2684148 0.9247121 236 236 236
0.0428948973883818 0.0146378538001554 0.00957146123282665 0.3500565 -0.1229383 0.9286262 74 74 74
-0.0545335380954226 0.00323458231120088 0.00514828697687124 -0.1125318 -0.4416239 0.8901151 138 138 138
-0.0106736744839071 0.0128732961376868 0.0127618219210061 -0.1357885 -0.3491789 0.9271653 115 115 115
0.039011387263054 -0.00310725140752799 0.00555443897153662 0.6896378 -0.6635292 0.2900496 83 83 83
0.000172204548266386 -0.041975545636349 -0.0213107713840211 0.6481569 -0.7119794 -0.2701443 201 201 201
-0.0078131404093682 -0.0493164764815108 -0.0196837449641933 0.3873928 -0.9019763 0.1906973 220 220 220
0.042571195794979 0.0451822388583164 0.0239538522930432 0.07384244 -0.2566318 0.9636843 63 63 63
0.0345123710864113 0.0409390122340382 0.0230024362186603 -0.03752417 -0.1870292 0.9816374 88 88 88
-0.0116652610244454 -0.0362589563459089 -0.00977780259746486 -0.09836876 -0.7539663 0.6495063 131 131 131
-0.0191353191428356 -0.0103072443019888 0.00458914241905747 -0.1659979 -0.0514209 0.9847845 111 111 111
0.00384547502020283 -0.0396206703990608 -0.00976866899512771 0.2924981 -0.81348 0.502688 119 119 119
-0.0338218619821173 -0.0123060821809081 0.00364728544871819 -0.04497646 -0.2412147 0.969429 220 220 220
-0.0419479310518889 -0.0116873203244937 0.000413217636410237 -0.3828434 -0.4702414 0.7951754 117 117 117
-0.0422530168676345 -0.0173740311038154 -0.00490417487503718 -0.3639592 -0.8299901 0.4226702 140 140 140
-0.0505812942783326 0.000408454819846527 0.00486002216886257 -0.2480389 -0.4920707 0.8344718 114 114 114
-0.0214727444804508 0.0108613818804347 0.010203925680502 -0.1045444 -0.2779186 0.9548988 99 99 99
-0.0253991069989512 0.00937819185252964 0.00923337498409146 -0.03146911 -0.2113613 0.9769013 172 172 172
-0.020012593300017 -0.0469013953997611 -0.0190644506909931 -0.1458935 -0.8027515 0.5781912 95 95 95
-0.0574592667848135 0.00782611870083894 0.00804400668581966 0.01417824 -0.5240384 0.8515766 135 135 135
-0.0223721967664892 -0.0424676498058845 -0.015083250484741 -0.0191337 -0.6357256 0.771678 132 132 132
-0.00737231543348349 0.00819537046435814 0.0113098015356683 -0.1594548 -0.3289441 0.9307899 149 149 149
-0.0630186955824588 0.0145611220881671 0.0112476934553534 -0.09939121 -0.3119817 0.944875 65 65 65
0.0343213291335966 -0.0132534714139133 -0.00963186213934292 0.7015963 -0.7085063 0.07603525 100 100 100
0.0274742117901763 -0.017807350503554 0.000833794494176435 0.7015232 -0.7124691 0.01590695 96 96 96
-0.0506279739784996 -0.0032075074727288 0.00248617668239087 -0.1571586 -0.4847674 0.8604079 132 132 132
0.0399593523072603 -0.00115963322551582 0.00855389860008324 0.5627254 -0.5303746 0.6340685 87 87 87
-0.00578896004579743 -0.0478226151735931 -0.0196954894868722 0.5536873 -0.8327223 0.002004727 200 200 200
-0.0241386956096861 -0.040902948719954 -0.0136563113347422 0.01075102 -0.6188108 0.7854664 100 100 100
-0.0168400323597577 -0.0171433197534338 0.00371145597997589 -0.2123221 -0.3932608 0.8945755 165 165 165
-0.00118773926591365 -0.0136157329168375 0.00685180699294617 -0.08002884 -0.141599 0.9866839 143 143 143
-0.03424415613242 -0.000214716901178469 0.0068414093670007 0.06233392 -0.3173561 0.9462556 91 91 91
-0.00980426188025962 -0.0209562251286091 0.00222435974974812 -0.2061375 -0.6182144 0.7584974 100 100 100
-0.0158339880917762 -0.0359916447538557 -0.00988987752296418 -0.04979259 -0.7634043 0.6439989 91 91 91
-0.00596643393091822 -0.0354825149821101 -0.00728374962936529 -0.1249565 -0.74538 0.6548241 103 103 103
-0.0158390448569228 0.0201817229522093 0.0134498192392444 -0.08807428 -0.1512893 0.984558 159 159 159
-0.0510437571831308 0.0136045677638149 0.0114728707854785 -0.170058 -0.4113642 0.8954663 111 111 111
-0.00190140294884511 -0.0452900778321806 -0.016225227629957 0.5017226 -0.8563326 0.1223471 199 199 199
0.0265193518503426 -0.0197887508491229 -0.0146409349297988 0.6463758 -0.740185 -0.1852684 185 185 185
-0.0156305929360325 -0.0105326839535466 0.00526179406157833 -0.1857248 -0.05136234 0.9812585 98 98 98
0.0264370703950743 -0.020522984520483 -0.0132119975345417 0.6285259 -0.7718254 -0.0961292 167 167 167
-0.00236428386433518 0.0270383185356294 0.0131240868503372 -0.06603413 -0.2152655 0.9743204 84 84 84
0.0151589661342997 -0.0121163361621831 0.00847335909927339 0.01090282 -0.101995 0.9947252 93 93 93
-0.00683279995218378 -0.04745223109593 -0.0228087130899777 0.4635042 -0.7537251 -0.4658996 66 66 66
-0.013806316664891 -0.00784793769096848 0.00566029655379875 -0.2204378 -0.02749091 0.9750136 119 119 119
0.0403190198957497 0.0303412728067595 0.0180284347678109 0.3104236 -0.5540773 0.7724219 67 67 67
0.00737664999409482 0.0276477128707301 0.0165140132907813 -0.3269055 -0.2444865 0.9128851 101 101 101
-5.46128163589898E-05 -0.0376374019822535 -0.00831237545858803 -0.1396697 -0.7007905 0.6995606 137 137 137
-0.00712591917204541 -0.0458007925321191 -0.016058600076717 0.1913855 -0.7764866 0.6003667 107 107 107
0.0182676624147646 -0.0270389947168375 6.19060077999695E-05 0.6160637 -0.7530896 0.2309148 121 121 121
-0.0345076974165259 -0.0219207056677074 -0.00729980801233834 -0.3770535 -0.7440075 0.5516189 147 147 147
-0.000228293934476209 0.0329147546775085 0.0161379377337592 -0.1012591 -0.2880927 0.9522338 105 105 105
0.0274634318394225 -0.0184200442858258 -0.00481490899762485 0.6752216 -0.7185301 0.1667042 73 73 73
0.0169964153453677 0.0283127784800893 0.0195883729242339 -0.1403511 -0.2054091 0.9685601 140 140 140
-0.00895491854940955 -0.0402469494597092 -0.0219157815098247 -0.2232367 -0.1578653 -0.961896 111 111 111
-0.0250493910607137 0.0109811536473258 0.00969260089090515 -0.04723912 -0.2488287 0.9673948 147 147 147
-0.00743460339923363 -0.0118714410332325 0.00662783919336031 -0.1721526 -0.1632899 0.9714422 117 117 117
-0.0317639132535312 0.00640678475465817 0.00813677483526226 0.03970647 -0.2634811 0.963847 122 122 122
-0.0562488645028143 -0.0127113149919832 -0.00365092558300967 -0.2842888 -0.6628913 0.6926435 102 102 102
-0.000908849241198162 -0.0257940323895905 0.00162804640121417 -0.2426986 -0.4673859 0.8500869 93 93 93
-0.00154875173740576 0.0400521856814472 0.018381913592176 -0.04553769 -0.3563766 0.933232 74 74 74
0.052777490099766 0.017190058143871 0.00763117864098156 0.2745865 -0.219501 0.9361739 65 65 65
-0.0586180713189091 -0.012384991719402 -0.00485191915708696 -0.3541667 -0.6471067 0.6751436 100 100 100
0.0421285069884494 0.00197606400276873 0.00893100840932629 0.5199521 -0.3603241 0.7744781 81 81 81
0.0141527775672614 0.0446591333473124 0.0226613733154978 0.002653962 -0.2363228 0.971671 118 118 118
0.038236108434758 -0.00517105393855133 0.00298688181055431 0.699406 -0.656376 0.2828458 85 85 85
-0.0498626499008021 0.0274055282135112 0.0155277350979899 -0.1419926 -0.1857913 0.9722756 95 95 95
-0.0482894460969856 -0.00677293197111151 0.0011285493968767 -0.2004607 -0.4769114 0.8557868 75 75 75
-0.00533845339746675 -0.0410534902437548 -0.0125621100030132 -0.07035731 -0.6199902 0.7814487 104 104 104
0.0560572332056344 0.0122519287774746 0.00439730907383162 0.4912629 -0.4266759 0.7593474 60 60 60
0.0467588848557257 0.0194226511782526 0.00962149982232742 0.2422078 -0.1963953 0.950139 54 54 54
0.0571537331880321 0.014904069088035 0.00523992903636823 0.4439601 -0.3224615 0.8360131 59 59 59
-0.035767548395369 -0.0281351429089983 -0.0123729949966674 -0.3951888 -0.4388373 0.8069991 107 107 107
0.0450163174530713 0.0327174638120825 0.01735356432984 0.5586278 -0.3510029 0.7514865 58 58 58
0.0211948423947805 0.00202651577557644 0.0122410167901354 -0.1184689 -0.1650248 0.9791486 229 229 229
0.0132728934675383 0.0225795631145896 0.0172454943010224 -0.3006758 -0.2862177 0.9097656 127 127 127
-0.0442954115504235 -0.0161604043838488 -0.00419276053803236 -0.287999 -0.8012952 0.5243878 128 128 128
-0.0184457046738089 -0.0429900273408126 -0.0156260654002866 -0.1208743 -0.6143255 0.7797394 108 108 108
0.0279512774523631 -0.010832043344687 0.00962824999468395 0.04146572 -0.2573217 0.9654357 127 127 127
0.0387726322645632 0.0198393991302047 0.0126883721135586 0.3994824 -0.296935 0.8673197 238 238 238
-0.0287871952337069 -0.0435961835900897 -0.0164510455840846 -0.1484826 -0.6639159 0.7329179 77 77 77
-0.0183551789326422 -0.045981225501736 -0.017202421619001 -0.1440494 -0.7626126 0.6306123 153 153 153
-0.0138085469092428 -0.0353640188204695 -0.0211362251452042 -0.5999349 -0.2435465 -0.7620782 118 118 118
-0.0190387461063803 -0.0238867754127512 -0.00137977016552074 -0.2346227 -0.5848418 0.7764743 120 120 120
-0.0087233133616178 0.0333414515894642 0.016518868707346 -0.07990161 -0.2739038 0.9584323 84 84 84
-0.0122597801432773 -0.0489610918560363 -0.0218639292744213 -0.098847 -0.9230577 -0.3717441 87 87 87
0.0275221856506596 -0.0176436015930148 0.00275414260215369 0.7121328 -0.7020425 -0.001829665 65 65 65
-0.0248561528762146 -0.0100909437298417 0.00420969582604715 -0.09424127 -0.09488641 0.9910172 217 217 217
-0.0400854535259541 0.018203016455249 0.0135156273309432 0.07859357 -0.2700323 0.9596382 125 125 125
-0.0465817819305805 -0.0191813202371692 -0.0101764746212088 -0.2245582 -0.7446873 0.6285018 98 98 98
-0.0537811867375475 -0.0102608611909053 -0.00148050377932105 -0.1797285 -0.5232137 0.8330336 74 74 74
0.026813684803801 0.0079391009423605 0.0136758704006361 0.1755606 -0.2215607 0.9592128 223 223 223
-0.0628415841971175 0.00828513466424596 0.00832913832411281 -0.04615048 -0.4942354 0.8681023 122 122 122
-0.0441670599043591 0.0228050432405399 0.015030471046074 0.01926058 -0.2443652 0.969492 109 109 109
0.0287338820788596 -0.0171309847686646 -0.00281395163886446 0.6843567 -0.7124339 0.1552214 77 77 77
-0.041393655644888 0.0264144878617222 0.0160606359435883 -0.03133941 -0.2992434 0.953662 97 97 97
-0.0140452857327098 -0.049010458053193 -0.0193580502002664 -0.2650234 -0.8036468 0.5328362 108 108 108
-0.0613691437174402 0.00688914833555809 0.0076602968083465 -0.01217223 -0.535181 0.8446497 190 190 190
0.0262278195067185 -0.00234972675406497 0.0118608081157573 0.03853657 -0.1655556 0.9854472 180 180 180
0.0423328407067118 -0.000214994093162502 0.00707578968992945 0.5715778 -0.6420944 0.510895 96 96 96
-0.0216792726179502 -0.018509854032946 0.00142070106804514 -0.2190758 -0.4912977 0.8429901 119 119 119
0.00309551614557657 -0.038640989292842 -0.0219589838572218 0.6227216 -0.7254496 -0.2931567 196 196 196
-0.0191149584356927 0.0260269280872206 0.0140560357017051 -0.05539763 -0.06707986 0.9962085 100 100 100
-0.0458626469479273 -0.0105602230694338 -0.000503837338535887 -0.2346779 -0.4860321 0.8418427 126 126 126
-0.00510602346169353 0.0049055956210865 0.0106898805525795 -0.1731896 -0.2945195 0.9398211 222 222 222
-0.00883562018356399 -0.0365368169790045 -0.0223313897625044 -0.3302693 -0.1953223 -0.9234563 66 66 66
0.0172811182089561 0.0102266512465138 0.0136276236611504 -0.2245446 -0.3499075 0.9094748 210 210 210
0.00810565386674211 0.0397515247682573 0.0200288062672728 -0.2662436 -0.3202416 0.9091533 94 94 94
-0.0173043573777565 -0.000696340849824506 0.00525191725443012 -0.1593503 -0.2876805 0.9443768 91 91 91
-0.0392328445661794 0.0276586648017331 0.0164695666427551 0.01284449 -0.162561 0.9866149 84 84 84
-0.0571983955472595 -0.0067488321067356 -7.16476542769046E-05 -0.2714129 -0.5339389 0.8007773 91 91 91
0.0404361554079484 0.00442228681687828 0.01006930460025 0.2905415 -0.1090558 0.9506274 65 65 65
0.00550232586328425 0.0306031702085786 0.0169638614020706 -0.2529689 -0.2419939 0.9367207 97 97 97
-0.0118572547088305 -0.0487094418400944 -0.0181260247628818 0.0200859 -0.7951252 0.6061125 145 145 145
-0.0321130700279961 0.0176168459521614 0.0120902513671624 0.1987445 -0.236869 0.9509962 104 104 104
0.0052072835236876 -0.0191919984399257 0.0065307739162027 -0.07948539 -0.3715435 0.9250067 149 149 149
0.00638441183904881 -0.00712566960829919 0.00868768185102761 -0.1393521 -0.1992719 0.9699854 113 113 113
0.0210858157242075 0.0386376949332053 0.0209846061189606 -0.006385535 -0.02498347 0.9996675 109 109 109
0.0135531105670452 -0.00361723743215336 0.0102940382705405 -0.01689298 -0.2034476 0.9789401 186 186 186
0.00533638741281051 0.0140146287111974 0.0133795777488935 -0.06712434 -0.08244118 0.9943328 223 223 223
-0.0440180163153183 0.0202676929220255 0.0145520008178745 0.07319098 -0.260656 0.9626534 148 148 148
0.0207571786982168 0.0406769102066605 0.0209596945099732 0.03374177 -0.1246762 0.9916236 101 101 101
0.0422958144401919 0.021897089582224 0.0116617414720734 0.4110167 -0.3738707 0.8314361 72 72 72
-0.0181205562624882 -0.0201175459658309 0.00143664778242607 -0.1853568 -0.5335122 0.8252319 82 82 82
0.0105942246333344 -0.031852946297795 -0.0229863476546211 0.6528633 -0.7189501 -0.238496 193 193 193
0.0290136008844124 0.0452621577597866 0.0225797850108154 -0.2552117 -0.1387288 0.956881 71 71 71
-0.0148172883522033 -0.0375316351757468 -0.0110286715268694 -0.06705745 -0.6974704 0.7134693 93 93 93
-0.0258239967967095 -0.0439404260627406 -0.0165163016523705 -0.002876968 -0.7188182 0.6951921 117 117 117
-0.00467328784928389 -0.0303422578813387 -0.00065780628842213 -0.1478271 -0.6073168 0.7805853 100 100 100
0.0224501401561437 -0.023297540474655 -0.00560694999672597 0.6516026 -0.7572381 0.04477135 98 98 98
0.00646098930654881 0.0163830022685051 0.0132601163437884 -0.08038163 -0.09920482 0.9918151 205 205 205
-0.0218318943309477 -0.0138267424564534 0.00336730539325029 -0.1389309 -0.2903277 0.9467883 120 120 120
-0.0549301371045163 -0.00767481315904572 -0.000185107680228933 -0.2021745 -0.5024195 0.8406546 102 102 102
-0.00513702714657693 -0.0464478968835584 -0.0203904253537358 0.5938112 -0.7960942 -0.1167149 200 200 200
0.0086649526337621 -0.0350916171819863 -0.00888250415744925 0.5607862 -0.7899253 0.2480661 174 174 174
0.0447543252335993 0.0165124428243421 0.00905711620657253 0.287751 -0.1885842 0.9389544 36 36 36
-0.0361246828235604 -0.0225453525046907 -0.00943516594359806 -0.3686174 -0.6528757 0.6617209 118 118 118
-0.035324511478986 -0.00681330787007284 0.00414744118065856 -0.05558188 -0.2798314 0.9584389 98 98 98
0.036887564776618 -0.00121748692103074 0.0105690053384715 0.4263154 -0.2648856 0.8649224 53 53 53
0.00560957706854603 0.0176948021474318 0.0137606751700438 -0.119267 -0.1335621 0.9838377 217 217 217
0.0451384451014323 -0.00134358563076009 -0.000439909948586906 0.6133479 -0.7633845 0.2026044 100 100 100
-0.021787040772022 -0.0123230872953158 0.00373717895885395 -0.1477848 -0.1808531 0.9723434 76 76 76
0.0139892702033744 0.0310808270304016 0.0194471951178438 -0.2217978 -0.2148203 0.9511351 105 105 105
0.00206590120028549 -0.0394402107300691 -0.0222041032437413 0.6365895 -0.7135594 -0.292552 201 201 201
0.0115567077773036 -0.00763144165004614 0.00856941297252939 -0.06167527 -0.2230877 0.9728453 102 102 102
-0.0064515512454002 0.0285910686374725 0.0145092187813169 0.07412808 -0.3062838 0.9490497 115 115 115
-0.0443744479466326 0.0186940753637003 0.0140809526288816 0.0738087 -0.248766 0.9657472 148 148 148
-0.0320830937530925 -0.00124543192377613 0.00639313308752804 0.1040543 -0.3436511 0.9333149 84 84 84
0.0152692010655979 -0.02996813276579 -0.00406589989049888 0.6058291 -0.7937015 0.0548541 106 106 106
-0.0387405626306463 -0.0182603997614487 -0.00404119273841139 -0.3542017 -0.8505822 0.3886528 136 136 136
0.00790310519160453 -0.0211023645876821 0.00588984396592325 -0.07791027 -0.4660599 0.8813162 86 86 86
-0.0389306470534954 0.0282901724227272 0.0169844476701778 0.04117866 -0.1227336 0.991585 76 76 76
0.0183934525253089 0.03888178730575 0.0212490893606777 0.0468651 -0.09503567 0.9943701 114 114 114
0.00488165973168986 -0.038416884035409 -0.00851808262156566 0.3066583 -0.788274 0.5334649 142 142 142
-0.0296184577280019 -0.0132080343060651 0.00300317966208742 -0.03439856 -0.3255369 0.9449034 225 225 225
-0.00157440352277183 -0.0337858887276582 -0.00524286510187694 -0.1024225 -0.7031503 0.7036259 88 88 88
-0.0366806993631767 -0.00618620610834719 0.00468418315902386 -0.07556076 -0.3319525 0.9402649 141 141 141
-0.0112945857299187 -0.0200001239636785 0.00389705236050947 -0.2363515 -0.5592709 0.7945779 80 80 80
-0.0440071556148975 0.0247225559046217 0.0156553843911413 -0.00931038 -0.2601376 0.9655266 102 102 102
-0.00500521207881377 0.0308394387084369 0.0156132598434458 0.06969027 -0.3585958 0.9308879 113 113 113
0.0170370753442137 -0.0245825345569695 0.00415771066134069 0.2637959 -0.6901005 0.6739236 165 165 165
-0.0171734592710435 -0.0392407303531404 -0.012899345256647 -0.06674088 -0.6069348 0.7919443 136 136 136
-0.0147872012200172 0.0118142592827396 0.010895359440423 -0.1840216 -0.4058495 0.8952219 121 121 121
0.00104292186344868 -0.0387763490125953 -0.00918117657845703 -0.0300172 -0.7333508 0.6791875 97 97 97
0.0487337556720226 0.0199393704720751 0.00925461807545454 0.2169037 -0.208171 0.9537387 42 42 42
0.00514586717675369 -0.0368038119076256 -0.0221013699073825 0.6411121 -0.7228143 -0.2579044 207 207 207
0.0221885038384073 0.0163197499209032 0.0157149280964807 0.05592972 -0.2457914 0.9677078 169 169 169
0.0161464727150453 -0.00201518339211881 0.0112618454052838 -0.1155743 -0.2030722 0.972319 98 98 98
0.0293605273050321 0.00934470347468885 0.0132604597187701 0.2653127 -0.2043191 0.9422647 108 108 108
-0.0449675063403254 -0.0163324769740306 -0.00523868550347605 -0.2814619 -0.8187751 0.5003864 169 169 169
0.0292711871425912 -0.0160765576979026 0.000623681305455176 0.7301484 -0.6827031 0.02827976 65 65 65
-0.0480356666176167 0.0234711052105595 0.0151561584665238 -0.1397645 -0.2497992 0.9581577 149 149 149
0.0271741562400782 0.00066767097328857 0.0116612168710382 0.1102298 -0.1230371 0.9862612 228 228 228
0.0100675743699767 -0.0316595363161312 -0.0241187037476042 0.6305271 -0.7278097 -0.2696826 187 187 187
0.0308080766722592 0.0301002066228545 0.0201926475470812 0.03075211 -0.3883715 0.9209896 59 59 59
0.0053636725768893 -0.0384084228971006 -0.015991360756334 0.6648197 -0.7294131 -0.161156 214 214 214
-0.00655340863071796 -0.0362159551243088 -0.00878593573217215 -0.165693 -0.7130593 0.6812432 139 139 139
-0.00236890341256624 -0.0389699714669475 -0.0101059561456175 -0.167437 -0.6705347 0.7227365 113 113 113
0.0315160444031313 -0.0149220983093278 -0.00495453445275987 0.7026849 -0.6842782 0.1949287 83 83 83
0.0425131328999138 0.0213056765696352 0.0111559589039206 0.3978175 -0.328875 0.8564943 79 79 79
-0.0347745380135307 -0.0328722414312234 -0.0140029823710902 -0.336767 -0.3564581 0.8715076 97 97 97
0.0123957668246555 0.00201437035131369 0.0104709857498168 -0.09103329 -0.1294128 0.9874033 100 100 100
0.00419575327521837 0.0198836327233082 0.0136800065041997 -0.1289306 -0.1791026 0.9753457 188 188 188
-0.0372755200078982 0.0060985706592368 0.00914033733199722 0.04965078 -0.2646656 0.9630612 220 220 220
-0.0167195794355806 -0.0279918733577051 -0.00359552914317141 -0.3333732 -0.5770296 0.7455865 122 122 122
-0.0265224786973128 -0.0353676768871557 -0.0112584181294613 -0.2697182 -0.3498251 0.897148 52 52 52
0.00585027820404482 -0.0354816693428601 -0.00560186330760508 0.2573783 -0.7891831 0.5576257 219 219 219
0.031835596249369 0.0460038957124237 0.0239802349480654 -0.1641021 -0.1100423 0.9802863 116 116 116
-0.0413092439668175 -0.0167857898445097 -0.0032149934447164 -0.3979149 -0.8025693 0.4444616 90 90 90
0.018047132620632 -0.0271071193923133 -0.0088967750176297 0.6673768 -0.743978 -0.03324003 64 64 64
-0.00634380904587672 -0.0344749502327245 -0.00612732648641019 -0.09398529 -0.750724 0.6538962 124 124 124
0.0171751660277666 -0.0270554443364907 0.00118420501772874 0.5349657 -0.7443611 0.3996727 115 115 115
0.00229223755607411 -0.0400840065604381 -0.020018766623194 0.6654067 -0.7116133 -0.2254782 200 200 200
-0.0425132722786037 -0.0210178560760675 -0.0103995544519354 -0.3041079 -0.6899281 0.6569 148 148 148
0.0578352075640094 0.0143186654606443 0.00439873048733137 0.4737864 -0.3561513 0.8054085 60 60 60
0.00345451322767154 -0.038885721604014 -0.0203949168520488 0.6589754 -0.7228453 -0.2079569 209 209 209
-0.0562938670739421 -0.0145975901268716 -0.00592436524288821 -0.2582994 -0.7727777 0.5797379 94 94 94
-0.0411841542247617 0.00387653508241426 0.00833943299280383 0.02142235 -0.3211063 0.9468008 224 224 224
-0.0611881804487395 0.00281721087307718 0.005123892222651 -0.09011967 -0.5584796 0.8246084 88 88 88
0.0311939271043862 0.0418143287007583 0.0227437874033067 -0.2316085 -0.1588221 0.9597567 94 94 94
0.0115847735018413 -0.0321703276906943 -0.00330401128038391 0.4103368 -0.8804194 0.2376665 180 180 180
0.0181584567488282 0.0109623783636298 0.0144357749659214 -0.1993926 -0.3487843 0.9157467 215 215 215
0.0130670784296223 -0.0329428897104372 -0.0108720795863358 0.6746786 -0.7359076 0.0569988 176 176 176
-0.0208238831514991 -0.0115303295119317 0.00400276622197493 -0.1676289 -0.1419785 0.975573 96 96 96
-0.0112054400388493 -0.0428487247695596 -0.0139363444506697 -0.08607861 -0.5391561 0.8377954 84 84 84
0.0389542602273796 -0.00226792246519902 0.00885801202664366 0.6332149 -0.5058005 0.5858368 39 39 39
-0.00457701377267616 -0.0241205305216029 0.00127720567716474 -0.2195258 -0.492354 0.8422565 100 100 100
-0.0200904480371964 -0.0285692386939452 -0.00632341738367126 -0.3632705 -0.5423667 0.757544 122 122 122
0.0036060323723679 0.013673688816321 0.0135629961376747 -0.1131163 -0.1016016 0.9883733 228 228 228
0.0162741315188972 -0.0109956293246215 0.00917349752092697 0.005832921 -0.1238489 0.9922839 105 105 105
-0.0263490712811754 -0.0447025997805205 -0.0175437360177557 -0.00919109 -0.7305589 0.6827879 101 101 101
0.0270273579153959 -0.0186486645432794 -0.0170024533717758 0.6511497 -0.7196267 -0.2411254 173 173 173
-0.0273169857767641 0.00911619808872322 0.00937290245962502 -0.00157179 -0.2267745 0.973946 222 222 222
-0.0284644483792049 -0.00696898417691838 0.00408117492367516 0.02374629 -0.1584726 0.9870778 201 201 201
-0.0327177032594652 -0.0242371828021174 -0.00875710808608936 -0.370384 -0.6287184 0.6837608 166 166 166
0.039315999260872 0.0468857674772495 0.024049931773373 -0.02555031 -0.1479061 0.9886713 77 77 77
-0.0583586282057436 0.0146976535376725 0.0115113830441583 -0.06114293 -0.2954389 0.9534031 114 114 114
0.0273460446026688 -0.00652836564464832 0.010850407509826 -0.0032768 -0.2559616 0.9666814 129 129 129
0.0450628679113025 0.0236203222657819 0.0107225746334463 0.2958441 -0.4155016 0.8601364 77 77 77
-0.00725633700772832 -0.0476823785454595 -0.022610415019311 0.4576219 -0.7593564 -0.4625582 149 149 149
-0.0223039363611224 -0.0213052710328571 4.64810768531221E-05 -0.2656946 -0.5665782 0.7799971 128 128 128
6.31821179051251E-05 0.0200464164303921 0.0136479918864127 0.0293814 -0.09382282 0.9951553 146 146 146
0.0235016000254804 -0.0223256188207352 -0.00475222438265746 0.657078 -0.7492452 0.0829471 62 62 62
-0.00581046255511097 -0.0225891017312618 0.00191362874048166 -0.1845414 -0.6050313 0.7745202 128 128 128
-0.0482874679468441 -0.0140125031179678 -0.00266403215172042 -0.2263857 -0.6714936 0.7055819 145 145 145
-0.0562231393866339 -0.0159918782106788 -0.00867382578406184 -0.2439441 -0.8015987 0.5458303 85 85 85
-0.0411583153462374 -0.0184133561531395 -0.00611447589162881 -0.324527 -0.8111485 0.4865391 147 147 147
-0.0553747008968881 0.0222270431707144 0.0135092185770904 -0.1276787 -0.1888553 0.9736692 118 118 118
-0.00401112061963138 0.0369422550418447 0.0181265067409387 -0.01039744 -0.2919493 0.9563773 103 103 103
0.00202174028722846 -0.0330205932117736 -0.00367397678678393 -0.1380206 -0.7158061 0.6845231 115 115 115
-0.0168225820908643 0.0161101122787385 0.0124683308456296 -0.1994866 -0.3427022 0.9180198 140 140 140
-0.0487238094813192 0.0290605316271154 0.0160831439385388 -0.1123859 -0.1284439 0.9853281 90 90 90
-0.0183750574935071 -0.0377328668226938 -0.0117967654679759 -0.03352956 -0.6743006 0.7376955 118 118 118
-0.00714256803087965 -0.0334348458371664 -0.0228100609333024 -0.1577022 -0.001760362 -0.9874852 66 66 66
-0.00211939989725796 0.0179318693872025 0.0131231969791106 0.068473 -0.09927069 0.9927018 114 114 114
-0.0155786550266721 -0.0146120525862034 0.00480385640494654 -0.2309961 -0.2719663 0.9341708 146 146 146
0.0124940333488532 0.0350676284793437 0.0201415358628038 -0.229414 -0.2029104 0.9519436 130 130 130
-0.000663601112363743 -0.0383821277137698 -0.00906729107733539 -0.133863 -0.7009864 0.7004989 101 101 101
0.0572100696193858 0.0124549768426964 0.00394336603791218 0.5232981 -0.4824928 0.7023958 74 74 74
0.0231918868940126 -0.0100799913633091 0.00954863492582005 -0.1023535 -0.2320212 0.9673107 126 126 126
-0.0159183407780121 0.0176148964346031 0.0132067765641526 -0.1496774 -0.2745356 0.9498562 158 158 158
-0.015559646664391 -0.0280196189158793 -0.00312977182969337 -0.3261452 -0.5415502 0.7748243 114 114 114
0.0039891461014574 0.0178044750546059 0.0135611767183476 -0.07169559 -0.07756311 0.9944062 223 223 223
0.00687056572960287 -0.0316973192727595 -0.000761590345850202 -0.04528889 -0.7695125 0.6370239 110 110 110
0.0265747285355702 -0.0187206799129419 0.00347205076397257 0.6895785 -0.7237145 0.02681072 73 73 73
-0.00958973509917183 -0.0450581682567354 -0.0155638629790294 0.01080643 -0.6135617 0.7895728 106 106 106
-0.0392998242645004 0.0305505978057613 0.0168086693122128 0.01657534 -0.01351038 0.9997714 55 55 55
-0.0232055826209359 -0.0453274157765199 -0.0175345808612965 -0.05848516 -0.7266567 0.6845067 105 105 105
-0.0139504669313095 -0.0482329769792624 -0.0182227534256347 -0.2518764 -0.8134019 0.5243431 79 79 79
-0.0158693801754879 -0.012326696044319 0.00510360584754076 -0.2049103 -0.1394684 0.9687932 147 147 147
