ply
format ascii 1.0
comment File exported by Rhinoceros Version 7.0
element vertex 475
property float x
property float y
property float z
property float nx
property float ny
property float nz
property uchar red
property uchar green
property uchar blue
end_header
0.019292749281842 -0.0257014149608326 -0.0212918644363823 0.4064801 -0.9132273 -0.02810223 107 107 107
0.0149631870946472 -0.0277783984126758 -0.0268792038376275 0.3665829 -0.928618 -0.0573207 95 95 95
0.0171939505300109 -0.0269390458049488 -0.0272628044302407 0.4258053 -0.9022432 -0.06816915 66 66 66
0.0179134978017395 -0.0264201277675342 -0.0272613739187661 0.4027664 -0.9133765 -0.05935185 44 44 44
0.0236144436559265 -0.0242654198589038 -0.025370505970234 0.388447 -0.9212247 -0.02130655 93 93 93
0.0208799017629211 -0.024702441114397 -0.0277090495045128 0.3739481 -0.9141846 -0.156299 86 86 86
0.021439589377362 -0.0244639033260059 -0.0273491864616814 0.3764581 -0.9176276 -0.1274316 88 88 88
0.023478425856549 -0.0241776818217945 -0.0274381463940087 0.3538647 -0.9273041 -0.1220116 72 72 72
0.0208160055837219 -0.0252455586375904 -0.0237521504576149 0.3917442 -0.9199502 -0.01510055 88 88 88
0.0196485890111511 -0.0260233992519092 -0.0198890393192711 0.4205758 -0.906985 -0.02223052 98 98 98
0.0212237013539855 -0.025173198598833 -0.0209943925554696 0.413507 -0.9104147 -0.0125327 93 93 93
0.0211518181523864 -0.0253944510402393 -0.0193493788654747 0.4163533 -0.9091436 -0.01038435 83 83 83
0.0235344542226379 -0.0240115040721607 -0.019284752529377 0.4258502 -0.9043031 -0.0297915 75 75 75
0.0193767918309753 -0.025971185583086 -0.0138614898140374 0.3972495 -0.9161225 -0.05396704 113 113 113
0.0214012039861267 -0.0249205941142749 -0.0151332890207711 0.4009198 -0.9147028 -0.05081485 100 100 100
0.0215115917882507 -0.0252232665004444 -0.0172922586615029 0.4083547 -0.9111568 -0.05513301 70 70 70
0.0230707300862854 -0.0247318858089161 -0.0267111932451668 0.3771087 -0.9229843 -0.07673997 70 70 70
0.0249656809529846 -0.0233560913982105 -0.0286300753767434 0.3660542 -0.9242738 -0.1082693 80 80 80
0.0239342821797912 -0.0242250079097461 -0.0239201014454308 0.418877 -0.9079433 0.01345287 99 99 99
0.0250316036901062 -0.0235415810527515 -0.0234497760946694 0.4413297 -0.8967772 0.03191829 104 104 104
0.0262849701604431 -0.0226594323100757 -0.0254947369511071 0.4257295 -0.9045491 0.02335337 72 72 72
0.0293168200215881 -0.0213335865916919 -0.0257518862898293 0.3960958 -0.9180938 0.01455735 103 103 103
-0.0477861987390931 -0.00994218530079838 0.0385928923671302 -0.7927896 -0.05389164 0.6071082 86 86 86
0.0273403300008361 -0.0220087880077076 -0.0234128659183922 0.4157104 -0.9079609 0.0528388 87 87 87
0.0303626431188171 -0.0210343712749195 -0.0261688356811944 0.3793997 -0.9252312 0.00177807 133 133 133
0.0251175535878723 -0.0231113547267627 -0.0192290668899956 0.4416196 -0.8959914 -0.04660038 103 103 103
0.0248457564076965 -0.0237349385204029 -0.0166096066648903 0.4208941 -0.9041718 -0.07294836 78 78 78
0.0256852282247131 -0.0233788603725147 -0.015464363020176 0.4124319 -0.9077296 -0.07698602 84 84 84
0.0266926659307067 -0.0231161230983448 -0.0166744267160836 0.3985712 -0.9130349 -0.08665095 108 108 108
0.0238383187017028 -0.0235501641215992 -0.0209334021027031 0.448074 -0.8939028 -0.01294168 105 105 105
0.0251275671681945 -0.0229543560924244 -0.0210764532501641 0.4603803 -0.8874462 -0.02212072 96 96 96
0.029051460143048 -0.0212185496272754 -0.0231564020330849 0.370456 -0.9282967 0.03205369 78 78 78
0.0284916533193176 -0.0211112612666797 -0.0223769967968407 0.3854558 -0.9222928 0.0282818 75 75 75
0.0259970797261779 -0.0225427264156055 -0.0195867394621315 0.4437097 -0.8952622 -0.04034092 128 128 128
0.0269326342305725 -0.0222103709163379 -0.0194328253681603 0.4210164 -0.9054394 -0.05407976 63 63 63
0.0293392313680236 -0.0211190098705005 -0.0195518111402932 0.3371882 -0.937223 -0.08897926 72 72 72
0.031346119757611 -0.0206829422893238 -0.0232939099485817 0.3251866 -0.9456499 0.0002174339 94 94 94
0.0309623850545471 -0.0205144995631885 -0.021650207560772 0.3017129 -0.9531352 -0.0224181 90 90 90
0.0306984556874816 -0.0206887835445118 -0.0212182377989235 0.2961717 -0.9545793 -0.03256924 102 102 102
0.0295151842794006 -0.0215549582423877 -0.017459613602871 0.3458537 -0.9333094 -0.09653415 91 91 91
0.0314420832356994 -0.0203645342769336 -0.0181238328630867 0.3013139 -0.950673 -0.07369352 46 46 46
0.0347378624639099 -0.0198621863307666 -0.019832221191639 0.2975294 -0.9521797 -0.06949907 80 80 80
0.035409487601239 -0.0193631762447071 -0.02130244426083 0.3044817 -0.9503601 -0.06408313 71 71 71
0.0291153563222473 -0.0215228909434986 -0.029459324997181 0.3997255 -0.9124537 -0.08745134 81 81 81
0.0316739453038757 -0.0203291291179371 -0.0294178848679009 0.4019039 -0.9107909 -0.09451558 80 80 80
0.0333010328969543 -0.019345414060564 -0.029503909271473 0.389743 -0.9148023 -0.1060051 88 88 88
0.0336249245366638 -0.020021569150896 -0.0267249321157876 0.3762216 -0.9232672 -0.07768512 66 66 66
0.0352319849690979 -0.0189093464793872 -0.0271742319281044 0.3733993 -0.9219509 -0.102857 94 94 94
0.021379627104718 -0.0251480454387378 -0.0132272069866601 0.3971264 -0.9155886 -0.06315143 113 113 113
0.0233425272664611 -0.0244187230052662 -0.0131254320557061 0.3952638 -0.9164751 -0.06196754 105 105 105
0.0250696314534729 -0.0237695092143726 -0.0137090807373467 0.4120013 -0.9094459 -0.05624061 99 99 99
0.0272443665227478 -0.022887837308855 -0.0133917754108849 0.4029317 -0.9134906 -0.05639979 88 88 88
0.0275801790914123 -0.022564899343462 -0.0114571725542489 0.4043979 -0.9129694 -0.05430681 83 83 83
0.0292272938451354 -0.0217054003658008 -0.011144322674984 0.3730413 -0.9268992 -0.04120765 63 63 63
0.0292113198003356 -0.0220841282787037 -0.0091859226639214 0.3947538 -0.9183951 -0.02683173 80 80 80
0.028203882094342 -0.022143732923479 -0.00977952532123952 0.404463 -0.9132853 -0.04816215 55 55 55
0.0317539347371643 -0.0208652132930469 -0.0150582765753212 0.3220446 -0.9453046 -0.05183248 83 83 83
0.0337688101491516 -0.0203561896266651 -0.0138992940599862 0.301519 -0.9530039 -0.02949245 61 61 61
0.0322816742620056 -0.0209133738460254 -0.0120912616665307 0.3373439 -0.9410775 -0.02391928 69 69 69
0.0336728466710632 -0.020650517362566 -0.013301384967083 0.3026737 -0.9525054 -0.0334974 63 63 63
0.0351120604238098 -0.0198482388438892 -0.0132805382425728 0.3461931 -0.9376868 0.02989568 66 66 66
0.031945861693341 -0.0157673472346973 0.0473452533071098 -0.07410895 0.1785158 0.9811422 87 87 87
0.0338647736272399 -0.0204353445949268 -0.0117174064333382 0.3455244 -0.9383895 0.006174307 46 46 46
0.0328892840108459 -0.0210046881618213 -0.00947922221969991 0.3479906 -0.9374971 0.001279345 65 65 65
0.033984698172528 -0.0203950518550586 -0.00944205872368245 0.3710775 -0.9285762 0.006914475 67 67 67
0.0323775185308044 -0.0207828396739673 -0.0159761732037011 0.312913 -0.9477671 -0.06183007 89 89 89
0.0339607371053283 -0.0202095622005176 -0.01641364149403 0.2815437 -0.957544 -0.06198918 79 79 79
0.0291313303670471 -0.0223143214168262 -0.00740271560501485 0.4078108 -0.9130015 -0.0108932 119 119 119
0.0336728466710632 -0.0199610108318042 -0.00518309823822408 0.3583042 -0.9321524 -0.05205791 80 80 80
0.034920133467633 -0.0200626963557911 -0.00365769616913228 0.3725003 -0.925849 -0.06361754 62 62 62
-0.0108946191111023 -0.0356903189601612 0.0101904148643074 0.3309716 -0.9435753 0.01111286 61 61 61
-0.0131013022699769 -0.0371344202937793 0.0127588833158073 0.2910408 -0.956705 -0.00328826 79 79 79
-0.0120459424295838 -0.036348473447771 0.0124682659690437 0.3034552 -0.9524369 -0.02790683 75 75 75
-0.00893446076301885 -0.036054980176897 0.0149458224361 0.2284817 -0.9693151 -0.09068877 138 138 138
-0.00969525444893193 -0.0354557150783252 0.0119917119329032 0.283724 -0.9562339 -0.07153713 49 49 49
-0.00602527726082158 -0.0344144219340992 0.0106973076646385 0.2488113 -0.964727 -0.08599317 73 73 73
-0.00508972275642705 -0.034634720701189 0.0134043718164024 0.2365815 -0.960973 -0.1433877 147 147 147
-0.0047539101877625 -0.0343961829127979 0.0137642646615562 0.2397465 -0.9593807 -0.1486949 129 129 129
-0.00137182343391729 -0.0328827017726612 0.00651689119983287 0.2842098 -0.9577605 0.04381222 101 101 101
-0.00468679535774541 -0.0351456517162037 0.0163328374211845 0.228319 -0.9688613 -0.09580351 127 127 127
-0.00109192002205205 -0.0339459294261646 0.0145594055240211 0.2875199 -0.9474757 -0.140079 135 135 135
0.00133863818259883 -0.032850634473772 0.0105818385665473 0.3375351 -0.9353131 -0.1061109 102 102 102
0.00122670065971064 -0.0329161995830249 0.0126395697181282 0.3444718 -0.9330416 -0.1037912 134 134 134
0.00287381541343379 -0.0321709031047535 0.0125772977654991 0.3559046 -0.9297574 -0.09425084 115 115 115
0.000283278342205762 -0.032687436956377 0.00687669463801951 0.2790242 -0.9602392 0.00928519 179 179 179
0.00117877852531123 -0.0322879666270923 0.00672699757266612 0.3064814 -0.9513855 0.03057436 145 145 145
-0.00038834679512334 -0.0329028481425953 0.0077675605599937 0.2835406 -0.9589434 -0.005685128 123 123 123
0.00081101786704707 -0.0324837082805347 0.00536044188190074 0.2836666 -0.9558752 0.07639214 153 153 153
0.00534931552024531 -0.0308880919398975 0.00670866914439769 0.3212584 -0.9399252 0.1154713 121 121 121
0.00664774310203242 -0.030822407621355 0.0060435409133491 0.3191257 -0.938561 0.1313857 188 188 188
0.00714353453727412 -0.0306875819148731 0.0053786958043632 0.324568 -0.9383994 0.1185839 141 141 141
0.00714353453727412 -0.0302884692134571 0.00699417539287181 0.3318976 -0.9360878 0.1165486 223 223 223
0.0113171709737365 -0.0290968531551075 0.00513021894145579 0.3382915 -0.9386412 0.06716857 127 127 127
0.00565627944083857 -0.0306837672176075 0.00885804243732066 0.3560148 -0.9343858 0.01328485 111 111 111
-0.00098796952156377 -0.0346986168803882 0.0173026794974861 0.3026469 -0.949788 -0.07942034 146 146 146
-0.000856124047320606 -0.0343941563548755 0.0166549111192283 0.2946649 -0.951525 -0.08816374 147 147 147
0.00120679270835566 -0.0337678307475757 0.0162973875587043 0.3465991 -0.9335749 -0.09114262 138 138 138
0.00196234118552852 -0.0325213784160328 0.0142483884875831 0.3563609 -0.9251761 -0.130599 143 143 143
0.00296977889152217 -0.0325088614406299 0.0145278895680961 0.3618289 -0.9208639 -0.1452226 168 168 168
0.00330559146018672 -0.0325888508739185 0.0145808929984626 0.3695524 -0.9182371 -0.1423782 92 92 92
-0.000364385727923633 -0.0343496912898731 0.0186541850154457 0.3327368 -0.942971 -0.00958923 140 140 140
0.000786937590557812 -0.0339186304988575 0.0191742504422721 0.3589548 -0.9333472 0.003789779 153 153 153
0.00304178130241084 -0.0331463927211475 0.0189502114837226 0.3624489 -0.931922 0.01233188 66 66 66
0.00350943934531855 -0.0322393292369556 0.0205360377614555 0.3689531 -0.9134709 0.171594 79 79 79
0.0040731800756042 -0.0321217888774585 0.0189330900495109 0.3399475 -0.940394 0.009739236 15 15 15
-0.000100575570147754 -0.030559431928606 0.0168616796319541 0.3474892 -0.9351332 -0.06911724 75 75 75
0.00730339419456172 -0.0312357062282276 0.0192858750407753 0.3624442 -0.9282468 0.08361874 110 110 110
0.00829485785575557 -0.0311625117244434 0.0184699768607673 0.3692646 -0.9288405 0.02998333 145 145 145
0.00915840994926143 -0.0303366297664356 0.0181529099528846 0.3733732 -0.9275914 -0.01290322 38 38 38
0.00746325385184932 -0.0297756308498096 0.0124863112752494 0.375357 -0.9177808 -0.1295589 118 118 118
0.0109494103154724 -0.0287200325908374 0.0124581629817543 0.3368605 -0.9380926 -0.08066788 35 35 35
0.00229815375419307 -0.0326887482585621 0.0218986446445045 0.3681959 -0.9096476 0.1922836 63 63 63
0.00196234118552852 -0.0324829930247974 0.0220788294856605 0.3681959 -0.9096476 0.1922836 81 81 81
0.0340567005834167 -0.0203038567485523 0.0163575882499275 0.36825 -0.9074712 0.2022075 151 151 151
0.00714353453727412 -0.0308849924983692 0.0223914111440238 0.3416955 -0.9253547 0.164204 70 70 70
0.00942436587424922 -0.0299273842754078 0.0206337148730812 0.3495455 -0.9277817 0.1305335 83 83 83
0.00915840994926143 -0.0307185763301563 0.0215713555400428 0.34352 -0.93038 0.1280114 71 71 71
0.00800696742149043 -0.0305202120723438 0.0219578171556053 0.337221 -0.9294181 0.1498801 53 53 53
0.0114131344518249 -0.029422056097002 0.0205969984118995 0.3927516 -0.9143749 0.09830905 58 58 58
0.00776711833091426 -0.0300881976070118 0.0245721811835823 0.3166392 -0.9472613 0.04935185 44 44 44
0.0110676659307067 -0.0288778656902027 0.0228031898324546 0.3382145 -0.9364667 0.09295768 60 60 60
0.0130168570241516 -0.0283556097926807 0.00828945882964702 0.3129923 -0.9468848 0.07379004 63 63 63
0.0152190102300231 -0.0277562254848194 0.0103518689458427 0.3239221 -0.9447239 0.05070717 115 115 115
0.0154668463429992 -0.0272392147960376 0.0130787069385108 0.4197703 -0.9075103 -0.0147587 53 53 53
0.0171540154180114 -0.0268643015804004 0.0117846751992759 0.4253717 -0.9044259 0.03275207 89 89 89
0.0129962338170593 -0.0278703087749195 0.0139285350625572 0.3584609 -0.9305224 -0.07505835 54 54 54
0.0175729168614929 -0.0263383501949024 0.0128097409789619 0.421109 -0.9069591 0.009616655 75 75 75
0.0175297630986755 -0.0269248598994922 0.00884175546813579 0.4052865 -0.9134064 0.03783561 43 43 43
0.0176257265767639 -0.0269383305492115 0.0101024235074577 0.4297152 -0.8998637 0.0747682 52 52 52
0.0196166409215515 -0.0255096072139454 0.0106518889253196 0.4089103 -0.909788 0.07126125 138 138 138
0.0144354475698059 -0.0286085719051075 0.00417356439281077 0.3673792 -0.9293508 0.03660139 141 141 141
0.0171339882573669 -0.0268566721858692 0.0045808876340446 0.3859257 -0.9224654 0.01090809 71 71 71
0.0195685995778625 -0.0261207932414722 0.00265912957835765 0.3517033 -0.9357892 0.02456287 74 74 74
0.017489827986676 -0.0263282174052906 0.0071513826434669 0.4129646 -0.9101983 0.03160999 82 82 82
0.0200003756246154 -0.0256028288783741 0.00949071593928905 0.3846624 -0.9162492 0.1119028 148 148 148
0.0210078133306091 -0.0248615855159473 0.00848150499511333 0.3514858 -0.9348334 0.05044061 62 62 62
0.0226070059499328 -0.0242701882304859 0.0103725219552574 0.3144709 -0.9478556 0.05174791 72 72 72
0.0231186522206848 -0.0239449852885913 0.0124437535588798 0.2898723 -0.9569551 0.01452368 112 112 112
0.0248936785420959 -0.0236090535106372 0.00216484316039653 0.3433085 -0.9390622 -0.01736096 56 56 56
0.0236463917455261 -0.0244587773265552 0.00470389671969981 0.2896962 -0.9569141 0.0197848 111 111 111
0.0271804703435485 -0.0234558695735645 0.00453804679561229 0.3202588 -0.9463673 -0.04269851 75 75 75
0.0288914812764709 -0.0229419583263111 0.00632688649345012 0.3708192 -0.9284223 -0.02291812 163 163 163
0.0253734959325378 -0.0237720126094532 0.000124233443027449 0.3748411 -0.9270506 0.008444268 72 72 72
0.0286356581410949 -0.0223808402003955 -0.000931975763553666 0.370908 -0.9285656 -0.01389886 101 101 101
0.0354957951268737 -0.0202881211223316 9.82756202277668E-05 0.3505763 -0.9361758 -0.02590753 67 67 67
0.0344404352864807 -0.0206058138789844 0.00192027040172191 0.3479693 -0.9374889 0.00565367 80 80 80
0.0253134144506042 -0.0239006394328785 0.00860722609210582 0.2714381 -0.9610665 0.0516967 97 97 97
0.0289074553212707 -0.0228903407039356 0.00857563563037486 0.349929 -0.9367427 0.007919894 153 153 153
0.0254693402013366 -0.023984085935564 0.0111516738717613 0.2662558 -0.9626106 0.04988699 109 109 109
0.026972569342572 -0.0234603995265674 0.0110444600169715 0.2751524 -0.9595991 0.05882708 104 104 104
0.026972569342572 -0.0230722540797901 0.0126000518386421 0.3008121 -0.9514057 0.06587294 112 112 112
0.029691017981488 -0.0221442097606372 0.0109970743243751 0.3447041 -0.9361606 0.06915502 78 78 78
0.0283477677068298 -0.0227358454646778 0.0120798374002037 0.3073651 -0.9485127 0.07648832 140 140 140
0.0310342682561462 -0.0219756478252124 0.00654018171477885 0.390781 -0.9204426 -0.008691535 133 133 133
0.0310823095998352 -0.022001516241045 0.00871557243514628 0.3682322 -0.9296341 -0.01362179 146 146 146
0.0315779818257873 -0.021663677114458 0.0124819601361808 0.3232392 -0.9432476 0.07616029 80 80 80
0.0333769692143981 -0.0214682930888843 0.0123716021363792 0.321516 -0.9460056 0.04124237 96 96 96
0.0311974657735412 -0.0217510575236988 0.0100574518029747 0.3480541 -0.9374676 -0.003600531 89 89 89
0.0349361075124328 -0.0201652163448047 0.0086496496980247 0.3519178 -0.9344539 -0.05431182 86 86 86
0.0355118883809631 -0.0198329800548267 0.00476534910846324 0.3290549 -0.9439783 0.02505853 90 90 90
0.0137159002980773 -0.0287279004039478 0.0185830617730674 0.4069388 -0.9134498 0.003228291 11 11 11
0.0408208740911071 0.0212243681965161 0.00763662405658336 0.5329619 0.8148272 -0.2280531 110 110 110
0.0136678589543884 -0.0285693520488453 0.0189959878509101 0.4114149 -0.9114482 4.224477E-05 33 33 33
0.0134184731206481 -0.0288690442027759 0.0205412978713569 0.4159974 -0.9057552 0.08095459 74 74 74
0.0138022078237121 -0.0278908127727222 0.0247964138572273 0.4103998 -0.9118482 0.01023975 13 13 13
0.0130442751607482 -0.0283142441692066 0.0230282569711265 0.4110866 -0.9087034 0.07256637 27 27 27
0.0150111092290466 -0.0273896569194507 0.0245104009692726 0.451283 -0.8919957 0.02621882 39 39 39
0.0190168989858215 -0.0255736226024341 0.0223151022975502 0.4288904 -0.9006276 0.070163 64 64 64
0.0179855002126281 -0.0265072697581958 0.0190681839768943 0.4717419 -0.8797657 0.05892269 38 38 38
0.0185851229390686 -0.0262524002971363 0.0183237815682945 0.4497937 -0.8904951 0.06858721 111 111 111
0.0215355528554504 -0.0247535818996143 0.015201109129673 0.3362608 -0.9414398 -0.02489565 81 81 81
0.0231346262654846 -0.0241201037349414 0.0170833344047126 0.3335027 -0.9421771 0.03283529 87 87 87
0.0208639277181213 -0.0244166964473438 0.0184884990041313 0.40598 -0.9118941 0.06024432 35 35 35
0.0202882660588806 -0.0246083849849414 0.0204571659152565 0.4146417 -0.90673 0.07689543 25 25 25
0.0110453737935607 -0.0289503449382496 0.0253106380288658 0.3343204 -0.9418903 0.03274986 38 38 38
0.0130442751607482 -0.0286789053859424 0.0265887404267845 0.4027159 -0.9125313 -0.07145988 46 46 46
0.0137638224324768 -0.0281384104671192 0.0267676288669166 0.4075131 -0.9102255 -0.07363862 29 29 29
0.0144594086370056 -0.0276846999110889 0.0263231123273429 0.44234 -0.8958352 -0.0425972 13 13 13
0.0176417006215637 -0.0257066601695728 0.0247052932565269 0.4495735 -0.893065 0.01784957 49 49 49
0.0170259846410339 -0.0266732090892505 0.0286743218486366 0.3956651 -0.9054319 -0.1537603 45 45 45
0.0230067146977966 -0.0237277859630298 0.0244490379874763 0.3712461 -0.9285336 -0.001295321 81 81 81
0.0257332695684021 -0.023641240018816 0.0171401227300224 0.3500135 -0.9337795 0.07447407 152 152 152
0.0259970797261779 -0.022519242185564 0.0203963840787467 0.3693055 -0.9234354 0.1043098 11 11 11
0.0275082958898132 -0.0223740452708912 0.0184009099786338 0.3742341 -0.9207776 0.1100791 17 17 17
0.030922330733258 -0.0211784953059864 0.0166877979819831 0.3555032 -0.9201417 0.164185 90 90 90
0.0319698227605407 -0.0203844422282886 0.0182334507291374 0.3525854 -0.9244716 0.1450372 19 19 19
0.0243180168828552 -0.0228022450389576 0.0265693689172325 0.38481 -0.9203373 -0.07000429 50 50 50
0.0248697174748962 -0.023246895688982 0.0285906220262107 0.3842499 -0.9146265 -0.1257395 47 47 47
0.0251576079091613 -0.0224924200954151 0.0227382356708107 0.373603 -0.9244671 0.0760351 68 68 68
0.028587616797406 -0.0212590807857227 0.0266401494329032 0.3619033 -0.9284387 -0.08383108 19 19 19
0.0298669708928649 -0.0210059994640064 0.0233454877917823 0.3504629 -0.9365761 -0.001002624 69 69 69
0.0302666796407287 -0.0206896180095386 0.0228096867387352 0.3712061 -0.9285362 0.005154904 72 72 72
0.0317179335317199 -0.0201925152721119 0.0222355897014198 0.3875612 -0.9215537 0.02313417 56 56 56
0.0327133310994689 -0.0197006577434253 0.0211758340184745 0.3929566 -0.9164979 0.07494432 54 54 54
0.0348002089223449 -0.0187492484035205 0.0211784715240058 0.351914 -0.9311249 0.09572332 78 78 78
0.0174577606877868 -0.0223537796916675 0.0134380484407005 0.4302157 -0.9026067 0.01468359 29 29 29
0.029192127104718 -0.0218981617870044 0.0141950274293479 0.3431217 -0.9338455 0.100996 120 120 120
0.0355518234929626 -0.0196756237926197 0.0144832307879982 0.3823158 -0.9051167 0.1860062 72 72 72
0.0327613724431579 -0.0207740181865406 0.0171679282968101 0.3475265 -0.9175969 0.1929796 52 52 52
0.034920133467633 -0.0193235987605762 0.0183361346309242 0.3667815 -0.9148661 0.1687935 97 97 97
0.0367432011327331 -0.0188273304881763 -0.0206676398928109 0.3150041 -0.9455443 -0.08196595 40 40 40
0.0374148262700622 -0.018636357206316 -0.0199885045702401 0.3235614 -0.9424659 -0.08405985 48 48 48
0.0368631256780212 -0.0176057928981495 -0.0318941300327721 0.3340853 -0.9406629 -0.05950044 70 70 70
0.0377217901906555 -0.0177060479106617 -0.0278335636074486 0.3524559 -0.9284425 -0.1173424 98 98 98
0.0393145455083435 -0.016853582281084 -0.02913516513657 0.3274983 -0.9414663 -0.07991336 102 102 102
0.0414924992284362 -0.0161603802623462 -0.0309144382889214 0.3259853 -0.9443854 -0.04324068 80 80 80
0.041132725592572 -0.0160609597148609 -0.0299539541418496 0.3356271 -0.9403682 -0.05533663 87 87 87
0.0436833275518005 -0.0154010170879078 -0.0296527569706383 0.2860465 -0.9559011 -0.066561 90 90 90
0.0393337382039611 -0.0171885603847217 -0.0336094175989571 0.3118262 -0.9489293 -0.0479329 134 134 134
0.0412526501378601 -0.0163837784709644 -0.0335672622139397 0.3090533 -0.9505105 -0.03187174 84 84 84
0.0434115303716247 -0.0157091731013965 -0.0321151291544381 0.3026847 -0.9530641 -0.007120829 84 84 84
0.0464338434896057 -0.0146782511653614 -0.0344673668558541 0.2367242 -0.9715692 -0.003848797 122 122 122
0.0468016041478698 -0.0144059771480274 -0.0318276857550087 0.2127862 -0.9767001 -0.02790889 73 73 73
0.0459540260991638 -0.0144244545879078 -0.0299162244017067 0.2230948 -0.9723969 -0.06835936 99 99 99
0.0472653282842224 -0.014437925237627 -0.0299073433096352 0.1963622 -0.9784034 -0.06456525 91 91 91
0.0380384100637023 -0.0181622618617725 -0.025482354086155 0.3538877 -0.9291349 -0.1071068 115 115 115
0.0395256651601379 -0.0177744740428638 -0.0237250303442421 0.3293449 -0.9385269 -0.1034372 85 85 85
0.0415884627065246 -0.0169428700389576 -0.0213410233671608 0.3213195 -0.9444967 -0.06840854 55 55 55
0.0414924992284362 -0.0170192831935596 -0.0249736731464806 0.3053624 -0.9457045 -0.1113409 72 72 72
0.0421641243657653 -0.0161478632869434 -0.0273928766663018 0.3084544 -0.9419439 -0.1326562 73 73 73
0.0449946297368591 -0.0153876656474781 -0.0280693595821801 0.2604639 -0.9567508 -0.1295626 74 74 74
0.0434754265508239 -0.0163332337321949 -0.0196540033037606 0.3097093 -0.9481781 -0.0709818 62 62 62
0.0512432230672424 -0.0138023013057422 -0.0336233799869957 0.1591166 -0.9870604 -0.01984377 113 113 113
0.0532220972737854 -0.0136690253200245 -0.0337261383945885 0.1636502 -0.9855315 -0.04411655 85 85 85
0.052190698500592 -0.014037739652605 -0.030287680547947 0.1487223 -0.9865865 -0.06729693 126 126 126
0.0539176834783142 -0.0131046885432911 -0.0357403581554833 0.1722189 -0.9846519 -0.02830723 104 104 104
0.0557086838445251 -0.0132647866191578 -0.0290925180132332 0.2019517 -0.9785503 -0.04068097 86 86 86
0.0572758091649597 -0.0128704422893238 -0.0313489263470116 0.2082555 -0.976553 -0.0545336 74 74 74
0.0481608284673278 -0.0147380942287159 -0.0271761392767373 0.1873157 -0.9779742 -0.09208283 164 164 164
-0.0105747805872376 0.0322391873417187 0.027846845466381 0.05485668 0.1393916 0.9887167 183 183 183
0.0493122709950988 -0.0147962683620166 -0.0253534143383446 0.204104 -0.9755844 -0.08109615 108 108 108
0.0489764584264343 -0.0143679493846607 -0.0262703423912468 0.1864576 -0.9786938 -0.08597658 126 126 126
0.0513271464070861 0.01266514120677 -0.000676197331661271 0.5971226 0.7971774 -0.08917855 74 74 74
0.0503197087010925 -0.0143959635677051 -0.0257913892681542 0.1945884 -0.9783693 -0.07020634 67 67 67
0.0504156721791809 -0.0144077652873706 -0.0214671467955056 0.2310631 -0.9701222 -0.07397836 82 82 82
0.0507514847478454 -0.0142929667415332 -0.0235344891960564 0.211672 -0.9752 -0.0646525 84 84 84
0.0501277817449157 -0.0143746251048755 -0.0238487397844735 0.2276834 -0.9710001 -0.07293227 89 89 89
0.0552449597081726 -0.01327480019948 -0.023810264986271 0.20233 -0.979057 -0.02258376 100 100 100
0.0552969349584167 -0.0136120432796192 -0.0211240028555336 0.217346 -0.9744214 -0.05712894 74 74 74
0.0573557985982482 -0.0131605977000904 -0.0250561957771721 0.24121 -0.970454 -0.006068617 58 58 58
0.0486406458577697 -0.0144018048228931 -0.0284924631531182 0.1717897 -0.9807898 -0.0924098 131 131 131
0.0548531187734191 -0.0135985726298999 -0.0278449182922783 0.1824002 -0.9825685 -0.03590733 98 98 98
0.0573557985982482 -0.0131706112804126 -0.0278503870184365 0.2292617 -0.9731374 -0.02104143 89 89 89
0.0597944630345886 -0.0125415438594532 -0.0275958602840844 0.2849024 -0.9585186 -0.008526226 34 34 34
0.0364313496312683 -0.0196110123576831 -0.0139039432222786 0.3386542 -0.9401984 0.03661179 56 56 56
0.0368870867452209 -0.0191397780360889 -0.0111084406788292 0.3633389 -0.9307231 0.04170547 53 53 53
0.0376546753606384 -0.0192540997447681 -0.015492958348507 0.3377802 -0.9406588 -0.03264217 63 63 63
0.0389019621572082 -0.0187193268718433 -0.0180150990898552 0.3501165 -0.9341184 -0.06957861 73 73 73
0.0397174729070251 -0.0184815043391895 -0.0158034985477868 0.3392548 -0.9386628 -0.06179203 87 87 87
0.0385901106557434 -0.0188613051356983 -0.0131634300167504 0.3192525 -0.946077 0.05492019 53 53 53
0.0413645876607482 -0.0177604073466968 -0.0135285233671608 0.3001016 -0.9539062 -0.001414625 59 59 59
0.0431236399373596 -0.0167077893199634 -0.0172955220158043 0.2870359 -0.9530488 -0.09647933 63 63 63
0.0542055739125793 -0.0140278452815723 0.0389409238879737 0.2439707 -0.9697803 0.002122603 69 69 69
0.0443709267339294 -0.0172773713054371 -0.0133786027843895 0.2417871 -0.9695241 -0.03952292 90 90 90
0.0456662548741882 -0.0163998717250537 -0.0155716066772881 0.249848 -0.9620051 -0.1101006 60 60 60
0.0413144005498474 -0.0173839444102954 -0.00916009895157247 0.2400333 -0.9701499 0.03454104 94 94 94
0.0416524780950134 -0.0173473471584034 -0.00726048402141957 0.2412477 -0.9702126 0.02207055 65 65 65
0.0432075632772033 -0.0171394461574268 -0.00911047808479695 0.219347 -0.9752638 0.02733781 69 69 69
0.0424759758672302 -0.01742519082448 -0.00556866578411488 0.2586627 -0.9656194 0.02593719 80 80 80
0.0447547806462829 -0.016860496419878 -0.00719174496483235 0.2417598 -0.9691471 0.04802078 63 63 63
0.0457382572850769 -0.0161939972819996 -0.00575154773544698 0.3036144 -0.9490222 0.08470568 61 61 61
0.0459540260991638 -0.0162313097896289 -0.00667641810726552 0.2811136 -0.9574653 0.06507964 67 67 67
0.0475131643971984 -0.0161917323054981 -0.0113930826599541 0.3015258 -0.9529862 0.02999052 58 58 58
0.0491587294301574 -0.0158500784816455 -0.013743234198803 0.3107556 -0.9499066 -0.03329104 76 76 76
0.0491203440389221 -0.0157431477489185 -0.0148845737392846 0.3040515 -0.9507954 -0.05950457 68 68 68
0.0510073078832214 -0.0149740094127369 -0.0155477350170556 0.2626838 -0.9629498 -0.06103171 29 29 29
0.0518547667226379 -0.0144572371425342 -0.0155928855354729 0.263983 -0.9627727 -0.05815338 62 62 62
0.0537737978658264 -0.0143185967387867 -0.0151667272264901 0.2471525 -0.9685352 -0.02924383 68 68 68
0.0496960056981628 -0.0154533499660205 -0.00773870698761372 0.3433922 -0.9354429 0.08383542 64 64 64
0.049552120085675 -0.0158431643428516 -0.0123435234243813 0.3309133 -0.9436471 0.005148774 55 55 55
0.0516149176320617 -0.014299404043169 -0.0124457155878487 0.3166817 -0.9477225 0.03917658 50 50 50
0.0511032713613098 -0.0147204512538623 -0.00934667639088063 0.3218323 -0.9450533 0.05743037 39 39 39
0.0518228186330383 -0.0143709296168995 -0.0090219502861443 0.3046215 -0.9502503 0.06503864 40 40 40
0.0519987715444152 -0.013900291341753 -0.0075881158525887 0.2670609 -0.9609172 0.07291485 60 60 60
0.0539657248220031 -0.013953101057024 -0.0126177047903481 0.2475255 -0.9681823 0.03679761 78 78 78
0.0553622616490905 -0.0139222258510303 -0.0114423309976998 0.1886673 -0.9813803 0.03601827 69 69 69
0.0550210846623962 -0.0136838072719287 -0.00729034594845204 0.1690011 -0.9838594 0.05881523 71 71 71
0.0577395333013122 -0.0135150069179248 -0.00738303117107778 0.1543426 -0.9875786 0.02944127 72 72 72
0.0505595577916687 -0.0146101826610279 -0.020469782274479 0.2342623 -0.9691941 -0.07605278 92 92 92
0.0497919691762512 -0.0148739928188037 -0.0188273017818871 0.2399785 -0.9661357 -0.09482704 42 42 42
0.053126133795697 -0.0140172356548023 -0.0207475697214547 0.2162928 -0.9739165 -0.06858662 61 61 61
0.052398480292279 -0.014497887510271 -0.0177240943129006 0.2313092 -0.9711676 -0.05770219 65 65 65
0.0549251211843078 -0.0140283221187305 -0.0191287522728386 0.2250455 -0.9721636 -0.0652113 70 70 70
0.0588269604405944 -0.0127942675533008 -0.0195245420153084 0.26807 -0.9622362 -0.04732914 53 53 53
0.0557406319341247 -0.0139676445903492 -0.0169819866831246 0.2445946 -0.9695392 -0.01293574 49 49 49
0.0569399965962951 -0.0133259409846973 -0.0180978750402871 0.2357323 -0.9706979 -0.04664651 84 84 84
0.0610337628087585 -0.0118144864024829 -0.03555945805859 0.2685605 -0.9589921 -0.09060512 62 62 62
0.0611856354436462 -0.0120178574504566 -0.0341873144323769 0.2687225 -0.9596349 -0.08300065 54 54 54
0.0629006994924133 -0.0113183373393726 -0.0333272045071068 0.2862899 -0.9562714 -0.05985992 60 60 60
0.0637042893132751 -0.0112080687465381 -0.0310982143099251 0.3275258 -0.9448409 0.001572815 59 59 59
0.0609697474202697 -0.0121402853908252 -0.0235166078026238 0.3067819 -0.9516101 -0.01797318 46 46 46
0.0648460758885925 -0.0109038466396045 -0.0279905324394646 0.3606066 -0.9320818 0.03444543 63 63 63
0.0644239557942932 -0.0110325926723194 -0.0295742278511467 0.347122 -0.9374924 0.02478688 64 64 64
0.0637522114476745 -0.010646831411333 -0.0246501689369622 0.3813718 -0.9243527 -0.01129662 65 65 65
0.0651914252004211 -0.0100673550548267 -0.0253910099680367 0.375831 -0.9266848 0.002529125 55 55 55
0.0702287329396789 -0.00874353589436527 -0.0297675406153145 0.5776346 -0.8132431 0.07052642 74 74 74
0.0711881293019836 -0.00785947980305668 -0.0258499657328072 0.8406401 -0.5395055 0.04751929 96 96 96
0.0608739031514709 -0.0131348484935474 -0.00934232525181203 0.2740059 -0.9612568 -0.03010197 91 91 91
0.0612371338567321 -0.0130016917171192 -0.00743546835731893 0.2896943 -0.9569966 0.01532215 78 78 78
0.0626968516072814 -0.0126406067790699 -0.0108976935560647 0.3521326 -0.9352455 -0.036312 133 133 133
0.0635604037007873 -0.012091528791399 -0.00927026323627858 0.4222769 -0.9062293 -0.0207528 107 107 107
0.0652873886785095 -0.0109689349116993 -0.0115451192076149 0.376917 -0.9250946 -0.04619113 64 64 64
0.0648939980229919 -0.0113482588710498 -0.00955565027546315 0.396681 -0.917882 -0.01169478 84 84 84
0.0670984162053649 -0.010246407407732 -0.00934770457100301 0.3491683 -0.9370558 -0.002828519 80 80 80
0.0608258618077819 -0.0121559018077564 -0.0178085987980309 0.3175155 -0.9469683 -0.04934622 82 82 82
0.0613056791982238 -0.0124421233119678 -0.0153456454689446 0.3153204 -0.9458922 -0.07655714 64 64 64
0.0653833521565979 -0.0107025021495533 -0.018915620964283 0.3549555 -0.9333364 -0.05375685 85 85 85
0.065671242590863 -0.0103882664622974 -0.0170519923384133 0.3342131 -0.9419875 -0.03100256 75 75 75
0.0678780449590271 -0.0092593544902515 -0.0211957668478432 0.5487204 -0.8305519 -0.09533852 85 85 85
0.0672303808888977 -0.00971115769764896 -0.018939522426838 0.4401097 -0.8938873 -0.08525798 73 73 73
0.0680219305715148 -0.00968111695668217 -0.0178084646875802 0.4381123 -0.895317 -0.08040637 98 98 98
0.0687414778432434 -0.00953222455403324 -0.0187128608639184 0.452201 -0.8853467 -0.1080536 90 90 90
0.0704205406865661 -0.00896264256855961 -0.0177665626223031 0.4391608 -0.888968 -0.1298987 37 37 37
0.0670984162053649 -0.00928343476674076 -0.0233091985399666 0.4903781 -0.868358 -0.07405277 52 52 52
0.0686695946416442 -0.00847483815571781 -0.0234134470636788 0.7484545 -0.6630378 0.01402895 100 100 100
0.0633365286550109 -0.0119133109035205 -0.0140846049005929 0.3680683 -0.927566 -0.06439795 88 88 88
0.0674409044942443 -0.0100164526881885 -0.0151689773018303 0.3129729 -0.9479633 -0.05842567 61 61 61
0.0709603203496521 -0.00916446389576908 -0.01331645004105 0.4116948 -0.9107793 -0.03143957 73 73 73
0.0661030186376159 -0.0101637953700733 -0.011589479964489 0.3541731 -0.9343845 -0.03856121 64 64 64
0.0696050299367492 -0.00959731282612797 -0.0111687903816643 0.2888081 -0.9570307 -0.02611727 74 74 74
0.0702287329396789 -0.00970007123372074 -0.0108896171266976 0.4144688 -0.9099064 0.01690757 107 107 107
0.0671344174108093 -0.00122727097889896 -0.0195549254829827 0.8486733 0.5281204 0.02902411 77 77 77
0.0457622183522766 0.011563051324873 0.0397363031690177 -0.07312777 0.4182107 0.9054016 108 108 108
0.0661509407720153 -0.000610005277605019 -0.0166259979422036 0.7005779 0.7131893 -0.02348648 60 60 60
0.0371508969029968 -0.0195994490565967 0.00250514097858043 0.3594634 -0.9329596 -0.01930061 62 62 62
0.0374946964940612 -0.0194468611659717 0.0111086989228782 0.3734796 -0.9262493 0.05074665 82 82 82
0.0377185715398376 -0.0192687624873829 0.00442980476070018 0.3346655 -0.9418566 0.03008671 87 87 87
0.0398614777288024 -0.0188373440684986 0.00719411917377086 0.3638707 -0.9314485 -0.001344058 97 97 97
0.0398134363851135 -0.0185260886134815 0.0053188825433311 0.3492954 -0.9368998 0.01454018 64 64 64
0.0409168375691955 -0.0180701130809497 0.0063979054277 0.3384221 -0.9409657 0.007345961 113 113 113
0.0414733065328186 -0.0176453703822803 0.00435532875705333 0.3246162 -0.9458305 -0.005389958 42 42 42
0.0395496262273376 -0.018395912069292 0.00877200313258739 0.3649811 -0.9309111 -0.01390633 94 94 94
0.0389019621572082 -0.0185115450801563 0.00968314953494639 0.3780905 -0.9256043 0.0174452 106 106 106
0.0413166655263488 -0.0176531189861011 0.0104571903531608 0.3351236 -0.9419315 -0.02138213 126 126 126
0.043171562071759 -0.0170142764033985 0.00469099231410594 0.3178807 -0.9481108 -0.006158583 68 68 68
0.0426918638906066 -0.0175616854610157 0.00295312948871226 0.3145612 -0.9479098 -0.05018234 66 66 66
0.0464817656240051 -0.0166307801189136 0.0031419570033607 0.3449194 -0.9384514 -0.0184273 104 104 104
0.047460473891217 -0.015810143369646 0.00274773188281627 0.358304 -0.9334742 -0.01562211 106 106 106
0.0448027027806823 -0.0176371449413013 0.0159523958747444 0.2557387 -0.9667438 0.002027712 16 16 16
0.0431523693761413 -0.0174356812419605 0.0103859330003318 0.3390245 -0.9401206 -0.03515167 110 110 110
0.0448986662587707 -0.0167249554576587 0.00838408120322795 0.377874 -0.925429 0.02814818 147 147 147
0.0454743279180114 -0.0164635294856739 0.00846019633460612 0.3862802 -0.9219859 0.02700967 91 91 91
0.0475372446736877 -0.0154368990840625 0.00640243538070293 0.3893012 -0.9183362 0.07143637 68 68 68
0.0493122709950988 -0.0149304980220508 0.00417913742709727 0.3710829 -0.9284787 0.01499644 41 41 41
0.0493601931294982 -0.0146155470790577 0.00574872143912883 0.3766045 -0.9234312 0.07378237 104 104 104
0.0483527554235046 -0.0149804467143726 0.00780341275382609 0.3973856 -0.9160737 0.05379367 57 57 57
0.0583792103490417 -0.0138929003658008 0.00670868404555888 0.09380142 -0.9946856 -0.04244708 48 48 48
0.035471834059674 -0.0186921471538257 0.0221765214984474 0.344285 -0.937138 0.05692226 77 77 77
0.0359516514501159 -0.018242012876482 0.0230293000524101 0.3273386 -0.9446723 0.02106292 101 101 101
0.0372228993138854 -0.0180350655498218 0.0251653964107093 0.2581192 -0.9654752 -0.03510172 61 61 61
0.0392498148641174 -0.0174400919856739 0.0241092319076118 0.2025074 -0.9791103 -0.0182696 69 69 69
0.0392617357930725 -0.0174129122676563 0.0222975487296638 0.1944559 -0.9798891 0.04476878 67 67 67
0.0376906765660827 -0.0193867796840381 0.0122919405286369 0.3851737 -0.9198401 0.07440058 89 89 89
0.0397495402059143 -0.0184526556911182 0.0124641532485542 0.3437258 -0.9376609 0.05142602 77 77 77
0.039213813658673 -0.0183454865398121 0.0146664703671989 0.3055601 -0.9483775 0.08493073 71 71 71
0.0397174729070251 -0.0179932230891895 0.0183896894042549 0.1812634 -0.972354 0.1472119 75 75 75
0.0409767998418396 -0.0180784577312183 0.016719611961132 0.1710913 -0.9771696 0.1259653 71 71 71
0.0423560513219421 -0.017746817487688 0.0122265989368019 0.2963219 -0.9547881 -0.02393713 113 113 113
0.0467696560582702 -0.0160887354793262 0.0141205067222175 0.4042008 -0.9035743 -0.1420393 37 37 37
0.0447707546910827 -0.0168629998149585 0.0102021271770057 0.3715103 -0.9279778 -0.02893682 90 90 90
0.0476715935430114 -0.0153997057857227 0.0102797771279869 0.4176331 -0.9072928 -0.04901311 83 83 83
0.0456182135304992 -0.016354691404314 0.0124166781489906 0.3876394 -0.9123154 -0.1319711 42 42 42
0.0374148262700622 -0.018115412610979 0.0188783133809623 0.2861382 -0.9490194 0.1322388 81 81 81
0.0374915970525329 -0.0179889315547657 0.0200069720332679 0.274859 -0.9556688 0.1055921 86 86 86
0.0412346495351379 -0.0170545691432666 0.0224221522395668 0.1458086 -0.9879788 0.05135907 71 71 71
0.0430117024144714 -0.0175194853725147 0.0183299804513511 0.1602879 -0.9809592 0.1096668 53 53 53
0.0450306309423034 -0.0173947924556446 0.0185110742633399 0.2125843 -0.9746515 0.06973121 85 85 85
0.0466736925801818 -0.0173494929256153 0.017776044685131 0.309415 -0.9507352 -0.01910198 141 141 141
0.0454104317388122 -0.0167528504314136 0.0201815391366539 0.2027171 -0.9761105 0.07819216 64 64 64
0.0468415392598693 -0.0168110245647144 0.0203255588595924 0.2691057 -0.9585353 0.0937664 71 71 71
0.0441789997777526 -0.0164806956233692 0.0211713785712776 0.1470769 -0.9842197 0.09838717 45 45 45
0.0456422938069885 -0.0166955107631397 0.0218892420117912 0.2119719 -0.9743962 0.07496639 62 62 62
0.0470095051488464 -0.0165919178905201 0.0229140693728981 0.297152 -0.9528895 0.06084651 135 135 135
0.0466257704457824 -0.0166934842052173 0.024381833750492 0.3025462 -0.9528438 0.0235451 59 59 59
0.0490963829717224 -0.0153350943507862 0.0146281743829307 0.392891 -0.9052542 -0.161714 53 53 53
0.0497440470418518 -0.0146029108943653 0.0108913058822212 0.3752914 -0.9260924 -0.03884938 56 56 56
0.049552120085675 -0.0141556376399707 0.0103071207587776 0.3763127 -0.9261243 -0.02612595 76 76 76
0.0529581679067199 -0.0135692471446704 0.00835502393889995 0.1095158 -0.9923033 0.05779694 93 93 93
0.0532939804753845 -0.0133305901469898 0.0102495277707634 0.1386013 -0.9903455 -0.002325785 73 73 73
0.0489124430379455 -0.0149000996532154 0.0124694580619392 0.4056635 -0.9056194 -0.1236555 43 43 43
0.0500798596105163 -0.0144651049556446 0.0139653111283836 0.3576486 -0.9214152 -0.1519262 63 63 63
0.0574677361211364 -0.0137899035396289 0.00876027591872783 0.03432804 -0.9990817 0.02563863 39 39 39
0.0559325588903015 -0.0128723496379566 0.0105501735990104 0.05378775 -0.998527 -0.007122618 76 76 76
0.0571319235524719 -0.0135351532878589 0.0145000392978248 0.1497661 -0.9869 -0.0599881 105 105 105
0.0512551439961975 -0.0144511574687671 0.0162006492202339 0.3175684 -0.9383039 -0.1368798 34 34 34
0.0513750685414855 -0.0152088517131519 0.0183141703193244 0.3107079 -0.9491005 -0.05166044 19 19 19
0.0524145735463684 -0.0149670952739429 0.0191131407802162 0.1800064 -0.9830965 -0.03345177 40 40 40
0.0477050913533752 -0.0160747879924488 0.0236073756997642 0.2961631 -0.9543428 0.03895023 104 104 104
0.0490084065160339 -0.0156806820811939 0.0221759105508384 0.3093283 -0.9440332 0.1145309 67 67 67
0.052574433203656 -0.0147123450221729 0.0216685111110267 0.1185948 -0.9908808 0.06395606 65 65 65
0.0552130116185729 -0.0147037619533252 0.0185550177877006 0.07369146 -0.9941425 -0.07905902 58 58 58
0.0590508354863708 -0.0140746945323658 0.0171597177569923 0.2418971 -0.9658159 -0.09319541 57 57 57
0.055037058707196 -0.0144882315578174 0.0207909668271598 0.07638741 -0.9970347 -0.009320161 72 72 72
0.0572278870305603 -0.0149225109996509 0.0206566924636421 0.1313019 -0.9913419 0.001057803 62 62 62
0.0595785750112121 -0.013736020940752 0.0149784857814369 0.2471128 -0.9665878 -0.0681423 162 162 162
0.0613376272878234 -0.0137001389445972 0.00672477729964824 0.2441149 -0.9650893 -0.09492405 123 123 123
0.0624089611730163 -0.0130641573848438 0.00774213917899699 0.3473157 -0.9321554 -0.1022653 164 164 164
0.0654073132237976 -0.0120542162837696 0.010612251836544 0.4224877 -0.8997231 0.1095562 68 68 68
0.0625049246511047 -0.0131160134257984 0.0120928908174095 0.3687353 -0.9237384 0.1036418 48 48 48
0.0649875773152893 -0.0118539446773243 0.0127816075866279 0.4224648 -0.8954577 0.1402817 94 94 94
0.0677340401372497 -0.0103957766475391 0.0123332167451438 0.3942176 -0.9086243 0.1378202 57 57 57
-0.0231037961283143 0.0433083659229565 0.00635330625224681 0.1364668 0.9482693 -0.2866395 58 58 58
0.0687175167760437 -0.0101019257487964 0.0119082654302177 0.3929053 -0.9107575 0.127068 51 51 51
0.0601542366704528 -0.0139120930614185 0.0209654892270622 0.3386308 -0.9391924 -0.05698175 17 17 17
0.0648715866765563 -0.0115988367976856 0.0200271631066856 0.4328951 -0.898008 -0.07863547 44 44 44
0.0604900492391174 -0.0135437363567066 0.0176135326211509 0.3366506 -0.9376015 -0.08700431 87 87 87
0.0650475395879333 -0.0107324236812305 0.0162108714168128 0.4195939 -0.9076752 0.008167406 83 83 83
0.0624570025167053 -0.0121998900356006 0.0176438415830192 0.4438578 -0.8953828 -0.03577692 56 56 56
0.0668706072530334 -0.0106703156413746 0.0130043650453147 0.4062231 -0.9020155 0.1461192 52 52 52
0.066054977293927 -0.0104769581737232 0.01529343672443 0.402147 -0.9142317 0.04957963 108 108 108
0.0662708653173034 -0.0101595038356495 0.0159463460032997 0.3885335 -0.9205647 0.0400289 98 98 98
0.069748915549237 -0.00914634408375736 0.0152172768895683 0.3564436 -0.9327825 0.05352336 62 62 62
0.0690772904119079 -0.00967658700367924 0.0193671757762489 0.3872392 -0.9215724 -0.02738598 88 88 88
0.0376387013158386 -0.018911015409441 -0.00313563398670583 0.3705312 -0.9263663 -0.06746888 39 39 39
0.0424839628896301 -0.0172598475398731 -0.00359676532101064 0.2811028 -0.9596709 0.003607205 88 88 88
0.0456662548741882 -0.0161205643596363 -0.0017619257385674 0.3285706 -0.9444414 -0.00847788 86 86 86
0.04432300459953 -0.016672860998125 -0.000916359346622514 0.3139971 -0.9490218 -0.02763234 38 38 38
0.0470254791936462 -0.0154740923824024 0.000226798135524703 0.3545671 -0.9321035 -0.07392709 62 62 62
0.0505595577916687 -0.0147703999461841 -0.00568781546902089 0.3090967 -0.9460133 0.09756089 59 59 59
0.0496160162648742 -0.0144060963573169 -0.00270634643387227 0.3188736 -0.9463163 0.05296292 51 51 51
0.0509227884969299 -0.0141174906673145 -0.00325108818363576 0.295377 -0.9545909 0.03884292 84 84 84
0.0507754458150451 -0.0144711846294117 -0.00562709323715596 0.3059245 -0.9470553 0.09744921 87 87 87
0.0486885679921691 -0.0152148121776294 0.0011101240699348 0.3668546 -0.9286984 -0.05419501 111 111 111
0.0510776413640563 -0.0141730421962452 0.00061534591365428 0.2894336 -0.9561741 -0.04426396 63 63 63
0.051530994292218 -0.0139474982204151 -0.00129803768944173 0.2506986 -0.9680202 -0.009329335 76 76 76
0.0536538733205383 -0.0134098643245411 -0.00207158676933675 0.1964903 -0.9805 -0.003351903 48 48 48
0.0551170481404846 -0.0131143444957447 -0.00310197226356893 0.1496338 -0.988216 0.0322327 75 75 75
0.05939868819328 -0.0131484383525562 -0.00156862787556081 0.1753653 -0.9843347 0.01822731 68 68 68
0.0537737978658264 -0.0140371436061573 -0.0062313055212441 0.2054427 -0.9759886 0.07238504 71 71 71
0.0490724219045227 -0.0151232594432544 0.00168252237487407 0.3701713 -0.9280866 -0.0403548 61 61 61
0.0529102457723205 -0.0141004437389087 0.00232838340449901 0.1942782 -0.9808096 -0.01638919 49 49 49
0.0508473290166442 -0.0144753569545459 0.00318113215613933 0.2823321 -0.9589084 0.02798864 40 40 40
0.0569639576634948 -0.0137499684276294 0.00310327358890147 0.148661 -0.9861048 -0.07414257 66 66 66
0.0556927097997253 -0.0135358685435962 0.00264485426593394 0.1333719 -0.9895595 -0.05462549 60 60 60
0.0572758091649597 -0.0132438057841968 0.000436949211841536 0.1616751 -0.9856879 -0.04775628 24 24 24
0.055328167792279 -0.0138642901363086 0.00452001639056773 0.1234444 -0.992344 0.003865027 73 73 73
0.0571679247579162 0.00861846266367916 -0.00367772332977681 0.5841331 0.8085065 -0.07145415 72 72 72
0.0580914391240661 0.00849937258341793 -0.000275147479290055 0.6107171 0.7872956 -0.08479542 64 64 64
0.0532220972737854 0.0123320704517651 0.00190414734531016 0.5875091 0.8058786 -0.0734349 83 83 83
0.0595785750112121 0.00736295042613033 0.00174413867641063 0.6487692 0.7607889 -0.0172861 67 67 67
0.0580433977803771 0.00902377424815182 0.00260025509048076 0.6438549 0.7650899 -0.009390038 78 78 78
0.0547572745046203 0.0109320765552807 0.00052987285304637 0.599148 0.7955798 -0.08985804 70 70 70
0.0542055739125793 0.0113007908878613 0.00195454307246776 0.5996202 0.7983245 -0.05597816 61 61 61
0.0578995121678894 0.0094789153156567 0.00155040867972941 0.650197 0.7580014 -0.05174715 117 117 117
0.0555967463216369 0.0108410006580639 0.00464765973735423 0.6116722 0.7911004 0.00416614 86 86 86
0.0612576378545349 -0.0126507395686817 -0.00231571249317555 0.3280838 -0.9442021 0.02904072 87 87 87
0.0652778519353454 -0.0109970683040332 -0.00760142258953481 0.419564 -0.9072581 0.02913403 71 71 71
0.0632245911321228 -0.0122740382137012 -0.00383148841213612 0.3851816 -0.9222497 0.03302439 119 119 119
0.0661988629064147 -0.0105015152873706 -0.00489108018230824 0.4018447 -0.914089 0.05442538 56 56 56
0.0661988629064147 -0.0103714579524707 -0.00382624320339589 0.3742192 -0.9261298 0.0473664 82 82 82
0.069748915549237 -0.00916958989521977 -0.00343711427997975 0.2844794 -0.9574326 0.04893197 102 102 102
0.0716039313039367 -0.00905491055867191 -0.0035476808960381 0.2701028 -0.9615246 0.05014919 86 86 86
0.0675421131810729 -0.00980187596699711 -0.00526836268257527 0.3476478 -0.9369653 0.03517032 79 79 79
0.0603461636266296 -0.0127290600719165 0.00199507423091502 0.2716547 -0.9611466 -0.04900002 98 98 98
0.0633684767446105 -0.0119028204860401 0.00150507934737773 0.4276944 -0.90381 -0.01432232 28 28 28
0.0608019007405822 -0.0130853766383838 0.00451883919883342 0.276428 -0.9548203 -0.109113 107 107 107
0.0665827168187683 -0.0100555533351612 0.00229512401271434 0.3456321 -0.9359654 -0.06713574 113 113 113
0.0697009934148376 -0.00994218530079838 0.00463719912219615 0.3977775 -0.9123363 -0.09703317 44 44 44
0.0714280976018493 -0.00889612378499027 0.00323415048766704 0.3619598 -0.9313552 -0.0395313 95 95 95
-0.0486497508325989 0.040369260889082 -0.0135398631508294 -0.04181905 0.943349 -0.3291562 40 40 40
0.065671242590863 -0.0101502055110645 -0.00201610974621205 0.4003197 -0.9160112 0.02583716 59 59 59
0.0664867533406799 -0.00990010442158695 -0.00103080026459126 0.3655888 -0.9305985 0.01820129 84 84 84
0.068645514365155 -0.00919176282307621 -0.0021332328731957 0.2804225 -0.9594641 0.02814111 137 137 137
0.0706124676427429 -0.00881518067738529 0.00121414907622905 0.3500967 -0.9366767 -0.008308996 91 91 91
0.0687414778432434 -0.001698028463335 -0.00802030913185506 0.88134 0.4719509 -0.02241019 53 53 53
0.065671242590863 0.00130831060984615 -0.0126024609024468 0.6825234 0.7288936 -0.05362804 66 66 66
0.0634884012898986 0.00293670950510982 -0.0120125835354271 0.6753877 0.7357171 -0.05071252 59 59 59
0.0642320288381164 0.00271581469157223 -0.0115208899195137 0.679557 0.7322939 -0.04413613 80 80 80
0.0692212952336853 -0.0023013466777515 -0.0111886685306969 0.880653 0.4360181 -0.1853064 73 73 73
0.0666306389531677 0.000205505472211875 -0.011545506637806 0.6818906 0.7298603 -0.04826059 106 106 106
0.0688374413213317 -0.00192059220692631 -0.00931156925510793 0.8765059 0.4717119 -0.09604834 77 77 77
0.0674462689122741 0.000723827463178672 -0.00323703638862996 0.6872554 0.7224182 -0.07610444 50 50 50
0.063032664175946 0.00336455164530758 -0.00550502292465596 0.6665528 0.7411935 -0.07962079 34 34 34
0.0611616743764465 0.00557743368723873 -0.00702908388924031 0.6366351 0.7678358 -0.07158152 115 115 115
0.0663428677281921 0.000486004930524864 -0.00871953121971517 0.6779373 0.7323841 -0.06336115 58 58 58
