ply
format ascii 1.0
comment File exported by Rhinoceros Version 7.0
element vertex 471
property float x
property float y
property float z
property float nx
property float ny
property float nz
property uchar red
property uchar green
property uchar blue
end_header
0.0659216422857201 0.0507126253752379 0.0243978709782387 0.8929445 0.2852021 0.3482958 53 53 53
0.0658624457808714 0.0196755924035048 0.0194987977253147 0.01090589 -0.5019359 0.864836 94 94 94
0.0672557078382354 -0.008495629064315 -0.0187751973267667 0.8382169 -0.3577241 -0.4116138 65 65 65
0.032516201089523 -0.00378082672979319 0.00978216876822158 0.01795405 -0.5006369 0.8654712 141 141 141
-0.0296199080756252 -0.0265169981965323 0.00624479509507841 0.02430561 -0.5036283 0.8635784 177 177 177
-0.0659771053691975 -0.0207322937013954 0.0175639726942682 0.027345 -0.4985932 0.8664047 139 139 139
0.0101173610364453 0.0931740374960888 0.0541774952618386 -0.6386178 0.5160927 0.5708027 56 56 56
-0.00583746914093508 0.0699343600078752 0.0468001557863243 -0.7079395 0.4259928 0.5633398 77 77 77
0.0670363903194451 0.0297123232226775 0.0265121480309934 0.04287983 -0.4951211 0.8677652 89 89 89
0.0558144585856062 -0.0225389920941661 -0.0308288925243108 0.791875 -0.4102618 -0.4523486 63 63 63
-0.051438360655947 -0.0481275178529292 -0.0283834650705482 -0.705844 -0.6599095 -0.2574951 95 95 95
-0.0726384057250171 -0.0364581040646546 -0.0177525464763231 -0.5293466 -0.8151307 -0.2352746 74 74 74
-0.0925206435365928 -0.0329238656847497 -0.00271629549176827 -0.6588352 -0.675965 -0.330163 91 91 91
0.043102972052341 -0.0577436915446097 -0.0308315895496721 0.4814934 -0.7506577 0.4524125 88 88 88
-0.0882569456340416 -0.0111253457775187 0.00414039200179173 -0.6760543 0.5941201 0.4358576 88 88 88
0.0585193180095236 -0.0302218743782661 -0.0230173506511029 0.8168432 -0.3890604 -0.42591 74 74 74
0.0269866339170228 -0.0104818889195839 0.00605277210422078 0.02012784 -0.5090471 0.8605033 114 114 114
-0.0137594028798671 0.00974244480209463 0.0285601671756577 0.03233038 -0.5008794 0.864913 131 131 131
-0.0335799921930628 -0.0477760224300818 -0.00809753740963892 0.02101688 -0.5005481 0.8654536 134 134 134
-0.0498021135302031 -0.0450304511265518 -0.00280066708136156 0.003081073 -0.5016846 0.8650451 127 127 127
0.0663998632362968 0.0407329295060634 0.0325520002730115 0.7131665 -0.09794761 0.694118 70 70 70
0.0306192593608841 0.0696988580423943 0.0620390063145873 0.0179198 -0.5009791 0.8652738 114 114 114
-0.0795280510710974 -0.00302740801202828 0.00805732891528704 -0.6821795 0.5286707 0.5051123 75 75 75
0.0626857409171859 0.0530107915431612 0.0332838718283703 0.9253162 0.1332171 0.3550256 56 56 56
0.0199268780081896 -0.0515907913794769 -0.0213852715753562 0.0301183 -0.4999601 0.8655246 124 124 124
-0.0943114794049311 -0.026216610844912 -0.0106864027516002 -0.6447964 -0.5572941 -0.523126 77 77 77
-0.0197439866612386 -0.0211212744550295 0.0077235788958635 0.0297892 -0.5150059 0.8566689 168 168 168
0.0384683101200745 0.0162848927195789 0.0227592244348704 0.02185107 -0.503975 0.8634418 213 213 213
-0.0470022572155195 -0.0120832995653406 0.0198625821625678 0.02347709 -0.5039247 0.8634285 129 129 129
0.003290061931287 0.00529549832739673 0.0220750471227405 0.02443657 -0.4990409 0.8662338 132 132 132
-0.0287738432949793 0.0324183284593631 0.0425675363069131 -0.6583694 0.4984826 0.5639724 58 58 58
-0.00137020906220853 -0.0677156772663314 -0.0284690591315609 0.01364571 -0.5034556 0.8639134 159 159 159
-0.033264800937594 -0.0491659526955064 -0.00900203465262989 0.01637167 -0.4922775 0.8702843 120 120 120
0.0381688315926794 0.0849502247220477 0.0500189928676478 0.5455317 0.7332078 0.4059574 92 92 92
-0.00514554182195504 -0.0780444345646716 -0.0434465458394805 -0.2726533 -0.8935333 -0.3567329 95 95 95
0.00413940128415513 0.04088895398236 0.047083966884179 0.02673143 -0.5047474 0.8628531 128 128 128
-0.0145886874272696 -0.0722509769092781 -0.0291813402243975 0.01163122 -0.5989984 0.8006657 139 139 139
-0.0270535761614008 -0.0109916845933666 0.0165887832801835 0.0244916 -0.5072169 0.8614703 129 129 129
0.0133355912068778 -0.0594540902768417 -0.0257030199340452 0.01865236 -0.4981937 0.8668651 144 144 144
0.067241504860343 0.0506880640765588 0.0230111114157268 0.9012378 0.2561375 0.3495196 29 29 29
0.0192898734100915 -0.0362427682799809 -0.0106154382098501 0.01858822 -0.5015582 0.8649241 242 242 242
0.0105420057459682 -0.00685484355851429 0.0119080704566979 0.01815064 -0.5099108 0.8600357 145 145 145
0.040172100019972 -0.0590430981680965 -0.03724967653015 0.7539945 -0.58309 -0.3024869 84 84 84
0.0238888447926429 -0.0732986390686936 -0.0557911942409564 0.7629019 -0.4112323 -0.4988674 50 50 50
-0.02220107249373 -0.040269648382081 -0.00496842385452834 0.0216287 -0.4843161 0.8746257 203 203 203
0.0593178065059541 -0.0115114889108383 -0.0299819577718682 0.8297272 -0.3937933 -0.3955752 67 67 67
-0.0393816442942589 0.0132986070102168 0.0362938654429225 -0.05123168 -0.402887 0.9138147 99 99 99
0.0503851929932764 0.0675503105355879 0.0500822964678867 0.8840075 0.0785346 0.4608288 97 97 97
0.0174882539649674 -0.0396730266959935 -0.0125352486075677 0.01545526 -0.4991997 0.8663492 108 108 108
0.0093382101703261 0.00384452273180713 0.019793851159249 0.02146882 -0.4983837 0.8666907 150 150 150
0.0106473597338161 -0.0759437009329302 -0.0667994021405279 -0.4333868 -0.8407207 -0.324599 55 55 55
-0.0232315897039115 -0.00767815680959494 0.0183311637320442 0.01472382 -0.5170979 0.8557996 153 153 153
0.0157154444502239 -0.0559482689292219 -0.0237259453629235 0.01974827 -0.5064335 0.8620529 103 103 103
-0.0272794653834461 0.0113887570358699 0.0324213134590021 0.004369965 -0.4973993 0.8675107 129 129 129
-0.0159310424440879 -0.00199385871766578 0.0208106010256764 0.02056479 -0.5024779 0.8643454 145 145 145
0.0299661500375112 0.0180167534787605 0.0256510997508629 0.01473432 -0.5003922 0.8656734 132 132 132
-0.0425550755961903 -0.0513724354316418 -0.00861533105342133 0.02556228 -0.4933747 0.8694412 122 122 122
0.0521985688826496 -0.0296435071462464 -0.032537399579721 0.7960145 -0.4143217 -0.4412464 41 41 41
-0.0198098057574567 -0.0646029096143192 -0.04751760735155 -0.6588225 -0.6577995 -0.3650378 46 46 46
-0.0319421719687321 -0.0459972031179543 -0.00716849995822377 0.00571283 -0.4963882 0.8680819 119 119 119
0.0272903080544151 0.00668089867904431 0.0182319226920966 0.01201762 -0.5059099 0.8625026 164 164 164
0.0755430353835589 0.0388314730809869 0.00505103848169974 0.9733692 0.1010466 0.2057718 78 78 78
-0.0601457546535444 -0.0423101991949633 -0.0275802180637324 -0.632638 -0.7160969 -0.2949142 62 62 62
0.041460927902254 0.00356327823508162 0.0130229561715788 0.02619611 -0.5037274 0.8634654 141 141 141
-0.0376801663410959 -0.062128715157858 -0.0188481842830789 -0.2983701 -0.9474368 0.1154938 64 64 64
0.00184244855989579 0.00348586749072211 0.0211230539898807 0.02247875 -0.4983623 0.8666774 137 137 137
0.0230157053313005 -0.0144427208482316 0.00420041338570948 0.02015394 -0.5052266 0.8627514 161 161 161
0.0623481087520599 -0.0297180573013707 -0.0146125569669731 0.4900939 -0.6640071 0.5647146 125 125 125
-0.0458298428590376 -0.056267076441 -0.0219662865286792 -0.6250085 -0.7252234 -0.2888171 60 60 60
-0.0516176084125286 -0.0485544501675008 -0.00511588979514294 0.02576659 -0.4984849 0.8665153 128 128 128
-0.0304551641662867 0.00414823696147049 0.0280974647420341 0.0289549 -0.4964926 0.8675579 112 112 112
-0.0161028545641466 0.0187177217044976 0.035288117409762 0.02396714 -0.5041592 0.8632782 133 133 133
0.0143853770181224 0.0534667539409426 0.0537009622326803 0.02834026 -0.4987317 0.866293 135 135 135
-0.0293175110899608 -0.060467639878871 -0.0393506270650783 -0.6863064 -0.6750611 -0.2706953 74 74 74
-0.0799660514949507 -0.0351683710849773 -0.0126715383188044 -0.4644878 -0.6791574 -0.5683276 75 75 75
-0.00154742598184265 -0.0507568064399415 -0.0165566923268293 0.02091183 -0.5002335 0.865638 147 147 147
0.0202619545030172 -0.0233834382883606 -0.00168704439492512 0.01570858 -0.4950953 0.8686966 167 167 167
0.019894102950385 -0.0627142341183116 -0.0294136565082832 0.0229786 -0.5025715 0.8642302 139 139 139
-0.0144275744212452 -0.0183847799022152 0.00887419474473811 0.01669929 -0.5086566 0.8608075 148 148 148
0.0523986755447088 0.0837422488438582 0.0387442712348582 0.7427974 0.5524687 0.3781935 66 66 66
-0.0755107657695624 0.00250277565383916 0.00957496510076244 -0.6751469 0.5067442 0.5360848 85 85 85
0.025354344826984 -0.0786210386990189 -0.0508883332019279 0.7422759 -0.4349402 -0.5097583 72 72 72
-0.0381306995059401 -0.0412879566148663 -0.00252170338118712 0.02872905 -0.5011923 0.8648589 231 231 231
-0.0116853427370471 -0.0752220588397754 -0.0345796570425443 -0.07156194 -0.7967812 0.6000154 110 110 110
-0.0225689804134137 -0.0537687864248353 -0.0146612379072733 0.01743686 -0.4991206 0.8663571 143 143 143
-0.00750663385210615 0.00895107794680383 0.0268565920867253 0.0215882 -0.5009914 0.8651829 136 136 136
-0.00167188603526069 -0.0260305343887901 0.000934710961750851 0.01895114 -0.5030876 0.8640276 206 206 206
0.00820437706510013 -0.0781543423951563 -0.0509890582600083 -0.5553955 -0.7632612 -0.3301032 45 45 45
-0.0105201088942515 0.0366915455270214 0.0466991299464898 0.02758758 -0.4991359 0.8660845 153 153 153
0.052522224036037 0.0763152654223587 0.0446212904346867 0.8341286 -0.01179785 0.5514439 66 66 66
-0.0260852636151436 -0.0668183594279759 -0.030648788636316 -0.8002538 -0.5531303 -0.2316046 60 60 60
0.0340238989171482 0.00270847961915899 0.0141368834527079 0.01741422 -0.5069065 0.8618251 228 228 228
-0.0908013777247101 -0.0105412504806046 9.87763016933596E-05 -0.6835772 0.5820162 0.4404309 83 83 83
-0.0482204174301337 0.0186276572330892 0.0293413059799471 -0.6360335 0.5569568 0.5340979 93 93 93
-0.0947153024013958 -0.021386865728549 0.00330014164339393 -0.7095181 0.4901394 0.5063077 118 118 118
-0.0318825056693721 0.0397285163805552 0.0336722675943554 -0.6753803 0.5304633 0.5123183 64 64 64
-0.0485740556285941 -0.0333743727268123 0.00513232685139881 0.01408443 -0.4995357 0.8661788 153 153 153
-0.0793503766170849 -0.0265309554649376 0.0161312006147306 -0.1223117 -0.3491558 0.9290479 99 99 99
0.0457412631472609 0.0363545436590762 0.0353623452206379 0.01558222 -0.5020586 0.8646932 107 107 107
-0.00746191317690936 -0.0288948951893757 1.8703721250124E-05 0.02445882 -0.4972087 0.8672861 141 141 141
-0.0267589104079393 -0.0335453570848838 0.000712490255806497 0.02777786 -0.4992911 0.8659889 220 220 220
0.049570090074377 -0.0426354927990895 -0.0307383183776098 0.8208438 -0.3764784 -0.4295109 81 81 81
0.047227172686839 0.00494185423104754 0.0131244044366386 0.0189589 -0.5051878 0.8628011 94 94 94
0.0246446488787502 -0.00144336644442289 0.0130279843617527 0.02019658 -0.4999775 0.8658029 135 135 135
0.0494073627263774 0.0235372474091731 0.0255803766994815 0.02134529 -0.5057495 0.8624163 97 97 97
0.0551477196923571 0.071298288257071 0.0390151731914136 0.8365897 -0.05163293 0.5453914 59 59 59
0.0356287040129017 0.0171628073689181 0.0239122132320891 0.019475 -0.4978715 0.8670321 198 198 198
-0.0655984547718109 0.0147770901685171 0.01310637326679 -0.6719162 0.563774 0.4802994 74 74 74
-0.0976437826528094 -0.0261424139568911 -0.00692642844855468 -0.7329972 -0.4658672 -0.495664 75 75 75
0.0189614991702705 -0.0739953960550017 -0.0370918590739152 0.0225816 -0.5007094 0.8653209 136 136 136
-0.0444042469427046 -0.0398698059476266 -0.000165076129539254 0.008184048 -0.4928874 0.8700546 141 141 141
-0.0898678854871582 -0.039627576862149 0.00909309703114319 -0.3212666 -0.6778857 0.6612555 107 107 107
0.00190178454427548 -0.0818587139807319 -0.0419485107610001 -0.5024277 -0.8573056 -0.1122206 91 91 91
-0.0189905464198663 -0.0722518315946836 -0.0282266763696064 -0.2380027 -0.7364059 0.6332938 172 172 172
0.00544507305318875 0.0462836421123434 0.0505501809092195 0.0253425 -0.4973145 0.8672001 129 129 129
-0.0230370264664916 -0.0682647343283598 -0.0343311098423953 -0.7696993 -0.5772779 -0.2726044 35 35 35
0.0514453411232432 0.0249149548354626 0.0261651495397483 0.01959405 -0.5154308 0.8567072 136 136 136
-0.0694226566950413 -0.0409536467000107 -0.0125199605816663 -0.5010356 -0.7191823 -0.4813939 70 70 70
-0.0262467567831886 -0.036926743429081 -0.00173176187866136 0.03006488 -0.5048443 0.8626867 158 158 158
-0.0152273054129699 -0.0520274304313464 -0.0146342877582192 0.01231702 -0.49601 0.8682294 201 201 201
-0.00733601290422881 -0.00871171709807217 0.0142097718974682 0.0216165 -0.4970279 0.8674653 155 155 155
-0.00946569056109903 0.0616106290936034 0.0465536775414361 -0.6788477 0.4912882 0.5457121 84 84 84
-0.00666540148166517 0.0612498563249548 0.0501865130920655 -0.6874577 0.4919011 0.5342614 66 66 66
0.0358811419480456 0.0192420451823119 0.025190406397583 0.01631086 -0.4936038 0.8695339 147 147 147
0.00216621875406586 -0.0757713094198778 -0.0347590075660756 0.001856492 -0.5130602 0.8583506 135 135 135
0.0055990938202406 -0.0175193144285899 0.00533527719650612 0.02734432 -0.502229 0.8643022 137 137 137
-0.0173023795053644 -0.032568167801488 -0.000433520546425925 0.02421242 -0.5079136 0.8610677 235 235 235
-0.00619162814716034 0.0640361111402836 0.0487940255688674 -0.7010579 0.4687652 0.5373799 85 85 85
-0.0641046768858042 -0.0456429227859099 -0.00934034492378744 -0.4839794 -0.7863004 -0.3840515 86 86 86
-0.00059845505798295 -0.0737428430276532 -0.0543131810754999 -0.3494279 -0.8564463 -0.3799998 79 79 79
-0.0106273629045712 -0.00243987919957589 0.0195399467132314 0.02473823 -0.4928695 0.8697515 199 199 199
-0.0113500658379264 0.0636180356433425 0.0436536357015382 -0.6943087 0.4678677 0.5468411 74 74 74
0.0429661070034415 0.0116042865653423 0.0184178744932365 0.01066014 -0.4959391 0.8682919 152 152 152
0.0789657807840407 -0.00168282882347381 0.00195063891580821 0.3171108 -0.4939714 0.8095881 63 63 63
-0.064875664416439 -0.0338877949043843 0.00801391463107232 0.01624091 -0.4996108 0.8660977 164 164 164
-0.0635250087097008 -0.0467226506596112 -0.0012631605504444 -0.07104959 -0.6398902 0.7651748 132 132 132
-0.0580775905307589 -0.0173778290856899 0.0183594102977623 0.006148446 -0.5056544 0.8627142 134 134 134
0.0477719672452181 -0.0289459386342925 -0.0406240304000929 0.8219007 -0.4323892 -0.3708352 37 37 37
-0.00166386787551343 0.0633346259867584 0.0539727067187736 -0.7115104 0.4731003 0.519547 75 75 75
0.00892333658500233 -0.0302235636453367 -0.0041629646372196 0.01402898 -0.4998887 0.865976 213 213 213
-0.0781765747704255 -0.0417192449432742 0.00512014239582653 0.0224669 -0.4983397 0.8666907 152 152 152
0.0244201301079152 0.0923534603970377 0.0516733218679523 0.5448775 0.7257431 0.4200066 55 55 55
0.0174379722228442 0.0239998717028098 0.0324028347091525 0.02192293 -0.501189 0.8650601 138 138 138
0.0709235437728504 0.0042031801488065 -0.0180307321979373 0.7898977 -0.414477 -0.4519628 61 61 61
0.0367851974480606 -0.00384934850996088 0.00878104957242698 0.01583572 -0.5005861 0.8655419 140 140 140
0.0622683594170361 0.0460846609599017 0.0380734428471606 0.47474 -0.1882567 0.8597565 97 97 97
0.076674532143016 0.0338653560652495 0.00983149060711569 0.9370539 0.2011554 0.2854236 49 49 49
0.0659655696578771 -0.0198811598917372 -0.008370334481129 0.2158854 -0.6050631 0.7663499 91 91 91
-0.0904149332542699 -0.0387565831347525 0.00393108984760115 -0.723321 -0.6472211 -0.2406482 73 73 73
-0.018303196388898 -0.0713565911175909 -0.0401282353478192 -0.7217321 -0.5809117 -0.3763567 51 51 51
0.0499705061017135 -0.031384067662886 -0.0354382239312984 0.7924882 -0.4209647 -0.4413062 42 42 42
-0.0773903616825851 -0.0365161097205671 -0.0128131303168079 -0.4444344 -0.6836591 -0.5788682 53 53 53
0.00733461052594153 0.0466731993763458 0.050288293640166 0.01220978 -0.4973741 0.8674503 136 136 136
0.0216985795342688 0.0416660822277239 0.0440576117345901 0.03022578 -0.5014796 0.8646413 132 132 132
-0.0685450069723315 -0.0374338567333281 -0.0218308472202697 -0.6023252 -0.791591 -0.102898 82 82 82
0.0101249307710272 -0.0761058000953507 -0.0617683903566012 -0.5971237 -0.7996857 -0.06281833 36 36 36
-0.012852348628833 -0.0335884518713652 -0.00204057204552022 0.01561507 -0.5067909 0.8619276 136 136 136
0.0527185319837091 0.0289875551488974 0.028890830334196 0.02792349 -0.506968 0.8615125 112 112 112
-0.0246880243485847 -0.0582034743817628 -0.0172502951294934 0.01716857 -0.4978318 0.8671037 155 155 155
-0.0410280920219788 -0.0503374227323043 -0.00841020532721332 0.02435399 -0.501523 0.8648015 145 145 145
0.0257407706266157 0.0580057801580143 0.0548333417963186 0.0211462 -0.4958136 0.8681715 99 99 99
0.0591014553217795 -0.0206349622185227 -0.025922750874243 0.8488207 -0.3526476 -0.393882 68 68 68
-0.0300292934090738 -0.0655387413820334 -0.020581310491522 -0.5018844 -0.6967661 0.5124735 79 79 79
0.063299646631775 0.0236244785423865 0.0228477473432994 0.02705938 -0.5091105 0.8602757 91 91 91
-0.0720006210559827 -0.0197811404613393 0.0193190729508617 -0.059562 -0.3848515 0.9210547 106 106 106
-0.0529045029093007 0.018643848640866 0.0244278191893361 -0.6202296 0.5486957 0.5605785 74 74 74
-0.0910854096012494 -0.0172374507082564 0.00525325846207259 -0.6963106 0.5303954 0.483562 83 83 83
-0.0197928491926174 -0.0668192754759298 -0.0244008997745028 0.02581796 -0.5068533 0.8616456 150 150 150
0.0206414845658243 0.0892502320532624 0.0611283053052696 0.4141515 0.7647702 0.4935638 83 83 83
-0.0231607506955678 0.0280344284766556 0.0434089565907657 -0.04748745 -0.4728464 0.8798643 117 117 117
0.0283569036359665 0.0364829546903416 0.0390718326370546 0.02191367 -0.5028401 0.8641016 107 107 107
-0.022661758026882 -0.0668956233222977 -0.0386738133249871 -0.7497687 -0.5675646 -0.3401724 57 57 57
0.0163586616894924 0.057727993791407 0.0564144837159111 0.02230368 -0.5077605 0.8612095 119 119 119
-0.0953954537406605 -0.0210259357395972 0.00176860876957435 -0.7170089 0.502276 0.4833395 94 94 94
-0.0119027912365723 -0.00148594631280918 0.0202722500400247 0.01729802 -0.4953582 0.8685166 126 126 126
0.0495894701430522 -0.0220052271431754 -0.00674534015721029 0.01958069 -0.4944865 0.8689647 132 132 132
-0.0301492521537532 -0.0597001661299719 -0.036992412665815 -0.6702598 -0.708114 -0.2220953 61 61 61
-0.0169610329061847 -0.0359476757031163 -0.00291490304271408 0.0217419 -0.5015413 0.8648605 229 229 229
0.022047721706222 -0.0694728865611918 -0.0346197633273076 0.01641165 -0.4926744 0.870059 127 127 127
-0.028963142662993 -0.0132059323841032 0.015576745200642 0.02502414 -0.5007759 0.8652151 124 124 124
-0.0562727010154531 0.00688397108456273 0.0285686603548336 -0.6530221 0.506395 0.5631396 39 39 39
-0.0130002917428169 -0.00616755545613024 0.0173992424359694 0.01092607 -0.5078686 0.8613653 221 221 221
-0.000198177137492372 -0.0755763393212887 -0.051439679445098 -0.3181771 -0.8615844 -0.3955196 88 88 88
-0.0628197835895019 -0.012175943316205 0.0229263342190529 -0.1080391 -0.3464808 0.9318147 130 130 130
0.0509158814065596 -0.00867573716750303 0.0025381567703745 0.0232383 -0.5041045 0.86333 117 117 117
0.00159689094523507 -0.0722924359582748 -0.0323724113230615 0.02425401 -0.4980961 0.8667826 125 125 125
-0.0579552355208226 -0.0432890597743649 4.81757814790318E-05 0.02614564 -0.4916773 0.8703849 125 125 125
0.0206962457210218 0.0652886870212839 0.0609740317294298 0.02221243 -0.5135775 0.8577557 128 128 128
-0.0121875126194806 -0.0413280215274814 -0.00769479532141892 0.03511147 -0.5045021 0.8626962 141 141 141
-0.0161336799891081 -0.00298171301278649 0.0200838307115618 0.0293185 -0.4933462 0.8693388 167 167 167
0.0199574651750618 -0.0578754947101585 -0.0260478900096885 0.0262553 -0.501114 0.8649829 122 122 122
-0.0319620020209608 0.0352702644199641 0.0371657941359902 -0.6571148 0.5460441 0.5196499 94 94 94
-0.00709021661850562 0.0595453170218447 0.0504131923443172 -0.6825422 0.5029086 0.5303009 74 74 74
-0.0196445143447148 0.0166101400223393 0.034645521705823 0.0239959 -0.5067493 0.8617594 116 116 116
-0.0203211241817045 -0.0712866159505334 -0.0334955615661957 -0.7598449 -0.6313366 -0.1550802 79 79 79
-0.0378757307221558 -0.0545412801083247 -0.0398698602638616 -0.6546155 -0.7386113 -0.1610334 46 46 46
0.0584583015227516 0.0691932071466712 0.0263629715613808 0.9534097 0.1815257 0.2409531 32 32 32
-0.0471589723676775 -0.0261115514268184 0.0100121490945046 0.02010421 -0.5061817 0.8621925 139 139 139
0.0153197945621595 0.0672685475665262 0.0634508321886463 0.01226874 -0.4978812 0.8671585 119 119 119
0.0711082858456553 -0.00921073924208637 -0.00179540013469859 0.02248077 -0.5033872 0.8637685 112 112 112
-0.07029209032244 -0.0406056673448667 0.00433938178420629 0.02028742 -0.4951231 0.8685859 160 160 160
-0.0146011530137717 0.0236043787347797 0.0387280244560163 0.02313935 -0.4966931 0.8676177 121 121 121
-0.0178904929651948 -0.0270466895179005 0.00335827330249067 0.01284417 -0.4950033 0.8687962 228 228 228
0.0109369175898504 0.0268320403571425 0.0356595170052622 0.02389718 -0.4982281 0.8667166 226 226 226
-0.0432513843340776 -0.0475647064837865 -0.00587320277376069 0.02706887 -0.5197844 0.8538685 172 172 172
-0.0468100232304982 -0.0388566558234913 0.000639352496911716 0.005968017 -0.4999052 0.8660595 170 170 170
-0.0393760955730205 0.0238006550347125 0.0356838697594364 -0.6550947 0.5435048 0.5248367 68 68 68
-0.0267512114298456 0.0144838105229026 0.0347393456155625 0.01498321 -0.502298 0.8645648 153 153 153
0.0587010606551379 0.0644438572804547 0.0355058690386122 0.88286 0.2739744 0.3814396 48 48 48
-0.0268182721921399 -0.0314086320890863 0.00225818807869232 0.02351598 -0.4871355 0.8730097 236 236 236
-0.0451995633299509 -0.00972132964563932 0.0211647762141942 0.01367881 -0.5108882 0.8595384 126 126 126
0.0395809064601846 -0.0155491829574561 0.0001296805491387 0.01380557 -0.503719 0.8637572 117 117 117
-0.0065928926692127 -0.0613148441417486 -0.0230885664520692 0.007384545 -0.4942801 0.8692713 205 205 205
-0.00842530591467794 0.00319172611173157 0.0229014327488106 0.02259275 -0.503244 0.863849 125 125 125
-0.0192431736720033 0.0528048147886644 0.0401963982313295 -0.6766065 0.5000566 0.5405063 87 87 87
0.0106165990369611 -0.0343790077110979 -0.00752145298938295 0.0173112 -0.5073124 0.8615884 134 134 134
-0.0092681233921561 0.0636691311233486 0.0459172200309944 -0.6820133 0.4672639 0.5626031 89 89 89
-0.0265614721461542 -0.0603576802194534 -0.0426464167411609 -0.6984906 -0.6391653 -0.3218363 77 77 77
0.0406388507322526 -0.0481917798557694 -0.0422699253411523 0.7909887 -0.4113422 -0.4529177 59 59 59
-0.0169049027558859 -0.013604509673965 0.0126609701663868 0.01747257 -0.5018237 0.8647934 137 137 137
-0.004131665303166 -0.076310135042279 -0.0475677977147077 -0.3518512 -0.8673831 -0.3519196 76 76 76
-0.0710231456825876 -0.00487168444812069 0.019834908180875 -0.6639479 0.5489945 0.5077186 94 94 94
0.0310955625196092 -0.0308749349751256 -0.00918143501710544 0.01911422 -0.4974082 0.8673061 241 241 241
0.0514155406802357 0.0426927557478844 0.0388926690709871 0.0287303 -0.4961758 0.8677466 122 122 122
-0.080959505761633 -0.00950103638441147 0.0119864452855991 -0.6339768 0.6421313 0.4309766 65 65 65
0.041583472445244 -0.0380348750785291 -0.0160747499548764 0.02169468 -0.500846 0.8652645 129 129 129
-0.0430936757241107 -0.0560500106351969 -0.0248992193263221 -0.5644223 -0.7739299 -0.2871584 51 51 51
0.000558552444991367 -0.0768451318274896 -0.0496901394727291 -0.3005606 -0.8693072 -0.392388 99 99 99
-0.00891312553546308 -0.0341647962889913 -0.0033606611012611 0.01869786 -0.5074654 0.8614693 169 169 169
-0.0432497392053737 -0.0552132095118394 -0.0284993408535781 -0.5847157 -0.7752259 -0.2390237 67 67 67
-0.0267538488177861 -0.0614927945279971 -0.0188605169505666 0.03048476 -0.4885317 0.8720134 166 166 166
-0.0331147330785644 -0.0539651103577039 -0.0125167781371454 0.01838374 -0.5048366 0.8630192 165 165 165
0.0609621707484407 0.0300350577521449 0.0278416079502019 0.02297992 -0.4981593 0.8667809 104 104 104
-0.00909939289832451 -0.0779880465891296 -0.041967824312193 -0.3806234 -0.8753734 -0.2980724 72 72 72
0.0194814488178072 -0.0151264034713188 0.00439026592719211 0.0259207 -0.5048506 0.8628175 175 175 175
0.0419554303682834 0.0759895939754687 0.062037454646286 0.525085 0.1518029 0.8374017 117 117 117
0.00115871500898734 0.0597725492949792 0.0598379526445323 -0.5119321 0.05857729 0.8570264 75 75 75
-0.0166007734863163 -0.0393518775276684 -0.00543715857572563 0.009897487 -0.4860071 0.8738988 221 221 221
0.0573352094456392 -0.0362004823076856 -0.0181676061971318 0.2665391 -0.6477169 0.7137365 115 115 115
-0.0899651051632051 -0.034330405843279 -0.0040287292983136 -0.745672 -0.5972583 -0.295391 80 80 80
-0.0714782541730399 -0.0304704205870943 0.0120447576733853 0.01413395 -0.4967155 0.8677983 129 129 129
0.03765763678485 -0.0510205622590671 -0.0450900275743538 0.7960807 -0.4311414 -0.4247029 39 39 39
-0.0410069042342882 -0.0184422711557666 0.014429500204455 0.01752975 -0.5007276 0.8654274 146 146 146
0.00678642171212829 0.0197299422535382 0.03148498854076 0.0199284 -0.504442 0.8632156 238 238 238
-0.0802097247487654 -0.0454722430021952 -0.00300769917332683 -0.4985746 -0.7591612 -0.4184467 44 44 44
-0.0229379000130274 -0.0315380239202294 0.00113034000688478 0.02275585 -0.4913848 0.8706452 228 228 228
-0.00770464286602035 -0.049939332927456 -0.0148616681503487 0.01995792 -0.5116932 0.8589364 131 131 131
0.0129941182457203 0.00641080285223961 0.0208509920613419 0.02380039 -0.5018311 0.8646381 157 157 157
-0.0462479481853926 0.0277178003574428 0.0257907053551152 -0.6348971 0.5599366 0.5323314 64 64 64
-0.00663000650470869 0.0662945172534752 0.0473242847340987 -0.6984445 0.4474999 0.5584973 80 80 80
-0.0746236967478437 -0.0354318504507218 0.00888958387863198 0.02184722 -0.4987276 0.8664834 131 131 131
-0.0101584120484675 -0.0570762229521016 -0.0193793314796504 0.02871276 -0.5087059 0.8604614 212 212 212
0.0156474456471152 0.0957403019084155 0.0553103132876205 0.1214592 0.9387127 0.3225928 90 90 90
0.0569911519230901 -0.0316901078690575 -0.0149631924787025 0.02331336 -0.5003231 0.8655248 119 119 119
0.0759628108839236 0.0143292002164179 0.0137702443057787 0.03212877 -0.500031 0.8654113 57 57 57
0.00568493528979053 -0.0219051068859164 0.00207165585610364 0.02040639 -0.500205 0.8656665 170 170 170
0.0324736392839053 -0.064668030763112 -0.0335827970932312 0.02770451 -0.499759 0.8657213 112 112 112
-0.0768202325692506 0.00177849542391706 0.00858625333347757 -0.6757612 0.5088559 0.5333033 86 86 86
-0.0279537541678194 0.0150074050688298 0.0352150796782001 0.01355747 -0.5042014 0.8634797 120 120 120
-0.00295038180742457 0.0689065352561506 0.0501977745096578 -0.7134 0.4486386 0.5383158 67 67 67
0.0140706835898694 -0.0387855841725833 -0.0112835141180658 0.02410911 -0.5034478 0.8636892 152 152 152
-0.0634739202896393 -0.0426272621427166 -0.019409287703247 -0.7569225 -0.6029572 -0.2520136 82 82 82
0.00942964867941098 0.0346451702048125 0.041500910154141 0.01854496 -0.5049291 0.8629616 124 124 124
0.00524403471597878 -0.058261301234722 -0.0231364733432853 0.0205432 -0.5074523 0.8614349 223 223 223
-0.069280312956459 -0.0113290894817326 0.0221376607484323 -0.3447047 0.02083415 0.93848 74 74 74
-0.0565820181518717 -0.0153017286418571 0.0194391218513418 0.01065633 -0.5074167 0.861635 129 129 129
0.0423659498557689 -0.0417429376234848 -0.0421058698193957 0.8081963 -0.4093699 -0.4233615 65 65 65
-0.0306243410885481 0.0390288767893052 0.0358513387211093 -0.6723677 0.5251331 0.5216866 69 69 69
0.0256598527443455 0.0592823620156504 0.0556450772315994 0.02244739 -0.4969707 0.8674769 100 100 100
0.00352138362295618 -0.0199178966712503 0.00408208682989802 0.01934697 -0.5006071 0.8654584 147 147 147
-0.00220368160576578 0.0484873707925666 0.0535381379778184 0.02879817 -0.5071431 0.8613806 100 100 100
-0.0552722861190516 -0.0309144819122587 0.00793954706481176 0.03318721 -0.5058154 0.8620031 169 169 169
-0.0034107627213027 -0.0176225212688816 0.00709153144560354 0.02185695 -0.4960235 0.868034 139 139 139
-0.0592855662695291 -0.0306125450956951 0.00930077194468132 0.0223715 -0.5078215 0.8611718 139 139 139
-0.0171444633485884 -0.0341767434963105 -0.00171013105595574 0.02094384 -0.5063418 0.8620785 233 233 233
0.0375119338562597 0.0455041765805557 0.0435002274281997 0.0141311 -0.5017132 0.8649186 146 146 146
0.0157115228351987 0.0815944952705017 0.0659585640467317 -0.709306 0.4560735 0.5374774 57 57 57
0.0084250152116474 -0.0816826191389488 -0.0405246282601607 -0.1034767 -0.7270552 0.6787365 135 135 135
-0.0622346019568618 0.0186879635523163 0.0145416381267695 -0.6588821 0.575918 0.4839347 69 69 69
0.0704658655488326 0.011690706133836 0.0129530792698176 0.02148826 -0.4985112 0.8666168 106 106 106
-0.0704020353522528 -0.0207357337237477 0.0187487495324172 -0.02953076 -0.452792 0.891127 135 135 135
-0.0455310965374012 -0.0269918914329319 0.00906301373739826 0.02022373 -0.4996307 0.8660024 134 134 134
0.0682409915834863 -0.00547413020234289 -0.0175491211089566 0.8438051 -0.3509141 -0.4060201 55 55 55
-0.0436378565217916 0.0283321088254513 0.0279780947801657 -0.6640788 0.5426411 0.5143345 83 83 83
-0.00641512038546033 -0.0397570850859834 -0.00774952710354221 0.02078861 -0.5024194 0.8643741 131 131 131
-0.00775022007547443 -0.0780104741322358 -0.0441914203905114 -0.2915466 -0.8471947 -0.4441416 57 57 57
0.00621530955065008 -0.068592966913241 -0.0308178827829417 0.02807372 -0.5006167 0.8652137 146 146 146
0.037600144403775 -0.0551953702316963 -0.0430951618690145 0.7693356 -0.4291634 -0.4732246 62 62 62
-0.027727430624239 -0.0244421133288524 0.00733138928171839 0.02021918 -0.5046504 0.863087 148 148 148
0.0180636276270203 0.0432693457264441 0.0458487956868842 0.02868779 -0.4947571 0.8685576 138 138 138
0.0304126782696481 -0.0254183501790097 -0.0051768002565622 0.02223728 -0.5066801 0.8618473 224 224 224
-0.0345565267205528 0.0221533528773359 0.0406490579853465 -0.4183186 0.06593609 0.905904 121 121 121
-0.0505269680006268 -0.0425598298719765 -0.000826362457661267 0.01837005 -0.4914271 0.870725 126 126 126
0.0341363355579709 -0.0593089458581535 -0.0455970037404154 0.7974982 -0.4384803 -0.4144053 73 73 73
-0.0523876472176257 -0.0187953248681656 0.0162019585747272 0.012751 -0.4955531 0.8684841 150 150 150
0.0212484360640866 -0.0874438076599495 -0.0537671765600253 0.1804343 -0.7661579 -0.6168027 42 42 42
-0.0814375426911584 -0.0268640921791989 0.0162716620476726 -0.2538827 -0.2503588 0.9342719 121 121 121
-0.00900802198873851 -0.0689027476684232 -0.0279812072494677 0.02867407 -0.509328 0.8600946 131 131 131
0.0124666346879585 0.0125622675039043 0.025202681383703 0.02555272 -0.5007384 0.8652214 136 136 136
-0.0710846407107391 -0.0156525301486832 0.020933937724511 -0.228634 -0.1530202 0.9614111 94 94 94
-0.090254428134847 -0.0334289717664282 -0.00736702782970788 -0.7163029 -0.5895561 -0.3732744 65 65 65
-0.00202219831588257 -0.0618885446644022 -0.0241878513167821 0.01428541 -0.501483 0.8650495 210 210 210
-0.0925923420257915 -0.0289716505697049 0.00890361342678542 -0.6933292 0.4795095 0.5379269 102 102 102
-0.0501883155238256 -0.0204758416017796 0.0145575126409648 0.01748868 -0.4977315 0.8671548 154 154 154
0.0065206072445263 -0.077164926486559 -0.0502302484668492 -0.4728216 -0.8109295 -0.3447218 60 60 60
-0.0503666063086721 0.00244155859202522 0.0308052936271829 -0.05364219 -0.4514716 0.8906716 107 107 107
0.0373032321892386 0.00774354570086633 0.0169976648617845 0.01998359 -0.5000526 0.8657644 177 177 177
-0.0123211367448843 -0.06872817856109 -0.0267723382772727 0.01281169 -0.5050881 0.8629727 127 127 127
-0.0486658622540328 -0.053783455955879 -0.00923625108865661 0.02019362 -0.5056626 0.862495 155 155 155
0.0158820833570732 0.0889801389950327 0.0632376726594171 -0.3511407 0.6774691 0.6463249 79 79 79
0.0728408756519192 -0.014173460249931 -0.00566278185688746 0.5332966 -0.7675032 0.3557155 78 78 78
0.0791000428457935 0.000486455769765248 0.00341169811133568 0.3135294 -0.4463966 0.8381106 99 99 99
0.0192937390279884 0.0645871950194052 0.0602807245147158 0.03009967 -0.5055799 0.8622546 181 181 181
-0.00814891427951325 0.0018914017858993 0.0218368498700692 0.02156547 -0.4975555 0.867164 155 155 155
-0.0663480492267929 -0.00260414211512305 0.0230027257183597 -0.5546544 0.3401802 0.7593654 75 75 75
-0.0945457617627361 -0.0303673949937164 -0.00528735916573592 -0.640054 -0.6664863 -0.3822655 69 69 69
-0.0933705311269191 -0.0188509672655779 0.00309465843307138 -0.7012798 0.5276015 0.4794197 74 74 74
-0.0233692203373415 0.0562501066732881 0.0340161229764017 -0.6819147 0.4850207 0.5474917 51 51 51
-0.026814689643758 0.0422186796659303 0.0383362941160957 -0.6613654 0.508199 0.5516608 91 91 91
-0.0206919857619208 0.0243320795782513 0.0402979750493548 0.008759388 -0.4986562 0.8667556 121 121 121
0.0290020335560999 -0.0341920585598261 -0.0107735738653054 0.01826838 -0.5057718 0.8624738 216 216 216
0.0343970194081225 0.0538328423132668 0.050079958470135 0.02021291 -0.4941977 0.8691145 105 105 105
0.0566927884809618 0.00896364386609938 0.0138261492196465 0.02769451 -0.4957281 0.8680361 235 235 235
-0.0482547480678805 0.00697663802098791 0.0334834496399208 -0.2318503 -0.2215386 0.9471886 83 83 83
-0.0260965054638751 0.0526238674516981 0.0331223729495799 -0.685292 0.4925075 0.5364804 72 72 72
-0.00337853828344725 0.0323006567492781 0.0425579815628985 0.01712551 -0.4981484 0.8669227 109 109 109
0.0363095037890018 -0.0229662559450128 -0.00472208682188696 0.02564161 -0.4993749 0.8660064 155 155 155
-0.0977065029361972 -0.0233213491530444 -0.000211487334080662 -0.7218123 0.4998313 0.4787021 77 77 77
0.0100383926063108 -0.0288972109624073 -0.00354524070606321 0.01434963 -0.5045933 0.8632379 234 234 234
-0.0322235484861184 -0.0567834135995025 -0.0435358345970847 -0.5743886 -0.7795323 -0.249814 73 73 73
-0.00467062214124647 -0.0109240315737258 0.0124222048856721 0.01676697 -0.5056819 0.8625571 122 122 122
0.0249708063274805 -0.0735112524807418 -0.0380126173184526 0.02039179 -0.5030449 0.8640197 137 137 137
-0.0235294268340871 -0.0632275082818683 -0.0443523373505354 -0.7142547 -0.6011358 -0.3584354 71 71 71
-0.0589905480955877 -0.0110165887345428 0.0225027082905087 0.007395509 -0.4947038 0.8690302 110 110 110
0.0338889089582679 -0.0261584941607664 -0.0063485933735325 0.02809726 -0.4930761 0.8695323 218 218 218
-0.0569961945534598 -0.0139201745177235 0.0205951982324095 0.007019501 -0.4948306 0.8689611 127 127 127
0.0173866796143867 -0.0592927881707035 -0.026335388681391 0.01864445 -0.5081807 0.8610486 104 104 104
-0.0692956556548605 -0.0299771680229155 0.0118366171488012 0.008000826 -0.5053097 0.862901 151 151 151
0.0254196755741685 -0.08591689984434 -0.0467148179925581 0.458266 -0.7213783 0.5192357 140 140 140
0.0294285816783151 -0.0471864309502377 -0.0201976343276484 0.01211669 -0.5054628 0.8627633 105 105 105
0.0542483697924379 -0.00433156442607774 0.00482026659725138 0.01511457 -0.4997261 0.8660516 120 120 120
6.87058893622527E-05 -0.0102252407081735 0.011561660104135 0.02449495 -0.5077447 0.8611593 121 121 121
0.0381072624664345 -0.0478061774261718 -0.0224754612824438 0.01957908 -0.5015096 0.8649305 155 155 155
-0.0026381291455384 -0.0758321514034013 -0.0347351234991951 -0.1683215 -0.5638913 0.8085138 77 77 77
-0.0740405245262457 -0.0451824335759583 -0.00659518618502458 -0.2411765 -0.7691036 -0.5918728 45 45 45
-0.0467702182778309 -0.0547159788277818 -0.0102809163258396 0.01649863 -0.4964844 0.8678888 155 155 155
-0.0741338405795502 -0.0361515431689776 -0.0172477114838908 -0.5323976 -0.8091959 -0.2485049 74 74 74
-0.00781817963298348 0.0153006396700301 0.0314916118853342 0.02552587 -0.5106724 0.8593964 169 169 169
0.0214334853232812 -0.0563399023875351 -0.0251877812840105 0.0278704 -0.4982867 0.8665643 138 138 138
0.00796957122371422 -0.0807306340179235 -0.0396526130716629 -0.03124551 -0.5816669 0.8128267 169 169 169
-0.0114993872254039 0.030067155970656 0.042661141994648 0.01768447 -0.5069817 0.8617754 94 94 94
-0.0529069144194763 -0.0330356025558054 0.00621475781275255 0.01984499 -0.4939509 0.8692633 134 134 134
0.0557195845313672 0.0772387226050015 0.037695128424675 0.9119177 -0.0009175682 0.4103722 49 49 49
0.0318438768691087 0.077131412962647 0.0660864569636158 0.2552811 -0.04116858 0.96599 107 107 107
0.021704026521935 0.00307698892800112 0.0168727085753616 0.0296503 -0.4978154 0.866776 159 159 159
-0.0324728559471352 -0.0371114666916135 -0.00060949813343808 0.01012456 -0.4939654 0.8694226 241 241 241
-0.0665541998530297 -0.0128946468869655 0.0225387111459018 -0.2551607 -0.1885567 0.9483351 97 97 97
0.0154063389681549 -0.0850277633952368 -0.0485100128957958 -0.6958551 -0.7068936 -0.1268351 54 54 54
-0.0296762383597371 -0.044801077181913 -0.0066560448030995 0.004569578 -0.4989257 0.8666328 126 126 126
-0.00330462594059622 -0.00918959843243794 0.0132057629224226 0.01890406 -0.5013881 0.865016 147 147 147
-0.0535733932707236 -0.00689071101881655 0.0249297571869102 0.01649061 -0.4885358 0.872388 97 97 97
-0.046373800731339 -0.0590123679606731 -0.0159124224347797 -0.4758531 -0.8663118 -0.15188 42 42 42
0.062524635957236 0.0549588373733425 0.0309132748847457 0.9418251 0.1688025 0.2906393 43 43 43
-0.0133834327048339 0.0333695941970293 0.0452443065272159 0.0209137 -0.4983772 0.866708 128 128 128
0.0143080421506929 0.0883037660605483 0.0607820438181375 -0.6451029 0.5378801 0.5427036 62 62 62
-0.00472390027794845 -0.0360263610590261 -0.00543913206631114 0.009772287 -0.4990996 0.8664895 125 125 125
0.0353850322560327 0.0647424443715525 0.0576280027111544 0.01838146 -0.4961103 0.8680649 138 138 138
-0.0169596440856128 -0.0736144905111871 -0.030073663409742 -0.2234656 -0.6812748 0.6970852 91 91 91
-0.095965346494578 -0.0230103242353057 0.0018222494310664 -0.7183019 0.4873739 0.4964968 85 85 85
0.0387511653242552 -0.0351967105837427 -0.0137181075915837 0.02045611 -0.4952357 0.8685178 149 149 149
-0.00900831048593709 -0.0776181926923698 -0.0376281173589894 -0.3192705 -0.7806087 0.5373233 86 86 86
0.0282898396132403 -0.0640421972530623 -0.032076633571463 0.0308606 -0.4997414 0.8656247 77 77 77
0.0201855492754288 -0.028436890537979 -0.00513480140079775 0.02289861 -0.5024376 0.8643102 133 133 133
0.0591927040005391 0.0120150370741912 0.0154038394634207 0.01984926 -0.5032164 0.8639324 107 107 107
0.0138723010389374 0.0920181841592311 0.0590719457912078 -0.4774558 0.6332432 0.6091297 57 57 57
0.0381563263317992 -0.0427887889250917 -0.0190837880254805 0.02775398 -0.4994711 0.8658859 153 153 153
-0.021165360880762 -0.0688059079694663 -0.0253936870976575 -0.1123651 -0.5605717 0.8204471 158 158 158
0.0100621636595095 -0.0263901029901108 -0.0017741828780436 0.01706511 -0.4991475 0.866349 138 138 138
-0.0481858126790993 0.0220319209900521 0.02727786332107 -0.630747 0.5562972 0.5410099 46 46 46
0.0602216055682554 0.0602369990541685 0.03600380350519 0.905992 0.1464631 0.3971485 75 75 75
0.0721128512617271 0.0284596518696711 0.0246541317170055 0.4593369 -0.3238851 0.8271083 113 113 113
0.048632297118687 0.0351507985040576 0.0340434591564967 0.01981575 -0.5065397 0.8619889 96 96 96
0.0597716366050798 0.00550020505079796 0.0108279203860271 0.0313935 -0.5005813 0.8651202 92 92 92
-0.0931669221692535 -0.0358742134019228 0.0105224201837651 -0.7448693 -0.03667052 0.6662019 97 97 97
-0.0407832155930148 -0.0284388606201815 0.00698052929200532 0.02807949 -0.4950201 0.8684277 135 135 135
-0.00319410261806485 -0.0203281628421872 0.005090764615717 0.03130199 -0.4975474 0.8668718 191 191 191
0.00546920562559983 0.0653999704096935 0.0626562170693112 -0.5497656 0.1315653 0.8248929 87 87 87
-0.0524984250553522 -0.0172290183074972 0.0171145830293434 0.02612939 -0.5044292 0.8630576 159 159 159
0.0327932134852214 -0.0607585177833305 -0.0472861903822999 0.8145973 -0.4261212 -0.3935123 74 74 74
0.0517084151148253 -0.0194522349947521 -0.00520849923998712 0.01725741 -0.498124 0.8669341 137 137 137
0.00397937208909527 0.00162565353013444 0.0193147381229318 0.02358957 -0.5012586 0.8649759 129 129 129
-0.00562521477238054 -0.0477250330969849 -0.0131788917251084 0.02562606 -0.4952232 0.8683878 116 116 116
-0.0137057505245965 0.0174303771229056 0.0340322755601793 0.01481724 -0.5017313 0.8648966 144 144 144
0.0344434986109001 -0.000386707889500348 0.0116881356136719 0.0142917 -0.5063535 0.8622075 146 146 146
-0.0535810288269709 -0.000580602344475656 0.0291096081217244 -0.1531908 -0.4146992 0.8969711 78 78 78
0.0605858468415672 0.0544880625926594 0.0375337612925564 0.8667775 0.09837064 0.4888967 42 42 42
-0.0443979044733722 -0.0583679949014557 -0.0188084211832832 -0.5476903 -0.7852085 -0.2889341 28 28 28
0.0504304947987513 -0.00463011924777179 0.00549374042766709 0.02973359 -0.5016254 0.8645738 110 110 110
0.0143816042448974 -0.0027275470450383 0.014116889838565 0.0264723 -0.4989027 0.8662536 121 121 121
0.00998517434051971 -0.0251238075622329 -0.000735708155338688 0.02296295 -0.504622 0.863035 164 164 164
0.0111900155605889 0.0936771436699075 0.0556270570303558 -0.5960205 0.6224574 0.5072538 45 45 45
0.0342668139393933 0.0586154680043625 0.0532957496226523 0.009348552 -0.501552 0.865077 169 169 169
-0.0684117505016038 0.000383004648877305 0.0193719388616691 -0.6848493 0.5736641 0.4493227 76 76 76
0.0498632395815526 -0.0480262599726291 -0.0250625730707201 0.3261472 -0.6447583 0.6913137 76 76 76
-0.0822620367373323 -0.00851404785065468 0.00946986467997546 -0.6294761 0.6478385 0.4290282 55 55 55
-0.0231032742958326 -0.0643470670880992 -0.042927985128036 -0.720934 -0.589249 -0.3647461 59 59 59
-0.0725878710376269 -0.0177095554158955 0.0200468442549771 -0.1695008 -0.2340272 0.9573404 91 91 91
0.0713933802728008 0.0456140908665599 0.0135454321183189 0.9152875 0.2255306 0.3337435 38 38 38
0.0707302773009602 -0.0114587100736268 -0.00338768557467589 0.07357902 -0.5631962 0.8230408 120 120 120
-0.0196319080443947 0.0191984498534792 0.0363088150849125 0.01888914 -0.5003141 0.865638 148 148 148
0.00918395451876242 -0.0392595584852105 -0.0105536661685012 0.01197235 -0.5037091 0.8637904 133 133 133
0.0725295180749419 -0.00873053373168076 -0.00193211521449127 0.1134448 -0.6074718 0.7861986 96 96 96
-0.0107518198263263 0.0530855306746223 0.0500413548394468 -0.6704497 0.5250727 0.5242097 76 76 76
-0.0359810257854871 -0.052943095746131 -0.0114186557435518 0.02367565 -0.502039 0.8645208 156 156 156
0.0610964991526943 0.00722913442764539 0.0116437037978507 0.02825604 -0.5024148 0.8641649 91 91 91
0.0347092523908565 0.0828854926193148 0.0572470922594963 0.5536708 0.720823 0.4169685 87 87 87
0.0685735217736401 0.0370687883383083 0.0298675569249638 0.6484426 -0.05553008 0.7592355 61 61 61
0.0757267913539326 -0.00769833457044888 -0.00592728877952731 0.7663295 -0.6131531 -0.1917872 64 64 64
-0.0215711223873316 0.0585257082156667 0.0348642258594433 -0.6851376 0.4848336 0.5436201 64 64 64
-0.0301433506854267 -0.0208609329625555 0.0101786641015912 0.01051206 -0.4975367 0.8673792 152 152 152
0.0022360086047275 -0.0790041655486378 -0.0463758882099212 -0.3664592 -0.8010944 -0.4732394 86 86 86
-0.0239862905463792 0.0429710867899309 0.0411988604764811 -0.676073 0.5179529 0.5240707 107 107 107
-0.0140818399602494 -0.0470323362949767 -0.011517005287067 0.02288903 -0.4984142 0.8666368 229 229 229
0.0495414279812234 -0.0373274344542924 -0.0174239931489912 0.01805708 -0.5064745 0.8620659 134 134 134
-0.0458570323319747 0.0192295168741756 0.0312407694690125 -0.6565914 0.5482578 0.517978 120 120 120
0.016384223656738 -0.0713242905995939 -0.0346803640147575 0.01874408 -0.5010477 0.8652167 126 126 126
-0.0266502425477073 0.0427466003012629 0.0380194132779363 -0.6577999 0.5192205 0.5456275 89 89 89
-0.0111602094029504 -0.0356070990673663 -0.00396309183756444 0.01781578 -0.5066732 0.8619541 156 156 156
0.0167433106338821 -0.0730327222913241 -0.0362138245960461 0.01633716 -0.5002519 0.8657258 115 115 115
-0.00990961626012465 -0.0441527343261159 -0.0101318505970903 0.02795371 -0.5065582 0.8617525 152 152 152
0.0647401843724991 0.0471403442611522 0.0303746283001974 0.8972471 0.2089361 0.3889644 62 62 62
0.0190885422277658 -0.054816855968203 -0.0235721410015208 0.02127432 -0.5075459 0.861362 112 112 112
-0.00439761292429619 0.00241277528160455 0.0216285903474132 0.01211607 -0.49227 0.8703582 109 109 109
-0.0941985069670976 -0.0167956782067413 -1.94879192957909E-05 -0.7003484 0.561892 0.4402153 98 98 98
-0.0671891305987664 -0.0163297905494366 0.0209689369677393 -0.1238434 -0.3573456 0.925725 110 110 110
-0.0394318546457231 0.026705195241848 0.0334797889782822 -0.6591753 0.5250258 0.538364 71 71 71
-0.0311094635029265 -0.0115009367407588 0.0169957662688092 0.01811594 -0.5039744 0.8635285 137 137 137
-0.0508678823818198 -0.01505768896815 0.0185591489816004 0.03855728 -0.5049195 0.8623048 128 128 128
-0.0453694244309659 0.0228929314063435 0.0295730371998464 -0.6520314 0.5478272 0.5241567 87 87 87
0.0688818770412363 0.0280155613996662 0.0248075172184448 0.04666855 -0.49473 0.8677928 77 77 77
0.00147287624699732 0.0304744211505763 0.0401612091415852 0.01525392 -0.4957308 0.8683423 109 109 109
0.039019500330391 -0.0610793576538462 -0.0321780546080714 0.2513198 -0.5783149 0.776138 156 156 156
0.00340162750356887 -0.0731812770208746 -0.0599597885835286 -0.5048828 -0.8574837 -0.09907079 78 78 78
-0.0295884812633433 -0.00987571029252221 0.0178907420751421 0.02960515 -0.5056978 0.8622025 116 116 116
-0.0131350913251111 -0.0728250960634178 -0.0300351135127954 0.06576435 -0.6644698 0.7444158 139 139 139
-0.0116928881642511 0.0118402044885333 0.0297099252814453 0.02970391 -0.5119993 0.8584721 107 107 107
-0.0192288754299681 -0.0118102305879397 0.0144841768654115 0.02307237 -0.5026088 0.864206 132 132 132
-0.0841621963743315 -0.00858612146762461 0.00700168193307377 -0.6383096 0.6378297 0.4309689 23 23 23
0.0208678232562955 -0.0890241169849137 -0.0482719911750852 -0.150799 -0.9271454 0.3430175 153 153 153
-0.0848796793770794 -0.0286869174876194 0.0153257734766788 -0.3911019 -0.0271234 0.9199476 135 135 135
0.0100695805951214 0.0337625775888117 0.0407808464404586 0.01868624 -0.5057486 0.8624785 132 132 132
-0.00309610632926871 0.0578432355927962 0.0555670557902407 -0.6609451 0.3403321 0.668824 89 89 89
-0.0736698354117893 -0.0485453909185471 -0.000891010830345873 -0.2072789 -0.9673895 0.1455785 112 112 112
0.0623466942873816 0.0111157068741574 0.0140687892567445 0.01747927 -0.5034072 0.8638725 111 111 111
-0.0255106409362709 -0.0512489911303173 -0.0122293711647069 0.02367234 -0.5029302 0.8640028 150 150 150
-0.0523706310872933 -0.046924397263223 -0.029523977348673 -0.7086199 -0.6513533 -0.2712872 98 98 98
0.0186679588826015 -0.0731312916002849 -0.0632557573261319 0.7261475 -0.4674867 -0.5041488 56 56 56
-0.0191493905211058 -0.0111490182235539 0.0152408045434525 0.02335782 -0.5007291 0.8652889 115 115 115
0.00642018998761351 -0.0772005101759177 -0.0369595264868519 0.02567658 -0.4977533 0.8669385 136 136 136
0.0132317875237322 -0.0816263105431523 -0.0514646639811333 -0.6235703 -0.7017276 -0.3445844 53 53 53
0.0106306686742204 -0.0608622745682081 -0.0261541347034256 0.01698056 -0.4975983 0.8672414 127 127 127
-0.0428223748257732 -0.05073747830258 -0.0381114707933187 -0.6485704 -0.6830682 -0.3358187 68 68 68
-0.0525984776576012 -0.0550040980054267 -0.0158803747046284 -0.672714 -0.6446266 -0.3631976 44 44 44
-0.0148630102602141 0.0482601314481785 0.0482973540145393 -0.6894174 0.5041941 0.5200884 58 58 58
-0.0465705946789332 0.00843656386026659 0.0342884486412743 -0.2210396 -0.2317334 0.9473337 93 93 93
-0.0572399935233205 -0.0500447297674333 -0.0142541506059006 -0.7856251 -0.5411424 -0.29993 73 73 73
-0.0512520213643755 0.023315646682547 0.0234428497051077 -0.6275179 0.5561734 0.5448782 77 77 77
-0.0275973153108935 -0.0624862545221332 -0.0365241842678297 -0.7381044 -0.6189752 -0.2684616 64 64 64
-0.0248003727422712 0.00635553326023186 0.0286137553603446 0.009494511 -0.5038655 0.86373 135 135 135
0.0392758797329655 -0.0466703179722996 -0.0449375163792414 0.799482 -0.431028 -0.4183819 50 50 50
-0.0359155522099095 -0.0588713313516402 -0.0274063973738177 -0.5375744 -0.8115367 -0.2289583 88 88 88
