ply
format ascii 1.0
comment File exported by Rhinoceros Version 7.0
element vertex 458
property float x
property float y
property float z
property float nx
property float ny
property float nz
property uchar red
property uchar green
property uchar blue
end_header
-0.0391778165194454 -0.0589438763449986 -0.00973663030262523 0.3231372 -0.5193933 -0.7910834 106 106 106
-0.041241424214554 -0.0599771456619359 -0.0104050346308353 0.2846139 -0.5621872 -0.7764924 126 126 126
-0.0417574432069494 -0.0589855716703546 -0.0105959824986226 0.2511746 -0.5343073 -0.8071103 108 108 108
-0.0408016810687299 -0.0572008632920774 -0.0109251131793409 0.2492949 -0.3668251 -0.8962653 120 120 120
-0.0435314751496194 -0.059238542804284 -0.0115963602615721 0.04634437 -0.460171 -0.8866199 152 152 152
-0.045777140953704 -0.0580151781736761 -0.0118153768505712 -0.2203613 -0.2868942 -0.9322729 158 158 158
-0.0469002440215518 -0.0557130547204753 -0.0114320563627749 -0.4073032 -0.0294071 -0.9128194 60 60 60
-0.0410617525556303 -0.0572746248929269 -0.0115066679597292 0.2356102 -0.3365041 -0.9117307 74 74 74
-0.0445197353137372 -0.0530667551921345 -0.0122766873582812 -0.294321 0.004115554 -0.9556978 72 72 72
-0.0421683516462203 -0.055638727931434 -0.0125111380533514 0.08028216 -0.2289259 -0.9701276 156 156 156
-0.0405074597950077 -0.0538918309224258 -0.0123906367534125 0.1113547 -0.219848 -0.9691579 136 136 136
-0.0485189891091733 0.0372483212577607 -0.0058909428770374 -0.5333164 0.8267159 -0.1792048 101 101 101
-0.0493021495609001 -0.0531779854905735 -0.0103765343086071 -0.4305914 0.09194753 -0.8978512 82 82 82
-0.0478202509248149 -0.0507351042192564 -0.0102450353485568 -0.4587123 0.1051334 -0.8823435 81 81 81
-0.0594920826538967 -0.0576273440741045 -0.00539228558932509 -0.5068642 0.001627131 -0.8620243 131 131 131
-0.0629501360136167 -0.0551906426262173 -0.00354645850618707 -0.4893248 0.03047332 -0.871569 92 92 92
-0.0611304774733346 -0.0550224651255592 -0.00452104532827274 -0.4513623 0.04145637 -0.8913773 126 126 126
-0.0608172453881912 -0.0548832762470269 -0.00492414822446402 -0.4637893 0.05249169 -0.8843891 67 67 67
-0.0592679144015196 -0.0545732275850207 -0.00567559155382824 -0.4671281 0.0778935 -0.8807519 140 140 140
-0.0607527120285045 -0.0534065253398147 -0.00457748973254007 -0.4214261 0.06717624 -0.9043713 114 114 114
-0.0568420901565618 -0.0551120563521375 -0.00664389536097193 -0.4134184 0.08631488 -0.9064408 160 160 160
-0.0570041101504932 -0.0543322821112709 -0.00658380619670734 -0.4254824 0.09412785 -0.9000582 82 82 82
-0.0605746885283418 -0.0519994916498444 -0.00441706842885731 -0.414193 0.05145267 -0.9087336 118 118 118
-0.0577529850930052 -0.0515746831587999 -0.00567507164567294 -0.4284472 0.07705325 -0.9002754 93 93 93
-0.0628364535658328 -0.0510657690665922 -0.00323548609068053 -0.4400889 0.006601189 -0.89793 117 117 117
-0.0659631801610541 -0.048925950164021 -0.00232522777875593 -0.45539 -0.05343191 -0.8886872 109 109 109
-0.0667981059337723 -0.0482948676053471 -0.00224118458415862 -0.4163077 -0.07411828 -0.9061978 122 122 122
-0.0608354533443696 -0.0489319937922185 -0.00427832887939683 -0.391225 0.03931649 -0.9194548 139 139 139
-0.0600323221642594 -0.0472766613388643 -0.00453721470589308 -0.4041565 0.01552571 -0.9145581 121 121 121
-0.0603181054661976 -0.0461517548188458 -0.00440059275749616 -0.4052207 0.0241961 -0.9138986 98 98 98
-0.0631366625334109 -0.0479417784880459 -0.00323777807190445 -0.4161961 0.02507476 -0.908929 93 93 93
-0.0638702935573932 -0.0449121515640517 -0.00290444774104642 -0.3379786 0.02872643 -0.9407153 146 146 146
-0.063418363648736 -0.0452948384446988 -0.00298583510482903 -0.3420888 0.03862365 -0.9388735 166 166 166
-0.0617354407121544 -0.0446418603241355 -0.00378276626663404 -0.3822569 0.03559101 -0.9233704 121 121 121
-0.0549904878398251 -0.0526287518572245 -0.00739729193566296 -0.3953467 0.1001033 -0.913061 100 100 100
-0.0525835951188438 -0.0491795253442052 -0.00797312947954715 -0.387502 0.1167217 -0.9144497 101 101 101
-0.0528424996772743 -0.0481473492963712 -0.00801718989323724 -0.3594337 0.1033805 -0.9274265 147 147 147
-0.0589054856726068 -0.0478011279312002 -0.00483027127467961 -0.4154776 0.0320948 -0.909037 125 125 125
-0.0578247470426816 -0.0458535167248458 -0.00562923088044853 -0.408838 0.03433713 -0.9119608 105 105 105
-0.0686535313348777 -0.0460634023012291 -0.00165858332644692 -0.3319948 -0.08970696 -0.9390059 142 142 142
-0.067885790694115 -0.0450121127931179 -0.00155790728090149 -0.3257726 -0.08493618 -0.9416252 130 130 130
-0.0666728932005936 -0.0436384736326732 -0.00188491990428169 -0.3330173 -0.03359641 -0.942322 127 127 127
-0.0696802874865821 -0.0412194516223937 -0.00121505046536929 -0.2937272 -0.007090769 -0.955863 127 127 127
-0.000815529637104628 -0.0522210389151768 -0.0071391079753706 0.0151999 -0.4829034 -0.8755417 80 80 80
-0.0678327582691756 -0.042441161808156 -0.00161920690329642 -0.3463928 -0.02122788 -0.9378493 136 136 136
-0.0643263406918591 -0.0436245254132556 -0.00244532295270122 -0.3283628 0.02702124 -0.9441651 108 108 108
-0.0637814181596079 -0.0194293171322602 -0.00371668301965417 -0.3328291 -0.1073777 -0.9368536 121 121 121
-0.0666596693994217 -0.0408690963939341 -0.00197881870258837 -0.328206 0.01790984 -0.9444364 136 136 136
-0.0161175811301923 -0.0850828907179722 -9.5723165870143E-05 0.1227206 -0.1714064 -0.9775273 128 128 128
-0.0169911293534586 -0.082055541737864 -0.000190214881817474 0.1300874 -0.1456014 -0.9807535 117 117 117
-0.0203274270516811 -0.0797299029954278 -0.000691653907540501 0.1468084 -0.1579574 -0.9764716 115 115 115
-0.0221963076398968 -0.0781383253630962 -0.0013399916792512 0.1673715 -0.1589493 -0.9729964 135 135 135
-0.0203360700912985 -0.0714501979114052 0.00670016252189604 -0.07689559 0.803643 -0.5901229 34 34 34
-0.0161277288342436 -0.0805460740722622 1.63652339706388E-05 0.1118593 -0.1425494 -0.9834466 90 90 90
-0.0181897820837511 -0.0797719945219303 -0.000449128335416937 0.128178 -0.1243995 -0.9839182 123 123 123
-0.0151099023883066 -0.0787606028175977 -0.000241967107600827 0.09431522 -0.09673317 -0.9908316 101 101 101
-0.0160527270165582 -0.0777992136135262 -0.000519676718527096 0.1084664 -0.1101397 -0.9879799 115 115 115
-0.0152789124244705 -0.0759376545835103 -0.000692956397906286 0.1167218 -0.09340308 -0.9887628 103 103 103
-0.018909903182132 -0.0779366778451048 -0.00078425292212897 0.1494307 -0.1418019 -0.9785513 135 135 135
-0.0204339073535529 -0.0769938440627694 -0.00110423369908724 0.1663621 -0.1534573 -0.9740506 111 111 111
-0.0223753136841425 -0.0758809882456784 -0.0020009981682314 0.1827662 -0.1459499 -0.9722629 134 134 134
-0.0178672189975941 -0.0761581239134289 -0.000799287373097479 0.1557633 -0.1213011 -0.9803182 113 113 113
-0.0225520483654535 -0.0737224187644761 -0.0019938124395128 0.181344 -0.1143285 -0.9767514 134 134 134
-0.0130709249128587 -0.0748152927335016 -0.000545456668428923 0.1241373 -0.07858461 -0.9891483 120 120 120
-0.00827472348531089 -0.0745726643717149 0.000306309495024804 0.1339708 -0.0546574 -0.9894768 107 107 107
-0.00951311368321761 -0.0727354189282084 -0.000174032505370791 0.1413836 -0.08000685 -0.9867166 105 105 105
-0.0116015824751106 -0.0729057708869477 -0.000470560290261823 0.1350164 -0.0893961 -0.9868023 99 99 99
-0.0153077554224361 -0.0724938212946787 -0.0010015860232705 0.1501631 -0.1069613 -0.9828582 100 100 100
-0.0176790247210401 -0.0699964583448574 -0.00152820499654799 0.1594061 -0.1013404 -0.9819978 119 119 119
-0.0134759737556815 -0.0717848114908338 -0.000734375934821563 0.1458624 -0.09403516 -0.9848256 109 109 109
-0.0175534183221973 -0.0676567204883619 -0.00193893019551639 0.1643161 -0.123429 -0.9786549 86 86 86
-0.0249734375765946 -0.0741772344118049 -0.00233988841852167 0.1770176 -0.1202957 -0.9768284 143 143 143
-0.028519107435224 -0.0724713221905248 -0.00326563517639561 0.1808764 -0.08491972 -0.9798328 113 113 113
-0.0261979579204934 -0.0715141935677225 -0.00308278775617715 0.1671179 -0.07825687 -0.9828263 125 125 125
-0.0235024643445811 -0.0714428380730166 -0.00260852487448987 0.1825702 -0.09573785 -0.9785205 152 152 152
-0.0249182495261726 -0.067958644403476 -0.00274945318774894 0.150514 -0.09841751 -0.9836969 125 125 125
-0.0298453534432688 -0.0684612710316782 -0.00364322911242448 0.1476641 -0.06151576 -0.9871227 155 155 155
-0.0314346256114422 -0.0680999889415951 -0.00407524868397535 0.1063003 -0.05451968 -0.9928383 122 122 122
-0.0304068513379683 -0.0673102385317802 -0.00345156480605974 0.119794 -0.07757956 -0.989763 133 133 133
-0.0281015856050235 -0.066607001871375 -0.00348920209058601 0.1397906 -0.1235072 -0.9824482 115 115 115
-0.0282829921291938 -0.0629985115553332 -0.00427003889017963 0.1894137 -0.3225713 -0.9273997 138 138 138
-0.0245760704302951 -0.0653834280403057 -0.00299831996110655 0.1603184 -0.1644535 -0.9732693 175 175 175
-0.0253795530066521 -0.0639157281479458 -0.00353727812518567 0.170288 -0.2523733 -0.9525281 128 128 128
-0.018599820690584 -0.0696170409240838 0.00934277491488361 -0.5878617 0.7009855 -0.4037795 10 10 10
-0.0120532413930894 -0.0609633430426647 0.0124327395292164 -0.6655213 0.7185327 -0.2019706 25 25 25
-0.0112042131500938 -0.0713648159783707 -0.000598399012636197 0.1404115 -0.09063893 -0.9859357 68 68 68
-0.0131839213437712 -0.0695570757519391 -0.000938412689168777 0.1480281 -0.09898574 -0.984017 96 96 96
-0.0169898716316861 -0.0656802977907699 -0.00192212042544354 0.1554411 -0.1571515 -0.9752648 142 142 142
-0.0130533943744573 -0.0672431008962447 -0.00100171123092535 0.1490513 -0.1175835 -0.9818135 130 130 130
-0.0291735521198855 -0.0625283866676455 -0.00486962086060311 0.1838578 -0.3742265 -0.9089284 115 115 115
-0.0201637953916638 -0.0662024251485863 -0.00222624866142457 0.1582001 -0.1385171 -0.977643 140 140 140
-0.0174741545557056 -0.063565382285773 -0.00235641211585619 0.1435025 -0.2154037 -0.9659235 124 124 124
-0.0210026317381398 -0.0627274905420131 -0.00298004649762873 0.1532399 -0.2831902 -0.9467422 132 132 132
-0.0178451439201313 -0.0624027716430492 -0.00295863201451563 0.146799 -0.2575325 -0.9550534 137 137 137
-0.0229063039090329 -0.063367892443631 -0.00304094844578873 0.1668238 -0.2694903 -0.9484434 137 137 137
-0.0245029471256233 -0.0620369807333217 -0.00424224550717334 0.1795685 -0.3643498 -0.9137858 117 117 117
-0.0269684895895943 -0.0626978386646409 -0.00418883406860099 0.1666155 -0.3495135 -0.9219976 136 136 136
-0.0256297839921014 -0.0609995655144565 -0.00451945308033475 0.1962282 -0.4019925 -0.8943694 128 128 128
-0.0244307490029261 -0.0601746337792585 -0.00456854708167759 0.1984236 -0.4253794 -0.8829951 130 130 130
-0.0224824201817748 -0.061122553121559 -0.00379685337012736 0.1637284 -0.3547708 -0.9205056 126 126 126
-0.0255884907260429 -0.0584410394834057 -0.00546151086389202 0.2099388 -0.4413864 -0.8724126 139 139 139
-0.0228571746728541 -0.0570704111857406 -0.00594754168028716 0.2562974 -0.4189727 -0.871076 104 104 104
-0.00803808632650549 -0.070815950478767 4.25721860003447E-05 0.1411114 -0.08694427 -0.9861684 97 97 97
-0.00547616788743666 -0.0712130543971 0.000342485876019594 0.1226973 -0.08475413 -0.9888185 111 111 111
-0.00782784503432588 -0.0681486481623407 -0.000286442180644275 0.1302063 -0.1191978 -0.9842958 103 103 103
-0.0214507950479308 0.0318465739243007 -0.0261431536838073 0.01483655 0.2829047 -0.9590333 137 137 137
-0.00353435013139292 -0.069390866699398 0.000549125625577906 0.0767493 -0.1196746 -0.9898422 132 132 132
-0.00807510897141839 -0.0674199719523939 -0.000650846463525423 0.1280351 -0.136359 -0.9823509 112 112 112
-0.00294507303425728 -0.0685469966226876 0.000434004235010665 0.0744454 -0.1292167 -0.9888179 123 123 123
-0.00507235872994816 -0.0676036135643093 0.000209117174881479 0.0931581 -0.1395406 -0.9858245 114 114 114
-0.00471675579534736 -0.0664934391727346 -0.000148522545772189 0.07195286 -0.1735917 -0.9821857 117 117 117
-0.0105545094577408 -0.0688622337970744 -0.000492075457314556 0.1455879 -0.1065008 -0.9835963 106 106 106
-0.0149569176841191 -0.0647409296227815 -0.00194010569833547 0.1440364 -0.176202 -0.9737589 144 144 144
-0.00991859644317739 -0.0643762094802117 -0.000939094460425116 0.1217236 -0.214201 -0.9691756 119 119 119
-0.00631159785858149 -0.0641160323506754 -0.000617425356674139 0.07857957 -0.2474606 -0.9657062 107 107 107
-0.0121669163808411 -0.061891534990402 -0.00186786767058772 0.1232881 -0.2722924 -0.9542834 106 106 106
-0.00956365157611394 -0.0617590261064077 -0.00167768391046547 0.1266661 -0.2868038 -0.9495785 116 116 116
-0.0114811758708573 -0.0603955501913865 -0.00253031918587338 0.1099776 -0.3255818 -0.939096 106 106 106
-0.00338497526919745 -0.0665232899400175 0.000197854445723733 0.06234746 -0.1756405 -0.9824781 98 98 98
-0.00306620961453019 -0.0652413120315246 -0.000273358322040229 0.03863828 -0.2353906 -0.9711325 91 91 91
-0.00817115156317971 -0.0602257516931811 -0.00260797274470015 0.02947231 -0.4391982 -0.8979067 124 124 124
-0.0100696858017195 -0.0607851494390817 -0.00228937533612456 0.1026118 -0.3312384 -0.9379509 76 76 76
-0.000129441105797934 -0.0652712056410386 -0.000169826247896243 -0.02561588 -0.2991479 -0.9538628 141 141 141
-0.00374815950039986 -0.0638174126694398 -0.000574834037239069 0.01608011 -0.3144818 -0.9491273 146 146 146
-0.00119580447107914 -0.0634072907330322 -0.000602774353830549 -0.03623296 -0.3892554 -0.920417 114 114 114
-0.0037827359961411 -0.0631011994419072 -0.000303823720035845 -0.01440698 -0.3740546 -0.9272948 144 144 144
0.00137950416363974 -0.0642856600254334 -0.000470282155792645 -0.01499221 -0.3523574 -0.9357454 139 139 139
-0.000944588128896307 -0.0606440682412429 -0.00225525056352294 -0.05712049 -0.507257 -0.8598998 145 145 145
0.00337063961690598 -0.0621304822058525 -0.00139838120874697 0.04226856 -0.4679992 -0.8827174 107 107 107
0.00379240550141624 -0.0607439186499096 -0.00238356765177578 0.0401464 -0.5083082 -0.860239 82 82 82
-0.000491522474718842 -0.0594981901264059 -0.0040369370009633 -0.06037702 -0.5491021 -0.8335716 90 90 90
-0.00121789097627367 -0.0596661844549465 -0.00392169359488115 -0.06407994 -0.5433968 -0.8370267 84 84 84
-0.00734263911109201 -0.0616133460622811 -0.0014914280237478 0.06492744 -0.3287878 -0.9421693 102 102 102
-0.00831563111808098 -0.0585611604966575 -0.00281474270788568 0.007204804 -0.4670037 -0.884226 118 118 118
-0.00419940211724246 -0.058362492345304 -0.00297610759937444 -0.1100972 -0.5178862 -0.8483351 135 135 135
-0.00567791777146498 -0.0563667622241249 -0.00496306463796048 -0.103286 -0.5243606 -0.8452088 124 124 124
-0.00338366837372472 -0.0568761827680838 -0.00443299166063715 -0.1241319 -0.501968 -0.8559319 102 102 102
0.0782555988907392 0.00864288494800371 0.0186823077127443 0.9690265 -0.2253875 0.1009364 17 17 17
-0.00391691679595496 -0.0573869107875403 -0.00441839571615182 -0.1016643 -0.5031796 -0.8581811 89 89 89
-0.015330448371937 -0.0632137551759962 -0.00219777925420372 0.1423851 -0.2279178 -0.9632134 101 101 101
-0.0157595837654507 -0.061885595917675 -0.00239089674825288 0.137601 -0.2442207 -0.9599074 159 159 159
-0.0140704749397873 -0.0605198668624825 -0.00282880251713363 0.135287 -0.2928867 -0.9465278 93 93 93
-0.0161209498736294 -0.06082359031107 -0.00273929533158979 0.1468629 -0.2981229 -0.9431617 126 126 126
-0.0154906870895637 -0.0586068424549856 -0.00352614358757453 0.1419641 -0.3361185 -0.9310588 122 122 122
-0.0190046574262879 -0.0592749196951995 -0.00389059033481776 0.179231 -0.3452643 -0.9212322 119 119 119
-0.0202178356979537 -0.0576244324294329 -0.00455339540859034 0.2227326 -0.3874879 -0.8945631 127 127 127
-0.0120669158731896 -0.0585076705472019 -0.00300583775930979 0.07185042 -0.3958258 -0.9155105 133 133 133
-0.0109836422954439 -0.0574847307772451 -0.00364172395812645 0.009750536 -0.4680799 -0.8836324 167 167 167
-0.013732338912976 -0.0573463660481602 -0.00364041683153044 0.08127341 -0.4231128 -0.9024246 118 118 118
-0.0152197532990948 -0.056556861635579 -0.00409505463562237 0.08305486 -0.435281 -0.8964555 136 136 136
-0.0148902664769675 -0.0561253324565333 -0.00479507060366657 0.06697266 -0.4563838 -0.887259 144 144 144
-0.0196450628824678 -0.0574208135185322 -0.00557144288684724 0.2227326 -0.3874879 -0.8945631 113 113 113
-0.0186390904565945 -0.0559893140012743 -0.00525276114401885 0.212689 -0.4206197 -0.8819537 117 117 117
-0.0214120374072495 -0.0553591234061047 -0.00621919841210955 0.2652787 -0.406976 -0.8740696 103 103 103
-0.0184369231187418 -0.0534750562365055 -0.00642472156081486 0.1513657 -0.4572928 -0.87634 122 122 122
-0.0168964839663106 -0.0534269674982665 -0.00566916864866968 0.1232269 -0.4705766 -0.8737121 146 146 146
-0.0140446608639353 -0.053642929479505 -0.00549539555012468 0.01047091 -0.4922033 -0.8704173 138 138 138
-0.0131015809257331 -0.0521190738300016 -0.00708954557691488 -0.07130339 -0.5873809 -0.8061634 116 116 116
-0.0145265640493029 -0.0513669015000838 -0.00754843259044308 -0.06918491 -0.5629869 -0.8235649 116 116 116
-0.0173246167962988 -0.0518565248212269 -0.00636978989677595 0.1077793 -0.4668822 -0.877727 128 128 128
-0.017992080743241 -0.0501476160245749 -0.00793590732944127 0.09757768 -0.4971063 -0.8621856 150 150 150
-0.0153073687508649 -0.0505188966528812 -0.007689821198965 -0.05957997 -0.5685114 -0.8205151 107 107 107
-0.0093499152425105 -0.0569171142675701 -0.00380926378659224 -0.0226139 -0.4896585 -0.871621 91 91 91
-0.00944650035713668 -0.0550186046584514 -0.00513996924805049 -0.04639401 -0.5400146 -0.840376 96 96 96
-0.00840171193636019 -0.0543476238458537 -0.00544936314497013 -0.0696312 -0.5936958 -0.8016713 148 148 148
-0.00880249134247801 -0.0541289412220976 -0.00590888218971936 -0.07088532 -0.5967034 -0.7993249 153 153 153
-0.0328271788047791 -0.0642031074143224 -0.00448100959311354 0.1427408 -0.3616492 -0.9213223 102 102 102
-0.033541542803015 -0.0637404225520895 -0.00484808860184871 0.1651061 -0.407133 -0.8983222 114 114 114
-0.0362364235837642 -0.0618669015737249 -0.00649307877929628 0.2177829 -0.5483676 -0.8073807 108 108 108
-0.0347931198170137 -0.0636505446071701 -0.00455960177409315 0.1350973 -0.4067913 -0.9034764 169 169 169
-0.0343329368320031 -0.0621850678403982 -0.00627199247163868 0.2096722 -0.4878771 -0.8473568 127 127 127
-0.0306140815910454 -0.0612574608640016 -0.00573979161132887 0.186134 -0.4200153 -0.8882236 119 119 119
-0.0364695836791515 -0.0617394010566966 -0.00779778800800102 0.226523 -0.5399824 -0.810621 149 149 149
-0.0342235500557773 -0.0607638529720159 -0.00666001050475745 0.242457 -0.5011951 -0.8306733 120 120 120
-0.0302666922995103 -0.0591097768323691 -0.00640218553776478 0.1975479 -0.4586823 -0.8663633 100 100 100
-0.0326754183146987 -0.0598478586387335 -0.00679014628733993 0.2516997 -0.4704869 -0.8457478 98 98 98
-0.0338009288452503 -0.0582969756510155 -0.00791972887306497 0.2683757 -0.4419572 -0.8559488 123 123 123
-0.0321964645645303 -0.0563405540435161 -0.00882773814613291 0.2224344 -0.4219395 -0.8789141 100 100 100
-0.0316609976806781 -0.056505830526394 -0.0079131838850055 0.1966939 -0.4617594 -0.8649219 116 116 116
-0.0307034004885893 -0.0552946953541734 -0.00911570479042456 0.1884467 -0.4191789 -0.8881311 106 106 106
-0.0355370745568866 -0.0594916053893276 -0.00797317050440338 0.2615224 -0.5115506 -0.8184876 125 125 125
-0.0360879494071589 -0.0588694981432108 -0.00815220054131632 0.2923095 -0.4790568 -0.8276833 151 151 151
-0.0349635480465782 -0.0566678078207731 -0.00944673978958183 0.2824215 -0.4303392 -0.8573484 109 109 109
-0.0387021644275483 -0.0555776324555978 -0.0113626900958889 0.3198062 -0.3556938 -0.8781833 94 94 94
-0.0374419650674924 -0.0538932359929124 -0.0113317323268716 0.3069799 -0.316692 -0.8974795 121 121 121
-0.034315951556279 -0.0561121843733107 -0.0092439449128896 0.255428 -0.4160052 -0.8727521 130 130 130
-0.0331027108662032 -0.0545424799156652 -0.00940112881939931 0.2373388 -0.3863608 -0.8912888 118 118 118
-0.0252389385917113 -0.0576648601899069 -0.00664966026635561 0.2075735 -0.4469889 -0.870123 125 125 125
-0.0263807890839027 -0.0574327105744637 -0.00679393568292103 0.2014005 -0.4547831 -0.8675311 112 112 112
-0.0298441340435778 -0.0561468067435761 -0.00767432134623419 0.1897517 -0.4570187 -0.8689811 114 114 114
-0.0241719575623089 -0.0565555436588042 -0.00683456147528222 0.2234645 -0.4326205 -0.8734432 112 112 112
-0.0341246215599869 -0.0527193568241936 -0.0104912823608839 0.2342505 -0.3353755 -0.9124966 116 116 116
-0.0262308549487154 -0.0558680340820704 -0.00789663021807363 0.2193924 -0.4514978 -0.8648796 91 91 91
-0.0291493614646274 -0.0545725034275769 -0.00894970046424182 0.1830894 -0.4277696 -0.8851505 111 111 111
-0.0287585822491487 -0.0527328346000445 -0.00997850999781863 0.1846795 -0.3562396 -0.9159623 108 108 108
-0.0257801230155414 -0.0548741075821414 -0.00792600122724463 0.2246845 -0.4265803 -0.8760971 104 104 104
-0.0229329604234163 -0.0540786054197199 -0.00777989244999949 0.2690575 -0.3998625 -0.8761953 128 128 128
-0.0305846436201507 -0.052368675367951 -0.0102581258846763 0.1794238 -0.3383715 -0.9237488 133 133 133
0.0578838501081367 0.052186593984389 0.00579190043035305 0.2968442 0.9007484 -0.3170738 38 38 38
-0.033248679226288 -0.048763537350483 -0.0118515851518539 0.2031468 -0.3053549 -0.930317 106 106 106
-0.0284622501761955 -0.0493597554721635 -0.0107266815424933 0.2027919 -0.2979409 -0.932795 91 91 91
-0.029914581162882 -0.0486047444220269 -0.0111977261828075 0.1796932 -0.2764188 -0.9440885 131 131 131
-0.0302753011783969 -0.0468877183703978 -0.0116151029174547 0.1731589 -0.2870789 -0.9421262 142 142 142
-0.0302554678612794 -0.045581980297822 -0.012222643141655 0.1730567 -0.2951758 -0.9396396 91 91 91
-0.0393732076934801 -0.0535969756805176 -0.0117757971143627 0.2196745 -0.2794017 -0.9347073 140 140 140
-0.0470746689250565 -0.0487895073022667 -0.0103418208416766 -0.4996232 0.07928961 -0.8626064 94 94 94
-0.0485846712702287 -0.0480766385668506 -0.00998796073565889 -0.4609002 0.1171931 -0.87968 138 138 138
-0.0476398828070721 -0.0461892937619545 -0.00971656202814103 -0.4874344 0.122244 -0.8645601 130 130 130
-0.0450874692183856 -0.0502366983267973 -0.0116602406117289 -0.4316632 0.04618121 -0.9008519 89 89 89
-0.0436750217980517 -0.0491126346684681 -0.0124417081795736 -0.3733 -0.04734287 -0.9265019 73 73 73
-0.0433869057576959 -0.0500994019071462 -0.0127484549872799 -0.291498 -0.06155545 -0.9545888 88 88 88
0.0817250257315814 0.020198443078803 0.00920578811183048 0.9046494 -0.1967048 -0.3780431 103 103 103
-0.04593482871761 -0.0482547136427019 -0.0107894851785741 -0.5021681 0.05957576 -0.8627154 102 102 102
-0.039970597844559 -0.0513718590858777 -0.0130467073661646 0.1001769 -0.1972751 -0.9752164 123 123 123
-0.040015806730048 -0.0501818283434382 -0.0132063279321041 0.07479263 -0.1978886 -0.977367 175 175 175
-0.0353872876048364 -0.050848121378024 -0.0115977347151235 0.2631629 -0.3040672 -0.9155809 141 141 141
-0.0379756170464316 -0.0485221858044192 -0.0130398884230054 0.1583834 -0.2523718 -0.9545801 111 111 111
-0.0393611101693656 -0.0468398444589365 -0.0138221269078324 0.0008105584 -0.1664016 -0.9860577 217 217 217
-0.0372170310405027 -0.0469490128033204 -0.013410355603368 0.1550686 -0.2283541 -0.9611494 86 86 86
-0.0385309120386368 -0.0463857966757378 -0.0143231122110791 0.0767859 -0.2146621 -0.9736653 102 102 102
-0.0423611029547342 -0.048590673659232 -0.0128789909710799 -0.2570134 -0.09675446 -0.9615522 73 73 73
-0.0424784690283739 -0.0487775865094054 -0.0136832093737262 -0.2467142 -0.09988483 -0.9639269 73 73 73
-0.0415982219274347 -0.0456470027484524 -0.0135551969977791 -0.2969069 -0.0198305 -0.9547005 92 92 92
-0.0442145421613556 -0.043364959301012 -0.0116163412756226 -0.5511146 0.124295 -0.8251203 87 87 87
-0.0430662146454615 -0.0451800553421432 -0.0128232504516803 -0.4876255 0.07435095 -0.8698812 76 76 76
-0.0427331183741502 -0.0441454903350317 -0.013377703360142 -0.4708486 0.09083367 -0.8775254 70 70 70
-0.039784421045272 -0.0446316936920527 -0.0140717398113687 -0.182655 -0.03167842 -0.9826666 92 92 92
-0.0340676822134514 -0.0472198356476788 -0.0124606169082309 0.2318175 -0.3024485 -0.9245461 90 90 90
-0.0324416951410966 -0.0459311313986524 -0.0125083460083048 0.1994288 -0.2952076 -0.9343878 113 113 113
-0.0364273290300825 -0.0446623808264609 -0.0139056685016622 0.1273748 -0.2477138 -0.9604236 110 110 110
-0.0344081455448051 -0.0438066664224587 -0.0132213040845223 0.1916132 -0.247025 -0.9498752 118 118 118
-0.0379458460386481 -0.0435501306455702 -0.0147424814196033 -0.02671804 -0.1014155 -0.9944853 120 120 120
-0.0401696630758455 -0.0385542552642867 -0.0134618033090306 -0.4921723 0.1644569 -0.8548219 97 97 97
-0.0218481301891265 -0.0530535078339703 -0.00734143853371017 0.2674083 -0.4125736 -0.8707904 106 106 106
-0.025593626631343 -0.0485420841902294 -0.01025134130418 0.174573 -0.333593 -0.9264125 119 119 119
-0.02387765199237 -0.0474911736258795 -0.0100839863737912 0.1368073 -0.3975119 -0.9073412 124 124 124
-0.00863908793957879 -0.0598265099494394 0.0118730618724396 -0.1483762 0.9756413 -0.1615817 27 27 27
-0.0114151988941762 -0.058977987065585 0.0137717941969182 -0.4489377 0.8930941 -0.02894516 15 15 15
-0.0121028421996594 -0.057882337059335 0.0141423076539894 -0.6224815 0.7755566 -0.1050181 24 24 24
0.00181598883086087 -0.0582980048883758 -0.00455716234985237 0.01028614 -0.5209615 -0.8535182 56 56 56
-0.0049589359596256 -0.0542711302422197 -0.00583435823467032 -0.04794429 -0.5862311 -0.808724 73 73 73
-0.00298005475803143 -0.0536659832764862 -0.00679608333136006 -0.0333743 -0.5467504 -0.8366303 95 95 95
0.00126782860992902 -0.0550688294478038 -0.00755066604497889 0.002566077 -0.4335881 -0.9011075 97 97 97
-0.000770960629547179 -0.0531326359997598 -0.0072021152798738 0.01600296 -0.4878272 -0.8727935 76 76 76
-0.00462784651982151 -0.0525768615546355 -0.00693348936628513 -0.023302 -0.5916302 -0.8058727 97 97 97
-0.00664949689532124 -0.0497682560929428 -0.0096981832461383 0.02936709 -0.5718418 -0.819838 68 68 68
-0.008368500842586 -0.0502705646515108 -0.00986882051488874 -0.03426398 -0.6018501 -0.7978737 109 109 109
-0.00582363675500552 -0.0513099375186986 -0.00863787859981618 0.01343598 -0.5820135 -0.8130681 76 76 76
-0.00460467276841747 -0.0503194767871459 -0.00874572157542497 0.09046561 -0.5199713 -0.8493797 104 104 104
-0.0119559611484132 -0.0522212388581421 -0.00707890531555694 -0.09574257 -0.594664 -0.7982531 146 146 146
-0.013239939697459 -0.0479706510771988 -0.00892759376555952 -0.1290855 -0.6154492 -0.7775341 149 149 149
-0.0114675441646952 -0.0479994129865139 -0.0107461012568972 -0.07988375 -0.5874643 -0.8052976 145 145 145
-0.0094471739960782 -0.0492614788288873 -0.0108062832274785 -0.06190984 -0.5829453 -0.8101493 82 82 82
-0.0129252358953513 -0.0473111891707459 -0.0107814988607396 -0.1518231 -0.5752252 -0.8037821 157 157 157
0.0553956311936443 -0.0293087749189459 0.0103002905191683 0.5175834 -0.6468453 -0.560088 123 123 123
-0.00547742101523419 -0.0473592027575195 -0.0103619928611939 0.1116157 -0.5011905 -0.8581084 73 73 73
-0.00568506412184311 -0.0453472005370036 -0.0118017756718898 0.08869166 -0.4577498 -0.8846462 188 188 188
-0.0102313929463689 -0.0465887631778538 -0.011624589520473 -0.01428138 -0.4848161 -0.8744995 74 74 74
-0.0100316237845668 -0.0462614530006325 -0.0122606236297551 -0.02322675 -0.4828494 -0.8753953 98 98 98
-0.00962089637523755 -0.0452504955753149 -0.0128179293478515 0.002334012 -0.4443594 -0.8958456 131 131 131
-0.0129931307918878 -0.0442344365454158 -0.0133969392656508 -0.05973389 -0.4105721 -0.9098694 89 89 89
-0.00703965684331687 -0.0440235826119722 -0.0124151544040985 0.08181747 -0.3824169 -0.9203604 174 174 174
-0.00861794162715146 -0.0426974275292503 -0.0131826704347899 0.07994856 -0.3126518 -0.9464973 141 141 141
-0.0105500467702053 -0.0433306376482775 -0.0136563335148628 0.005846222 -0.3413627 -0.9399135 88 88 88
-0.00975716777843072 -0.0422777792906529 -0.0134084133883668 0.02363628 -0.3344364 -0.9421219 195 195 195
-0.00747579841426882 -0.0419140260604093 -0.0131758017000663 0.03207614 -0.3624546 -0.9314493 115 115 115
-0.0321149669191425 -0.0437577895053899 -0.0132102099726245 0.2132504 -0.2843384 -0.9347063 98 98 98
-0.0316732363944681 -0.0410848706851038 -0.0136603299532647 0.1101052 -0.3181832 -0.9416137 86 86 86
-0.0345682025258802 -0.0396046362026251 -0.014552491512525 0.003872042 -0.2022985 -0.9793162 104 104 104
-0.0363130673729364 -0.0363358780616051 -0.0151395605718778 -0.3337515 -0.1957298 -0.922117 91 91 91
-0.0377024590816695 -0.0364970692790397 -0.0135813151876488 -0.4832369 0.0561434 -0.8736876 146 146 146
-0.0201153743671822 -0.0482740891098797 -0.00943717158951995 0.05282669 -0.4791412 -0.8761467 149 149 149
-0.019133477748301 -0.0459094245828467 -0.01112527152257 -0.01681366 -0.5246174 -0.8511721 123 123 123
-0.0218936696254568 -0.0456652212994469 -0.0105100926145844 0.04323376 -0.4910143 -0.870078 162 162 162
-0.0176213589743197 -0.0459873088359069 -0.0109364612561004 -0.06062953 -0.5728005 -0.8174495 86 86 86
-0.0196385803752226 -0.0425294351185649 -0.0130758961252604 -0.04132182 -0.4910695 -0.8701398 140 140 140
-0.0185768038483594 -0.0416486172441469 -0.0134906390136923 -0.04150705 -0.4607461 -0.8865609 172 172 172
-0.0272724568398544 -0.0454492915106784 -0.0114373447731657 0.134186 -0.3673725 -0.9203432 110 110 110
-0.0256353202494202 -0.0435206923841679 -0.0118561055484021 0.03756582 -0.4298434 -0.9021217 126 126 126
-0.0226866472396172 -0.0460199088203837 -0.0102403705623266 0.06683865 -0.469257 -0.8805285 130 130 130
-0.0238878525168871 -0.0440526734326477 -0.0113095274245953 0.03181896 -0.4764102 -0.8786472 134 134 134
-0.0231940738189187 -0.043483254584849 -0.0121914217065921 0.004239907 -0.4765848 -0.8791183 148 148 148
-0.0259246716782426 -0.0407740767645414 -0.0137982251739426 -0.0585222 -0.4695542 -0.880962 100 100 100
-0.0211504571894112 -0.0424592780005387 -0.0134719317545395 -0.03351338 -0.5005015 -0.8650868 111 111 111
-0.0157358334532964 -0.0449250375835702 -0.011530919688816 -0.09671651 -0.5306553 -0.8420516 163 163 163
-0.0203967255606536 -0.0404744904719979 -0.0140223381068492 0.02750722 -0.4636686 -0.8855816 194 194 194
-0.0242443084740391 -0.0393844019854438 -0.0147012523571327 -0.07163928 -0.4764266 -0.8762907 88 88 88
-0.0222804698312076 -0.0386362049402266 -0.0149455449194715 0.003609402 -0.4448165 -0.8956144 177 177 177
-0.013509797350288 -0.0418726093095137 -0.0138167521597727 -0.04768835 -0.3563617 -0.9331303 134 134 134
-0.0138012798641109 -0.0397728869161012 -0.0141332460249046 -0.03142612 -0.3363127 -0.9412259 182 182 182
-0.0112685238814869 -0.0397050482204634 -0.0138961153472772 0.01664224 -0.315062 -0.9489251 155 155 155
-0.0153220102867269 -0.0383712554327579 -0.0150094211811279 0.04521944 -0.409026 -0.9114016 192 192 192
-0.0142248558900295 -0.0371243030077047 -0.0150232037768565 0.03499909 -0.4824026 -0.8752502 171 171 171
-0.0199034926301653 -0.0378791387551051 -0.0153684642788065 0.05149539 -0.4214198 -0.9054024 169 169 169
-0.0165705399083715 -0.0375135163590953 -0.0151137853235493 0.04298259 -0.4589079 -0.8874435 173 173 173
-0.0202496685766413 -0.0347674035258502 -0.0169387038147221 0.003589456 -0.5482676 -0.8362952 221 221 221
-0.0298343184009853 -0.0430605102208604 -0.012398955377543 0.1585188 -0.3106862 -0.9372011 105 105 105
-0.0286040172947715 -0.0429958754958465 -0.0122356590920929 0.09782331 -0.3449316 -0.9335164 106 106 106
-0.0285861406584136 -0.0417306845011761 -0.0134001121086518 0.05764982 -0.3604709 -0.9309872 115 115 115
-0.0302490802968514 -0.0391638581958294 -0.0139299206612558 0.01595801 -0.3968379 -0.91775 145 145 145
-0.0288546831859708 -0.0387226813180078 -0.0138204146484992 -0.04188539 -0.4386563 -0.8976783 147 147 147
-0.0307636998131091 -0.0370493601905256 -0.0147666986619533 0.00342579 -0.4441849 -0.8959286 107 107 107
-0.0327886806285065 -0.0366561882025676 -0.0151306377646133 -0.128236 -0.4193759 -0.8987098 114 114 114
-0.0291112930828668 -0.0357827762022645 -0.0168498708966725 -0.1023261 -0.5871621 -0.8029758 183 183 183
-0.0263347288926798 -0.0382082716151358 -0.0149259770078886 -0.08578956 -0.4913255 -0.8667406 154 154 154
-0.0272618275194101 -0.037766838238234 -0.014812784659741 -0.0762504 -0.4818984 -0.8729031 166 166 166
-0.0246876207999387 -0.0374091559600466 -0.0162257939230162 -0.04060776 -0.4946277 -0.8681558 201 201 201
-0.0268640579863253 -0.0363609622721089 -0.0158401721605926 -0.08630854 -0.5406706 -0.8367952 137 137 137
-0.026942519228804 -0.0333196168129818 -0.0181562717029523 -0.01070428 -0.5645472 -0.8253314 132 132 132
-0.0241698950652318 -0.0335645617102399 -0.0180059677274234 0.02206708 -0.5538989 -0.8322914 195 195 195
-0.0322415975460393 -0.0351926220822941 -0.016145541830747 -0.1522831 -0.5082168 -0.8476589 130 130 130
-0.0327691484932351 -0.0332757640831499 -0.0182167878443711 -0.2458527 -0.5873863 -0.7710602 118 118 118
-0.0428031957339008 0.0469276419117647 0.0042275551084564 -0.7761951 0.613653 -0.1447451 81 81 81
-0.0305080167994549 -0.0333803441610639 -0.016970290605954 -0.1188387 -0.591191 -0.7977284 139 139 139
-0.0314519458908911 -0.0319227087571022 -0.0189341875545698 -0.1335864 -0.5842991 -0.8004681 115 115 115
-0.0277025670151043 -0.0321034184141028 -0.0194909985792352 -0.01445563 -0.579785 -0.8146412 184 184 184
-0.0298930807209716 -0.0322655261910692 -0.0193424287741655 -0.1017651 -0.5937161 -0.7982137 161 161 161
-0.0318266764816961 -0.0297870908188936 -0.0197808855352413 -0.1863209 -0.5793787 -0.7934764 143 143 143
-0.0214163381844821 -0.0337338127354428 -0.017426159741476 -0.01033581 -0.5449418 -0.8384102 212 212 212
-0.0183569895849414 -0.0332995285387595 -0.0175143047096737 -0.0292967 -0.620929 -0.7833192 204 204 204
-0.0137736796499164 -0.0360311606409459 -0.0155801750686231 0.02524688 -0.5268948 -0.8495554 130 130 130
-0.0134498936988527 -0.0343201437587922 -0.0163172755696848 -0.01927124 -0.6332305 -0.7737233 182 182 182
-0.0131685216937996 -0.0336965165502537 -0.0171861929546996 -0.05529045 -0.6925382 -0.7192592 189 189 189
-0.0129811081365601 -0.0330031469597386 -0.018079626248694 -0.1110556 -0.6542698 -0.7480627 146 146 146
-0.0172968071172326 -0.0314958533914914 -0.0189821978635777 -0.01482477 -0.5437174 -0.8391374 133 133 133
-0.0150207388102901 -0.0324752781465439 -0.0187607953770252 -0.03935856 -0.6265547 -0.778383 140 140 140
-0.0147293368046011 -0.0314015773642971 -0.0194062342074863 -0.04124508 -0.5479306 -0.8355064 88 88 88
-0.0100679617628678 -0.0325836588498359 -0.0204747376199115 -0.1328639 -0.5312333 -0.8367427 66 66 66
-0.0128812012480917 -0.0295274488963103 -0.0211969504484169 -0.1175874 -0.1676657 -0.9788061 12 12 12
-0.0269452957276699 -0.0304317401300477 -0.0200129130019884 0.007303647 -0.5721635 -0.8201071 216 216 216
-0.0281343380547474 -0.0297059980276827 -0.020417574334255 -0.006308246 -0.55716 -0.8303812 186 186 186
-0.02543248056653 -0.0303443317891335 -0.0201953333410336 0.01484474 -0.5356827 -0.8442888 199 199 199
-0.0266160775784745 -0.0282313218723803 -0.0215723149747777 0.01076287 -0.4683478 -0.8834786 170 170 170
-0.0285882430014905 -0.028748283712564 -0.0215773810395191 -0.03150884 -0.4527094 -0.8911012 160 160 160
-0.0304095385224383 -0.0278579501080279 -0.0217779572827377 -0.04829179 -0.4284 -0.9022978 107 107 107
-0.0282232726604841 -0.0266847873193604 -0.0225003655623434 0.03822815 -0.2232281 -0.9740164 72 72 72
-0.0233130007295217 -0.0313352351315507 -0.0188235711665642 0.01303663 -0.588797 -0.8081759 230 230 230
-0.0206487239701052 -0.0300478974681822 -0.0208191795940604 -0.004745658 -0.4063346 -0.913712 100 100 100
-0.019975696587923 -0.0300090964307072 -0.0207295847559441 0.002518003 -0.4379895 -0.8989766 109 109 109
-0.024022331623033 -0.0295615440489049 -0.0210840228955556 0.01009827 -0.4881377 -0.8727082 103 103 103
-0.0250122933569541 -0.0262904697842031 -0.0221605111770244 0.08242094 -0.1829528 -0.9796607 29 29 29
-0.0247385906443309 -0.0256864219039207 -0.0226554103346959 0.07154462 -0.1298055 -0.988955 11 11 11
-0.0242961266591362 -0.0246669605960227 -0.0220012001648618 0.08544526 0.007926699 -0.9963113 20 20 20
-0.0203661177044183 -0.0267772726067822 -0.0219754285330552 0.1173554 -0.1940347 -0.9739498 29 29 29
-0.0175081857045836 -0.0255766309961115 -0.0211108991243453 0.1283126 -0.02076603 -0.9915164 31 31 31
-0.0213144328874342 -0.026441550911967 -0.0219836153788748 0.1241568 -0.1527551 -0.9804341 37 37 37
-0.0204220680934823 -0.0244151755026191 -0.0220480356264052 0.1523018 0.009918015 -0.9882843 22 22 22
-0.0249232930415437 -0.0218106950659887 -0.0218185365163925 0.106578 0.1357646 -0.9849919 18 18 18
0.0036301026604697 -0.0560657516281991 -0.00540630165912442 0.01923859 -0.471093 -0.8818737 111 111 111
0.00415069533301571 -0.054423545184704 -0.00589077945336169 -0.0662604 -0.5008102 -0.8630172 101 101 101
0.00531866860933095 -0.0557388667151622 -0.00530183197554507 -0.0466079 -0.5481966 -0.8350498 117 117 117
0.00165120649227735 -0.0544751708741155 -0.00623863133063901 0.006900129 -0.4360784 -0.8998823 121 121 121
0.0032294026415105 -0.0537595231461504 -0.00620289019817927 -0.05021292 -0.4837025 -0.8737909 89 89 89
0.00154645986209179 -0.0524607013329895 -0.00700068162799583 -0.0247001 -0.4743921 -0.8799671 99 99 99
0.0082675087431463 -0.0538440079650219 -0.00708842708844176 -0.2798649 -0.6186234 -0.7341531 62 62 62
0.00853687789938773 -0.0525903434295848 -0.00894840121710311 -0.3114156 -0.6153296 -0.7241476 75 75 75
0.00725574309940757 -0.0516259591751954 -0.00875643172954005 -0.2719482 -0.6224694 -0.7338774 73 73 73
0.0106481915188708 -0.0537950833387769 -0.00840943040491537 -0.3352186 -0.6079686 -0.719724 57 57 57
0.00779204613669382 -0.050395231905065 -0.00950241425338705 -0.2958651 -0.6207142 -0.72607 78 78 78
0.00377752640320539 -0.0511318181450365 -0.0077941571918787 -0.09777217 -0.5091689 -0.8550951 93 93 93
0.00094277506530549 -0.0488516491908483 -0.00820859570200949 -0.04331816 -0.5104269 -0.8588294 60 60 60
0.000380780961517058 -0.0476783620382327 -0.00982369259029103 -0.08619116 -0.5691602 -0.8176966 65 65 65
0.000669374553131874 -0.0467835940468039 -0.0100807164002591 -0.1138769 -0.6006588 -0.7913539 46 46 46
-0.000966073276081669 -0.0458067919161534 -0.010981550427431 -0.06720758 -0.5796841 -0.8120649 78 78 78
-0.00284262165373894 -0.0450530870392464 -0.0115538301348435 -0.03710306 -0.5425534 -0.8392015 123 123 123
-0.00409891323918865 -0.0439803760517866 -0.012597922613174 0.001286869 -0.4979712 -0.8671926 159 159 159
-0.00626292661046124 -0.042420277066047 -0.0128216090929206 0.01151459 -0.3909732 -0.92033 137 137 137
0.0117872378063888 -0.0497108018998783 -0.012187000670433 -0.1489515 -0.5287806 -0.8355863 119 119 119
0.00867084938315177 -0.0494732245605777 -0.0125526489701792 -0.2247832 -0.5721524 -0.7887421 76 76 76
0.0100358382621297 -0.0508384368592037 -0.0107526923662655 -0.2771971 -0.5886289 -0.759393 39 39 39
0.00610167878604839 -0.0474597937631166 -0.0124289585395689 -0.3026136 -0.5768651 -0.7587171 83 83 83
0.00746882057365905 -0.0480812769080822 -0.0128736724682161 -0.2731209 -0.5696155 -0.7752053 118 118 118
0.00503626969338988 -0.0458041772454259 -0.0131055536396765 -0.2975193 -0.5582866 -0.7744665 95 95 95
0.00479243528109841 -0.0435272130807985 -0.0149212001243577 -0.2287987 -0.5613762 -0.7953037 117 117 117
0.0134209027136745 -0.0509126714352367 -0.0113188649273301 -0.1713258 -0.4902437 -0.8545809 150 150 150
0.0162789347525245 -0.0485064810587495 -0.0127290617689059 -0.06761461 -0.3899276 -0.9183598 115 115 115
0.0123797868120001 -0.0470943156333902 -0.0134161464954644 -0.03736887 -0.4584191 -0.8879502 153 153 153
0.0149160242442701 -0.0464065662256342 -0.0136946257798661 -0.0621918 -0.4477208 -0.892008 141 141 141
0.00462580128205792 0.005424954208216 -0.0284187375331301 -0.2270585 -0.6125039 -0.7571548 71 71 71
0.00962819311726681 -0.0454018282731759 -0.0139158724666461 -0.08124297 -0.5074993 -0.8578135 133 133 133
0.00913708928220647 -0.0441055477192488 -0.0148999159092404 -0.06511699 -0.5461708 -0.835139 155 155 155
0.00805934447403445 -0.0428709565883652 -0.0157870186351818 -0.07986771 -0.5282014 -0.8453546 163 163 163
0.00801160685449531 -0.0423188534453876 -0.0166151224349384 -0.07679383 -0.5097162 -0.8569084 115 115 115
0.0161388798658844 -0.0472225412339001 -0.0137241935124649 -0.06389708 -0.4340064 -0.898641 95 95 95
0.0143622826591274 -0.0446667235682861 -0.0145241039609617 -0.03825076 -0.4643475 -0.8848267 177 177 177
0.0130571752665984 -0.0450567952055386 -0.0140978732174141 -0.006765076 -0.4682946 -0.8835465 176 176 176
0.0177685911078207 -0.0458050578380368 -0.0143153088202733 -0.09800851 -0.474961 -0.874532 80 80 80
0.0160599986876711 -0.045099541405298 -0.0144008865579638 -0.0653094 -0.4615794 -0.8846915 120 120 120
0.0207304800537944 -0.0436470936377545 -0.0156754811556714 -0.1318972 -0.4888413 -0.8623441 121 121 121
0.0174707435339312 -0.0432551807343616 -0.0160102808087242 -0.1082301 -0.5044067 -0.8566564 98 98 98
0.016229488396597 -0.0412880355471944 -0.0166971114862376 -0.09137312 -0.5055817 -0.8579266 79 79 79
0.0117607212715889 -0.0438155443898883 -0.015248821259977 0.01139989 -0.4955913 -0.868481 146 146 146
0.0134936885831278 -0.0426840794656683 -0.015704280246299 -0.005745495 -0.5143861 -0.8575395 149 149 149
0.00913962821152481 -0.0401847137986407 -0.0178810785460232 -0.02372147 -0.4665745 -0.8841637 117 117 117
0.0137823281223231 -0.0413643843522956 -0.0161174675106061 -0.02605517 -0.5080105 -0.8609567 161 161 161
0.000414578232775131 -0.0447821694023528 -0.0121547175498538 -0.1370251 -0.5932567 -0.7932658 62 62 62
0.00134167636291949 -0.0431718061045015 -0.0145489512929901 -0.2163636 -0.5714704 -0.791586 119 119 119
0.00218637610100325 -0.0431881621396802 -0.0135630589681275 -0.2519864 -0.5762019 -0.7774923 87 87 87
0.0421319841020056 0.0425432509343237 -0.00781385137529139 0.3188346 0.3951252 -0.8615222 152 152 152
0.0031678133775368 -0.0418814385391967 -0.0148364853818191 -0.2602739 -0.5509456 -0.7929164 79 79 79
0.000850502458975555 -0.0417040674662355 -0.0146454049614972 -0.2171075 -0.5666615 -0.7948327 123 123 123
0.00154737515094583 -0.0405760912736032 -0.0154869683735273 -0.2454001 -0.5820254 -0.7752582 100 100 100
0.000169179129199559 -0.0395051215784609 -0.0154640665262872 -0.2455243 -0.59993 -0.7614472 108 108 108
0.00245564149408795 -0.0395268849495892 -0.0161013359743326 -0.211884 -0.5608335 -0.8003568 142 142 142
-0.00171574496449267 -0.0408358992046446 -0.0142718844403568 -0.1941348 -0.5422944 -0.8174524 114 114 114
-0.00370335444211767 -0.0396384374983577 -0.014256668274246 -0.166989 -0.4973701 -0.8513153 135 135 135
-0.00666576557705545 -0.0381201094452051 -0.0145678689696003 -0.1133828 -0.4904698 -0.8640507 141 141 141
-0.00173702928474517 -0.0374576393481153 -0.01726010927563 -0.2241779 -0.6844012 -0.6937861 86 86 86
-0.0043828878095753 -0.0378099414593348 -0.0156713898116367 -0.2179999 -0.6171389 -0.7560527 93 93 93
-0.0062381667817859 -0.0368508717830554 -0.0161036532763337 -0.180813 -0.671513 -0.7185938 91 91 91
-0.00249758117186394 -0.0389304925835075 -0.0150444422811772 -0.2141456 -0.5608442 -0.7997471 132 132 132
-0.00276838575647309 -0.0372166739582941 -0.016223279717447 -0.2371664 -0.6865962 -0.6872683 108 108 108
0.00508010417680227 -0.0405054012758851 -0.0167081687795022 -0.2039061 -0.5163984 -0.8317181 136 136 136
0.0072175812933315 -0.0403789569266527 -0.017222051454194 -0.1407038 -0.4908133 -0.8598283 96 96 96
0.00352545147917294 -0.0387783931460871 -0.0175623252888459 -0.1632528 -0.5862455 -0.7935141 116 116 116
0.00602614708039528 -0.0388228304335399 -0.0176478111696364 -0.1373914 -0.5015617 -0.8541425 134 134 134
0.00422769009592239 -0.0372049121097265 -0.018347826628594 -0.1014695 -0.5666406 -0.8176933 63 63 63
-0.00451828398361842 -0.0356341354521389 -0.0176910508740676 -0.212654 -0.7327981 -0.6463631 84 84 84
-0.00242990772860185 -0.0346274822216063 -0.0194166142498092 -0.1545979 -0.6076503 -0.7790126 85 85 85
-0.00320560785146684 -0.0336268214472844 -0.0208637113495948 -0.1010313 -0.4101269 -0.9064152 92 92 92
0.00223167766045318 -0.036012090706354 -0.019153319668426 -0.09872249 -0.6092771 -0.786788 54 54 54
0.00300711176056812 -0.0350099957626854 -0.0204282691022756 -0.07344989 -0.4864144 -0.8706354 57 57 57
-0.000220764069742696 -0.0349424656400156 -0.0193109238104449 -0.1447962 -0.6049191 -0.7830115 25 25 25
-0.000907299664373085 -0.0323565275659742 -0.021374315591986 -0.08599788 -0.2264872 -0.9702103 201 201 201
0.00713361440553539 -0.0373464376863063 -0.0185083827102107 -0.05245627 -0.4955816 -0.8669759 118 118 118
0.00898481512681926 -0.0384314879655606 -0.0177023458656986 -0.04356796 -0.4648425 -0.8843209 97 97 97
0.00599257628598204 -0.0373804178496045 -0.0178976356665174 -0.08854028 -0.510769 -0.8551466 113 113 113
0.00621495522124649 -0.0365058195799551 -0.0195080526018364 -0.01994228 -0.5229371 -0.852138 77 77 77
-0.00967938102456856 -0.0386713502618635 -0.0139825776911723 -0.02805483 -0.4052703 -0.9137663 139 139 139
-0.0085570973085014 -0.0363381933369645 -0.0156512878321192 -0.1546783 -0.661992 -0.7333766 114 114 114
-0.0119136581432744 -0.0344190951166886 -0.0165587349525022 -0.08252725 -0.6948739 -0.7143805 145 145 145
-0.00690095216882813 -0.0351530018739391 -0.017906187816031 -0.1981378 -0.7405829 -0.642089 109 109 109
-0.00928235813920386 -0.0350848080385205 -0.0171890828344132 -0.1675402 -0.7303289 -0.6622311 129 129 129
-0.00940521093826074 -0.0339875364886782 -0.0174321548311117 -0.1795416 -0.7311102 -0.6582117 157 157 157
-0.00449164229560672 -0.0346668756654417 -0.0195817169492948 -0.1645491 -0.6537749 -0.7385811 91 91 91
-0.00591246446872296 -0.0336395740571113 -0.0200340865618296 -0.09786215 -0.5720627 -0.8143508 77 77 77
-0.00786876667220771 -0.0331707216551616 -0.0204166771800007 -0.1593542 -0.5065503 -0.8473565 57 57 57
-0.00729719998270317 -0.0319896767761484 -0.0212984463740417 -0.06942245 -0.2828568 -0.9566465 112 112 112
-0.00903338697353728 -0.0322282365745902 -0.0214587748383797 -0.1179027 -0.3833324 -0.9160541 117 117 117
-0.00448514248135901 -0.0320174973866606 -0.0213112149951742 -0.01329851 -0.1860785 -0.9824449 195 195 195
-0.00108581561274024 -0.0293804007587527 -0.0206930497145636 -0.06755428 0.01414109 -0.9976154 198 198 198
-0.00445343232450002 -0.0309554372215169 -0.0208394959993 -0.002577147 -0.08653104 -0.9962458 171 171 171
-0.00603045694811133 -0.028119347679998 -0.0202824502780696 0.01565326 0.09283607 -0.9955584 164 164 164
-0.00458338453377749 -0.0289313182221061 -0.0203381926846758 -0.05408384 0.08859134 -0.9945987 206 206 206
-0.0104456702686377 -0.0310672042913939 -0.0211766307531578 -0.08942949 -0.3729229 -0.9235426 80 80 80
-0.0102060816225178 -0.0311111192636663 -0.0214369468047861 -0.08807667 -0.4279754 -0.8994885 133 133 133
-0.0105004282586862 -0.0279206894239748 -0.0205699192599322 -0.01324775 0.04938577 -0.9986919 36 36 36
-0.0131688065517666 -0.0277309984547155 -0.0203677532031774 -0.04718538 -0.04442602 -0.9978977 21 21 21
-0.00776306576442609 -0.0283791304196291 -0.0204513170701975 0.03239126 0.09110323 -0.9953145 163 163 163
-0.00668669538789901 -0.0282360839244237 -0.0209219417447137 0.01562568 0.09039048 -0.9957838 171 171 171
-0.00450432146199908 -0.0269071788425338 -0.0200314006590966 -0.01914876 0.1411615 -0.9898013 127 127 127
-0.00374171059137041 -0.0278498838798314 -0.020469340880634 -0.02591754 0.1389525 -0.9899598 180 180 180
-0.0057332407157169 -0.0245749825759717 -0.019626238645215 -0.01405387 0.06487212 -0.9977946 57 57 57
-0.00477888810132931 -0.0240882213789254 -0.0198910445446796 -0.02633338 0.06005763 -0.9978475 37 37 37
-0.00859138656952885 -0.022477986807731 -0.0200021596649529 0.02560189 0.03145891 -0.9991771 37 37 37
-0.00613305460593105 -0.0224406695911924 -0.0198156656550006 -0.009185453 0.0357287 -0.9993193 57 57 57
-0.00839819332479497 -0.0214558375923094 -0.0197082853958812 0.01414694 0.01072228 -0.9998425 35 35 35
-0.0143644406890884 -0.0256469205668895 -0.0203645050505158 0.1013702 -0.005180507 -0.9948353 37 37 37
