ply
format ascii 1.0
comment File exported by Rhinoceros Version 7.0
element vertex 466
property float x
property float y
property float z
property float nx
property float ny
property float nz
property uchar red
property uchar green
property uchar blue
end_header
-0.0701235455034529 -0.0700326178272224 -0.0126374340656802 -0.9800805 0.1800973 0.08370815 145 155 150
-9.89359377180365E-05 -0.0314323518474555 0.0212386713788256 0.05038859 -0.002615979 0.9987262 240 248 220
-0.0199774425981795 0.0658579256336236 -4.36308368697968E-05 -0.9166803 0.3914958 0.08017626 157 163 160
0.0301472622396196 -0.0393479678829169 -0.000830064764584621 0.708236 -0.6058901 -0.362352 194 194 191
-0.0161567252634321 0.097190597275927 -0.0118648065294728 -0.454188 0.866853 0.2056189 171 175 174
0.0456097799779619 -0.0113055322368598 0.0190966704354033 0.09967051 -0.1273391 0.9868386 204 207 207
0.0521035868169512 -0.0074007723529792 -0.0020038990810171 0.9192678 -0.3628961 -0.1524896 192 194 174
0.0263343531133379 0.0797521259586358 0.0188436561689123 0.05724842 0.009629057 0.9983135 192 192 198
0.0737407285215105 0.0568318154613519 0.0179460102185949 0.3237616 -0.1571661 0.9329937 197 197 192
0.0675336796285356 0.0454394008914971 0.0184362286195501 0.1039872 0.004468674 0.9945686 204 202 202
0.0775300342084612 0.0556034233371758 -0.0190937884658233 0.9951253 -0.08686537 -0.04669047 194 195 173
-0.015564731931523 0.0944625522892022 -0.00541055319305809 -0.8271062 0.509406 0.2374885 145 160 153
-0.0467106026171004 -0.0122839424808479 0.0135499162093147 -0.9538226 0.2987676 -0.03099154 171 180 173
0.0398722964765276 0.0852985169689202 0.0186257378623232 0.2123653 0.2663419 0.9401931 187 190 194
-0.0284600776193892 0.0472593691150689 0.0017322113231167 -0.9806033 0.195988 -0.002422333 148 157 152
0.0109113532544817 -0.0632207009990668 0.0133631301537499 0.5495687 -0.835418 -0.00714072 209 204 198
-0.00038170037253249 0.0395613100330376 0.0208160148427233 0.06606287 0.0437459 0.996856 223 238 192
-0.0251184028147017 -0.0156960103710151 0.021006593243812 0.0306486 0.008564416 0.9994935 207 221 199
-0.0522527616976057 -0.10683353879051 0.00826186849329321 0.4802415 -0.87689 0.02078473 227 226 213
0.00745547595040452 -0.0660050723751044 0.0114952882245526 0.7221141 -0.6888623 0.06340247 202 203 193
-0.00412606415732253 0.0424362804691338 0.0207517796621069 0.06871279 0.004335755 0.9976271 206 225 181
-0.0642756741998946 -0.0898239228923774 0.0232592315838083 0.05167342 0.01034726 0.9986104 205 209 216
0.0510540086271013 -0.0130322787960029 0.000286236168478409 0.9648046 -0.2563011 -0.05883618 182 184 173
0.050411351347133 -0.0127244804103828 -0.0141063128289424 0.9057488 -0.4186181 -0.06616628 199 199 183
-0.0159679573534285 -0.0812763188083625 0.0187888012692675 0.5185449 -0.6591682 0.5446176 211 210 198
-0.0127515119074141 0.019608297566607 0.0204362475738272 0.04667122 0.02060988 0.9986976 203 224 158
-0.0520800870416914 -0.0805520627696967 0.0228622609243139 0.02195892 0.02087588 0.9995409 194 199 199
-0.0765283626077925 -0.116547426958845 -0.0113282795104787 0.1024497 -0.9783269 0.1799458 198 201 195
0.0130427557470049 -0.0559100125034309 -0.0142663797346067 0.6110388 -0.7272446 -0.312645 214 215 208
-0.000227443551853779 0.0955769207279229 -0.0229948780074373 0.4014202 0.9004012 0.167748 169 171 166
0.0277023989202226 0.0781135942737603 0.0191467197105631 0.04701518 0.01457563 0.9987878 192 197 201
-0.0286314409731184 -0.0908314202030158 0.00380684784207193 0.5415064 -0.8132097 -0.2132157 216 216 204
-0.0170856636522566 0.0756367828647637 0.0182988548145041 -0.8482177 0.2686189 0.4564762 160 165 163
-0.0444678586481367 -0.103665849943922 0.00011930591020433 0.4108797 -0.907731 -0.08486612 220 219 207
-0.0161645334718977 -0.0347789738376594 0.0213789397344336 0.03288099 0.0008327924 0.9994589 210 214 218
-0.0350576561449324 -0.0811305854518867 0.021843561665748 0.03171686 0.009473938 0.999452 210 210 211
-0.0157146972177779 -0.054555258532331 0.0215712988242849 0.0250803 -0.02808442 0.9992909 207 210 217
0.017860241556331 0.0932063844005608 0.00505089922401754 0.07626875 0.9737728 0.2143584 151 163 155
-0.0059753578661238 0.0743071820537591 0.0203162373468622 0.03574435 0.01708647 0.9992149 193 198 204
0.0576158839704241 0.0455109264652276 0.0186168120667681 0.002583253 0.02798042 0.9996051 205 203 204
0.0455457645894731 -0.023268363257215 0.0133890525862917 0.9472255 -0.2468623 0.2045066 205 207 201
-0.0072534602640425 -0.0778283093173957 0.0115099919453606 0.522841 -0.8471417 0.09480561 237 228 219
-0.0679653805254256 -0.113750180979536 0.0104821042582735 0.2046205 -0.9769843 -0.06026677 205 204 191
-0.00594680724127639 -0.0701787684162116 -0.018642222280021 0.7430547 -0.6337207 -0.2150993 207 206 188
0.0418729859830583 0.0815191056530022 0.0188219451770529 0.0792522 0.02248107 0.996601 188 194 199
0.00174326481835496 0.0940936591426873 -0.0171390951186076 0.2173067 0.9756441 0.02993865 151 154 150
0.00772274317757737 0.0766748573581719 0.020073478804563 0.01500421 0.03334893 0.9993311 207 223 189
0.0190512615682329 0.0939656879703545 -7.08925112739411E-05 0.1211534 0.9814478 0.1486006 153 160 160
0.0420143682004656 0.0315585520069146 0.0186543108389124 0.03490202 0.007863846 0.9993598 202 197 201
0.0357737618924822 -0.0228919599254584 0.0197465063497767 0.04356339 -0.005972891 0.9990328 190 193 197
0.0181515890599931 0.0926186229984307 0.0190725640818819 0.1917228 0.7381411 0.6468308 176 177 180
-0.00568973240836013 0.0965721394817376 0.0147232429549441 0.04240027 0.9990906 0.00450654 165 168 170
0.00611311974541795 0.0909711506168389 0.0198256873950705 0.02871194 0.1005847 0.9945141 181 185 190
-0.0161130946634566 0.0229640986721062 0.0206454449758276 0.03931562 0.01657926 0.9990893 194 200 202
-0.0402629297731673 0.0119676377574944 0.00020610051754562 -0.9878028 0.1480427 0.04825973 167 176 173
0.0137092548848833 0.0228114511768365 0.0200819203123793 0.02868578 0.01163759 0.9995207 216 234 181
0.0676165300847734 0.0428429629604363 0.0184712016448721 0.0958969 0.004224977 0.9953823 204 204 202
-0.0266321819780623 0.0526221182148003 0.00552311329696027 -0.9508105 0.2886888 0.1123306 157 159 154
0.0239380675794328 0.0199020292560601 0.0197249741718516 0.01571331 0.02193865 0.9996358 216 234 190
0.0768445807935442 0.0484857346813226 0.0110713446006521 0.9563439 -0.2669548 0.1189182 198 200 182
-0.0642899495123183 -0.0833507988651252 0.0230923572048887 0.04135972 -0.02302748 0.9988789 211 215 222
0.0557807761670793 0.0789502050678277 0.000763802552257458 0.1608258 0.969891 -0.1828839 128 136 124
-0.0435403209684645 -0.0329702708919501 0.022334052012895 0.01741321 0.009121176 0.9998068 183 186 192
-0.0200447362421309 -0.0830130789478278 -0.0217715965158895 0.5470797 -0.8358954 -0.04452696 197 200 189
-0.0477959435938154 -0.0150382135112739 0.00166528275761453 -0.915541 0.400564 0.0365129 148 154 151
-0.0579636615274702 -0.094357094546125 0.0230379083618864 0.03678734 -0.0002306628 0.9993231 205 210 212
-0.0500308197496687 -0.0286294434268928 0.0224922576412901 -0.1560509 0.05771967 0.9860612 213 214 214
0.0159666615964617 0.0937990929882073 0.00354359461519567 -0.007028854 0.9817774 0.1899048 146 154 149
0.0120681005956377 0.062598266820147 0.02018440304849 0.03103706 -0.009215908 0.9994757 188 195 201
0.06783504071252 0.03120152018471 -0.0105270005337551 0.5990474 -0.7877148 -0.1436923 190 191 166
0.0499043542386736 -0.0180478308399177 0.0011813209817156 0.812308 -0.5784892 0.07420145 200 202 196
-0.0403272133825575 -0.0972215149600959 -0.0176983203313902 0.5548759 -0.8317711 -0.01642165 219 218 207
-8.05777071272162E-05 0.0285964395801568 0.0203800999984488 0.03667228 0.001567907 0.9993261 197 201 208
0.0169734436513628 -0.0567178938587165 -0.00527328090217265 0.7424841 -0.6053098 -0.2869101 206 207 202
0.053356714868709 -0.0112761471469855 0.0180267707869753 0.5337508 -0.4693666 0.7034239 214 217 210
-0.0145080011843001 0.000729897240831834 0.021109504388307 0.05108633 0.007622732 0.9986652 206 213 212
-0.0403986197469984 -0.10152860619621 0.0016996392473921 0.5111586 -0.8593926 0.01269458 217 217 210
-0.0146329325197493 -0.0797319624622321 -0.0228033450007096 0.5663009 -0.8192542 -0.09014407 206 206 199
-0.0263894122598921 0.0557966019908929 0.00400359346124975 -0.9371656 0.3418928 0.06949836 133 142 137
0.0397437888623918 0.0270675208370232 0.0192426496610388 0.03675938 0.01435173 0.9992211 195 203 207
0.030939825201198 -0.0433415982921577 0.00713395862433759 0.74311 -0.5906078 -0.3145949 208 210 201
0.0515914041043962 0.017754950741961 0.0167457067832693 0.5895588 -0.800373 0.1087362 196 194 188
0.0133104998113359 -0.0537772987087226 -0.0216506377368823 0.7593665 -0.6503143 -0.02130394 219 218 208
0.0579708892347063 0.0216003443996453 0.0154404712334618 0.6271065 -0.7789262 -0.003385675 187 186 160
0.0397651869298662 -0.028077146788404 0.00668988911959974 0.7348096 -0.5230412 -0.4318366 150 156 122
0.0413431602956499 0.0864563371936822 0.0189422422513708 0.270393 0.3698138 0.88889 185 189 192
-0.019934586858586 -0.0845535609920478 -0.00757798669334801 0.2544151 -0.966747 0.02594336 206 207 190
0.0233425575734819 -0.0556177113254523 0.0110667084768757 0.661 -0.7426734 0.1073088 213 214 208
-0.0676815730093275 -0.0844644520481086 0.0234725342557177 0.02058714 -0.0007344409 0.9997878 190 193 198
-0.0766374093054091 -0.115598163386152 -0.00259208609756382 0.06131338 -0.9853531 0.1591224 199 202 195
0.0316752273084367 0.0221220638553643 0.0195652337238535 0.03415379 0.0152368 0.9993004 209 212 219
0.0398401695729936 0.0681894209186578 0.018882857398723 0.05794429 0.01416075 0.9982194 199 202 210
0.00795532050149095 -0.0245413396556831 0.02079400582764 0.07029112 0.01501865 0.9974135 220 217 214
0.0702041465284075 0.0358618881504082 -0.0159809391520575 0.8500262 -0.4933836 -0.1844666 191 189 162
0.0378342348577226 0.0766049411098504 0.0192327403888449 0.04353835 0.007465124 0.9990239 204 210 215
-0.0140224617479597 -0.0484666440685249 0.0216325351462111 0.02942254 0.01888394 0.9993887 209 211 216
0.051357396269008 -0.0131721708972907 0.00990150658938734 0.7985253 -0.5941766 -0.0964962 198 200 189
-0.0044116896150862 -0.0613254521091438 0.0212419459089979 0.05237794 -0.01409173 0.9985279 198 200 200
0.00911200823800218 0.0964789774219537 0.0188883037731394 0.1726689 0.8749372 0.4524052 127 137 143
-0.0156932991503035 -0.0709810469348884 0.021559828655456 0.03375362 -0.009708025 0.999383 208 214 215
-0.0260609906671797 -0.0733359668453193 0.0218184941873297 0.01178801 -0.00047893 0.9999304 218 216 216
0.0190512615682329 -0.0575572464664436 0.00234492285702077 0.706545 -0.6850383 -0.1775293 211 212 204
0.047797985696956 0.0194129135410332 -0.00858911429938229 0.663982 -0.7469028 -0.03555367 151 153 107
-0.0557180565355574 -0.0471791837413764 0.0228791625663981 0.01942927 -0.0139634 0.9997137 189 197 206
0.00163615527169358 0.0454755809108758 0.0199981571600184 0.001783939 -0.01773678 0.9998411 189 200 185
0.0481407124044145 0.00555870793266533 0.0190966927871451 0.2659777 0.2942185 0.9179822 198 202 197
0.0334460217000688 0.078687944630816 0.018949920074676 0.0199696 0.02388552 0.9995152 190 194 198
0.00749117913262498 -0.0454523775775886 0.0205068157479509 0.0370816 0.0449473 0.9983009 208 210 213
0.0544170218946184 -0.000773331900403518 -0.00890821568142923 0.9503503 -0.2261524 -0.2137506 178 178 161
0.0428712445737566 -0.0208959195812202 -0.0163061738753349 0.7014173 -0.7059787 -0.09802006 191 191 173
0.0341029244901384 0.0497278358737969 0.0192997956142172 0.01588102 -0.009721592 0.9998266 212 226 188
0.00341410222069871 -0.0314261529643989 0.0207669825718149 0.05672998 -0.007418178 0.998362 243 248 229
-0.0412268858907973 0.00678829214973686 -0.00409790245291146 -0.9711051 0.2066206 0.1194268 149 155 160
-0.0618336719034468 -0.0873429391582465 0.0230436527595266 0.03257283 0.01581755 0.9993442 198 204 208
0.0121322947980608 0.0957763578693414 -0.00640870095636996 0.02422697 0.9996966 0.004440592 164 160 155
-0.0240527313707625 -0.0855248186786628 -0.0222986603662029 0.51934 -0.8536032 0.04058913 215 216 208
0.0732458907605852 0.0392604257862115 0.00517870648357717 0.8822041 -0.4575175 -0.1113273 194 197 169
0.00988317313210618 -0.0574820850093818 -0.0175634459633038 0.4988077 -0.8666981 -0.005038939 211 213 203
0.0680749494077409 0.0328920867244744 0.0166190897539601 0.4368754 -0.4951601 0.7509703 194 195 181
0.0606076199056352 0.0268637325565362 -0.0150827212241601 0.5034365 -0.8638655 0.01697183 213 212 194
-0.0182750743387495 -0.0840940091808295 -0.00740064564567359 0.2669353 -0.9636529 0.01088794 209 207 190
0.0216774422170366 -0.0184127900798774 0.0199118310079321 -0.0006064802 0.0009384252 0.9999994 187 189 190
0.0360379296781267 -0.0375223968227363 0.0196686589584097 0.2598628 -0.165213 0.9514074 216 217 220
0.0797292667867388 0.0624278571407342 -3.04107129231301E-05 0.9787488 -0.1383384 0.1513715 194 193 178
-0.0605055910108839 -0.0442509863574958 0.00771186477098314 -0.9072184 0.3596949 0.2181156 173 179 186
-0.0520729344843184 -0.10002668835716 0.0226774231955752 0.3205031 -0.3836435 0.8660805 224 224 227
-0.0283850949762617 0.00109998248024223 0.0215998159215197 0.04533362 0.03050112 0.9985061 205 208 215
0.0784897285939897 0.0628503348629021 0.0164025498047814 0.899986 -0.1235087 0.4180559 185 184 168
0.00936908307091844 -0.0579718563755012 -0.0118725260294631 0.3581669 -0.87771 -0.318342 212 215 203
0.0781583863736833 0.0601280715267205 -0.000456472164358219 0.9807219 -0.1620779 0.1091573 192 190 167
-0.0542221587656294 -0.0474966976840949 0.0225571820006117 0.03609147 -0.001905146 0.9993467 205 210 214
0.024506457472011 -0.0511905763347602 0.0183253751561388 0.4344401 -0.5490187 0.714031 207 209 211
-0.0277746242044722 0.0480583097736382 0.0119080876425251 -0.9655166 0.2495534 0.07416794 152 161 156
-0.00838714060767043 -0.0768497202594733 0.0145014056429609 0.4223963 -0.895943 0.1373587 214 216 205
0.0038045722486223 0.0566505577365899 0.0202805043623194 0.04032901 -0.02514094 0.9988701 196 198 203
0.0196969586850847 0.0296502496997857 0.0197132246062502 0.05459565 -0.01314767 0.998422 195 199 204
-0.00673937020285476 -0.0512738440235114 0.0211099178955301 0.04113182 0.01907721 0.9989716 199 202 204
-0.0654538196085249 -0.109803161402509 -0.0206761646590784 0.5199922 -0.8541379 -0.007525076 192 190 169
-0.00956689534170974 0.0811650540630364 0.0201269739732489 0.04865102 0.01338329 0.9987262 194 196 200
-0.0160145681856428 0.0757023479740166 0.00608484982106535 -0.9539667 0.2999052 -0.002100742 143 152 138
-0.0232762616632735 0.060066917161181 0.0105186232790693 -0.9123259 0.3280739 0.2450081 157 173 167
0.0483977872373308 0.0843834068576836 0.0130451673135504 0.3220038 0.9448879 0.05916441 153 154 140
-0.0559786778448378 -0.0336296770771003 0.00628134025785772 -0.9087239 0.4171481 0.01443288 165 171 174
0.00435657086388719 0.00154481194420097 0.0197059379384264 0.07865275 -0.002030609 0.9969 206 229 148
0.0461834150792803 -0.0185653183658576 -0.00893305917676838 0.6934192 -0.7172719 -0.06849019 198 197 180
0.00434232535378587 -0.0498700354297614 0.0210004614159807 0.03482483 0.01429847 0.9992911 213 207 211
-0.0180898827074324 0.0592520024578118 0.0209254489705309 -0.1379275 0.04009667 0.9896303 184 189 193
0.00735551896111619 0.00153825543327568 0.019766131179069 0.02492393 0.01039474 0.9996353 215 232 181
-0.0138254087923323 0.0950836922924065 0.00494076101634351 -0.6531269 0.7572291 -0.00541041 149 160 154
0.0343885499479021 -0.0316112849910712 -0.00922742649387868 0.7718369 -0.6260245 -0.1111808 198 196 187
0.0314467627050127 0.0795005943576836 0.0193746963009581 0.026066 0.05075291 0.998371 198 204 211
0.049340315485164 0.00861821434898613 0.00667915655824987 0.7232386 0.689734 0.03453707 170 172 147
-0.0273461860178267 0.0377905752460503 0.0218400151893839 -0.2004224 0.02456601 0.9794015 214 215 225
-0.0119832080362593 -0.0783336374958015 -0.0167672708671198 0.5650128 -0.7934952 -0.2261104 207 204 193
0.0495330769063677 0.0285917904178643 0.0193027236923918 0.03036824 -0.01162643 0.9994712 189 189 188
-0.0687097829340254 -0.0640140388210273 -0.00875906111147555 -0.9844072 0.1443529 0.1005225 139 145 148
0.0375517088414873 0.00682119391365288 0.0192560793325647 0.007670071 0.01925915 0.9997851 220 236 186
-0.0285600346086775 0.00686786435051201 0.0214606279000982 0.05200387 -0.009613094 0.9986006 218 219 224
-0.00356911835654128 0.0968594934741998 0.0107319501653656 -0.008118854 0.9999467 -0.006381722 162 172 165
-0.0401044410227095 -0.100129744787977 0.00782587169263212 0.4825258 -0.8530125 0.1988429 215 214 201
0.0617995339872087 0.0261571790973687 0.0117222459480509 0.7283757 -0.6831324 -0.05290596 190 190 172
0.0526390749456133 0.0234493996898675 -0.0100949464872137 0.4308397 -0.8993344 -0.07466415 133 132 98
-0.0142152231691633 0.00679842493934868 0.0211228260264143 0.006729304 0.004233286 0.9999684 210 211 219
0.0305328446866716 -0.0354107830722785 -0.0191395657643333 0.7513091 -0.6430712 0.1483037 206 207 198
0.00429946961419236 -0.0284912202556586 0.0206839495763525 0.03289064 -0.01804999 0.9992959 229 243 216
0.053951390409633 -0.0105869982440925 0.0131578200921759 0.8801609 -0.4739054 -0.02702977 196 197 188
-0.0136476081369673 -0.0774852249820686 0.0207061038777575 0.3701941 -0.4291669 0.8238763 214 217 214
0.0385441857816423 0.0865853216449761 -0.0149642933724571 0.4548285 0.8742341 -0.1698401 142 149 139
0.0213004428388323 0.092200317601397 0.008138609813188 0.0454793 0.9969057 0.06411405 133 140 136
-0.0615980547426497 -0.0777071926792121 0.0230436155066237 0.04249933 0.00684207 0.9990731 204 210 214
0.00272858920113694 -0.0682064507205939 0.0193359160289511 0.460759 -0.6141372 0.6407314 218 215 206
0.0632352310659136 0.025833883504107 -0.000110109573568424 0.5694793 -0.8113711 -0.131796 194 195 168
-0.00415717778189528 -0.074950299044416 -0.00246658572402151 0.586525 -0.8011497 -0.1189439 221 222 216
-0.0417838316915785 -0.0203453514774299 0.0217134260997519 0.05528524 0.03865108 0.9977222 200 204 201
-0.0240963619707381 0.0536877896587395 0.0208397672936663 -0.5064694 0.2815157 0.8150077 172 177 179
-0.014108113622502 0.0924080397884393 0.00853486521694509 -0.9581214 0.1355979 0.2522235 142 160 150
0.0811287838460649 0.0649814393322015 -0.0072565397753969 0.9976329 -0.01517933 -0.06706912 192 193 181
-0.0687740367410933 -0.0911184165676093 0.0234252007171854 0.04186225 0.0131294 0.9990371 209 213 221
-0.00555407223685134 -0.00579210259513618 0.0202792303130373 0.03439845 -0.01635064 0.9992744 206 209 208
0.0222643691541399 0.0924269344608331 0.0108531841501936 0.02238865 0.9966263 0.07896064 142 143 141
-0.0446684878824507 -0.0642258141239143 0.0225326062605127 0.03921152 -0.008214545 0.9991972 200 203 208
0.0765875655652727 0.0528659608165765 0.00146605236980764 0.8608288 -0.507935 -0.03123683 195 194 176
-0.0644470375536238 -0.0853982780178046 0.0229582057759508 0.05003684 -0.003093707 0.9987426 208 211 215
0.0418858605863298 0.028641500691607 0.0188510806724772 0.0384464 0.01770216 0.9991038 183 184 187
-0.0618122738359724 -0.0443666193683601 0.00392001284811346 -0.9144779 0.3608547 0.1830683 168 173 173
-0.045918039655522 -0.0488286230762458 0.0227050648495897 -0.0001913533 -0.004340676 0.9999906 200 204 208
-0.0364714485166823 -0.0144940827091193 0.0219923460349783 0.04573558 0.01223617 0.9988787 201 204 212
-0.0778564733026778 -0.0979059550960517 -0.00874426658671649 -0.9090697 0.3968783 -0.126807 163 169 168
-0.0307021063326155 0.0359021212856316 0.0176801250741228 -0.860484 0.3596061 0.3609027 160 165 165
0.0222643691541399 0.0930942680637383 0.0197345146403059 0.209944 0.8082302 0.5501705 157 164 145
-0.0487669926641737 -0.0327558729846931 0.022601483152841 0.05478496 -0.007703148 0.9984685 211 209 212
0.050711222314998 -0.00580515601234199 -0.0200837401248172 0.9865827 0.1502182 -0.06394564 185 183 158
0.0599792677404131 0.0670804168979668 0.0182755866512999 0.03302785 -0.01419665 0.9993536 186 181 178
0.0774158317090715 0.0712896373073602 0.0011389309034094 0.88952 0.3698731 0.2682312 194 194 179
0.0096077400685991 0.0484438326160455 0.0199681573972448 0.04922581 0.005538862 0.9987723 186 191 195
0.0504970032216753 -0.00487907864646675 -0.0243399350478903 0.9816924 0.1632173 -0.09818444 172 171 133
0.031539567136928 -0.00418945290641548 0.0193332449958071 0.02344432 0.0248763 0.9994156 208 233 157
-0.0129514258859907 -0.0789511416156745 -0.0216750113799826 0.5894105 -0.8013207 -0.1023741 204 205 194
0.0279451686383928 -0.000252208491132278 0.0197517515585169 0.06445754 0.005336364 0.9979062 210 220 212
-0.00799607453329909 0.0683298494617486 0.0199827903375372 0.02878979 0.000795532 0.9995852 183 190 193
-0.0602699738500868 -0.0541758749683356 0.0230035984382376 0.03048797 0.0176789 0.9993788 200 203 207
-0.00649660048468459 -0.0743980024059272 0.020716057853435 0.2788162 -0.4086743 0.8690494 212 213 211
0.0705468732358659 0.0712943460742974 0.0181556956336245 0.04190155 0.04926011 0.9979067 201 198 196
-0.0182209533212935 -0.00291671492652656 0.0209210866555914 0.02527066 0.000203225 0.9996806 203 225 186
-0.0702000480650221 -0.0817845676143623 0.0237089858815416 -0.244082 0.1281149 0.9612547 207 209 210
0.0198652822019304 0.0933744694988274 0.00206845602545587 0.1860217 0.9654701 0.1823828 163 164 167
-0.0303451341150557 0.0124653365413689 0.0210004465148195 0.009175067 0.003167996 0.9999529 184 188 190
0.0322036224843706 0.0571941520969415 0.0199039482936606 0.03183962 0.03061819 0.9990239 223 235 199
0.0275910574437822 0.0382110860149407 0.0195904092356905 0.02670949 -0.0215064 0.9994119 215 232 196
0.0117896276952471 0.00251225493355034 0.0203306057915434 0.01889388 0.01838006 0.9996526 223 243 198
0.0316272455693926 -0.026170453806684 0.0198886298999533 0.02701166 0.002166718 0.9996328 203 204 208
0.0377430993558611 0.0839493658344292 0.0190317796036944 0.03333387 0.03163822 0.9989434 189 193 196
0.0151098448278154 0.0169346120159173 0.0208223329350695 0.01853431 -0.007921084 0.9997969 211 217 211
-0.0731867176054274 -0.0765054438312507 0.00226886360499708 -0.9586433 0.2831189 -0.02909926 156 165 159
0.0581442195417131 0.058371463040545 0.0184387022123083 0.06288963 0.005987225 0.9980025 165 160 158
-0.0323586386202132 0.00239000580711601 0.0219933518633589 0.05777409 0.02357823 0.9980512 198 204 212
0.0238781053067888 0.0270498778621697 0.0196509899065241 0.02000574 -0.009174166 0.9997578 204 206 211
0.0293418246747698 -0.0371099922855354 -0.0167179610620842 0.8212124 -0.5701086 -0.02421609 202 202 195
0.0413503724576677 0.0839188482563042 -0.0188391085289076 0.322825 0.9382426 -0.124438 140 146 144
0.0318608957769121 0.0295814659397149 0.0194483303889975 0.01703428 -0.005044327 0.9998422 209 212 219
-0.0370498221872603 0.0212868239681268 0.00635291053507177 -0.9106143 0.4098617 0.05286847 154 163 142
0.0272126275541033 0.09190628788872 -0.00226355088349732 0.4803135 0.8526632 0.2055831 179 187 187
-0.0188206952570235 0.0885410096447015 -0.0127983175957233 -0.9690728 0.119455 0.2159362 130 142 123
0.0430568534375871 -0.0300005886753059 0.0140057688072666 0.9021144 -0.3878529 0.1891027 203 205 201
-0.0565427464006697 -0.0993064854343391 0.0231250354513868 0.06408537 -0.03737649 0.9972442 211 212 216
-0.000437371110752705 0.0155277635852837 0.0203412526712164 0.04146443 0.03565981 0.9985034 203 217 196
0.035995133543178 -0.0309455607135749 0.0194827334449038 0.08873606 -0.00881673 0.9960161 190 195 197
0.00358546557442796 0.0496140506069207 0.0204707884654745 0.01759712 0.01798249 0.9996834 204 209 217
0.00435663046853196 -0.0408033940990424 0.0205415168270811 0.03742846 0.01473731 0.9991906 212 213 214
-0.0341008823869978 0.000880637387468797 0.0217695215210661 0.03780152 0.02846118 0.9988798 207 210 216
0.0382585603238786 -0.0271363470752692 0.0194515900180086 0.189389 -0.04267516 0.9809743 206 207 209
0.0496729690076555 -0.00859501101569893 0.0190226675436243 0.163126 -0.1044444 0.9810613 208 210 211
0.0229070264341081 -0.0474724385936713 -0.0100757966324344 0.8077915 -0.5812941 -0.09782618 213 212 209
0.0393582064153398 0.0861152794162774 -0.00959120388549121 0.5043942 0.8631744 0.02272329 146 153 155
0.0373017865659441 0.0147137429515862 0.018942082063888 0.009272649 -0.004416152 0.9999472 185 197 144
-0.0238160413263594 -0.0855926487644172 -0.0148362602235174 0.4188288 -0.9066269 -0.05108829 217 218 204
-0.0654323917387282 -0.1110542032917 -0.0121331531595096 0.5754555 -0.8178303 -0.002137094 203 201 183
-0.00213628230078566 -0.01019491889076 0.0207762101158842 0.008479576 0.04897605 0.998764 210 211 218
-0.0224943679331099 0.0285296823780083 0.0208692604169592 0.0696917 0.02151133 0.9973366 185 191 196
0.0371304232122148 0.085455932835772 0.000820189477537552 0.4411538 0.8861614 0.1417788 133 151 141
-0.0585777085779463 -0.0406718466480231 0.0109100786462769 -0.9419779 0.3356466 -0.00435837 174 180 180
0.0499584156514848 0.0327822949687981 0.018967645005916 0.03438723 0.003184931 0.9994035 190 191 189
0.0317752439023699 0.0341926600734734 0.0193650999531492 0.01486276 -0.007051278 0.9998647 205 208 213
-0.0442972105501448 -0.0136383388240791 0.0224320122465834 -0.03940192 0.05547884 0.9976821 211 213 214
-0.0161094587801253 0.0109570410053277 0.0209779643878683 0.02431415 0.008196649 0.9996707 191 196 202
-0.000441662645176533 -0.0204475138385749 0.0208618955180391 0.04096239 0.02470577 0.9988552 209 214 221
0.0338744598867143 0.087396064023211 -0.0209398830815807 0.4887138 0.84754 -0.2069659 140 147 135
0.0424256402494158 -0.0225072715480781 -0.0079044459893957 0.7845222 -0.6189713 -0.03740777 210 209 196
-0.0746433359144484 -0.108293673773572 0.0233006605372175 -0.09431577 -0.1832305 0.9785352 231 236 242
0.0462557155133928 0.0133436705867791 -0.00578337652083786 0.7792751 0.6046097 0.1648563 154 163 95
0.0757392722608293 0.04777786991997 0.0125720796600327 0.9143602 -0.1696072 0.3676667 189 189 176
0.0680567103864397 0.0320985700885796 -0.0184756063431159 0.7240658 -0.6778585 0.1274222 183 182 162
-0.0167428773401533 -0.0839491102893806 0.0164434311405167 0.5907887 -0.7204987 0.363112 217 215 200
0.00384516301171434 -0.0706370089252448 0.00251347547921983 0.6576763 -0.7454495 -0.1084757 209 208 198
0.0217809158803667 0.00758943818016289 0.0196926461026415 0.0400601 0.04161887 0.9983301 208 212 218
0.0771873075010027 0.0642385866443658 -0.0182186388451264 0.9855772 -0.11042 -0.128238 180 185 142
-0.019634715890721 0.00960145256920097 0.0207154171035036 0.05285375 0.002500288 0.9985991 181 188 190
-0.0220576447008406 0.0156748082439446 0.0211305411026224 0.03334558 -0.01944494 0.9992547 195 200 204
0.0495248514653887 -0.0156703207691169 0.00709085142764894 0.8135839 -0.5651246 0.1368049 209 209 203
0.011975653791591 0.0484961654941582 0.0200326980516657 0.04933254 0.01220263 0.9987079 191 206 177
-0.0100810450075423 0.0966666724483514 0.00127813941392747 -0.0519308 0.9877321 0.1472706 148 157 154
-0.0259591859339033 -0.0896831367214179 0.0172441208228811 0.4590721 -0.7599376 0.4601605 226 226 218
0.00623858752267015 -0.0674959037502265 0.00998159660551397 0.704794 -0.7004464 0.1124287 205 205 198
0.00958324255959642 -0.0402291033466315 0.02053875638697 0.01086176 0.00695414 0.9999169 200 205 207
0.0299416262151445 0.0597563769619012 0.0190910862252459 0.03552346 0.02819178 0.9989711 204 224 168
0.026348658228084 -0.042772016306684 0.0201062203809961 0.07353289 -0.04622488 0.9962209 218 222 226
-0.0533510666845595 -0.0974815700252509 0.0230898687109694 0.0624604 -0.09804919 0.9932196 212 209 218
-0.0384635847566878 0.0179872300426507 0.00518175563368646 -0.9176321 0.3886623 0.08302367 152 162 154
-0.00248735365851271 -0.0385297749240852 0.0209977084264502 0.07489128 -0.01043443 0.9971371 211 215 215
-0.0444828492162977 -0.0730711434085822 0.0223657542333349 0.03850228 -0.00580179 0.9992417 198 201 207
0.0255845862867082 0.0195992972652459 0.019630169259046 0.01060968 0.0190666 0.9997619 220 236 198
0.0421428758146013 -0.025740823527143 0.00443294248137323 0.6264979 -0.6645373 -0.4072967 207 205 196
-0.0123438161371504 -0.0777963612277961 -0.0227812791749493 0.6284771 -0.7693338 -0.1146386 204 206 194
0.00960899176613939 0.0725060488979363 0.0203250402078375 0.03051162 -0.001766396 0.9995329 213 236 173
-0.0775565725324904 -0.102754316111372 0.01188780343685 -0.9149665 0.3773091 0.1430878 165 170 168
-0.00467228112204421 0.0849038150112176 0.0204931625590071 0.04700496 -0.00277939 0.9988908 187 192 197
0.00391102614419114 0.00730881951256035 0.0202799716458067 0.03174198 -0.02013077 0.9992933 216 233 177
-0.00669657406790602 -0.050056180735395 0.0211221778259024 0.04653583 0.009347375 0.9988729 197 198 201
0.0192397910596575 -0.0480216953952766 -0.0208032212726429 0.6505941 -0.7590379 -0.02426603 218 217 210
0.0164700824262346 -0.0314433191020942 0.0202317179605707 0.05474175 -0.01855694 0.9983281 210 210 213
-0.0144433301447188 0.0511262800495171 0.0208531112835154 0.001266915 -0.001989587 0.9999972 190 195 200
0.0425223785878862 -0.0298435304363227 0.0153727584943518 0.8845549 -0.3433954 0.3156618 212 213 207
0.0414745885373796 0.073742487649157 0.018894752250646 0.02818704 -0.008449457 0.999567 196 201 211
0.0436209517957414 0.0827225234310174 -0.0209823690861121 0.2812088 0.9595657 -0.01245943 135 138 131
-0.00999533352835524 0.0957958485881829 0.00378797738406507 -0.05257572 0.9952794 0.08157569 143 151 163
-0.0423873287199293 -0.101370892306135 0.00910316942784635 0.5254071 -0.8132145 0.2502592 226 225 216
0.00391501965539109 -0.0702159617145515 0.00689094676229803 0.5683861 -0.8162396 0.1033935 220 221 212
0.0477220493795122 -0.0206088636119819 -0.00197396823611411 0.6294693 -0.7646694 -0.1380183 196 196 189
0.0773158747197832 0.0693509962360406 0.017260944233869 0.6165988 0.2523745 0.7457298 196 196 183
0.0175411182882036 -0.021211764593885 0.0199646109208807 0.03409014 0.01245575 0.9993411 215 230 193
0.00963325085656297 0.089448430756762 0.0198382565245375 0.05289174 0.01354119 0.9985085 193 196 201
-0.0140893977640425 0.0212691213886285 0.0210027263924822 0.06044249 0.0006037054 0.9981715 211 226 198
0.0170805531980242 0.0929168846408868 0.0160882284358486 0.1970531 0.9783634 0.06304905 135 145 155
-0.0145151537416731 0.0455571200649285 0.0203641632065519 0.03287284 -0.02360764 0.9991807 188 192 197
-0.0764812451360976 -0.112673363467023 0.0204531417653307 -0.4931635 -0.8591776 0.1363945 203 207 206
-0.0287599485872542 -0.0713421318729377 0.0217943356797442 0.03978132 -0.0341861 0.9986234 220 224 227
0.0679806548597063 0.064490356663897 0.0179760211572394 0.0206396 0.02521918 0.9994689 180 180 173
-0.0660360675810133 -0.111638686438367 -0.0136096332030028 0.6258907 -0.7799073 0.002354942 189 189 172
0.0277358967305864 0.0637891676227593 0.0196102650329813 0.03892649 -0.007531771 0.9992137 205 214 206
0.049554474973842 0.00856361649437187 -0.00887005567025693 0.7534093 0.5419508 -0.3723758 166 173 155
-0.00639664349539626 0.00675825140877007 0.0210726649925455 0.06345913 0.004764109 0.9979731 203 204 212
0.035725243711635 0.0255242373744988 0.0194828973576769 0.02746623 -0.01578766 0.9994981 203 209 213
0.0739741999150957 0.0737369444171929 0.0186686122283682 0.4300483 0.349678 0.8323364 193 194 187
0.0435888248922075 0.0381412889759087 0.0194519252941355 0.009410307 0.01054905 0.9999001 223 241 189
-0.0141509693620955 -0.0385948035915351 0.0212419831619009 0.02251096 0.04273684 0.9988327 216 221 231
0.0419515449048723 0.0271876838008904 0.0191196070477709 0.03764591 0.006954731 0.9992669 189 193 196
-0.055150411701039 -0.108647606154249 -0.00474656676348599 0.250721 -0.9649944 -0.07697228 213 214 201
0.0243636447431291 -0.0504843208988166 0.00315458490106908 0.6730409 -0.5629563 -0.4796835 204 207 198
0.064011581564113 0.0625934388439202 0.0182416455313906 -0.008640324 0.01301458 0.999878 182 180 174
0.0157353359700884 0.0957316543857598 -0.00769060594436081 0.03614336 0.9980431 0.0510259 140 148 140
0.0729460197927202 0.0557650115291619 0.0180296541616663 0.2720151 -0.1883875 0.9436726 205 205 198
-0.0278602760790144 -0.0159160111148811 0.0218280756339773 0.009784112 0.01410709 0.9998526 201 207 213
-0.0654752176759993 -0.0587756846149421 -0.00208656886067542 -0.9338564 0.2693417 0.2353027 160 169 165
0.0458749014379228 -0.0157388065059638 -0.0242495390161529 0.6910258 -0.6610286 -0.2924458 195 193 173
-0.0362144034860884 -0.0100283835132575 0.0215700173244223 0.008999922 -0.01648041 0.9998237 223 225 230
-0.0585729700086867 -0.110147735853956 0.0193206535145983 0.4661673 -0.8142732 0.3459005 221 220 203
0.0703326541425432 0.0711024787227654 -0.0155119118903421 0.5798316 0.8126761 -0.05790451 135 142 111
-0.0303879302500044 -0.0487138841350532 0.0219405495986685 0.01248092 0.0166782 0.999783 186 191 199
-0.0438916307447706 -0.0656159136493659 0.0221021266147837 0.02948237 -0.001388521 0.9995643 211 214 222
0.0302971679212297 -0.0372496459682441 -0.00362372701462658 0.6834234 -0.6522353 -0.3279048 195 199 190
0.00200028004662645 0.077953913430407 0.0205960886046633 0.01397882 0.02874831 0.9994889 199 215 172
-0.00695358929617751 -0.0542615268428779 0.0208417416975245 0.04639959 0.01934133 0.9987357 207 211 208
-0.00208865818961013 -0.0742246124942756 0.0180204601452097 0.5248753 -0.758815 0.3856238 226 224 218
-0.000704817151859882 -0.0733370397289252 0.0175733731553301 0.6195677 -0.7147305 0.3244938 227 226 215
-0.0204915326593672 -0.0637480828960395 0.0218385548755869 0.04735412 0.004066937 0.9988699 214 215 221
-0.0778075080869948 -0.112095973273084 0.0206656584009871 -0.4536169 -0.8793201 0.1450098 191 196 194
-0.0622192543504988 -0.0660485241611457 0.0231242047116503 0.01638112 0.009645629 0.9998193 206 206 211
-0.044154397821263 -0.0984877560337043 0.0195588523015722 0.4646724 -0.6739433 0.5743517 226 228 226
0.0753879624845232 0.0421526219646478 0.0143356469884857 0.9367294 -0.1530151 0.3148401 210 212 199
-0.0266035717485701 0.00487563870353935 0.0208246463403448 0.03972883 0.004482044 0.9992005 203 205 209
0.0203579741956438 0.0948218490879082 -0.0147578636137659 0.03097984 0.9895278 -0.1409791 153 161 149
-0.0101881545542036 -0.0799126241405463 0.00145157961699812 0.3530225 -0.9337588 0.05890368 220 220 206
0.053153165006801 0.00446007512016533 -0.00398870488103779 0.9484805 0.3153226 0.03092401 190 192 173
-0.00243376908285964 0.0956895735065484 0.00461435480568258 -0.130291 0.9891534 -0.06782173 172 177 172
0.0169520455838884 -0.054229638357923 -0.00960116391476544 0.6992548 -0.641594 -0.3152776 212 214 209
-0.00425457177145827 -0.0554600570400214 0.0211160459980711 0.02923397 0.02282427 0.999312 204 205 208
0.0757592994214739 0.0698025610248589 0.0175883674487814 0.4228852 0.2291504 0.8767315 191 193 179
0.0416655022145952 -0.0319636676509834 0.0152132043108687 0.9213811 -0.3108612 0.2332857 211 212 206
0.062278457307979 0.078635909775927 -0.00145498314347418 0.1166078 0.9645357 -0.2367984 160 160 135
-0.00386362490637648 -0.0279348108966804 0.0212011279031977 0.01851738 0.01120892 0.9997657 216 232 212
-0.0407898944376265 -0.0970754835803962 -0.0121332132298157 0.6370326 -0.7664721 -0.08191486 212 213 202
-0.0508519631384169 -0.0233329746921516 0.00835033854994623 -0.9252474 0.3661987 0.09907435 166 174 172
-0.0172998827455794 0.0762864734928155 -0.00253670313801917 -0.943334 0.3049608 0.1308426 157 163 158
-0.0355503481386458 0.0249454762737298 -0.00569381961074026 -0.9410756 0.3345251 0.04969537 148 158 149
-0.0282932442186629 -0.0886095974643684 -0.0165278957033187 0.6283825 -0.7746788 0.07076772 216 216 205
-0.0768818181513106 -0.0963964674671149 -0.00972083188068422 -0.8928567 0.4238185 -0.1522657 164 166 169
0.0464270788671221 -0.020727178831861 0.0109913998708471 0.9478831 -0.308374 0.08014429 215 215 209
-0.0304736417291914 -0.0444117996890998 0.0218964123592123 0.004872629 0.00281418 0.9999841 194 201 204
0.0734173137189592 0.0366416361133599 0.0166390144691214 0.8237156 -0.3532822 0.4434911 200 202 193
0.0223072248937334 0.0951104547779107 -0.0137813054065809 0.1707209 0.981545 -0.0861615 156 160 144
-0.0243258398531233 -0.0190251682002998 0.0216252298519358 0.02185318 0.01995134 0.9995621 216 233 200
-0.0681314092634474 -0.0575475309093452 -0.0160011099692092 -0.9802009 0.176321 0.09009454 164 173 173
-0.020020298337773 -0.0870235178668952 0.00921695842001287 0.5351128 -0.8043834 -0.2581118 204 206 194
0.0445134717466081 -0.0165911529262519 -0.0254575333132997 0.7014189 -0.6459355 -0.3012953 189 192 170
0.0382871705533708 -0.0336619827945686 0.00509933172318784 0.892438 -0.2564637 -0.3711884 176 178 161
-0.0224479955194746 0.0452123667995477 0.0213268452748999 -0.03007997 0.03674767 0.9988717 201 203 208
0.0187942463399614 0.0913549449245477 0.0200305075809702 0.153393 0.3579553 0.9210529 201 206 214
0.0602434951307024 0.0296438123981499 0.0186059155926451 0.07594046 -0.0454698 0.9960751 199 196 193
0.035491712713405 0.044235983113482 0.0188700088724836 0.03692396 -0.0166217 0.9991798 176 189 176
0.017262645387813 -0.00858285166816475 0.0201368720695719 0.02138886 0.01744116 0.9996191 211 214 221
0.0458272773267473 0.0840258385936761 0.00992764695141164 0.2326831 0.9406056 -0.2472239 153 166 156
0.00362826170937669 0.0540246751110101 0.0202716866001829 0.04344406 -0.02131824 0.9988284 193 195 200
0.0335983711721147 -0.0322977516849494 -0.0203475512139157 0.7416046 -0.6520396 0.1576927 198 197 183
0.0701827484609331 0.0574980165760064 0.0180955992505297 0.05313518 -0.03141555 0.9980931 188 188 185
0.0723890739919389 0.0457063104908013 -0.0206870057195083 0.8340597 -0.548525 -0.05886264 185 183 167
0.0766161161901201 0.050912418584063 -0.00791253778558525 0.9073128 -0.3991544 0.1321335 199 195 182
-0.0041488927362715 0.0867133524219537 0.0200575829908594 0.01917865 0.007033305 0.9997913 190 194 198
0.00357473673836839 0.062192001561358 0.0203453430399641 0.04233211 0.01755869 0.9989493 194 198 204
-0.00635807929022658 0.0284144069950127 0.02063636271808 -0.00112282 -0.007858663 0.9999685 205 209 217
0.0219966250898088 -0.00751932599143745 0.0198197269305929 0.02124149 -0.006913503 0.9997505 209 215 216
-0.0580422204492842 -0.0676007483203864 0.023105578260158 0.03778632 0.01033628 0.9992324 199 205 210
-0.0172355693338667 0.0223612572948479 0.0213592553004965 0.03065323 0.008935776 0.9994901 214 215 223
0.0291666466237749 -0.049090764303968 0.0131741741165861 0.8025138 -0.5961211 0.02472195 213 212 206
0.0338601547719682 0.0156577613155389 0.0195946635172114 0.05358325 -0.02198917 0.9983212 203 218 192
0.0423285442830766 0.0848931457798028 -0.0143583318899509 0.4186442 0.9047983 -0.07795622 136 144 131
-0.0172355693338667 0.0743143942157769 0.0137035639450297 -0.9216244 0.3878244 -0.01416993 128 138 131
-0.0100381892679487 -0.0583859894474006 0.0212787964806303 0.0125719 0.0175093 0.9997677 205 205 206
-0.0387956124304091 0.016630032281115 0.0152877082541927 -0.9260163 0.3682707 0.08288817 165 170 167
0.060436256551906 0.0487866189281487 0.0180227251217112 -0.005623698 0.02594638 0.9996475 183 178 176
-0.0713873725889479 -0.0692389223773933 0.00989623716626016 -0.966541 0.2533357 0.04024367 175 181 182
0.0659971314908708 0.0307231333057427 -0.0151893346960314 0.6137198 -0.7892551 0.02060106 188 188 163
0.00167895140664232 -0.0604434225757575 0.0212121361360296 0.01933437 -0.01856795 0.9996406 204 204 206
-0.0350862663744246 0.0275738026897454 -0.00935609150152954 -0.9706138 0.2394058 0.02436421 144 150 144
-0.0767532807348524 -0.0961914870937324 0.00563923990878908 -0.8701517 0.2683282 0.4133231 175 182 185
0.0279194790364946 0.0927799727718377 -0.0160037900827483 0.4616639 0.8809482 -0.1039075 162 165 155
-0.0331726592539107 -0.0806756231983161 0.0218632162973627 0.02443947 0.01560856 0.9995794 202 204 206
-0.00288366494162429 -0.0315359447200751 0.0213491560384974 0.04363403 0.00279748 0.9990436 224 243 196
-0.0723156255243574 -0.0901906702716804 0.023395327614282 0.004808375 0.03049568 0.9995233 205 208 208
0.0332104045392717 0.0127681281368279 0.0192204320296988 0.06915952 -0.005952582 0.9975879 213 234 177
-0.00679647145254958 -0.0777477834423042 0.00575367151353208 0.5797701 -0.8108888 0.07953566 206 206 190
0.00919771971718919 -0.0344844672878242 0.0200338342652067 0.02714678 0.01176304 0.9995623 230 244 214
-0.0483318191526686 -0.0999291155536628 0.0207141318783507 0.3315093 -0.6842283 0.6495638 224 226 225
0.0749167281629289 0.0430564667980218 -0.0137863777967759 0.8853288 -0.4191298 -0.2013036 203 201 177
-0.0168285888193404 -0.0809912297924018 -0.0201559953897849 0.5415531 -0.8378368 -0.06891838 198 199 187
-0.0204105895517622 -0.0340711686809516 0.02159981964681 0.02852258 -0.0006787239 0.9995929 209 212 217
-0.066374890184239 -0.0689387533863044 0.0233086624607786 -0.03710591 0.06201556 0.9973852 208 210 207
0.0359737354757036 -0.030742249270246 -0.00646497053500565 0.7670866 -0.6062293 -0.2099148 193 195 181
0.000286646509333965 0.0967188265125298 0.0106250399217352 0.1312292 0.9873676 0.08879211 156 164 156
-0.062661967849568 -0.111480316897199 0.00213134265098421 0.4177279 -0.9076309 -0.04134722 206 203 185
0.0429997521878923 0.0227468397418999 0.0186892875895247 0.0396887 -0.002322827 0.9992094 185 186 182
-0.00627886471732009 -0.0401019666393256 0.0211940461263403 0.04137759 -0.01819087 0.998978 222 226 231
-0.0374739390371596 0.0201113607685113 0.0136750189081177 -0.9355202 0.3455426 0.07350076 154 163 160
-0.0453825217245375 -0.00813110806541206 -0.01750563970242 -0.9051854 0.4140287 -0.09601916 125 128 116
-0.000249974107578876 0.056532182912066 0.0204720960423693 0.009720644 0.004409842 0.999943 186 191 195
-0.0623906475065504 -0.0399234507282233 -0.0152480478904799 -0.90417 0.3616875 0.2272858 133 139 133
-0.0363857668398176 -0.0488307688434577 0.0221714803442701 0.06148111 -0.008043298 0.9980758 198 201 205
0.0778563100339617 0.0533771302501702 0.0132325419649824 0.8240576 -0.4279331 0.3712174 192 190 173
0.00197888197915208 -0.0215872142513251 0.0209518463775858 0.0433845 0.02018005 0.9988546 224 226 235
-0.0541650575159346 -0.107033691187665 0.0111572851851925 0.2356877 -0.906102 0.3513267 220 220 211
-0.0160735171793257 0.00528536103172539 0.0210247056052431 0.03037705 0.01860555 0.9993653 208 213 219
-0.00219105896933425 -0.0582055065830207 0.0210929566488012 0.008508058 -0.01390358 0.9998671 196 196 200
0.068104930544063 0.0356932666103387 0.0184698121115908 0.1734611 -0.296188 0.9392464 207 203 193
-0.0581690889356886 -0.109578571100996 0.0180038229987368 0.63218 -0.7726188 0.05838275 208 208 191
-0.00824742732031691 0.0352442052166009 0.0205537283286795 0.01080311 -0.03500415 0.9993288 202 206 211
-0.00259088692648757 0.0957927491466546 -0.017530956309627 0.3413626 0.9046728 0.2550269 161 168 164
0.00257868351952684 -0.0118188474376655 0.0208089479670271 0.04471379 0.005720308 0.9989834 212 215 224
-0.0510804575441633 -0.0531155083377814 0.0228880473837599 0.02081992 0.009653232 0.9997367 197 203 202
5.53208829606744E-05 0.0959195878307366 -0.0200191394000903 0.4099876 0.8939597 0.1809592 158 163 156
0.0663912374021257 0.0313964869777703 -0.0188805738038972 0.6165312 -0.7728114 0.1505052 176 179 155
-0.0323086899278914 -0.027318200846479 0.0217935272917494 0.01974571 0.04043354 0.9989871 212 216 217
0.0190655070783342 0.0930889036457085 0.0043837295338854 0.1205107 0.9739556 0.1920616 127 135 130
-0.0172355693338667 0.0480537202159905 0.0213554257020697 0.0320897 0.00514188 0.9994718 196 199 203
-0.0228692215441023 -0.085141560812757 -0.0163490104064003 0.4284191 -0.9030678 -0.03042437 209 208 197
-0.0599058192728316 -0.075736841936872 0.0229559221729979 0.02982101 -8.462808E-05 0.9995552 206 205 210
0.068404801511928 0.0716485764781976 0.0177070738241419 0.03236054 0.02449704 0.999176 155 142 139
0.0218502360822405 0.0569054271976495 0.0200346873566851 0.0311052 -0.01218917 0.9994418 208 225 176
0.0371947366239275 0.0875777389804864 -0.00903389067795428 0.5078222 0.8614161 0.008885523 145 145 144
0.0290119725705827 -0.0493890855510688 0.0117478237912401 0.8080265 -0.5891328 -0.003973405 204 201 198
-0.0782563012598311 -0.117063007136152 -0.0198352837510064 0.05111513 -0.9972228 -0.05416602 184 189 175
-0.0284172218797957 0.0471720483104729 -0.00577469938841017 -0.9463262 0.3209289 -0.0383582 147 151 148
-0.0296382230280196 -0.0034378383357978 0.0217779928312048 0.05273422 0.03182225 0.9981014 208 212 218
-0.00468300995810378 -0.00533278920249702 0.0201672778889879 0.04018657 -0.007212697 0.9991661 195 201 200
0.0513752776624407 0.0801809217731499 -0.0164470459608019 0.3693229 0.9224223 -0.112861 152 154 151
-0.0320230644701277 -0.0389363978107429 0.0220373847946867 0.02139677 -0.01692516 0.9996278 208 212 216
0.0153573829175676 -0.0585848305423713 -0.00507937209155711 0.6328299 -0.7059616 -0.3180322 214 216 208
-0.0719443183897291 -0.0859292957981086 0.0131166332826361 -0.9857005 0.06068029 0.157202 148 158 170
0.0516537505628313 0.0639555837909722 0.0192062833771452 0.01800388 0.02747991 0.9994602 199 202 209
-0.00355195221884597 -0.0738049361904121 -0.0105142940342084 0.6578547 -0.7422765 -0.1274867 212 212 205
-0.0147691291330611 0.0981789018909478 -0.0176054942462251 -0.1710313 0.9496364 0.2625623 150 157 150
-0.0177496593950545 -0.0772967550952888 0.0219002382323488 0.147532 -0.08528752 0.9853732 208 212 218
-0.0379323583601271 -0.0479260895450568 0.0222315208480105 0.07660101 0.004007689 0.9970537 202 206 212
-0.0178996246813093 0.094536640862658 -0.0120311204850331 -0.8493635 0.4578619 0.2625721 141 146 146
-0.0718372088430678 -0.0790847156246162 0.0202860736713156 -0.865404 0.2697163 0.4222904 183 186 186
0.0757521468641008 0.0489202525417352 0.00166377215239851 0.9551921 -0.2748423 0.1098621 189 189 174
-0.0462286394594466 -0.0315417859752631 0.0223009230062708 0.02336804 -0.01465801 0.9996195 212 214 218
-0.0799128633497511 -0.11216344573097 0.0151789167389616 -0.3947732 -0.9140813 0.09278713 203 205 203
0.0436509329320635 0.0638697531024957 0.018989586965774 0.003207442 0.01495651 0.999883 201 204 211
0.0785582739354814 0.0663594391147637 0.00679271271977274 0.9919165 0.1222888 0.03386866 190 190 170
-0.0320587676523482 -0.0827826473911262 0.0224539691076025 0.03776641 0.001350296 0.9992857 214 216 221
0.0353632050992693 0.00960848591728447 0.0192685404286131 0.02123373 0.0169032 0.9996316 213 236 177
-0.0247928422449385 0.0296875622074151 0.0213069298729643 0.01679512 0.03025848 0.999401 197 202 209
-0.0244237702844893 0.0236650492946648 0.0214201600715861 0.02297375 0.00708069 0.999711 203 208 214
0.077837117338344 0.0616871502201104 -0.0242446160450235 0.9908681 -0.1342871 -0.01213843 189 190 167
-0.0453825217245375 -0.0032428715427375 -0.00599543680843266 -0.947428 0.3072967 -0.08915664 144 153 138
-0.07035916266425 -0.0709100578029609 -0.0208561949006871 -0.9824691 0.1771381 0.05810744 145 154 151
0.0295742827893938 -0.0128201458652473 0.0196966954931959 0.02857359 0.03129317 0.9991018 191 194 190
-0.0665034276006972 -0.0573773000438667 -0.0056506947189227 -0.9349295 0.2510254 0.2507846 149 156 157
-0.0656037550924574 -0.101274928828046 0.023494867371057 0.06137168 -0.01078254 0.9980567 183 186 187
0.0397366363050188 -0.00873734690742256 0.0194645838305697 0.06302046 -0.003139193 0.9980073 193 196 190
-0.0357431691644942 0.0236740495960259 0.0084750221535906 -0.9205042 0.3897785 -0.02729136 171 175 173
0.0220053869725908 -0.0552832696636176 0.0157808398321613 0.5944962 -0.6958283 0.4029855 208 208 205
-0.0480958145616804 -0.0141666743953681 0.0179140360519632 -0.890126 0.3522222 0.2891631 164 171 165
0.0114682990552629 -0.0116691801746345 0.019865410165523 0.04172766 0.008580948 0.9990922 231 250 200
0.0238202291967119 0.0483101393978143 0.019537405805324 0.05232946 0.02732884 0.9982558 204 208 211
0.027013667249843 -0.0506751153667426 0.0169396155938849 0.6880365 -0.5988224 0.4098993 232 228 226
0.0306184965612138 0.00841609499855278 0.0195791029796347 0.05821127 0.02130259 0.998077 211 218 206
