ply
format ascii 1.0
comment File exported by Rhinoceros Version 7.0
element vertex 462
property float x
property float y
property float z
property float nx
property float ny
property float nz
property uchar red
property uchar green
property uchar blue
end_header
-0.0531078207143132 0.0418680873661701 -0.0041942410198248 -0.9838686 -0.06730006 0.1657508 169 169 170
-0.0512990924625425 0.0418160300211614 -0.00418833015656239 -0.983878 -0.105148 0.1446654 148 146 147
-0.0542671264293872 0.052306957427664 -0.00652176272290184 -0.992388 0.0789457 0.09451856 201 201 202
-0.0516367142254992 0.049136513064739 -0.00845041555297243 -0.9909707 0.0708844 0.1138084 164 167 161
-0.0545656627446032 0.0486291843247268 -0.011514255835238 -0.9679275 0.1099473 0.2258937 139 136 119
-0.053076431951135 0.0473839179875755 -0.0105878492418432 -0.9781441 0.07722988 0.1930534 167 173 166
-0.053451384813396 0.0443830499446545 -0.00796224663015621 -0.9978352 0.006870259 0.0654045 174 178 175
-0.0518781617273525 0.04239172097411 -0.00697688070176117 -0.9938772 -0.06228917 0.09125874 145 151 164
-0.0535843218955665 0.0462503237160476 -0.0110730849599433 -0.9784905 0.01501443 0.2057449 181 181 181
-0.0544059960018579 0.0363653194498053 -0.00225015916106353 -0.994093 -0.009209477 0.1081402 178 174 168
-0.0528163428790689 0.0406617081990364 -0.00402990873275033 -0.9792185 -0.0798565 0.1864244 169 169 167
-0.052320197966242 0.0354037686754884 -0.00683220715690591 -0.9907479 0.0420452 0.1290377 155 158 150
-0.0539239121357435 0.0392475656940641 -0.00917432157638531 -0.9844464 -0.06127832 0.164652 145 147 139
-0.0535827214654729 0.0414184111020865 -0.0112665807375029 -0.9669148 0.00449858 0.2550598 170 173 170
-0.054267587446428 0.0408620986758941 -0.0115116826209271 -0.9776381 -0.03816607 0.2068022 189 188 192
-0.0515039965730153 0.0403563673817007 -0.0102312567119027 -0.9271978 0.1277466 0.3521152 159 166 164
-0.05363128787562 0.0320565516169533 -0.0080380945161822 -0.9862164 0.09430595 0.1359542 170 174 171
-0.0518194107368533 0.0327475581804928 -0.0117416660517304 -0.8320765 0.06757776 0.5505288 150 149 153
-0.0541202838889574 0.0316335223958757 -0.0127279279772615 -0.8069354 0.1832472 0.5614942 184 185 184
-0.0539891303862061 0.0518768368942069 -0.0146342863175982 -0.7281581 0.0003473423 0.6854091 173 169 165
-0.0533072133978101 0.0507901438659788 -0.0142900567169064 -0.7665514 0.01542755 0.6419976 183 186 185
-0.052456537989092 0.0483619953959644 -0.014659913756504 -0.468954 0.0811553 0.8794862 181 181 178
-0.0502658815287942 0.0522902701237102 -0.0151042834745326 -0.1720129 -0.0473371 0.9839567 186 186 191
-0.0523658414160699 0.0492480695331117 -0.0159662054799889 -0.1712406 -0.0748843 0.9823793 188 188 184
-0.052558991096443 0.0479264043461776 -0.0156986890793387 -0.3304937 0.07654439 0.9406992 171 173 157
-0.0519952681705418 0.0434946456205154 -0.012343160553262 -0.8992715 -0.107814 0.4238948 160 159 160
-0.0524522057390295 0.0440015648258816 -0.0155681851712178 -0.4193879 0.02610693 0.9074317 204 202 202
-0.0538138961102115 0.0424557635314962 -0.0152141663264681 -0.7610041 -0.0343155 0.6478388 181 178 188
-0.0473084389354683 0.0508776307950407 -0.0155980216844113 0.02991364 0.0005079907 0.9995524 191 191 193
-0.0478072147346931 0.0500594166096231 -0.0157949893793035 0.02944665 -0.00480535 0.9995548 175 174 170
-0.0478731094880818 0.0478259720292629 -0.0159475111008167 0.09599426 0.01386691 0.9952853 146 149 143
-0.0420942401891986 0.0513008488688536 -0.0160893467076135 0.0866724 0.01314743 0.9961501 192 194 198
-0.0396815356085589 0.0488167508568138 -0.0159493466202312 0.1213965 0.02760968 0.99222 184 186 184
-0.0393062091154748 0.0492165091951959 -0.0156742977750562 0.1202493 0.021293 0.9925153 189 190 193
-0.041631046362965 0.0464365758367646 -0.0155744818163865 0.1007441 0.01630603 0.9947788 170 170 167
-0.0408452068145007 0.0470888489252186 -0.0161887942066359 0.1131414 0.01478834 0.9934688 156 162 156
-0.0396736680275367 0.0465283136081143 -0.0159995414646722 0.1370045 0.02013382 0.9903658 197 197 200
-0.0476620875988523 0.0452800829954039 -0.0153709465133088 0.07826072 0.0199499 0.9967333 174 176 169
-0.050595930301284 0.0416075183874387 -0.0162379064871184 -0.06092355 0.01497477 0.9980301 164 166 156
-0.046767834178945 0.0423747505498093 -0.0158648149084658 0.09973958 0.02153548 0.9947805 192 191 192
-0.0465649185070207 0.0420776453097065 -0.0153680301623237 0.09674215 0.00736 0.9952823 175 176 185
-0.0430750610358743 0.0423345425764108 -0.0153394414993872 0.07502804 -0.00722988 0.9971552 195 191 192
-0.0418686085326307 0.0442252826379959 -0.0157617715681037 0.09376056 -0.009695872 0.9955475 201 205 205
-0.0446146541063142 0.0411961006277453 -0.0156944087177483 0.08318972 0.005808556 0.9965168 184 181 179
-0.0403913875513846 0.042231245377687 -0.0158878094269953 0.1250031 -0.01555108 0.9920345 228 226 231
-0.0533967339480972 0.0396650924822259 -0.0128308176571935 -0.849489 0.09660549 0.5186866 151 152 141
-0.0523635730668994 0.0406410553136713 -0.0154621742550786 -0.5090067 0.1458557 0.8483149 193 192 191
-0.0520198707788608 0.0381347924088122 -0.0153835088012045 -0.4504539 -0.02851238 0.8923442 173 173 173
-0.0508865727082226 0.0371743951706911 -0.0154195501180919 -0.1462044 0.04303864 0.9883177 177 180 181
-0.0535083012376982 0.0343634541833722 -0.0160371960140254 -0.5620027 0.050047 0.8256199 188 182 174
-0.0488344038418096 0.0385130478846984 -0.0152521344989236 -0.06361012 0.01755498 0.9978204 182 186 184
-0.0474855130066161 0.0394453924855225 -0.0151956911868203 0.08462788 0.0007476135 0.9964123 154 153 151
-0.047136327668708 0.0373958798197085 -0.0152746125526256 0.04652199 0.05349696 0.9974837 115 128 103
-0.0499021753411668 0.0388668035203152 -0.0154523485238529 -0.1117918 0.02574572 0.9933981 170 165 157
-0.0423195512341092 0.0358043927930327 -0.0152752172257612 0.06904794 0.03100706 0.9971313 167 173 175
-0.0432637071484741 0.0384343727334777 -0.0155814849406423 0.07036298 0.00762518 0.9974923 174 177 173
-0.05016115130497 0.0331951058668287 -0.0153174833099902 -0.04281715 0.04091911 0.9982446 189 189 183
-0.0507471403015951 0.0318354267932159 -0.0150341512648532 -0.2247858 0.1654069 0.9602666 150 151 132
-0.0456961018873774 0.0322823592983896 -0.0153818241277103 0.06896027 0.004734596 0.9976082 174 174 173
-0.0438780184806329 0.0313119443200902 -0.0155336142996307 0.08896198 0.0209115 0.9958155 184 184 189
-0.0530069285244734 0.0276484176956442 -0.00253930981343575 -0.9824136 0.09351856 0.1616101 154 158 155
-0.0532425069558871 0.0266350544721543 -0.00397648136116979 -0.9925675 0.02429459 0.119246 173 171 179
-0.0536596143194654 0.0242498926154715 -0.0066068585117115 -0.9951139 -0.04456127 0.08810546 164 169 161
-0.0547137287657611 0.0194261572027372 -0.00538153055415125 -0.9973953 0.04649038 0.05514786 152 151 142
-0.0542531455878101 0.0294687347813121 -0.00852080939677768 -0.9921559 0.03379453 0.1203518 158 160 153
-0.0533488632042203 0.0271789775056714 -0.00948932898705723 -0.9925413 0.08121397 0.09091853 183 185 184
-0.0545451633432412 0.0297290693255854 -0.0121896685762578 -0.9444028 -0.001049194 0.3287892 140 139 122
-0.0547823144075259 0.0289650400687909 -0.0115596646476324 -0.9435613 -0.06002881 0.3257124 204 204 206
-0.0524588481793897 0.0234646816126867 -0.0120889519847565 -0.8775834 -0.01674137 0.4791316 153 157 154
-0.0527990148349935 0.0217308279892177 -0.0101976486001972 -0.9822422 -0.0440741 0.1823673 157 162 154
-0.054668635160726 0.020410708291337 -0.0111231586859435 -0.9809888 0.01761707 0.1932629 154 153 145
-0.0517497210781148 0.0215079055119964 -0.0066033110729079 -0.9957739 0.05214475 0.07559992 144 145 146
-0.0521693221521435 0.0228782424611758 -0.0108326972720006 -0.9558489 -0.04761777 0.2899749 145 150 148
-0.0546030174958518 0.018496602623649 -0.00335596526101489 -0.9989647 0.01515949 0.04289109 195 194 197
-0.0545050668588236 0.0154386077205997 -0.00246870405379607 -0.9920315 0.03490104 0.1210592 176 173 168
-0.0534293331518727 0.0135037331562133 -0.0071445925268131 -0.9958962 0.08888813 0.01701744 153 156 152
-0.0538564905406866 0.0184121340934889 -0.0120571626945244 -0.8377025 -0.03252702 0.5451573 171 179 173
-0.0532912446696661 0.016331810308716 -0.0111382113216311 -0.9312155 -0.01516444 0.3641534 167 169 172
-0.05501018357645 0.0126581500725167 -0.00776752052829122 -0.9923009 0.09581649 0.07847305 173 168 168
-0.0551294547033314 0.0140777796245224 -0.0103351869021603 -0.9791148 0.1027787 0.1754157 160 156 153
-0.0537485843454897 0.0136912229813022 -0.01120067240192 -0.9310489 0.1137406 0.3467146 167 171 165
-0.0549501528589929 0.0122114797582946 -0.0108300965626391 -0.9544665 0.08897475 0.2847407 208 208 213
-0.0541207977288725 0.010555969395132 -0.0109175538282491 -0.9676456 0.06032779 0.2449949 176 179 178
-0.0524196967123214 0.0279857995678388 -0.0151103065809045 -0.5787404 0.01658692 0.8153432 185 185 184
-0.0550617541374441 0.022416159339935 -0.0141540887149686 -0.8183761 -0.07325234 0.5699953 164 162 148
-0.0535941802733404 0.0220408853701024 -0.0150444330871264 -0.6473253 -0.01236009 0.7621136 161 164 158
-0.0501011387745529 0.0275533125543466 -0.0153670972887977 -0.1418818 0.04648628 0.9887915 149 154 143
-0.0500616258319324 0.0268287689257105 -0.0167642600566875 -0.06343488 -0.0222192 0.9977386 153 156 141
-0.0438782238743327 0.0281981887690133 -0.0153588904696362 0.1110183 -0.007205045 0.9937922 154 157 148
-0.0416708812554598 0.0269885238411658 -0.0156422395796878 0.1097396 0.006637018 0.9939382 189 189 189
-0.0492204178653999 0.0221937846899665 -0.0152432363639432 -0.1777096 -0.05285928 0.9826623 176 175 174
-0.0491297821683834 0.0195347289571794 -0.0155516719246024 -0.1298167 -0.07610864 0.9886127 155 155 148
-0.0468494938224668 0.0214460952764459 -0.015247568425483 0.04934873 0.002377713 0.9987788 187 190 187
-0.0463236763796651 0.0220640383844022 -0.0157873528818349 0.115915 0.002689428 0.9932555 147 151 137
-0.0427226642233915 0.0237643074770904 -0.0153325142430967 0.1164525 0.006348921 0.993176 209 203 204
-0.04506962571838 0.0209876263905566 -0.0152530978803419 0.1165488 -0.02694912 0.9928192 173 168 175
-0.0433080362917664 0.0186634061164561 -0.0156662694484443 0.1365098 0.00210116 0.9906365 175 177 174
-0.0549199601052752 0.0179045158158109 -0.0140433483671188 -0.7731667 -0.008396264 0.6341473 194 194 198
-0.0548020028845906 0.0167216219830679 -0.0139566088219399 -0.76493 -0.030693 0.6433817 209 209 217
-0.0542402655863488 0.0132425726460808 -0.0140463702337232 -0.6423945 -0.02202329 0.7660576 181 183 179
-0.054872649389468 0.0110157794237962 -0.0134019400532958 -0.9356093 0.06176059 0.3475931 197 193 199
-0.0553090208859881 0.010546071344812 -0.0131831641167718 -0.9574763 0.01161874 0.2882778 209 209 212
-0.0544880361960653 0.0112925191855016 -0.0148257343592252 -0.5149263 0.03481459 0.8565271 170 169 162
-0.0455935154834985 0.0152660340140343 -0.0152584714129331 0.08888103 0.01328407 0.9959537 145 148 138
-0.0482315177652348 0.0131092118235325 -0.0154832032853791 0.001377501 0.04049699 0.9991787 193 193 192
-0.052279171285184 0.0103013153441054 -0.0154956373343544 -0.312164 -0.02928607 0.9495767 186 188 184
-0.0467777401325034 0.0111375606102475 -0.0152500202275782 0.09763362 0.0267362 0.9948632 218 215 216
-0.0451594226360208 0.0126613237679203 -0.0151438973041892 0.08991493 0.02969199 0.9955068 155 163 162
-0.0446752522340077 0.0104183258304098 -0.0150630801519676 0.1255836 0.05164225 0.990738 155 154 156
-0.047800375346231 0.00951697975125154 -0.0152991331345173 0.05737329 0.01703891 0.9982074 186 184 178
-0.0454461483463768 0.00852876960959614 -0.0159466420838291 0.1398664 0.007483209 0.9901421 161 161 161
-0.0424111193031638 0.00830369566778622 -0.0151411536962804 0.1142722 0.009216174 0.9934067 190 190 193
0.0481132025643745 0.0118380434479457 -0.0171035974249337 0.0789768 0.01060946 0.99682 182 174 186
0.0167674663484039 -0.0169740281527087 -0.0165588085598132 0.09295287 -0.006374513 0.9956501 145 144 140
0.0531804335518289 0.0308078871664637 -0.016846407132672 0.2227922 0.008774871 0.9748265 167 167 162
0.0340431031930757 -0.0735391996853028 -0.0112601241756656 0.2004242 0.9305552 0.3064265 165 160 145
-0.0217614178666536 0.0261023734585886 -0.0160380433200612 0.07529711 0.02061626 0.996948 223 221 230
0.0549263734620571 0.0659455865839484 -0.0146404703843922 0.2087973 -0.8239459 0.5267987 100 109 77
0.0558562901435873 -0.022841202373822 0.00542060135355038 0.9971458 -0.05318608 -0.05358623 112 116 93
-0.0346112028927996 -0.0375789626139302 -0.0150630752814281 0.07791854 -0.01089172 0.9969003 208 209 208
0.0215516331049861 0.0688345221707656 -0.0170103213887574 0.09470158 -0.2091297 0.9732915 156 159 156
-0.0431637897994135 -0.0699463618527565 -0.0148860397763746 0.1098693 0.02840768 0.99354 154 156 140
0.0561075069897035 0.0668702827949004 0.00159718562246014 -0.01051992 -0.9992398 0.03753821 107 110 79
0.0189975334889154 0.0650448905590828 -0.0168462321670065 0.1193563 -0.01945257 0.9926609 186 186 186
0.0162155671679682 -0.0817891835788546 0.00517111685820193 0.236174 0.9582567 0.1611394 160 159 133
0.0150803495247942 0.0275363327378004 -0.0163006180910578 0.09268479 0.01565894 0.9955724 216 214 224
0.058683352215557 0.0269686456062683 -0.00833764084975641 0.9939038 0.1095768 -0.01217701 90 97 62
-0.0545694740323337 0.00527083004731765 0.00864369022161049 -0.999787 0.01933 -0.007227722 142 144 134
0.00515497245262297 0.00443306501618368 -0.0162475402400066 0.1152031 -0.02732746 0.992966 178 178 174
-0.0537712054964719 -0.0128658378608739 0.00811571216236062 -0.9961866 0.02858223 0.08243405 136 147 135
-0.0538998487415703 0.00655406245575363 0.0042214399793522 -0.9972923 0.02306644 0.06982831 171 178 165
-0.0549905142484657 0.00352829951128641 0.00456051772478394 -0.9991602 0.02131881 0.03499002 199 199 201
-0.0546308811024228 0.0031638575168782 0.0024456708283136 -0.9937133 0.02085115 0.1099957 175 173 166
-0.0539861173152674 0.0052921529840666 0.00109691414115975 -0.9906673 0.01326368 0.1356555 169 170 168
-0.0545659268682888 0.00353129714933176 0.000723942171247272 -0.9816958 0.01102704 0.1901361 132 129 113
-0.0542748660316039 0.00575906516491309 -0.00166470134264052 -0.9849671 0.05492662 0.163777 155 159 156
-0.055023905238301 0.00328763163426715 -0.0010228433460362 -0.983045 -0.01935489 0.18234 172 169 168
-0.0548273410199547 -0.000821493908712112 -0.00171708209982124 -0.9887646 0.0248058 0.1474084 164 165 164
-0.0533135322621059 0.00542655565780858 0.00493320712604273 -0.9979684 0.03779479 0.05128965 151 151 146
-0.0541405660181027 -0.00277097986243446 0.006944567869131 -0.998197 0.01695644 0.05757901 158 164 156
-0.0515590373603256 -0.000924229803307863 0.00830615010902314 -0.9987043 0.01432776 0.04883192 134 135 136
-0.0531976936444667 0.0012663401599271 -9.22751724360404E-05 -0.9815477 -0.0375049 0.1875033 152 155 159
-0.0546675927108635 -0.00713078191976124 0.00438612918682113 -0.9990791 0.007730924 0.04220432 173 173 169
-0.0545409523116485 -0.0103736089308666 0.00728278593734444 -0.9980714 0.03165392 0.05340023 192 191 196
-0.055117881643024 -0.0119834253675197 0.00382544243822569 -0.9944988 0.03847303 0.09742623 164 163 151
-0.0553144453725336 -0.00784453825124443 0.00168903688565958 -0.9945406 0.04113081 0.09590172 203 203 206
-0.0540239724248868 -0.00764264310387475 0.00103885808550774 -0.9938468 0.05013072 0.09876945 145 147 137
-0.0547990393825215 -0.00456576186621493 -0.00234975783926683 -0.9902371 -0.04009427 0.1335027 199 198 201
-0.0554930357218295 -0.00790559226960408 -0.000107037458736081 -0.9950761 0.03323843 0.09337424 196 192 188
-0.0544014736135523 -0.0106604316603149 0.00181922640996401 -0.9938229 0.0632283 0.09120373 169 170 171
-0.055025994365973 -0.0088339114999858 -0.00152901869765454 -0.9924072 0.05272586 0.111121 202 204 209
-0.00482668208913828 -0.0778529271879477 -0.015161029864981 0.209016 0.2261728 0.951398 214 214 217
-0.0302989431499625 -0.0341881975875293 -0.014929541398023 0.1196937 -0.006717756 0.9927881 179 177 181
0.00316416322430779 0.0666075742583996 -0.0162625603264371 0.08103698 0.02183541 0.9964719 171 173 171
-0.0549653109772237 -0.0338403516620598 0.0100023758880496 -0.9925287 0.02580038 0.1192523 173 174 173
-0.0563183400761171 -0.0142742375892602 0.00633724902584765 -0.9960744 0.01628186 0.08700953 205 205 206
-0.0548680197416944 -0.0173093887185272 0.00652318884554715 -0.9883161 0.02398316 0.1505193 190 188 192
-0.055317231510946 -0.022335323947581 0.00597848605666518 -0.9867489 0.0173523 0.1613245 195 195 199
-0.0553780097802858 -0.0244925525991664 0.00619278882405716 -0.9886671 0.04711051 0.1425412 156 155 148
-0.0553634101703084 -0.0142287019020801 0.000805837694246025 -0.9867778 0.08816976 0.1359984 207 207 208
-0.0531498377225277 -0.0139294918142525 0.00114841436807545 -0.98855 0.08489207 0.1247485 153 156 146
-0.0547806141039828 -0.0169192308141 0.00185520054032084 -0.9915036 0.01875355 0.1287201 178 179 179
-0.0545592261863481 -0.01644020122634 -0.000198769490850181 -0.9908135 0.05112869 0.1251979 168 172 169
-0.0556492073288992 -0.0220230106512442 0.00132625113359353 -0.9879397 0.01421361 0.1541853 207 208 213
-0.0551342083927215 -0.0220410371730126 0.000380994786387423 -0.9923741 -0.005330241 0.1231475 191 190 194
-0.0554283823017676 -0.02685508811118 0.00762295183196648 -0.9927749 0.04103749 0.1127559 206 206 211
-0.0547603092135944 -0.0274265220152805 0.00311440632576965 -0.9918284 0.02705891 0.1246761 172 171 175
-0.0555422906215712 -0.0290241316350219 0.00352749857558687 -0.9932619 0.04720841 0.1058403 126 129 106
-0.0548015215707038 -0.0328084403171112 0.00436431838592743 -0.9934802 0.02378165 0.1114966 173 173 176
-0.0557877281570522 -0.0346422551157812 0.00151833229335419 -0.9932793 0.03771836 0.1094233 206 206 210
-0.0552231703434216 -0.0289707662349383 -0.00176163143588459 -0.9935952 0.0221044 0.1108146 122 123 107
-0.0546657789967195 -0.0320343044423643 -0.00119472167202506 -0.9935127 0.01748134 0.1123692 164 170 168
0.0512944054471625 -0.0241427367562701 -0.00699291875697416 0.9951262 -0.06462906 0.07447798 92 94 60
-0.0553856591172777 -0.078588575893897 0.00232007422451475 -0.9926925 0.07804402 0.0920369 159 163 157
0.026810349699153 0.0143943201075762 -0.0164310290519978 0.09567353 0.007864135 0.9953817 154 154 153
-0.0144505223900935 0.0413999397060847 -0.0164785330019973 0.06964672 0.02190943 0.9973311 172 173 169
-0.0358080512820291 0.0453729541558763 -0.0157737640071351 0.1141084 0.02711113 0.9930983 172 174 170
-0.0307413757585513 -0.0272558090395281 -0.0153594562357786 0.1151262 0.0269249 0.9929859 164 165 164
-0.056275361675217 -0.0533257725052541 0.00829375244192443 -0.9923682 0.0475379 0.1137783 203 203 208
-0.0553495322219428 -0.0398342792301529 0.00648590539298144 -0.9908323 0.03606552 0.130195 189 188 195
-0.0552456279307869 -0.044478492715091 0.00522130181312419 -0.9935893 0.0299379 0.109014 164 170 164
-0.0554834409015799 -0.0454185142468904 0.00262818074342575 -0.9926587 0.03842718 0.1146822 191 191 186
-0.0555161647042954 -0.0363519731580018 0.00119591425525001 -0.9946883 0.04901525 0.09051354 182 183 179
-0.0560571535061127 -0.040870367696159 0.00150759785268639 -0.9918189 0.03993376 0.121246 208 211 210
-0.0555157458096711 -0.0388260424502154 -0.00334300460656278 -0.9950365 0.04823475 0.0870382 188 187 191
-0.0550950374220336 -0.0431174722485854 0.000280523855324843 -0.99101 0.03150767 0.1300246 184 183 185
-0.0553492775328679 -0.0456154845358903 -0.000429825370006798 -0.9957746 0.02979775 0.08686209 188 189 192
-0.0555675815997074 -0.052272278482437 0.00589341479582806 -0.9920691 0.04312149 0.1180658 191 191 191
-0.0561032099766445 -0.0503476926723239 0.00417464189575889 -0.9911537 0.02803152 0.129725 199 196 192
-0.0559895097933476 -0.0499113982497075 0.00178078725188802 -0.9926601 0.02689171 0.1179101 126 129 108
-0.0566120106199128 -0.051606329671636 -0.00150565852124318 -0.9959967 0.02543277 0.08569562 173 174 170
-0.0559237409541078 -0.0503577830194222 -0.00299812570690805 -0.9955617 0.01027129 0.09354888 177 177 179
0.0543587360152886 -0.0331241625748817 -0.00839204220918466 0.985998 -0.1519823 0.0686245 108 111 97
-0.0559343896853748 -0.0739623511703749 0.00978130001916777 -0.9945708 0.06303594 0.08279724 123 124 106
0.017905614177242 0.00515979271205214 -0.0162403666278426 0.0894222 0.005036508 0.9959811 184 187 180
-0.0566605656908052 -0.0780829454273227 0.010628238693802 -0.9940614 0.06712491 0.08565228 209 207 215
-0.0556835369547661 -0.0611458180046824 0.00641571831188192 -0.9951304 0.02189378 0.09610482 182 186 187
-0.055950201365663 -0.0578968230802692 0.00144454374454284 -0.9951972 0.03459726 0.09157226 174 169 164
-0.0562644343295242 -0.066371814657642 0.00589197050210144 -0.9954511 0.02002698 0.09314538 177 179 179
-0.0560167349321998 -0.0645988318533561 0.00376990570247648 -0.995335 0.02253987 0.09380919 192 191 198
-0.0562490691844038 -0.0606063279604327 -0.00424711798196153 -0.9933064 0.03446206 0.1102486 192 192 196
-0.0563331006828189 -0.0692989023678579 -0.00168270630028589 -0.990742 0.06021547 0.121673 188 192 194
-0.0567069198387717 -0.0697122653365261 -0.00395323995470132 -0.9886677 0.05297359 0.1404632 184 185 181
-0.0562863095720134 -0.073355327498777 -0.00202560866179191 -0.9906858 0.06623475 0.118973 178 176 177
-0.0562704418514275 -0.0723018103408635 -0.0044388905136421 -0.9898148 0.07405601 0.1215831 181 178 181
-0.0566152621376412 -0.0781564295793628 -0.000144499469947657 -0.9924064 0.05989164 0.107436 200 201 203
-0.0549960453352296 0.00363028733775805 -0.00774904555902933 -0.9938351 -0.05972339 0.09340754 187 188 190
-0.0554031333762997 0.00654817165125587 -0.00841277008565866 -0.9896828 0.1018321 0.1007879 198 193 189
-0.0549452904108403 0.00775809570634389 -0.0114838463478436 -0.98271 0.04571107 0.1794201 163 162 164
-0.054621040159391 0.00593987822993092 -0.0131562168154864 -0.9008348 0.03053468 0.433087 170 174 174
-0.0550353263882015 0.00221112660526313 -0.00946473223416 -0.9886402 -0.04785798 0.1424782 167 168 157
-0.0534040372690743 0.00521483544952361 -0.0065243870514925 -0.9960601 -0.04138041 0.07843431 149 153 148
-0.0520873696314594 0.00692592185893948 -0.0105608844111604 -0.8641008 0.2400579 0.4423823 131 142 142
-0.0540744564859106 -0.0032254360267292 -0.00422706774907888 -0.9927369 -0.02326481 0.1180347 167 167 170
-0.0553476369328088 -0.00871643358308871 -0.00453604714975231 -0.9935683 0.02023197 0.1114122 162 163 157
-0.053837545024142 -0.00851219139415194 -0.00465940788020924 -0.9918045 0.006460778 0.1276017 144 152 145
-0.0552728309306663 -0.0100871703434438 -0.00533278356027278 -0.9946029 0.04632999 0.09283608 192 192 198
-0.0550563868976268 -0.00848963045379381 -0.00720155055996807 -0.9899156 0.003532628 0.1416144 189 191 194
-0.055263563944824 -0.0128244855144815 -0.00807838430627683 -0.9944219 0.04589986 0.09496439 176 174 181
-0.0544009443515847 -0.0029065295351085 -0.00832162771767464 -0.9906474 0.02241439 0.1345934 122 124 123
-0.0548954304559011 -0.00473553294553253 -0.0103735956093721 -0.974091 -0.05965327 0.2181473 203 203 206
-0.05444630546167 -0.00544906260908595 -0.00998623997968717 -0.9709833 -0.06464286 0.2302448 176 176 176
-0.0543508729738142 -0.00841049780020064 -0.010318567721041 -0.9708653 0.03399302 0.2372025 159 166 159
-0.0555083176017157 -0.00832688643455737 -0.0121750385745918 -0.8412057 -0.004386893 0.5406975 210 212 217
-0.0545377627621706 -0.00830352641631027 -0.012731131057791 -0.7124267 0.1155006 0.6921762 179 180 183
-0.0546473414393873 -0.0103133955483257 -0.0140903710154195 -0.6356918 -0.05263453 0.7701464 200 198 199
-0.055603665328581 -0.0108632005092482 -0.0121641131039861 -0.8973796 0.03439615 0.4399166 126 129 119
-0.0548609792854797 0.0078809311429473 -0.0141436331792953 -0.8565299 0.09089614 0.5080299 197 196 195
-0.0551085231332802 0.0042756959929553 -0.0154893848971924 -0.5767698 0.0652442 0.8142971 179 175 176
-0.0502721048162049 0.00598379173238883 -0.0154309770131507 0.0298283 -0.06542823 0.9974114 168 169 168
-0.048605418860876 0.00517461655166729 -0.0152422751824579 0.06112198 -0.07546397 0.9952735 176 177 173
-0.051380315387185 0.00326725245373183 -0.0144379676758921 -0.1626573 -0.1303993 0.9780279 148 152 149
-0.0504725868812166 0.00420670747820884 -0.0150486092243636 -0.0271305 -0.1399783 0.9897828 177 179 178
-0.0470017196638339 0.00714613446506318 -0.015546978204478 0.08867945 0.004158894 0.9960515 182 180 177
-0.0486359016372051 0.00270262065454085 -0.0152464488143482 0.1127026 0.02580455 0.9932936 174 173 173
-0.0477154473798038 0.00416864909490333 -0.0151261906610098 0.07287927 -0.01794925 0.9971793 130 133 126
-0.0450837784857399 0.00262574464386289 -0.0148591168317381 0.1129571 -0.003282273 0.9935945 170 175 175
-0.0456228410567294 0.0032606700754958 -0.0151163388007419 0.09535925 -0.01352934 0.995351 217 215 219
-0.0550483189965001 0.00133290318516188 -0.0138675581216915 -0.8374597 0.08311056 0.5401424 180 176 181
-0.0462674207887095 0.00063035118428334 -0.015513590926959 0.08059032 0.01576776 0.9966226 160 171 158
-0.0456694920612601 -0.00243714445303134 -0.0149914752637466 0.08425086 0.05091821 0.9951428 127 134 117
-0.0460029162817519 -0.00115639253536504 -0.0153232526358984 0.09822585 0.04093845 0.9943218 158 160 153
-0.0488053662531547 -0.00476997611503838 -0.0149284390112577 0.04260495 0.06164326 0.9971885 211 208 214
-0.049787451876329 -0.0071307735129722 -0.0149380186927818 0.004077741 0.03814229 0.999264 184 183 187
-0.0494499545902933 -0.00769888868128654 -0.0154637116973184 0.0537636 0.02146648 0.9983229 136 140 124
-0.0508027667605551 -0.00889562845188951 -0.0144556936319366 -0.1090066 -0.02846154 0.9936335 143 145 140
-0.0490667290685074 -0.0103556778267915 -0.0147622006298495 0.04459046 -0.02642023 0.9986559 171 173 168
-0.0465775443800329 -0.0109210679570682 -0.0148732335320579 0.05608404 -0.028388 0.9980224 155 155 146
0.000301731187894783 -0.0806784406816409 -0.00899273929402267 0.350041 0.8845499 0.3082902 202 202 197
-0.0546352162647332 -0.0166589265171604 -0.00307675229890225 -0.9918609 0.06101588 0.1117546 160 167 167
-0.0539122492008548 -0.0147068528483247 -0.0102548063115403 -0.8427783 0.1835526 0.5059973 150 157 155
-0.054418900492706 -0.0175920385412616 -0.00980793220815335 -0.9230543 0.09216011 0.3734664 163 167 162
-0.0555560974614429 -0.0159679890044206 -0.0120463128561601 -0.8337708 0.07291368 0.5472749 201 201 208
-0.0555543560345957 -0.022041286564801 -0.0126645831063724 -0.6872309 0.001205525 0.726438 199 199 205
-0.0551976150681708 -0.029779500728665 -0.00736520828978171 -0.9893748 -0.001861636 0.1453755 181 181 177
-0.0553807314770305 -0.0251201166102575 -0.0096575894962152 -0.9388412 0.01958149 0.3437932 190 189 194
-0.0552343948450285 -0.0265671328053725 -0.0128623219368276 -0.7524202 0.04787409 0.6569414 184 185 188
-0.0556426281551847 -0.0287822920125864 -0.0120770509602829 -0.8827018 0.01658557 0.4696407 208 209 216
-0.0553182202317093 -0.0323517691768063 -0.0142186998043561 -0.381696 0.007820166 0.9242548 197 193 194
-0.0550166307594797 -0.0164543018040522 -0.0147661990121665 -0.333819 0.09804195 0.9375247 200 200 198
-0.0539680203016819 -0.0167282172772896 -0.0153349291522287 -0.2086656 0.04625196 0.9768927 190 186 186
-0.0529431631708972 -0.0189740963063942 -0.015234742518008 -0.2064939 -0.0427182 0.9775149 155 158 146
-0.050257416083856 -0.0160658942879632 -0.0153461810454431 -0.0446501 -0.02037565 0.9987949 144 141 136
-0.049613286202173 -0.016679414837131 -0.0147496254873132 -0.07241522 -0.01399308 0.9972764 166 167 163
-0.0510544525115482 -0.0189889003300994 -0.0145447053428241 -0.1365851 0.001057602 0.9906278 175 175 173
-0.0468779635828653 -0.0188857819839012 -0.0160521942046418 0.09846211 0.02319679 0.9948704 144 144 133
-0.0554945296826832 -0.0203166399286094 -0.014522613360863 -0.4760692 -0.06049455 0.8773246 173 164 150
-0.051093291576968 -0.021239533511658 -0.0149992302019645 0.007366407 0.03151846 0.999476 186 186 190
-0.0485237392950211 -0.0198638955990682 -0.0154107887090044 0.08456155 0.03623227 0.9957593 184 180 183
-0.051650289167485 -0.030424433713899 -0.0150753260221019 -0.09017634 0.01114193 0.9958635 186 186 178
-0.0501774922850058 -0.0289322779039434 -0.0158362197964724 0.01461833 -0.01881597 0.9997161 142 144 132
-0.0479089907504988 -0.0284179374158204 -0.0148886953179919 0.09500473 -0.003523146 0.9954706 177 177 179
-0.0518906640163495 -0.0351191761299035 -0.0149537510552664 -0.02203608 0.03997673 0.9989576 176 175 171
-0.0563675375526214 -0.0425486154670138 -0.00895649189587688 -0.9610144 0.02737607 0.2751395 184 183 182
-0.0558402501692152 -0.0360591232172713 -0.0119519525348807 -0.8226469 0.0173834 0.5682869 201 203 208
-0.0492005278723222 -0.0371297466320499 -0.0149754804729905 0.04163993 0.0006277117 0.9991325 175 175 174
-0.0561704208701148 -0.0450822416666712 -0.00962313741952869 -0.9044338 0.01325633 0.4264078 148 149 141
-0.0560686417452758 -0.0417612498151152 -0.0124628989621635 -0.7701536 0.107468 0.62874 208 209 215
-0.0551638280940576 -0.0426037512123423 -0.0126141004785244 -0.6867058 0.07193468 0.7233675 170 174 174
-0.0564114676418062 -0.0487241691209634 -0.00706621452648237 -0.9858876 0.01590196 0.1666514 199 199 198
-0.0551568330813461 -0.0489972768937945 -0.00586339241922618 -0.9906952 -0.0113095 0.1356287 166 167 170
-0.0560430306879671 -0.0563924777524598 -0.00536894028153645 -0.9932084 0.05849158 0.1005772 179 178 179
-0.0557542266292594 -0.0486939833524911 -0.0147517646788893 -0.6669151 0.03760145 0.7441844 191 191 192
-0.0522600524070709 -0.0531111105187467 -0.0143541343465027 -0.121244 -0.03251295 0.9920901 194 191 195
-0.0532948919160816 -0.054699938472057 -0.0147449435811902 -0.2044553 0.05907487 0.9770917 189 186 196
-0.053013665850685 -0.0557392190692874 -0.0143175823776932 -0.2275217 0.01529033 0.973653 176 176 175
-0.0526286860052496 -0.0568337159792804 -0.0147544647911603 -0.1936557 0.07547902 0.9781618 176 178 168
-0.0557355907130568 -0.0624808706181925 -0.00771703690049763 -0.9824517 0.05028235 0.1796114 186 190 192
-0.0563221714150157 -0.0649722100881518 -0.00540961845456633 -0.9933791 0.01718819 0.1135891 204 204 208
-0.0566011582371697 -0.0642962779121559 -0.00850835911506975 -0.9804181 0.04313665 0.1921448 206 208 212
-0.0554552053983135 -0.0596896930745638 -0.0118037363835563 -0.7057622 0.1407216 0.6943321 173 176 179
-0.0563669560390643 -0.0605799441233814 -0.0114058816551901 -0.8436351 0.1155642 0.5243327 175 176 174
-0.0563635620049514 -0.0614280372683356 -0.0137062803179316 -0.77769 0.03226886 0.6278192 220 221 228
-0.0564173300805062 -0.0616923959423499 -0.0132402545710355 -0.8233385 0.04314532 0.5659083 198 198 206
-0.051584163032204 -0.0644537080515339 -0.0144256539370677 -0.1333636 0.003921418 0.9910594 195 195 198
-0.0564797739005856 -0.0696894024796759 -0.00928222676204227 -0.9609476 0.04205456 0.273516 174 173 179
-0.0564785017728131 -0.0754052114974746 -0.00534170224924246 -0.9939436 0.04913931 0.0982928 190 190 191
-0.0565602408017141 -0.0751378904733961 -0.00777527943823264 -0.9708777 0.01596275 0.2390432 178 178 181
-0.0538254112038905 -0.0688664275146631 -0.013790405642249 -0.2659649 -0.05158167 0.9626017 145 140 151
-0.0533785083110083 -0.0711983882155329 -0.0142685136449391 -0.1453288 0.04391997 0.9884081 175 173 175
-0.056758708612225 -0.079070832345015 -0.0108923469324361 -0.8784698 0.04587758 0.4755903 202 202 202
-0.0561162241402626 -0.0784793489521455 -0.0134758868171646 -0.613315 0.06034847 0.7875295 173 167 156
-0.0311713680075463 0.0839516069036341 0.00487652304257236 0.1413855 -0.9775576 0.156177 100 100 83
0.0616891513395554 0.0244530788492094 0.00608362900436721 0.9904785 0.08825514 0.1056569 128 118 98
-0.0283028896121125 0.0827016544488319 0.00604342481498221 0.1501977 -0.9852604 0.08186986 128 125 108
-0.0297210072550012 0.0827939055997076 -0.000756694146020309 0.1298164 -0.9895232 0.06317893 112 106 75
-0.0181578964236631 0.0812225831164066 0.00113938933727487 -0.01002738 -0.9998162 0.01634234 87 87 37
-0.0125725749616945 0.0807083871138805 0.000881673151979179 -0.07782003 -0.9969212 0.009600303 108 102 73
-0.0296970978804081 0.0824691100711141 0.00335077617784929 0.1154342 -0.9899338 0.08189026 108 114 73
-0.028595461944644 0.0821775926442485 0.00181390760413214 0.1118131 -0.9913204 0.06914902 114 108 87
-0.0295983955838379 0.0820409286577597 0.00105933302949124 0.1132097 -0.9904568 0.07860633 100 101 75
-0.0271068360815603 0.0816714389722242 0.00171223434763135 0.1309824 -0.9881833 0.07960734 103 106 71
-0.025271388715133 0.0817854167766552 0.00185088081544782 0.1054882 -0.9930484 0.05222172 112 114 83
-0.020282320899105 0.0809408464955401 0.00722887226711744 0.06655158 -0.9976637 0.01542449 107 107 73
-0.0199463803813729 0.0803296726319775 0.00586532986472155 0.05764503 -0.9979963 0.02608308 125 125 94
-0.0220375989003772 0.08133356201192 0.00379909443378612 0.07771744 -0.9958294 0.04778923 183 181 166
-0.0215231645148763 0.0811120433539971 0.00153898501408867 0.07018898 -0.9974716 0.0111352 103 108 70
-0.0188887292454598 0.0806232253179935 0.00278264007202711 0.04296521 -0.9976089 0.05413424 111 103 87
-0.0130532254624154 0.0796477574262304 0.000783631758649483 -0.07872538 -0.9967537 0.01686542 109 115 87
0.0503349898210013 -0.0703770322848267 -0.01306791835118 0.5906366 0.6687499 0.4515772 213 209 209
-0.00643691264559543 0.081906856832594 0.00691722605556599 -0.03686507 -0.9936189 -0.1065946 123 118 87
-0.000573350264175598 0.0796276020540827 0.00677839156050652 0.01615506 -0.9971727 -0.07338775 119 118 84
-0.00924957849559216 0.0804746217774344 0.00231799943678201 -0.1023018 -0.9946017 -0.01737294 105 103 78
-0.00797142056951539 0.0818132086797199 0.00118891038081925 -0.09612118 -0.9949057 -0.03038726 84 90 48
0.0376634319674283 -0.0402861103915468 -0.0161728182203261 0.0918408 0.04674805 0.9946758 192 191 189
-0.00575726644466656 0.082160500485569 0.000503289144956787 -0.06424319 -0.9971207 -0.04028921 103 101 80
0.0179077785737893 0.000996531319847893 -0.0172496642711726 0.0992066 0.01512322 0.9949519 174 179 174
0.0083218329864676 0.0795330468086846 0.00444562909902912 0.05207729 -0.9986427 0.0007853957 117 115 89
0.00899593848212454 0.0799291905147226 0.00258397986115966 0.09483322 -0.9951554 0.02592978 104 105 72
0.00336288018921516 0.0796658579168359 -0.000269409169929902 -0.0175072 -0.9993441 -0.03169968 116 113 94
0.00760469232689998 0.0800498998263475 0.00209023762562077 0.05771374 -0.9982866 -0.009641289 112 110 77
0.00720642462558607 0.0799455821715891 9.85128337929186E-05 0.09469857 -0.9955 0.003438906 125 124 98
0.00581931868467578 0.0802179450813709 -1.52986162833546E-05 0.0633899 -0.9979045 -0.01297593 115 114 87
0.00497756089431656 0.0799761935879781 -0.00165958359971852 0.02129932 -0.9997556 0.005920175 124 123 102
0.00504532804260949 0.0797465457440847 -0.0014551461099358 0.08604807 -0.9961885 0.01429024 118 105 89
0.0092453259463694 0.0797633246274527 -0.00223702786555491 0.1449837 -0.9894322 0.001928347 124 126 98
-0.0092304885968959 0.0801036220687583 -0.00181300506032389 -0.133891 -0.9837092 0.1199558 134 128 115
0.058305853720432 -0.00478052191226253 0.00553393006926894 0.9985844 0.04651108 -0.02580339 88 85 64
-0.0197117164249205 0.0174648579113885 -0.0158380564219794 0.08073736 0.006296592 0.9967155 179 180 178
0.0287590148401935 0.0723718262773116 0.00704922730972757 0.4023911 -0.9110892 -0.08943045 104 110 73
0.0311743212393967 0.0716525402349544 0.00684363159442325 0.3606571 -0.9283123 -0.09034758 103 106 65
0.0117699368027124 0.0793525080151254 0.00656462650925205 0.08595818 -0.9962566 -0.009158114 184 182 171
0.0128415820768453 0.0791519956413866 0.0041523684985898 0.1158494 -0.9932575 -0.004301127 172 172 151
0.0157376551854063 0.0787292160330197 0.00367066096305035 0.1650153 -0.9858748 -0.02865063 116 117 93
0.0167387641101515 0.0782623440899939 0.00481404364131421 0.1752665 -0.983291 -0.04919901 118 122 89
0.0142469499488118 0.0774920425157568 -0.000207495630042076 0.110447 -0.9928913 0.04436517 102 107 50
0.0200018373078934 0.0775964573175458 0.00152022723236678 0.2688302 -0.9603958 -0.07328212 123 116 102
0.0193313229908993 0.0775919444797419 -0.00261240632399695 0.2256326 -0.9728364 0.05176209 118 115 91
0.0221388146470558 0.0766820260866303 0.00157087461258765 0.3398248 -0.9345591 -0.1054436 109 115 75
0.0195363992353881 0.0713116201953665 -0.0020446770331638 0.2761381 -0.9129143 0.3005581 112 111 87
0.0235053980674569 0.0758525556952152 0.00706320917776893 0.3556676 -0.9341567 -0.02918553 118 113 84
0.031034308427673 0.072261184627797 0.00289304276916502 0.4134243 -0.9074777 -0.07459557 125 121 107
0.0227796519381995 0.0760376870674992 -0.00332486352378292 0.3412543 -0.9349577 -0.09695199 122 119 94
0.045459773085833 0.00844780876046425 -0.0168798523154673 0.1145072 -0.01722833 0.993273 163 164 162
0.0284218624285593 0.0737020342000341 0.00146359757165182 0.3579516 -0.9259868 -0.1200795 103 107 81
0.0265568657365314 0.0742342245609133 -0.00282374670624919 0.4094525 -0.8992618 -0.1538729 112 112 88
0.020129867991898 0.0690092907110016 -0.00269981131232322 0.4093474 -0.8685132 0.2794988 124 125 105
0.0299969119906218 0.0683812356133431 -0.000743807125095697 0.4288371 -0.8989334 -0.08954024 111 111 78
0.0294193147610375 0.0668854345582282 -0.00359697640361734 0.3998212 -0.9165574 0.008089584 114 113 75
0.0479767329485237 0.0669946386717628 0.00662926963290233 0.01941091 -0.9963144 0.08355162 113 109 87
0.0390295971345958 0.0689867273719367 0.00596305620757998 0.2348862 -0.9667361 -0.1012413 133 131 103
0.0351308764145148 0.0667720470160005 0.00511891716328539 0.2524669 -0.96182 -0.105654 135 130 109
0.0409598183380091 0.0681030631340027 0.00246269411491384 0.2185034 -0.9682853 -0.1211605 103 94 83
0.0347918238991503 0.070988012609148 0.000674357415041515 0.3091122 -0.9454042 -0.1032498 118 112 92
0.0361424105061054 0.0701159840381333 -0.000483808072250791 0.2483898 -0.9609648 -0.121857 134 129 108
0.0336110539925341 0.0718986837211162 -0.00383670504625389 0.302538 -0.9524598 -0.03593279 84 87 39
0.0407180366713191 0.0685702673116937 -0.00389042107367499 0.2218654 -0.96298 -0.1531186 99 101 72
0.0433074040672738 0.0671427257583295 0.00160187708197246 0.1859663 -0.9803255 -0.06617057 111 109 86
0.0503913389526955 0.0668806898015784 0.00360385575179556 -0.06677745 -0.9973962 0.02723117 106 105 73
0.0511345796962868 0.0657608623480499 0.000748186189802991 -0.09667548 -0.9952747 0.009063678 101 97 68
-0.0258799454787502 0.082361308284876 -0.00248087818037512 0.09330712 -0.9929184 0.07353091 102 107 84
-0.0167996277919944 0.0818730714304308 -0.00383289542570364 -0.05261647 -0.9984154 0.01995523 114 111 92
-0.03028266985946 0.0826162766279142 -0.00120985525472728 0.1129148 -0.9930499 0.03319942 144 139 109
-0.0326400351302549 0.0826309978199153 -0.0063414500436314 0.1089578 -0.9815243 0.1572838 126 127 106
0.0324225619157192 0.0716706633868895 -0.0110428671598364 0.2727773 -0.9589459 0.07755896 93 103 70
-0.0262549663221334 0.081506789701443 -0.00270579040976482 0.09330712 -0.9929184 0.07353091 106 102 78
-0.0251690821317989 0.08088934267632 -0.00464539278638232 0.1188701 -0.9859859 0.1170546 110 112 87
-0.0243547025227304 0.08071203914747 -0.00615914008149177 0.1442095 -0.9841602 0.1031132 94 100 60
-0.0239518765923568 0.0806039054897838 -0.00557931657506439 0.1172433 -0.9863286 0.1158013 180 177 170
-0.0316543767156832 0.0824649499636965 -0.00883471689866278 0.1045563 -0.977433 0.1835557 119 121 102
-0.0328315158155745 0.0809278424735613 -0.0105477544128569 0.07419052 -0.9562275 0.283063 119 130 103
-0.0297267570943269 0.0813935693660581 -0.0100669791930574 0.07618469 -0.9885418 0.130311 135 141 130
-0.0339277374247176 0.0803467823148367 -0.0112048430625609 0.1107934 -0.9493791 0.2939457 112 124 108
-0.0254913596256696 0.0804169454955661 -0.0093368158834477 0.1229128 -0.990571 0.06050995 116 117 98
-0.0271215658593118 0.0814560238028263 -0.0099632475605349 0.1094173 -0.9926817 0.05109553 103 106 75
-0.0248843624960653 0.0801584989731248 -0.0122885082031444 0.1489407 -0.9754366 0.162296 119 120 88
-0.0178954274634999 0.0802773364816856 -0.00366354490217768 -0.006800997 -0.9950517 0.09912559 98 103 70
-0.0211061860859665 0.0811966050601889 -0.00542658887020886 0.05080286 -0.9881214 0.1450352 89 93 66
-0.0206565329009756 0.0800702959970809 -0.00578145749833048 0.02728213 -0.9908522 0.1321646 120 118 94
-0.0171793861470972 0.0802855721161604 -0.00408040451615954 0.003308852 -0.9954111 0.09563394 109 107 78
-0.0131566765148172 0.0799895025322179 -0.00276213159812333 -0.07355067 -0.9940956 0.07977621 126 128 110
-0.0150125200866065 0.0805279596670165 -0.00549659076232945 -0.04458138 -0.9974705 0.05536341 124 127 108
-0.0146439500295323 0.0798448440382988 -0.00506188521026074 -0.06294487 -0.9964393 0.05609491 102 106 73
-0.0143575191462597 0.0802560464351565 -0.00647727222063554 -0.02437893 -0.9925205 0.1196192 96 100 75
-0.0215829723199163 0.0798307700600474 -0.0104537779196919 0.05469022 -0.990692 0.1246532 96 99 73
-0.0184888616717123 0.0793068130961148 -0.0100605520714819 -0.05481162 -0.9963968 0.06472225 111 108 92
-0.0133049809710042 0.0798376945631269 -0.00872385229134276 0.009408584 -0.9849204 0.1727519 117 114 103
-0.0157794569946184 0.0790535606607981 -0.0127312277112585 0.1294343 -0.898199 0.4201015 111 111 89
-0.0289244992222348 0.0808942360770848 -0.0146648889281552 -0.027339 -0.8611626 0.5075939 114 115 98
-0.0320072100661615 0.0798510345073555 -0.0154649328496194 -0.03671275 -0.7548516 0.6548674 152 155 142
-0.0288784717130337 0.0809117512386286 -0.0155672855874275 0.02683234 -0.8587136 0.511753 138 142 103
-0.0335042438555153 0.0790188578559996 -0.0161768438751916 0.0578102 -0.5524813 0.8315181 187 187 187
-0.0295368558199132 0.0784303116217884 -0.0166457299467223 0.0621215 -0.3844736 0.9210434 160 164 152
-0.0272495214535975 0.0805405667367587 -0.0148770786299181 0.03214549 -0.8621044 0.50571 150 149 131
-0.0239314363660692 0.0806531779027426 -0.0126146332635125 0.1825878 -0.9645004 0.1907895 117 115 100
-0.0253638185966232 0.0801261047189652 -0.0145854605982157 0.1356976 -0.9148018 0.3804258 167 164 154
-0.0270949328443497 0.0822790144608776 -0.0152157473041359 0.07050923 -0.9322652 0.3548381 112 114 86
-0.0240234381252977 0.0788133365532517 -0.0161859598429691 0.2377077 -0.6003273 0.7636113 178 173 173
-0.0332976851829379 0.0756830462186604 -0.0159250481613644 0.03576399 -0.2100627 0.9770336 175 178 179
-0.0264211167788562 0.076312809726141 -0.016524763692728 0.1190097 -0.2197386 0.9682725 168 169 161
-0.0288834386128138 0.0732211386890091 -0.0162356435069519 0.06415269 -0.003490017 0.997934 179 182 181
-0.0241000902344517 0.0743011561014104 -0.0161229953765584 0.1131661 -0.09769488 0.9887614 175 180 179
-0.024484928306381 0.0733456807108674 -0.0162934152885587 0.1313732 -0.05014171 0.9900641 195 192 190
-0.0201012102032925 0.0789363099274747 -0.0130483849586732 -0.04376379 -0.893634 0.4466577 122 119 105
-0.023110714224376 0.0768036161213956 -0.0163309747638377 0.145787 -0.2730472 0.9508898 193 193 192
-0.0220201548063399 0.0766004789886761 -0.0164988897845273 0.1126808 -0.2714032 0.955847 169 169 168
-0.0165545291887104 0.0798676872797102 -0.0126580322751186 0.03950153 -0.9120944 0.4080728 154 151 121
-0.0155973607057982 0.0777002147891384 -0.0169499348747578 0.111837 -0.4483998 0.8868089 178 177 172
-0.0223652242812686 0.0746738967501626 -0.0160434438988216 0.1453004 -0.1235638 0.9816414 188 194 190
-0.0200503453233283 0.0760576797045103 -0.0163793828750797 0.0984072 -0.1751076 0.979619 201 198 199
-0.0210987972384196 0.0727511831171561 -0.0162439415661253 0.1574148 0.00460437 0.9875218 172 176 171
-0.0163154214189527 0.0754611678997716 -0.0162592621855683 0.1828681 -0.2006471 0.9624448 170 169 165
-0.0144639585352884 0.073230288486241 -0.0165375924291002 0.146565 -0.04559315 0.9881498 169 171 166
-0.0124364598344813 0.0733200695887291 -0.0163865820424739 0.1041253 -0.06014112 0.9927441 161 166 155
-0.0173357947044672 0.073009872008079 -0.0159267904227101 0.09429875 0.02250923 0.9952894 176 179 180
-0.0162358828105909 0.0713140070257339 -0.0165849496967112 0.1215212 -0.008236795 0.9925547 212 211 213
-0.0148153371979165 0.070000916385154 -0.0163298149618364 0.1268996 -0.01779675 0.9917559 187 185 186
-0.0104932797791115 0.0805089328857143 -0.0030757311077465 -0.14028 -0.9796077 0.1438412 131 128 121
-0.00861333869468117 0.0804608021215567 -0.00523932248697057 -0.08668999 -0.9721229 0.2178576 115 115 86
-0.00298616539902019 0.0806252554821913 -0.00271051401671818 0.03014942 -0.9994171 0.01601734 147 149 113
-0.00463899848662019 0.0812893249553461 -0.00375520634855764 -0.04517367 -0.9946544 0.09285453 119 121 97
-0.00346798789431535 0.0814361381838835 -0.00588207694896514 -0.03303474 -0.9817148 0.1874695 117 115 101
-0.00320891696636094 0.0804088485997774 -0.00748407350902525 0.01524807 -0.9526087 0.3038159 101 110 73
-0.00378579482091079 0.0806253683455 -0.0114279717632373 0.07355052 -0.9286698 0.3635421 118 118 86
0.00332845644076341 0.0798802255225275 -0.0033931104005408 0.02951308 -0.9950725 0.09465576 121 114 94
7.41285219718613E-06 0.081034260203632 -0.00535856266661583 0.09596017 -0.9889001 0.1134388 108 114 73
0.000828444604401124 0.0806052480558554 -0.00607245398817813 0.1277486 -0.9820793 0.1385658 119 121 86
0.00941331599485573 0.0797713905638957 -0.00419609557629497 0.1565143 -0.9875648 0.0147993 149 148 122
0.00885677458708445 0.0796151311797331 -0.00734736636083899 0.1348689 -0.9701202 0.2016859 129 134 112
0.00777145858321338 0.0797231223210744 -0.00865272997538635 0.09114387 -0.9519663 0.2923232 144 143 138
-0.00818592632015402 0.0801376177933433 -0.00816380166863029 -0.1022581 -0.9641755 0.2447631 122 124 98
-0.00778065439576081 0.0790389337155466 -0.00770074218382921 -0.1186421 -0.9652282 0.2329347 135 132 114
-0.0110894406919488 0.0789112773087439 -0.0111009608803664 0.101273 -0.9402602 0.3250453 114 115 94
-0.00324907636764582 0.0782563898036444 -0.0117395127556048 0.06679033 -0.9183529 0.3900859 129 126 116
-0.0036510198113513 0.0772971886395739 -0.0136397016006409 0.03965167 -0.7431314 0.6679696 116 119 95
0.000592453935166493 0.0792305855011164 -0.0102451118121089 0.09356949 -0.9305738 0.3539451 136 137 124
0.00196702379062885 0.0780679318169635 -0.0119711047854901 0.1059593 -0.892751 0.4379135 124 122 107
0.00517965258090336 0.0774461032212377 -0.0100272699822334 0.05978439 -0.9289811 0.3652668 124 137 100
0.00584757557832782 0.0777876990152249 -0.0114184172692696 0.0908835 -0.8952433 0.4362105 123 126 116
0.00496833386777218 0.0776402004455505 -0.0131868642718594 0.1160022 -0.8396837 0.530542 157 158 148
-0.0117628504912348 0.0780230957984387 -0.0152824529607473 0.1825513 -0.6179511 0.7647297 152 156 139
-0.00802101391276011 0.0761361454439349 -0.0162324978995586 0.1712943 -0.4129895 0.8944819 174 173 164
-0.00146148579770333 0.07729180706794 -0.0139276842873881 0.03925592 -0.7099341 0.7031732 138 138 132
-0.00187064036274043 0.0767629145166704 -0.0157283539531364 0.02330535 -0.6251697 0.7801408 168 170 157
-0.00771153459991947 0.0745380615371118 -0.0160382591043949 0.1555986 -0.2791872 0.9475461 154 154 150
-0.0103601144748837 0.0723523105220119 -0.0156485150779252 0.09307289 -0.009264275 0.9956162 142 144 134
-0.0095378196293221 0.0733951872115999 -0.0165096482205652 0.09738836 -0.04730829 0.9941214 178 176 179
-0.0128320234890944 0.0703848078878215 -0.016203455279077 0.1197679 -0.01261816 0.9927217 152 159 138
-0.00407752659177207 0.0731010074640868 -0.0163260836887927 0.08881951 -0.15974 0.9831553 136 140 117
-0.0026241855330984 0.0723192580832213 -0.0164562430599627 0.09553329 -0.07025511 0.9929439 123 126 116
-0.00679532532655824 0.0715033904022864 -0.016644368096616 0.0750834 -0.01020437 0.997125 187 187 187
-0.00599317806140776 0.0719125509679872 -0.0162802051045631 0.07540709 -0.01525714 0.9970361 173 172 176
