ply
format ascii 1.0
comment File exported by Rhinoceros Version 7.0
element vertex 476
property float x
property float y
property float z
property float nx
property float ny
property float nz
property uchar red
property uchar green
property uchar blue
end_header
0.0327254057663693 0.0283236616948127 0.00516447919497245 0.5030566 0.7184875 0.4803225 38 38 38
0.0328983784455075 -0.00678055345029838 -0.00771073502412087 0.2549345 -0.8959177 -0.3637854 77 77 77
-0.0208361624938236 -0.0300508624217034 -0.0138668517481352 0.45558 -0.7981887 -0.3941341 31 31 31
-0.0320076226454959 0.020463835606861 0.0133333851684069 -0.8886793 0.07942045 0.4515989 100 100 100
0.0467670679825558 0.0201252812245368 0.00971258181223625 0.1943905 0.7918578 0.5789416 60 60 60
0.0147372008103146 -0.0190780645510674 0.00228880840430015 0.4829956 -0.8311712 -0.2754444 71 71 71
-0.0147425412398563 -0.0369127875468255 0.0103572656501269 0.2570058 -0.7959456 0.5481046 176 176 176
0.00660700805366177 -0.0213245040080071 -0.00589665275922066 0.4805944 -0.8425968 -0.2430221 63 63 63
-0.019334840701221 -0.0263858920237542 -0.019253919542935 0.4217168 -0.8740168 -0.2413494 85 85 85
-0.00983016483604771 -0.0133819466731072 0.0250016649354433 0.04924383 -0.5231672 0.8508062 224 224 224
0.0287954331177487 -0.00335108100385673 -0.0240375052105451 0.4772713 -0.7446225 -0.4666363 50 50 50
-0.00215797416984898 0.0212144965031623 0.0343517412532305 0.08551098 0.9881044 0.1278183 21 21 21
0.00340564258277554 -0.0201157218119622 -0.0122772256742979 0.361779 -0.8308907 -0.4227726 46 46 46
-0.00729780189812046 -0.0269069558283807 -0.00733172398915535 0.3262369 -0.8659063 -0.3791777 62 62 62
-0.0290712594252811 -0.000709045519542761 0.0224737276423907 -0.9255004 0.1131207 0.3614592 57 57 57
-0.0149986027938114 -0.025149572481823 -0.0214264045368696 0.2521205 -0.9616922 -0.1076261 76 76 76
-0.0268756627303348 -0.0348050480982781 -0.0115854541670347 0.4010956 -0.8161713 -0.4159166 54 54 54
-0.0479259967070804 0.00291169823198312 -0.0154123256813551 -0.9103914 0.1021474 0.4009406 49 49 49
-0.0375535964232669 -0.036736178984356 -0.0138756881367231 0.2399052 -0.8422291 -0.4827998 49 49 49
-0.00741260044395786 0.0264248961308479 0.020530854641292 0.1054576 0.936259 0.3351087 17 17 17
0.0206707239884152 -0.0128211265704156 0.0240192015756106 0.0301458 -0.5345303 0.8446115 210 210 210
-0.00701515667259556 0.0275583380558967 0.0139221300471758 -0.1291359 0.9592591 0.2512886 23 23 23
-0.0510390280944095 -0.0350670701167107 -0.00965435308327919 -0.9306566 0.07439172 0.3582516 63 63 63
0.0307456970947995 -0.0135143881937981 0.0228932102311587 0.0916371 -0.5978573 0.7963475 177 177 177
0.0534346819657101 0.0115001314976692 0.0125827242721056 0.7148492 0.4980868 0.4908157 55 55 55
-0.0100178002578006 -0.0325236207148553 0.00271380442270988 0.4541914 -0.8078098 -0.3757041 72 72 72
0.0287135363358273 -0.00676165877790458 -0.0133874366890455 0.5150013 -0.8434129 -0.153063 78 78 78
0.0225474358338131 0.0348588341572761 0.00578266876826042 0.3918398 0.7133563 0.5810201 48 48 48
-0.0347453831893192 6.36690953254027E-05 0.0114346643079256 -0.8607573 0.105437 0.4979759 100 100 100
0.019787621571423 -0.0141104942461968 -0.00764081877579934 0.5475516 -0.787759 -0.2821755 57 57 57
0.0378474713104977 0.0274405592778205 0.00286835926661247 0.3782148 0.7299243 0.5693541 39 39 39
0.046722960545422 0.000438939938831262 -0.0184811900269056 0.3042748 -0.8782609 -0.368883 58 58 58
-0.00666193954765659 0.0222742670872688 0.0313049604285693 0.2222438 0.9586989 0.1774943 15 15 15
-0.0208184003096805 -0.0353408342501641 -0.00400676828732735 0.4094703 -0.8244142 -0.3907369 95 95 95
0.0048804999130978 -0.014834631075573 -0.0276524375092054 0.4034869 -0.8733906 -0.27274 146 146 146
-0.00561325542747837 -0.0123994237086297 0.0255094667066073 0.03896282 -0.5254462 0.8499342 133 133 133
-0.00978438846886021 0.00870562733201974 0.0387862970221972 0.02153557 -0.5247111 0.8510079 68 68 68
-0.0249426841002689 0.0213911646702766 0.0250789423573946 -0.8454772 0.1384494 0.515752 94 94 94
0.0388079405564083 -0.0107436066767693 0.0243945171226 0.2221772 -0.714452 0.6634724 157 157 157
0.0451995850342526 0.0235327595570564 0.00436966615805381 0.1606267 0.8200757 0.5492494 73 73 73
-0.0110503911238895 -0.0290386563441277 -0.00594590109696633 0.3714473 -0.8545095 -0.3630983 89 89 89
0.0104971647995724 -0.0148876196047784 -0.019783789933827 0.2630946 -0.9273743 -0.266004 66 66 66
-0.0372622489196048 0.014789711842823 0.00412680703291649 -0.8815553 0.1076384 0.4596457 102 102 102
0.0525956869858517 -8.35543772698122E-05 0.00413416820654625 0.404429 -0.8869173 -0.2231924 92 92 92
0.0184776306885495 -0.012962449183178 -0.0198426644217039 0.3883495 -0.8772967 -0.28202 105 105 105
0.00216932304084438 -0.0229196435114861 0.0186321337808108 0.03931126 -0.5238931 0.8508764 224 224 224
-0.0343479394179569 -0.0321704035899163 -0.0227864186178709 0.3680516 -0.871344 -0.3244961 91 91 91
-0.0129763364058719 0.0314146393635749 8.65210879778255E-05 0.1341032 0.9315061 0.3381016 31 31 31
0.012943458630444 0.0258067959645271 0.0247256954301333 0.3691884 0.8062472 0.4622395 21 21 21
-0.0278569936019168 0.010374199757862 0.0203762997973894 -0.8871642 0.04365066 0.4593846 67 67 67
-0.0406622170668827 -0.0105779653689385 0.00194107490668052 -0.8803588 0.211446 0.4245692 87 87 87
0.0329350949066891 -0.00476037322492606 -0.0175538907658125 0.3601561 -0.924804 -0.1225771 76 76 76
0.0267201185959591 -0.0123883968493462 0.000815098463389813 0.3134712 -0.91145 -0.2664483 61 61 61
-0.0402206658583866 0.0107053631642341 -0.000619987667706073 -0.9012908 0.1184759 0.4166993 82 82 82
0.056864094807507 0.0210967177250861 -0.00575682026257759 0.5338198 0.7066591 0.4644022 57 57 57
-0.0548143862944828 -0.016781914820385 -0.0204902837883497 -0.8659647 0.2397696 0.4388802 25 25 25
0.0525073529022946 0.0159598702290534 0.0101541330207323 0.7321066 0.4539863 0.5078548 32 32 32
-0.0511272429686771 -0.00514673053236014 -0.019783789933827 -0.8433638 0.1710246 0.5093997 55 55 55
0.0310886622208371 -0.0137366539141656 0.012506191908214 0.4102291 -0.8755735 -0.2551139 97 97 97
-0.0509948014479862 -0.0310222989222527 -0.0121006022106672 -0.8291855 0.2556578 0.4970819 42 42 42
-0.00917892448723179 -0.0285496002337456 0.0156295050967669 0.02692337 -0.5337973 0.8451837 155 155 155
0.0444930315750851 -0.00859092532606132 0.0207169403422808 0.5251838 -0.8323978 -0.1769065 100 100 100
0.0128219843643917 -0.0137627607485772 -0.0215721229921842 0.266471 -0.8971903 -0.3521969 83 83 83
-0.0070593833190189 -0.0221027618548394 -0.0171344230782056 0.447903 -0.8576904 -0.2524878 82 82 82
-0.0275699376326786 -0.00123893081159598 0.0261828501809573 -0.8540506 0.06072633 0.5166333 45 45 45
0.0445681334275021 -0.00303613006086356 -0.00361377996316201 0.5184511 -0.8482599 -0.1079983 96 96 96
0.0552230597275509 0.00450135410814279 -0.00967752438893563 0.6039516 -0.7933025 -0.07689995 46 46 46
0.0321734667557492 0.0321651810505866 0.000793014942500531 0.461468 0.7408326 0.4880722 32 32 32
-0.0237282990676151 -0.0414762979647637 0.00783592957148307 0.2209149 -0.8652883 0.4499698 110 110 110
-0.0305946349364505 -0.0239573007723809 -0.0359891305576826 0.07496755 -0.8285054 -0.5549402 41 41 41
-0.00215797416984898 0.0217002743580818 0.0295387257922625 0.01036556 0.9394493 0.3425311 25 25 25
0.00495119102180142 -0.0253261810442925 0.0169718613017535 0.08010779 -0.6038975 0.7930262 202 202 202
-0.00105409614860874 0.0332691782811164 -0.00084076327195412 -0.1426515 0.9256065 0.3505753 17 17 17
-0.0332440613967167 0.00277186573534005 0.0124208231557345 -0.869735 0.06680918 0.4889761 129 129 129
0.00592250831306118 0.029648315320301 0.0113021929849123 -0.5215659 0.7789912 0.3480541 16 16 16
0.0205823899048581 -0.000554550280284949 0.0316802908767199 0.02871509 -0.5115087 0.8587982 113 113 113
-0.0249132394057499 0.0149443262913703 0.0269040663827395 -0.858511 0.1172398 0.499213 94 94 94
0.0588880301255001 0.0188300722935676 -0.00501352053990609 0.545061 0.6816163 0.4881678 51 51 51
-0.0390726804000125 0.0151209944584846 -0.000973234594967426 -0.9184678 0.1955761 0.3437541 50 50 50
-0.00734643928825718 -0.0266729479929925 0.0165678312171435 0.03418588 -0.5325629 0.8456997 148 148 148
-0.0439739703398929 -0.0132714992663384 -0.00680185359826332 -0.91769 0.05369295 0.3936523 100 100 100
-0.00486629001915317 -0.0106368547579766 0.0265360971082186 0.03627697 -0.5372397 0.8426491 146 146 146
0.00474138267219204 -0.0197293645045281 -0.0124428222786451 0.3467647 -0.8471448 -0.4026163 61 61 61
0.026884150578381 -0.0116503721377373 -0.00158826512208229 0.3199368 -0.9228153 -0.2145983 99 99 99
-0.0449012994033084 -0.0014818197390557 -0.00870057445874459 -0.908835 0.03299613 0.4158488 58 58 58
-0.0458727359038578 -0.0277547722956658 -0.0286591897617841 -0.1278207 -0.7205899 -0.6814778 73 73 73
0.0108128309983029 0.0284119957783698 0.022462685881946 0.1311977 0.8917786 0.4330335 14 14 14
-0.0172594069701419 -0.0288917904994012 0.0156846989978289 0.04335996 -0.5371071 0.8423989 195 195 195
0.0529994488495602 0.00223995388536447 -0.0155511001955534 0.4380593 -0.8970318 -0.05863487 61 61 61
-0.00293080799400669 0.0311496371129035 0.00587097304949516 -0.1056013 0.954615 0.2784934 21 21 21
0.0245943785446896 -0.0185356026789666 0.0146328409303164 0.4571252 -0.804597 -0.3790254 119 119 119
0.0228234053391232 -0.0112513786456109 -0.0190441707979704 0.5298925 -0.842854 -0.09386719 102 102 102
0.0594620228546872 0.00462640465288156 0.00579739111551994 0.6689769 -0.7387722 -0.08176557 33 33 33
-0.0169172763091312 0.0283788555958747 0.0163139303315615 0.1922752 0.9500784 0.2457259 27 27 27
0.0326518536347165 -0.00482295810194022 -0.0196218888174558 0.4289075 -0.8675067 -0.2519335 73 73 73
0.0157694340485348 0.0172404164174079 0.0357647587645983 0.433116 0.7007642 0.5668687 19 19 19
-0.0248984574538456 -0.00770782290906913 0.0291413118232226 -0.4300711 -0.3107657 0.8476223 123 123 123
-0.00761132232963901 -0.0183274036547662 -0.0310877810131574 0.3624928 -0.7537094 -0.5481981 88 88 88
0.00602192886054653 -0.0225553399226189 -0.00349014502873665 0.4691836 -0.8434795 -0.2615513 74 74 74
0.0529047966736569 0.0194629544117927 0.00669523078093284 0.692813 0.5738224 0.4367356 34 34 34
0.00954337127387661 -0.0230963116786004 0.0179918755877947 0.09492672 -0.6240564 0.7755917 169 169 169
0.0146213293808712 0.0377289170125007 0.00684242445120567 0.3072734 0.7806424 0.5442246 79 79 79
0.0211270571488156 0.0296629780629157 0.0139074226010775 0.2870215 0.7966886 0.531889 48 48 48
0.0266760111588253 -0.0084364300868035 -0.0119129369865919 0.4487469 -0.8638234 -0.2289878 82 82 82
-0.000998186991809424 -0.0289205199381829 0.00641851621756309 0.4617167 -0.8009328 -0.3812143 62 62 62
-0.029777693675159 0.0142157191136359 0.0182126511920428 -0.8855357 -0.01673091 0.4642699 93 93 93
0.0417553902405514 -0.00770782290906913 0.0136866320956683 0.5295174 -0.816929 -0.2285569 133 133 133
-0.0429730891448246 -0.0399566179415703 -0.0118798266064191 0.2285181 -0.8491705 -0.4761186 39 39 39
-0.0388519047957645 0.000637661824512414 0.00258133309969658 -0.8640192 0.1117938 0.49089 97 97 97
0.0299435377854123 -0.0144637113711358 0.0127151955951189 0.4477828 -0.8401397 -0.3060325 94 94 94
0.0500125408905758 -0.00243114291639335 0.0279711832393145 0.5362985 -0.5684797 0.6238708 67 67 67
0.0438969851273312 0.0170196408131599 0.0143048216689562 0.2548133 0.825753 0.5031919 52 52 52
-0.0510390280944095 -0.0115273481509209 -0.017377282203343 -0.830606 0.2872894 0.4770309 89 89 89
-0.0502441405516849 -0.0305807477137566 -0.0104226718555952 -0.8474995 0.2659307 0.4593751 69 69 69
0.0485554457443966 0.016368400464344 0.0140067686427569 0.4292808 0.6860247 0.587442 51 51 51
-0.0176127433043705 -0.0201598888537408 0.021369819818828 0.04124931 -0.5327976 0.8452368 71 71 71
-0.0490607499343143 -0.0375397688052178 -0.0216030280005003 0.2115857 -0.8558576 -0.4719526 94 94 94
0.000701141430736962 -0.0174332743784905 -0.0253364394318128 0.4038262 -0.8758759 -0.2641321 110 110 110
0.0385540247696652 0.0274846667149543 0.00220601755270713 0.3652807 0.7304873 0.5770253 48 48 48
-0.00489573471367222 -0.0216722375056267 -0.0164831082235838 0.3692738 -0.8504994 -0.3745498 56 56 56
0.034315061642529 -0.00819354115934379 -0.00353429716935402 0.3322901 -0.8890922 -0.3147988 63 63 63
-0.0315660714369999 -0.0246417409083367 -0.0351501653801466 0.02712423 -0.8202694 -0.5713339 77 77 77
0.00133032806098599 0.0227158182957649 0.0285672892917132 -0.2714605 0.8369463 0.4752158 31 31 31
-0.0386605738860355 0.016946088681507 0.000469197808597027 -0.9197995 0.2303037 0.3176933 65 65 65
0.0215980530518307 -0.0174884682795525 0.0209724058497881 0.05168467 -0.5626684 0.8250654 158 158 158
-0.0556753157836185 -0.0169364696642876 -0.0236253837954069 -0.948073 0.1604075 0.2746397 45 45 45
-0.034955072329639 -0.031474936594677 0.0148788591016268 -0.174459 -0.4517001 0.8749464 123 123 123
0.0309459687012448 -0.00853358565778739 -0.00545508664956337 0.4168176 -0.8254122 -0.3807333 64 64 64
0.0149083853501095 -0.0148501282832146 -0.013734395326283 0.359673 -0.9219836 -0.1434626 108 108 108
-0.00686376087486607 -0.0255848055979729 -0.00979817909112221 0.3111733 -0.86272 -0.3986044 63 63 63
-0.0533351182204471 -0.031993735422802 -0.0242877255093122 -0.494543 -0.4783329 -0.7256892 57 57 57
-0.046976613925098 -0.0277842169901849 -0.0291890750538374 -0.1331668 -0.7227785 -0.6781282 49 49 49
0.0397462368744625 -0.00386624394865043 -0.0122772256742979 0.3197936 -0.8984764 -0.300786 75 75 75
0.00733561523139614 0.0105507487156867 0.0385245134223437 0.03709534 -0.5271526 0.8489606 121 121 121
0.0230551481980099 0.0278821104863166 0.0155853529561495 0.3266226 0.7698271 0.5483464 31 31 31
0.0332110644119992 -0.00995980559797294 0.0252555658210253 0.03461608 -0.514158 0.8569967 144 144 144
0.0623542786377682 0.00779105366258614 0.000881334124896466 0.6828415 -0.7144881 -0.1524282 49 49 49
0.0146567345398678 -0.0104278808733941 0.0257324625838732 0.04032404 -0.5400879 0.840642 144 144 144
0.0171887398499264 -0.0133976822993279 -0.0119870553623701 0.5401109 -0.8202989 -0.1881222 107 107 107
0.00435502536475796 0.0277274960377693 0.0207516302455401 -0.2042975 0.9380286 0.2799372 53 53 53
-0.0573974131804691 -0.0234495288035393 -0.0232942054878736 -0.9989245 -0.03121909 -0.03428131 39 39 39
-0.00906400673210483 -0.00707196055860526 0.0289293726075625 0.04203863 -0.5308531 0.8464205 189 189 189
0.0152506352204098 -0.0116819029948235 -0.0239123950611616 0.3275243 -0.8605292 -0.3901502 98 98 98
-0.00361518852531773 -0.0302275305888177 0.0141281982053255 0.1509699 -0.6833143 0.7143456 137 137 137
0.0501671553391232 -0.00463454781980521 0.0240810115922427 0.6062136 -0.718565 0.3408363 81 81 81
-0.0386752366286502 -0.0338483339449883 0.0136866320956683 -0.3974888 -0.360246 0.8439345 120 120 120
-0.013498830721973 0.0171520823338508 0.0442648281444048 -0.3159878 -0.2908972 0.9030673 92 92 92
0.0223928213852658 -0.00969486295194633 -0.0224773238312269 0.4487811 -0.7944844 -0.4091333 44 44 44
-0.0496701478224979 -0.0231404191157342 -0.0129174987684751 -0.743686 0.1284829 0.6560665 76 76 76
0.0465683460968747 -0.000587630858135291 -0.0134694526802564 0.4245523 -0.9053603 -0.008837431 75 75 75
0.0263006211060299 -0.00806109963865287 -0.017288963020947 0.5597318 -0.8285536 0.01411876 158 158 158
0.0100732565659298 -0.0224118715426446 0.00476708012709373 0.4355218 -0.8688167 -0.2355384 88 88 88
0.0442281485337033 -0.00238703547925956 -0.0142642657171751 0.3837237 -0.9135551 -0.1348076 126 126 126
0.0410856724518551 0.0231573695042609 0.00600344437250847 0.2668872 0.7862987 0.5572303 48 48 48
0.0216421604889645 0.0156949871876716 0.0338660230029559 0.3468405 0.7720805 0.5325348 62 62 62
-0.00767760269462925 -0.0302893406054497 0.00102262693533653 0.4239674 -0.8427008 -0.3318237 75 75 75
-0.00252013199150425 -0.0258737093111993 -0.00568912428727394 0.3713308 -0.8773699 -0.3038675 40 40 40
-0.00118296139061314 -0.0248220449587823 -0.00773281854501015 0.3952011 -0.8609005 -0.3204162 69 69 69
0.0574419022339596 0.0173508042195319 -0.00171285373082405 0.6493164 0.636849 0.4157061 49 49 49
-0.0415895461302982 -0.0138897186419488 0.00229432183394188 -0.9066334 0.1795173 0.3818237 56 56 56
0.0223044873017086 -0.014772821058941 0.00074886280188316 0.459015 -0.8522128 -0.251075 72 72 72
0.0365176916855587 -0.0128429418704034 0.0184503098119234 0.4937901 -0.8200907 -0.2891758 110 110 110
-0.0446019648772464 -0.0399860626360894 -0.0121594766985441 0.2081334 -0.8565105 -0.4723032 74 74 74
0.010956358982922 0.0247029179432868 0.0290088405002093 0.3888291 0.7876942 0.4778595 29 29 29
-0.00613205425560337 0.0196248406270026 0.0454349567283129 0.1077 -0.479512 0.8709012 98 98 98
0.0383184672135128 -0.0125135069987298 0.0201187332261538 0.5078282 -0.8390078 -0.1953879 106 106 106
-0.0273271083098636 -0.00136404096097953 0.0278313507426714 -0.8000247 0.001430526 0.5999654 70 70 70
0.046502184941174 -0.000775325884532996 -0.00931876403203255 0.4683656 -0.8759838 -0.1152648 79 79 79
0.00380308635413784 0.0212586039402961 0.0320114840854143 -0.3736753 0.7995462 0.4702049 11 11 11
-0.0158906459075199 0.0325626248219489 0.00136705237517112 0.29 0.907092 0.3050968 47 47 47
-0.0473003863555179 -0.0472571140429497 -0.00293082994332558 -0.05500185 -0.855553 -0.5147852 95 95 95
-0.0211194037657962 -0.0370643621584893 0.000104909120891034 0.3973549 -0.8451374 -0.3575638 75 75 75
0.041953992916943 0.0256301277974128 0.00260341662058586 0.2537315 0.7839861 0.5665564 41 41 41
-0.00133376114189487 0.00723172367601388 0.0375457157481646 0.04713373 -0.5298984 0.8467503 86 86 86
0.0108365536469235 -0.0207591539523125 0.000439768015239178 0.4649052 -0.8494627 -0.2495522 79 79 79
0.0456631899613156 -0.00760482608289725 0.0203247864831423 0.5249978 -0.8325315 -0.1768294 110 110 110
-0.0381012438994632 -0.0107546335360528 0.00741644698271507 -0.8655125 0.1695353 0.4713235 53 53 53
-0.0354077100020633 -0.0146624332568169 0.0131126095641589 -0.861901 0.1820887 0.4732551 105 105 105
0.0282037974137082 0.0132310503819465 0.031958495556209 0.5027465 0.7591744 0.4134007 22 22 22
-0.0275036572676883 -0.0264742261073113 0.0175723780978655 0.02804837 -0.5441346 0.838529 151 151 151
0.0394813538330807 0.0294275397160529 -0.00185635191312081 0.3689587 0.7526231 0.5453696 50 50 50
0.017005753590466 -0.0144637113711358 -0.0106875996004606 0.5238823 -0.7966686 -0.3014405 80 80 80
-0.0202179431182132 -0.0380872970721245 0.00348654883990043 0.3813464 -0.8429259 -0.3795403 67 67 67
-0.0302855252486454 0.014657270322132 0.0181022633899187 -0.8858266 -0.01280427 0.4638398 117 117 117
-0.0436648606520877 -0.0187910681864739 -0.00278363627305275 -0.9411324 0.1497902 0.3030393 103 103 103
-0.0169945239287601 0.0310613030293464 0.00913854437956566 0.3382143 0.8800352 0.3333903 28 28 28
0.0271672726410641 -0.0136468297144891 0.00654435652384514 0.3946224 -0.8920304 -0.220352 100 100 100
-0.040741729663013 -0.037848878493023 -0.0137785474669004 0.2870077 -0.8217188 -0.4923461 59 59 59
0.038636875225903 -0.00826530515165336 0.00432551401743644 0.4887342 -0.8562701 -0.1671538 93 93 93
0.0228509426850094 -0.0210126525065423 0.0181519289601778 0.3315864 -0.8842917 0.3287531 107 107 107
-0.0191802262526737 -0.0305366402766228 -0.0111291657101179 0.4219951 -0.8076538 -0.4118439 52 52 52
-0.0139477729064212 0.030111920247364 0.0079463173736071 0.2674111 0.9127481 0.30884 16 16 16
-0.0348778247100101 -0.0270924454829217 -0.031632373751309 0.007408455 -0.7973729 -0.6034414 88 88 88
-0.0243685721617923 0.0098663681843757 0.0295828779328799 -0.8565422 0.1644448 0.4891763 76 76 76
-0.00915997021019321 0.0164771193364143 0.0436750401843523 0.04833281 -0.5329758 0.8447489 108 108 108
0.0595833779114499 0.00627864540605538 -0.00361155969014412 0.667639 -0.7196302 -0.1907631 51 51 51
-0.0322726248961673 -0.0107988005778313 0.0192061712134814 -0.9088491 0.1800458 0.376267 72 72 72
0.0351761103409542 0.0105286949971198 0.0291633953441119 0.3371212 0.815897 0.469746 34 34 34
0.0364787102478756 0.0283016079762458 0.00227225321421379 0.4013671 0.7341949 0.5475969 41 41 41
0.0290990591782345 -0.00513022004575736 0.0284016926873659 0.06655659 -0.5377937 0.8404452 160 160 160
-0.0030853032332645 -0.00663338958234794 0.0288469393838381 0.04701457 -0.5319219 0.8454873 168 168 168
0.0166745901840939 -0.0139118319651604 -0.0155227134834791 0.4032472 -0.9147859 -0.02363038 140 140 140
-0.0220283745986209 -0.0179520732066155 0.0227386702884173 0.037909 -0.5216084 0.8523424 239 239 239
0.0207458258408322 -0.0132494455477715 -0.00764524442067391 0.5306879 -0.792628 -0.3001854 79 79 79
-0.0272167205077396 -0.0398535615107537 7.91599143480648E-05 0.3849637 -0.8543118 -0.3492195 72 72 72
-0.0289056777220951 -0.0194754487177849 0.022043203293178 -0.01304319 -0.4715723 0.8817309 117 117 117
-0.0368501424056278 -0.0426133161684991 -0.00323992472996956 0.3325053 -0.823447 -0.4597556 60 60 60
-0.00803081981956821 0.0098663681843757 0.039385562120769 0.04731541 -0.5180697 0.8540287 73 73 73
0.0309149742859616 -0.0120020395419121 0.00459045666346306 0.3226675 -0.9258175 -0.1968444 82 82 82
-0.0187166213256107 0.00893903912096017 0.0363387812961077 -0.5936592 -0.1513295 0.7903596 44 44 44
0.0247994185227169 -0.00682472049207694 0.0275958527911639 0.03000855 -0.5233052 0.8516168 204 204 204
0.0113007546204342 -0.0253173595568658 0.0163890023816561 0.1970593 -0.8860633 0.4195945 143 143 143
-0.0365999221068607 -0.016097534289074 0.0113463600266909 -0.8517674 0.1915709 0.4876402 47 47 47
-0.0471797465544925 -0.0449624544283868 -0.00559639436116463 0.08419987 -0.7960448 -0.5993522 68 68 68
-0.044768738673328 -0.0357470399043084 -0.0223669360291029 0.3056698 -0.881744 -0.3592957 84 84 84
-0.00979702465355259 0.0230690354207038 0.0295387257922625 0.2584174 0.9408041 0.2193353 28 28 28
0.0387748003739132 0.02334870041399 0.00779913860449546 0.3766077 0.7734846 0.5097923 44 44 44
0.0434112072724118 0.0190949553349494 0.0115671356309389 0.2218684 0.8202605 0.5272069 32 32 32
-0.0283647059661136 -0.0318171268603326 0.0143931408513522 0.03763204 -0.5242745 0.8507174 142 142 142
-0.0452721595031009 -0.0170071607729912 -0.00787043076863533 -0.8932455 0.09948528 0.4384236 96 96 96
0.00186021335303921 0.0271314495900153 0.0230035980332827 -0.2557384 0.8896098 0.3784075 34 34 34
-0.0154785393935428 -0.0269304996630669 0.0165715118039584 0.0426295 -0.5356963 0.843334 221 221 221
-0.03108041279137 -0.038793850531292 0.00980088609347099 0.03691536 -0.519472 0.8536897 116 116 116
0.012914013935925 0.0232309216359138 0.0287439127553439 0.4366337 0.7440439 0.5057169 37 37 37
0.00305242545783657 -0.013536441912365 0.0242399771798586 0.03794922 -0.5289946 0.8477762 166 166 166
-0.0521429061156498 -0.0323470121523858 -0.0242877255093122 -0.2979936 -0.5144589 -0.804072 44 44 44
0.0407617808121457 0.00127793491868966 0.031849568067882 0.1037506 -0.4717364 0.8756144 124 124 124
0.00298614509284634 -0.0299184209010125 0.0138191034186816 0.4078414 -0.8980997 0.1645668 184 184 184
-0.0297409772139774 -0.0424293762347222 0.00266229110846275 0.3796364 -0.8585423 -0.3446468 105 105 105
-0.0471605538588749 -0.0397063380381585 -0.0133590648781324 0.2337767 -0.8805574 -0.4122707 81 81 81
0.0186269999283566 0.0246019476750373 0.0225683500159716 0.3185263 0.8101963 0.49206 31 31 31
-0.0150957583647953 -0.0257677322527886 -0.0158980439316297 0.299223 -0.8750857 -0.3803822 73 73 73
-0.0334426640731083 0.0109261387684821 0.0121190895427203 -0.8883466 0.03365942 0.4579383 118 118 118
-0.0386310099822269 -0.00521301089735038 0.00567228096613639 -0.8883892 0.1280366 0.4408755 109 109 109
0.0182799816864743 -0.0222478395602227 0.0146454622138476 0.4676872 -0.8493275 -0.2447682 81 81 81
0.0307604790467038 0.0304873103001594 0.00461252528319114 0.5252027 0.7175273 0.4575114 38 38 38
-0.0391167878371463 0.011191021809864 0.00110210972914451 -0.8900511 0.1050794 0.4435847 86 86 86
0.0331228495377316 -0.00374482928724296 0.0289315779794192 0.03555792 -0.5439839 0.8383419 150 150 150
0.0397021294373288 -0.0100334173342705 0.0160121967185473 0.5231485 -0.8163896 -0.2445888 84 84 84
0.000182223393322412 0.00408185661821359 0.0353231777537798 0.04118165 -0.5193434 0.8535728 123 123 123
0.0361253739136471 0.0205079430439948 0.0139074226010775 0.4502481 0.7485308 0.4868042 27 27 27
0.0581373692291989 0.00551689804582589 -0.00552132231107003 0.6465124 -0.7311278 -0.2178847 65 65 65
0.0490338326233639 -0.00177614747495658 0.0287733425487017 0.3984759 -0.5143049 0.7594125 84 84 84
0.0311289549607052 -0.0132714992663384 0.0102152724851107 0.3485199 -0.9124098 -0.2145742 100 100 100
0.0424221277970089 -0.00058983622999198 -0.0197308014046217 0.3400832 -0.8699814 -0.3570375 89 89 89
0.0550353050965084 0.0211924427845954 -0.00155829888692147 0.7187444 0.6092597 0.3349764 48 48 48
-0.0527168988448368 -0.0402068382403374 -0.0177525977503324 -0.4240102 -0.8734823 -0.2392573 141 141 141
0.0568568230408444 0.00521887482194894 -0.00756355625500924 0.6330107 -0.7497768 -0.1926968 47 47 47
-0.0291816472274051 -0.0325383430621148 -0.0169725070606733 0.2637585 -0.8350958 -0.4827489 72 72 72
-0.00856070511162144 -0.0237365251681328 -0.0158097247492338 0.3971789 -0.8562011 -0.3304066 38 38 38
-0.0251192330580936 0.0302885884144782 0.0159606834043002 0.04771709 0.8144236 0.5783055 68 68 68
-0.0167547940474735 -0.0377214437624932 0.00631253915915245 0.4091777 -0.8883198 -0.2084744 100 100 100
-0.0461817263823734 -0.0295651441714287 -0.00198882323613411 -0.9085658 0.2376471 0.343558 30 30 30
0.0487099409836544 -0.00011293946714408 -0.00613951188435799 0.4282657 -0.8943174 -0.1295567 83 83 83
0.064440679623486 0.010948192487049 -0.00356740754952675 0.8954964 -0.4321184 -0.1065825 46 46 46
0.0587058783310666 0.0032980555394172 0.0127593477357363 0.6642798 -0.7444759 -0.06699252 48 48 48
0.0122810126084103 -0.0126091724535943 0.0244460453380083 0.04949401 -0.5308359 0.8460281 135 135 135
-0.026784586833118 -0.0285748129984856 -0.0237073848854566 0.2866563 -0.9001506 -0.3279589 94 94 94
0.0512047529953732 0.021280657658863 0.00576058524737114 0.49782 0.718214 0.4861521 52 52 52
-0.0236621379119144 -0.033097673048687 0.0134217043508028 0.03727305 -0.5164795 0.8554879 200 200 200
-0.0332979439955936 -0.0447500234744073 0.00413908558974022 0.3680925 -0.9132003 -0.1748518 113 113 113
-0.00445418350517612 0.0276171082356452 0.0155853529561495 -0.1549798 0.9343901 0.3207748 33 33 33
0.00923426158607143 0.0356093758442878 0.00799048441538566 -0.3759222 0.8783767 0.2951897 48 48 48
-0.0373652457457767 0.000461053262042932 0.00615063804278129 -0.8810962 0.09199674 0.463903 106 106 106
-0.0373373507720218 -0.0350847130915642 -0.0175318221460844 0.2640634 -0.8777684 -0.3997413 70 70 70
-0.0274065016967044 -0.041902411570263 0.00434317189345115 0.4075177 -0.8822841 -0.2355931 80 80 80
0.0419982195633664 -0.00240908919782645 0.029604946552608 0.05029402 -0.5372635 0.8419136 139 139 139
0.0124724627274289 -0.0149862652918816 -0.0178261945854688 0.2413996 -0.9420964 -0.2327676 77 77 77
0.00496001250922817 0.00271297634630197 0.0344047297824358 0.02674532 -0.5256367 0.8502886 91 91 91
0.0576736450928463 0.0177261942723274 -0.00296025973668343 0.6173185 0.6498892 0.4433529 49 49 49
-0.0528346776229129 -0.0225148683688164 -0.0311172257076765 -0.4766032 -0.5387712 -0.6946762 64 64 64
0.055774998738171 -0.00011293946714408 0.0165126373160815 0.6647647 -0.7394217 -0.1065059 57 57 57
-0.0442830800276981 -0.0200274473330498 -0.00282780331483132 -0.9452377 0.156305 0.2865213 83 83 83
0.0229938746231808 -0.0192350631854058 0.0143636961568331 0.4549951 -0.8043905 -0.3820149 94 94 94
0.0529754877823605 0.00278366745500558 -0.0198191056858564 0.3705527 -0.8967256 -0.2420206 100 100 100
0.0599256277817501 0.005494844327259 0.00229432183394188 0.6745837 -0.7272916 -0.1264272 45 45 45
0.0351981640595211 0.00300003231554025 0.0331374456275439 0.05056909 -0.5235101 0.8505175 127 127 127
-0.0425057887297855 -0.0379548555514336 -0.0144298474203611 0.3090935 -0.8365224 -0.4524284 67 67 67
0.00455374725043911 0.0225391501286506 0.0321439554084277 -0.3684235 0.7806091 0.5048896 29 29 29
0.016805124356152 -0.0168321019312859 0.000114609776828228 0.4529997 -0.8653946 -0.2142041 89 89 89
-0.00555806152641636 -0.0320820695063592 0.0130242903817629 0.2338638 -0.8306464 0.5053061 170 170 170
0.01283307082832 0.00500906647233956 0.0355660368789172 0.04224725 -0.5255365 0.8497214 213 213 213
0.0270387650269284 -0.010921764960003 -0.00556548935284859 0.3622602 -0.8677793 -0.3401862 62 62 62
0.0151953221100583 0.023540031323719 0.0261681278336977 0.4111968 0.7644289 0.4965538 24 24 24
-0.01968805782616 -0.0329651719233514 0.0131567617047762 0.0356102 -0.5238154 0.8510872 222 222 222
0.0306058645981564 0.0263807886937141 0.0114788313497042 0.4950075 0.7037885 0.509558 27 27 27
0.0157252074021115 -0.024045634855938 0.0171308268893694 0.3136773 -0.8855858 0.3425555 113 113 113
0.0502553702133908 -0.00011293946714408 0.0295828779328799 0.5002725 -0.3026895 0.8112377 88 88 88
-0.0292147874099002 -0.0429914480349541 0.0044193466294741 0.3886415 -0.9046971 -0.174588 110 110 110
0.0183451891678585 -0.0203218346735955 0.0105073948491549 0.4406047 -0.8166466 -0.3727677 79 79 79
0.0255499602097287 -0.0119467860362054 -0.000134254516270221 0.3636609 -0.9024566 -0.2309176 63 63 63
0.0292371035355343 0.0349029415944099 -0.000310892881062091 0.5257433 0.7125921 0.4645498 18 18 18
0.0368158341187252 -0.0135324484011651 0.0200451363910174 0.4749815 -0.872532 -0.11437 109 109 109
-0.0366660832625614 -0.0169806367060662 0.0116996069539523 -0.8443245 0.1847578 0.5029718 77 77 77
-0.038498568461536 0.0208759421208381 -0.00381394726147896 -0.9210779 0.2426652 0.3045146 44 44 44
0.0529047966736569 0.0235548132756233 -0.00547717017045266 0.5585314 0.7686164 0.3118837 23 23 23
0.0126784563797726 -0.016671527018261 0.0218996902097201 0.05325266 -0.5298806 0.8463987 85 85 85
-0.0112762927275882 -0.0243546849390984 -0.0232279847275282 0.2707784 -0.9526653 -0.1382315 95 95 95
-0.0431129216414676 -0.0274014955660821 -0.0298734853874708 -0.1188652 -0.7176008 -0.6862363 69 69 69
-0.0371076344710575 -0.0163624173304558 0.0103086878646349 -0.8381045 0.1821528 0.5141996 73 73 73
-0.00311474792778355 0.0126923436024665 0.04109293717036 0.04998278 -0.5250175 0.8496225 124 124 124
-0.01748018257439 0.0340198391774177 0.000969638406131207 0.2113316 0.9520139 0.2213785 56 56 56
0.00291438110053677 -0.0229748374125481 -0.00592424970975167 0.4456961 -0.8529336 -0.2717705 73 73 73
-0.0343037127715335 -0.0133598333498955 0.0146580685962176 -0.8754358 0.2112514 0.4347241 53 53 53
0.0429530859726681 -0.00933336078138358 0.0202162315238451 0.5160156 -0.8290671 -0.21535 102 102 102
0.0234379292267575 -0.0158914810320855 0.00810823339113945 0.4459932 -0.8371156 -0.316745 112 112 112
-0.0380129098159061 -0.0236924177309991 -0.0346202800880933 -0.1257474 -0.7281421 -0.6737928 90 90 90
-0.0308043240767704 -0.0351877099177361 -0.0132523427616621 0.280709 -0.8422635 -0.4602116 52 52 52
0.0509266377228512 -0.00332163630933768 0.0143725325454211 0.5506252 -0.8258293 -0.1217282 63 63 63
0.0523308039444699 0.00178576649217599 -0.00715510052552468 0.477634 -0.8613713 -0.1729316 60 60 60
0.00108749873817104 0.0308627003529548 0.00450215238222831 -0.1271288 0.9389998 0.3195586 17 17 17
0.016431760861279 0.0352120512822151 0.00909439223894828 0.3350053 0.7503121 0.569915 27 27 27
0.0309370280045285 -0.00342469274015433 0.0285231222499346 0.05690479 -0.5497332 0.8333998 145 145 145
-0.0415895461302982 -0.0466094499728203 0.00578266876826042 0.1861585 -0.7604614 0.6221282 137 137 137
-0.0237062453490482 -0.0284612661501885 -0.0209318647991682 0.380744 -0.8681511 -0.3183515 97 97 97
-0.0345539330703006 0.00658405960588448 0.0102277298558688 -0.8837466 0.06870817 0.4628944 97 97 97
0.0239382506150021 -0.0125208383700371 -0.00432911020627266 0.4427929 -0.8648872 -0.2364413 92 92 92
0.0422189951676144 -0.00415324031324393 -0.00481482845654732 0.5385262 -0.8346188 -0.1157621 50 50 50
0.0477238417404904 -0.00180559216947562 0.00425191718230003 0.4224744 -0.8575208 -0.2935532 54 54 54
-0.0276362179976688 0.0170344227650642 0.0223559786666369 -0.8394256 0.079807 0.5375831 96 96 96
-0.0231322526198612 -0.0287350302836419 -0.0196778128754163 0.4099647 -0.8401722 -0.3550204 67 67 67
-0.0331336735945926 -0.0451081877848626 0.00615799921641105 0.3306103 -0.8794175 0.3425225 142 142 142
-0.00255541794121128 0.0306197518208503 0.0080787886966204 -0.08295194 0.9591358 0.2705135 21 21 21
-0.00928931228935581 -0.0286158209940911 -0.00555076700558907 0.3544106 -0.8618696 -0.3627313 57 57 57
-0.0152779101592289 -0.0324849969050408 -0.00334663194527871 0.4375682 -0.8051148 -0.400405 51 51 51
0.0226872683304562 0.0290007704594611 0.0140251715768313 0.2884597 0.8017176 0.5234882 36 36 36
-0.0218075989943729 0.0258950108387946 0.0289646883595919 -0.4981371 0.7010643 0.5102628 144 144 144
-0.0463583945494876 -0.0481549388072015 0.00503200787195915 -0.5849354 -0.4581466 0.6692923 99 99 99
0.0414242268341793 0.0273522251942634 0.000704710661265789 0.3296763 0.7712176 0.5445521 38 38 38
-0.0150516509276615 0.00991047562150948 0.0392089535582995 -0.3238178 -0.4598086 0.8268725 60 60 60
-0.0307050227385746 -0.006581891169262 0.0198905815471148 -0.9382755 0.1198167 0.3244736 74 74 74
0.040806007458569 -0.00957714377851493 0.0162123640168642 0.5187455 -0.8160122 -0.2550044 104 104 104
-0.0125347851973758 -0.0292781478068352 0.0149230112422442 0.03550853 -0.5301166 0.8471809 220 220 220
0.0130868674057736 -0.0234715825221062 0.0121477891791796 0.4262515 -0.8117429 -0.3992281 69 69 69
-0.0141243218642459 -0.0358795410296441 0.00401641923079246 0.4600767 -0.8113282 -0.3606606 90 90 90
0.0634029627579464 0.008166324506092 0.00412682193407768 0.6733508 -0.7288226 -0.1241626 90 90 90
0.020140838696362 -0.00759010373563773 -0.0278496692787672 0.4220161 -0.7777489 -0.4658423 69 69 69
-0.0262673377257572 0.0260275715687751 0.0218113859284853 -0.7465112 0.4180904 0.5176113 107 107 107
0.0407471180695309 -0.00112854300947196 -0.0190184215914274 0.270643 -0.8990737 -0.3441205 94 94 94
-0.020534324572681 -0.0372556930682183 0.0020220329154467 0.382931 -0.8480777 -0.3662349 78 78 78
0.0072913885849728 -0.0135806089541436 -0.025774310053494 0.3791246 -0.8833873 -0.2754841 93 93 93
0.0529980183380856 -0.00111382066221244 0.00848600762972587 0.5539792 -0.8172954 -0.1585408 59 59 59
0.00826282508552212 -0.0241339689394952 0.0175723780978655 0.1015505 -0.603942 0.7905325 188 188 188
0.00460667617499966 0.00485898197679513 0.0358353902686571 0.02611736 -0.5228325 0.8520352 104 104 104
0.0203175068634762 -0.00435196219892509 0.0293621023286318 0.0472924 -0.53083 0.8461578 142 142 142
0.0259253502625241 0.0241729134419441 0.0176606972802615 0.4630267 0.7037789 0.5387964 52 52 52
-0.0228820323210941 -0.0267195588252068 -0.0256516585957075 0.2884322 -0.9059439 -0.3099557 66 66 66
-0.0321400641661869 0.0306639784672736 0.00887360173353904 -0.7904842 0.5083335 0.3416602 96 96 96
-0.0386863230925785 -0.0339697486063958 -0.0216714690338636 0.2853709 -0.9015716 -0.3251648 102 102 102
0.0390132189530148 -0.0057649499079705 -0.00809122127404457 0.3884505 -0.9013897 -0.1913189 106 106 106
0.0497697115677609 0.0109702462056159 0.0181905676711535 0.5456735 0.6014104 0.5835632 34 34 34
0.0132020235794796 -0.0198570972582818 0.00207354622969383 0.4524094 -0.8519244 -0.2637244 61 61 61
0.0386844397324337 -0.00882016478986747 0.0082301844943499 0.5280186 -0.8281284 -0.1881482 117 117 117
-0.0185399531584964 0.0265574568608283 0.0255646606076693 -0.01242552 0.9480314 0.3179339 31 31 31
-0.0372328042250858 -0.0250244027277947 -0.0335531781326795 -0.1178364 -0.7256262 -0.6779242 64 64 64
0.00153632171332974 -0.0238322502276421 -0.00549189251771218 0.4433678 -0.8554282 -0.2677079 82 82 82
-0.0452324628096805 -0.0497887021204949 0.0036852409232592 0.3245604 -0.9271921 -0.187017 154 154 154
-0.0310361861449466 -0.0192105656764031 0.0222529520381426 -0.3822434 -0.3148089 0.8687838 97 97 97
-0.0319192885619388 -0.0307574158808709 0.0149230112422442 0.04802367 -0.526583 0.8487663 122 122 122
-0.0289344071608768 -0.0255116110941888 -0.0340639154325987 0.179939 -0.8697605 -0.4594983 85 85 85
0.0586672545212521 0.022804152379322 -0.00982656580319649 0.5464386 0.7248671 0.4194908 43 43 43
-0.0242802380782352 -0.0321041232249261 -0.0133811334978605 0.4511334 -0.809303 -0.3761747 111 111 111
-0.0049766778212772 0.00493563354997628 0.0362357546676134 0.04802143 -0.5312656 0.8458433 109 109 109
0.0528606892365231 -0.000157106508922644 0.00330992537626976 0.4123929 -0.8858786 -0.2124882 127 127 127
-0.0345687150222049 -0.0084584838053704 0.0134658564914202 -0.8328369 0.1537389 0.5317397 112 112 112
-0.0322726248961673 -0.0279313808581353 -0.0303812871586347 0.1809943 -0.8930957 -0.4118509 110 110 110
-0.0454973458510624 0.00145448387651437 -0.010003174365666 -0.9088106 0.05572021 0.4134713 52 52 52
0.0565477133530392 0.0217222088673591 -0.0066914657961393 0.5211844 0.7141057 0.4673541 50 50 50
-0.00144045345604282 -0.0265183931490899 0.0163912077535128 0.0511482 -0.5551277 0.830191 147 147 147
0.00337250240028042 -0.016561139216137 -0.0235812316547895 0.4089753 -0.8802154 -0.240749 106 106 106
0.0209577799576535 -0.0073104387423516 0.0268231083739733 0.04009508 -0.5319988 0.8457953 235 235 235
-0.0235296963912235 0.0253099316456794 0.0260614206183886 -0.6428263 0.5457542 0.537519 194 194 194
-0.0520545720320926 -0.0383522397181512 -0.00927461189141518 -0.9570599 -0.2079634 0.2019596 41 41 41
0.0349331618088498 0.0271314495900153 0.00485538440832847 0.4744068 0.7233564 0.5016908 38 38 38
0.0270734549301876 -0.00386624394865043 0.0287439127553439 0.04601967 -0.5193098 0.8533461 248 248 248
-0.00729482166588169 0.0175936335423469 0.044228022276256 0.03895484 -0.5352877 0.843771 114 114 114
0.0342046738404049 -0.000355828394603797 0.0313932945121264 0.0473332 -0.5340893 0.844102 112 112 112
-0.0331557273131595 -0.0427237039706231 0.00781386095175499 0.1161316 -0.681554 0.7224941 159 159 159
0.0250311613816037 -0.00986044465513236 -0.0197175542723203 0.5211934 -0.8427249 -0.1348038 130 130 130
0.0451333046692624 -0.00154804049940116 -0.0136791865240598 0.3962749 -0.9151305 -0.07417812 81 81 81
0.0369349241989865 -0.00917970000715262 0.0256235350955462 0.05874615 -0.5290762 0.8465384 159 159 159
-0.0291595935088382 -0.0346725469729424 -0.0133737723242307 0.307614 -0.84317 -0.4409511 74 74 74
0.0144447804230465 0.0081883782246589 0.0372219135154223 0.05593051 -0.5269767 0.8480374 133 133 133
0.0187499047058834 0.0107494706013679 0.0386238743651842 0.1523578 -0.329127 0.9319133 109 109 109
-0.0269120215636478 -0.0192237979075432 0.0221204807151293 0.02536223 -0.5060178 0.8621501 196 196 196
-0.0531584500533329 -0.025282014002514 -0.0165603856455351 -0.7242961 0.08577531 0.6841328 79 79 79
-0.0366882561904178 -0.0292560940882683 0.0162035425294375 -0.4627902 -0.3234128 0.8253662 125 125 125
-0.0209686040145145 -0.0296755915781975 0.0150333990443682 0.02662513 -0.5351218 0.8443552 213 213 213
-0.0121814488631473 -0.0240898018977166 -0.020931849898007 0.2854298 -0.9504495 -0.1231897 99 99 99
0.0490631581085934 -0.00360863267393119 0.0267863174069857 0.44839 -0.6403915 0.6235744 65 65 65
0.0145551682251706 -0.0232949739596368 0.0176606972802615 0.1608659 -0.7727299 0.614012 158 158 158
0.0385393620270504 0.0304284209111213 -0.00167972844949013 0.3697148 0.7447724 0.5555403 64 64 64
-0.0020697592955814 -0.0282404905459405 0.00304498273024315 0.4529276 -0.8490354 -0.272021 64 64 64
0.0328137398499264 -0.0150709038874627 0.0219990511525607 0.2369514 -0.7721899 0.5895565 156 156 156
-0.0306387423735843 -0.0136689430377007 0.0232685406793093 -0.6127527 -0.2567174 0.7474158 79 79 79
-0.0346570491057621 0.0167694205143928 0.00819653767237419 -0.9021225 0.08062655 0.4238801 84 84 84
0.0244792223709835 0.000692855725574426 0.0323536743510699 0.02146369 -0.5327716 0.8459868 235 235 235
-0.0238386868697391 0.00783516109971993 0.0304659952510332 -0.8499971 0.1488119 0.5053315 34 34 34
-0.0416925429564701 0.00499440372972482 -0.00343127054085976 -0.9100114 0.0678076 0.4090006 98 98 98
0.028729271962048 -0.0136909967562676 0.023025681554172 0.07760162 -0.568518 0.8190026 208 208 208
0.0481359482544674 -0.00205581246824271 0.00556189316401237 0.3745378 -0.8649112 -0.3341408 72 72 72
0.00420053012550015 -0.0262534505030633 0.00657748180517906 0.4887211 -0.8067371 -0.3321548 72 72 72
0.00716633804023403 -0.0272543316981316 0.0122846712459063 0.4839959 -0.8017108 -0.3507247 95 95 95
-0.0274153231841312 0.0340418928959846 0.0116996069539523 -0.1809787 0.9500331 0.25433 71 71 71
0.0212006092804684 0.0224508160450935 0.0246373762477373 0.3880541 0.752087 0.5327093 24 24 24
0.0168953657883419 -0.0126753932139397 -0.0212998191725279 0.3086951 -0.8620567 -0.4019522 119 119 119
-0.00864903919517857 0.0200663918354987 0.0458765377391314 -0.03545992 -0.4380721 0.8982401 94 94 94
0.0542610407608761 -0.000434685339641638 0.010633548079822 0.6240103 -0.7762921 -0.08934021 44 44 44
-0.0308595179778324 -0.0428738480708123 0.00253277021536583 0.383325 -0.8591375 -0.339035 94 94 94
-0.0231675385695682 -0.0252467280528069 -0.0295776377331281 0.2698073 -0.9045872 -0.3300394 76 76 76
-0.0464467286330448 -0.0345989948412896 0.00163198012003654 -0.9028916 0.1928051 0.3842042 45 45 45
-0.0245011328917728 -0.0169953590533257 0.0235629131186938 0.008733024 -0.5170675 0.8559001 205 205 205
-0.0506195306044803 -0.0377009993693352 -0.0215610812317396 0.05660716 -0.8383753 -0.5421461 72 72 72
-0.0412068843108402 -0.0169659143588067 0.00395754474291557 -0.9006892 0.1523537 0.406875 98 98 98
-0.00480740063011509 0.0311055296757697 0.00781386095175499 -0.1867579 0.9396881 0.2865443 22 22 22
0.0427929878968014 0.000461053262042932 -0.0219474385391737 0.3183847 -0.8631889 -0.3918367 46 46 46
-0.0332661151152835 -0.0259222870966912 -0.0338917027126814 -0.01502653 -0.8227519 -0.5682019 88 88 88
0.0208429814118161 0.00680185497789376 0.0362195720065569 0.05297395 -0.5548229 0.8302802 209 209 209
-0.012508201525806 -0.0335745698115349 0.00208238261828178 0.477497 -0.7901096 -0.3843482 128 128 128
-0.0363569735747562 -0.0015038734576226 0.00796840089449638 -0.8861414 0.1057041 0.4511985 91 91 91
0.0125460148590817 0.0200663918354987 0.0340868284095263 0.4745605 0.7551724 0.4522246 17 17 17
-0.0256933449965702 0.0306639784672736 0.0153204103101229 -0.05915692 0.7875941 0.6133482 70 70 70
0.0129943609970822 -0.0187978631159783 -0.00177824002614266 0.454611 -0.8570217 -0.2425752 75 75 75
0.0213508129853024 -0.0159562116763116 0.00424603122362846 0.4178301 -0.8674042 -0.2702369 97 97 97
0.00534851558387417 0.0212144965031623 0.0347271015037035 -0.1374131 0.8627729 0.4865598 14 14 14
0.0141356707352414 -0.00130515157194144 0.0312166561473345 0.05005682 -0.5237581 0.8503951 104 104 104
0.0410949707764401 -0.0096828228137017 0.0181945909846758 0.5145193 -0.8146614 -0.2675753 98 98 98
0.0128204346436276 -0.0250170713564873 0.0144467552293276 0.4169724 -0.8977783 -0.1418736 81 81 81
-0.00981907837211948 -0.0343782192370415 0.00684240955004448 0.4469698 -0.7986083 -0.4030418 102 102 102
0.013053846432568 0.00700725258378976 0.0363498379577135 0.06180649 -0.5144764 0.8552743 168 168 168
-0.0289903163176761 -0.0436215883395196 0.0063787748206591 0.3270641 -0.9127224 0.2448813 160 160 160
0.0369711638230099 -0.00751422702283866 -0.00355468195786721 0.3548196 -0.9111541 -0.2095263 105 105 105
-0.00736360542595249 -0.0225394254824639 -0.0218689541231657 0.4552259 -0.8903273 0.00930439 77 77 77
0.0623100519913449 0.0149884337285041 -0.00150310498585945 0.7895968 0.5467337 0.2786023 71 71 71
0.0524852991837277 0.020596277127552 0.00567228096613639 0.6367072 0.6552133 0.4065703 35 35 35
-0.0309213875991092 -0.0305366402766228 -0.0217266629349256 0.3163375 -0.8797761 -0.3548587 66 66 66
-0.00739793770134312 -0.0152290946146966 0.0237984110702013 0.04370208 -0.5334703 0.844689 144 144 144
-0.0384691237670169 -0.00313030539960868 0.00419304269442314 -0.8723521 0.08656127 0.4811538 98 98 98
0.0521982432144894 0.00094677151231759 0.0269776632178759 0.6200804 -0.3290027 0.7122201 59 59 59
-0.0420752047759281 -0.0235157495638848 0.00516447919497245 -0.8900106 0.2167817 0.4011071 40 40 40
0.00707061298072476 -0.0164949184557915 -0.0175759742867017 0.3421211 -0.9039602 -0.2565329 113 113 113
-0.0394405602675663 -0.00912081061811454 0.00447270768770927 -0.8785548 0.1701298 0.4463154 79 79 79
0.0322948218125119 -0.00632797538251884 -0.00936291617264992 0.2743755 -0.8766275 -0.3952749 101 101 101
0.00247843272864956 0.0288094395497321 0.0168658842433428 -0.1651904 0.9584714 0.2324754 21 21 21
-0.0530260085326419 -0.0132714992663384 -0.0208876977573896 -0.8473179 0.2651355 0.460169 46 46 46
0.0246999979752316 -0.00777410327405936 0.0270549406398272 0.02809988 -0.5203416 0.8534958 215 215 215
-0.0433116435271488 0.00991047562150948 -0.0108200709234739 -0.9062651 0.2654654 0.3289555 64 64 64
-0.0456519602996097 0.00280131042985909 -0.0138226996075178 -0.9136533 0.09696143 0.3947608 58 58 58
-0.0273535727721439 -0.0304571276804925 -0.0195895085941816 0.2916197 -0.8526202 -0.4335858 53 53 53
0.0249391318100705 0.0172109717228889 0.0280521263469195 0.4771934 0.7460873 0.4643708 19 19 19
0.0327180147904171 -0.0146072393557549 0.0166708578456377 0.4976219 -0.7872536 -0.3641486 101 101 101
-0.0555871009093509 -0.0313314086100579 -0.019253919542935 -0.9884954 -0.06356861 0.137244 56 56 56
-0.0101944684249149 -0.0150157099864007 0.0241075058568453 0.05118853 -0.5332018 0.8444381 231 231 231
-0.0262673377257572 0.0194040650227546 0.0234010120023226 -0.8401095 0.1278384 0.527137 106 106 106
-0.00314598076164585 -0.0326505786082268 0.0122901995767092 0.3132351 -0.8975351 0.3103456 155 155 155
-0.019467282221912 -0.0302275305888177 -0.0128071109663511 0.4216587 -0.8104993 -0.4065647 34 34 34
0.0191363812226071 0.0282243603566169 0.0167554964412188 0.2774829 0.7852253 0.5535563 33 33 33
0.0411151171463742 0.00832081974534982 0.0296270300734972 0.396916 0.6360413 0.661747 45 45 45
0.0206045628327145 0.00908626259355538 0.0377149929393267 0.03881952 -0.525648 0.849816 138 138 138
-0.0344583272200809 0.00231565178422921 0.0113905121673083 -0.852057 0.1047507 0.5128608 106 106 106
-0.0285413741332279 -0.0393016225001336 0.00966841477045768 0.06076201 -0.5681806 0.8206575 139 139 139
-0.0158464192610965 -0.022367704500866 0.0196035702813601 0.04315929 -0.5234954 0.8509347 208 208 208
-0.00531201355278355 -0.0212890392443658 -0.0237957040678526 0.4848425 -0.8720515 -0.06673747 108 108 108
-0.0392051219207035 0.0142377728322028 0.000395615874621807 -0.9093427 0.173581 0.3781078 39 39 39
0.0188438416260495 -0.0165831929347039 0.00228880840430015 0.4445201 -0.8590928 -0.2536953 65 65 65
-0.00321774475395542 -0.0214747673174859 -0.0158931414495969 0.36154 -0.8392084 -0.4062241 60 60 60
-0.0537324427825199 -0.00912081061811454 -0.0231396655451322 -0.8537251 0.2472879 0.45826 31 31 31
0.00668210990607876 -0.0250303035876275 0.0083658148635363 0.4883782 -0.7928886 -0.3644372 73 73 73
-0.00903539650261265 -0.0152364855906487 0.0238756884921526 0.0502439 -0.5335869 0.8442515 214 214 214
0.0211565018433346 0.00275720299272531 0.0331816126693224 0.01658277 -0.5392652 0.8419727 239 239 239
0.0488899470108761 -0.00520788489789969 0.0166722734559512 0.497599 -0.8520758 -0.1623637 125 125 125
0.0404306174057736 0.0168429726460456 0.0165199984897112 0.3161803 0.8340224 0.4521467 33 33 33
0.0302085400360836 -0.00251947699995048 -0.0250163028847242 0.4467964 -0.7698992 -0.4556624 45 45 45
0.0488571644562497 0.00963081062822335 0.0206044514764284 0.5170311 0.5966803 0.6137193 47 47 47
-0.0521429061156498 -0.0096065288683892 -0.0204019795071149 -0.8144019 0.2933102 0.5007182 21 21 21
0.00478549010932583 -0.0266950017115594 0.00880736607203239 0.4829297 -0.7767698 -0.4042372 77 77 77
