ply
format ascii 1.0
comment File exported by Rhinoceros Version 7.0
element vertex 477
property float x
property float y
property float z
property float nx
property float ny
property float nz
property uchar red
property uchar green
property uchar blue
end_header
-0.0484137359852479 0.00411614730418819 0.0100405908964926 -0.3318502 0.03767605 0.9425794 38 38 38
-0.0139471220977883 0.0399930174595227 -0.010264398611003 0.1905645 0.8785782 -0.4379331 34 34 34
-0.0420129898169597 0.015122681403767 0.0053263269690339 -0.4348818 0.1163775 0.8929356 92 92 92
-0.046264747763362 0.0393874342686047 0.000476256964472205 -0.7719257 0.6231632 -0.1256917 62 62 62
0.00549490850462142 0.0307247336155285 -0.00511746336153898 0.4858806 0.8735856 0.02771926 144 144 144
0.0435977982901983 0.0229055578953137 -0.00226257835664154 0.1724823 0.916336 0.361356 62 62 62
-0.0447695469232516 0.00397619559825557 0.0118418151363295 -0.1947723 0.2000679 0.9602274 150 150 150
0.0178158938129438 0.0301115806347241 -0.00698064304153065 0.599285 0.7952741 0.09163252 99 99 99
-0.0058285438679313 0.0341525967365612 -0.0111095193297768 -0.02447099 -0.1225947 -0.9921551 30 30 30
0.0252188479261157 0.00150474860728878 0.0180691590114286 0.006154142 0.1075444 0.9941812 156 156 156
0.0382581065071517 0.0184760983234753 0.0134103999960502 0.218296 0.8470622 0.4845951 121 121 121
-0.040027562540041 0.0159775908237805 0.00605970861868263 -0.4461834 0.04470824 0.8938241 68 68 68
-0.0464134578167301 0.027577310348164 0.00520639659516853 -0.3524964 -0.159999 0.922034 60 60 60
-0.0530420513209844 0.0103373821026196 0.00529272127544914 -0.199717 0.7421855 0.6397451 35 35 35
-0.0179149531058813 0.0367117817646374 -0.0135205858395297 0.1691599 0.5730448 0.8018757 40 40 40
-0.0252193492840469 0.0446116025692334 -0.00566189555084365 0.1912827 0.9629846 -0.1899255 49 49 49
-0.010089197315615 0.00548526599467891 0.0150407846945064 0.01226937 0.09308194 0.9955829 225 225 225
-0.026863478672581 0.0292182858234753 0.0109406846396392 -0.004164653 0.08823093 0.9960914 91 91 91
0.00805505833828279 0.0253845746761669 0.0137789726876296 0.009165798 0.3842043 0.9232026 97 97 97
-0.0510545958723121 0.0313958819156994 -0.00156429702921565 -0.8457732 0.5252854 -0.09350391 77 77 77
0.0479820708744241 -0.00510850593983037 0.00625439184065515 0.990002 -0.01855689 0.139827 47 47 47
-0.0614794588571297 0.0117881591564526 0.00305838800302285 -0.1739911 0.4820791 0.8586773 58 58 58
-0.0276478546150658 0.0412971074825634 -0.0143776332466995 -0.0165314 0.9499086 -0.3120903 17 17 17
-0.0320630624707314 0.0452775652653088 -0.0102011175812194 0.3952183 0.8464376 -0.3568555 48 48 48
0.0313602685121588 0.0259287650829663 -0.00710380610850189 0.2192877 0.919092 0.3273878 52 52 52
0.00654666862853492 0.0280016954189648 0.00195931943028754 0.2922992 0.9519556 0.09133293 107 107 107
-0.00728891225906136 0.0327060516125073 0.00396005495792526 0.1431311 0.9880004 -0.05804114 57 57 57
-0.0516725832454952 0.0314724738842358 -0.000269147161325117 -0.8695247 0.4935694 0.01777935 78 78 78
0.0145974302759269 0.0241494472271313 0.00261223045339631 0.2612741 0.9552369 0.1387746 84 84 84
-0.00988734077762921 0.0391121800190319 -0.00131463372899038 0.4843943 0.8714958 0.0765322 49 49 49
-0.00901877425102904 0.00804898097575801 0.0146872292058937 -0.01095788 0.08325469 0.9964681 113 113 113
-0.0362540749800611 0.0410971935039868 0.00900676882748083 0.1118523 0.1815945 0.9769915 112 112 112
0.0327407986045933 0.0234613712078442 -0.00129311157704068 0.2094333 0.938766 0.2735984 65 65 65
-0.00696596301821284 0.0387876923328747 -0.00478757812654437 0.4533502 0.884906 -0.1068408 72 72 72
-0.0439988676509107 -0.0045268838161121 0.00107626165785332 -0.5690059 -0.815636 0.1047386 57 57 57
-0.0432187262093366 -0.00576558754383427 0.00561006217065621 -0.5732215 -0.8171386 0.06084116 64 64 64
-0.00979700404035033 0.0298494990116467 0.0125248873057105 0.08212276 0.3595832 0.9294922 85 85 85
-0.0494491469629297 0.033433228278767 -0.00177866476294219 -0.80208 0.551541 -0.2290637 46 46 46
-0.0342379659289636 0.0319487746006359 0.00990871533803697 -0.1319107 0.04867911 0.9900656 72 72 72
0.0164582589867879 0.0273768003231396 -0.000112043247126464 0.1461098 0.9763693 0.1592321 49 49 49
0.0256635431203809 0.0174591834789624 0.0165063914289482 0.02118449 0.1265574 0.9917331 124 124 124
0.0134095164779122 0.0331214959865918 -0.00677325221768157 0.5684268 0.8099406 0.1445234 54 54 54
0.0503468812210948 -0.011323303436626 -0.0023392097658663 0.9958079 -0.004624738 0.09135214 37 37 37
-0.039915490453702 0.021343498969685 0.00758471695321791 -0.3471819 -0.1040186 0.9320112 83 83 83
-0.0469215934309233 -0.0039087836497913 -0.00856340336200898 -0.6587226 -0.7424452 0.1219001 58 58 58
-0.0300309677876034 0.0373257692104687 0.0100826984563065 -0.003841588 0.3382969 0.9410316 119 119 119
-0.00958794985436917 0.0318956668621411 0.00858108864763354 0.3612567 0.8890753 0.2811382 65 65 65
-0.0322243817343373 0.000923662925373492 0.0133425348973507 -0.01757876 0.1341447 0.9908058 106 106 106
-0.0164577978956204 0.0154428179508557 0.0133389876708329 -0.0003051968 0.1015824 0.9948271 162 162 162
-0.0575586431009218 0.0251190955883374 -0.0152730646534139 -0.809953 0.5768517 -0.1059165 85 85 85
-0.026296263295422 0.015190630698811 0.0119670959846613 -0.1260214 0.1083475 0.986093 73 73 73
-0.0435001324156969 0.0130234654194226 0.00501609497828739 -0.3495745 0.3320134 0.8761078 74 74 74
0.0503518180132538 -0.000558943008769575 -0.00115316407899219 0.9910234 0.05830298 0.120305 53 53 53
-0.0240034750598197 0.0440826113468518 -0.00632744559815199 0.3053416 0.8645813 -0.399081 93 93 93
-0.0508835916434374 0.00789901568950313 0.00936037131448333 -0.1694187 0.3479192 0.9220898 59 59 59
0.0215676356548657 0.0236562783962597 0.00406362893792078 0.2282934 0.9734315 0.01769872 27 27 27
-0.0188763882086018 0.0369580085522045 -0.00863296802122021 0.2222881 0.8198368 -0.5276889 51 51 51
-0.046905450492329 0.0334806139713635 0.00685787502370552 -0.3449401 -0.1593768 0.9249948 39 39 39
-0.0184047926833424 0.0100875790363659 0.0140487655126139 -0.007941169 0.09123658 0.9957976 240 240 240
-0.0411330882980636 0.0446076090580334 0.00624003681913263 -0.6897598 0.5652791 0.4524278 133 133 133
-0.00159653461477927 0.0328871901279797 -0.00625610936619478 0.2287586 0.9679124 0.1039955 43 43 43
0.0249206939290312 0.0227753813511242 0.0158681436868787 0.1207374 0.4540018 0.8827825 160 160 160
-0.0261180702493808 0.0289303357845654 0.0115459509480945 -0.002168979 0.09604501 0.9953746 69 69 69
0.0474483781950625 0.0152041013485302 0.0121953519238696 0.9413368 0.3319336 0.06086964 69 69 69
-0.0137974881187652 0.0415348704105725 0.00468775698116339 0.3987828 0.676643 0.6189721 95 95 95
-0.00117900439575713 0.0322953756100048 0.00524360323864256 0.4009373 0.9061646 0.1345913 36 36 36
0.0451774341628319 0.0172866280323376 0.012389451366248 0.7094875 0.6714738 0.2138934 154 154 154
-0.0306022955359879 0.0449897344356884 -0.00318553138899741 -0.1626608 0.6794628 -0.7154521 36 36 36
-0.055273728369569 -0.000170559143413129 0.00279424513054957 -0.4424538 -0.8408722 0.3117188 107 107 107
0.0071101309012358 0.0176836545711865 0.0151732829665779 0.005299217 0.1283643 0.9917129 106 106 106
-0.000231231979429536 0.0356810982471814 -0.00947144233163974 0.2067014 0.8534191 -0.4784875 75 75 75
-0.0297104813047915 0.0474162991291394 0.000637959335206745 0.1879176 0.9791514 -0.07713275 30 30 30
0.00830817896491287 0.0307220514065136 -0.00761324524866178 0.1053987 -0.2586861 0.9601941 71 71 71
-0.0107885379687995 0.0335855181461682 0.00904810204122949 0.3696845 0.8584111 0.3556173 38 38 38
-0.00924618951462741 0.0364300902134289 -0.00332588522545876 0.4376005 0.836922 0.3287359 55 55 55
0.047445849742084 0.00712677791179317 0.00816305092928482 0.9984069 0.01373249 -0.05472761 46 46 46
-0.0345216146146283 0.0230302508121838 0.00981208014232413 -0.2284083 -0.03418258 0.9729652 52 52 52
-0.0362316049992488 0.0394354756122937 0.00913477583911351 0.04410249 0.2517247 0.9667935 84 84 84
0.0351729098286995 0.0247423346287121 -0.00705588337119184 0.163533 0.9241986 0.3451289 59 59 59
-0.0614816751334166 0.00520053460658687 -0.00504128096403347 -0.5655609 -0.8244515 0.02050652 88 88 88
0.0255423667855339 0.0240145023113598 -0.000897338015483223 0.1044459 0.9345698 0.3401035 50 50 50
0.0253139967736895 -0.00057503626285893 0.0184269949475205 -7.187323E-05 0.1201 0.9927618 117 117 117
0.0319646349650129 0.0242837364918103 -0.00863946205239699 0.2397745 0.9121636 0.3323641 92 92 92
-0.0306400941322316 0.00156834676326412 0.0133484875057598 -0.01712572 0.1407824 0.9898924 98 98 98
-0.0521990302659541 0.00736108377040523 0.00880815608558186 -0.3068037 0.1227664 0.943822 41 41 41
0.00782558295449731 0.0313899214512219 0.00735837894216779 0.4107111 0.8873461 0.2096025 35 35 35
-0.0413187563975854 0.0135122235065808 0.00654949359088566 -0.4236556 0.1895199 0.8857754 87 87 87
-0.0301217038967587 0.00510796859325069 0.0131273078325274 -0.08305034 0.1674309 0.9823796 77 77 77
-0.00920980087328682 0.0391778643375744 -0.00442043846208309 0.331764 0.9415944 -0.05772866 56 56 56
0.0123547891665068 0.0268274243122448 -0.00724757576147025 0.2183699 0.5907598 0.7767351 106 106 106
-0.00794185710396711 0.0359739358669628 0.00591373120255365 0.1790416 0.7131958 0.6777137 56 56 56
-0.0498231327169187 0.00645998075069087 0.0100736322135455 -0.2012163 0.1529986 0.9675244 105 105 105
-0.0457688005163956 -0.00434222862659794 0.000337825285689125 -0.5525073 -0.8114847 0.1903371 75 75 75
0.0430336344255242 0.0235873754268994 -0.00416194044557869 0.09791584 0.9537788 0.2841099 41 41 41
0.0432710066544613 0.00691977098048824 0.0194534514099543 0.1643668 0.08180012 0.9830017 100 100 100
0.0480296716074957 -0.00441202566562993 0.00767339268326009 0.9967061 -0.03688068 0.07222712 44 44 44
-0.0208878761647693 0.0447339709049572 0.00322425283827485 0.3444105 0.8101562 0.4743714 77 77 77
-0.0368620452713286 -0.00947442696033818 -0.0025380315881047 -0.4534267 -0.8730448 0.1794353 75 75 75
0.0056367890788509 0.0252152378803601 0.0136851550397398 0.07169443 0.3623244 0.9292905 158 158 158
0.0458319457966838 0.0170727069622387 0.0139581052936996 0.6375025 0.7234723 0.2649121 164 164 164
0.012762357986833 0.0270206625706066 -0.00937353311449571 -0.1040736 -0.3620467 0.9263319 128 128 128
-0.0580716281682934 0.00545588090480464 0.0044663375187301 -0.2888038 -0.1200148 0.9498362 74 74 74
-0.00419613181141454 0.00669762446941036 0.0153667486536655 -0.001661649 0.06565824 0.9978408 182 182 182
-0.0213304104726402 0.0430665309673657 -0.00555713155393181 0.2805388 0.9096476 -0.3063319 49 49 49
-0.0491645799143987 0.029658346915852 -0.0102920689053266 -0.5721923 0.8196081 0.02895761 33 33 33
-0.0515718159367673 0.0302774007564892 -0.0167794928617776 -0.3613409 0.9057374 0.2215232 62 62 62
0.0228638831708248 0.0260241325146069 -0.00357632725300458 0.04954614 0.9844385 0.1686001 64 64 64
-0.055770111707468 0.0113420183903088 0.00381506710005311 -0.05962627 0.5388998 0.8402569 73 73 73
-0.0390465271133253 -0.008302599644054 -0.000823257555141371 -0.4535631 -0.8782036 0.151786 70 70 70
-0.0470684967593311 -0.00281092569767338 0.00927189335633083 -0.6051659 -0.5067466 0.6139887 65 65 65
0.0131398571737384 0.0333788688427319 -0.0092367044894747 0.4223148 0.8889197 -0.1774036 38 38 38
-0.0118527466261238 0.0337605769878735 0.0055710281504032 0.4150337 0.904761 0.0956794 78 78 78
-0.0511868301441238 -0.000391334747661176 -0.00361070513263431 -0.4724679 -0.881342 0.00322475 64 64 64
-0.0183606811989572 -0.000405759071696821 0.0147299575611647 -0.02535415 0.1114976 0.9934412 138 138 138
0.0179127591620623 0.0117988283878674 0.0163622021344777 0.01169715 0.07640999 0.9970078 134 134 134
-0.0400703274076009 0.00368323876918453 0.0119253827890776 -0.01845998 0.3810558 0.9243677 87 87 87
-0.00718766716781905 0.00678130939067501 0.0145340587012937 -0.02376788 0.08293909 0.9962711 113 113 113
-0.0327356737883076 0.00952503039897579 0.0111793841591121 -0.1664419 0.1903122 0.9675114 24 24 24
0.0341932824247344 0.0210892255550732 0.0145291244614268 0.3249808 0.7400774 0.5887893 71 71 71
0.0116541832363757 0.000502079272877154 0.0172025958380829 -0.01662344 0.09121479 0.9956925 121 121 121
-0.0570586106781148 0.0207927520519604 -0.0019196600490308 -0.3564124 0.4442063 0.8219799 117 117 117
-0.0235432131628022 0.0432658488994946 -0.0103836794530627 0.2837699 0.9585714 0.02480866 46 46 46
-0.0468779272600943 0.0332904155498852 -0.00943894181204305 -0.7548224 0.631427 -0.1776035 77 77 77
-0.0566413407298212 0.00273993566096919 -0.0108396395361015 -0.446488 -0.8933622 0.05052269 69 69 69
0.0235430416507212 0.0233851964718212 0.0161161498392118 0.1623825 0.4123461 0.8964388 93 93 93
-0.0631519592678196 0.0141844446903576 -0.0125864885442955 -0.9316713 0.354855 -0.07788774 96 96 96
0.0296889834876162 0.0203714664226879 0.0156856523651952 0.1824014 0.5775306 0.7957312 82 82 82
-0.0266836365521745 0.01149031474651 0.012504535227947 -0.1527252 0.1312686 0.9795119 78 78 78
0.0390437330027533 0.0251142080074658 -0.0057792526635935 0.1699489 0.9255573 0.3383211 105 105 105
0.0135785752190123 0.0292817647701611 -0.00801354653732692 0.05423796 0.1029022 0.9932116 106 106 106
-0.0471191117676271 -0.00113001511036259 0.00961137903544276 -0.5577552 -0.4733691 0.681785 101 101 101
-0.0307718137582302 0.0479981000667919 0.00181276809608463 0.2221681 0.9747568 0.02214769 26 26 26
-0.0447400584466149 0.00638619020045894 0.00989932071647145 -0.0682981 0.5509819 0.8317177 44 44 44
0.0460065788822199 0.0170456464535107 0.00920669139226199 0.8622634 0.4799908 0.1615877 173 173 173
-0.0314154987493396 0.0479843909984936 0.00354387030176351 0.1791125 0.8713439 0.4568134 38 38 38
-0.0466473081036116 0.0374816949612011 -0.00115781672661502 -0.7928407 0.566553 -0.2245469 73 73 73
-0.0224251297002902 0.0269401963001599 0.0117804969464802 0.002162232 0.08393099 0.9964692 98 98 98
0.0111371284095139 0.0159145887142529 0.0156345344542205 -0.01962392 0.1208707 0.9924743 94 94 94
0.0296228364853361 -0.000837475513804975 0.01888180866268 -0.0176205 0.1235594 0.9921807 130 130 130
-0.0527233589399825 0.0162948663479199 0.00118565625688463 -0.1334905 0.3340895 0.9330404 60 60 60
0.0204579761722825 0.0250158007389416 -0.00539347057469139 0.07023285 0.9595104 0.2727766 30 30 30
-0.0419463740521975 0.00993236854137081 0.00750031857238717 -0.2429777 0.5079013 0.8264371 74 74 74
-0.0386430061666194 0.019285290980946 0.00790926030692363 -0.3486719 -0.04952305 0.9359356 99 99 99
-0.0612660017168529 0.0192895825153698 -0.0109456546440397 -0.904699 0.4233233 -0.04813692 112 112 112
-0.0188566400452324 0.0373446638828625 0.00611778576329239 0.4325676 0.6231802 0.651561 101 101 101
0.00303813115556184 0.0337756569630017 0.00153640030243293 0.1799078 0.9683022 0.173274 63 63 63
-0.00674749628597793 0.0375449950939526 -0.0123952002782066 0.1992295 0.07758325 -0.9768769 50 50 50
-0.0277403183969738 0.0402492578274121 0.00869624518749654 0.2088043 0.6593928 0.7222201 35 35 35
0.00160054603987958 0.0253968532329907 0.0140195066175132 0.02502825 0.2537827 0.9669374 99 99 99
0.0485408148757414 0.014648466849934 -0.0015718799876511 0.9971789 0.06613366 0.03550475 49 49 49
0.0249490667340992 0.0269547398334851 -0.00262769526151879 0.1499301 0.9665637 0.2080278 50 50 50
-0.0590931451658716 0.0230086739307751 -0.013003697746074 -0.8907577 0.4517844 -0.04941258 108 108 108
-0.0418551031180325 0.043918281341206 -8.45016242337904E-05 -0.6850971 0.7283919 0.009338187 66 66 66
0.00197857414628433 0.0298682148701062 0.00675013246920916 0.1528205 0.987652 -0.03448732 36 36 36
-0.0462116262868262 0.00939139678538936 0.00651305964404675 -0.1134152 0.6620896 0.740793 45 45 45
-0.0263937226678741 0.0334797795063366 0.0107222027364787 0.04840393 0.09932964 0.9938766 87 87 87
-0.00909686438026136 0.0391043718105664 -0.0115016923258189 0.2767707 0.7683626 -0.5770761 43 43 43
-0.0517323294482541 0.000481456065784869 0.00154400359615056 -0.3650113 -0.9229749 0.1220004 53 53 53
-0.0203276390979912 0.0351139004474987 0.011008055818372 0.2192249 0.4447241 0.8684244 100 100 100
-0.015808966660728 0.0353225763088574 0.00910386584269304 0.2829889 0.758182 0.5874327 68 68 68
-0.0250451041882016 0.00330600097240108 0.0136604987692075 -0.01447921 0.0919818 0.9956554 217 217 217
0.0309213821250567 0.0265997941738476 -0.00749116942730629 0.2194485 0.9331379 0.2847736 65 65 65
0.0234485823253245 0.0111115868336071 0.0163966045241311 0.002882295 0.03727588 0.9993008 174 174 174
0.0382544256899116 0.0211034710651745 0.0109569600534315 0.2081838 0.9618886 0.1772846 101 101 101
-0.000920732169690242 0.0339964921718945 0.00504166684195709 0.6118771 0.7869948 0.07902912 37 37 37
-0.0147803287363726 0.00146588637889522 0.014852983826336 -0.0279216 0.1097708 0.9935647 138 138 138
0.0278065435941113 0.0224290187603344 0.0155634958288103 0.2108148 0.4462164 0.8697402 128 128 128
-0.0346931760331801 0.0428124363666882 0.00889809449817963 0.1212579 0.3963735 0.9100465 120 120 120
-0.020090342452697 0.030740528846394 0.0113876979080515 0.01082218 0.1342059 0.9908944 88 88 88
0.00584747481693526 0.0293810065037121 0.0112827995400724 0.1641508 0.8243557 0.5417492 79 79 79
-0.0429894325852507 0.0426445300823559 0.00202949623410714 -0.7377483 0.6739509 0.03895728 100 100 100
-0.00840798528857634 0.0352568323856701 0.00775271086330212 0.0292164 0.8588518 0.5113903 45 45 45
0.00226063806383126 0.0342554743534436 -0.012201407019772 0.165641 0.787353 -0.5938335 38 38 38
0.0289648489646637 0.0134361083752026 0.0177647460776277 -0.002268752 0.09566918 0.9954106 143 143 143
-0.0229456714358722 0.029267459655415 0.0113005593276429 -0.005972383 0.1422893 0.9898071 113 113 113
0.0134655520197089 0.0189380343204846 0.0156365471861464 -0.02719446 0.09571514 0.9950372 137 137 137
-0.0414822519254721 0.0453905756718029 0.00365474857314391 -0.7184889 0.6906777 0.08208527 53 53 53
0.0474566873740632 0.00761744334758419 0.012399530699378 0.9955221 0.01743343 -0.09290785 53 53 53
-0.0440271023167684 0.0172329838520398 0.00461745777040312 -0.3833498 -0.09625469 0.9185739 66 66 66
-0.0151073104029829 0.0413478906399121 -0.00250105773651713 0.5245466 0.8337606 -0.1723199 29 29 29
-0.0066026056823778 0.0350677068477978 0.00167967817405523 -0.09538502 0.4861724 -0.8686415 59 59 59
0.0195980277744179 0.0228139455562939 0.0156923923890146 0.07045622 0.2226377 0.972352 101 101 101
-0.036132177376994 -0.000578612541545453 0.0132712214340737 -0.06539804 0.02425382 0.9975644 135 135 135
0.00541117721987705 0.0151413972622265 0.015341460878383 -0.003124243 0.09999374 0.9949831 75 75 75
0.0218038418826914 0.0222840006595959 0.0110215438909877 0.3924568 0.8652557 0.311946 26 26 26
0.0151857071914445 0.0239537055736889 -0.0037178268019106 0.1860785 0.9815419 0.04416295 62 62 62
-0.0497753491332444 -0.00222739622532231 -0.0105476294988458 -0.6196046 -0.7684785 0.1597837 59 59 59
-0.0110057531526959 0.0348385269886364 -3.13673513633872E-05 0.1350459 0.7562936 0.6401426 67 67 67
0.0192447449262783 0.0153502519375195 0.0164931493176407 -0.02130367 0.115344 0.9930971 136 136 136
-0.0303218945246706 0.00333669736446041 0.0132063368704242 -0.0288364 0.153835 0.9876757 93 93 93
-0.0305365087129963 0.0452694590336193 -0.00997195821751509 0.4232538 0.8680802 -0.259409 67 67 67
0.0373073257517744 0.0224032099491467 0.001905792285566 0.3032584 0.9080062 0.2890658 55 55 55
0.0486836944056028 0.00252422645152706 0.00388140277965177 0.9867394 0.0408867 0.1570786 47 47 47
0.043297897823271 0.00132277562678951 0.0198573152233355 0.3503521 -0.04057644 0.9357387 81 81 81
-0.0137756966935585 0.0411497051960339 -0.00684624370522449 0.4012595 0.9076395 -0.1232126 71 71 71
0.0194014674781751 0.0247766669041027 0.0154118344219168 0.05763981 0.328805 0.9426372 115 115 115
-0.00979188729739988 0.0192577536350598 0.0137101548204555 -0.02208788 0.09027071 0.9956723 210 210 210
-0.0175608027944285 0.0258446033245434 0.0119243595940092 -0.01329046 0.09486622 0.9954013 108 108 108
0.0356266969743999 0.0106724198109021 0.018249904649986 -0.01710257 0.1103204 0.9937489 86 86 86
-0.0202615435354208 0.00734719588817256 0.0135940072518255 0.002167918 0.06737976 0.9977251 169 169 169
-0.0537189763492643 0.017645030761372 0.000575173354855046 -0.1991754 0.3550637 0.9133778 76 76 76
-0.0210014690310147 0.0335781867748608 0.0112523716955407 0.1558946 0.3034331 0.9400134 116 116 116
-0.0571529973834388 0.00662419154704708 0.00575616343111415 -0.3225912 0.1430676 0.9356638 34 34 34
-0.026420349330555 0.0456501538997998 -0.00206309387111353 0.3341496 0.9368368 0.1033477 35 35 35
0.04761227570572 -0.00130805418430668 0.0110200307198881 0.9967238 -0.08066261 0.00593846 49 49 49
-0.0381224702241814 0.0231262738949169 0.00870361553176183 -0.2762445 -0.0587578 0.9592896 82 82 82
-0.0157680173604902 0.0409611160999646 -0.0105540914370671 0.3148054 0.8787134 -0.358832 28 28 28
-0.0379897555617925 0.0349870021587719 0.0091813633657884 -0.133999 -0.02362755 0.9906998 72 72 72
-0.0597613326376596 0.00517550065578121 0.00436122894047689 -0.4067137 -0.1652786 0.8984804 99 99 99
0.00046311134296162 0.0327426488643994 0.00783881149230806 0.3306997 0.8472598 0.4156784 50 50 50
-0.0495172182842978 0.0171271856075634 0.00206789479849565 -0.2470763 0.1346991 0.9595882 70 70 70
-0.00263521846290482 0.0229093725925793 0.014006680520873 0.007264407 0.1243898 0.9922068 133 133 133
0.0249910358905479 0.00330582215846675 0.018155909065091 -0.003848223 0.1208002 0.9926694 146 146 146
-0.036264801407619 0.00928786351741451 0.0107090131254676 -0.3056026 0.2560332 0.91709 66 66 66
-0.0210949999168064 0.0447867806202282 0.00370543275833049 0.3371855 0.747142 0.5727869 76 76 76
-0.0192792240747983 0.0401316578632702 -0.00781767269072473 0.04534799 0.9540251 -0.2962763 25 25 25
-0.0312295956753188 0.0457684691196789 -0.00854260713517285 0.1074054 0.990211 -0.08914178 67 67 67
-0.0468883050078386 -0.00297609016834599 -0.00128175162469876 -0.5642246 -0.8114665 0.1522259 64 64 64
0.0139448129972981 0.0126241739040722 0.0166500207139063 0.01609813 0.1126143 0.9935083 129 129 129
-0.0480558918683056 0.0343196685558667 -0.00394892987689496 -0.7950464 0.5601382 -0.2326939 47 47 47
0.0131304841669708 0.0276437695270886 -0.000989222553676727 0.5153542 0.8511102 -0.1001073 22 22 22
0.0335961679016683 -0.00101259396015507 0.0190978026686329 -0.04215662 0.1131672 0.9926812 135 135 135
0.0475141174559692 0.0199047620540966 -0.00334429671400246 0.8062909 0.5883856 0.06080624 104 104 104
0.0435656082475977 0.0219424064403881 0.000651597048509894 0.09454273 0.9431201 0.3187257 67 67 67
-0.0280224789966355 0.0385018284565319 0.00670516125860079 -0.1680152 0.7631651 0.6239791 61 61 61
-0.0452381529265049 0.0405656988865246 0.00475241211391031 -0.6868043 0.6618848 0.3003472 31 31 31
-0.0419138634715066 0.0434992010837902 0.00713219652959882 -0.5706412 0.5060452 0.646751 115 115 115
-0.0320904725258091 0.0176911647564282 0.0109912107620056 -0.1678599 0.05207593 0.9844344 58 58 58
-0.0412467370092671 0.0450504715687146 -0.00292291029774822 -0.6696619 0.7386606 -0.07702798 74 74 74
-0.0144874435219606 0.0278086359745373 0.0120169080973202 -0.03476924 0.1991305 0.979356 119 119 119
-0.023884725922326 0.0391832287556042 0.00886555886738433 0.2712224 0.6794516 0.6817505 45 45 45
-0.0332114475125993 -0.0133298341983448 -0.0105100977687183 -0.5619974 -0.8001465 0.2095817 44 44 44
-0.0174561018557533 0.0424725706821789 -0.00442865866862827 0.2446353 0.960295 -0.1341162 25 25 25
-0.052219496239122 0.00941678836406368 0.00719663456940295 -0.077457 0.6935548 0.7162278 28 28 28
-0.039666649608364 0.0474363262897839 0.00109573520312559 -0.5084042 0.8610055 0.01395719 77 77 77
-0.0541358067553033 0.0280967648273815 0.000633954413135712 -0.879019 0.2488722 0.4066794 55 55 55
-0.0529639158978397 0.030840307021748 0.00199445781928279 -0.9480706 0.25479 0.190379 61 61 61
0.0371915818535062 0.0152998860126843 0.0173594775718228 0.06360249 0.3199787 0.9452875 138 138 138
-0.0635092031482711 0.0154136116749157 -0.0023552459874184 -0.6371311 0.624885 0.4512014 164 164 164
0.000459009935229737 0.0222629006153454 0.0141430856565799 0.0330926 0.1375278 0.9899449 105 105 105
-0.043832032799682 0.0197149808651318 0.00511908524697652 -0.3827895 -0.1808202 0.9059671 49 49 49
-0.0455414918303902 0.0334517057186474 -0.0150959337539058 -0.6418656 0.7478563 0.1694686 63 63 63
0.0465124828076757 -0.000664622043956342 0.0158154271610082 0.9757636 -0.1403542 0.1678875 74 74 74
-0.0538891531965127 0.0272792275196423 -0.00504560457101086 -0.5456886 0.8087843 0.2192986 77 77 77
-0.0398819525477114 0.0450119669681897 0.00849616794332372 -0.2667548 0.5099229 0.8178145 139 139 139
-0.0623336735197026 0.0160352285152783 -0.0143796390461002 -0.9113525 0.4036479 -0.08065373 112 112 112
-0.0285268251917739 0.0427314932590832 -0.00742627590079595 -0.007635244 0.8250813 -0.5649624 40 40 40
-0.0361736345953714 0.00354054524959224 0.0129718653615149 -0.04323307 0.2890213 0.956346 100 100 100
-0.0409982941018812 0.0395732815510144 -0.0136272800770556 -0.7350591 0.6094922 -0.2969973 39 39 39
0.0270154134000886 0.0197554524189343 0.0166923432547727 0.1327336 0.349932 0.9273238 175 175 175
-0.00489641208145475 0.0117147858387341 0.0143894669959743 -0.02121756 0.08525598 0.9961331 95 95 95
0.00377963182468721 0.0287580783611645 0.012298768922047 0.1005135 0.7591037 0.643163 79 79 79
-0.0441377959617257 0.0415309961086621 0.00453391440676224 -0.7217617 0.6535614 0.2278543 36 36 36
-0.0607234919474504 0.0210368926769604 -0.00470388616799153 -0.7328082 0.5312773 0.4251313 115 115 115
-0.0627566440954033 0.00672051265300411 -0.0122632166526943 -0.7810646 -0.6134301 -0.116797 102 102 102
-0.00343332575101796 0.0361916120296826 0.00241134559248635 0.3993693 0.9156139 -0.04642472 59 59 59
-0.0126591720972391 0.00537952735484737 0.0148464760951562 0.008804462 0.09103905 0.9958084 232 232 232
-0.0520355153205612 0.000410228515278277 -0.00392666543521572 -0.4986559 -0.8653434 -0.05023118 68 68 68
0.00237068925300088 0.0308606322056164 0.0101378839065093 0.2813853 0.8124436 0.5106444 57 57 57
0.0481055271086295 0.00601723744929927 0.00278811037872603 0.9856631 0.05868799 0.1581901 82 82 82
-0.0608282524724544 0.0204437668568005 -0.0112740217808624 -0.9030907 0.4270211 -0.04560886 94 94 94
0.00737405314154005 0.00344994618953365 0.016678269294247 -0.03234731 0.06795187 0.9971641 77 77 77
-0.0594097174705721 0.0234114225155224 -0.0105912050022148 -0.8885288 0.4568697 -0.0422686 109 109 109
-0.00884482598286263 0.0075699384456982 0.0146335896896893 -0.003006454 0.09818377 0.9951637 130 130 130
0.0027682568826255 0.0275007183796276 0.0137666285303521 0.04001401 0.5295936 0.8473072 108 108 108
-0.04921742455546 0.0340076978451123 0.00633107098868144 -0.502801 -0.1276779 0.8549207 54 54 54
-0.00548297403810616 0.0347332651859631 0.0078817844325321 0.1955023 0.8605557 0.4703432 72 72 72
-0.029866511875412 0.0196541841274609 0.010464191255875 -0.09430467 0.02084085 0.9953252 54 54 54
-0.00770140759613946 0.00307056262553829 0.0142777321620942 0.01768408 0.1048605 0.9943297 128 128 128
-0.00738659269041242 0.0303026135212292 0.00896942888953459 0.3028474 0.9327228 0.1957335 60 60 60
-0.0646094341091288 0.0137648875957836 -0.004431226569895 -0.9119202 0.3928631 0.118575 85 85 85
-0.0365901985492758 -0.0106982891315113 -0.00791665679609416 -0.4632451 -0.8682438 0.177642 64 64 64
-0.0183214307015318 0.0370724494701733 0.00797270866225447 0.4427486 0.663659 0.6029348 55 55 55
0.047575913390929 0.00889977767528194 0.0102389732673938 0.9956622 0.003823083 -0.09296295 59 59 59
-0.0214638295220337 0.040077060008656 0.00470654446791205 0.2864911 0.4273854 0.8574757 59 59 59
-0.063021132723311 0.00919350936473506 0.00354490821740944 -0.485074 -0.02403756 0.8741426 70 70 70
0.013533782472458 0.0137282307392468 0.0161949017248814 0.01440031 0.09272408 0.9955877 114 114 114
-0.0206869090797805 0.0401895935779919 -0.00280493977395546 -0.1630194 0.9847929 0.06006375 31 31 31
-0.0346700638839406 0.0473178322559704 -0.00890588591267819 -0.0158647 0.9702786 -0.2414698 44 44 44
-0.0415620907609349 0.0420686300045361 -0.00823676895443073 -0.7624605 0.5940663 -0.2563964 94 94 94
0.00752110229175762 0.0324225719219555 2.91247725485999E-05 0.579145 0.7959379 0.1762781 60 60 60
-0.0405827954983138 0.00985690906108516 0.0077449450311721 -0.3197681 0.4200983 0.8492737 48 48 48
-0.0431528666175096 -0.00564476892887456 -0.00149010449883194 -0.5604431 -0.8135684 0.154952 49 49 49
0.00958485603133807 0.0156488712078442 0.015633577023964 -0.01828454 0.1165159 0.9930205 83 83 83
-0.0185056963595567 0.0236733253246655 0.01222265572856 -0.01376558 0.1080024 0.9940553 111 111 111
-0.0284931590317761 0.0391877587086071 0.00985400991324845 0.1759353 0.5255603 0.832366 106 106 106
0.0141878955472978 0.0314892823940625 -0.00586404233168006 0.5255663 0.8343489 0.1662588 68 68 68
-0.0503686554672635 0.00313392236293453 0.00845640163814582 -0.421274 -0.1891872 0.8869816 57 57 57
-0.0342169730589612 0.0333316619640698 0.00984619626476049 -0.09891237 0.04439959 0.9941052 87 87 87
-0.0147885448849154 0.0346567328220715 0.0105827203715407 0.1859529 0.6041591 0.7748634 73 73 73
-0.00340672405846565 0.0342924292332043 -0.00856058295458423 0.004767529 0.7714413 -0.6362827 85 85 85
0.0199232221257746 -0.000748008941997114 0.0180657553141154 -0.01901602 0.1288184 0.9914858 139 139 139
-0.037490253043053 0.013615399146687 0.00883994257423812 -0.3958473 0.1855906 0.899367 98 98 98
-0.0543318257710252 0.0166936214214672 0.00128328609225176 -0.11263 0.4144194 0.9030898 122 122 122
0.0490677385545268 0.00927302196086544 -0.00169347022243943 0.989986 0.06172522 0.1269554 38 38 38
0.0202532025011974 0.0274357493168225 -0.00181763798852716 0.2564109 0.9649501 0.0558985 66 66 66
0.0157054950580062 0.0302905733829846 -0.00541470645983286 0.8066703 0.2766469 0.5222543 44 44 44
-0.0299667739100358 0.0428381855732312 0.007380145173569 0.2570015 0.6143823 0.745979 39 39 39
-0.0351099449696326 -0.0115452711337696 -0.0104268575360512 -0.5325965 -0.8234149 0.1957778 60 60 60
0.047698838557072 0.01129260613979 0.0105300786318776 0.9985079 0.01662292 -0.052017 54 54 54
0.0418559794325046 0.0197871620899548 0.00392973790294665 -0.05389195 0.9825926 0.1777847 99 99 99
0.0480128940037143 0.0195474918133129 0.00189860289959301 0.7268093 0.6627519 0.1803003 188 188 188
-0.000498677003750503 0.0323595698124279 0.0021018754846133 0.386144 0.5454274 0.7439098 78 78 78
-0.0113312280621451 0.0378767545467724 -0.00146270850246474 0.7407439 0.669347 0.05721013 33 33 33
0.0491804054428107 0.00692900970042842 0.000814669403107843 0.9850913 0.1171183 0.12601 70 70 70
-0.0491645724665204 0.0366336400753369 0.00252501474211511 -0.8577945 0.5065602 0.08709418 61 61 61
-0.0630635526979222 0.0141651923900952 -0.0162266806934621 -0.9387155 0.2525071 -0.2346345 96 96 96
-0.0323112975170896 0.0408528144604077 -0.0155463258915828 0.1561996 0.923152 -0.351272 39 39 39
-0.0480701156708834 -0.00406292126118046 -0.011892314080869 -0.6321562 -0.7511199 0.1902561 51 51 51
-0.0463280000814681 0.0198881919628491 0.00379228024811545 -0.3859468 -0.1535949 0.9096448 68 68 68
-0.0646639264468143 0.0114513929134716 -0.0124828055203613 -0.985112 0.008412352 -0.1717081 126 126 126
0.045438100481457 0.00310042455257076 0.0196592882726323 0.4972087 -0.03195526 0.8670423 116 116 116
-0.038619545924474 0.0133619005924572 0.00802450558365786 -0.4229006 0.1926042 0.8854709 65 65 65
-0.056941097685608 0.0270938570743908 -0.00822780808224891 -0.531732 0.8261339 0.1864507 68 68 68
-0.0101641933721119 0.00618979289592403 0.0141320054183361 0.0112685 0.1049606 0.9944125 240 240 240
0.0333050817011866 0.00736376597942012 0.018472953300813 0.004238578 0.07715983 0.9970098 131 131 131
-0.0462584362363287 -0.00478425667225224 -0.00398122812383941 -0.6087246 -0.7793472 0.1485673 68 68 68
-0.0107487386953904 0.0396541054493298 -0.0123038891249918 0.1427696 0.8473048 -0.5115579 54 54 54
-0.0343039400081393 0.011853068614613 0.0108837517338291 -0.2521025 0.158248 0.9546737 74 74 74
0.0483319834824303 0.000566690707813677 0.00424585979731765 0.9848211 0.06264658 0.1618726 38 38 38
-0.0652400569933573 0.00968101575435298 -5.63221926030699E-05 -0.822504 0.06518409 0.5650117 58 58 58
-0.0607135566194186 0.00886365726054805 0.00412838980614441 -0.3024037 0.1825332 0.9355392 59 59 59
0.0112832417233313 0.00443723752559322 0.0168780168139283 -0.02603827 0.05841549 0.9979527 109 109 109
0.0366342266485491 0.0212573106533398 0.00682963876396878 0.2434465 0.9694499 0.03001179 122 122 122
-0.034065689089164 0.0388976629024853 0.00956381386782515 -0.0005257918 0.2952014 0.9554349 120 120 120
0.00745632269610552 0.0295186932331433 -0.00163692058378509 0.257883 0.9573166 0.1305424 61 61 61
0.0401506456080514 0.019302278304707 0.013819988663038 0.2025617 0.8827055 0.4240279 89 89 89
0.00854144996686701 0.0229794080501904 0.0137636865508412 -0.01134918 0.2170361 0.9760976 144 144 144
0.017828067268326 0.0272791083103527 -0.00901279668830371 0.2193157 0.5659615 0.7947252 46 46 46
-0.0105854154722591 0.00413420751155513 0.0151827076511721 0.001928971 0.1181231 0.9929971 219 219 219
-0.0031797506500022 0.0300288493877758 0.00789575640867859 -0.161573 0.9685596 0.1891733 22 22 22
0.0494003486942143 0.00105288579524654 -0.000457322577787217 0.9920453 0.01372756 0.1251303 47 47 47
-0.0128046944560836 0.0316973026043286 0.00877391185210083 0.3922801 0.6752794 0.6245911 93 93 93
-0.0327265282852953 0.0313088591343273 0.0104359197689611 -0.1072447 0.06559619 0.9920664 85 85 85
-0.0364715473398063 0.0153631861454357 0.0093085116812833 -0.3710066 0.1352691 0.9187254 81 81 81
-0.0245958762028022 0.0115593369251599 0.0130301126681779 -0.08541453 0.13786 0.9867619 102 102 102
-0.0474006793316126 0.0394901330715527 0.00448771379178209 -0.6928064 0.6762003 0.2505443 68 68 68
-0.0571054005584211 0.00242516353191036 -0.00798566903379816 -0.4342841 -0.899828 0.04131638 65 65 65
-0.0406471035851912 -1.37393230090765E-05 0.0127926741981414 -0.1130098 -0.04566982 0.9925438 134 134 134
-0.0280544681499015 0.02180126264156 0.0114935600641749 -0.100013 0.01256863 0.9949067 42 42 42
0.000180602787458239 0.0366142685657849 0.00085046072226988 0.110481 0.9918104 -0.06407908 49 49 49
-0.0420014150985069 0.0408855374103894 0.00867807834360648 -0.2357746 0.2928936 0.9266195 118 118 118
-0.042071620581337 0.00562575414241451 0.0108325005195982 -0.02681208 0.5232962 0.851729 62 62 62
-0.0341625605939464 0.0133266146427502 0.00997859497202366 -0.2561947 0.1214635 0.9589635 60 60 60
-0.0454959714606737 -0.00477835581241948 -0.00536626154305531 -0.6091331 -0.7792076 0.1476221 88 88 88
-0.0363730186197604 0.0236469800716748 0.00913278520736341 -0.2633198 -0.04319818 0.9637409 68 68 68
0.0228925065376011 0.00278952672542232 0.0182483332589323 -0.005665211 0.1115523 0.9937424 144 144 144
0.0296933264421124 0.0101501043087353 0.0171921530317757 -0.01705782 0.1106487 0.9937132 167 167 167
-0.0304598104110314 0.0443589384800305 0.00310491844384311 0.647979 0.7430075 0.1675206 75 75 75
-0.00212599012172943 0.0191285307651867 0.0143211554074446 0.007936452 0.09285598 0.9956479 131 131 131
-0.0367203942360066 -0.0101753775828968 -0.0040507203442797 -0.4495263 -0.8724581 0.1916844 101 101 101
-0.0574521658609495 0.0272488291508068 -0.00633049912127306 -0.5614536 0.7819565 0.2707653 97 97 97
-0.0432743758946419 -0.00716820404468876 -0.0114901567752151 -0.5482178 -0.8250938 0.1366656 52 52 52
-0.0522530863221593 0.00343856170238155 0.00684828333148277 -0.3941412 -0.4225267 0.8161641 43 43 43
-0.0262880794381664 0.0199590022808422 0.0117368160154817 -0.1038005 0.02681684 0.9942365 62 62 62
0.0484590803736407 0.0130818183666577 0.00510880724514545 0.999397 0.02286902 -0.02612646 34 34 34
0.013444485196078 0.00769796922267574 0.0168464465410006 0.01013643 0.1016674 0.9947668 241 241 241
-0.0101636693758989 0.0336891706234326 0.00130807292364385 0.08211549 0.7547792 0.6508191 91 91 91
0.048207428058977 0.00867322042049068 0.00210049253655473 0.9947571 0.04714813 0.09074953 51 51 51
0.0446878911524771 0.0134330089336743 0.0186983093520916 0.2685292 0.2907519 0.9183438 88 88 88
-0.0462276289100949 -0.0028595630878101 0.0100013994778197 -0.5898642 -0.4758231 0.6524206 71 71 71
-0.0607267305155841 0.0217103059536328 -0.00570533710251872 -0.7739407 0.5349589 0.3388728 103 103 103
-0.0210399209131642 0.0293771322018017 0.0117479103073433 -0.01162971 0.1380066 0.990363 116 116 116
0.0498929780953832 -0.00635352775989872 0.00163353618393944 0.9894266 0.04567557 0.1376543 59 59 59
-0.021794879328797 0.0433576400524487 0.00470149664552727 0.2922006 0.5856771 0.7560431 63 63 63
-0.0486274493092829 0.0322459037548413 -0.016588595515639 -0.4589716 0.8559065 0.2382629 69 69 69
0.0058962899042363 0.0351523454433789 -0.00216347180781759 -0.03089154 0.9667205 0.2539631 70 70 70
-0.0545062173311055 0.0255557592159619 0.000405773159604023 -0.7482367 0.00917608 0.6633684 23 23 23
0.0470489058731796 -0.00156602308689457 0.0089024146799595 0.9990745 -0.004260587 0.04280222 43 43 43
-0.0441461649257466 -0.00609383032261235 -0.00619535998479218 -0.548491 -0.8177559 0.1744501 60 60 60
-0.0496404794522538 -0.00103566095768315 -0.00415903761625061 -0.5517677 -0.8339608 -0.007853289 52 52 52
-0.0607924528026844 0.01927360847057 -0.01235944390303 -0.9025384 0.4287103 -0.04039805 109 109 109
-0.0370746642209578 0.0478882487064709 0.00207731113574197 -0.1285079 0.9867043 0.09950031 66 66 66
-0.00751420073937248 0.0382054741627087 -0.0068906433433478 0.4938664 0.8655762 -0.08290827 45 45 45
-0.0385267841771453 0.0470063383823742 0.00766268790776328 -0.1065289 0.7232993 0.6822681 107 107 107
-0.0107022259113894 0.031421988750111 0.0119991227683683 0.0125862 0.4745968 0.8801134 111 111 111
-0.0436943017686002 0.0413143332249035 -0.00284875178976143 -0.8423454 0.526414 -0.1155102 77 77 77
-0.00736429219643586 0.0382872517353405 -0.00382079959741818 0.4062235 0.9068258 0.1124699 56 56 56
-0.0462234640979704 0.0139739210850109 0.00369630820595834 -0.2042504 0.2950501 0.9333955 53 53 53
-0.0059754787200037 0.0228139455562939 0.0137079870683203 0.01682405 0.1220221 0.9923848 126 126 126
0.0255009116948994 0.0248717363125195 0.00682672815864355 0.428562 0.8825288 0.1935914 71 71 71
-0.0479692021492857 0.0269051487690319 0.00468775573820329 -0.3735137 -0.1681911 0.9122496 50 50 50
0.000942005476916696 0.0294185574299206 0.00229125133261351 0.4720955 0.8815154 0.007510982 78 78 78
-0.0186671931000777 0.0425287182575573 -0.00632716444101641 0.1397775 0.9602976 -0.241435 48 48 48
0.0407092295790328 0.0229064519649853 -0.00286129565533647 0.06051616 0.9557911 0.2877519 52 52 52
0.00923591155898595 0.0328630502468457 -0.00706477973724198 0.2334759 0.2664901 0.9351321 74 74 74
0.0186354890592355 0.0104307229763378 0.0168436899002198 0.0253665 0.09976986 0.9946871 131 131 131
-0.0515952284389563 0.0308654601818432 -0.0161649682888462 -0.3637525 0.9049422 0.2208249 59 59 59
-0.0613230268217531 0.00538530900539058 -0.0142756442371631 -0.6829761 -0.7204205 -0.1205733 52 52 52
-0.0431002471823891 -0.00605073616443974 0.00314478842823426 -0.5456104 -0.8357751 0.06155721 46 46 46
-0.0189697704361005 0.0428485567814221 -0.00461585132965911 0.2363405 0.9451621 -0.2254148 33 33 33
-0.0436911650352119 0.015037506366383 0.00453794697963625 -0.363638 0.08083083 0.9280268 59 59 59
-0.0164280547788922 0.041462808395039 -0.0089250536371627 0.2580391 0.9362893 -0.2382815 28 28 28
-0.0241476204766999 0.0350923831707348 0.0108482460476825 0.0501102 0.1861376 0.981245 91 91 91
-0.0194850967200531 0.043050258899342 0.00442291730604052 0.3547463 0.53597 0.7660883 92 92 92
0.0314244392859986 -0.000768930172313276 0.0185356532997599 -0.005011762 0.1302633 0.9914668 150 150 150
-0.0180388912212708 0.0434132511860241 0.00370595062851042 0.2519772 0.8133447 0.5243834 95 95 95
-0.0558577864189698 0.00768986299098628 0.00615301519484127 -0.4282601 0.3332415 0.8399663 49 49 49
-0.0342561739035987 -0.000400513862956586 0.0135194707680472 -0.04252974 0.06797639 0.99678 116 116 116
-0.0381142514821526 0.0410162503963818 0.00547121901660277 0.1423302 0.5276571 0.8374486 35 35 35
0.0476885624381274 0.00896027638972896 0.00378548699317457 0.9963067 0.02648529 0.08167886 40 40 40
-0.0292088632653182 -0.000435501789439741 0.013867689631978 -0.008081809 0.1120715 0.9936673 225 225 225
0.029632129027614 0.0169193442112316 0.0169175999689747 0.06740426 0.1782127 0.9816806 148 148 148
-0.0249840700972761 0.0443106587177624 -0.00744432745426421 0.220081 0.9395863 -0.2621866 49 49 49
0.0340992550589947 0.0205234582668652 0.00386210416136526 0.1407197 0.9860895 0.08846172 65 65 65
-0.0336912459939867 0.0374316270595898 0.00974002707866203 -0.008062221 0.1353571 0.9907641 114 114 114
-0.0285038784813973 0.0354230101353039 0.010408196164627 0.01417158 0.2159519 0.9763011 91 91 91
-0.0234630039652119 0.00501725032390254 0.0132785985184653 -0.02623284 0.0728187 0.9970002 193 193 193
0.0425001043951923 0.0193010862118115 0.0096940513284722 0.2619309 0.955452 0.1360285 103 103 103
-0.00817394747016031 0.0339773590809216 0.010363964596158 0.310427 0.7060214 0.6365287 34 34 34
-0.0520078239360691 0.00962725236476558 0.00759524253802693 -0.077457 0.6935548 0.7162278 29 29 29
-0.0618886951085666 0.00753435447276729 0.00395616663055709 -0.4869478 -0.09645702 0.8680886 57 57 57
-0.0587121246828683 0.00971868588985103 0.00428107765132468 -0.1307693 0.4015414 0.9064568 75 75 75
-0.0608521189005844 0.00378510310710567 -0.00440222901481016 -0.5391992 -0.8420748 0.0132004 84 84 84
-0.0524674900250308 0.000480263972889361 -0.0133649570850728 -0.5269784 -0.8402827 0.1273526 107 107 107
-0.048949535186275 -0.00178626224933964 0.00506679001131125 -0.5755177 -0.7883348 0.2175029 86 86 86
0.0471886670277422 0.0127420122867932 0.0152295098682718 0.9554641 0.1989896 0.2179252 69 69 69
0.0314723057500874 0.0104490812069287 0.0180235676991593 0.02256756 0.07828868 0.9966753 140 140 140
-0.0301301308209936 0.0307824905163159 0.0107350321071113 -0.06240402 0.06710724 0.9957923 114 114 114
-0.012369297264351 0.0364259774929394 3.63643761707722E-05 -0.789969 0.4535431 0.4126108 84 84 84
-0.0255466626486118 0.0051939184910168 0.0129359191380616 -0.02217842 0.08076358 0.9964865 231 231 231
-0.0486858031017654 -0.00222829029499394 -0.00625065719182813 -0.6258019 -0.7740545 0.09597738 103 103 103
-0.0300659551925264 0.0430559809452404 -0.0038460594704495 0.07070638 0.8536385 -0.5160445 40 40 40
0.027207399946364 0.0215465719944348 0.0114060299950854 0.2734416 0.932742 0.2349938 51 51 51
0.0174322211557902 0.0304450686222424 -0.00891318408991479 0.04996459 -0.2291044 0.9721187 76 76 76
-0.0403078271686403 0.0457683499103894 0.00710749370653815 -0.3622169 0.639815 0.6778168 127 127 127
0.0108996541016337 0.0338309104687085 -0.00506108333548608 0.5368164 0.7591048 0.3682227 91 91 91
0.0466417152825729 0.0169445569759716 0.017902061036791 0.6690055 0.5342792 0.5166985 117 117 117
-0.0422945740984979 0.0394081766849865 -0.0108838753487206 -0.8604255 0.4798559 -0.1714825 64 64 64
-0.00772361181445991 0.0113790924793591 0.0145638832399515 -0.009618332 0.08030041 0.9967243 107 107 107
0.0455595257893391 0.0204061563259472 0.007882928125515 0.3825392 0.8996708 0.2103715 118 118 118
-0.0075973096923756 0.0365842874294628 0.00480796690189864 0.3998645 0.8405886 0.3654027 54 54 54
0.0305722636412413 0.0248903329616894 -0.00132474559306209 0.2942778 0.911054 0.288758 43 43 43
-0.00441015170179049 0.0231930907017102 0.0137487272955109 0.008381371 0.1213951 0.9925689 127 127 127
-0.042422131183657 -0.0077760522121082 -0.00590551596365907 -0.4941134 -0.8506253 0.1796902 102 102 102
-0.0539174406860528 0.00066170051158565 -0.000304909992164287 -0.3694973 -0.9292297 0.001959568 92 92 92
-0.0533738635800336 0.019413738990437 0.000113922503761466 -0.2951122 0.2471173 0.9229528 83 83 83
-0.04834557816797 -0.00125637695728642 0.00166113913591295 -0.500217 -0.8498043 0.1661793 77 77 77
-0.00652947640446921 0.0279919202572216 0.0126160171356295 0.05993484 0.3413512 0.938023 122 122 122
0.0307216749943 0.0245296056515087 0.000189036196855952 0.2992301 0.9052098 0.3017558 39 39 39
0.0214244644390553 0.0141416485554089 0.0162234738931208 -0.03746844 0.1182079 0.9922817 142 142 142
0.0154955452105809 0.00924399449885982 0.0168279980920842 0.03119315 0.1124318 0.9931697 124 124 124
-0.0264370729235179 0.00169178798259395 0.0137817433760158 -0.01802361 0.1182372 0.9928218 229 229 229
-0.0454745315394443 -0.00452908918796879 -0.00262086430527844 -0.5463457 -0.8174856 0.1822738 69 69 69
0.0214990058955673 0.0108781750446667 0.0172428926909306 -0.03392513 0.06517203 0.9972972 127 127 127
-0.0499641715539214 0.0298118288761486 -0.00686456244434061 -0.6406563 0.7653494 -0.06164207 15 15 15
0.0142359986949365 0.0297009046322216 0.00122668850320848 0.4040582 0.8076468 0.4294692 47 47 47
-0.0549053514797477 0.028135388637196 -0.0103926078541095 -0.4556144 0.8831953 0.1112729 72 72 72
-0.0547164310452553 0.0276680286175122 -0.00751425854053053 -0.4376224 0.8775054 0.1961397 43 43 43
-0.0300494693657058 0.0410047466999401 -0.0121852060212923 0.04621028 0.9367658 -0.3468926 33 33 33
-0.0462652535448043 -0.00322607204853398 0.00235958740039291 -0.5826924 -0.805787 0.1057206 62 62 62
-0.0483097263126988 0.0339580471760144 0.0065121198791587 -0.5727479 -0.1097569 0.8123505 54 54 54
-0.0145755910571721 0.0318450625187268 0.0115888762309654 0.05941737 0.3894547 0.9191271 84 84 84
-0.0429015455423238 -0.00136092350422246 0.0115259810349942 -0.2628351 -0.2186131 0.9397478 89 89 89
0.00964890009000618 0.019784181857716 0.0151210279573873 -0.01105717 0.115063 0.9932967 111 111 111
0.0365617319146392 0.0217360551601757 0.00317818686345397 0.2714657 0.9415103 0.1996617 82 82 82
-0.0216908422679261 0.0414742524868359 -0.0114364858929275 0.1017674 0.9934914 -0.05116843 60 60 60
-0.0450412973657488 0.0398169453388562 -0.00216065955899183 -0.7981564 0.5776439 -0.1710963 71 71 71
-0.0154542454201465 0.0419259960895886 -0.00105172173962251 0.4589174 0.88756 -0.04039813 38 38 38
-0.0358542941487423 0.0108299548870434 0.0107317199786166 -0.2407619 0.2150953 0.9464501 50 50 50
0.0295883123102145 0.0251447851902356 -0.00364804139978045 0.3124701 0.9083616 0.2779239 70 70 70
0.019914597929533 0.020956068778645 0.0159888239318455 0.0730272 0.1872776 0.9795887 100 100 100
-0.0220114719406657 0.0390971596485485 0.00770079856227437 0.3084204 0.6871952 0.6577535 42 42 42
0.0479725518618987 0.0167977507358898 0.00700266973733357 0.9454612 0.3189083 0.06633697 61 61 61
-0.0163012191949738 0.0368237788921704 -0.0111852182785182 0.2239582 0.9432395 -0.2452386 49 49 49
-0.0223752267939286 0.0170073206669201 0.0124933754329747 -0.04691559 0.09465916 0.9944036 130 130 130
0.0316941730046216 0.0150008495098461 0.0175604058011528 0.0538777 0.1607763 0.9855192 144 144 144
-0.0258593915426804 0.0443274672275891 -0.0105419585031567 0.1672115 0.9778075 -0.1262257 39 39 39
0.0480097458434441 0.0123499925381054 0.00464807057922598 0.9997265 -0.02291613 0.004654961 81 81 81
0.0441457684602446 0.0193252260929455 0.00922183281507186 0.3357196 0.9167357 0.2165363 85 85 85
0.0210846423059157 0.0244563515430798 0.0159138941067591 0.03811773 0.2364949 0.9708847 111 111 111
-0.0395993994549537 0.0475607211834301 0.00710608881836863 -0.2530839 0.8023207 0.540583 125 125 125
0.0383133351674212 0.0209492142444958 -0.00022176468826976 0.1795555 0.9228601 0.3407184 54 54 54
-0.0435327435774577 0.0219396646267285 0.00653039956006621 -0.3626525 -0.1587892 0.9182969 61 61 61
0.0296891858007087 0.0211430485493054 0.0075548144577233 0.1405073 0.9873554 0.07339704 47 47 47
-0.0411199176460515 -0.0071513955348621 -0.00283916185751029 -0.483329 -0.8593016 0.1673137 51 51 51
-0.0538052176664252 0.015605657840382 0.00164189985052302 -0.1092933 0.3573132 0.927568 62 62 62
