ply
format ascii 1.0
comment File exported by Rhinoceros Version 7.0
element vertex 473
property float x
property float y
property float z
property float nx
property float ny
property float nz
property uchar red
property uchar green
property uchar blue
end_header
0.0386382214653451 -0.0214276437307404 -0.00726773934232913 -0.005082091 -0.9910904 0.1330939 72 72 72
0.0409396164047677 -0.0208543066526459 -0.00622525410520755 0.1626564 -0.9724186 0.1671673 91 91 91
0.0414647929298837 -0.0212625984693573 -0.00983284013139926 0.1054424 -0.9815131 0.1597304 101 101 101
0.0416501633751352 -0.0210288290525482 -0.00943274395334445 0.1054424 -0.9815131 0.1597304 138 138 138
0.0401210062134225 -0.0221756820226715 -0.00377167360651218 0.1541202 -0.9720005 0.1773753 134 134 134
0.038800405703779 -0.0206365112806366 -0.000310521291372406 0.1739473 -0.9737521 0.1467961 110 110 110
0.039333271228071 -0.0201434020544098 0.00159903271329678 0.01757627 -0.9749043 0.2219295 69 69 69
0.0409319274055917 -0.0201425079847382 0.00145361228120602 0.5130908 -0.8124328 0.2769311 128 128 128
0.0399356953728158 -0.0204086427236603 7.95911086825252E-05 0.1925002 -0.9756366 0.1052466 68 68 68
0.0414647929298837 -0.0187798265958832 -0.00487914280760013 0.4578587 -0.8716233 0.1750377 79 79 79
0.0413257948982675 -0.016852212383847 -0.0036619116531583 0.8763303 -0.4751138 0.07944933 76 76 76
0.0402832500565011 -0.018795800640683 0.00761662824285306 0.526808 -0.7197898 0.4520797 114 114 114
0.0405843727219064 -0.0201748733068512 0.00286786658895291 0.4325033 -0.8703926 0.235282 139 139 139
0.0381748549568612 -0.0195419315839813 0.00413489742410458 0.1835962 -0.9577653 0.22131 93 93 93
0.0415574781525094 -0.0176969890142487 -5.56965337964177E-05 0.8484194 -0.5141714 0.1257465 74 74 74
0.0420672170746286 -0.0168017272497223 0.00188993318212308 0.9007761 -0.4247075 0.09069693 71 71 71
0.0405843727219064 -0.0192749027753876 0.00440822942388333 0.5524987 -0.7849947 0.2802292 114 114 114
0.0410941116440255 -0.0149386648679779 0.00466543836725034 0.9237327 -0.2914486 0.2485471 86 86 86
0.0420903436768014 -0.0139383201147125 -0.000695343779203522 0.9861661 -0.1652769 0.01265161 72 72 72
0.0420903436768014 -0.0147888783956573 0.0017067681087283 0.9792841 -0.1844186 0.08362075 76 76 76
0.0421444646942575 -0.0128091101194427 0.00197226209771909 0.9976637 -0.03185206 0.06043673 79 79 79
0.0421135894882638 -0.013472211792569 0.0029500017894534 0.9911802 -0.09821765 0.0889667 92 92 92
0.0390320889580209 -0.0186538819814728 0.00782888038289822 0.385193 -0.8118547 0.4387692 111 111 111
0.0387772194969613 -0.0180212382818268 0.00866675777566708 0.4582018 -0.742705 0.4883035 112 112 112
0.0414184801208932 -0.0144900207067535 0.00708666844499387 0.8834965 -0.283828 0.3726601 55 55 55
0.0388235323059518 -0.0146059517408417 0.0115729610456256 0.6070119 -0.4527578 0.6531056 106 106 106
0.0417428485977609 -0.0105371598745392 0.00512604816091336 0.9967691 0.02295485 0.0769699 43 43 43
0.0414647929298837 -0.00792266173611145 0.0068453590406207 0.9946864 0.01904497 0.1011749 56 56 56
0.0414647929298837 -0.00708611054668884 0.00598091287744321 0.9986618 0.02385456 0.0458866 41 41 41
0.042484270774122 -0.00591476006756286 -0.012681793140051 0.9994116 0.009759286 0.03288174 45 45 45
0.0429708234894235 -0.00649489207516174 -0.00995467202532016 0.9980667 0.00287934 0.06208544 50 50 50
0.043318318568464 -0.00478441758404236 -0.00840486185419284 0.9977217 -0.0006116491 0.06746137 53 53 53
0.0424378983604867 -0.00128490967998962 -0.0123814453350278 0.9984304 0.05482091 -0.01146596 69 69 69
0.016847895823713 0.0114765043710663 0.0143752585185794 -0.01345105 0.01015873 0.9998579 189 189 189
0.0420672170746286 0.00961183266391297 -0.00291618304121219 0.991174 -0.01137854 0.1320776 42 42 42
0.0415883533585031 -0.00837333245525818 -0.000172134207365143 0.9920476 0.05733605 0.112045 65 65 65
0.0423915855514962 -0.0072855476881073 -0.00281124906408511 0.9792493 -0.007574146 0.2025178 54 54 54
0.0417428485977609 -0.00501693530331115 -0.00209731953012668 0.9756892 -0.01037396 0.2189133 59 59 59
0.0413257948982675 -0.00626648707638244 -0.000240292118665802 0.9879394 0.03010461 0.1518863 77 77 77
0.042345213137861 -0.00468416257153015 -0.00200999872553073 0.9760319 -0.005966642 0.2175458 65 65 65
0.0434341899979074 -0.00224794192562561 -0.00613012509214603 0.9944128 0.05258879 0.09152941 58 58 58
0.0414647929298837 -0.00367255254040222 -0.00186311797964298 0.9752648 -0.008148556 0.2208893 123 123 123
0.0422525279152353 -0.00329000993023376 -0.00332095818388187 0.9725373 -0.01814299 0.2320386 48 48 48
0.0431098215210397 -0.000856173470120236 -0.00485026435720645 0.9902895 0.05778749 0.126441 52 52 52
0.0429012648689706 0.00121669726123352 -0.00427242712843143 0.9885118 0.06761955 0.135174 60 60 60
0.041372107707258 -0.00660504145870666 0.0022115151418475 0.9967556 0.04243406 0.06839288 85 85 85
0.0410663358795602 -0.00255478663692932 0.00164838535917081 0.9928805 -0.01998669 0.1174255 69 69 69
0.0417428485977609 -0.0010112647558258 -0.00245195226537906 0.9735211 -0.006429106 0.2285066 91 91 91
0.0423915855514962 0.000993239447970584 -0.00260343747007571 0.9869719 0.04554367 0.1543123 65 65 65
0.042113529883619 0.000281142756838992 -0.000148053930875885 0.9867226 0.01097922 0.1620432 60 60 60
0.04225258751988 0.00263135390033264 -0.00200414256918155 0.9884822 0.05532258 0.1408625 67 67 67
0.0410477392303903 0.00342898325671692 0.00115231080186642 0.9892896 0.04628762 0.1384327 58 58 58
0.0419745318520028 0.0032343144868805 -0.00804510311948978 0.9958407 0.08532155 0.03196291 68 68 68
0.0416733495819528 0.00497828678836365 -0.00868837134706699 0.999063 0.03843709 0.01989472 65 65 65
0.0429476372826059 0.00768392042865296 -0.0127378066049787 0.9997144 -0.01815791 0.01553961 71 71 71
0.0420208446609933 0.00717334704150696 -0.0098455955253812 0.9995126 -0.01690978 0.02624154 65 65 65
0.0418355338203866 0.00635908798923035 -0.0088510920273038 0.9994051 -0.01137476 0.03255878 77 77 77
0.042484270774122 0.00995676474322815 -0.0106847097145291 0.9991496 -0.04044756 0.008005464 76 76 76
0.0422062151062448 0.00549207882632752 -0.00606372551786624 0.9993085 0.03098046 0.02056288 56 56 56
0.0420054070579965 0.00531642393817444 -0.00190926687586032 0.9856055 0.05636815 0.1593878 51 51 51
0.0410941116440255 0.00395386175860901 0.00044314963949002 0.9881274 0.03789719 0.1488895 44 44 44
0.0419282190430124 0.00565766052951355 -0.000498603747961152 0.9852771 0.05558324 0.1616774 59 59 59
0.0420672170746286 0.0075142856096222 -0.00228102104532443 0.9876667 0.008199238 0.1563564 51 51 51
0.0428549520599801 0.0102259989236786 -0.00719265239107333 0.9979273 -0.04233261 0.0484667 62 62 62
0.0425923339950998 0.01182978110065 -0.00637656049596988 0.9984772 -0.03219622 0.04479538 55 55 55
0.0425768963921029 0.0087170477365448 -0.00421806769239627 0.9976614 -0.01909922 0.06562719 41 41 41
0.0415574781525094 0.0104951734994843 -0.00370060996877872 0.9934177 -0.03635724 0.108625 82 82 82
0.0429012648689706 0.0125708456491425 -0.00722096459734164 0.9985404 -0.03217722 0.04337831 61 61 61
0.0346531741249521 -0.0163067106748627 0.0136220793260363 0.209788 -0.7187934 0.662816 204 204 204
0.0170911423790414 -0.0144359592939423 0.013012085391405 0.01232043 -0.7814612 0.6238322 89 89 89
0.0187709204781015 -0.0144871000791595 0.013820145560625 -0.06573407 -0.6842213 0.7263059 122 122 122
0.0149133078682382 -0.0109101657415436 0.0149592499269275 -0.02046106 -0.223151 0.9745691 143 143 143
0.0144499115574319 -0.00863755984554748 0.0149910639060763 -0.006916281 0.03719705 0.999284 217 217 217
0.0171838276016671 -0.00934155030498962 0.014704693390253 0.001339483 -0.02902184 0.9995779 134 134 134
0.0233930818664987 -0.0126704101110504 0.014610220028284 -0.07240397 -0.3730734 0.9249724 131 131 131
0.0246751181709726 -0.0124823574567841 0.0148402492536334 -0.008094041 -0.2698015 0.9628819 147 147 147
0.0221882931816537 -0.00896455092678528 0.0148600826991824 -0.005722752 0.01426779 0.9998818 99 99 99
0.0258489720451791 -0.0099718098188446 0.0149119238389758 -0.006284669 -0.04286221 0.9990612 116 116 116
0.0159327261078317 -0.00516219182262878 0.0147852341665057 0.02231615 0.01626008 0.9996187 165 165 165
0.0188983254063089 -0.00819076342831115 0.0148373286260394 -0.0009867983 0.04491971 0.9989901 142 142 142
0.018469708405729 -0.00636131806622009 0.0147076438201693 0.004167181 0.03129847 0.9995014 155 155 155
0.0210144393074472 -0.00661308808575134 0.0148279110921649 -0.001968762 0.03756597 0.9992922 160 160 160
0.015608357630964 -0.00443525357494812 0.0144678543342379 0.01500454 0.02131894 0.9996601 100 100 100
0.0174618832695443 -0.00444198889980774 0.0143644551767138 0.009901761 0.003967642 0.9999431 188 188 188
0.016813146315809 -0.00181354327450256 0.0145461301339892 5.838584E-05 0.003811346 0.9999927 93 93 93
0.0195470921623666 -0.00176681323299865 0.014626134468439 -0.001886123 -0.002148534 0.9999959 158 158 158
0.0224663488495309 -0.00661308808575134 0.0148279110921649 -0.01331877 0.03459721 0.9993126 162 162 162
0.0264397732841928 -0.00861598296413879 0.0148442874683169 0.0106121 0.02943422 0.9995104 114 114 114
0.0250496737587411 -0.00676657004604797 0.0147029201520709 0.01628344 0.04967479 0.9986327 152 152 152
0.0236247651207406 -0.00517447037945251 0.0147029499543933 -0.004945069 0.02140368 0.9997587 190 190 190
0.0229297153580148 -0.00254560752163391 0.0146250019801883 0.009447683 -0.002252707 0.9999529 192 192 192
0.0261733405220468 -0.00371820969830017 0.0143172482980517 0.01857346 0.01066632 0.9997706 101 101 101
0.0253856055366952 -0.00255395217190246 0.0146566818488864 0.01475437 -0.001253054 0.9998904 179 179 179
0.0265595190155465 -0.0146311645055817 0.0137343446744708 -0.05241797 -0.5899386 0.8057449 108 108 108
0.0310851804840524 -0.0158104424024628 0.0126344601644305 -0.06331103 -0.7298864 0.6806302 111 111 111
0.0324289672005136 -0.0157634739423798 0.0130363444818286 0.006116037 -0.6671904 0.7448621 110 110 110
0.0305523149597604 -0.0145982627416656 0.0146632681621341 -0.03068827 -0.4574942 0.8886829 87 87 87
0.0277256838905771 -0.0130655889059113 0.0147606174482135 0.01828735 -0.3359178 0.9417138 122 122 122
0.0290463440048654 -0.0126369123006866 0.0148053358329562 -0.03535387 -0.2546246 0.9663935 147 147 147
0.0270537607300241 -0.0098185066724823 0.0147150347961215 0.003146103 -0.03528115 0.9993725 126 126 126
0.0287064783203561 -0.00869662804851989 0.0148287753595141 -0.002934781 0.03732888 0.9992988 112 112 112
0.0298803917992074 -0.011369419529538 0.0148161391748217 -0.02113022 -0.1747824 0.9843803 169 169 169
0.0327687732803781 -0.0108146791006134 0.0147245864404467 0.02805305 -0.05509646 0.9980869 150 150 150
0.0308998100388009 -0.00946832938442688 0.0146714190973071 0.002313813 0.02002121 0.9997969 165 165 165
0.0328073970901925 -0.00884397073040466 0.0147449265254763 0.01993184 0.009996636 0.9997514 145 145 145
0.0370511285889108 -0.014472914173703 0.0138789157403735 0.2874886 -0.508004 0.811962 137 137 137
0.0380357973206003 -0.0139349822546051 0.0140073935521869 0.4516424 -0.3745176 0.8097875 148 148 148
0.0330081455337961 -0.012693596317868 0.014892105294588 0.01789084 -0.2252125 0.9741454 137 137 137
0.0377114288437326 -0.0128839735532806 0.0145203362239627 0.4272199 -0.2679344 0.8635359 166 166 166
0.0322435967552621 -0.0106825356031464 0.0145221690667895 0.01973954 -0.04767496 0.9986678 150 150 150
0.0347921721565683 -0.00986011071453552 0.0148734937442569 0.06136342 -0.03218605 0.9975964 143 143 143
0.0350702278244455 -0.00827748818645935 0.0147806744111804 0.03839834 0.007163522 0.9992368 156 156 156
0.0377114288437326 -0.010639381840329 0.0142286012901095 0.379564 -0.1732205 0.9088046 137 137 137
0.0368310682404001 -0.0078205589796112 0.014782030416849 0.1602537 -0.02246695 0.9868202 157 157 157
0.0306063167679269 -0.00729031605968933 0.0146332423223285 0.002133124 0.04288395 0.9990778 136 136 136
0.029695021353956 -0.00550921006451111 0.0145586322082309 -0.002098491 0.02917796 0.999572 115 115 115
0.0306959025490243 -0.00477285428295593 0.0143860320581225 -0.01282337 0.02376469 0.9996353 108 108 108
0.0316875450241525 -0.00617630524883728 0.0145190547241 -0.01663163 0.02439783 0.999564 103 103 103
0.0321045987236459 -0.00588775916347961 0.0146456251872805 -0.01205527 0.02567842 0.9995975 101 101 101
0.0317107312309701 -0.00541074319134216 0.014635283781412 -0.01743899 0.02114857 0.9996243 146 146 146
0.0269611351120431 -0.00254739566097717 0.0144382159246234 0.02122949 -0.0005710458 0.9997745 147 147 147
0.0288455359566171 -0.00263197465191345 0.01430873973501 0.009355714 0.008847229 0.9999171 136 136 136
0.0355104081261117 -0.00718529267559509 0.0144914130700854 0.03790276 0.008178789 0.999248 118 118 118
0.036769258223768 -0.00748808427105407 0.0147845934165744 0.19731 0.01713375 0.9801914 196 196 196
0.0326915256607492 -0.00300778193722229 0.0142778645290164 -0.02163107 0.007018476 0.9997414 118 118 118
0.0350007288086374 -0.00251055999050598 0.0146850089563159 0.008910026 0.01512096 0.999846 153 153 153
0.0374797455894906 -0.00498230500469665 0.0143581370843676 0.1794747 0.04289666 0.9828269 159 159 159
0.0359969608414132 -0.0027573232198761 0.0147218744291095 0.1146685 0.01544159 0.9932838 212 212 212
0.038128482543226 -0.0102626804853485 0.0139548520578174 0.3749143 -0.1615551 0.9128742 114 114 114
0.041279482089277 -0.00616569562206726 0.00815333826673306 0.9723718 -0.02019336 0.2325625 40 40 40
0.0416038505661447 -0.00519866986523132 0.00769570870530881 0.984304 -0.03233063 0.1734949 40 40 40
0.0392405860054452 -0.00847168011913757 0.0137134681476382 0.6667997 -0.05267936 0.7433727 84 84 84
0.017195420705076 -0.000927043392758176 0.0146855901016024 -0.003990066 0.008905603 0.9999524 161 161 161
0.0170680157768686 0.000771569774050906 0.0146994332803515 -0.02164505 0.01371241 0.9996717 167 167 167
0.0174155406582315 -0.00126327319393615 0.0143856446279315 -0.001978053 0.0001843555 0.999998 128 128 128
0.0190373532402475 8.44474290802033E-05 0.0146715532077578 -0.003129138 -0.003572112 0.9999887 175 175 175
0.0186821095573861 0.000839399859805301 0.0146777073873309 0.0002511587 0.007467018 0.9999721 153 153 153
0.0171607009994943 0.00330315785159607 0.0146693627370623 -0.03761823 0.01901716 0.9991112 143 143 143
0.0183422736751992 0.00210558132876892 0.0144567231668261 -0.01701671 6.139216E-05 0.9998552 150 150 150
0.0179252497780282 0.00302623467196961 0.0145628194345263 -0.02024995 0.01077426 0.9997369 131 131 131
0.0195934049713571 0.00367675976504822 0.0146657566560534 -0.003853521 0.01288059 0.9999096 145 145 145
0.022002982341047 -0.00104613347301941 0.0148491154445437 0.009673689 -0.01669379 0.9998139 79 79 79
0.0214469306099374 0.000958311126132205 0.0146976600421695 -0.001811306 0.0103432 0.9999449 130 130 130
0.0254319779503305 -5.22260213897674E-05 0.0148050676120547 0.01626231 -0.01039788 0.9998137 192 192 192
0.0248295538055856 0.000738071963687137 0.0145043621791629 0.01844112 -0.003170523 0.9998249 165 165 165
0.0255709759819467 0.00034789995898743 0.014571327997568 0.01490671 -0.012989 0.9998045 166 166 166
0.0229605905640085 0.00214784102191468 0.0144677947295932 0.009616446 0.01265405 0.9998737 169 169 169
0.0260343424904306 0.00254927830447693 0.0145731608403949 0.0005546306 0.005035568 0.9999872 200 200 200
0.0268684498894174 -0.000285995438198849 0.0144049714339999 0.02148141 -0.009424929 0.9997248 129 129 129
0.0283049218285043 -0.0012399081731842 0.014425654245737 0.005725326 -0.01571725 0.9998601 122 122 122
0.0270537607300241 0.00107161955585022 0.0145241211189059 0.004719696 -0.01780303 0.9998304 161 161 161
0.0300657026398141 -0.000399244263272092 0.0145784954561023 0.006820235 -0.01900837 0.999796 165 165 165
0.0319655410873849 -0.000787866547207638 0.0145103971494464 -0.02707355 -0.004406381 0.9996237 124 124 124
0.0324521534073312 -0.000984561874966428 0.0146789590848712 -0.02744368 0.001756492 0.9996218 190 190 190
0.0297877065765817 0.000851380393405154 0.0143308232558993 0.007038587 -0.02224243 0.9997278 155 155 155
0.0290925972092111 0.00341485695590515 0.0146309326423434 0.0002648404 0.008480852 0.999964 160 160 160
0.0289381615745981 0.00326524929751892 0.0145126174224643 0.002488637 0.01124936 0.9999336 159 159 159
0.0330313317406137 0.00166635470141907 0.014409203363779 -0.001405369 0.003448184 0.9999931 125 125 125
0.0366688243973214 -0.000555944874386594 0.0147236923707751 0.1724447 -0.04915698 0.9837918 156 156 156
0.0330313317406137 0.00330887989749451 0.0145184288753299 -0.003509407 0.004801544 0.9999823 146 146 146
0.0335410706627328 0.0026360626672699 0.0146297852529315 -0.003642745 0.008367159 0.9999583 127 127 127
0.0341666214096505 0.00201390938510437 0.0144834558500079 -0.004425994 0.01335019 0.9999011 133 133 133
0.0345141760933358 0.00314311938037415 0.0147628675235537 -0.001071343 0.009230581 0.9999568 143 143 143
0.0375724308121164 0.00395684199084778 0.0145021270049838 0.1634596 0.03193848 0.9860329 178 178 178
0.0188983254063089 0.00521104292621155 0.0146280269159106 -0.02080682 0.02060869 0.9995711 134 134 134
0.0241345040428598 0.00423370556582947 0.0146087001098422 0.004988184 -0.004014646 0.9999795 181 181 181
0.021029876910444 0.00704877333392639 0.0144666622413424 -0.01003017 0.01225222 0.9998747 171 171 171
0.0226980321037729 0.00840322928180237 0.0148559848798541 -0.002568268 0.009282365 0.9999536 180 180 180
0.0232540838348825 0.00650523857821961 0.0147305618060855 0.004941125 0.003247159 0.9999825 218 218 218
0.0262428991424997 0.0072706218217804 0.0145248810781268 0.01819095 0.009739215 0.9997871 164 164 164
0.0215396158325631 0.00988088803042908 0.0149050097001819 -0.006182812 0.01107292 0.9999196 172 172 172
0.0208213798630197 0.0116466756319 0.0144368301166324 -0.01347399 0.02342827 0.9996347 198 198 198
0.023068713389631 0.0107862229799225 0.0146175513995913 0.008048123 0.01412602 0.9998679 193 193 193
0.0254164807426889 0.0107054586862518 0.0143874625695971 0.02475883 0.0087885 0.9996548 157 157 157
0.0265672080147226 0.00503592447986145 0.0146498422158984 0.006879318 0.01211908 0.9999029 195 195 195
0.0285134188759286 0.00455896811236878 0.0146601687206057 0.007764765 0.008837423 0.9999308 150 150 150
0.0306449405777414 0.00513933853854676 0.0146430919898776 0.007348745 0.009705693 0.9999259 163 163 163
0.0372480623352487 0.00456731276263733 0.0146284590495852 0.06253293 0.02915304 0.997617 204 204 204
0.0294865243065316 0.00756888346423645 0.0141627977622775 -0.007043451 0.01440189 0.9998715 145 145 145
0.0314095489609201 0.0068586345170929 0.0144167582525042 0.01328121 0.01881627 0.9997348 153 153 153
0.0268220774757821 0.0090600128625824 0.0144185910953311 0.02113492 0.0130867 0.9996909 149 149 149
0.0289420358765085 0.00915925459613343 0.0144277106059817 -0.004101357 0.01506893 0.999878 138 138 138
0.0295097105133493 0.0118851538156464 0.0144316892160205 -0.0177695 0.01581951 0.9997169 159 159 159
0.0308071248161752 0.01086782173862 0.0144357125295428 -0.01350676 0.01317051 0.999822 136 136 136
0.0332784525978524 0.00798039393176575 0.0143159369958667 -0.009428901 0.002928789 0.9999512 156 156 156
0.0328923337089975 0.00893162445773621 0.0145204256309298 -0.01288042 -0.008345583 0.9998822 130 130 130
0.0353482238876779 0.00703887896289368 0.0146334509385852 0.02787007 0.02469256 0.9993065 239 239 239
0.0388235919105966 0.00796245293368836 0.0141934941543368 0.5075387 0.07622415 0.8582507 168 168 168
0.0325911514389474 0.0118110056375458 0.0144884328378466 -0.03051315 0.000735534 0.9995341 166 166 166
0.0340507499802072 0.0119788523172333 0.0149135927690295 0.007008704 -0.001496775 0.9999743 164 164 164
0.0366456977951486 0.011521684691806 0.0145903716815738 0.1532088 -0.01281175 0.9881108 153 153 153
0.0166972748863656 0.0136712069963409 0.0142736922038821 -0.001366512 0.019796 0.9998031 154 154 154
0.0169058017361123 0.0143767471765472 0.0144249836934832 -0.007452137 0.01769015 0.9998158 143 143 143
0.0206823222267587 0.0129694219087555 0.014817852808359 -0.01039268 0.02511536 0.9996305 185 185 185
0.0206939451324899 0.0135186787103607 0.0144030491842059 -0.01361965 0.0212808 0.9996808 182 182 182
0.0226864091980417 0.0130692596887543 0.0144375453723697 -0.002043788 0.01830404 0.9998304 165 165 165
0.0227907173263986 0.013619708583255 0.0145989547504214 0.0003413069 0.02117117 0.9997758 142 142 142
0.0224663488495309 0.0149804826234772 0.0144479016793994 0.003340639 0.0294346 0.9995611 209 209 209
0.0248064272034128 0.0133760447954132 0.014365617467287 0.0217515 0.0307132 0.9992915 160 160 160
0.0266830794441659 0.0132170792077972 0.0143690745366839 0.01224637 0.0260998 0.9995843 169 169 169
0.0150986187088449 0.0173418994401886 0.014356244636896 -0.003593619 0.01920514 0.9998091 153 153 153
0.0206823222267587 0.0191780801271393 0.0143299589885501 -0.002822861 0.03177479 0.9994911 182 182 182
0.0207981936562021 0.0171018715356781 0.0144964943660525 -0.004452351 0.02729793 0.9996174 179 179 179
0.0231845848190744 0.0192398901437714 0.014481697512987 0.006589029 0.02387792 0.9996932 203 203 203
0.0163034073936899 0.0191645498727753 0.0141231904758242 -0.0049507 0.02434991 0.9996912 144 144 144
0.0152144901382882 0.0211418147539093 0.0142694155706195 -0.002679258 0.02117063 0.9997723 143 143 143
0.0166393689739663 0.0208357449029877 0.0142738114131717 -0.008115221 0.0253241 0.9996464 178 178 178
0.0187593273746927 0.0217985387300446 0.0143207947744159 -0.009801575 0.02445488 0.9996529 188 188 188
0.0164733402359445 0.0258926625703766 0.0139579216970233 -0.003360593 0.02759165 0.9996136 144 144 144
0.0195934049713571 0.0237159605478241 0.0143352041972903 -0.004732847 0.02333374 0.9997165 160 160 160
0.0179252497780282 0.0254003878091766 0.0143707583678988 -0.008772348 0.02479199 0.9996541 179 179 179
0.0209928028213937 0.0211089129899933 0.0142269174588946 0.0007708543 0.02298269 0.9997356 173 173 173
0.0215396158325631 0.0224617596124603 0.0142093042863635 -0.001375459 0.02184254 0.9997604 165 165 165
0.0221882931816537 0.0246375675653412 0.0141366760267047 0.001593424 0.02474183 0.9996926 119 119 119
0.0248526804077585 0.0226085062478973 0.0142308960689334 0.004911486 0.01984044 0.9997911 101 101 101
0.0271116964447458 0.0236359711145355 0.0143819640411166 -0.004127424 0.0221523 0.9997461 156 156 156
0.0291003458130319 0.012983607814212 0.0143981318010119 -0.02087883 0.0180572 0.9996189 182 182 182
0.0305406920540292 0.0131100292657806 0.0143466184867648 -0.02537556 0.01166317 0.9996099 145 145 145
0.0291235320198495 0.0170606251214935 0.0143953452838687 -0.01012271 0.02313833 0.999681 166 166 166
0.0349311701881845 0.0132807369684174 0.0144964347614077 0.01548496 0.02162683 0.9996462 176 176 176
0.0327378980743844 0.0148914332841827 0.0143567959798602 -0.02033459 0.02749685 0.999415 118 118 118
0.0367846958267648 0.013913201854129 0.0146421085132388 0.2587311 -0.01100421 0.9658867 127 127 127
0.0371863119232614 0.0154006357644989 0.0143097530139712 0.33885 0.006934959 0.9408149 159 159 159
0.0309577457535226 0.0172601218675568 0.0142162035239962 -0.01753141 0.02121671 0.9996212 130 130 130
0.0321045987236459 0.0174302335237457 0.0142777900232104 -0.01579866 0.02932288 0.9994451 140 140 140
0.0352555982696969 0.0178604598497345 0.0141874293817309 0.05815259 0.02665183 0.9979519 148 148 148
0.0352555386650522 0.0159645553087189 0.0145706425441531 0.0606004 0.03763475 0.9974524 164 164 164
0.036244081698652 0.0175542707895233 0.0143216143382815 0.2383017 0.006881738 0.9711668 169 169 169
0.0305059425461252 0.0191697354768707 0.0143616686595706 -0.01105819 0.01090369 0.9998794 187 187 187
0.0328150860893686 0.0211531396364166 0.014204655124071 0.001878732 0.02844662 0.9995936 122 122 122
0.0285180084335763 0.0228026981805756 0.0142784605754641 -0.001078144 0.01842418 0.9998296 155 155 155
0.0313168041336496 0.023846017882724 0.0142592380775241 -0.0062859 0.009450652 0.9999356 134 134 134
0.0362749569046457 0.0191663380121185 0.0143099765313891 0.1551332 0.05101523 0.9865755 142 142 142
0.0354756586182077 0.0215653653596832 0.0142366181148318 0.0999017 0.0309055 0.9945172 165 165 165
0.0368541948425729 0.0216379638170197 0.0143149535192279 0.2282398 0.0420023 0.9726985 173 173 173
0.0385223500359018 0.0214226718400909 0.0140382389558581 0.358522 0.01860753 0.9333358 135 135 135
0.03300045653462 0.0235212917779877 0.0142163823379306 0.01072375 0.008311919 0.999908 135 135 135
0.0367846958267648 0.0252860064958527 0.0141290019286898 0.1954121 0.02975686 0.9802697 120 120 120
0.0351474158394296 0.0255126233552887 0.0142872820628909 0.1304747 0.01689028 0.9913077 182 182 182
0.0416037909614999 -0.00212390465984802 0.00776864988935269 0.993071 -0.04571703 0.1082588 36 36 36
0.041511165343519 -0.00111295027981262 0.00490613682401456 0.999925 -0.00568741 0.01084583 44 44 44
0.0413566701042611 -0.00282026572475891 0.00887318356168545 0.9745772 -0.05368539 0.2175251 63 63 63
0.0416501633751352 -0.000825775101284787 0.0102660249007968 0.9058606 -0.08413669 0.4151356 51 51 51
0.041279482089277 0.00271265463580628 0.00465669138562955 0.9986376 0.05169272 -0.007126813 57 57 57
0.0406538717377145 0.00568186001529236 0.00321709020269192 0.9964941 0.0445879 0.07079199 47 47 47
0.0414879791367013 0.00246154026736756 0.00335437460077084 0.9970617 0.04328316 0.06320145 57 57 57
0.0416964761841256 0.000938641593356326 0.0102548341287402 0.9053629 -0.06033283 0.4203308 50 50 50
0.0391942731964547 -0.000249577000241086 0.0140080343021182 0.4827141 -0.02689814 0.8753648 211 211 211
0.0391247741806466 0.0014616127466156 0.0141352753175525 0.5147725 -0.02614591 0.8569281 114 114 114
0.0382674805748422 0.00379674391498108 0.0145956466926364 0.3429938 0.01424774 0.9392296 212 212 212
0.0411636106598336 0.0070041890596344 0.0114739577306537 0.8860398 0.07486259 0.4575249 90 90 90
0.0410477988350351 0.00884966807117005 0.0092821459306506 0.9667446 0.04771359 0.2512534 67 67 67
0.0410246126282174 0.00922481970538636 0.0115316550267962 0.8791234 0.1066173 0.4645155 67 67 67
0.0412562958824594 0.00902371363391419 0.00287460191381253 0.9959895 -0.03919468 0.08042806 56 56 56
0.0413103572952707 0.0134603257631256 -0.000585104988691437 0.9897962 -0.02953687 0.1393955 95 95 95
0.041372107707258 0.0130579944108917 -0.00197791652548038 0.9864978 -0.03467599 0.1600617 77 77 77
0.0419127814400155 0.0136764522050812 -0.00162368612158023 0.9867397 -0.02782463 0.159908 70 70 70
0.0424378983604867 0.014308619067569 -0.00222560362684451 0.9893544 -0.01930272 0.14424 50 50 50
0.0413489811050851 0.0122335429643585 -0.000449727939245331 0.9893526 -0.04329589 0.1389488 59 59 59
0.0420393817055185 0.017256605193515 -0.000137623118040192 0.9882545 0.01339694 0.1522285 54 54 54
0.0405843727219064 0.00864385323276062 0.00580670340192593 0.9999056 0.0115868 0.007379668 37 37 37
0.0412331096756418 0.0125054593538239 0.0045165757669238 0.9975756 -0.02637298 0.06440049 66 66 66
0.0408160559761483 0.0116211052392914 0.00878993077409543 0.9948211 0.01909347 0.09983139 61 61 61
0.0417428485977609 0.0131239767526581 0.00667754216325558 0.9985643 0.01433006 0.05161397 57 57 57
0.0414184801208932 0.0162286038850739 0.000784982277276886 0.9893051 0.02315014 0.1440124 59 59 59
0.0406863562691171 0.0174492474054291 0.00542779667508878 0.9932474 0.07759947 0.0862426 74 74 74
0.041511165343519 0.014657842681308 0.00599605245721616 0.9973791 0.01556738 0.07065762 74 74 74
0.0403990618812997 0.0193371649240448 0.00546251638067044 0.9940925 0.06668196 0.08563601 60 60 60
0.0405226223099191 0.011150705382724 0.01187332375181 0.8209232 0.0252033 0.5704821 60 60 60
0.0401210062134225 0.0117640371774628 0.0128924439681796 0.6922419 0.004190391 0.7216533 96 96 96
0.0410168640243966 0.0131459112619354 0.0111548344625262 0.9126897 0.05038076 0.4055358 74 74 74
0.0410477392303903 0.0136343713258698 0.00925052566659726 0.9736301 0.04091483 0.2244333 58 58 58
0.0407465569603402 0.0152650948022797 0.00878076655996121 0.9730921 0.08617208 0.2136963 60 60 60
0.040839242182966 0.0164707775567963 0.0110280404819278 0.9060587 0.05708646 0.4192836 56 56 56
0.0404917471039254 0.0177672977899506 0.00718471808564938 0.9917138 0.08970554 0.0919608 57 57 57
0.0409551136124093 0.018086421058078 0.0104865918887881 0.9366328 0.05324238 0.3462431 76 76 76
0.0403990618812997 0.0230808134530975 0.0122376273406772 0.8349453 0.04430559 0.5485466 78 78 78
0.0425768963921029 0.0149718995546295 -0.0127561350332471 0.9996493 -0.001903327 -0.02641467 74 74 74
0.042484270774122 0.0134282584642365 -0.0101011504398557 0.9995121 -0.007042442 -0.03042794 60 60 60
0.0425768963921029 0.0131954427217438 -0.00831040339338504 0.9998472 -0.006515468 -0.01622273 52 52 52
0.0423800222504098 0.0175512309526398 -0.00632044272291385 0.999622 0.01766377 0.02106795 58 58 58
0.0419282190430124 0.0175536151384308 -0.0126544942127439 0.9998732 0.01592399 -0.0002236492 108 108 108
0.0425768963921029 0.019531356856723 -0.0128976662622663 0.9986029 0.0500095 -0.01706604 63 63 63
0.0421598426926095 0.0192400093530609 -0.00972210960256778 0.9991982 0.03965979 -0.005477597 49 49 49
0.042345213137861 0.0225435371850922 -0.0125645210014554 0.997638 0.06612315 -0.01860578 38 38 38
0.0420208446609933 0.0234151359056427 -0.0109807510839673 0.9972079 0.07007755 -0.02579864 40 40 40
0.0383138529884774 0.0422776813959076 0.00440285010469235 0.3638364 0.9048835 0.2209273 40 40 40
0.0204738251793344 0.0365427012895538 -0.0122105141149732 -0.2644941 0.9499845 -0.166049 28 28 28
0.0199640862572152 0.0365466948007538 -0.0111931820379468 -0.2644941 0.9499845 -0.166049 34 34 34
0.0160254113304574 0.0351760263894989 -0.00609902636873447 -0.296386 0.9501838 -0.09646821 25 25 25
0.0185276441204507 0.036102938220401 -0.00653324620592319 -0.3185947 0.9409752 -0.1142936 43 43 43
0.0183423034775216 0.0370685334657623 -0.00414572255480014 -0.3315118 0.9321563 -0.1455488 38 38 38
0.0225126616585214 0.0364770169710114 -0.0106694658266278 -0.2944955 0.9446929 -0.1443185 38 38 38
0.0220492951500375 0.0364118094896271 -0.00848471717703067 -0.2657119 0.950156 -0.1630976 28 28 28
0.0252002946960885 0.0377716894601776 -0.00992321567403995 -0.2879042 0.94293 -0.1673148 29 29 29
0.0256172887909372 0.03806428866138 -0.00639114873277866 -0.3204738 0.9286921 -0.1866212 33 33 33
0.0265440218079049 0.0389631863092377 -0.00646017091142856 -0.3036614 0.9361063 -0.1774677 30 30 30
0.0298340193855722 0.0396274204706146 -0.00821673469412051 -0.2983463 0.9401873 -0.1644305 20 20 20
0.0153998605835397 0.0267193789934113 0.0140562991632251 -0.004004098 0.02800084 0.9995999 136 136 136
0.0185044877159555 0.0275166507219269 0.0141808281673221 0.001698413 0.02096542 0.9997787 119 119 119
0.0204274527656991 0.0273848648523285 0.0141236673129825 0.004764664 0.02332107 0.9997167 135 135 135
0.0264977089989145 0.0258005137895538 0.0141370038522509 -0.004667011 0.01903051 0.999808 129 129 129
0.0278414957153756 0.0263175244783356 0.0141032676233081 -0.0131825 0.01270168 0.9998325 166 166 166
0.0304248802292306 0.027240621611972 0.0141676853431491 -0.01121795 0.01129927 0.9998732 166 166 166
0.0310851804840524 0.0260273094629242 0.0141118208898333 -0.007438474 0.007295612 0.9999457 120 120 120
0.0350084178078134 0.027187037036319 0.0142750035060672 0.149752 0.04268372 0.9878018 140 140 140
0.0147279374229867 0.0354879374956085 -0.00354425208437167 -0.310784 0.9457869 -0.09434231 35 35 35
0.0165042154419381 0.0356356378053619 -0.00212788181173526 -0.3676738 0.9211475 -0.127684 47 47 47
0.0173691980469186 0.0365605230783417 -0.000789891646978486 -0.3728406 0.9143367 -0.1580449 26 26 26
0.0186573736298044 0.0378222341989471 0.00155340535772122 -0.3677294 0.9213551 -0.1260152 35 35 35
0.0212152473556955 0.0375789876436188 -0.00396094815599643 -0.2907139 0.9345919 -0.2049962 29 29 29
0.0215859286415536 0.0378282542680695 -0.00045723812448703 -0.3069809 0.9391335 -0.1542437 40 40 40
0.0223736636269052 0.0383182044481232 -0.000904496477720368 -0.287449 0.9445946 -0.1584745 47 47 47
0.0208445064651925 0.0387475367044403 -0.00228234724867069 -0.3144641 0.9274404 -0.2024022 37 37 37
0.021863924704786 0.0384908791040375 -0.00207870797979556 -0.2955084 0.9360963 -0.1907838 39 39 39
0.0239028207886178 0.0388675804590179 -0.00235245721208774 -0.2603192 0.9492676 -0.1764224 27 27 27
0.0244588725197274 0.0395724649881317 -0.000778626369115937 -0.243128 0.9621013 -0.1234905 37 37 37
0.0152839891540963 0.036446320578952 0.0028725008500842 -0.328102 0.9276907 -0.1781544 49 49 49
0.0185739867317636 0.0377705569719269 0.007894818021181 -0.270572 0.9471626 0.1722609 47 47 47
0.0174155406582315 0.037762033507724 0.00521645350587643 -0.3285701 0.938488 -0.1062166 25 25 25
0.0188983254063089 0.0387235756372406 0.0065866897834567 -0.3317414 0.9432534 -0.0148555 30 30 30
0.0214932434189279 0.0392560835336639 0.00488022370469846 -0.2881148 0.9550019 -0.07043622 50 50 50
0.0213078729736764 0.039517449901004 0.00665951175821103 -0.2977272 0.9546387 0.004850693 42 42 42
0.0235320798981149 0.0392729516481354 0.00513869924676694 -0.2599189 0.9608222 -0.09624387 47 47 47
0.0241963140594919 0.0398269172166779 0.00556639237535275 -0.2599189 0.9608222 -0.09624387 43 43 43
0.0257099740135629 0.0406180496667816 0.0015621672405032 -0.2247414 0.9692892 -0.09984857 18 18 18
0.0266367666351754 0.0402154202913239 0.00303171975744046 -0.2129886 0.9708614 -0.1098363 26 26 26
0.0318265430557687 0.0405057545160248 -0.0065295954214307 -0.3038874 0.9407073 -0.150739 28 28 28
0.0311778657066781 0.0406239505266144 -0.00439831213819705 -0.3088688 0.9482722 -0.07334796 41 41 41
0.0329850189316232 0.0414520378564789 -0.00316474931108676 -0.2957764 0.9547842 -0.03005959 27 27 27
0.033680068694349 0.0412681575273468 -0.00375499920713626 -0.2919326 0.9562572 -0.01864013 46 46 46
0.0341897480118234 0.0416675682519867 -0.0025661845670911 -0.2750797 0.9613268 -0.01348991 50 50 50
0.0321277849304635 0.0408952112649872 -0.000397618578550446 -0.2318083 0.9721638 -0.03409575 41 41 41
0.0273318163979013 0.040266859099765 0.00509466631543912 -0.1871187 0.9773161 -0.09919568 27 27 27
0.0262660257446725 0.0398034925912811 0.000535417629602325 -0.2391291 0.965068 -0.1070563 25 25 25
0.0294170252907235 0.0403878565286591 0.00153564317357816 -0.2019974 0.9780737 -0.05068364 26 26 26
0.0309461228477914 0.0402242417787506 0.00125559075010098 -0.2036165 0.9780427 -0.04441525 42 42 42
0.0302047602760751 0.0404836411928131 0.000138033462884796 -0.2178138 0.9745314 -0.05334613 44 44 44
0.0311315528976877 0.0411196823572113 0.00352307064664639 -0.1924571 0.9809543 -0.0262476 29 29 29
0.0334252588379342 0.0409259672616913 0.00309960944783963 -0.2051189 0.9787072 0.007643 32 32 32
0.0433646313774545 0.0156618233179047 -0.00376753108370029 0.9934393 -0.0003884943 0.1143603 59 59 59
0.0422525279152353 0.0188088889574005 -0.00614286558496677 0.9989833 0.04404907 0.009589853 63 63 63
0.0424610845673044 0.0170485849832489 -0.00240426854955875 0.9935326 0.00629661 0.1133723 46 46 46
0.0419050328361947 0.0197123761629059 -0.00184072153436862 0.9901983 0.01192721 0.1391586 57 57 57
0.0419745318520028 0.0203338737939789 -0.00504819648134433 0.9986907 0.03827858 0.03393683 58 58 58
0.0420208446609933 0.0247471209024384 -0.00934394793379031 0.9949653 0.09793404 -0.02128395 40 40 40
0.0416964761841256 0.025898384616275 -0.00856756763326846 0.9940573 0.1071756 -0.01906591 43 43 43
0.0423915855514962 0.0237067814325287 -0.0039598007665845 0.9967088 0.05460194 0.05991874 42 42 42
0.0422062151062448 0.027033912703891 -0.00644032256471835 0.9925755 0.1188337 -0.02592978 69 69 69
0.0425768963921029 0.0262535090898468 -0.00630637602674686 0.994639 0.1009038 -0.02261994 67 67 67
0.0420672170746286 0.0214867468332245 -0.00201873080599033 0.9874541 0.04316252 0.1518925 56 56 56
0.0422525279152353 0.0250716085885956 -0.00309352176058017 0.9948069 0.07058386 0.07332834 49 49 49
0.0418355338203866 0.02628450350513 -0.00487549202310764 0.9943105 0.1056198 0.01382375 70 70 70
0.0420903436768014 0.0256519194101288 -0.00072240428793155 0.9841825 0.07303929 0.1614005 67 67 67
0.0416269771683175 0.0273671622728302 -0.00196602539884769 0.9894488 0.1015979 0.1032903 42 42 42
0.0417428485977609 0.0259200211023285 -0.0111025382744046 0.9945922 0.09976935 -0.02885168 50 50 50
0.0417428485977609 0.0272353764032318 -0.00940237538683139 0.9941663 0.1056078 -0.02191869 74 74 74
0.0411867968666513 0.0286680336450531 -0.0116347630487653 0.9970019 0.07703642 0.007257535 73 73 73
0.0412215463745553 0.0313803430055573 -0.00841623144018375 0.9984534 0.05293643 0.01698637 70 70 70
0.0422525279152353 0.034261273906131 -0.0121655871139737 0.9835029 0.1031252 -0.1486177 55 55 55
0.0416501633751352 0.0280880804513886 -0.00619756774770938 0.9941951 0.1040639 -0.02732824 70 70 70
0.041511165343519 0.0281954880212738 -0.00518700079786502 0.9938195 0.1109746 -0.002710444 67 67 67
0.0414184801208932 0.0312667961572601 -0.00617639319765292 0.9991105 0.04213762 -0.001626829 56 56 56
0.040306376658674 0.0359533305620148 -0.0107391734586927 0.9108022 0.2354214 -0.3391402 71 71 71
0.0414647929298837 0.0368623013948395 -0.00826489524709903 0.9827914 0.1448805 -0.1145897 59 59 59
0.041372107707258 0.0366170282815887 -0.0059749294983121 0.9995053 -0.01046401 -0.02965912 59 59 59
0.0415111057388742 0.0396203871225311 -0.00625381963121616 0.9401107 0.3021733 -0.1577442 42 42 42
0.0404453746902902 0.0220923300241425 0.0056774507297305 0.9946888 0.06396044 0.08064298 27 27 27
0.0405534975159128 0.0234293218110992 0.00484267277848996 0.9891608 0.02631547 0.1444593 58 58 58
0.0404917471039254 0.0218298311685516 0.00706516606939114 0.9953112 0.05496584 0.0795885 38 38 38
0.0404917471039254 0.0250764365648224 0.00398765905034817 0.9880564 0.03936526 0.1489797 72 72 72
0.0407002441513498 0.0230873699640228 0.00724277300966061 0.9954815 0.05242147 0.07917463 44 44 44
0.0400283209907968 0.0279400225137665 0.00650065047872342 0.9963637 0.05969433 0.06079433 59 59 59
0.0394259564506967 0.0277683015321686 0.00418594880235471 0.9862455 0.06143888 0.1534445 86 86 86
0.0398430101501901 0.0288790936922028 0.00673015816343106 0.9976605 0.03633438 0.05790925 69 69 69
0.0407234303581674 0.0321499581788971 0.00259195668828763 0.9808937 -0.1013078 0.166085 54 54 54
0.0397502653229196 0.0312198276971771 0.00568455858361996 0.9932672 -0.06237327 0.0976214 66 66 66
0.0399588219749887 0.0310998435472443 0.00575466854703702 0.992752 -0.05810102 0.1052036 62 62 62
0.0401210062134225 0.0332481737588837 0.00382864875924863 0.985909 -0.1216054 0.1148723 44 44 44
0.0396576397049386 0.0331583495592072 0.00404216749799527 0.9835334 -0.1224009 0.132966 86 86 86
0.0405380599129159 0.0284951205705597 0.00864498717916287 0.9944488 0.04887362 0.093182 31 31 31
0.0394722692596872 0.0264564033006622 0.0124121199382571 0.8510192 -0.02444743 0.5245652 84 84 84
0.0401210062134225 0.0272849674676849 0.0119012038244037 0.8505223 -0.0445627 0.5240477 90 90 90
0.0391479007828195 0.026200639769931 0.0139032195342807 0.5372018 0.008490921 0.843411 100 100 100
0.0399820081818063 0.0295182342981293 0.012233231498125 0.8596514 0.07910126 0.5047201 75 75 75
0.0402600042450387 0.0326552863573029 0.00492641730439938 0.9903008 -0.08918568 0.106537 53 53 53
0.0407697431671579 0.0349793310617401 0.00712846620214261 0.9840434 -0.1415008 0.1078704 53 53 53
0.040074693404432 0.0357572312807037 0.00982243223321713 0.9661703 -0.1026397 0.2366013 100 100 100
0.0408160559761483 0.0326683993791534 -0.000286932753202546 0.9920213 -0.06546102 0.1077428 87 87 87
0.0413952939140756 0.0317240829919769 -0.000754888819334137 0.9925296 -0.05304443 0.1098694 35 35 35
0.042484270774122 0.0361667151903107 -0.00109646813738071 0.9961097 -0.08352373 0.02809489 51 51 51
0.0424687735664804 0.0372887726282074 -0.000768150852796662 0.9997306 -0.02320254 0.000635075 52 52 52
0.0413489811050851 0.0381719346498444 -0.00505871670114719 0.9770412 0.1631288 -0.1370378 61 61 61
0.0413443319427926 0.0392729516481354 -0.00467156963216983 0.9330862 0.3318056 -0.1387629 54 54 54
0.0414184801208932 0.0403227682565643 -0.00583234028684818 0.8928245 0.4258936 -0.1465575 53 53 53
0.0410477988350351 0.0432371373628571 -0.00222204224931918 0.5925776 0.8045347 -0.03969533 62 62 62
0.0410477988350351 0.0344421740030243 0.00366774602067746 0.9736168 -0.165423 0.1571803 57 57 57
0.0410014264213998 0.037350701854129 0.00368576152456082 0.9873443 0.06723148 0.1436354 60 60 60
0.0415266029465158 0.0395365233873322 0.00366092128885068 0.9395992 0.2999187 0.164931 66 66 66
0.040839242182966 0.0367925639604523 0.00690985126626767 0.9887066 -0.0549101 0.1394418 55 55 55
0.0411867968666513 0.0359350915407135 0.0064985196126727 0.98195 -0.1322431 0.1352251 38 38 38
0.0409087411987741 0.0388198371385529 0.00583278043401517 0.9453717 0.2716225 0.1802598 43 43 43
0.041140424453016 0.0430249448274567 -0.000380735562917817 0.5793745 0.8114637 0.07649699 62 62 62
0.0384065382111032 0.0427973742937042 0.003455240560892 0.3602704 0.9228374 0.1362953 36 36 36
0.0311314932930429 0.0397671933626129 -0.00862042205202304 -0.3020948 0.9409187 -0.1530058 56 56 56
0.0345604889023263 0.0400419111703827 -0.0117325891720029 -0.04301742 0.8870323 -0.459699 47 47 47
0.037155377112623 0.041091370150943 -0.0110845674740049 0.1721315 0.9038587 -0.3916761 44 44 44
0.0356262795555551 0.0414147849534943 -0.00883169071542941 0.04288672 0.9730434 -0.2265995 36 36 36
0.0351628534424264 0.0418575282548859 -0.00522636966573917 -0.04678743 0.9837126 -0.1735525 36 36 36
0.0412331096756418 0.0392002935861542 -0.0121397932039472 0.8467003 0.4479093 -0.287186 62 62 62
0.0407697431671579 0.0408884163354828 -0.0127638240324231 0.7288722 0.5873023 -0.3518825 79 79 79
0.0409396760094125 0.0428917880510284 -0.00645672874319278 0.4462422 0.889387 -0.09929118 48 48 48
0.0391479007828195 0.0433010335420563 -0.00633804099428378 0.331357 0.9331537 -0.1393799 61 61 61
0.0237174503433664 0.0390120621179535 0.0138778130544452 -0.09693661 0.6495294 0.7541319 109 109 109
0.0181105904209573 0.0284955378030731 0.0140650908483294 -0.003651651 0.02332224 0.9997213 128 128 128
0.0245978705513437 0.0312871809457733 0.0138830880655078 -0.01009493 0.01372473 0.9998549 124 124 124
0.0189910106289346 0.033008443877597 0.0141654203666476 -0.03606299 0.08893514 0.9953843 106 106 106
0.0201957695114572 0.0334870095704987 0.0140199850333957 -0.00962467 0.07782535 0.9969205 161 161 161
0.0191647879707773 0.0352205510591461 0.01393291754854 -0.1533261 0.4277525 0.8907968 99 99 99
0.015840040885206 0.0371519203638031 0.0105102549327639 -0.1828399 0.8817583 0.4348239 60 60 60
0.0178325645554025 0.0346560354684784 0.0139541666044024 -0.1283667 0.376328 0.9175507 130 130 130
0.0204043261635263 0.0356649036859467 0.0138208906186847 -0.1511613 0.4341992 0.8880435 125 125 125
0.0229644648659189 0.0354290481065704 0.0139452855123309 -0.06814805 0.2112981 0.9750431 124 124 124
0.0249222390282113 0.0339889402841522 0.0139145742191104 -0.01094063 0.01445993 0.9998356 117 117 117
0.0226362816917856 0.0374300356363251 0.0139255712760714 -0.1346395 0.4360965 0.8897707 129 129 129
0.0270537607300241 0.0311394210313751 0.0140588472617892 -0.0194366 0.01487263 0.9997005 143 143 143
0.0289443604576547 0.0313006515954926 0.0140898714793948 -0.02198697 0.0120875 0.9996852 160 160 160
0.0308998100388009 0.031460809276004 0.0141802917255191 -0.01381145 0.01719248 0.9997568 140 140 140
0.0331935159790475 0.0310771937822296 0.0141667316688327 0.02508405 0.033498 0.9991239 136 136 136
0.0338654391396005 0.031714248225589 0.0140628854764727 0.09926134 0.03553409 0.9944267 107 107 107
0.0372480623352487 0.0308951015924408 0.0141121636165408 0.2437897 0.02222789 0.9695734 127 127 127
0.027517127238508 0.0324780221437408 0.0139923433793811 -0.01835837 0.01342467 0.9997413 149 149 149
0.0326760880577524 0.033125209376712 0.0141508768333224 0.02864453 0.02234788 0.9993398 179 179 179
0.0267757646667917 0.0355683441614105 0.0140919576419619 -0.03305672 0.06833415 0.9971147 133 133 133
0.0271742813217599 0.0373284693216278 0.0140457193387774 -0.05353479 0.2748494 0.9599957 144 144 144
0.029023098193403 0.0368808384393646 0.0139959941638736 -0.02729509 0.1899145 0.9814211 133 133 133
0.0267603270637948 0.039246785209079 0.0139732549918918 -0.1769939 0.5672824 0.8042784 142 142 142
0.0313014261352975 0.0372032995675995 0.0140580425990847 -0.004532167 0.1852306 0.9826846 143 143 143
0.0315176121818979 0.0394590969537689 0.0139386395944384 0.02052169 0.4477284 0.8939341 131 131 131
0.0345025531876046 0.0373410459016754 0.0138881097568301 0.1034837 0.2845716 0.9530531 185 185 185
0.0348501078712899 0.038835453555484 0.0140346775783328 0.1144972 0.380231 0.9177771 133 133 133
0.0364912621605356 0.0390799518083527 0.013963360620859 0.2932058 0.3662495 0.8831148 127 127 127
0.0216322414505441 0.0389554973100616 0.0091881792081622 -0.3280994 0.9152008 0.2340049 34 34 34
0.0226053468811471 0.0395623918031647 0.00894093914163388 -0.3298318 0.919952 0.2118947 49 49 49
0.0248990528213937 0.040788042113681 0.0111765305532245 -0.2752937 0.8663166 0.4167841 60 60 60
0.0307839386093576 0.0417806382631256 0.011589441729906 -0.06731974 0.7868744 0.6134303 55 55 55
0.0365993253815133 0.0418932910417511 0.00806212825906552 0.3743377 0.897259 0.2340888 60 60 60
0.0330313317406137 0.0418186064218475 0.0110574106706408 -0.001089026 0.8873535 0.4610884 36 36 36
0.036089646064039 0.0424619193529083 0.0104132334722308 0.2322768 0.8692924 0.4363236 52 52 52
0.0381748549568612 0.0296562190507843 0.0140309522880343 0.4025281 0.03026856 0.914907 233 233 233
0.0396345131027658 0.0315634484743073 0.0130240063203601 0.6370171 0.00869795 0.7708006 93 93 93
0.0385455362427194 0.0324506040071442 0.0129350016845492 0.5950894 0.0312169 0.803053 86 86 86
0.0408623687851388 0.0372016306375458 0.00999822123182095 0.9216637 0.2188611 0.3203683 48 48 48
0.0389625899422128 0.0361664767717316 0.0132326672805575 0.6532847 0.1155248 0.7482467 66 66 66
0.041279482089277 0.0394393678163483 0.00944216950071133 0.8519876 0.4282665 0.3011726 55 55 55
0.00433763479031901 0.0336343465497593 -0.000326979882158657 -0.2838778 0.9555147 -0.08003175 57 57 57
-0.0245395529715312 -0.0350372184697714 -0.00402128152486844 0.02119801 -0.9900342 -0.1392225 73 73 73
0.0158255253832463 -0.0188520112742236 0.000923011970926646 0.3492534 -0.8716482 0.3438771 46 46 46
-0.0222031731239009 0.0165523311834399 -0.0146567452988224 -0.1782465 0.1735797 -0.9685547 132 132 132
0.0420053571184678 0.00574412421444848 -0.0143996041475537 0.9643309 -0.07011779 -0.2552439 143 143 143
0.0064449454627028 0.0353799803673247 0.00824941214851294 -0.3942699 0.9173241 -0.05538822 51 51 51
-0.00934978691914667 -0.00102810960689526 -0.0144328001928182 -0.03310601 -0.0568361 -0.9978345 235 235 235
-0.0310372773384003 -0.0176282222828261 -0.0129209986238071 -0.02564772 -0.04053217 -0.998849 161 161 161
0.00133819653586809 -0.0287342725131279 0.00811302136592021 0.6687794 -0.739054 -0.08082827 95 95 95
0.0408883257722602 0.0263851369311403 -0.0109545633993534 0.9890899 0.1249065 -0.07809971 169 169 169
-0.0274287023878421 -0.00101685325313916 -0.0138410658297787 -0.04040139 -0.04212984 -0.9982949 234 234 234
0.0185374268568497 -0.0216276353467062 -0.0139599416230981 0.05115992 -0.4677907 -0.8823574 185 185 185
0.0413310108805849 0.0410093377988245 -0.0017431903927779 0.8209482 0.5678776 -0.05965748 153 153 153
0.0406528199764852 0.0230754504411447 0.00761067038634064 0.9982762 0.05015454 -0.03048223 151 151 151
0.0417232473337563 0.0223589183431031 -0.00723607088863212 0.9988157 0.03641362 -0.0322683 158 158 158
-0.0298056280472124 -0.0120209502506732 -0.0132005000590172 -0.0366964 -0.05092969 -0.9980278 236 236 236
-0.00414870052490002 0.0291448731981966 -0.00330964406729523 -0.4404144 0.8970259 -0.03714282 34 34 34
-0.0294627636862634 -0.0189291371974536 -0.0128175624597239 -0.01770948 -0.05062944 -0.9985605 126 126 126
