ply
format ascii 1.0
comment File exported by Rhinoceros Version 7.0
element vertex 469
property float x
property float y
property float z
property float nx
property float ny
property float nz
property uchar red
property uchar green
property uchar blue
end_header
-0.0180854457192088 0.037333722378933 -0.000441303614537814 -0.06983388 0.9941075 -0.08290617 83 83 83
-0.0317494842312951 -0.0245200440624123 0.00859160113829671 -0.06005294 -0.149951 0.986868 186 186 186
-0.0570543569976979 0.0033142521640892 0.0118103511025315 -0.09187891 -0.1697878 0.9811882 99 99 99
0.0580059154126019 0.0208833172580833 0.00197227070959288 0.5845386 0.1676946 0.793847 90 90 90
0.0368481690425903 0.038189525868618 0.00537763667583879 0.001236506 0.9560727 0.2931271 37 37 37
0.026745087857716 -0.0412160203197364 0.0065534711986906 -0.04326249 -0.1639645 0.9855171 53 53 53
-0.0253250919077135 -0.0293514177539711 0.00774304225761679 -0.08279176 -0.1533309 0.9847006 165 165 165
0.0595206786788243 -0.0425760194995765 0.00705546171466942 -0.05461268 -0.1463765 0.9877203 116 116 116
-0.0216640647723413 0.00582670715066147 0.0127915130088033 -0.06133195 -0.1300333 0.9896109 136 136 136
-0.0645154331319954 0.0228999808094139 0.0110729333649246 -0.2610025 0.2698872 0.9268433 61 61 61
-0.0056782714165805 -0.0324584886768227 0.007287069831451 -0.07490995 -0.1281107 0.9889268 129 129 129
-0.0312759471232611 0.0174530699512596 0.013687624447462 -0.1256942 0.03990683 0.9912661 66 66 66
0.0156309461911092 0.0357612326404686 -0.0145334979474908 0.04946904 0.9877519 -0.1479829 17 17 17
0.00634732219894407 0.0365971281787987 -0.0157415523637535 0.02635033 0.9957994 -0.08768851 56 56 56
-0.0252224692332442 0.00929951217385483 0.0132338709497863 -0.07984881 -0.1343263 0.9877148 112 112 112
-0.0422427037536549 -0.025003080103672 0.00767279555720973 -0.08421587 -0.1487093 0.9852884 198 198 198
0.00530368555508898 0.0393648102542992 0.00698583213685194 0.1720681 0.9848958 -0.01931101 33 33 33
-0.0189271423895877 -0.0389226124027137 0.00621599880754597 -0.05568751 -0.2376623 0.9697502 50 50 50
-0.00319312656943938 0.0399541809818382 0.00287523715804094 -0.1337632 0.9735287 -0.1853352 46 46 46
0.00157934471392163 0.00969075706216049 0.0135294702970929 -0.07498322 -0.1188461 0.9900773 105 105 105
-0.0422801328879935 -0.0280209824779396 0.00746298413706303 -0.08767599 -0.1516662 0.9845356 225 225 225
-0.0416088541096681 0.00783562209817124 0.0128774744941297 -0.06067741 -0.1463729 0.9873668 231 231 231
0.000427714017927183 0.0382648661396141 -0.00582908142359731 -0.04600018 0.9695293 -0.2406178 41 41 41
0.0539102266397398 -0.0179255053737526 0.0100606619644393 0.2477071 -0.01970649 0.9686345 109 109 109
0.0178980306723269 -0.0366575762966042 0.00741002603600927 -0.06299523 -0.1475363 0.9870484 78 78 78
0.0246026966195189 -0.0359765932300453 -0.00440533520284966 0.2717299 -0.6151831 -0.7400761 18 18 18
-0.0156951199546398 -0.00460160228995132 0.0113782141065242 -0.06789092 -0.1435077 0.9873177 144 144 144
-0.0157047008686355 0.0247876599094505 0.0153397992343028 -0.08744232 -0.1301826 0.9876266 144 144 144
-0.0294716824559723 0.0315264418384666 0.0130934885666513 -0.10847 0.04867934 0.9929072 64 64 64
-0.00238167869064532 0.0390816881916161 -0.00156484565276355 -0.1554118 0.9602673 -0.2318057 42 42 42
0.0278702502872332 -0.00999474975851822 0.0113490616771074 -0.06843773 -0.1448612 0.9870823 110 110 110
0.0183537469401295 -0.0108010813930397 0.0109353263251256 -0.06516705 -0.1530681 0.9860646 129 129 129
0.0258546330598237 -0.00292766544607925 0.012242694806443 -0.07941803 -0.1322032 0.988036 115 115 115
0.0141032270165125 -0.0088474795558815 0.0112884057958408 -0.07052851 -0.1525607 0.9857743 219 219 219
-0.069519753948372 0.0174411490223045 0.0118340045964696 -0.1723439 0.2725542 0.946579 57 57 57
0.058247313283051 0.0169566824695702 0.00215099229359506 0.5993495 0.1435943 0.7875029 87 87 87
-0.0174216304994674 0.0253033592960472 0.015330659033519 -0.1191696 -0.1075967 0.9870266 128 128 128
0.0422246610957528 -0.022824649546421 0.00957543002198374 -0.08675811 -0.1391529 0.9864631 140 140 140
0.00790246115075288 0.0390702440998192 0.0043835638702911 0.1795662 0.9831799 0.03336714 43 43 43
0.0340678834314257 -0.0317760750987892 -0.00339393116429904 0.3941826 -0.5008079 -0.7705917 18 18 18
-0.0179748234199937 -0.0279579207637672 0.00800480693014644 -0.0864552 -0.1379343 0.9866608 101 101 101
-0.0395810239044777 0.0199152186176415 0.0130128335282866 -0.01846388 0.0978329 0.9950315 190 190 190
-0.0281122623875975 -0.0297210261562233 0.00734765730188902 -0.06200403 -0.1415914 0.9879814 126 126 126
-0.00609799417544488 -0.0344838545062904 0.00754855122096204 -0.06673568 -0.1276374 0.9895732 105 105 105
-0.0375056510708888 0.0323762848636742 0.00130791362571786 -0.3055865 0.9322326 -0.1938021 87 87 87
0.0156940868337409 -0.0425390050151709 0.00652667796767131 -0.07197704 -0.3136003 0.9468232 112 112 112
0.012435422740107 0.0303069308063622 0.0163672699995975 -0.05610329 -0.07748661 0.9954136 104 104 104
-0.0212866333822278 0.0360401823780174 -0.00434086914845433 -0.1297196 0.9790537 -0.1569289 61 61 61
-0.0235067390929832 -0.0242762610652809 0.00891687241309924 -0.08546709 -0.1520675 0.9846679 104 104 104
-0.00225875570109502 0.0370955422184105 -0.00963592719809056 -0.02277458 0.9884068 -0.1501111 47 47 47
-0.065628532455089 -0.00653446171072769 0.0101319047288212 -0.09925444 -0.1403876 0.9851091 134 134 134
-0.031230640029778 -0.0181965872981911 0.00913783068452861 -0.07388631 -0.1033052 0.9919016 108 108 108
-0.0355491004685552 0.0293282225391502 0.0123943315941158 -0.1070811 0.04658655 0.9931583 113 113 113
-0.0361790612482752 -0.0367020413616066 0.00641694688320876 -0.1681801 -0.2290848 0.9587678 134 134 134
0.00737146949183987 -0.0337621018627052 -0.00792543755474437 0.08264583 -0.6153256 -0.7839286 41 41 41
-0.00784956077206478 0.0316733076831932 0.0154092362290646 -0.118971 0.005656887 0.9928816 65 65 65
0.036394559927869 -0.0304911181667213 0.0084933090361945 -0.08881019 -0.1476057 0.9850509 80 80 80
-0.0142495164034875 -0.0148464486339455 0.00970470816622326 -0.08381051 -0.1164753 0.9896511 49 49 49
0.0338676846589557 -0.0265078589656715 0.00923237175200337 -0.0812422 -0.1301578 0.9881592 93 93 93
-0.0101151493543167 -0.024514798853672 0.00859507977070967 -0.07917494 -0.142679 0.9865972 222 222 222
-0.0414673335273951 0.0313885166904564 -0.00274077588168309 -0.1635696 0.981326 -0.1012142 79 79 79
-0.0348721104184276 -0.0211514279582863 0.00928563203272587 -0.1055364 -0.1156987 0.9876618 146 146 146
-0.011093192539447 0.0188668921253319 0.014432975307177 -0.080322 -0.1153561 0.9900714 101 101 101
-0.0720764650500677 0.00536560561867905 0.0116742270229549 -0.07826698 -0.1396037 0.9871095 123 123 123
-0.0118358186481656 0.0266501858493919 0.0154684526037353 -0.07231522 -0.1101839 0.991277 143 143 143
0.0088401693318968 0.0171209528705711 0.0144236834480075 -0.05333668 -0.110336 0.9924622 96 96 96
-0.00284616605289445 -0.0439091369846228 0.0060830192106856 0.004676093 -0.5940208 0.8044361 31 31 31
0.0366147874038083 0.0235921099445457 0.015547068652845 0.06932407 -0.04938702 0.996371 146 146 146
0.0161466631333824 -0.0294696137645607 0.00833089307987056 -0.06657383 -0.1204629 0.990483 101 101 101
0.0166266888034952 0.0370998337528343 -0.0125687442304116 0.02639969 0.988188 -0.1509551 26 26 26
-0.0498723298507889 0.0229713871738548 0.0124275665510773 -0.1209656 0.01379058 0.9925609 61 61 61
-0.0453821648566656 0.0178880646488304 0.0134334885423336 -0.09145111 0.05203914 0.9944489 168 168 168
-0.0306463057913953 -0.0330017254093056 0.00686806176679883 -0.06280734 -0.1458672 0.9873084 40 40 40
0.0139139671061933 -0.0322210237720375 0.00789010103752225 -0.08688536 -0.1400952 0.9863185 55 55 55
-0.0301524922816042 -0.00662935230521011 0.0107421348455856 -0.0603526 -0.1306729 0.9895869 55 55 55
-0.0457089911836103 0.0154217436573143 0.0134368670421116 -0.08247288 -0.01367046 0.9964995 120 120 120
0.0122066224248681 -0.00315857383993912 0.0119546347724916 -0.08058704 -0.1375301 0.9872139 222 222 222
0.0194585247552851 -0.0394519612529639 -0.000663926373270729 0.3123016 -0.9161453 -0.2512879 33 33 33
-0.00790257675080841 0.00319003608437729 0.0124560809076266 -0.08563213 -0.1262172 0.9882997 106 106 106
0.0343517288594014 0.0307339384815331 0.0161657891480234 0.1275418 0.09687477 0.9870909 161 161 161
-0.0182345148855472 -0.025638107989109 0.00837046752408244 -0.07169569 -0.1465309 0.9866045 117 117 117
-0.0822046147235779 -0.00750506374625015 0.00874857431786513 -0.6398082 -0.04664645 0.7671177 114 114 114
-0.0174927342389084 -0.030707483027256 0.00775784643132016 -0.08767425 -0.1432236 0.9857993 125 125 125
-0.0200455736483097 -0.0305374905803566 0.00769866648890954 -0.07902849 -0.1376721 0.9873201 138 138 138
0.019879927711094 -0.0205740973689919 0.0098998462174219 -0.07668317 -0.1405108 0.9871051 222 222 222
0.0368268728109369 -0.0123587891795998 0.011208843638735 -0.0628388 -0.1354928 0.9887836 150 150 150
0.0628520346720891 -0.0105267808177834 0.00197169723313018 0.5279661 0.3137182 0.7891975 109 109 109
0.000214157477535282 0.000927443768703462 0.0121768332390987 -0.08530943 -0.1410212 0.9863241 137 137 137
0.0523376058294746 0.0156273796817894 0.00693681289795617 0.5186188 0.1288033 0.845248 97 97 97
-0.015657729437132 0.0313630059024925 0.0156378030681164 -0.1115234 0.1205277 0.9864257 78 78 78
-0.0777848241547882 -0.0130898997524147 0.00890433833409904 -0.1169951 -0.1611672 0.979968 139 139 139
0.0584590547640484 -0.0401806876399878 0.00764192295267824 -0.06312442 -0.1505125 0.9865907 129 129 129
0.0103059920686124 0.00983428504677963 0.013842912782693 -0.09722006 -0.1407186 0.9852647 108 108 108
0.0102054249766751 -0.0428985998371009 0.00632776165591625 -0.1246927 -0.4677291 0.8750321 102 102 102
0.062235703293706 0.0157979681751366 -0.00115376513880822 0.6546361 0.06839726 0.7528436 69 69 69
-0.0599497560059336 -0.0318781182506447 0.0058358619599011 -0.1898523 -0.2509802 0.9491918 62 62 62
0.0382703784213719 -0.0368790671565894 0.00751809947710108 -0.08199692 -0.1398186 0.9867762 108 108 108
-0.0444300157629999 -0.0225085065105324 0.00872717820926155 -0.08129169 -0.1335023 0.9877089 87 87 87
-0.0635131612399701 -0.027121548388279 0.00697049005144429 -0.1113849 -0.2429003 0.9636352 120 120 120
0.026450167338823 0.0198396399280663 0.0157434141612702 -0.08283924 -0.1157102 0.9898226 158 158 158
0.0585824949375769 -0.0262932822444801 0.0092216872393861 0.1371237 -0.01146643 0.9904876 167 167 167
-0.0716880600521953 -0.0166888282039528 0.00836768826039969 -0.1045942 -0.1558489 0.9822277 128 128 128
-0.01410132340062 0.0151699736377831 0.0138628701422184 -0.07820173 -0.1116166 0.9906696 115 115 115
0.0247405210709501 -0.0269550130107765 0.00884447613842743 -0.07209991 -0.14417 0.9869228 163 163 163
0.0115154043676068 0.0385385706684227 0.0102085323386214 0.2300916 0.9562525 0.180663 32 32 32
0.0428001437795905 -0.0189608380535011 0.0100583192222344 -0.07843604 -0.1249072 0.9890632 153 153 153
-0.045621447413109 0.0114468291065331 0.0130317807899817 -0.0998776 -0.1328424 0.986092 210 210 210
-0.0256150412529065 0.00307869460793686 0.0121641862829674 -0.08515905 -0.1392305 0.9865915 122 122 122
-0.048035475957415 0.0192642166874046 0.0132399752839154 -0.1464398 0.08735142 0.9853553 117 117 117
0.0333172354677791 0.0202267124912376 0.0155129681546737 -0.04849314 -0.1251165 0.9909562 137 137 137
-0.0280230766728559 0.017365927960598 0.0139097903371086 -0.1642122 -0.03580713 0.9857749 128 128 128
-0.0158323454230488 -0.0261060044505959 0.00842313800798894 -0.08738163 -0.1365725 0.9867687 170 170 170
-0.0478111524476664 -0.0124433085658913 0.00959749115957909 -0.1086903 -0.1419494 0.9838886 160 160 160
0.0124457744903447 0.0381575777790184 0.0103609136595426 0.2574124 0.9384609 0.2302822 57 57 57
0.0670781757309191 -0.00873887989310074 -0.00326942387905199 0.6347155 0.3358569 0.6959428 116 116 116
-0.0213155534433653 -0.00940907451895523 0.0102397410901604 -0.06741749 -0.1142 0.9911676 57 57 57
0.0246764127213236 -0.00326061699179458 0.0119381705264182 -0.09111072 -0.1290861 0.9874389 106 106 106
0.050821674284501 0.0377969696781273 0.00178274535784911 0.5085901 0.5024247 0.6992178 49 49 49
0.0142321505519497 -0.0109680936077003 0.0106408008773146 -0.07495379 -0.1601842 0.9842373 214 214 214
0.0100304044830292 0.0376665547153587 -0.00571369822782808 0.0542188 0.9703928 -0.2353683 51 51 51
-0.0134759683782655 0.00681149509164047 0.0127602722253817 -0.09712265 -0.1510959 0.9837363 116 116 116
0.057318466987101 -0.00800765011099625 0.00568637401400512 0.7025059 0.1742203 0.6900237 64 64 64
0.033706819536315 -0.0146735951640968 0.0109143558013214 -0.08074047 -0.1354789 0.9874849 148 148 148
0.0269808585055538 0.0365140393039818 0.0110770503395498 0.0007555731 0.8474869 0.5308158 84 84 84
-0.0378898492908472 -0.038617615435398 0.00560536704129899 -0.1432197 -0.3108534 0.9396054 149 149 149
0.047930740092697 -0.0327020928600197 0.00841357840798002 -0.08517554 -0.1246316 0.9885404 134 134 134
0.00648956409516799 0.0387748434803123 0.0150624615643934 0.04147831 0.5987842 0.7998356 76 76 76
-0.0272587240291253 0.0359706833622093 -0.00143581146576516 -0.21594 0.9564768 -0.1962702 67 67 67
-0.0598585960412573 -0.0208677098491554 0.0082126758275945 -0.08739847 -0.1466483 0.9853202 128 128 128
-0.0124638006522454 -0.00451231453207779 0.0119008972697034 -0.07906431 -0.1388298 0.9871551 229 229 229
-0.0803382080205398 -0.0209492490032082 0.00771196446839945 -0.156528 -0.1840897 0.9703659 124 124 124
-0.0544070254844574 -0.0322210237720375 0.00689536693883636 -0.1305819 -0.1562205 0.9790524 126 126 126
0.054250472314573 0.00920843627663803 0.00641344785891029 0.5857665 0.1244511 0.800868 71 71 71
0.0184885940121682 -0.014850024912632 0.0103810533263561 -0.07216024 -0.1308396 0.9887739 117 117 117
0.0339136658348786 0.0376197054645653 0.00803647284817116 0.01627637 0.931818 0.3625607 28 28 28
0.0385578167264197 0.0109800055286522 0.0148478976050362 -0.05942738 -0.1353377 0.9890157 135 135 135
-0.0216104227603373 -0.0413991853931311 0.00670327511517321 -0.05751808 -0.2820477 0.9576747 78 78 78
-0.0280397956804848 -0.0132768199184303 0.0100438602603669 -0.07755131 -0.1428724 0.9866982 83 83 83
0.0313434999126109 0.00138902213784409 0.0126368897268622 -0.07259241 -0.125241 0.989467 215 215 215
0.0173535433430647 0.0364153340122337 0.00979881115118736 0.04749447 0.9741585 0.2208157 54 54 54
-0.0143568184136291 -0.0306550309398537 0.0079968262553074 -0.07224986 -0.1404873 0.9874428 108 108 108
-0.0178921424943949 0.0184502556583519 0.0142048500184646 -0.06895156 -0.1519597 0.9859787 128 128 128
0.0619400300189071 0.0140076830646629 -0.000974879487484925 0.6747668 0.03477836 0.7372111 88 88 88
0.0293806410955909 0.0277578785678978 0.0164919360191488 -0.06360728 -0.05302095 0.9965655 150 150 150
-0.019097948720922 0.0211777642032738 0.0150686717136045 -0.08055652 -0.1275815 0.9885513 104 104 104
-0.026669946761896 -0.0256451413371925 0.00793551385174301 -0.07954278 -0.1593284 0.9840159 195 195 195
0.0595283936740264 -0.00722170326498794 0.00306417752579624 0.635214 0.2173767 0.7411144 74 74 74
0.0542108304803319 -0.0448826596477393 0.00674636628039771 -0.08282047 -0.1734155 0.9813602 56 56 56
-0.00805617400733494 0.0171372845432396 0.0145626808627001 -0.0894744 -0.1362207 0.9866297 118 118 118
-0.0596198831275715 -0.0264519498088722 0.00761481958905402 -0.08945527 -0.1865044 0.9783731 110 110 110
-0.00803061272974548 -0.0244685456493263 0.00879840830656969 -0.09984902 -0.1397115 0.9851451 226 226 226
0.00821913746440239 0.0350129559299583 0.0161730397154199 -0.1248771 0.1679032 0.9778621 88 88 88
0.0484235253490726 0.0380649521610374 0.00372278086790973 0.4323962 0.6108354 0.6632599 51 51 51
0.0226324715405875 -0.0167616650798683 0.0102079727342557 -0.0762758 -0.1287677 0.988737 143 143 143
-0.0202337908110383 -0.00250387642172623 0.0113882723730751 -0.07244932 -0.1361297 0.9880384 136 136 136
-0.0253099698078524 -0.00816119167593765 0.0102983801129853 -0.05812876 -0.1369201 0.9888751 69 69 69
0.0671668546426593 -0.0271440789440041 0.00508407755331719 0.4203023 0.3018851 0.8556935 78 78 78
0.0523175442406296 -0.0289824650028114 0.00887986494481013 -0.070916 -0.151145 0.9859645 128 128 128
0.00975626808752472 -0.00704682323721695 0.0115200076026173 -0.09160443 -0.1454724 0.9851124 237 237 237
-0.0571789654786116 -0.0179058358409767 0.00905704497172033 -0.07616812 -0.1195125 0.9899067 109 109 109
-0.00277945838951277 -0.0168027922847633 0.00984535593752295 -0.07750972 -0.1306125 0.988399 117 117 117
0.0419728891684559 -0.0148501441219215 0.0107363461424492 -0.06473 -0.1508103 0.9864413 136 136 136
0.0621443171762532 -0.0152598664501076 -0.00466536063491896 0.4926389 0.4262538 0.7586927 29 29 29
0.000309398980578024 0.0249768450519676 0.0154284995955867 -0.09116699 -0.1322763 0.9870114 121 121 121
0.049661979382139 0.0177800610324974 0.00839382480212919 0.5327898 0.1238335 0.8371382 91 91 91
-0.0230601118067915 0.0275241091510887 0.0148688074937034 -0.2875457 0.07898311 0.9545047 67 67 67
-0.0096193941431082 0.00355350520821762 0.012822302409057 -0.09301554 -0.1443678 0.9851426 101 101 101
-0.0619269931880223 -0.000644330714023589 0.0111331613327294 -0.06865241 -0.1373551 0.9881399 124 124 124
0.0386631451891782 -0.0207902238109474 0.00989126793833045 -0.06552456 -0.1399972 0.9879814 135 135 135
0.0550403326476939 0.00697671916695786 0.00645012141354412 0.6197049 0.08280101 0.7804549 99 99 99
0.0161399960376041 -0.0330563232639198 0.00783884296306353 -0.07765867 -0.1271611 0.9888373 66 66 66
-0.016728361615823 0.0358878329059715 -0.0104667234379531 -0.082441 0.9860959 -0.1442856 47 47 47
0.000174964556179935 -0.0391610309818152 0.00680870505992359 -0.1038583 -0.1987035 0.9745411 126 126 126
-0.0076125896295216 0.00139677074166489 0.012367299990666 -0.09388608 -0.1436088 0.985171 108 108 108
-0.0596388568322851 -0.0113563582637672 0.0094991411877085 -0.06977285 -0.1541837 0.9855756 147 147 147
-0.0796171980631489 -0.0186882064082985 0.00827920560218293 -0.1230596 -0.1475143 0.9813745 114 114 114
-0.0515459718364754 0.0171517088672752 0.0129410676720655 -0.1044512 0.05282243 0.9931263 95 95 95
0.0639761536802903 -0.00254035446432876 -0.00250505075169369 0.6572295 0.1022178 0.7467268 77 77 77
-0.0657845093439299 -0.00919080230978775 0.00977096408633249 -0.07386056 -0.1357862 0.9879811 153 153 153
0.0202704656384278 -0.0104553744533424 0.0109742274270684 -0.0812287 -0.1442169 0.9862066 107 107 107
-0.0106084283664535 0.0296255305072899 0.0159776461479689 -0.05046476 0.02066312 0.9985121 94 94 94
-0.0800111989949049 -0.00306141826895523 0.0103369769471089 -0.3401623 -0.06953573 0.9377923 143 143 143
0.0568996351953857 -0.0309423849323158 0.00866166430507265 -0.05406682 -0.1204727 0.9912432 141 141 141
0.0139918551380811 0.0365464642307396 -0.0089966666175344 -0.0178858 0.9878207 -0.1545652 37 37 37
-0.0545400334340512 0.0238063290378685 0.0124912847090958 -0.1376238 0.09982017 0.9854419 56 56 56
-0.0475284216504342 -0.0230350539424782 0.00813370489766063 -0.06469644 -0.1284308 0.9896059 137 137 137
-0.0245113450359306 -0.0133279607036476 0.0098966051561778 -0.09191464 -0.1311844 0.9870878 55 55 55
-0.0424576591282476 0.030867691304409 -0.00191968151245772 -0.13701 0.9874402 -0.07867781 86 86 86
-0.0117211436073931 0.0236452772876854 0.0152366477118362 -0.09071235 -0.1519438 0.9842176 123 123 123
-0.00673340904385222 0.0380526736042137 -0.000251390544539376 -0.1697711 0.9601365 -0.2220712 44 44 44
0.0364129893609371 0.0192570641300316 0.0151630874197675 -0.05381421 -0.1078351 0.9927112 139 139 139
0.0437635055046333 0.0317727282306786 0.0105428479425253 0.5661361 0.2067256 0.7979689 70 70 70
0.0196414798858923 -0.0299242779949074 -0.00855041587342867 0.2433112 -0.5587684 -0.7928288 10 10 10
0.00440318310611232 -0.0436934277751807 0.0019095867917141 0.1943555 -0.958726 0.2075341 51 51 51
0.060356324897831 0.0108513787052269 0.000816116823362689 0.6833831 0.004007799 0.730049 83 83 83
0.0320810519598395 -0.0245431706645851 0.0089493503137929 -0.07572956 -0.1492721 0.9858919 87 87 87
-0.0373072929441215 0.0300227358600731 -0.0101908385674702 -0.3017796 0.9285877 -0.2159951 38 38 38
0.0618857394070781 0.0191293909809227 -0.00145306810167883 0.6386486 0.1351341 0.7575399 77 77 77
0.0525540223630929 0.0356943562290306 0.000816758718823585 0.5527845 0.4108758 0.72499 36 36 36
0.05006186665529 -0.00419342968252945 0.0120590381201381 0.2773297 -0.009541429 0.9607275 180 180 180
0.00862400103728544 -0.0401454016902808 -0.00264439495412302 0.03176083 -0.7751263 -0.6310075 66 66 66
-0.0320487948947554 0.0333591654560204 -0.00517052887505326 -0.3099444 0.9311337 -0.1921574 38 38 38
-0.0577064503944323 0.00962948348733139 0.0122316611474252 -0.0740298 -0.1134487 0.990782 72 72 72
0.0623349421879031 0.0059986069461937 -0.00124532812083716 0.6804888 0.001303229 0.7327573 113 113 113
-0.00208120603917394 -0.0440145776012305 0.00398951921027901 0.02515473 -0.9137696 0.4054533 55 55 55
-0.0458503002894483 -0.00483918640402603 0.0108797224919305 -0.1013293 -0.1319773 0.98606 72 72 72
0.0244038648171013 -0.0304477855899696 0.0082427252128926 -0.08077851 -0.1356929 0.9874524 120 120 120
0.00854917569298497 -0.0262711093166237 0.00876353737429486 -0.06237197 -0.1262238 0.9900391 79 79 79
0.063533092607246 -0.0172636553981667 0.00394106731268218 0.4243968 0.2967179 0.8554798 64 64 64
-0.0561879972131448 0.0261949255725975 0.0117157716258774 -0.2388857 0.2007988 0.9500597 74 74 74
-0.0179165387275837 0.00517844703408432 0.0125827012726717 -0.07436407 -0.1298471 0.9887415 185 185 185
0.0484139205268314 -0.0428918645122413 0.00691307063382052 -0.08507221 -0.1601194 0.9834249 126 126 126
-0.0378031141326788 0.00328504588814926 0.0120011187746047 -0.07047517 -0.1066466 0.9917963 130 130 130
-0.0764124835900258 -0.00897932503012466 0.00992026030145526 -0.09269635 -0.1389461 0.985952 110 110 110
-0.0405502869480522 0.0115772440693016 0.0137851403962652 -0.05505428 -0.1165885 0.9916533 194 194 194
0.0225578255229273 -0.0459804579952124 0.00624228806609978 -0.07396721 -0.23696 0.9686996 63 63 63
0.0105482679323627 0.0212484553119774 0.0150631785990452 -0.06228939 -0.1292197 0.9896577 124 124 124
0.00421040164131214 -0.0338985964992409 0.00771191222977452 -0.06936709 -0.1366408 0.988189 106 106 106
-0.00367698667478278 -0.0425543234088782 0.00612728950444669 -0.06913807 -0.4121636 0.9084828 93 93 93
0.0406251014776421 0.028983826901638 0.0132984939293948 0.4698955 0.1624094 0.8676528 81 81 81
-0.00381530235887562 -0.0383650109508399 0.00677939631049679 -0.07396484 -0.171591 0.9823878 104 104 104
0.000400288331809939 0.0351498081943626 0.0159103162263422 -0.02211712 0.1513489 0.988233 119 119 119
0.0380161210071015 -0.00350344631460953 0.0123970707844984 -0.06897354 -0.1270835 0.989491 156 156 156
0.0400460156561496 0.0390442564746971 -0.00620282754050977 0.01656943 0.9944783 -0.1036258 35 35 35
-0.0170350288058922 0.00131570842477036 0.0120353418913002 -0.07552844 -0.1185296 0.9900738 154 154 154
-0.0418902955104031 0.0129387333652611 0.0132819324514156 -0.06887227 -0.08563015 0.9939437 108 108 108
-0.0273419094916449 -0.0166386410930519 0.00958145097997337 -0.08805722 -0.1264904 0.9880517 79 79 79
0.0339567953907626 -0.0281684443691139 -0.00516207376402578 0.3923513 -0.47868 -0.7854463 20 20 20
0.0410118494655948 0.0384663298389549 -0.0024004248784158 0.1029433 0.9943439 0.02613031 29 29 29
-0.00793828063081981 0.027530665662014 0.0156682263667282 -0.06411179 -0.06767315 0.9956455 114 114 114
-0.0515564155889688 -0.0148658797481422 0.00945733847267721 -0.09001081 -0.1362987 0.9865702 228 228 228
-0.00617775931843112 0.0369296028873558 -0.00683419431061305 -0.09185643 0.9853477 -0.1437094 58 58 58
-0.0593002232158216 -0.0302084729411964 0.00691942773473903 -0.1805417 -0.2477616 0.9518502 117 117 117
-0.0134700637231624 0.0171990349552269 0.0142430415605438 -0.07609154 -0.09872472 0.9922013 96 96 96
-0.0598752125224874 0.0212864830753441 0.0126155123017463 -0.1968437 0.2042576 0.958922 95 95 95
-0.0825709860393918 -0.00030124637869644 0.00600275339034989 -0.8978885 0.115629 0.4247659 58 58 58
-0.0540997916389206 0.0129059508106346 0.0130706564443953 -0.08246119 -0.06902775 0.9942008 213 213 213
-0.0081884899301885 -0.0229891583660011 0.00898612023480405 -0.1016536 -0.1291164 0.9864054 124 124 124
0.00226782800968839 0.0195949032566185 0.0145885066362139 -0.07090877 -0.1170604 0.9905902 108 108 108
0.0664781680290314 0.0102467491886253 -0.00587746369043979 0.7078857 -0.007379366 0.7062884 67 67 67
0.0205168351217605 0.00489687469216538 0.0138670688963075 -0.08494867 -0.1279788 0.9881321 122 122 122
-0.0184088142563068 0.0370324805042381 0.00173879037188002 -0.06859165 0.9884628 -0.1350426 49 49 49
0.0381032893112904 -0.0171206042507057 0.0104422775950357 -0.06794241 -0.1401653 0.9877943 141 141 141
-0.0119817480148279 -0.0411812112071875 0.00626835822895472 -0.1894121 -0.3731627 0.908225 66 66 66
-0.0641446103911859 -0.0143146559932594 0.00926031455347276 -0.08698949 -0.1229026 0.9885989 151 151 151
-0.0620810927506777 -0.0264509961345558 0.0073952471506103 -0.1218725 -0.22669 0.9663119 122 122 122
0.0135549180638341 0.0359575703403587 -0.0159512141076548 0.0506866 0.9932489 -0.104343 39 39 39
0.025080044276618 0.0369783594867821 -0.00760705065607642 0.001895318 0.9799299 -0.1993336 14 14 14
-0.0176538129097852 -0.00690150711325455 0.0107995534175536 -0.08329809 -0.1485643 0.9853883 82 82 82
0.0406490458184641 -0.0192737624385719 0.00995145825053934 -0.08642621 -0.136642 0.9868432 140 140 140
-0.0374506225420087 0.0125507071277733 0.0131762079601962 -0.07725541 -0.1137926 0.9904963 180 180 180
-0.05181016025164 -0.00510681125906753 0.0106258288756506 -0.07513582 -0.137218 0.9876871 232 232 232
0.0642521392517383 -0.0369913623073462 0.00780121350699559 0.06847444 -0.08647728 0.9938979 145 145 145
-0.0319816857844317 0.0354807331821556 0.00258300015977941 -0.31264 0.9258953 -0.212071 62 62 62
-0.0758460283985233 0.00995170619698715 0.0122518639446869 -0.1344389 -0.1134293 0.9844084 120 120 120
-0.0375944750107652 0.0274146750232811 0.0124930360726542 -0.08005977 0.08161765 0.993443 161 161 161
-0.0617025290496719 -0.022473578188694 0.00802143420701473 -0.08321058 -0.141211 0.9864763 103 103 103
0.0279449523578503 -0.0307362124660377 0.00821865938359834 -0.0729527 -0.1275741 0.9891424 119 119 119
0.0422418690159225 0.0393627836963768 -0.00596346293894809 0.02158054 0.9995308 -0.02173689 47 47 47
0.0637066402521338 -0.000844006274021147 -0.00216739491688125 0.6731155 0.06028267 0.7370763 105 105 105
-0.0195942816191286 -0.00682223293570328 0.0110252206185171 -0.07392523 -0.14213 0.9870837 98 98 98
-0.0395707010056744 0.0168693020603294 0.013433793608149 -0.04583127 0.06258606 0.9969867 92 92 92
0.0242885988786931 -0.00876033756521988 0.0112674146749056 -0.07966264 -0.1345925 0.9876937 101 101 101
-0.0152998448058173 0.0210703566333885 0.0145850360152535 -0.06669313 -0.1452725 0.9871413 116 116 116
0.056568794465876 -0.00436592552450943 0.00532357099310166 0.6826254 0.1303835 0.719043 101 101 101
0.00385488807542966 -0.0388991877773169 0.0066816898584377 -0.0688991 -0.1389754 0.9878961 99 99 99
-0.0338413648499675 0.026965971257412 0.0125793787855443 -0.1058238 0.01497904 0.9942721 110 110 110
-0.0540323924643037 -0.00120437595633316 0.0110578609103526 -0.08500591 -0.1385229 0.9867043 193 193 193
0.0163024271549432 -0.0386831209400061 0.00721030435418313 -0.08172154 -0.1513997 0.9850887 71 71 71
-0.0739159623033078 -0.000661020014560698 0.010648641852705 -0.08555909 -0.1399887 0.9864496 132 132 132
-0.0294279711545151 0.00168799903603745 0.0118605104324816 -0.07723718 -0.1325895 0.9881571 137 137 137
0.00349576716869116 -0.00643015358237076 0.0113782885422797 -0.0655164 -0.1622988 0.9845642 91 91 91
0.0546815065376456 -0.00657821151999283 0.00864570143306576 0.6371924 0.1672281 0.7523434 55 55 55
0.0351180050586388 -0.0138002679088478 0.0110067273143765 -0.07038837 -0.1355897 0.9882616 109 109 109
0.065393674900378 -0.0167310282924538 0.00308646836927645 0.4747047 0.2972285 0.8284387 110 110 110
-0.0510713492545342 0.0137413695118065 0.0131931369363503 -0.1262319 -0.04238033 0.9910951 116 116 116
-0.0605286458526156 0.0127853110096092 0.0128215782560834 -0.09186283 -0.04920836 0.9945551 109 109 109
-0.0399762549172801 -0.0283385560253029 0.00749396964190363 -0.09905859 -0.1614999 0.9818886 227 227 227
-0.0534003702216673 0.00520908382149887 0.0118608173651693 -0.05925722 -0.1396751 0.9884227 227 227 227
-0.00412024213164841 -0.0339434787967567 0.00740204742823386 -0.06890042 -0.1269869 0.9895085 132 132 132
0.00670629554731861 0.00762748267861557 0.0131128313545792 -0.0581928 -0.1309519 0.9896793 111 111 111
-0.0718809266302322 -0.00668442699698257 0.0098492545952017 -0.06813829 -0.1373012 0.988183 150 150 150
-0.0474862344004393 0.0160700037738915 -0.00559410008318606 -0.4176517 0.2875887 -0.8618932 30 30 30
-0.00389169440053105 0.0386773302814598 -0.00130154364508361 -0.1476905 0.9608518 -0.2344168 57 57 57
-0.0217233798561211 0.0252389862796898 0.0149329796878586 -0.2045209 0.001223184 0.9788615 62 62 62
0.0635891794113408 0.0157321646473045 -0.00249419053060712 0.6850085 0.04739733 0.7269917 76 76 76
0.0319386706259135 -0.0273519799449806 0.00874111611953687 -0.08704194 -0.1325326 0.9873494 79 79 79
-0.00706710826482093 0.0229644730350609 0.0156492961940865 -0.07066262 -0.1109152 0.9913146 103 103 103
-0.0314892519639618 0.0153760864994164 0.0136670738124793 -0.0697988 -0.03712508 0.99687 118 118 118
0.03461502156437 0.0230885699054832 0.0155361542744458 -0.007956746 -0.09696767 0.9952557 164 164 164
-0.0275921360787904 -0.0184845969417458 0.00945612327025719 -0.08095934 -0.1188943 0.9896008 65 65 65
-0.0228636154481882 -0.0408062979915503 0.000640794558960156 -0.1657458 -0.9823478 -0.08672385 42 42 42
-0.0181546581284797 -0.0369721696117286 0.006748920549489 -0.07047179 -0.1389341 0.987791 62 62 62
0.0320570701027779 0.0362629845401878 0.00779672614595328 0.0458544 0.9344394 0.3531576 21 21 21
0.0560581909262761 0.0250278666278954 0.00259671076992035 0.599941 0.1734086 0.7810252 63 63 63
-0.0084291330155456 0.0398572638294334 0.00824051320631713 -0.2893812 0.9565783 0.0348778 58 58 58
-0.0236938219761293 -0.0386437818744544 0.00645341127233373 -0.1095849 -0.1706371 0.9792212 49 49 49
0.0673693628847679 -0.0401070162990455 0.00676453763321677 0.09647628 -0.03947195 0.9945523 137 137 137
0.0595116914964268 0.016755576398098 0.00125555562102164 0.6194146 0.114265 0.776704 124 124 124
-0.0361124380200067 -0.0278941437938576 0.00805721099478163 -0.1057926 -0.1516313 0.9827593 197 197 197
-0.0339766134201552 0.0169656231662865 0.0140255529297936 -0.05909562 0.04762824 0.9971155 101 101 101
-0.0335994153358891 0.00918006446572495 0.0129588964302216 -0.07707188 -0.1337257 0.9880169 231 231 231
-0.0007872268767527 0.022377963330471 0.0149426386799664 -0.04760856 -0.1200353 0.9916275 126 126 126
-0.0388459094184773 0.0319409325382347 0.000802631098393125 -0.2751522 0.9407169 -0.1983509 88 88 88
-0.0316638226826752 -0.0125914857128029 0.00982766393219608 -0.08228835 -0.1561971 0.9842922 70 70 70
-0.0271104197738791 0.0251004650852318 0.0140378428928155 -0.2995655 0.08732172 0.9500713 66 66 66
-0.0797418446038539 -0.0164052293041115 0.00835229823569389 -0.1269609 -0.1522971 0.9801462 136 136 136
-0.0520135477476206 -0.0166628405788307 0.00886578452661463 -0.07547201 -0.135426 0.9879088 228 228 228
-0.0278031535459633 -0.0272837922313576 0.00764022535891634 -0.07131442 -0.1636317 0.9839405 158 158 158
0.0598325217995739 0.0269942238590355 -0.00160752583900625 0.6175497 0.2337867 0.7509834 71 71 71
0.0348246347445105 -0.0315265104511147 -0.0036903233255661 0.3881459 -0.5034205 -0.7719524 44 44 44
0.0441760056534454 -0.0188120648601418 0.0101664072429187 -0.07475988 -0.1365311 0.9878109 152 152 152
0.0653708085903348 0.0182201817295189 -0.00537636850483503 0.6744474 0.07661328 0.7343373 79 79 79
-0.0157957632761018 -0.0207480237224464 0.00915939382745895 -0.07799974 -0.1393182 0.9871709 142 142 142
-0.00138491188263534 0.0400218918583031 0.00388675233282171 -0.0767221 0.9879141 -0.1346823 54 54 54
0.036424102094948 0.00734900977822495 0.013540529259215 -0.07747852 -0.1561255 0.9846938 127 127 127
0.0146196707424605 0.0168626263401146 0.0144941545589295 -0.06530672 -0.09786668 0.9930544 121 121 121
-0.0532199815761117 0.023124451901638 0.0126749488612423 -0.09241689 0.04600585 0.994657 49 49 49
-0.0679134160736764 -0.0166654631832008 0.00851350508430498 -0.07951996 -0.1550824 0.9846959 143 143 143
0.0387580225275618 -0.000515465472019194 0.012892840736493 -0.06927832 -0.1239292 0.9898697 149 149 149
0.0266734663513645 -0.0189538047054176 0.00965590914000886 -0.08970993 -0.1261635 0.9879448 217 217 217
0.0361210170106561 0.0175236418506737 0.0151442244123443 -0.04945478 -0.1102623 0.9926714 107 107 107
-0.0611902199896129 0.0255591824314232 0.0107763910701974 -0.241647 0.3224559 0.9152207 86 86 86
0.030010106314835 -0.00294590446738052 0.0122408705955623 -0.07279494 -0.1498135 0.9860308 223 223 223
-0.0186533007763101 0.0359232380649681 -0.00947961872872632 -0.0952991 0.9846533 -0.1462052 24 24 24
-0.0342128996200369 0.0129777148029442 0.0132209652781858 -0.07543541 -0.1149337 0.9905048 161 161 161
-0.0137096362496949 -0.0310600445011024 0.0077559020369079 -0.08377317 -0.1282487 0.9881975 114 114 114
-0.0293829999040287 -0.00662625286368179 0.0110335190868494 -0.0443995 -0.1275439 0.9908386 44 44 44
0.0556918351267573 0.0204613163730736 0.00370761207604475 0.5519787 0.1579561 0.8187609 79 79 79
-0.000144650868906693 -0.0201985881069069 0.00935842263148978 -0.07848738 -0.1311287 0.9882535 224 224 224
-0.00768103898048789 0.0370721771976585 0.0155202278230289 -0.2523933 0.469017 0.8463573 71 71 71
-0.00929809151919081 0.0376033737918968 -0.0036616285588606 -0.07899348 0.9867847 -0.1414778 55 55 55
-0.0162153309958437 -0.0401726410129432 0.00618378961764909 -0.08286976 -0.3809413 0.920878 75 75 75
0.0386276577886057 0.0268623783847923 0.0151886142087284 0.3115491 0.07135481 0.9475472 129 129 129
0.0482872861447147 0.00053035762520981 0.0125457948789601 0.2274418 0.01954732 0.9735954 166 166 166
0.057532544361059 0.0300394251606102 -0.000933840729988478 0.6055527 0.2704708 0.7484326 56 56 56
-0.0408547846623627 -0.0154342696407204 0.00970853991378789 -0.08668496 -0.129685 0.9877588 93 93 93
-0.0225795305136324 -0.0405150696971778 0.00606265025511177 -0.1439625 -0.3955583 0.9070879 124 124 124
-0.0414318776293715 0.0195232584735985 0.0130194234137096 -0.02278333 0.08311325 0.9962797 187 187 187
0.0246579423534559 -0.00742590877798843 0.0119008400370819 -0.07506768 -0.1394148 0.9873846 133 133 133
0.0112000791492586 -0.0119305894115334 0.0105888861705198 -0.07778674 -0.1317236 0.9882298 239 239 239
0.055612761077621 0.0339217140934105 -0.000636537446163321 0.5740911 0.3127618 0.756703 107 107 107
-0.0156347101065087 0.0370271160862083 -0.00385803368211893 -0.07229852 0.9918145 -0.1052469 72 72 72
0.0144998580525426 -0.0166231438854103 0.00988751756529938 -0.07299706 -0.1254829 0.9894066 224 224 224
-0.00567182904980668 -0.041427616808689 -0.00186707099838745 -0.02840028 -0.9251916 -0.3784362 68 68 68
0.0041711206942846 -0.0201861903407936 0.0097863213152572 -0.05308934 -0.1304489 0.9900326 135 135 135
0.0173492723965146 0.00205313708993149 0.0128163926966129 -0.07199241 -0.1541202 0.9854258 184 184 184
0.0548120649354881 0.0161876633426781 0.00513152385258842 0.53355 0.1386952 0.8343189 89 89 89
0.0385432962024523 0.000945801999294282 0.0128173454324315 -0.05954201 -0.1307153 0.9896303 141 141 141
0.0662359401941308 0.0216764166614647 -0.00587642912752434 0.6544863 0.1404307 0.7429178 50 50 50
0.0583782778680497 -0.036284510824955 0.00789901058263465 -0.06138563 -0.1461113 0.9873618 149 149 149
0.0195921665601581 0.0280421927234764 0.0161191320218712 -0.05570969 -0.1310278 0.9898122 140 140 140
-0.0640635059671318 -0.0105485961177711 0.00962536202667025 -0.0880237 -0.1495803 0.9848236 151 151 151
0.0379026640028969 -0.00675917122153091 -0.0117776649843614 0.4018198 -0.1695347 -0.8998882 22 22 22
0.0144209390339298 -0.0432923481204871 0.00631770099741708 -0.09026328 -0.4912319 0.8663393 79 79 79
-0.0575723544434342 0.0128983214161034 0.0130161973096608 -0.05570014 -0.06797899 0.9961307 107 107 107
-0.0297965185911879 -0.0111103102901344 0.0101085732329934 -0.08181193 -0.1575788 0.9841117 97 97 97
-0.0829101487473874 0.000941748883449556 0.00677556111258504 -0.8737 0.1425599 0.4651075 70 70 70
0.00619737404455456 0.0270531132480736 0.016068653658084 -0.09019352 -0.1535775 0.9840117 111 111 111
0.0450855900000506 0.0030081227085228 0.0130735103672293 0.06117793 -0.1055594 0.9925293 142 142 142
0.0673300556849435 -0.0323668763378029 0.00652483381807761 0.3924413 0.1803171 0.9019288 81 81 81
0.0121956380603805 -0.0269266411998634 0.00869424072306457 -0.06735508 -0.1349784 0.9885566 105 105 105
0.0141206970789196 -0.0409522697666053 -0.00154668701071353 0.169523 -0.8462992 -0.5050145 25 25 25
0.064867171898614 -0.0346865699031715 0.00797443691153693 0.1336427 -0.002666634 0.991026 158 158 158
-0.00519475324981078 0.0357202246448631 0.0162691548613831 -0.1423704 0.06757745 0.9875039 83 83 83
-0.0501333103334661 0.0060913517734642 0.0120531265161352 -0.07648996 -0.1381678 0.9874507 174 174 174
0.0025648723994034 -0.011190299723423 0.0107032965644309 -0.06789704 -0.1464528 0.9868848 161 161 161
0.000964658671758434 -0.0106761500575905 0.0112020614615763 -0.05914531 -0.1540088 0.9862977 232 232 232
0.0221696938817736 -0.00836825821188736 0.0112499508066804 -0.08321878 -0.142205 0.9863328 119 119 119
-0.0620983940573968 0.000993962552272798 0.010975394069853 -0.06757842 -0.1358598 0.9884206 120 120 120
-0.0415045306162544 0.0249804213306541 0.0132508725364674 0.01884602 0.04125901 0.9989707 175 175 175
0.0578293274306136 -0.0410205170848731 0.00726047574814553 -0.06588165 -0.1469358 0.9869496 131 131 131
-0.00946871631243151 -0.000273589823520659 0.0121350189512772 -0.08038569 -0.1375795 0.9872234 120 120 120
-0.00182694621174606 -0.0149500415065651 0.00996423053208706 -0.08164477 -0.1469984 0.9857615 126 126 126
-0.0395185357309519 -0.00407350513724136 0.0109218716121142 -0.07136574 -0.1451038 0.9868393 76 76 76
0.0426383024844096 -0.0321352526882057 0.00844623914287523 -0.07519148 -0.1489088 0.985988 137 137 137
-0.0320955959485035 0.0309710457584496 0.0127519135321629 -0.1285184 0.01694564 0.9915623 73 73 73
0.0225221068902486 0.0357969954273338 -0.0151523378325669 0.05772168 0.972055 -0.2275461 46 46 46
0.0396620120150711 -0.0165653273799782 -0.00922929492867375 0.4094257 -0.334357 -0.8488675 19 19 19
0.0634697374000284 -0.00464868995932388 -0.00188768787303967 0.6612909 0.2154592 0.7185204 69 69 69
0.0345168826245726 -0.0309301063754921 0.0082526173947553 -0.07950101 -0.1428333 0.9865487 89 89 89
0.0103912527726752 -0.00894368145254898 0.0110212527360484 -0.07588682 -0.1539756 0.9851562 237 237 237
0.0424865048588444 -0.0298293277957802 0.00872976658786323 -0.08234324 -0.1357134 0.9873204 139 139 139
-0.0315927471994203 0.0335550263187523 0.012630050728574 -0.1081353 0.03527628 0.9935101 66 66 66
0.0249269434573698 0.0134873345157738 0.0146396396180997 -0.08695827 -0.1284508 0.9878961 111 111 111
-0.0279748496445635 0.0333617880603905 0.0126203597923298 -0.1336154 0.05460816 0.9895276 79 79 79
-0.0109158881078482 -0.0366796896198158 -0.00665661063838605 -0.01368395 -0.7134027 -0.7006207 26 26 26
0.0114932744873171 0.0387641146442528 0.00831351992513463 0.2123196 0.9728875 0.091708 33 33 33
0.0292498582379804 0.00491582896920395 0.013252521031965 -0.06060501 -0.1451009 0.987559 237 237 237
-0.0235444088734916 -0.0343045041301613 0.007032123130295 -0.07714453 -0.1368835 0.9875787 46 46 46
0.00963316747870557 0.0309864237568016 0.0172745670095171 -0.09430132 -0.02229655 0.995294 117 117 117
0.0682664622832188 -0.0346756622531776 0.00638736253578293 0.4221964 0.08259454 0.9027338 84 84 84
-0.0069936797217135 -0.0143820092418556 0.0094900596697331 -0.06443924 -0.1530981 0.9861078 147 147 147
0.0325354544765838 -0.0010345027187233 0.0123254127931169 -0.07468359 -0.1320367 0.9884273 223 223 223
0.0151893527803931 0.0231258824131126 0.0154626657417241 -0.08317859 -0.1469807 0.9856358 127 127 127
0.0613156635965539 -0.0351210877635841 0.00837161474978892 -0.0091247 -0.1162595 0.9931769 131 131 131
-0.0499714451544727 -0.0145561740138893 0.00930815942740532 -0.08966283 -0.1367958 0.986533 207 207 207
-0.0656743010407862 0.0058615162632103 0.0119110369648788 -0.09419793 -0.1369953 0.9860827 162 162 162
0.0612615191970129 0.0224821522495384 -0.0017468606912435 0.6135955 0.1856594 0.7674836 74 74 74
-0.0133408705404032 0.00969266441079331 0.0133677886589478 -0.07850397 -0.1597594 0.9840295 219 219 219
-0.0529315071614366 0.00825130489083481 0.0126390872411479 -0.06688073 -0.1188776 0.9906539 236 236 236
-0.0626588994701541 -0.0138741776683693 0.00899704650156979 -0.05457933 -0.1095233 0.9924846 167 167 167
-0.048732231505512 0.0310169413349266 0.000800190260651756 0.03742277 0.9986083 0.03716141 46 46 46
-0.0535757778566873 0.0173753454944725 0.0129263521077049 -0.08217823 0.05584706 0.9950517 42 42 42
0.0286906487838446 -0.00728893730429458 0.0112948007034104 -0.06380112 -0.1360214 0.9886494 117 117 117
0.0215318096334423 0.0382116987964745 0.00688124750626362 -0.08492194 0.9369224 0.3390643 49 49 49
-0.056887847502069 0.0196323349735374 0.0129187845313215 -0.07315186 0.06105774 0.99545 59 59 59
-0.0537053015181527 -0.0249143883922462 0.00765184007803033 -0.08958636 -0.1500749 0.9846075 111 111 111
-0.0031815678674233 -0.0191454932430153 0.00922938257124667 -0.07996619 -0.1187026 0.9897045 101 101 101
0.0462340154736979 -0.0280125186183815 0.00898363838406474 -0.07725654 -0.1494879 0.9857407 134 134 134
0.0486117998525947 0.0391036227008934 -0.00793646820426305 0.01980355 0.9730505 0.22974 52 52 52
0.0420995134996212 -0.0349718377330666 0.00785917348059434 -0.06866585 -0.1326899 0.9887762 118 118 118
-0.0818776548428274 -0.0148671910503273 0.00855340461653731 -0.138643 -0.1538563 0.9783182 109 109 109
-0.0295077240420367 -0.0126712367275124 0.00994852911320643 -0.1055733 -0.1676383 0.9801794 98 98 98
0.00408099403351658 -0.0228200003841286 0.0091236777652261 -0.07086214 -0.1363003 0.9881299 115 115 115
0.0424233805496025 0.0280548289081688 0.0123524330421322 0.5382759 0.143811 0.830408 64 64 64
0.0612729372129647 -0.0408957645633582 0.00691969109862278 -0.03508513 -0.1615463 0.9862413 143 143 143
0.0209946279313376 -0.00481355640677261 0.0119585642229196 -0.0740652 -0.128057 0.9889973 108 108 108
-0.0168497970854615 -0.0422707841136817 0.000713594792271566 -0.3754897 -0.9124498 -0.1626128 50 50 50
-0.00523928579267263 0.0177167608997459 0.0146601559416381 -0.08911708 -0.1503245 0.9846119 103 103 103
0.0107100644435902 0.0364873364231224 -0.013408242588737 0.011691 0.9964552 -0.08330867 44 44 44
0.0312508999423454 0.0232744171878929 0.0157923053683222 -0.05548882 -0.1211037 0.9910877 147 147 147
-0.0579988762215152 0.00743579414101792 0.0122046297633289 -0.07503002 -0.1285195 0.9888646 119 119 119
0.00965387882845858 -0.0183001801708107 0.00950533780210022 -0.08367913 -0.1345748 0.9873639 145 145 145
5.29529291523057E-05 -0.0371469900348548 0.00697506747950821 -0.08556473 -0.1372993 0.986827 101 101 101
0.0284740022052052 -0.0407080695369605 0.00668967879846982 -0.05337952 -0.1678152 0.9843723 52 52 52
0.0264303320560842 -0.0372142836788062 0.00720049352548352 -0.06736827 -0.1524426 0.9860136 76 76 76
-0.063612242130712 -0.00475919697073746 0.0104067831027349 -0.09125988 -0.1326686 0.9869502 127 127 127
-0.038913856881584 -0.0274505660274391 0.00743408984164962 -0.0973447 -0.1597263 0.98235 231 231 231
-0.0655070666798446 0.00951838042947006 0.0123865191810666 -0.09589437 -0.09935638 0.9904204 159 159 159
0.0201570145931859 -0.036232237551487 0.00813995370883025 -0.08700952 -0.1379952 0.9866036 99 99 99
-0.0717882005989318 0.0212137654087181 0.00947342015790337 -0.2425296 0.4324794 0.8684129 57 57 57
-0.0320126596731342 0.0291826679966087 0.0127601851297733 -0.1280867 0.006290244 0.991743 61 61 61
0.0576264868504595 0.0188902571460838 0.00249011611058819 0.5734054 0.1724695 0.8009123 85 85 85
-0.00964756229426489 -0.0124554679134254 0.0104452486259423 -0.08905529 -0.1427412 0.9857454 110 110 110
-0.0114333297298072 -0.00150216076163101 0.0113328467545766 -0.06791036 -0.1458431 0.9869742 232 232 232
0.0623603119222836 -0.00668085071829605 5.86642671160376E-05 0.6393402 0.310396 0.7034902 109 109 109
0.0545024966892703 -0.0227332160213356 0.0098468675782688 0.04897302 -0.02167163 0.998565 142 142 142
0.0282265972469786 0.0290763333103294 0.0162499746756957 -0.08396874 -0.03075695 0.9959936 151 151 151
-0.0220521599972664 -0.0390875980594519 0.00661436112238639 -0.08825441 -0.2118537 0.9733084 31 31 31
-0.0497645327891333 -0.00668943378714371 0.0105957889994892 -0.07998036 -0.1323752 0.9879676 119 119 119
-0.033827857672151 -0.0191193864086037 0.00893694113259386 -0.08758529 -0.09642334 0.9914794 137 137 137
0.0601443315726996 0.020794506337368 -0.000244398593096329 0.6006369 0.1715606 0.7808984 70 70 70
-0.0299875900545863 -0.0384958431461219 0.00623181363059805 -0.06629504 -0.3249486 0.9434052 125 125 125
-0.0200181659655176 -0.0329685852268105 0.00736303789273518 -0.08811063 -0.147512 0.9851277 122 122 122
0.00990197865677478 -0.0442607447841529 0.00304071175579429 -0.0847258 -0.9907241 0.1062417 56 56 56
0.0562704459804589 -0.0283407017925148 0.00906064750857061 -0.04455435 -0.126114 0.9910147 117 117 117
-0.00814161861358909 -0.0445817157962684 0.00479487474254597 -0.05761985 -0.5153045 0.855068 52 52 52
0.05692619302291 -0.00773025009421158 0.00561288116822717 0.7084816 0.1786628 0.6827396 72 72 72
-0.0696188224412669 -0.0209971711376076 0.00800621497138987 -0.0870614 -0.1375889 0.9866558 110 110 110
0.0389840813313513 0.0329161837360497 0.0139196252614247 0.399243 0.3296028 0.8555507 112 112 112
0.0655859644220447 -0.0220037743785744 0.00383336645956522 0.4750996 0.2604705 0.8404971 81 81 81
-0.0252828036314153 0.0214993908664818 0.0145872482240839 -0.1866461 -0.02990991 0.9819718 112 112 112
0.0128396742425679 -0.0165859505870705 0.0104602835039708 -0.07120556 -0.123284 0.9898135 222 222 222
0.007010957853684 0.0366755678913231 -0.0126340821280331 0.01874092 0.9922841 -0.1225602 42 42 42
-0.0240679058346051 0.0188635542652245 0.0146409492799115 -0.1116066 -0.1268035 0.9856291 125 125 125
-0.00573854410656693 0.02515136745187 0.0158410703231486 -0.06735653 -0.1123129 0.9913874 103 103 103
-0.0143296877544399 -0.0146158978679543 0.0102280887576728 -0.06472534 -0.1220035 0.9904169 52 52 52
-0.0408970928711075 0.0318468764087791 0.00286591783706863 -0.2259536 0.968219 -0.1072238 97 97 97
0.0476727366862623 0.0244785502216454 0.0087424187427933 0.552179 0.131664 0.8232636 58 58 58
-0.0337437286094519 0.0291522696277733 0.0127436766770264 -0.1286352 0.003295202 0.9916865 76 76 76
0.0312048384394288 0.0186873629352684 0.0150582128203183 -0.05081896 -0.1250314 0.9908504 140 140 140
0.0450173443505175 -0.0129002377727394 0.0112154070682842 -0.07099969 -0.1397876 0.9876328 171 171 171
0.0542450608386478 -0.00479603264120865 0.00844804432126639 0.6668915 0.1657018 0.7264975 87 87 87
-0.00988250800908841 -0.0388343975284461 0.00659544794302225 -0.09400758 -0.1691325 0.9810998 101 101 101
-0.0539162646621213 -0.0206714913585548 0.00827882922759637 -0.08195444 -0.1407502 0.9866473 141 141 141
0.00825900316657868 0.0108815386554832 0.0136060353139626 -0.08959755 -0.1518909 0.9843279 103 103 103
-0.0190961060877596 0.0178676798603172 0.0143261347495743 -0.06685194 -0.1506811 0.9863194 137 137 137
0.0596373810272759 0.0350687458774681 -0.00407091370817603 0.5524623 0.4358574 0.7105024 68 68 68
