ply
format ascii 1.0
comment File exported by Rhinoceros Version 7.0
element vertex 470
property float x
property float y
property float z
property float nx
property float ny
property float nz
property uchar red
property uchar green
property uchar blue
end_header
0.026153452836276 -0.0232359774541682 -0.0108876885680123 0.8765615 -0.1796137 0.4465187 141 141 141
-0.0377933941847018 0.0426432332849065 -0.0281740489053212 0.1335955 0.3413653 -0.930388 81 81 81
0.008215870084466 -0.00251407744721899 -0.025915523845949 -0.1415535 0.03405349 -0.9893447 129 129 129
0.0438920598555124 0.0146192309088793 0.0234181738201215 0.7553578 -0.5351469 0.3782226 88 88 88
0.0426409137839538 0.0403096947800465 0.000772797235830708 0.288072 0.9118083 0.292609 33 33 33
0.0574595932552207 0.0277641442061485 -0.000741113210337513 0.9594497 -0.2532291 -0.1238196 149 149 149
0.0200091416594901 -0.0426603763708207 -0.00683297668981639 0.7775602 -0.2450919 0.5790769 92 92 92
-0.0310704606226054 -0.0242142738120577 0.000573622790266043 -0.4350105 -0.8536435 0.2864587 86 86 86
-0.0132654698016913 -0.011515819056116 0.0340886273060154 -0.3568484 -0.865619 0.3512307 110 110 110
-0.0464581477201268 0.00100445303193419 -0.00446437538972796 -0.7805133 -0.5971058 0.1851045 28 28 28
-0.000985164573061859 -0.0573467313060503 -0.024346049402743 0.07440528 -0.06440084 -0.9951464 84 84 84
-0.0287913761942271 -0.024353935884623 0.00294564630011954 -0.4047342 -0.877849 0.2560691 79 79 79
-0.00697523168753489 0.0442603455576738 -0.00589850031367914 0.08281676 0.9745702 0.2082172 91 91 91
0.0374398231377885 0.013067780642243 4.53688726680113E-05 0.4592758 -0.8201845 -0.3411203 135 135 135
-0.00681693058377497 -0.00415211384164871 -0.0254053552907788 0.09793185 -0.02444392 -0.9948929 101 101 101
0.0309426709110806 0.00505653392255856 0.0222250069519831 0.7591947 -0.6478956 -0.06208611 65 65 65
0.0327342765950437 0.00950563436262941 -0.0104574587552104 0.6597456 -0.3731937 0.6522747 51 51 51
-0.0283468160447951 0.0483291907658605 -0.00426340169306785 0.3289401 0.9193802 0.2157277 100 100 100
-0.0238383483537661 0.0471214748532065 -0.015173875356939 0.3241721 0.9196587 -0.221676 69 69 69
0.0271225443822557 0.0322448340378241 0.0134429363673442 0.1482965 0.7663814 0.6250341 31 31 31
0.0089236970612574 0.015463562284362 0.0399855433085336 0.1232658 0.8626762 0.4905051 24 24 24
0.0296291847736184 -0.0152085245328841 -0.0182839362018792 0.9681184 0.008663795 0.2503434 113 113 113
0.016829690980194 -0.0421495473270519 -0.0028993826988474 0.7042351 -0.2337698 0.6703764 91 91 91
0.0243600809305988 0.0295808177176295 0.0174000775629193 0.1538723 0.7897272 0.593847 29 29 29
0.0171214539912035 -0.0218519696603545 -0.0275106096578004 -0.08711998 -0.001066487 -0.9961973 110 110 110
0.0252571523816564 -0.00121915741274825 0.0397639584755372 0.6585397 -0.7076895 0.2559318 167 167 167
0.00913235745070595 -0.000297093875821774 0.04742056958814 0.2869055 -0.5233116 0.8023903 63 63 63
0.0146683097355544 -0.00577145698104431 0.0419950713251216 0.2990602 -0.7106724 0.6367949 83 83 83
0.0267963313095607 -0.0381977486792426 -0.0169207350383926 0.942611 -0.2158083 0.2547768 116 116 116
-0.0369810088036708 0.0496488769725021 -0.0211953066521917 0.318547 0.8457543 -0.4280508 68 68 68
-0.00770055702034544 -0.0152913045007157 0.0272812214366379 -0.2044851 -0.9261442 0.3169271 96 96 96
0.00683366141861474 0.0308909011123131 -0.0258734102952895 0.05319002 0.008898862 -0.9985448 94 94 94
-0.0121146547997861 -0.0274830700060915 0.0117519909477991 -0.4050483 -0.4789687 0.778797 73 73 73
0.0386571720691484 0.00988531279677796 0.0179419847126931 0.5747723 -0.8169976 0.04638708 187 187 187
0.00776646124895564 0.0110926352991394 0.0474580010425227 0.1453835 0.5969814 0.788972 16 16 16
0.027435878435884 -0.0391411454965995 -0.0191090194002135 0.9508801 -0.2965452 0.08881422 215 215 215
0.0264227547125072 0.000454077595248403 -0.027306327845242 0.05213151 0.1161222 -0.9918659 67 67 67
-0.0375346661693655 -0.0163226130442466 0.00333388291149331 -0.8863818 -0.452133 0.09951396 33 33 33
-0.0503926015359212 0.00299495108004044 -0.025362143749231 -0.1088583 -0.09992487 -0.9890222 80 80 80
-0.0123068520202934 -0.0495216554203302 -0.0252269957362006 -0.1120041 -0.1970361 -0.9739773 76 76 76
-0.0380970732356918 -0.0125204019922389 0.0139796640031339 -0.6986809 -0.5431001 0.4657116 58 58 58
-0.00271043473800914 -0.0376192522674927 -0.025142721683527 -0.009873458 -0.001410379 -0.9999503 92 92 92
0.011824435130888 -0.0058441078555358 -0.0265874200331553 -0.1562064 -0.01402218 -0.9876249 131 131 131
0.0378393866527418 0.0139723633449571 -0.0219565062806619 0.6289014 0.09775854 -0.7713147 173 173 173
0.000858012803733543 -0.0535379667351907 -0.0246472925487657 0.1469104 -0.04452536 -0.9881472 83 83 83
-0.00284070217224264 0.0157844644142418 -0.0250999734062396 -0.03550949 -0.08619946 -0.9956449 53 53 53
0.0237139582443691 -0.0444750304051353 -0.0234520070210978 0.6357374 -0.510867 -0.5786647 155 155 155
0.00356023382770643 0.0443601583663611 -0.0126843551620864 -0.09941705 0.9901856 -0.09822751 94 94 94
0.0196933998588019 -0.0084127092550208 0.0202441582144298 0.6774207 -0.7349069 -0.03183103 170 170 170
-0.00800099909417751 0.0436765956737677 -0.0158722737248737 -0.02087454 0.9967944 0.07723474 54 54 54
0.0208864061818756 -0.0112679625749916 1.8391856757588E-05 0.7856368 -0.09408808 0.6114919 93 93 93
0.00719391931206947 0.0300284373455555 0.0171540489841686 0.03030943 0.8107139 0.5846574 38 38 38
-0.00708904063727012 -0.039021007254078 -0.0256989965603841 0.1321265 -0.01927426 -0.9910455 120 120 120
0.0302948669347377 0.00635233371918331 0.0412102507585361 0.7162404 -0.09931749 0.6907501 100 100 100
-0.0258951406786233 0.0415631153660674 -0.0251984393270611 0.1880319 0.7312176 -0.655717 136 136 136
0.00650922610657845 0.0173563986375962 0.0376897113901163 0.1189262 0.8641716 0.4889417 19 19 19
0.0416577544088532 0.0309587369061748 -0.0144291302295142 0.5278375 0.2668224 -0.8063457 155 155 155
0.0102767189596744 -0.00677155535346796 0.0423493939270944 0.2979956 -0.7050028 0.6435602 95 95 95
0.0451498386562139 0.0394730527531699 -0.00174827975209382 0.4216379 0.9055477 -0.04695673 96 96 96
0.0261980361345823 -0.00183655890732326 0.0309977512878856 0.7835118 -0.6177498 0.06704096 160 160 160
0.0366321857759029 0.00930107565932303 0.0185683241729258 0.5275327 -0.849517 0.005490836 139 139 139
0.0142575876269125 -0.0207125182987187 -0.0270461506526681 -0.1604373 0.01714831 -0.9868971 69 69 69
0.0218224789684903 0.00777238892758625 -0.0261359323967983 0.06631375 0.1914342 -0.9792627 80 80 80
-0.0223915237671513 -0.0375206564220683 -0.0275116011579621 -0.1519299 -0.1114492 -0.9820877 120 120 120
0.00380262571722234 -0.0681145459239132 -0.00926895169523848 0.4511264 -0.6572552 0.6037388 132 132 132
0.0139527068591567 -0.0323529001081602 -0.0260087146823636 -0.1306489 -0.1554808 -0.9791611 81 81 81
-0.0143647032207774 -0.0222996630550416 0.0129064553904566 -0.2538937 -0.6016668 0.757321 49 49 49
0.0514976483027615 0.023202765046541 0.0131673796120031 0.9395685 0.144191 0.3105158 78 78 78
-0.0381270834103178 -0.00663832730735336 -0.0256451417170929 0.07769173 -0.02781115 -0.9965894 39 39 39
-0.0237339606106231 -0.0354759634056769 -0.0127534815686478 -0.4968571 -0.7316691 0.4666833 71 71 71
0.00586244340325148 -0.0362332201441165 -0.0260685569385568 0.1061145 -0.07530698 -0.9914982 96 96 96
0.0285083749836531 -0.0255353432899337 -0.015954003809506 0.9394488 -0.204214 0.2751956 98 98 98
-0.0488991941007366 0.018927752855233 -0.0273787372662425 -0.0149312 -0.09082406 -0.995755 76 76 76
0.00334396746031218 -0.0738890521802429 -0.0161489995521294 0.2813095 -0.8886817 0.362091 66 66 66
-0.0158883880768144 0.0337310943192488 -0.0282792915044394 0.08271993 -0.1156591 -0.9898385 102 102 102
-0.00409072867628113 0.0258774645733717 -0.0262710253247352 0.06414969 -0.1578705 -0.9853739 65 65 65
0.0130454179981431 0.00313879145419826 -0.0261827753711259 -0.1588666 0.07126433 -0.9847248 95 95 95
0.017922840278363 -0.00914566377504511 0.0335864261980804 0.4815356 -0.8297106 0.2823187 128 128 128
0.0149492229563524 -0.050707419630883 -0.0241866964181432 0.1183675 -0.1218168 -0.9854693 81 81 81
0.032551779606332 0.00211208442998023 -0.026301763603237 0.459267 -0.01469244 -0.8881768 143 143 143
0.046858876949779 0.017455254284364 0.00601343300409643 0.5363617 -0.8295251 -0.155577 154 154 154
-0.0116728002828186 0.0325638874551233 -0.0273012190201246 0.05336416 -0.1419706 -0.9884314 60 60 60
-0.02857092521355 0.0270131787599543 -0.0277564639036097 -0.03607064 -0.1672516 -0.9852542 229 229 229
-0.0258574140408953 -0.00596467150371849 -0.023689248828762 -0.03476599 0.03448531 -0.9988003 236 236 236
-0.0132887305608533 -0.0604679863410194 -0.0226442754395244 -0.6352997 -0.2381091 -0.7346416 125 125 125
0.00607637433131947 -0.0101395802733601 0.0380766079659196 0.2424126 -0.8358533 0.4925295 88 88 88
-0.0428675138296836 -0.00739082128357782 -0.00973604927261876 -0.8852527 -0.4095025 0.2205343 40 40 40
0.00317520943443961 -0.0164015602854299 0.0273304664344536 -0.1485106 -0.8265753 0.5428793 53 53 53
0.0228559735207019 -0.00424794032814657 0.0365555460482435 0.6904658 -0.6600841 0.2958817 109 109 109
0.0121976778846306 -0.020670357883444 0.00768576358201836 0.8396236 -0.2050859 0.5029633 83 83 83
0.0268352003600891 0.0211274041195344 0.0279630380481515 0.1875802 0.7915467 0.5816076 74 74 74
-0.0111584941715059 -0.00786521052719458 -0.0258172718778397 0.0397437 -0.004448948 -0.9992 148 148 148
0.00957283718057045 0.0209566072525811 0.0312686321816679 0.07215479 0.8508641 0.5204076 39 39 39
-0.0250136158353067 -0.0386169876797482 -0.0265479204386558 -0.3345327 -0.2836959 -0.8986682 96 96 96
-0.0595143461764768 0.00670589889033968 -0.0260733058512659 -0.4649256 -0.3331668 -0.8202707 77 77 77
0.00329360294236047 -0.0554006246549115 -0.00259360070605422 0.3339905 -0.463158 0.8209354 96 96 96
-0.00589914626115096 -0.0286644809833856 0.0126493447003369 -0.2283143 -0.3759883 0.8980564 81 81 81
-0.0100192458689504 -0.0561139470610394 -0.0125911275867543 -0.6698334 -0.2872329 0.6847047 83 83 83
-0.0275163031622702 -0.00740168764720095 -0.0243432781318225 -0.01594447 0.00754803 -0.9998444 229 229 229
0.0373541232001157 0.00887348892499418 -0.0183763264995261 0.9543421 -0.2932716 0.05677132 140 140 140
0.015030882735787 -0.00440300518115233 -0.0271282836621543 -0.07850338 0.009486821 -0.9968687 101 101 101
-0.0567223319359539 0.00915476210835608 -0.0147179820624352 -0.7475875 -0.6071984 0.2691154 39 39 39
-0.0131228245971807 -0.0648158257253217 -0.0213307556342219 -0.6955695 -0.4024908 -0.5951338 128 128 128
-0.00980672135316707 -0.0379361801373983 0.00259270653545637 -0.5560727 -0.7161189 0.4218494 61 61 61
0.0118846667245378 -0.0158064868684196 0.0197553039240887 0.6468214 -0.7601919 -0.06107713 147 147 147
-0.0116069166314217 -0.0136459399933797 0.0271048135773625 -0.3229617 -0.9087952 0.2641724 61 61 61
0.0199476394555921 -0.0369111783530272 -0.0262696756264784 -0.04416101 -0.1131381 -0.9925974 56 56 56
-0.0108076980136655 -0.0141813544561731 -0.0258734987084314 -0.04544126 0.007725145 -0.9989371 56 56 56
0.0143398882591486 0.0152895188584767 -0.0260477669933003 0.1228491 0.001604062 -0.9924241 157 157 157
0.0110597843990949 0.0140238084855144 -0.0253800064528302 -0.02436837 -0.01172997 -0.9996342 80 80 80
0.0271326483507629 -0.0281208333413434 -0.0253598208488728 0.784534 -0.1589419 -0.5993695 131 131 131
0.0269944865711761 -0.0286259503646829 -0.0145612198226103 0.9453447 -0.1075776 0.3078157 118 118 118
0.0362564485646711 0.0136020190774004 -0.0227612846962167 0.4821247 0.1584501 -0.861655 172 172 172
-0.0126282036644053 -0.0285498211375603 0.01057525973822 -0.4645026 -0.4316322 0.7732599 90 90 90
-0.0276608592764173 -0.0252342612802916 0.00141653197762301 -0.4536459 -0.8533406 0.256934 84 84 84
-0.00470888961404314 0.0413616241520778 -0.0269249123196272 0.06420596 0.3209026 -0.9449334 136 136 136
-0.0481617253306579 0.0134175732026942 -0.0266591729257049 -0.005722586 -0.1866611 -0.9824077 82 82 82
-0.0373740867028246 -0.0273357986171407 -0.0248892539089828 -0.6828117 -0.2728986 -0.6777127 96 96 96
-0.00876528723727932 -0.0555340610409873 -0.0240543321503844 -0.1725898 -0.08974492 -0.9808968 41 41 41
0.0138691023711293 0.0453923881187892 -0.00880987298887684 -0.06332785 0.9979423 -0.0100349 53 53 53
0.0108219149886631 -0.0457650924449358 -0.0248730266455185 0.03849696 -0.1050125 -0.9937255 156 156 156
0.0446409695368414 0.0251452001944481 -0.0143134347885814 0.4728872 0.1724435 -0.8640838 130 130 130
-0.0474935320831954 0.0125333154505352 -0.0263810136188675 -0.01726814 -0.19577 -0.9804978 110 110 110
-0.0283817705110656 -0.0192594060036508 -0.024798165804278 -0.08960576 0.007706483 -0.9959475 93 93 93
-0.027245754206467 0.0161123821386451 -0.025940924339168 0.04915303 -0.119245 -0.9916474 57 57 57
-0.0389780084063334 -0.0186896335446529 -0.0110624113918678 -0.9111851 -0.3330177 0.2425714 29 29 29
0.0379345824177779 0.0417420070116488 -0.00882807371163566 0.3943218 0.8278417 -0.3989844 137 137 137
-0.0272634978925512 0.0180670588919174 -0.0264959492360212 0.02737654 -0.1446444 -0.9891049 86 86 86
-0.0303692806826603 -0.0242167284023551 0.000783751210497646 -0.4147521 -0.8668203 0.2767731 105 105 105
-0.0425909085487945 -0.00710054349222977 -0.0258696990927872 0.006825195 -0.01486291 -0.9998662 50 50 50
0.0181791806276338 -0.00420976961160235 0.0414746379909773 0.2875544 -0.7427945 0.6046228 95 95 95
-0.00585431065120201 0.00857848212277035 -0.0240845105908592 -0.04115183 0.0290096 -0.9987317 82 82 82
-0.02099805198963 0.0408160802540873 -0.0259316708600661 -0.07771942 0.6907205 -0.7189332 83 83 83
0.0188210113743207 0.007817632183863 -0.0262549958087818 0.002535847 0.1828879 -0.9831305 55 55 55
0.00779268368356356 0.0288653242282582 0.0188269073966132 0.04002863 0.8106343 0.584183 39 39 39
-0.00078031887872998 0.0338900573580729 0.01146795651333 0.05461419 0.8467913 0.5291141 55 55 55
0.0226707144228646 -0.00697708494641214 -0.0271533576203173 -0.01540622 0.01828358 -0.9997141 77 77 77
0.0228795040051374 -0.00528340795519 0.0172416942081319 0.6950176 -0.6800221 -0.2334962 179 179 179
0.0306890767676073 0.0298188492928724 -0.0189846684127881 0.212397 0.2274878 -0.9503351 127 127 127
-0.00505805076960197 -0.0304285664422499 0.0118305781664299 -0.2321583 -0.3777298 0.8963385 118 118 118
0.0370169516719751 0.0111354915591051 -0.0226694780839695 0.6792165 -0.06670269 -0.7309006 114 114 114
-0.0157325572897461 -0.0263324620685412 0.00892170470593809 -0.3981164 -0.6433176 0.6539463 34 34 34
0.0426765879259785 0.0178712445247442 -0.00478473015039918 0.4250637 -0.897121 -0.1203947 122 122 122
0.029009015779527 -0.01124246974854 -0.0174279618687617 0.9490172 -0.1297165 0.2872977 132 132 132
0.0117359257685883 -0.0134668811305323 -0.0263619059433556 -0.08287548 0.0198746 -0.9963617 117 117 117
0.0124776792899417 -0.0182088605285675 0.0071362692233021 0.8541982 -0.2828336 0.436292 72 72 72
0.0374674627861169 0.0116725616534166 0.00373272814042638 0.503204 -0.8277239 -0.2483118 146 146 146
0.0239444734411456 0.0340104926422349 -0.0207535747362599 0.4931515 0.11756 -0.8619636 131 131 131
0.0337014171010608 0.0133526432151128 -0.00238008498612638 0.4882571 -0.8067406 -0.3328282 144 144 144
0.0161180474822902 0.0220026331657242 0.0285925559742612 0.02769104 0.8160121 0.5773712 35 35 35
0.0352689008405267 0.00728214237738189 0.0375067778425058 0.7141846 -0.6075481 0.3475999 69 69 69
-0.000931051737391497 -0.0612806682846152 -0.005352305656837 -0.2642776 -0.4350781 0.8607348 89 89 89
-0.00154490493198989 -0.0731914423664639 -0.0148459947752118 -0.2463702 -0.8955223 0.3705962 132 132 132
-0.0408458762983824 -0.00955921437379614 0.00824369702436503 -0.8694562 -0.4868005 0.08409056 37 37 37
0.0245019031921039 -0.00189581275998285 -0.00363387869960322 0.7349679 -0.1989609 0.6482566 75 75 75
-0.0386413635082994 -0.0146320118123058 0.00333310684564045 -0.8886787 -0.4511092 0.08216298 30 30 30
0.00565108505880951 -0.055726551383124 -0.00135726544730883 0.3189055 -0.5746912 0.7536771 67 67 67
-0.0302662535054086 -0.0257465801918435 -0.00483218104133568 -0.4410288 -0.7941656 0.4180845 83 83 83
-0.00976815227170702 -0.0117199512566657 -0.0259421420128237 -0.01556093 0.04826469 -0.9987134 56 56 56
-0.0264233179284407 -0.0366345101107239 -0.0163181278895849 -0.5001296 -0.7390134 0.4513641 94 94 94
0.00330260835644547 0.0440168490229988 -0.0139327464569989 -0.07246933 0.9954277 -0.06222549 118 118 118
0.00353372236193539 -0.0053164858291268 -0.0255334193366403 -0.1419433 0.06554712 -0.9877022 43 43 43
0.0081694129079467 0.0246261901074256 0.0254755886175963 0.08076232 0.8531338 0.5154029 49 49 49
0.0182578399583939 -0.0164040305570357 0.000649641054340039 0.731689 -0.2540439 0.6325289 60 60 60
0.0237189010899878 -0.0229697705566207 -0.00628478991663703 0.8407823 -0.0875337 0.53425 105 105 105
-0.0139367646482318 -0.0477747284996475 -0.0248125280401932 -0.137249 -0.2458065 -0.9595529 85 85 85
-0.00585595545174333 -0.0538855363240487 -0.00726031094036192 -0.7185092 -0.3153107 0.6199384 61 61 61
-0.0388448953924828 0.0105593937688946 -0.0254351613458741 0.07821006 -0.1966045 -0.9773586 82 82 82
0.0230390389288717 -0.0396205902761897 -0.0259216444399825 0.3042518 -0.1842158 -0.9346098 133 133 133
0.0278806657222708 -0.00049522009645675 0.0206188954250281 0.7574921 -0.6259665 -0.1853961 157 157 157
0.025759296447879 0.0243495671505478 0.0236616333663364 0.1715471 0.783897 0.5967219 66 66 66
0.0316302570259885 0.0249991031209531 -0.0194684692010595 0.2127736 0.2122836 -0.9537626 138 138 138
0.00227837380704254 -0.0709003389675169 -0.0115234785204526 0.2854707 -0.8030839 0.5230322 86 86 86
-0.0462383980244373 0.00859572658357766 -0.0258124767956877 0.02363662 -0.1396535 -0.9899183 242 242 242
0.0476357505693775 0.017282367469118 0.0144631607288772 0.639553 -0.7675409 0.04304506 129 129 129
0.0142988976033948 -0.0135698883238751 0.0240845928027723 0.7598521 -0.64617 0.07133874 160 160 160
-0.0361121544077361 -0.0151070432439675 -0.0245929025623886 0.06596018 -0.04364327 -0.9968674 72 72 72
0.00954698249355612 0.00295283748119846 -0.0256282937321638 -0.1048854 0.05736331 -0.9928285 82 82 82
-0.0172709755967383 -0.0523524417420644 -0.0218670948887157 -0.6270239 -0.3041417 -0.7171742 121 121 121
-0.00202270621621436 0.0297638949236358 -0.0270882705326375 0.08445846 -0.1671682 -0.9823042 136 136 136
0.0517033179425297 0.0216399802131735 0.00259374916135288 0.6024073 -0.791998 -0.09921993 110 110 110
0.0202758991023899 -0.00234151725065534 0.0427367663520418 0.341585 -0.7441986 0.5740106 91 91 91
-0.0433018271977187 0.0451746972616749 -0.0271790380796382 -0.1093979 0.2931835 -0.9497766 66 66 66
-0.00186533201508254 -0.0178110003231193 0.0233707271279253 -0.2587816 -0.8307185 0.4928883 100 100 100
0.0385367397938239 0.0232244769396586 -0.0181047241881555 0.4166471 0.2556041 -0.8723943 164 164 164
-0.0502082954237059 0.0192833633078451 -0.0274194552075266 0.01201979 -0.08671839 -0.9961603 117 117 117
0.0200241677575135 -0.00279466179264443 0.00535014258603708 0.8513091 -0.5244545 -0.01484638 128 128 128
0.0226115001551221 -0.0057121824938644 0.0271721033824382 0.6255817 -0.7800512 -0.01294533 127 127 127
0.0138337375273876 -0.0397589565773051 -0.0250369372632245 -0.06194861 -0.02589818 -0.9977433 16 16 16
-0.00626318306931839 -0.0656465958094987 -0.0235043639875767 -0.2483334 -0.2517773 -0.9353816 81 81 81
0.0537731702891735 0.023651541096968 -0.00260696558399401 0.6541443 -0.7491829 -0.10402 164 164 164
-0.0168947830797469 -0.0170905456015722 0.0174658717934659 -0.1467509 -0.7425233 0.6535467 65 65 65
0.0270784838387709 0.017765471023226 -0.0223290665985968 -0.01573293 0.2819677 -0.9592949 158 158 158
0.0228818160635806 -0.0477568110471831 -0.0187681792549874 0.9182972 -0.3957247 0.01149772 162 162 162
-0.00183574743304826 -0.0159318100177359 -0.0247805105262577 -0.00487496 0.05160236 -0.9986558 185 185 185
-0.0420691266959646 0.0442278965670388 -0.0276570557390047 -0.05941643 0.2751796 -0.959555 75 75 75
0.00743930620208588 -0.00955559619538238 0.039027576741479 0.2685876 -0.8095259 0.5220426 111 111 111
-0.0359261563929175 0.0170735804336366 -0.0266526377388554 0.1385951 -0.07621723 -0.9874119 221 221 221
0.0221468662920579 -0.00540808584121022 0.0239789111530624 0.6269532 -0.778992 -0.01005472 136 136 136
0.015636580687709 -0.00272678190657305 -0.0274971940091177 -0.06992453 0.03598772 -0.9969029 101 101 101
0.0286537449173662 -0.0248128005885568 -0.0164011794795514 0.9395415 -0.20347 0.2754301 124 124 124
-0.029695794766618 0.0019682980128517 -0.0253052882295821 0.0574117 -0.07961646 -0.9951709 94 94 94
0.00869769574503076 -0.0205146580656625 0.0134929877415585 0.8252274 -0.4725218 0.3093912 131 131 131
0.00323906139403529 -0.052222387588583 -0.0245356704957924 0.08747014 -0.06051791 -0.9943272 66 66 66
0.0260996710814818 0.0183581534406554 0.0323001080329682 0.1956619 0.7620583 0.6172388 76 76 76
0.021321200713563 0.0462750046317966 -0.0085964804785805 0.01899322 0.9997155 -0.0144266 84 84 84
-0.029249727805571 0.0422680912992208 -0.0255955844517102 0.2123376 0.6287789 -0.7480306 136 136 136
-0.0340559369613272 0.0171883912663875 -0.0263445618641509 0.06097339 -0.08436086 -0.994568 178 178 178
0.0250976028399458 0.0113823858712798 -0.0248232490662997 0.1014267 0.3843472 -0.9176 168 168 168
-0.00458351875209839 -0.0717569138938678 -0.0162784616830034 -0.4279441 -0.8967389 0.1127967 95 95 95
0.018049084108123 -0.0122926175581894 -0.0274857367645365 -0.07162909 0.0185882 -0.9972581 64 64 64
-0.0110396547330178 -0.0605461092175057 -0.0240829350676839 -0.1892093 -0.1774392 -0.9657718 53 53 53
0.0328065635134003 -0.00132416258212142 -0.0255411185564001 0.7606465 -0.3451738 -0.5497926 130 130 130
-0.0204722634449843 -0.020450654309174 0.0141617004298414 -0.1120088 -0.7129838 0.6921764 84 84 84
-0.00228406448126783 0.00621101327034679 -0.0254804627791536 -0.1106047 0.04419717 -0.9928812 184 184 184
0.0423295624307216 0.0250886953630027 -0.0160000817362553 0.4926681 0.2384536 -0.8369098 192 192 192
-0.0427767059684363 -0.0109282108566684 -0.025754771386007 0.001604129 -0.09734097 -0.9952498 101 101 101
-0.038847358133034 0.0401957096545356 -0.0291870927290225 -0.0173609 0.1222747 -0.9923444 112 112 112
-0.0498440563968874 0.00634661979445128 -0.0255608470098762 0.0006966208 -0.1211977 -0.9926282 75 75 75
0.0311681584797894 0.00527016082538823 0.0172297953055407 0.7128629 -0.6976976 -0.07102428 176 176 176
-0.00655766624925924 0.043916485519933 -0.0137561066117361 -0.02085298 0.9990591 0.03802742 73 73 73
0.0271209295161752 0.0138680815589791 0.036851747315183 0.2544077 0.768465 0.5871442 65 65 65
0.0168463299810632 -0.0464717539625599 -0.0243466114565646 0.05526195 -0.1778167 -0.9825107 110 110 110
-0.0544732568556485 0.00423867088953944 -0.019402621068576 -0.7883899 -0.6150588 0.01200274 41 41 41
0.000674773903622139 0.0127825976238045 -0.0254597587783848 -0.09362156 -0.0008744692 -0.9956075 101 101 101
-0.011009805474786 -0.0484759279086757 -0.0100081716916583 -0.6209264 -0.4329798 0.6534363 55 55 55
-0.0156409378194283 -0.0405109100276213 -0.00755623114427309 -0.6475708 -0.5241308 0.5531175 84 84 84
-0.0190925055716369 0.0167284985248011 -0.0254920276556899 0.03138503 -0.1049142 -0.9939859 72 72 72
-0.0515525609082456 0.00420499987058998 -0.00994638188309763 -0.7201658 -0.6214476 0.3084866 45 45 45
0.0182821493677462 -0.00896619847984592 0.0360600792299428 0.4493473 -0.8189143 0.3570243 92 92 92
0.0311590994602533 0.0440066979923623 -0.00115830705653222 0.1667435 0.9233193 0.3459452 42 42 42
0.0024126433975411 -0.0308231437352169 -0.0262973033437431 -0.08865862 -0.05833171 -0.9943526 70 70 70
0.00552111883578654 -0.0665052533437542 -0.0233498011353563 0.1605107 -0.2074334 -0.964991 94 94 94
0.00827066867845683 -0.0287766619981056 0.00918915736923012 0.6160172 -0.3096451 0.7243223 80 80 80
0.0234735925929647 -0.0425105803225472 -0.0118275285616218 0.8494616 -0.2949585 0.4375094 112 112 112
0.011582193568017 0.0380298746253283 0.00646559681642575 -0.0566881 0.8280583 0.5577686 39 39 39
0.0115129303966658 0.00236770231690975 -0.0265303569536999 -0.1200496 0.07645777 -0.9898193 107 107 107
-0.00188175708917915 -0.0411882391964675 0.00865705479973292 -0.4070378 -0.5244395 0.7478526 59 59 59
-0.0171733206657865 0.00810800504286346 -0.0257864133992378 -0.00371275 -0.1257121 -0.9920598 105 105 105
-0.0277645193854141 0.0487567674108331 -0.0072063985797782 0.2968282 0.9439048 0.1446953 102 102 102
0.0155221067773664 0.0413970595336082 -0.0211508477571407 0.1606714 0.7822652 -0.6018687 119 119 119
-0.052816052242409 0.00366283478268059 -0.0133260802335442 -0.7524444 -0.6166267 0.2315144 52 52 52
0.0487327233460233 0.020413072010032 -0.0070702261882972 0.5572345 -0.8093389 -0.1856348 112 112 112
0.0272217875095534 -0.00164549884129417 0.0272513494820582 0.8102604 -0.5813371 0.07433307 148 148 148
-0.0166159333030093 0.0044295743390379 -0.0248185838274354 -0.01741209 -0.1134541 -0.9933906 70 70 70
0.0487808351935159 0.0253443377289124 0.0131513460102601 0.6459426 0.6072353 0.4626268 54 54 54
0.0393279046303656 0.0116792305630524 0.00946752742176896 0.5928072 -0.7773649 -0.2104364 124 124 124
0.0349624959757564 0.00992312275210705 0.00551553632362559 0.4861228 -0.8448014 -0.2235962 99 99 99
-0.0225542648490765 -0.00930047577332638 0.0290064272544562 -0.2461393 -0.872747 0.421578 71 71 71
0.0182555472075175 -0.00689350240859166 0.00454764411741052 0.9033208 -0.2385758 0.3565011 94 94 94
-0.0383629375455868 0.0219460910220028 -0.0271312511990609 0.1200881 -0.020154 -0.9925587 236 236 236
-0.0078914488172227 -0.0166482551779719 -0.0260606097181111 0.07670522 0.01795484 -0.9968922 102 102 102
-0.00998609165431574 -0.0102012715362203 0.0378293510799942 -0.2970523 -0.8284585 0.4747803 112 112 112
0.0293579011613553 0.0405107097513222 -0.016582110888501 0.3592595 0.5057077 -0.784342 182 182 182
0.0251452376632928 -0.00049936134720352 0.0150720976213928 0.7207682 -0.6597536 -0.2126464 126 126 126
0.0267335837323428 0.0200694531037668 0.0297259626005208 0.1834642 0.7781807 0.600646 81 81 81
-0.0327464054104756 0.039866715340845 -0.028098464727715 0.1821577 0.3178095 -0.9304922 105 105 105
0.0093562943666009 -0.0514804734879872 -0.00288559345164499 0.4146682 -0.6803568 0.6042888 106 106 106
0.0281819821308609 0.00317343028993355 -0.0262591449476688 0.08589642 0.1219239 -0.9888156 171 171 171
-0.0294460182565889 0.0483082454260553 -0.0160155513296658 0.2599604 0.9374518 -0.2315268 62 62 62
-0.0494902400759711 0.00449401032974395 -0.0048125699944718 -0.7429796 -0.6308213 0.2237092 39 39 39
0.0285435074433554 -0.00200054484939116 -0.0267296396104198 0.200478 -0.02801309 -0.9792976 112 112 112
0.0030230820797551 -0.0615740226811079 -0.00456088663551538 0.3440801 -0.4453405 0.826608 98 98 98
0.0063527700554239 -0.0216437592181362 -0.0277037224827693 0.04588678 -0.01252037 -0.9988682 249 249 249
-0.0163743364834734 0.0433974794572145 -0.0233858457024188 -0.1712261 0.8693005 -0.463679 102 102 102
0.00829278638950659 0.00181326325852749 -0.0258601061199057 -0.08985346 0.05495537 -0.9944376 81 81 81
0.0392983400950171 0.0107199444636814 0.0122646597859243 0.5891983 -0.8001724 -0.1121135 129 129 129
0.00108316162768918 0.0300644044354679 -0.0264728732532493 0.09942164 -0.1021828 -0.9897848 90 90 90
0.0280150756448408 -0.00978465152302066 -0.00850751661004309 0.9280928 -0.2213371 0.2994223 136 136 136
0.0141981108981486 0.0455306022739239 -0.00591125523190747 -0.09613056 0.9800617 0.1738906 65 65 65
-0.0329546174054487 -0.00923582966567227 -0.0246272451322225 0.1329418 -0.06726444 -0.9888387 130 130 130
-0.00364275598235497 0.00981371559978839 -0.0251273267776105 -0.1114705 -0.0001880362 -0.9937677 55 55 55
0.0116934491152544 -0.0381716391609757 0.00318590504094982 0.6705364 -0.1952734 0.7157159 116 116 116
-0.00686925910294478 -0.0599832954311417 -0.0242449537965279 -0.1603147 -0.1239851 -0.9792481 74 74 74
0.00345112340166887 0.00133811633297998 -0.0255343984180804 -0.08290248 -0.05762611 -0.9948902 99 99 99
0.00581202549005222 0.0392386151461135 -0.0261885707954818 0.1741643 0.3095114 -0.9348099 139 139 139
-0.0413751376097411 0.00105156734501999 -0.0251968295985673 -0.006447292 0.03567202 -0.9993427 225 225 225
0.0391678809107804 0.0126664191348782 0.00522608734232602 0.5587958 -0.8069493 -0.1912592 152 152 152
-0.0332805719547586 0.0503055153227394 -0.016131655898661 0.3686449 0.9084591 -0.1969848 78 78 78
-0.0222611583738241 -0.0417021749859172 -0.0200311247609696 -0.6105912 -0.7845919 0.1076749 90 90 90
0.0010337133292756 -0.00299217873418955 -0.0246567118684506 -0.08563053 -0.03088041 -0.9958483 121 121 121
-0.0345901692799041 0.0482762914632651 -0.0218295173720081 0.3472947 0.8010046 -0.487625 102 102 102
0.0473334233784541 0.0201328168025987 -0.0101021854925464 0.5811833 -0.7354742 -0.3482869 147 147 147
0.0163565407383293 -0.0103390158165608 0.0133613731615933 0.8216133 -0.5551528 -0.1294489 186 186 186
-0.0251190240617644 0.0188969990479917 -0.0264190605612691 0.04827509 -0.1641679 -0.9852504 85 85 85
-0.0245039014278852 0.0479361972013532 -0.0106776226889296 0.3372459 0.9398655 -0.05401802 106 106 106
0.0168614576120883 0.0415947753813879 -0.0207409213974067 0.1618493 0.7483531 -0.6432515 150 150 150
-0.00717541030967517 -0.0553881367205202 -0.0240409187246294 -0.1802452 -0.1028157 -0.9782334 48 48 48
0.01754490064867 -0.00943377522785105 0.0156072066169543 0.7864689 -0.597815 -0.1551899 154 154 154
0.0413534938457071 0.0237688696322591 0.0203722493474749 0.2987117 0.7187779 0.6277975 23 23 23
-0.0158752832771207 -0.0413744975271928 -0.00909543020310535 -0.6874231 -0.4874641 0.538357 68 68 68
0.0358526800129876 0.00410612813762734 -0.0218306434594447 0.9073367 -0.2930536 -0.3014296 115 115 115
-0.0364494439882457 0.0247141841748264 -0.0271845456247977 0.05927163 -0.127624 -0.99005 210 210 210
-0.0435984425227424 0.0184744834581376 -0.0277010268265316 -0.01911035 -0.06286255 -0.9978392 121 121 121
0.000315732472533137 -0.0219827074949108 0.0206899977973589 -0.2596827 -0.7239663 0.6390913 82 82 82
-0.0161254230025641 -0.0252208617636787 -0.0264206821430395 -0.04526455 0.09568358 -0.9943821 29 29 29
0.0246519243701291 -0.0150324325103541 -0.00545709403149017 0.7774177 -0.1384729 0.6135528 122 122 122
-0.0156627173034694 -0.0262169240427703 -0.0266888730143192 -0.05638947 0.09997379 -0.9933909 76 76 76
0.00876791786917819 -0.0116797093668524 -0.0265080942564073 -0.1201846 0.0140594 -0.992652 231 231 231
0.0183273913697392 0.0355268393711561 -0.0241573451629755 0.4607251 0.263487 -0.8475299 100 100 100
-0.0186740946460608 -0.0361589900415309 -0.00693487437872106 -0.5761003 -0.6948767 0.4304125 46 46 46
0.00219216602321115 -0.0210310428772236 0.0226039135118653 -0.01559897 -0.7558517 0.654557 112 112 112
0.0505601051398756 0.0369323980759455 -0.0013753931911962 0.5521238 0.8289376 -0.08956409 113 113 113
-0.0294664068716832 -0.0232943038111719 0.00472211345270337 -0.4192001 -0.8628451 0.2824354 78 78 78
0.0521975083378888 0.0228597283952414 -0.00543889708704207 0.6748264 -0.7086588 -0.205942 143 143 143
-0.0270563014402753 -0.021118567139917 0.0122473937835427 -0.2865202 -0.7469901 0.5999267 91 91 91
0.0423789979317908 0.0275373331864872 0.0155444195735742 0.3048289 0.7886462 0.533963 40 40 40
0.0335537924841576 0.0009164300339497 -0.0251914300540033 0.7167884 -0.2096546 -0.6650258 120 120 120
-0.0254315632045832 0.0247076692518799 -0.0271107492588354 0.02434071 -0.1465659 -0.9889014 241 241 241
0.0128404742570327 -0.0159272949257574 0.0188382628246217 0.6807329 -0.7289061 -0.07279167 149 149 149
0.0161694593019418 -0.0305828981583394 -0.0267864197655665 -0.1050316 -0.1850851 -0.9770936 65 65 65
0.0474331607708169 0.0238793071094874 -0.0132352727932981 0.5939689 -0.06426521 -0.801917 179 179 179
-0.0144099730922809 -0.0146016278441996 0.0225863866919747 -0.2057882 -0.8850513 0.4175349 59 59 59
-0.0266568386237351 0.0374546768502291 -0.0280862607553321 0.0769421 0.1984583 -0.9770846 119 119 119
0.00443147043514425 -0.0510566059589934 -0.0240363309109221 0.05855487 -0.1110484 -0.9920885 103 103 103
0.0338352099215099 0.00801043383927591 -0.0252827195722496 0.4547511 0.1254819 -0.8817345 73 73 73
-0.0233394632661567 -0.000282950873421006 -0.0243534622509705 0.04298815 -0.08015049 -0.9958554 243 243 243
0.0071389797476834 0.01420183252109 0.0432632972703652 0.1172444 0.8550392 0.5051352 70 70 70
0.00229619260161584 -0.0583459057176281 -0.00324882214649894 0.2749372 -0.4787562 0.8337878 118 118 118
0.00228009106794114 0.000451813911464649 0.0514401497530338 0.3510252 -0.5537699 0.7550631 53 53 53
0.020287017179441 -0.00271240278770257 0.00137373159201501 0.8919462 -0.3082291 0.3307971 73 73 73
0.0517064594637604 0.032353048920712 -0.00709010066787666 0.529879 0.4916341 -0.6910312 145 145 145
-0.0250898022198618 -0.0141829848814496 -0.0253305000308535 -0.1043804 0.08426499 -0.9909612 140 140 140
-0.00936306804642362 -0.00524637935279082 -0.025520781788987 0.07380766 0.02300416 -0.9970071 211 211 211
-1.1691045970208E-05 0.0206413769881908 -0.025943727553497 -0.03319495 -0.05644627 -0.9978536 64 64 64
-0.0332575626723787 0.0306358327921423 -0.0279498059515836 -0.03186277 -0.166422 -0.9855397 87 87 87
0.00440985305276431 -0.0555113038402597 -0.00325762676865751 0.3927051 -0.4727563 0.7888499 79 79 79
0.0422304007835094 0.0351463988299621 0.00637145133714836 0.2617025 0.6713867 0.6933626 131 131 131
-0.0119312456064044 -0.0120710033235338 0.0329817886988272 -0.3278908 -0.8818396 0.3388903 103 103 103
-0.0191456033767843 -0.0355830562056576 -0.00608194046243535 -0.5531287 -0.7307705 0.4000288 74 74 74
0.0190912736342017 0.018571574785905 0.0337718024914746 0.1174929 0.7922554 0.598771 50 50 50
-0.0508814568469768 0.00955087068444227 -0.025688921106926 0.01166489 -0.1633329 -0.9865021 95 95 95
0.016979074471236 -0.00622088911817587 -0.0273833170447972 -0.03610352 -0.007187678 -0.9993222 121 121 121
0.0455137486970395 0.0184104147838333 -0.000113803945463536 0.4588473 -0.8783296 -0.1341505 137 137 137
0.00720792451091468 0.0449710806934505 -0.00941415352868405 -0.122238 0.9923788 0.01555949 72 72 72
-0.0170590470491293 -0.0300119937742529 -0.0266269923685334 -0.05346006 0.06624146 -0.9963704 50 50 50
-0.0338765940504284 0.00733445739368643 -0.0252741683031852 -0.0158796 -0.02558685 -0.9995465 93 93 93
0.0501390432852737 0.0279186869113408 -0.0102100862175063 0.552476 0.264486 -0.7904539 157 157 157
0.0263441199041622 -0.00129802749481644 -0.00561731263099888 0.7280099 -0.1960432 0.6569388 89 89 89
-0.0101229309207448 -0.0438101638510715 -0.00494452846888879 -0.599081 -0.5688555 0.5634761 73 73 73
-0.0331444727392117 -0.00351506309814353 -0.0253732904340623 0.1161439 -0.05993464 -0.9914224 57 57 57
0.0196222396978487 0.019838494562465 -0.023062574923747 0.5089722 0.01688332 -0.8606174 193 193 193
0.0120975981985247 0.0147164676538414 -0.0259082928279677 0.02848404 -0.02325612 -0.9993237 81 81 81
-0.037397010393166 -0.0101415063779269 -0.0255321094925395 0.1093042 -0.06867982 -0.9916328 120 120 120
0.0263615964879114 0.00104761285276989 0.0106217731444947 0.6587201 -0.7180478 -0.2247113 197 197 197
0.00916190940948891 -0.0188540333869542 0.0210417460347542 0.593393 -0.7986568 0.1001605 134 134 134
-0.031739199180383 0.00715674818113388 -0.0250680657277025 -0.0282152 -0.02615319 -0.9992597 53 53 53
0.0132078661893574 0.0159381850614284 -0.0260428538172969 0.0746235 -0.02183911 -0.9969726 101 101 101
-0.0484663751060063 0.0302507347116758 -0.0285522117013438 0.05630786 -0.09741907 -0.9936493 97 97 97
0.025828934486278 0.019834971212944 -0.0214525343980025 0.02208847 0.2247957 -0.9741555 122 122 122
0.0228666348758174 -0.0415968566925138 -0.025722086986189 0.3175505 -0.1960531 -0.9277526 141 141 141
0.0290351565495639 -0.019906121194069 -0.0150137817338098 0.9467155 -0.01394136 0.3217691 121 121 121
0.0025957399455101 -0.0343218803011087 -0.0261922426850323 -0.07134131 -0.02253203 -0.9971974 50 50 50
0.0153884875016298 -0.0364730490041372 0.000246202657260469 0.6717106 -0.2211578 0.7070318 120 120 120
0.0300775777609036 -0.0108518647586739 -0.0197845107223415 0.9633713 -0.1528844 0.2203228 100 100 100
-0.0270920678482762 0.0297187197990441 -0.0280919776478902 0.03045408 -0.1237967 -0.9918402 92 92 92
-0.00946651261248399 0.0441031941973409 -0.0174162096858011 -0.01331432 0.9990836 0.04067784 88 88 88
-0.0118062677756645 0.0270412524533663 -0.0269104130792178 0.03304555 -0.1394764 -0.9896739 30 30 30
0.022616647795245 0.017989420155508 -0.0221772323384163 0.2670476 0.2382301 -0.933773 131 131 131
-0.0112699810333607 -0.0577025367954611 -0.0153229597377043 -0.8359967 -0.4218683 0.3509082 123 123 123
-0.0358669337427991 -0.017915419261785 -0.0251227890189546 0.01625231 -0.008392874 -0.9998327 87 87 87
0.0159851336585248 -0.0136779452996341 -0.0268637918645397 -0.1078822 0.03086939 -0.9936843 81 81 81
0.0211460936497309 -0.00270159503468137 0.0100264438368582 0.6858637 -0.6750124 -0.2719361 150 150 150
0.00842110481154923 0.0193685567070301 -0.0258684859743427 0.01867192 -0.01096504 -0.9997655 89 89 89
-0.0275652703482969 -0.0293972146807056 -0.00713504729015949 -0.4914801 -0.7248585 0.4827292 63 63 63
0.0415511035404873 0.0402229953870279 -0.00785137077934098 0.5019819 0.773987 -0.3859512 138 138 138
-0.0294776144563208 0.0220750649944434 -0.0270412138804707 -0.0212235 -0.124317 -0.9920155 62 62 62
-0.0217852348436317 -0.0240960155669674 0.00967780618085687 -0.1649688 -0.8104779 0.5620595 94 94 94
-0.0268048031629095 -0.03498245210021 -0.0262569531612434 -0.3562911 -0.1453997 -0.9229927 69 69 69
0.0283191233304674 0.0400711000863341 -0.0175501897498196 0.360712 0.4483256 -0.8178576 199 199 199
0.0372037108578387 0.0111703060868322 0.00676910854581439 0.5286619 -0.8183508 -0.2254297 127 127 127
0.00551742266187949 -0.0271517613539922 0.0162810959392315 0.67606 -0.507169 0.5345302 208 208 208
-0.0198707406815776 0.0394558162458736 0.00899977239472291 0.2844822 0.8532187 0.4371359 41 41 41
0.0288398177240267 0.00197259825451979 -0.0270614827874074 0.1390626 0.09988424 -0.9852333 132 132 132
0.0254598423183124 -0.00222109086367239 0.0338570938014747 0.7531161 -0.6392516 0.1554782 89 89 89
0.0305918465085794 0.00838708044489378 -0.0258779193663924 0.1258655 0.2731208 -0.9537101 123 123 123
0.0471867805525151 0.0164450507160949 0.0185126870057365 0.7497348 -0.6490425 0.1290022 119 119 119
-0.0421764328572822 -0.00818738855174184 -0.00840996108653727 -0.8976752 -0.394877 0.1955797 46 46 46
0.0233571963369988 -0.00413535931088393 0.0370901136810801 0.6821095 -0.6740754 0.2834589 135 135 135
0.0143656559760412 -0.0226517085613731 0.00431133067765141 0.7500727 -0.001391625 0.6613539 73 73 73
-0.0113097725876791 0.0311785810403669 0.0198036259894242 0.1805728 0.8645432 0.4689974 19 19 19
-0.0121497384152561 -0.0578818532030676 -0.0235464206734779 -0.1598324 -0.113934 -0.9805471 80 80 80
0.00656642225593085 -0.0385845400874247 0.00817304664720739 0.5099356 -0.1684159 0.8435649 142 142 142
0.0125049966347413 -0.0258333871319143 -0.0268691763223305 -0.2055504 -0.08043811 -0.9753352 110 110 110
-0.00240469644456176 -0.0500961674611249 0.000133858367045575 -0.514919 -0.6561514 0.5516556 78 78 78
-0.0238052966682267 0.0299073846994102 -0.0282235858825744 0.06011623 -0.09650646 -0.9935153 104 104 104
0.0067863122439783 0.0320771990086191 -0.0259548105292064 0.0735771 -0.005319742 -0.9972754 94 94 94
0.02372787193646 -0.0433220253448114 -0.0247436995752688 0.487538 -0.3209248 -0.8119814 159 159 159
0.00858476700200272 0.0209159042509603 0.030670732103431 0.06697922 0.8534959 0.516777 20 20 20
0.0279480521284599 0.0031632692318202 0.0102360781567033 0.6515224 -0.7259396 -0.2202957 218 218 218
0.0211724777006308 0.0290516664378957 0.0190264096652734 0.128976 0.7957649 0.5917122 35 35 35
-0.0573543021830599 0.00720890783410644 -0.0184307691896 -0.7296088 -0.675703 0.10534 52 52 52
-0.0118626423974818 0.0444888414731937 -0.0238321272803946 -0.1048197 0.8758726 -0.4710203 133 133 133
0.0281902375691994 0.000905553838342676 0.0300060231583233 0.7618562 -0.6477073 0.007097726 83 83 83
-0.0353171131897363 0.0188872897425929 -0.0264798680425677 0.09359656 -0.04712942 -0.9944941 94 94 94
-0.00105932903974337 -0.0365249462009591 0.0107702694807148 -0.08770742 -0.346853 0.9338096 101 101 101
0.0254993131944169 0.0302974466071433 -0.0201693211962371 0.3725216 0.120738 -0.9201359 181 181 181
-0.0246694540065979 0.0165449403567095 -0.0259697625792362 0.06174866 -0.1569324 -0.9856771 78 78 78
0.0261284737434065 -0.0252825665724885 -0.0118125913685714 0.898836 -0.1587691 0.4085171 125 125 125
-0.0409651459862274 -0.00981653343563216 0.00314525843129296 -0.885217 -0.4632257 0.04257897 21 21 21
0.0315571325399835 0.0283408377276371 -0.0194962809912504 0.191995 0.2042656 -0.9599028 74 74 74
-0.0459916763662858 0.000578583216426454 0.00109369776620202 -0.8404964 -0.5418099 -0.002794383 29 29 29
0.00142057522834871 -0.00922298819082457 0.0437286264125295 0.1233792 -0.7676537 0.6288763 85 85 85
0.0204575510005551 0.0432546642739897 -0.0191573251957375 0.1870532 0.7582465 -0.6245585 171 171 171
0.0164636114095922 -0.00325632549320698 -0.0277524985031279 -0.04137199 0.01407742 -0.9990447 122 122 122
0.00525535684336054 -0.00788070415574671 0.043853619321281 0.2761016 -0.7198443 0.6368611 110 110 110
0.00565894621723773 -0.00679460236740437 -0.0258880229868344 -0.1457186 0.03783866 -0.9886022 64 64 64
-0.0393629828127285 -0.0151352523424408 -0.0247685571134084 -0.05172837 -0.1433477 -0.9883196 57 57 57
-0.0271952047057986 0.0455133919339819 0.00147012021266454 0.2946821 0.8903401 0.347069 80 80 80
0.0198388420231244 -0.00866279243959522 0.0011605619664338 0.8182626 -0.01250556 0.5747085 62 62 62
-0.0258212669980767 -0.023790855493282 0.00869809263390484 -0.2786475 -0.8607472 0.4259927 116 116 116
-0.0178772363030339 -0.0166382311718158 0.0181395234429585 -0.1057712 -0.770682 0.6283802 56 56 56
0.0411905727659081 0.0174171650610537 -0.00934821652964926 0.4793504 -0.8724336 -0.09530389 142 142 142
0.0293408101737155 -0.0242787903797661 -0.020678778221258 0.980234 -0.1965014 -0.02299133 110 110 110
0.0345277972356491 0.0114922383462177 -0.0237428434774532 0.3969316 0.2031286 -0.8950889 150 150 150
0.00985532870598138 -0.0440658939577916 0.00327466702808957 0.7098949 -0.2727298 0.6493595 117 117 117
0.00634039281528553 0.0326596686515324 0.0134445075081999 -0.01594664 0.8062682 0.5913353 44 44 44
0.0232821923192513 -0.0474102258810665 -0.0224124877444071 0.7579028 -0.4585747 -0.4639963 188 188 188
0.0223754572995655 -0.00752719903986088 -0.00255608677992628 0.7568589 -0.03507494 0.6526364 81 81 81
0.022292308910914 -0.00593547253521676 -0.0020532930932701 0.7545775 -0.05172965 0.6541688 87 87 87
-0.0109802679709844 -0.0230757085030873 -0.0264403072281028 -0.03925585 0.08717008 -0.9954197 182 182 182
0.0262296528180871 0.0126645107953121 0.0396022817162192 0.237211 0.7682218 0.5946143 75 75 75
0.0186596174826592 -0.0440708845364872 -0.0255666524721984 -0.02402581 -0.1886635 -0.9817479 89 89 89
-0.00410195172079886 -0.00337328204350795 -0.0250944370992207 0.0731404 -0.06900114 -0.9949318 88 88 88
-0.0219285477822341 -0.0310665516481714 -0.00105752999079708 -0.5756732 -0.6942706 0.4319591 26 26 26
0.00517778860573437 0.00852728477789855 -0.0253055704591796 -0.02659626 -0.01934475 -0.9994591 88 88 88
-0.00600093662893109 0.042352718758053 -0.00208236238181772 0.05994224 0.9170379 0.3942694 63 63 63
-0.0111438124938387 0.0290145040638963 -0.0275077623851897 0.01965857 -0.1121425 -0.9934977 77 77 77
-0.0174723062908413 0.0266838760078232 -0.0265014901077086 0.06788006 -0.1433247 -0.9873451 75 75 75
0.0453051112599723 0.0384194287361976 -0.00619918634883568 0.5406557 0.7379119 -0.4039522 132 132 132
0.033855029778496 0.0110874933825067 0.000363019328901398 0.5003048 -0.7930406 -0.3475367 110 110 110
0.0476318623116393 0.0379910389753679 -0.00416132407185829 0.4821499 0.8303815 -0.2792815 129 129 129
0.00928294572468102 -0.0497946984561686 0.000967582612166701 0.4643468 -0.6231017 0.6293858 100 100 100
-0.00907098689362273 -0.0401593775005662 0.000749995952235211 -0.5709047 -0.6656544 0.4805954 57 57 57
0.0018304454587158 0.0136962685411508 0.0450599735986789 0.119432 0.8550216 0.5046524 56 56 56
-0.00823623754235259 -0.0170947992671502 0.0219161477362937 -0.2393297 -0.9244091 0.2969665 61 61 61
0.00685072413400989 -0.0271489755648446 -0.026121203067388 0.07055327 -0.09916031 -0.9925671 109 109 109
-0.0186456924735475 0.0451179320120403 -0.0172510725075574 0.2945779 0.9297925 -0.220703 73 73 73
-0.00080558818599008 -0.0516408473810277 -0.0249103081915337 0.1103538 -0.05970316 -0.9920976 77 77 77
0.0186382560281984 -0.00601344309341245 0.0110520288759481 0.786424 -0.5861916 -0.1947221 139 139 139
0.0295602901641648 -0.0209682168496959 -0.015461657524397 0.9512661 -0.04586468 0.3049416 118 118 118
0.0380539809337801 0.0273135896325234 -0.0171794060299877 0.4247294 0.2384754 -0.8733467 150 150 150
-0.0441020799477913 0.0203109694409715 -0.0276593471641361 -0.001400248 -0.03157148 -0.9995005 119 119 119
-0.00115494140090189 -0.0511405671080938 0.000452172356637609 -0.4317322 -0.7063227 0.5609952 138 138 138
0.00916739615518403 -0.0646070504522414 -0.0109738820851164 0.7309937 -0.4307141 0.5292765 91 91 91
-0.0329810892854364 -0.0186072551895942 -0.0244582314471224 0.01925633 0.02714684 -0.999446 51 51 51
0.023238326721312 0.00459960309927454 0.0466405074585281 0.3734867 0.002663484 0.9276317 82 82 82
0.0248812117272483 -0.00250182250809838 -0.0274564466729389 0.02320365 0.01590898 -0.9996042 100 100 100
0.0306262259353249 -0.00866019136507923 -0.0209982998388782 0.9787157 -0.1790542 0.1002762 121 121 121
0.0423421401156949 0.0370997757584968 -0.0107558011890445 0.5515745 0.5406345 -0.6352007 147 147 147
0.0199901245371443 -0.0540795927975639 -0.0159815472489844 0.8204076 -0.442986 0.3615172 120 120 120
0.0269034374306476 -0.00415684530451532 -0.00651235245573348 0.7574722 -0.1179963 0.6421159 104 104 104
-0.0207530440616677 -0.0221125892765739 -0.0258264543564074 -0.06512621 0.04375961 -0.9969171 43 43 43
-0.00299989214984808 -0.031112560164674 0.0107998029829956 -0.08442423 -0.3660697 0.9267499 75 75 75
-0.0252886964923777 -0.034143767046126 -0.0261630717792931 -0.1937346 0.02653553 -0.980695 47 47 47
0.0376280265632732 0.0121787040302475 0.00224861904778836 0.4945831 -0.8192258 -0.2902699 139 139 139
0.0140057764596354 -0.0150832162832191 0.0203517494321577 0.7113671 -0.7002046 -0.06058297 178 178 178
0.00335383815949941 -0.0110709667643325 0.0395767799538308 0.2134775 -0.8819654 0.4201957 143 143 143
0.0282956199578037 -0.00977069018805432 -0.0144089490891544 0.9582917 -0.2187739 0.1838885 98 98 98
-0.0509960774987086 0.00223336747643943 -0.011385954638209 -0.697043 -0.6585024 0.2837351 42 42 42
-0.0332267431740413 -0.00763533256159987 -0.0250310240553774 0.1652084 -0.09132523 -0.9820213 36 36 36
0.0469954746048805 0.0285865053996497 -0.0121501929535472 0.4798416 0.3124662 -0.8198274 120 120 120
0.0302243280710042 -0.00784998136999526 -0.0187784481652325 0.9335464 -0.2460494 0.2606737 120 120 120
0.0298403275573931 0.0210311909784404 0.026940192412951 0.1868977 0.7913017 0.5821605 27 27 27
-0.0215336157066541 0.00608709885058611 -0.0250082113103341 0.03405514 -0.1635255 -0.9859511 71 71 71
0.0102076505570706 -0.0600898176638438 -0.024168000463145 0.1361109 -0.1120446 -0.9843373 80 80 80
0.0276108467742689 -0.00914433188179831 -0.0128012844341706 0.9467407 -0.2709296 0.1740092 122 122 122
-0.052973552706796 0.0366731566113805 -0.0215638489373335 -0.4090392 0.2488821 -0.8779206 61 61 61
-0.0128750724114621 0.0326381380943843 -0.0273679107617451 0.05535856 -0.1304125 -0.9899131 45 45 45
0.0193625858367553 -0.00749421276653006 0.0151163828128195 0.7315876 -0.6611193 -0.1664357 169 169 169
