ply
format ascii 1.0
comment File exported by Rhinoceros Version 7.0
element vertex 474
property float x
property float y
property float z
property float nx
property float ny
property float nz
property uchar red
property uchar green
property uchar blue
end_header
-0.0651968557961338 0.0383406329217328 0.00972965494779426 -0.4109712 0.4161827 -0.811107 58 58 58
0.0436371721814406 0.0221856047181166 -0.00120806141301949 0.6012881 0.729405 -0.3262223 123 123 123
-0.00529885435214794 0.0171046073303294 -0.0123520580021523 0.01924702 0.7758594 -0.6306122 70 70 70
-0.00837575225715881 0.0183893777250166 -0.0101051911954488 0.2651461 0.755375 -0.5992547 122 122 122
-0.0470786577594566 -0.00807759729306357 -0.0102367361508429 -0.282043 0.2531648 -0.9253969 129 129 129
-0.0319256540007609 -0.0628294234539071 -0.0442236769542748 -0.1400948 0.1049119 -0.9845644 24 24 24
-0.0287166154286793 -0.0108896932281239 -0.0195522891361651 -0.4963778 0.3108657 -0.8105379 45 45 45
-0.0261603937460757 0.0261849829329142 -0.00587584400830815 -0.02179788 0.5262125 -0.8500736 81 81 81
0.019061933721249 -0.0556865926497319 -0.0288530257098978 0.4723114 -0.7226087 -0.5047361 37 37 37
-0.0148190965870971 0.0482633194882254 0.00834759552454595 -0.005417434 0.5894323 -0.8077996 84 84 84
0.0326289757476554 0.0369459423222491 0.0130900053330874 0.1184974 0.3853853 -0.9151156 152 152 152
0.0446795713732309 0.0237702322515452 0.0093631334662902 0.4836674 0.6155332 -0.6222417 153 153 153
-0.0371859145619959 0.0498037584958559 0.0276149464412829 -0.1151236 0.8222237 0.5573999 70 70 70
0.0460041262669546 0.0102212624232183 -0.0117496020426182 0.9311166 0.3599392 0.05887039 107 107 107
0.0465010720242027 -0.0456737080617777 -0.0102840220338002 0.6309342 -0.7391246 -0.2358323 48 48 48
0.0423619695845026 0.0230332170919019 0.00405751829546569 0.046814 0.9958113 -0.07853846 62 62 62
0.0242105483190289 -0.0314779568143122 -0.0367151923469486 0.16949 0.1337603 -0.9764125 135 135 135
0.0499167230700541 0.0369847950286462 0.0376283303377214 0.9727698 0.2285073 -0.03877347 64 64 64
-0.00246873987981555 0.0236804470231033 0.00100634191865956 0.3810708 0.489297 -0.7844574 169 169 169
0.0550829448503944 -0.0201944149963027 -0.0199477522299418 0.9474536 0.243673 -0.2072563 170 170 170
-0.0612800789523722 0.0337277302044192 0.00560735711357452 -0.3230229 0.4122009 -0.8519077 134 134 134
-0.0683858109812325 0.0158846423911054 0.0131418188596589 -0.9790503 -0.1720646 -0.1088768 36 36 36
-0.055157194972093 0.00518197462830972 -0.0051326769867035 0.4186344 0.3058271 -0.8551111 119 119 119
-0.0400530355801738 -0.0334400548985709 -0.0245004861583764 -0.3465601 0.2983164 -0.8893275 96 96 96
0.0596450254961853 -0.0342735995846759 -0.010502275068196 0.9891335 0.07294939 -0.1276456 132 132 132
-0.000464265305593514 0.0178908888997356 -0.00377481312174166 0.154874 0.8875651 -0.4338689 105 105 105
0.0261689062953869 -0.0376780753147641 -0.0368435184363512 0.1530101 0.1642073 -0.9744865 87 87 87
-0.0297161808347668 0.0539842463655646 0.0226860895289132 0.1650195 0.7670239 0.6200346 51 51 51
-0.0643426469013044 0.0244799285811685 0.00563939514044326 -0.461349 0.2536899 -0.8501756 99 99 99
0.0141907534111119 -0.0441738859384329 -0.0405057603207667 0.1792759 0.151403 -0.9720789 84 84 84
-0.020961324816013 0.051335059736749 0.0111341036084373 0.00307244 0.63566 -0.7719631 80 80 80
0.000175187872481608 0.0145092730832137 -0.0142871039432106 -0.02071231 0.5765442 -0.8168034 91 91 91
-0.0431464330465743 -0.0236604924720061 -0.0183741597683446 -0.246241 0.3951431 -0.8850013 87 87 87
-0.023775037201391 -0.0245402676124025 -0.02938518363784 -0.6158246 0.3763864 -0.6921657 84 84 84
-0.0713867895109499 0.0360005001575743 0.0156036274388113 -0.976495 0.2153072 -0.01002137 62 62 62
0.046719198590945 0.0403588304695746 0.0189577546410861 0.9403356 0.09121522 -0.3277937 101 101 101
-0.0699693824800245 0.0355312161321655 0.0227004138394143 -0.9577841 0.1716833 0.2305959 93 93 93
-0.0139070811479916 0.0217013883814536 -0.00933109513286406 0.1237357 0.5785621 -0.8061981 175 175 175
0.0160251353931131 -0.03775093058104 -0.0390251852988073 0.1927154 0.1824405 -0.9641454 52 52 52
0.0237539466631085 -0.032658374524573 -0.036438668122843 0.1787154 0.131692 -0.9750477 87 87 87
0.035607657588518 -0.00177138768932128 -0.0249468097344143 0.249986 0.3948441 -0.8840844 154 154 154
0.0544397275060851 -0.0175053922118802 -0.0222330251271838 0.8454239 0.2931174 -0.4464758 144 144 144
-0.0151359172331134 -0.0142980801055532 -0.0283529904760426 -0.08458392 0.4090548 -0.9085812 115 115 115
-0.0146054808391347 -0.0553625387953642 -0.0458716320035803 -0.02553944 0.3105078 -0.9502277 121 121 121
0.0455583535621797 0.0226464597252816 0.00745839793081687 0.6211314 0.5995221 -0.5047466 128 128 128
-0.0399239256022321 0.0495852715596339 0.0135002213639724 -0.1016851 0.6759197 -0.7299265 123 123 123
0.0315186283765643 0.040682079068302 0.0145264189742583 0.1418288 0.3620528 -0.9213047 159 159 159
0.0114954084197318 0.0513372830931507 0.0283997960237094 0.038631 0.9538694 0.2977261 69 69 69
-0.0355296294667768 0.048693429742289 0.0119259149021057 -0.2688278 0.7279531 -0.6307265 117 117 117
-0.0349482396890939 -0.0458091116946826 -0.0374368246386953 -0.1914893 0.6023773 -0.7749022 91 91 91
0.0120039646114605 0.0080491534108067 -0.019588696154787 -0.04076039 0.56392 -0.8248229 214 214 214
-0.0165322998708137 -0.0510209264509662 -0.0439610088483098 -0.2079281 0.3657074 -0.9072067 107 107 107
0.0212495764547187 -0.0482791376339369 -0.0392286355608331 0.529758 -0.4645848 -0.7095896 46 46 46
-0.0283929074026226 -0.0404869620901136 -0.0341639775527002 -0.6271121 0.4381759 -0.6439971 79 79 79
-0.0155103376147858 -0.0334999197239498 -0.0377541533184605 -0.1031966 0.4165803 -0.9032227 135 135 135
-0.0369819276677994 -0.00633653097076681 -0.0143355129730522 -0.3552196 0.285499 -0.8901176 48 48 48
0.0361940213738254 -0.00457696259286133 -0.0261343160008075 0.3186117 0.3680564 -0.8735108 124 124 124
0.0324172704298462 -0.0469651585483828 -0.0298037475773967 0.3805479 -0.7751138 -0.5043629 35 35 35
0.0134428542499565 -0.0500815370871062 -0.0420159191578717 0.3620928 -0.2364017 -0.9016668 80 80 80
0.0442657478883923 -0.0196480538439721 -0.0274816866855027 0.4441453 0.361523 -0.819778 142 142 142
0.00558912434112191 -0.054982287438144 -0.0404959798429097 0.3032437 -0.8485743 -0.4335493 28 28 28
0.0241824835982358 -0.0514184064064509 -0.0304318999181286 0.4700541 -0.704658 -0.5315132 35 35 35
0.0528356344319318 -0.000541876663970875 0.0145871785417754 0.9527419 0.2974029 -0.06192226 131 131 131
-0.0498328328702895 0.0474756003886974 0.0277989231514625 -0.1371139 0.7779709 0.6131567 41 41 41
-0.0601471891953458 0.0238172190326551 0.00276974205266056 -0.4734105 0.2586028 -0.8420256 87 87 87
-0.00613442207679427 -0.0362350404875109 -0.0403943469729395 -0.1466416 0.374161 -0.9156963 56 56 56
0.0359111021879759 -0.0367370881521134 -0.0350674242509845 0.1486371 0.1908554 -0.9702995 54 54 54
-0.0126234675187238 0.000925616045729383 -0.0230780247898484 0.006448079 0.371637 -0.9283558 71 71 71
0.0246968700604255 0.041425927211989 0.0132059579578294 0.1578147 0.2818536 -0.9463895 128 128 128
0.0290600320048924 -0.0358233511905863 -0.03612178061945 0.06708317 0.1399388 -0.9878851 60 60 60
-0.041366330629633 0.0237879359061697 -0.00333104030861847 -0.3892575 0.3543726 -0.8502344 45 45 45
0.0409692018953161 -0.0363780042678488 -0.0334737244555826 0.2715691 0.02517334 -0.9620897 81 81 81
-0.0602323560776585 0.0323491057957186 0.00411324387194001 -0.3699094 0.3638632 -0.8548512 97 97 97
0.0560115790987599 -0.0131706440655979 0.00978866290872055 0.9679786 0.2105132 -0.1367537 72 72 72
0.0106836613346211 -0.00510915461228634 -0.027911228829045 -0.2583789 0.4353065 -0.8624086 133 133 133
-0.00031845111321438 0.00395555467972897 -0.0215823195633534 -0.04134137 0.5514077 -0.8332109 172 172 172
-0.00359514564212216 -0.00172403277952493 -0.0256929891691053 -0.1640235 0.3783393 -0.911019 183 183 183
0.047918047917729 0.0262618224880031 0.011196147194986 0.779215 0.281764 -0.5598509 125 125 125
-0.0107990547826167 0.0209169718154014 -0.00865344147838482 0.3410732 0.677729 -0.6514234 218 218 218
0.0274839715364013 -0.00216024286718319 -0.0278877654147218 0.2362049 0.5258444 -0.817126 137 137 137
-0.0417125653481345 -0.00251996684987099 -0.0111013742383433 -0.2870702 0.2522274 -0.9241061 98 98 98
-0.000256712285627181 -0.00812656392583255 -0.0272402273496915 -0.1521368 0.2881776 -0.9454142 139 139 139
-0.019324886500629 -0.0512983007555274 -0.0428771664112822 -0.2629271 0.3926578 -0.8812997 86 86 86
0.0526712152230093 -0.0110552473205578 -0.018345460499574 0.9096838 0.3302105 -0.2518659 185 185 185
-0.0381673155760835 0.0498681388251849 0.0266405021191339 -0.1251205 0.8064662 0.5778903 56 56 56
0.0315422666876239 -0.0354032571007441 -0.0356301631437839 0.1164215 0.1443788 -0.9826499 48 48 48
0.00196492618573441 -0.0564803574510375 -0.0399074742904645 0.3248747 -0.8935873 -0.3097712 20 20 20
-0.000180635073470548 0.0509980941538302 0.0285795631763359 -0.03918703 0.9804465 0.1928449 48 48 48
-0.0486937438516639 0.0471208376071 0.0268192760270233 -0.1375971 0.7422087 0.6558913 38 38 38
-0.0495201768449727 -0.00448634066464182 -0.0085086010007267 -0.2684904 0.3660439 -0.8910245 118 118 118
0.0149042493205167 0.0459811968074408 0.0132031512775674 0.133198 0.2791775 -0.9509565 115 115 115
-0.0509623101949055 -0.0107330798859289 -0.0112061049622735 -0.1141321 0.2918594 -0.9496273 122 122 122
-0.043921557773186 0.0333035310038112 0.00248283552740675 -0.1569357 0.5356157 -0.8297512 63 63 63
0.0286927115300295 0.0492736458899981 0.0272785237770334 0.2233518 0.894063 0.388285 53 53 53
0.0487364694341053 0.021042621476971 0.0227730238979975 0.9862684 0.1545063 0.05833067 101 101 101
-0.00763520447860966 0.00156268553994532 -0.022415242378047 -0.02604421 0.4071038 -0.9130105 41 41 41
-0.00261433118384247 0.00642689922109319 -0.0203416151956171 -0.02482614 0.5527502 -0.8329771 86 86 86
-0.0039996088687726 0.0536310596108851 0.0145613761230201 -0.01638589 0.9655467 -0.2597134 74 74 74
0.0378475845461037 0.0445182148176013 0.0384487180909444 0.244928 0.9358845 0.2532399 92 92 92
0.0270576729987777 0.0225205301327134 -0.0038299247483638 0.09988014 0.9939086 -0.04657974 69 69 69
0.0479930811464389 0.041737534395571 0.0326059049751877 0.9289163 0.3691364 -0.02920246 82 82 82
0.0374984421135234 -0.0324938690829597 -0.0342316889458055 0.1632259 0.1650744 -0.9726807 62 62 62
-0.0583002721056376 0.0456227515250882 0.0223926323071922 -0.4933439 0.8197315 0.2909502 58 58 58
-0.0222883482954326 0.0103838200933535 -0.0158986595823725 -0.2912419 0.3786831 -0.8785086 115 115 115
-0.010238957221707 -0.00931395844944416 -0.0267113826954438 -0.02555851 0.3546523 -0.9346489 169 169 169
0.00128831652560102 -0.0570775725706059 -0.0386276865288405 0.3323695 -0.8912631 -0.3085136 26 26 26
0.0515485669627713 0.00722148544224743 0.0238414477486075 0.9671777 0.2368253 -0.09209306 117 117 117
-0.00375087336073188 0.0472958047508147 0.0407699432694169 -0.1330491 0.9579937 0.254059 61 61 61
-0.0719821303680677 0.0356095971077759 0.0131391977441736 -0.8546625 0.313664 -0.4137233 63 63 63
0.0366593244335958 0.0451138519214831 0.0365906062970773 0.3509693 0.9150619 0.1987014 88 88 88
0.0486364128153967 0.0273842092385392 0.0202107022827623 0.9889738 0.1432449 0.03757232 130 130 130
-0.0432322752298142 -0.030988670836853 -0.0209064945377639 -0.3638771 0.4083305 -0.8371736 38 38 38
0.0297072903874227 -0.0539004741563647 -0.0228489818548017 0.3899085 -0.7272158 -0.5649147 40 40 40
-0.051369972231575 0.0350797435575971 0.00382444376652086 -0.08766207 0.5142886 -0.8531252 84 84 84
-0.00217621683310343 0.000485988152080674 -0.0238695832848113 -0.09852928 0.531325 -0.8414189 195 195 195
-0.0154567226066264 0.00100682820045939 -0.0231319415276778 -0.1809669 0.4024205 -0.8973899 98 98 98
-0.0218297263932357 0.000308598834630081 -0.0196431446463753 -0.458668 0.3145943 -0.831056 158 158 158
-0.000906928407473195 -0.0388658203216623 -0.0418725109495167 0.1219039 0.2115324 -0.9697388 159 159 159
-0.031006974123589 -0.0147358480441977 -0.0200690891848523 -0.4808982 0.2520281 -0.8397731 66 66 66
0.0591918656207451 -0.0265920611780441 0.00188317695234225 0.9948587 0.07628772 -0.06660522 100 100 100
0.0382704326613981 0.00916383736251336 -0.0178587318166912 -0.002687263 0.5985049 -0.8011146 121 121 121
0.0537805418253785 -0.0131926565268088 -0.0158401717899502 0.9250202 0.3269576 -0.193485 145 145 145
0.0588159343553634 -0.0382623220583047 -0.00327055449180902 0.9968367 -0.04508818 0.0654506 100 100 100
0.0484854800971437 -0.0436510096968223 -0.0141140800059996 0.6257812 -0.7324407 -0.2681949 47 47 47
-0.0476823744016679 -0.0173479461265182 -0.0135607056951652 -0.2993033 0.3822963 -0.8742237 71 71 71
0.0103714518552409 -0.0280246665684198 -0.0382915453149931 0.2021334 0.1763006 -0.9633588 160 160 160
0.00278658989838787 -0.0255076605240681 -0.0368306925901667 -0.3068904 0.4930668 -0.8140659 173 173 173
0.00706044847155685 0.0331029897033865 0.00741295785111884 0.2551876 0.3658896 -0.8949884 126 126 126
0.047931922672273 0.0425112278882465 0.0305647159260774 0.9215012 0.388359 -0.003568906 86 86 86
-0.00747070342515377 0.0369816119810429 0.00548139665531416 0.4003031 0.3203567 -0.8585622 149 149 149
-0.0336012276760265 -0.0258565388978729 -0.0238025302089641 -0.4470343 0.4330909 -0.782683 63 63 63
0.0360147149697418 -0.0317687855789319 -0.0345498869610726 0.1649938 0.1485823 -0.9750386 74 74 74
0.0179209147801238 0.0267818060531415 0.0077757091140554 0.1333922 0.4548452 -0.8805239 158 158 158
-0.0293513901728257 0.0483828639582164 0.0356976740414988 -0.01356323 0.8856582 0.4641396 75 75 75
0.0491928803308261 0.0020925763585844 0.000712006033989077 0.9438813 0.2847781 -0.1673009 124 124 124
0.0578720335860701 -0.0334012576977187 -0.0132839703977422 0.9729967 -0.03248667 -0.2285213 120 120 120
-0.0148048845470345 -0.0350976415927604 -0.0391496588499417 -0.1126998 0.345382 -0.9316705 140 140 140
-0.01679840343499 0.0464452989836299 0.0351750491801062 -0.1699984 0.9409801 0.2926722 85 85 85
0.0331227324422545 -0.0111363050254225 -0.0313088868607079 0.3866182 0.3878107 -0.8367373 110 110 110
0.045802269291888 0.0425665710600105 0.0399978139430462 0.3981824 0.8111807 0.428295 52 52 52
-0.0402391996604088 -0.0437829877635891 -0.0322352739188427 -0.428143 0.7502878 -0.5037478 56 56 56
-0.00389553856423053 0.0182864026251863 -0.0111059986016485 0.05831789 0.9556441 -0.2886926 78 78 78
0.0446302269421026 -0.0335495818778215 -0.0335156159366952 0.3068276 0.02280869 -0.9514918 130 130 130
-0.00545124855101875 0.0182893576021868 -0.00653052578279822 0.4331532 0.8632295 -0.259255 138 138 138
-0.0467063361747124 0.0498425442607531 0.0252163543610236 -0.1303929 0.7806741 0.6111838 69 69 69
-0.00795934362641448 -0.00125920377574862 -0.0239168045824013 -0.1074758 0.3421951 -0.9334621 148 148 148
-0.0162395637490316 -0.0343645124018379 -0.037989852643405 -0.1168743 0.3705418 -0.9214332 84 84 84
0.00148962497048677 0.0331908839178474 0.00623599319515805 0.1902441 0.3848788 -0.9031476 157 157 157
0.00960191023346146 0.0142975987627605 -0.0143578878021367 -0.04867176 0.5674132 -0.8219935 86 86 86
-0.0170759522868975 -0.00577701707387357 -0.0243563221352239 -0.3106585 0.3498807 -0.8837844 73 73 73
-0.00340613341674789 -0.0274056049606328 -0.0363991608693578 -0.08723538 0.4977475 -0.8629237 98 98 98
0.00257983767066738 -0.0636656056608014 -0.0271684448087784 0.2632099 -0.8063217 -0.5296846 26 26 26
-0.0446490647024578 0.000474924525369458 -0.00922769295301645 -0.406402 0.2880898 -0.8670881 116 116 116
-0.034905382942152 0.0511385661879404 0.0147811080975822 -0.1893824 0.6818995 -0.7065036 125 125 125
-0.00947820219590945 -0.027437875163707 -0.0356231438160645 -0.1647758 0.4928966 -0.854343 167 167 167
-0.0298001062086071 0.0484077033013552 0.00982503992365574 -0.07254733 0.6365046 -0.7678534 75 75 75
-0.00766495747685259 0.0535415754803965 0.0160051685450412 -0.05045373 0.99863 -0.01387529 74 74 74
0.010257169128189 0.033860483271229 0.00869210367795531 0.2609092 0.352662 -0.8986412 140 140 140
-0.0521945905983059 0.0186377224702146 -0.002736011951818 0.2413931 0.371335 -0.8965711 56 56 56
-0.0596123519515124 0.0433784643643191 0.0105781182735754 -0.193409 0.5923348 -0.7821333 81 81 81
0.0576319429279533 -0.0204253000620536 0.0109973903409543 0.9243162 0.3718153 -0.08598234 33 33 33
0.0268235094876235 -0.0483042274731276 -0.0311265786928275 0.4407665 -0.7588453 -0.4794567 26 26 26
-0.0420193204583921 0.00635446595023414 -0.00756078342038496 -0.3985434 0.2809442 -0.8730599 104 104 104
-0.0310767050131577 -0.0461017641185311 -0.0388405555994012 -0.1873653 0.5630289 -0.8049178 98 98 98
-0.0179303719990473 0.0511661009433422 0.0108700561799443 -0.04365213 0.6497743 -0.7588727 120 120 120
0.0428468574151775 -0.0400022339696384 -0.0336719937580547 0.4901279 -0.3832887 -0.7828566 32 32 32
0.0536406066043877 -0.00223168207275104 0.0144756163138975 0.9636036 0.2621203 -0.05254629 121 121 121
-0.0454869539697902 0.0234094817332262 -0.00229384934211929 -0.2615378 0.1967331 -0.9449307 66 66 66
-0.00612689206432515 0.0470959380388931 0.0395786060258906 -0.1252008 0.9612598 0.2455695 66 66 66
0.0454731043715437 0.0115351756907882 -0.00695355896891275 0.9628375 0.2657466 -0.04819461 123 123 123
-0.0323931708127541 0.0313642162632062 -0.00279346905917216 -0.04327787 0.599068 -0.7995278 106 106 106
-0.00306718311889043 -0.0604572400745835 -0.0344644669970166 0.3623278 -0.8351167 -0.4138825 17 17 17
0.021165760530518 -0.0585819010448392 -0.0214110168092986 0.4089139 -0.8462716 -0.3414876 67 67 67
-0.0358083047000628 0.032754301385342 -0.0006613232040934 -0.1779813 0.5237181 -0.8330918 60 60 60
0.0440194620879644 -0.0389452208500822 -0.0330934056115491 0.4968707 -0.4058245 -0.7670893 45 45 45
-0.00921411360972879 0.0204172319785814 -0.00824884956709343 0.4968647 0.7038672 -0.5076381 203 203 203
0.0266116084612897 -0.0146126283711852 -0.03371736682258 0.1955766 0.2317611 -0.9529095 142 142 142
0.0474347196341385 0.00767434815146673 -0.0127336834379617 0.9286149 0.3620191 0.08134203 98 98 98
-0.0184092232961639 0.0461520310479415 0.0366470161003014 -0.1398855 0.9454742 0.2941267 84 84 84
0.0128797564291299 0.0415959763173823 0.0123377816377261 0.1693709 0.2643735 -0.9494315 108 108 108
0.0508129050471382 0.0330355748885378 0.0361813177539537 0.9706146 0.1426595 -0.1937926 107 107 107
-0.0039544014754056 -0.0621317566358925 -0.032300143400134 0.3217358 -0.7695035 -0.5516796 30 30 30
0.00501794535880506 0.0449360872438642 0.0464121026483669 0.07734267 0.9174341 0.3902983 32 32 32
-0.0643669956896118 0.0146818757908493 0.000108181181275313 -0.6104048 0.1733424 -0.7728897 44 44 44
0.0198542487774445 0.00590725034968953 -0.0212250129470057 -0.03893563 0.5909006 -0.8058043 147 147 147
0.0270110089526665 -0.042825821258659 -0.0372703806144347 0.1992718 -0.01364395 -0.9798493 100 100 100
-0.0415524138529779 -0.0485050781859877 -0.0350565224520918 -0.6730268 0.3670635 -0.6421054 38 38 38
0.0134420578543342 0.019834796739326 -0.0112333310117033 -0.06911413 0.7319958 -0.6777946 85 85 85
0.0304430381827197 -0.0330243415641474 -0.0359073850435191 0.1205553 0.1535391 -0.980761 65 65 65
-0.0298307668176521 0.0014826068488718 -0.0148030153520919 -0.4724101 0.2211465 -0.853184 105 105 105
-0.0437420057981091 0.0477121147865454 0.0279259337335623 -0.2136866 0.7791535 0.5892859 50 50 50
0.0479718541586465 -0.0228667298923975 -0.0271731180011956 0.396659 0.3612614 -0.8438909 132 132 132
-0.0208182634820644 -0.0429093776428713 -0.0406423356637792 -0.2762775 0.2131573 -0.9371418 49 49 49
-0.00292604680378794 -0.00872682337615238 -0.0268046189723333 -0.1451133 0.2801239 -0.9489324 147 147 147
0.00274611154994631 0.0526042855575586 0.0255419623053587 -0.1187489 0.9663922 0.2280016 77 77 77
0.0406814957079007 -0.0279482784688221 -0.0333570452277692 0.2081383 0.2377134 -0.9487733 118 118 118
-0.00594521619248845 0.0487396188757763 0.0341798034351858 -0.1259035 0.9390172 0.3199923 52 52 52
0.0128105979576545 0.0535083349609615 0.019995973894129 -0.01367885 0.9920745 0.1249039 73 73 73
-0.0198916362200423 -0.00342840049106541 -0.0225042677291399 -0.4454425 0.3249521 -0.8342584 154 154 154
0.0512099393942025 -0.00669270416388801 -0.0178048065306943 0.8924738 0.3164147 -0.3215156 134 134 134
-0.0481815597465887 0.021788294889409 -0.00154963498594018 -0.1874619 0.1594141 -0.9692498 90 90 90
-0.00744993108001113 -0.0435094344948259 -0.0438400878050029 0.0010731 0.2513579 -0.9678936 140 140 140
-0.0351776060852225 -0.0501845709906115 -0.0406309559229804 -0.2807069 0.3824863 -0.8802885 44 44 44
-0.0468514932178326 -0.017425762431112 -0.0136380027069447 -0.3180142 0.3826197 -0.8674498 45 45 45
-0.0227936286251356 -0.0572554009855752 -0.045554309982934 -0.1225688 0.34511 -0.9305246 66 66 66
-0.0594123460198026 0.0299231127771451 0.003496051263216 -0.4077734 0.222114 -0.8856558 77 77 77
0.0429783371600103 -0.0475774456435498 -0.0166843357871468 0.6484957 -0.7213013 -0.2432649 45 45 45
-0.00192270294167551 0.0188319799000909 -0.00174117073432128 0.2946307 0.7348058 -0.6109446 113 113 113
0.0508713294734928 0.0253310148056667 0.0335785800954243 0.9191973 0.1508169 -0.3637727 115 115 115
-0.0087277453543102 0.0380835216736644 0.00529261795973701 0.4531562 0.2945512 -0.8413614 139 139 139
-0.0111879952013623 0.020161206743103 -0.00941331845138854 0.2480315 0.6332349 -0.7331398 205 205 205
-0.0390510796535595 0.0343383370982868 0.00111099809121129 -0.3521017 0.5046799 -0.7882402 95 95 95
0.00934868126272814 0.0530487784482734 0.0229030696763471 0.01747886 0.9608999 0.2763439 78 78 78
0.0552302379572849 -0.0104268310070224 0.0100640926524875 0.9620421 0.2505593 -0.1081433 102 102 102
-0.00833599382096395 -0.00282585440195615 -0.0242234029702299 -0.08465496 0.3556305 -0.9307849 172 172 172
0.00363468019206259 0.0306896579133642 0.00588895596568367 0.2124682 0.3790509 -0.900654 142 142 142
0.0147155276510849 -0.0609108490449586 -0.0223381138428333 0.3227656 -0.9121251 -0.2526859 38 38 38
0.0251083482802978 0.00301320016968254 -0.0243045967599079 -0.002109091 0.6546361 -0.7559413 134 134 134
-0.0310852572727631 0.0254608693710712 -0.00612824506074283 -0.07016097 0.4784011 -0.8753341 162 162 162
-0.0679952759343028 0.0208345235538305 0.00552733874689981 -0.7444219 0.1506708 -0.6504877 105 105 105
-0.0601926198439124 0.0462070700297266 0.0118553654361784 -0.315742 0.7349669 -0.6001089 65 65 65
-0.0020375095626961 0.0485781937289869 0.0359644874472364 -0.07002191 0.9452595 0.3187184 37 37 37
0.0582838682175617 -0.022916711240154 0.00956062593678708 0.9458182 0.3242189 -0.01760894 50 50 50
0.00638144441217481 -0.0553634224260706 -0.0347392673876969 0.3250742 -0.8293753 -0.4543824 18 18 18
-0.0319175591388126 0.0192687369385973 -0.00936134707436403 -0.3122559 0.3344227 -0.8891894 114 114 114
-0.0681954940599012 0.0238046300854486 0.00664934204827466 -0.5970376 0.1878306 -0.779914 89 89 89
0.0414057502998513 0.036296459458131 0.0137600187586051 0.2260378 0.3639392 -0.9035791 158 158 158
-0.0105781202262496 -0.0327958924839222 -0.038120499207558 -0.1931652 0.4085823 -0.8920469 129 129 129
-0.0319413328654483 -0.047129764308661 -0.0390535145020219 -0.168553 0.566588 -0.8065779 90 90 90
0.055144441997018 -0.0139067782086564 0.00685780596693758 0.9612046 0.2206539 -0.1655219 116 116 116
-0.0624915868415137 0.0430314883127569 0.0113918158967521 -0.3009273 0.6067392 -0.735738 60 60 60
-0.013450546929838 0.0470409996516279 0.0388463539281111 -0.1572087 0.9558962 0.2480885 88 88 88
0.00488064163333091 -0.057882041793496 -0.0330806859950755 0.2413899 -0.7834638 -0.572639 15 15 15
0.0114879658059723 0.0332421055317427 0.0091475372617193 0.2137808 0.3560154 -0.9096982 156 156 156
0.0376370866910927 -0.00734759187639189 -0.0263825497443891 0.4154044 0.3413321 -0.8431676 166 166 166
-0.0464648817920184 0.0257037496075994 -0.0016390983342861 -0.2066434 0.2634665 -0.9422759 85 85 85
-0.0431620098951937 0.041741932337241 0.00696491684914746 -0.1010389 0.5114449 -0.8533553 155 155 155
0.018350742967308 0.0227275952682149 -0.00220174217504682 -0.09720701 0.9894485 0.1074355 66 66 66
-0.0097093371729704 0.0498979076533999 0.0300490489686739 -0.132808 0.9419559 0.3083522 67 67 67
0.00475035134918667 -0.045914311638642 -0.0420516623969044 0.0895547 0.1609918 -0.9828843 62 62 62
0.0455336468169474 -0.0434290925031224 -0.0214670556665917 0.662196 -0.6591538 -0.3563884 49 49 49
0.0480199256171048 0.0402684818921384 0.0411430254532472 0.6551142 0.5018681 0.5647599 58 58 58
-0.0433227446757005 -0.0123139995649217 -0.0126478322054894 -0.3311402 0.356391 -0.8736885 102 102 102
0.00378669789781405 -0.0163522410536803 -0.030795892277356 -0.1884587 0.5326512 -0.8250855 110 110 110
0.04906902767509 0.000891362631947556 -0.0173362345201916 0.8848339 0.269991 -0.3797022 85 85 85
-0.0550877360164685 0.0123137100257293 -0.00540995253769505 0.2887917 -0.04222321 -0.9564604 79 79 79
0.0534774973625973 -0.00471516414592577 0.00909749563585321 0.92828 0.3003605 -0.2192712 144 144 144
-0.0485638816271559 0.0408677106502957 0.0385111975933076 -0.2499071 0.7896958 0.5602919 31 31 31
-0.00118792192942996 -0.0371524101343508 -0.0412004848818309 0.05930756 0.2387318 -0.9692728 146 146 146
0.0196522896961833 -0.0154749923673509 -0.0349012001977265 0.03151539 0.3008902 -0.9531379 124 124 124
-0.0150364835937529 0.0116357675323899 -0.0158555109891679 -0.04428207 0.5743209 -0.8174317 112 112 112
0.00954714466152673 0.0492511123034458 0.0358919599632896 0.02391852 0.9395684 0.3415247 40 40 40
0.0501598955797755 0.0139577349630307 0.0205795832604327 0.9950702 0.09824272 0.01355048 101 101 101
0.0504159700910569 0.00262916219199538 0.00741128263521657 0.9183223 0.2794353 -0.2803568 135 135 135
-0.0238268074292818 -0.0213407075689682 -0.0282754492005531 -0.6186739 0.3843872 -0.6851928 79 79 79
-0.00742164488280217 -0.0465999034658167 -0.0434376940796251 0.08933356 0.2192841 -0.9715627 99 99 99
-0.0077450991032233 0.0390049925211291 0.0062059398126989 0.413935 0.2797872 -0.8662429 122 122 122
0.0493174448247506 -0.030641837348196 -0.0300613321497113 0.6453912 0.2260732 -0.7296308 174 174 174
-0.0314855453097138 0.0133134967749304 -0.0109019907510358 -0.3738439 0.2154529 -0.9021202 60 60 60
-0.0401352622683868 -0.0335343994340838 -0.0233971998455875 -0.3788721 0.3176517 -0.8692257 118 118 118
-0.0281289595815433 0.0196720253820011 -0.00948626288656268 -0.1501172 0.4621663 -0.8739949 158 158 158
-0.0284370891749015 -0.0347864972494307 -0.0319509202190336 -0.6507352 0.3875474 -0.6529554 75 75 75
-0.0174290638492698 0.0452534728513452 0.0410619123806502 -0.2233583 0.9405544 0.2558679 56 56 56
-0.00203373230881221 -0.0601688015248556 -0.0346423979986555 0.3479194 -0.8423735 -0.4115325 10 10 10
-0.0304908668569182 -0.023605035492076 -0.0240231385661689 -0.4867325 0.4213932 -0.7651923 51 51 51
0.05290988204553 0.000801940995735606 0.0213092308576019 0.9615898 0.2625405 -0.08011036 98 98 98
0.0462093342809258 -0.0269462274406187 -0.0310757320524188 0.3995565 0.3814752 -0.8335654 173 173 173
0.0575522987686528 -0.0200662992626193 -0.00675466606350789 0.9640352 0.2289475 -0.1349783 141 141 141
-0.0112061737576061 0.045620088580324 0.00709377401041572 0.113378 0.5078626 -0.8539444 99 99 99
-0.0349947718928663 -0.0356994855704464 -0.0266201239426462 -0.4876947 0.269105 -0.8305036 72 72 72
0.0444733375564308 0.017966467973576 -0.00462467687828777 0.9078212 0.3674782 -0.2020406 104 104 104
-0.0183366412099 -0.0348216559498362 -0.0380120721846156 -0.1804656 0.3763562 -0.9087289 63 63 63
0.0225054397581821 0.0540757966987659 0.0183013869119442 0.1262287 0.9445505 -0.3031349 84 84 84
-0.0588701468078363 0.0435285601756303 0.0272578472348353 -0.4980147 0.7903913 0.3567392 63 63 63
0.049095204323625 0.000802910208205887 -0.00132034424285082 0.9448336 0.3048376 -0.119848 132 132 132
0.0485412314662907 0.021735173224257 0.0261274974154709 0.9802732 0.1737799 -0.09415381 103 103 103
0.00154676762356143 0.0177524924395067 -0.00408056545250651 -0.04967134 0.9738167 -0.2218417 78 78 78
-0.00286035964657838 -0.0536316871191054 -0.0451872391846018 0.08078804 0.1478092 -0.9857108 135 135 135
-0.0671583641843569 0.0285406232813763 0.0254632720314433 -0.9700192 -0.1164802 0.213296 33 33 33
-0.0435572309276169 -0.00915492168167398 -0.0122319696223043 -0.316884 0.2155614 -0.9236438 92 92 92
-0.0103726717988186 -0.0585252787890125 -0.0453343019103721 0.372254 -0.5989156 -0.7090325 54 54 54
-0.0609144598271398 0.0196659426565668 0.00196131168917862 -0.4810984 0.4471387 -0.7540632 106 106 106
-0.0079675167237081 -0.0610714357235576 -0.0379245226425871 0.3614064 -0.8389547 -0.4068665 30 30 30
0.00405996941551567 0.00989665124930794 -0.0183423676603216 -0.03292187 0.5784169 -0.8150767 84 84 84
-0.0254322548178894 -0.0214454096341481 -0.0256791944886627 -0.5969597 0.3791462 -0.7070271 53 53 53
0.0453381666550334 0.00138265181462649 -0.0208904087320712 0.498298 0.3388898 -0.7980306 144 144 144
-0.0108313297824276 0.00467666609440687 -0.020897183856915 -0.008060425 0.5373898 -0.8432955 56 56 56
-0.0213981150018143 0.0305065023856186 -0.00312207809391446 -0.03205584 0.5306861 -0.846962 85 85 85
0.0009240688795491 -0.0247658338534127 -0.0348751868921419 -0.2247403 0.5118001 -0.8291878 164 164 164
0.00676567624594249 -0.011810976607576 -0.0287809942431967 -0.2832501 0.4275162 -0.8584867 82 82 82
0.0499647014273803 0.00904725504262793 0.0154950061217564 0.9834369 0.1259123 -0.130376 113 113 113
-0.0426048075887415 0.00815827226317567 -0.00729432807881553 -0.4317938 0.3021674 -0.8498523 73 73 73
-0.0582385182940741 0.038220467678306 0.0343241674427685 -0.3891371 0.7031478 0.5951096 26 26 26
-0.0143315156424535 0.0135889225211241 -0.0144564736293103 -0.03915896 0.5672875 -0.8225883 122 122 122
-0.00891363888648922 -0.0453065961514383 -0.0438859268662146 0.01260427 0.2823266 -0.9592355 103 103 103
-0.0488890306429575 0.0397946135656393 0.00710089339749331 -0.07893557 0.5074739 -0.858044 115 115 115
-0.0410473776315703 -0.0168030093294076 -0.0157665028278 -0.2862098 0.3379591 -0.8965867 91 91 91
0.0519429580735258 -0.00415925852483712 -0.00908966379619264 0.9151061 0.4022088 0.02844075 119 119 119
0.0487802928811547 0.0158255132648553 0.0115741634932365 0.9296996 0.05860195 -0.3636268 145 145 145
0.0131595042230099 0.0213873063967391 -0.00881946176122961 -0.1837508 0.9052556 -0.3830771 103 103 103
-0.032521200127392 0.044003711461164 0.00601408473937171 -0.1095821 0.6427528 -0.7581956 50 50 50
-0.0535136734459725 0.0404771508835904 0.00692783559998378 -0.09846434 0.5013733 -0.8596101 60 60 60
0.0479245513911906 0.0361384221899239 0.0243121944327412 0.9938778 -0.001739491 -0.1104714 111 111 111
-0.0675414068818778 0.0227158506911456 0.023478660218382 -0.9664245 -0.1407278 0.2149872 20 20 20
-0.0173687747186264 0.0525818234345152 0.0184187703251147 0.1360839 0.9717945 0.192605 121 121 121
0.00985638784988563 -0.0454577662058002 -0.041405632851311 0.1657464 0.1566446 -0.9736481 77 77 77
0.00185929726088263 0.0468016484660205 0.0113464807192878 0.2349314 0.2924795 -0.9269644 114 114 114
0.0232078917189904 -0.00442982538423009 -0.0298114311647558 -0.08364294 0.5176198 -0.8515126 115 115 115
-0.0242381874072346 0.0525410251428873 0.0238647019884118 0.06688835 0.9065982 0.4166602 51 51 51
0.00709124249202953 -0.0171460146579059 -0.0334445953286511 -0.4404341 0.575688 -0.688913 56 56 56
-0.0719723821275688 0.0364098518267186 0.0138495790698028 -0.9007389 0.342954 -0.2665558 40 40 40
-0.0374560409234803 -0.0458046897269422 -0.0367679350674534 -0.2929419 0.5829163 -0.7578876 81 81 81
-0.0587920769981887 0.0118106212366031 -0.00438898502445112 -0.4738024 0.2792104 -0.8351963 43 43 43
-0.0468082574597029 0.0517421103119469 0.0204467790820025 -0.286918 0.9572113 0.03774258 140 140 140
0.0213280878992759 0.0467275075347728 0.0384959304317408 0.1900119 0.9248642 0.3294263 70 70 70
-0.0413961286484548 0.0350231400165837 0.00295334658053831 -0.3115518 0.5438689 -0.7791932 91 91 91
-0.0142752527121823 -0.0665311251034739 -0.0361021479677147 0.4740737 -0.6880831 -0.5493594 43 43 43
0.0113412311782195 -0.0298934452360708 -0.0387524702381302 0.2219706 0.1900048 -0.9563615 142 142 142
-0.0424674217126064 0.0253219819595991 -0.00180211454632068 -0.3409433 0.3464679 -0.8739094 117 117 117
-0.0303491078156997 0.00369142640907438 -0.0145902668597021 -0.4432991 0.2341758 -0.8652443 79 79 79
0.0481081472349407 0.00296779752136467 -0.0180061960528017 0.8318346 0.2972459 -0.4687174 166 166 166
0.049563820192585 0.0185587434584771 0.014610068679853 0.983743 0.07988915 -0.1608338 136 136 136
0.0485244325884104 0.0204459343024919 0.0118163643820915 0.9249052 0.08738553 -0.3700191 125 125 125
0.0505212495135505 0.00889550153622087 0.0209332869421757 0.9838475 0.1612226 -0.07779077 109 109 109
-0.0309610389304655 0.0223243689478057 -0.00832330909711027 -0.1994841 0.4284939 -0.8812486 161 161 161
0.0485427222436026 0.0431205939382362 0.0360606217585975 0.6388683 0.7609518 0.1131355 106 106 106
0.0520508020778174 -0.00657967756674904 -0.016585483320452 0.9172663 0.2981937 -0.2640134 149 149 149
-0.0359771012512553 -0.0160783910608735 -0.0166774598202197 -0.4026262 0.293368 -0.8670798 37 37 37
0.0158710695664506 0.0215495219835629 -0.00958173298533632 -0.04179288 0.8491173 -0.5265484 116 116 116
-0.0377870244616436 0.0271607161802179 -0.00371094112626208 -0.3615733 0.4099543 -0.8373782 50 50 50
0.00207671173224178 -0.0627241786329662 -0.0294089187090565 0.2481374 -0.7097238 -0.6593329 33 33 33
0.0204916855216912 0.0229470856498339 -0.000528531192809989 -0.09221894 0.9930495 0.07313246 57 57 57
-0.0189740636011742 -0.0211744876145972 -0.0318255857650891 -0.3485394 0.4404044 -0.827384 112 112 112
0.0134275382371505 0.0380292457961537 0.010976049884372 0.1416353 0.2995623 -0.9435051 165 165 165
0.0502257023799961 0.000322070600638602 0.0044447730330413 0.9372597 0.2779858 -0.2104002 153 153 153
-0.0288235989867305 0.0528035869586219 0.0144338642557627 -0.1835174 0.7566312 -0.6275593 123 123 123
0.0578201990447287 -0.0322059156140013 -0.0178701820823671 0.9486014 -0.2676668 -0.1688487 111 111 111
0.0457042198068556 0.0475156567455748 0.0239690958430623 0.6824203 0.7002864 0.2095266 147 147 147
0.0497654620927039 0.00131850745653295 0.00329270756627559 0.9504365 0.2578098 -0.1737949 139 139 139
-0.0510121361431799 0.0498837319424861 0.0178464278676939 -0.2016452 0.9716373 -0.123532 104 104 104
0.0498163020119118 0.0201391416136889 0.0275899623811929 0.9699441 0.1535301 -0.1887777 104 104 104
-0.00578254639202225 -0.0277050788757454 -0.036034879291555 -0.102132 0.4905751 -0.865393 75 75 75
-0.0376162291648336 -0.0137158620621187 -0.0160796038900678 -0.4038843 0.282151 -0.8702116 48 48 48
0.00123785082803085 -0.054384901300633 -0.0448791350493316 0.2633854 -0.3779666 -0.8875638 61 61 61
-0.0659436476342137 0.0179177577793708 0.00203315481994154 -0.5772445 0.3140413 -0.7537684 85 85 85
-0.0482163395208044 0.0455001189892872 0.00951490523287618 -0.05637158 0.541475 -0.8388248 106 106 106
0.0544647027081542 -0.0161798672524911 -0.0170619730589427 0.9341384 0.3275054 -0.1418652 151 151 151
-0.0361897289510722 -0.0539735634023175 -0.040933629581291 -0.3267553 0.3941767 -0.8589853 61 61 61
0.00202789759641853 -0.0114701589330315 -0.0282041392874742 0.009791947 0.2997811 -0.9539577 118 118 118
-0.0390598099039527 -0.0422133061154375 -0.0273464179297817 -0.2915172 0.7804617 -0.5530798 120 120 120
0.0479686836423476 0.0308003516633211 0.0171921185159575 0.9855067 0.1570855 -0.06403734 134 134 134
-0.0298810851053499 -0.0599532276097368 -0.044833207715169 -0.1447992 0.2045486 -0.9680873 55 55 55
-0.0444137122165378 -0.0180588083745283 -0.0154381072852235 -0.2630769 0.3928449 -0.8811716 73 73 73
0.047738523774322 0.0313069716603769 0.0219070477889357 0.9931505 0.1150417 0.02043037 122 122 122
0.0561026010476255 -0.0170935806983803 -0.0102660441138299 0.9420112 0.2561644 -0.2167826 150 150 150
-0.0389325282254376 -0.0454665318004892 -0.0363398961915462 -0.4174427 0.552751 -0.7212543 72 72 72
-0.0252628136171138 0.0536779584388947 0.0206084523596124 0.178847 0.8875585 0.424563 86 86 86
0.00410338355981121 0.0176431510755894 -0.00292842246128128 -0.1526064 0.9533027 -0.2606248 108 108 108
0.0495580081087774 0.0191916590600851 0.0138930233171081 0.9767962 0.07780475 -0.1995385 145 145 145
-0.046967078190332 0.0496040510922275 0.0138904980211672 -0.02754273 0.853106 -0.5210101 112 112 112
0.0144796890889283 0.00390137556820469 -0.0225475954422351 -0.01986597 0.5329785 -0.8458956 102 102 102
-0.00689765441595869 0.0136600530834492 -0.0152037054579747 0.0003053977 0.5889689 -0.8081557 94 94 94
0.0473575204649324 0.0431771137611263 0.0304110138601286 0.8479752 0.5289236 0.03432107 95 95 95
-0.0432488117057419 0.048675292958211 0.0127548241250865 0.01104446 0.7801185 -0.6255344 138 138 138
0.0192097800915336 -0.0201857335218631 -0.0353410776760013 0.06717403 0.07278555 -0.9950829 79 79 79
0.0116985556606113 0.0452474980696376 0.0443737617566958 0.09448619 0.9084002 0.4072853 38 38 38
0.0577796508467463 -0.0207089967376712 0.00737657404599551 0.9127891 0.4062057 -0.0425793 66 66 66
0.0442522632937661 0.0460078926462797 0.0297181344654114 0.248137 0.8766529 0.4121987 59 59 59
-0.0299539041473555 -0.0601227159016926 -0.044253069345233 -0.1447992 0.2045486 -0.9680873 104 104 104
-0.0240761495669277 -0.0600520953096277 -0.0462119586515477 -0.07830597 0.08327501 -0.9934452 94 94 94
0.0370044797008657 -0.0296604681796335 -0.0338249152143199 0.1742886 0.1334485 -0.9756101 84 84 84
0.0531180512443656 -0.00365764524035139 0.00922977124951924 0.9284607 0.2967106 -0.2234357 157 157 157
-0.00948413533771975 0.0238452212553264 -0.00495922292558787 0.5901339 0.5599583 -0.5815399 190 190 190
-0.0285361607442818 -0.051671355441494 -0.0415646288298793 -0.1947031 0.4096975 -0.8912007 61 61 61
0.0172399683584712 0.0497394298914096 0.0151863729465217 0.2142596 0.4959693 -0.8414911 141 141 141
-0.0512663623401211 -0.00772077312613595 -0.00972097899528818 -0.125245 0.3948844 -0.9101538 112 112 112
0.0209176569742997 0.0482623173595724 0.0338430213065308 0.2094675 0.9164986 0.3408132 81 81 81
0.0295813223996229 0.0516203569683353 0.0180668438390011 0.3410482 0.8515243 -0.3982367 114 114 114
-0.0436969061508425 -0.0246851356322069 -0.01840153551176 -0.2724311 0.3839006 -0.8822707 82 82 82
-0.0335824047307249 0.0548606878311377 0.0224445009190521 0.01321499 0.7316684 0.6815327 81 81 81
-0.0247058510108351 -0.0416514267264305 -0.0381900017780684 -0.4434958 0.2671833 -0.8555259 53 53 53
-0.00559325739557481 0.00621291287258052 -0.0202543590609298 -0.01614983 0.5390929 -0.8420915 75 75 75
-0.0243303819249219 -0.0637499912147546 -0.0460348554617666 0.05296378 -0.4847412 -0.8730526 93 93 93
-0.0687220869029357 0.031659648823358 0.00949932841210743 -0.668864 0.143652 -0.729373 84 84 84
0.0472239831320986 0.0327920081882083 0.0141552018531058 0.8569906 0.2950451 -0.4225108 140 140 140
0.0517749365435001 -0.0284778533219585 -0.0277118946004626 0.6468602 0.09192055 -0.7570485 171 171 171
0.0398591677905005 -0.0490643083417457 -0.0197338780996009 0.5874192 -0.7343525 -0.3400958 53 53 53
0.0497668893419627 0.0179666025944649 0.0236955875279346 0.991291 0.131245 0.01080703 106 106 106
-0.0235522125321772 0.0411157161843578 0.0033334209285949 -0.08600724 0.5910142 -0.8020629 99 99 99
-0.0628022322157933 0.0345169662773566 0.00640399810835574 -0.3606801 0.3679746 -0.8570324 111 111 111
-0.00324091833772311 0.0509803349241433 0.0111410952686816 0.1493026 0.6240923 -0.7669534 122 122 122
0.00574242814927794 -0.0397488614260124 -0.0404634617305916 0.06866892 0.1665004 -0.9836474 91 91 91
-0.0620087994556919 0.036128640167491 0.00609327087379058 -0.2971915 0.4427993 -0.845935 106 106 106
-0.020259980935077 0.0443829390542267 0.0397720358863458 -0.1570472 0.9402398 0.3021344 63 63 63
-0.0218686259215217 0.0498483194753458 0.0102420288483224 -0.05311394 0.5982541 -0.7995442 77 77 77
-0.0327807111324923 0.0544481038017472 0.0166948515208916 -0.08704261 0.6932501 -0.7154215 111 111 111
0.0086581002224273 -0.00082178683769496 -0.0252896450436821 -0.01982312 0.494906 -0.8687204 58 58 58
-0.00803834497311362 -0.00584868751560474 -0.0254143567702763 -0.09945726 0.3321282 -0.9379761 169 169 169
-0.0415058455558528 0.0366691815592837 0.0036324873415724 -0.2658752 0.5100651 -0.8180122 72 72 72
0.029912613843341 0.00352623520497963 -0.022968306781143 0.1647531 0.599605 -0.7831541 149 149 149
0.0465961380895434 0.0465018294440724 0.0234567878910573 0.8742743 0.4756408 0.09700722 88 88 88
-0.035975290580621 0.0386549744771167 0.00263110481865442 -0.2155515 0.566191 -0.7955912 60 60 60
0.0312574693823686 0.0224868435562187 0.00568267431453645 0.1553132 0.8677934 -0.4720302 115 115 115
0.0237024709686664 -0.0457919932696946 -0.0377925052513935 0.5141177 -0.2523763 -0.8197495 84 84 84
-0.0118754467159068 0.0167881127992284 -0.012197754407904 0.02713355 0.5942011 -0.8038587 151 151 151
-0.0571667201104189 0.0337171899679574 0.00420979919410525 -0.2342565 0.4988947 -0.8344028 93 93 93
0.0285388976230592 0.0224756036935567 0.00321748964087304 0.1724864 0.9713697 -0.1633686 63 63 63
-0.0240974551122513 0.0510346814225013 0.0119498772975214 -0.07369022 0.6194279 -0.7815874 82 82 82
0.02484909859812 0.0527559231538206 0.0222683749015914 0.1476255 0.9387922 0.3112489 59 59 59
0.0149764072063179 -0.0322784961512956 -0.0379783753707513 0.229036 0.2182073 -0.9486454 169 169 169
-0.0157199909444983 0.0452904594555406 0.0415380651382253 -0.2052328 0.9453726 0.2532789 77 77 77
0.0410371213326917 0.0208784231612029 -0.0111483598507977 0.2677524 0.7903594 -0.5510359 166 166 166
-0.0281807475812856 0.037169873603822 0.00177236650021101 -0.06742555 0.5638415 -0.8231261 111 111 111
-0.051185512007609 -0.00470214626193655 -0.00861850533737513 -0.261587 0.3855783 -0.8848173 105 105 105
-0.0205939849045076 -0.0382972748663983 -0.0384676598644133 -0.2364387 0.3709796 -0.8980373 54 54 54
-0.0196452092005277 0.0159593619537335 -0.0128901072060406 -0.03696272 0.5472096 -0.8361791 187 187 187
-0.0264844618369926 0.0357846631212226 0.000252935816525746 -0.1228468 0.5952254 -0.794113 169 169 169
0.0417296000226637 -0.0183569730873003 -0.0291345418360129 0.5327516 0.3942631 -0.7488206 143 143 143
0.0483816310802903 0.0412091351252604 0.0387544405607556 0.7057365 0.6659175 0.241847 88 88 88
-0.00446754691815787 -0.00767001756926944 -0.0264450059781643 -0.1267755 0.2681141 -0.9550093 129 129 129
0.0255659100194632 -0.0553324016669317 -0.0245536243552676 0.4522893 -0.7081868 -0.5421308 37 37 37
-0.00446021046017853 -0.0299653715331558 -0.0376381093459896 -0.1032482 0.4710833 -0.8760253 110 110 110
-0.0177370902476914 -0.0680740148431316 -0.0361379076527902 0.4721934 -0.6961471 -0.5407519 31 31 31
0.0232986374670419 -0.0385888004533319 -0.0374821093226232 0.2445872 0.1269521 -0.9612805 91 91 91
-0.0398972021667534 0.00606696750151414 -0.00936760599087211 -0.3748434 0.259488 -0.8900328 35 35 35
-0.0126778893491286 -0.0172355658619561 -0.0296439877652576 0.03670901 0.4447966 -0.894879 103 103 103
-0.0226093307295585 0.0070053505280796 -0.0167861423167193 -0.4312285 0.2972303 -0.851878 125 125 125
0.0581701189236536 -0.0286536198569303 -0.0198874923049407 0.9845474 0.08490663 -0.153158 138 138 138
-0.0500850683472307 0.0036792682332123 -0.0054642911211969 -0.2253115 0.4010361 -0.8879216 133 133 133
0.0115982171450022 -0.0177251737408037 -0.0352164332334208 -0.07679775 0.3957892 -0.9151246 189 189 189
-0.00355322815425607 0.00251929602608669 -0.0219912523708953 -0.06531396 0.5067044 -0.8596422 97 97 97
0.00359526048046277 0.019974712710302 0.000131134042673009 0.1806075 0.730889 -0.6581658 125 125 125
-0.0197722912142777 0.0495187044978576 0.00983298757016726 -0.05009904 0.6160369 -0.7861226 73 73 73
0.0503620394152908 0.0115844341906928 0.0173809039834471 0.9947279 0.06846105 -0.0763506 114 114 114
-0.0599173157144874 0.0422712508703038 0.00978007887019017 -0.1958608 0.5260451 -0.8275959 84 84 84
-0.00677468527518865 -0.0302113044748398 -0.0380206405959776 -0.1260708 0.4497568 -0.8842087 96 96 96
0.0172147859307801 -0.05477699955702 -0.032542803454107 0.4404162 -0.7291651 -0.5237859 58 58 58
-0.0350720808749059 -0.0424574115755438 -0.0307948357235436 -0.193549 0.8173367 -0.5426781 54 54 54
-0.0356206406941864 0.0550891327135863 0.0215255229321314 -0.2243839 0.8587278 0.4606935 82 82 82
-0.0169898219604643 -0.0522921173353914 -0.0446769603459714 -0.1936476 0.3854234 -0.9021915 113 113 113
0.02781105185456 -0.030556883971238 -0.0353097019016577 0.1437427 0.1110754 -0.9833617 94 94 94
0.0267293968399116 -0.00716505014213653 -0.0302169302288954 0.2025082 0.5022817 -0.8406566 122 122 122
0.0337070201204774 0.00989320558518902 -0.0175457946439085 0.002932902 0.613355 -0.789802 133 133 133
-0.00409040367706925 0.0184911074908736 -0.00443723160326576 0.4454581 0.7774387 -0.4440227 179 179 179
0.0240189169990144 0.00265009632454727 -0.0238327236569126 -0.06263883 0.6433452 -0.7630094 168 168 168
-0.0198578621046916 0.0116429173181161 -0.0156502348413711 -0.1327928 0.4968091 -0.8576403 108 108 108
-0.0160172136709535 0.0069767472544866 -0.0193458635348763 -0.1259193 0.5332837 -0.8365123 57 57 57
0.0150816995128764 0.0216376859400604 0.00067845763492913 -0.1332606 0.9907729 0.02471127 86 86 86
0.0511497962237364 0.00372972451420739 0.0113215810279803 0.9337316 0.3135916 -0.1726429 140 140 140
-0.0354275163455506 0.00672434042624981 -0.0103585427055832 -0.379016 0.2328602 -0.8956132 128 128 128
-0.0482070014933984 0.0513623071520539 0.0228797830571169 -0.2329672 0.9348304 0.2679895 67 67 67
0.00210587703805487 0.0483854007858637 0.0359516319056383 -0.05545433 0.9432636 0.3273813 42 42 42
-0.00493625052884461 0.0449544444720191 0.046081546975182 -0.08414666 0.9478761 0.3073276 65 65 65
-0.0551437354633029 0.0495024360653356 0.0148819113219986 -0.3660493 0.9091868 -0.1984619 114 114 114
-0.0292422993950532 -0.0241298950773132 -0.024970707487132 -0.4966425 0.4343975 -0.7514287 66 66 66
0.0333389061170357 -0.0398442834878361 -0.0363348784242491 0.1709853 0.01175897 -0.9852034 57 57 57
0.0212943373676846 -0.042430389225417 -0.0383246725299992 0.3047784 0.1482205 -0.9408192 97 97 97
0.0176183590879697 0.0468931302373914 0.0400969691108414 0.1756696 0.89673 0.406221 41 41 41
0.0295578754420465 -0.00765422849525144 -0.0297781444072543 0.3570194 0.5252911 -0.7724031 140 140 140
0.0525373719094357 -0.000114126850547125 0.0117912461325897 0.9384947 0.3099492 -0.1521811 139 139 139
-0.0322045506896589 0.0571969667236811 0.0198043215398766 0.1326345 0.9906837 0.03088341 133 133 133
0.0250368235608907 0.0106898070715657 -0.0180971289074575 0.04523671 0.5994207 -0.7991549 201 201 201
-0.0297129339354418 -0.0262080952281554 -0.0258186855144514 -0.5095787 0.4282012 -0.7463064 58 58 58
0.0370027851943773 -0.0493382982282893 -0.0228034701425568 0.5306923 -0.6976845 -0.4812506 46 46 46
0.0465040763694131 -0.042175320112275 -0.0211257196245954 0.6883875 -0.6496711 -0.3225681 60 60 60
-0.0419632227218116 -0.0179861859998132 -0.0161232807634972 -0.2559642 0.347119 -0.9022143 86 86 86
-0.0120992388327767 0.0525427272490417 0.0206419567649323 -0.0108112 0.980359 0.1969249 80 80 80
0.0481135338691487 -0.0414479507108829 -0.0189312732962911 0.6744907 -0.672728 -0.3041369 52 52 52
0.0154255371414926 -0.0433471145053226 -0.0399395611801155 0.1813053 0.1293152 -0.9748877 75 75 75
0.0103109468870466 -0.00116288913470375 -0.025381318594485 -0.05449061 0.5021787 -0.8630453 60 60 60
0.0472091755867998 -0.043816985450875 -0.0152014995416156 0.6695045 -0.704578 -0.235231 53 53 53
-0.0628378640064144 0.0360715164393677 0.00766790638264653 -0.3160379 0.4281055 -0.8466675 98 98 98
-0.0575271373937936 0.0202073752467766 -0.0008146688526674 -0.4683207 0.5376961 -0.7011124 96 96 96
0.0494359840929333 0.0368194811697975 0.0324888245147547 0.9768366 0.1252503 -0.173501 128 128 128
