ply
format ascii 1.0
comment File exported by Rhinoceros Version 7.0
element vertex 466
property float x
property float y
property float z
property float nx
property float ny
property float nz
property uchar red
property uchar green
property uchar blue
end_header
-0.0164838460253272 -0.0619618348772628 -0.0162337443517753 -0.03177262 -0.6920901 -0.7211115 55 55 55
-0.0229044986763709 -0.0583313198819579 -0.0173539611293763 -0.424816 -0.1809456 -0.8870119 62 62 62
-0.0190882405586721 -0.0604227890897873 -0.018296362849832 -0.2174768 -0.403166 -0.8889101 74 74 74
-0.0212508112338862 -0.0556354829573731 -0.0177433571437644 -0.4323537 -0.1033634 -0.8957602 49 49 49
-0.0226042647395602 -0.0536248667573747 -0.017416546297745 -0.4619208 -0.104938 -0.8806913 44 44 44
-0.0168027697458892 -0.058412315072919 0.000297625262309115 -0.3196184 -0.8989376 0.2995916 96 96 96
-0.0179190609517142 -0.0588237454214098 -0.00115818320398334 -0.3066376 -0.8845214 0.3515613 118 118 118
-0.0242156875602911 -0.0576534677555629 -0.00394012254838608 -0.328901 -0.8380721 0.4352691 83 83 83
-0.0228206693646159 -0.0575300047160994 -0.00269443537302846 -0.3041292 -0.8489529 0.4321857 29 29 29
-0.00622726641147298 -0.0544669336485184 -0.0217495354943923 -0.1494839 -0.06337941 -0.9867308 69 69 69
-0.0188828834002813 -0.0542485879107193 -0.0192353423925094 -0.4025874 -0.1141611 -0.9082349 46 46 46
-0.0144881735626076 -0.0542647209335845 -0.021367634938694 -0.1342913 -0.203699 -0.9697797 170 170 170
-0.0220346146627159 -0.0514886488313826 -0.017947726419592 -0.4286974 -0.1137394 -0.89626 49 49 49
-0.0200389709325436 -0.0498762041751535 -0.01938924465307 -0.4191241 -0.1110525 -0.9011117 81 81 81
-0.0188490234983816 -0.0494449177621736 -0.0202954037449055 -0.3865001 -0.08060063 -0.9187607 96 96 96
-0.0130180465629662 -0.054099910728614 -0.0207400493475733 -0.1003474 -0.2042558 -0.9737607 125 125 125
-0.0116979091286116 -0.0522683252342944 -0.0215324503496459 -0.02251051 -0.1120736 -0.9934449 127 127 127
-0.00883588089488971 -0.0538429325693479 -0.0211411210511836 -0.04490565 -0.1279142 -0.9907681 96 96 96
-0.00725906415732866 -0.0516799473407077 -0.0212372884706621 -0.06630551 -0.09678974 -0.9930938 127 127 127
-0.0101531360260261 -0.0504959281943202 -0.0215170156018114 -0.02449772 -0.1215479 -0.9922832 122 122 122
-0.0113579386523835 -0.0489451178895317 -0.0224525433292735 -0.0371552 -0.04688025 -0.9982092 149 149 149
-0.0141302001949895 -0.0525462179174505 -0.0211731547019488 -0.1392574 -0.1432253 -0.9798438 125 125 125
-0.0147891068493839 -0.0512700994860333 -0.0219627501627864 -0.1969279 -0.112818 -0.9739053 146 146 146
-0.0158303600512371 -0.0492072656082037 -0.021520684410594 -0.2518407 -0.009902511 -0.9677181 77 77 77
-0.0126986851571666 -0.0499709861355102 -0.0221022723614403 -0.07635078 -0.08925314 -0.9930783 122 122 122
-0.0167933150364948 -0.045749204656311 -0.0206934308931962 -0.2761769 0.0617055 -0.959124 112 112 112
-0.0134830542653075 -0.0463482741122043 -0.0219023318810121 -0.1517062 0.03444339 -0.9878253 136 136 136
-0.0283633110848306 -0.0577926986764759 -0.0136065206556338 -0.7033173 -0.5297445 -0.4740417 76 76 76
-0.027148619976009 -0.05586514955612 -0.0143546829758513 -0.676968 -0.344835 -0.6502331 44 44 44
-0.028690559280736 -0.0516939886220373 -0.0141638588893185 -0.6634125 -0.1256392 -0.7376305 32 32 32
-0.0244818451871856 -0.0546849392123756 -0.0172162530657351 -0.4840521 -0.08244514 -0.8711466 71 71 71
-0.0241289400381794 -0.0540848896038628 -0.0166217301870319 -0.4849001 -0.08539183 -0.8703908 66 66 66
-0.0322596263057436 -0.0523045894456926 -0.0101191678818786 -0.7920728 -0.3485654 -0.5011215 97 97 97
-0.0315318904843102 -0.0492804919483769 -0.0101735779328372 -0.7791973 -0.1875929 -0.5980473 98 98 98
-0.0341921080552461 -0.0489410988258421 -0.00739155891635437 -0.7403241 -0.2963067 -0.6034257 53 53 53
-0.0345835980961765 -0.0483988225310996 -0.00717460898347902 -0.7380701 -0.2564097 -0.6241046 47 47 47
-0.0349801967097672 -0.0472229830665418 -0.00630570124045784 -0.700524 -0.2932239 -0.6506042 51 51 51
-0.032932724332783 -0.0459317721196835 -0.00956480599618822 -0.7426017 -0.2502723 -0.6212137 80 80 80
-0.035183045805391 -0.0438421992103954 -0.00834449615620728 -0.6497024 -0.3829485 -0.6566865 37 37 37
-0.0300554065435927 -0.0495791279384623 -0.0129148574434902 -0.7369577 -0.1781973 -0.652027 60 60 60
-0.0286408193635604 -0.049124677540282 -0.014559418863406 -0.7004606 -0.1475302 -0.6982763 48 48 48
-0.0297615396899943 -0.0435724025504265 -0.0142387701082362 -0.659171 -0.2398194 -0.7127274 75 75 75
-0.0312410737733908 -0.043384607709444 -0.0127274430339357 -0.7053748 -0.2698906 -0.655443 83 83 83
-0.0331170328221883 -0.0420929346913199 -0.011653978665444 -0.6357322 -0.3638096 -0.6807989 55 55 55
-0.0338897142843411 -0.0382489442704084 -0.0130813910417687 -0.5842648 -0.3418262 -0.7360636 49 49 49
-0.0228969625253454 -0.0467321764481179 -0.0187027788677251 -0.41204 -0.09010376 -0.9066997 58 58 58
-0.0224406148756864 -0.0452188698362661 -0.0188842843943767 -0.375242 -0.04787936 -0.9256895 55 55 55
-0.0197494503288276 -0.0457053344947227 -0.0198339495274069 -0.3336886 -0.0115538 -0.9426126 106 106 106
-0.0286610255963026 -0.043853909236403 -0.0157304043658938 -0.6003081 -0.2157607 -0.7701153 76 76 76
-0.029358813322356 -0.0405991478219345 -0.0162608771371132 -0.5694175 -0.2414058 -0.7858033 71 71 71
-0.0262131060816193 -0.0404453995798875 -0.0177006760983124 -0.4178528 -0.16048 -0.8942289 117 117 117
-0.0275123623950379 -0.0396077955666698 -0.0173855962916754 -0.4808872 -0.2039148 -0.8527405 105 105 105
-0.0310997366400142 -0.040549696104043 -0.0142965086439308 -0.6266094 -0.2767495 -0.7285399 70 70 70
-0.0315319690224262 -0.0394535835325684 -0.0144912217078973 -0.6023245 -0.2958621 -0.7413979 56 56 56
-0.0290968887752029 -0.0385650911744899 -0.0164123492148642 -0.4815348 -0.2866165 -0.8282362 46 46 46
-0.0298764875912295 -0.037338049981986 -0.0165275616816848 -0.4956628 -0.2648104 -0.8271601 37 37 37
-0.0320478305257038 -0.0370714184326046 -0.0147011441692393 -0.5654921 -0.3276097 -0.7568953 46 46 46
-0.0313972897197368 -0.0350445542943634 -0.0161335636992533 -0.5052865 -0.3227857 -0.8003093 57 57 57
-0.0230847129963687 -0.0407552970443004 -0.0190951093788021 -0.2965335 -0.07916094 -0.951736 74 74 74
-0.0258072103336822 -0.0380432556468315 -0.0181799064399294 -0.3212844 -0.1633544 -0.9327871 67 67 67
-0.0240611940156973 -0.0377814199531623 -0.0185688082618103 -0.3109114 -0.1426018 -0.9396802 81 81 81
-0.0206418870322154 -0.0379837720795713 -0.0196712376501599 -0.2484838 -0.09062418 -0.9643874 136 136 136
-0.0219087692133275 -0.0368391682586156 -0.0196412798293401 -0.254225 -0.1160777 -0.9601539 121 121 121
-0.0291912314503887 -0.0365487982479864 -0.0170386060195008 -0.4223809 -0.2671069 -0.8661688 45 45 45
-0.0268895913651172 -0.0354135469061778 -0.0180945830225027 -0.3123908 -0.225209 -0.9228721 41 41 41
-0.0242051559470834 -0.0341716136971637 -0.019356933585732 -0.2234726 -0.1881346 -0.9563814 112 112 112
-0.0258021339832835 -0.0336898288522027 -0.0190272406913599 -0.2562113 -0.2025127 -0.945169 131 131 131
-0.0279927326232525 -0.0346201932158612 -0.0184152002464281 -0.3315031 -0.2563044 -0.9079723 47 47 47
-0.0286851186640105 -0.0334752819141628 -0.0185361541917922 -0.3259124 -0.270262 -0.9059468 75 75 75
-0.0330639959538778 -0.0342473950046847 -0.0156470453145285 -0.5238327 -0.3898669 -0.7573659 54 54 54
-0.0325144189484711 -0.0331690909185347 -0.016749153062004 -0.4763415 -0.3998136 -0.7831014 68 68 68
-0.0358744984690267 -0.038186074880312 -0.0115437350942944 -0.5626739 -0.370776 -0.7388662 29 29 29
-0.0337822428185182 0.00476108045776202 -0.0274788894077424 0.02983581 -0.1713258 -0.9847625 167 167 167
0.0121013267003308 0.0584030252334153 0.0112220638162091 0.02310051 0.9817839 -0.1885914 53 53 53
-0.00717341006816877 0.00352572957311303 -0.0254151280309224 -0.2009139 -0.08281407 -0.9761022 190 190 190
-0.0400999293897784 -0.036483107177304 -0.010089975697294 -0.473967 -0.412163 -0.778124 49 49 49
-0.0380788724761342 -0.0387241409661565 -0.00998103449853796 -0.557492 -0.4171728 -0.7177531 40 40 40
-0.0362314412960927 -0.0362002049639469 -0.0120903603189633 -0.5423335 -0.3821752 -0.7482089 44 44 44
-0.0425147625804007 -0.0335806501015743 -0.0104257524640247 -0.4507792 -0.4221055 -0.7865272 167 167 167
-0.0451877682588786 -0.0312240622140572 -0.00928105849092722 -0.4320367 -0.5078498 -0.7452737 157 157 157
0.0430530759503288 0.000861961089623442 -0.00787326734004126 0.9907579 0.01166835 0.1351388 139 139 139
-0.0472542740854789 -0.0285145530408464 -0.00932731483329938 -0.3791324 -0.5938683 -0.7096331 66 66 66
-0.0451340511939076 -0.028812279892918 -0.0109921144738246 -0.4161423 -0.5746213 -0.7047241 147 147 147
-0.0360214892407429 -0.0323422566237683 -0.0137208949798 -0.4975026 -0.4224532 -0.757644 35 35 35
-0.0347582988313511 -0.0323005757453512 -0.0153942914770378 -0.5003068 -0.4246155 -0.7545825 53 53 53
-0.0371608177363359 -0.0304992654417711 -0.0142709896150904 -0.4874958 -0.4360186 -0.7564626 45 45 45
-0.0397245155596086 -0.0276636022062962 -0.0158480808854075 -0.4327495 -0.5186119 -0.7374074 64 64 64
-0.0412144765938102 -0.0287949616452845 -0.0130580486675808 -0.4363911 -0.4872114 -0.756431 137 137 137
-0.0435306007347637 -0.0284820897193814 -0.0121808309554886 -0.3994813 -0.562694 -0.7237335 166 166 166
-0.0447121587330239 -0.0272188976218024 -0.0121010341881686 -0.4012812 -0.5857661 -0.7041672 161 161 161
-0.0424776478044597 -0.0266317874964024 -0.0143579762426224 -0.3390142 -0.6271871 -0.7012174 165 165 165
-0.0415565874762754 -0.0252496119615309 -0.0153782721760927 -0.3380629 -0.6286874 -0.7003325 147 147 147
-0.0442188920222602 -0.025117370923541 -0.0145861467257982 -0.3302992 -0.6463505 -0.687847 140 140 140
-0.0327568919989836 -0.0300060303120226 -0.0180022362848085 -0.4009861 -0.3631659 -0.8410236 72 72 72
-0.0351755197185055 -0.0279112768917025 -0.0176217404940986 -0.4259954 -0.4263716 -0.7979569 71 71 71
-0.0333438156237066 -0.0282037855015287 -0.0186743719256857 -0.375874 -0.3992605 -0.8362474 67 67 67
-0.0331093563076243 -0.029021374758434 -0.0181603923209878 -0.3775326 -0.4013081 -0.8345184 67 67 67
-0.0310223773049623 -0.0282345266732358 -0.0193994436835773 -0.2382968 -0.3349297 -0.9116122 78 78 78
-0.0375086626750763 -0.0255189112222323 -0.0173078926040034 -0.4010859 -0.523527 -0.7516978 57 57 57
-0.0354950478506995 -0.0255831215426996 -0.0189417425137344 -0.3784516 -0.4718708 -0.7963117 61 61 61
-0.0366943900712613 -0.0234696367579188 -0.0196819007046213 -0.2899581 -0.5314769 -0.7958999 111 111 111
-0.0378896974916167 -0.0259287095017116 -0.0162470196742821 -0.417871 -0.5291961 -0.7384682 68 68 68
-0.0379100842365975 -0.025433313739156 -0.0168669436736717 -0.4148998 -0.5381132 -0.7336841 55 55 55
-0.0403894203639213 -0.0241478889348765 -0.0174096431223612 -0.3289283 -0.6166021 -0.7152678 119 119 119
-0.0390938496468592 -0.0229798852789369 -0.0192432420064036 -0.3142261 -0.6052868 -0.7313616 98 98 98
-0.00433697856043433 -0.0527423663972615 -0.0217785102837366 -0.1659169 -0.06686406 -0.9838703 66 66 66
-0.00380692162689686 -0.050848348367007 -0.0221784555591971 -0.1720864 -0.08200984 -0.9816622 78 78 78
-0.00134774493546705 -0.0497351105789012 -0.0223553671081532 -0.2087347 -0.1071155 -0.9720885 80 80 80
-0.00246351940653552 -0.0478542636627517 -0.0225953535011858 -0.193067 -0.1173468 -0.9741431 66 66 66
0.00311141057541447 -0.0511146834659622 -0.0235942174227329 -0.1668478 -0.1388419 -0.9761581 124 124 124
0.00730295002260256 -0.0506278494850416 -0.0236920779824652 0.1860315 -0.1526765 -0.9706092 125 125 125
0.00597760811168788 -0.0482128870254115 -0.0247750481754645 -0.08587696 -0.2193224 -0.9718657 162 162 162
0.00246256680310866 -0.0483342103776156 -0.0238220065334832 -0.2219854 -0.1339559 -0.9658045 79 79 79
-0.00256691105253726 -0.04608423988958 -0.0226286859892954 -0.2000561 -0.1064717 -0.9739822 109 109 109
0.00246700831916397 -0.0463982284278013 -0.0242225115627664 -0.2427111 -0.1156635 -0.9631788 120 120 120
0.00323136318754713 -0.0451061827045383 -0.0244849040842343 -0.262062 -0.09526837 -0.9603372 93 93 93
0.000811590252299738 -0.0444469301593748 -0.0239106498675434 -0.2377964 -0.09551806 -0.966607 90 90 90
-0.00271767028808911 -0.044326838602615 -0.0229878589849577 -0.1900068 -0.1076166 -0.9758669 102 102 102
-0.00526277747389725 -0.0501346773470277 -0.0220155152178265 -0.1334271 -0.09634501 -0.9863645 122 122 122
-0.00978450949771242 -0.0460576306961924 -0.0217540085314138 -0.08345465 -0.03061199 -0.9960413 125 125 125
-0.00548765130574466 -0.0439727049680789 -0.0224583164193235 -0.1728775 -0.0824184 -0.9814889 123 123 123
-0.0133081705781581 -0.0434583140852649 -0.0211683312409045 -0.1797979 0.03256482 -0.9831644 116 116 116
-0.0121054882881678 -0.0433884304548879 -0.0213961727859729 -0.1704293 0.005302631 -0.9853556 111 111 111
-0.0127276802991187 -0.0411394827742799 -0.0213787083175724 -0.1928964 -0.01204358 -0.9811452 126 126 126
-0.0431236579409612 0.0243769147307789 -0.0102011861674773 -0.3491749 0.6972797 -0.6260015 48 48 48
-0.015161315047632 -0.0422974653143269 -0.0207079092621541 -0.231786 0.02281176 -0.9724993 132 132 132
-0.00390781002019769 -0.0425206023397124 -0.0230753996546322 -0.1970859 -0.09404886 -0.9758647 162 162 162
-0.00664652138168478 -0.0418979591086692 -0.0223902160725236 -0.1780951 -0.08024791 -0.9807357 152 152 152
-0.00180584375602239 -0.0414227360981481 -0.0233025288453908 -0.217353 -0.1165836 -0.9691057 107 107 107
-0.00120526601687015 -0.0388383987011145 -0.0238011395176086 -0.2263651 -0.1016328 -0.9687258 123 123 123
-0.00853466486219576 -0.0392079201693658 -0.0226529376003659 -0.187579 -0.0779143 -0.9791545 112 112 112
-0.0117153397105967 -0.0395419140447699 -0.0217730289729559 -0.1957902 -0.04880029 -0.9794308 128 128 128
-0.0113835883352263 -0.0380674450607599 -0.0216272624782799 -0.2119076 -0.03219888 -0.9767591 137 137 137
-0.0156901589139843 -0.0373884054361411 -0.0211072465061792 -0.2079011 -0.03639676 -0.9774725 123 123 123
-0.00619692650880399 -0.0354212372394662 -0.023331620168316 -0.2289939 -0.05787625 -0.9717058 104 104 104
-0.009226327586288 -0.0380830713891969 -0.0222087318870926 -0.2027359 -0.05920068 -0.9774423 140 140 140
-0.0125961987581808 -0.0353832615914385 -0.0215266650843521 -0.206312 -0.01342606 -0.9783942 131 131 131
-0.011907370586593 -0.0351609977486333 -0.0217584875157273 -0.2038245 -0.009797723 -0.9789584 144 144 144
-0.0118558001405843 -0.0326841773639026 -0.0219130711726156 -0.2200228 -0.0340543 -0.9749001 129 129 129
-0.0143243830052481 -0.0305924538358562 -0.0213253294081709 -0.1664853 -0.0497109 -0.9847901 154 154 154
-0.0105326566987894 -0.0308128175429858 -0.021813004063466 -0.2179309 -0.03347423 -0.97539 126 126 126
-0.013408963603317 -0.0287630117838791 -0.0216743538228561 -0.186796 -0.05593963 -0.9808048 134 134 134
0.00776757600668662 -0.0437908357089154 -0.0258589868987863 -0.01129771 -0.2767327 -0.9608805 146 146 146
0.00944619413279352 -0.0451979680137913 -0.0264328283899002 0.1839065 -0.3820569 -0.905655 168 168 168
0.00428126791137667 -0.0444506452327407 -0.0246526375489815 -0.2782434 -0.09541247 -0.9557599 107 107 107
0.0039497274251217 -0.0405981438394165 -0.0249873304906489 -0.2649639 -0.1180536 -0.9570044 122 122 122
0.00185245595886416 -0.0419474031680798 -0.0239276292623674 -0.2378179 -0.1098539 -0.9650776 110 110 110
0.00181394498797208 -0.0406020184957239 -0.024570211515353 -0.2482774 -0.1152915 -0.9618036 87 87 87
0.00591296471934066 -0.0408034474366274 -0.0256797356184042 -0.286959 -0.1052231 -0.9521464 111 111 111
0.00445693992459265 -0.0382490952754133 -0.0253857239017814 -0.2626402 -0.1028334 -0.9593984 119 119 119
0.00344242074594406 -0.0380602649305186 -0.025263035711198 -0.2593234 -0.107745 -0.9597616 111 111 111
0.00203204963657092 -0.0379793197041389 -0.0248661817771136 -0.2540921 -0.1043414 -0.9615353 99 99 99
0.0100869323946484 -0.0405754014379025 -0.0270209542874833 0.04689786 -0.1631397 -0.9854877 158 158 158
0.00862161925032023 -0.0410901243093831 -0.0266379123190509 -0.1331597 -0.158224 -0.9783832 120 120 120
0.0108426237180637 -0.0401129332189678 -0.0270869106310964 0.08580329 -0.1713242 -0.9814712 177 177 177
0.0135708042839921 -0.037167913479093 -0.0271675345051452 0.3136457 -0.08211155 -0.9459831 159 159 159
0.00724718573290881 -0.0364659824757581 -0.0265629877033834 -0.2048133 -0.04482179 -0.9777743 139 139 139
0.00424288083484067 -0.0336941410801523 -0.0259375014970411 -0.2547308 -0.03173536 -0.9664911 114 114 114
0.0103894230963389 -0.0329978334833796 -0.0268518518258661 -0.09593758 -0.008197851 -0.9953536 128 128 128
-0.00153160614440023 -0.037474001098196 -0.0241295135281105 -0.2243337 -0.09870533 -0.9695007 134 134 134
-0.000149795494696042 -0.036817881315925 -0.0244789107702814 -0.2468645 -0.08611622 -0.965216 130 130 130
-0.00211193597776796 -0.0364044367182197 -0.0240676732702365 -0.2288424 -0.07469028 -0.9705939 122 122 122
0.00468909810097126 -0.0324925938861922 -0.0258583960407527 -0.2438142 -0.02005412 -0.9696146 100 100 100
0.00321855527365936 -0.0317014476154385 -0.0256107539683984 -0.2500981 -0.006684238 -0.9681974 107 107 107
0.00357682707581006 -0.0296032751061472 -0.0255980335486077 -0.2460907 -0.008203657 -0.9692121 124 124 124
-0.00387798399057859 -0.0337036418197207 -0.0237088801806162 -0.2288486 -0.02019531 -0.9732525 215 215 215
-0.00613934014886117 -0.0338705563864945 -0.0235728894520641 -0.2494868 -0.01806801 -0.9682096 185 185 185
-0.0045005233632246 -0.0311028888299687 -0.0238021470508355 -0.2398556 -0.01699028 -0.9706599 217 217 217
-0.00244039081825459 -0.0309096267771902 -0.0242887691874754 -0.2334312 -0.02707716 -0.9719962 92 92 92
-0.00414031533515638 -0.0292122711968976 -0.0237160577744268 -0.2456881 0.0006909813 -0.9693487 123 123 123
-0.00893057962601421 -0.029130162229976 -0.0224136879506691 -0.225361 -0.0275439 -0.9738859 202 202 202
-0.0121727443037517 -0.0273578626611712 -0.0218107278789479 -0.1891064 -0.04705571 -0.9808285 171 171 171
-0.00984660985623878 -0.0253598363337564 -0.0227519582222111 -0.2156657 -0.05751712 -0.9747718 231 231 231
-0.00727817052125715 -0.025892817284225 -0.0230536593958522 -0.2220019 -0.0405491 -0.9742028 186 186 186
0.00052711533871122 -0.0305471111069082 -0.0249352243825156 -0.2344461 -0.01774002 -0.9719672 118 118 118
-0.000919876485823756 -0.0288331809719256 -0.0243712567756441 -0.2322577 -0.03059758 -0.9721729 140 140 140
0.00126846733151378 -0.0262900777238158 -0.0246823641975387 -0.2240837 -0.049682 -0.9733027 104 104 104
-0.000628424945660511 -0.0253388412188551 -0.024658960475441 -0.2248551 -0.05822848 -0.9726508 188 188 188
-0.00151134198195363 -0.0237588910690711 -0.0247585947553503 -0.2298789 -0.07594255 -0.9702517 235 235 235
0.00110130774965092 -0.0248215684579611 -0.0254370641177436 -0.2294448 -0.06435027 -0.9711921 229 229 229
-0.00373532103853652 -0.0261296381443188 -0.0238830736305956 -0.244508 -0.03977997 -0.9688309 128 128 128
-0.00588408168826127 -0.0233495126752985 -0.0235632055977333 -0.2228411 -0.07248254 -0.9721564 127 127 127
-0.00623567873106351 -0.0227105088670321 -0.0237329168476339 -0.22707 -0.07861473 -0.9707003 141 141 141
-0.0036632895809543 -0.0206690498981379 -0.0243188933291758 -0.2432478 -0.09551065 -0.9652504 76 76 76
-0.0170335046519575 -0.0378580674352051 -0.0207470664732055 -0.2063482 -0.03757788 -0.9777568 121 121 121
-0.0184836025317928 -0.0343464761513206 -0.0205250923169693 -0.1660852 -0.08118288 -0.982764 128 128 128
-0.0170875055360024 -0.0342472393191784 -0.0207714534711786 -0.1793921 -0.05574078 -0.9821972 133 133 133
-0.0203549198454269 -0.0342174744062305 -0.020311672328472 -0.1962292 -0.1051246 -0.9749066 123 123 123
-0.0231915341555923 -0.0339496601612406 -0.0198055755675184 -0.1989731 -0.1679034 -0.9655144 124 124 124
-0.0168720728415708 -0.0323733691360415 -0.0207693734199608 -0.1536359 -0.04942286 -0.9868908 131 131 131
-0.047433557634736 -0.018622859529843 -0.0196815201212183 -0.05728608 -0.6380358 -0.7678728 158 158 158
-0.0201363753286563 -0.032249978717096 -0.0201625506658203 -0.1531949 -0.108354 -0.9822376 120 120 120
-0.0249072965988845 -0.0323903256819533 -0.019222861181968 -0.2056265 -0.1839109 -0.9611943 96 96 96
-0.0235376394078682 -0.0317568979759444 -0.0201274044497781 -0.1823479 -0.1600512 -0.97012 111 111 111
-0.0254600216778851 -0.0308403625008504 -0.0202215374517579 -0.1637148 -0.2120592 -0.9634461 96 96 96
-0.0227571183698852 -0.029421499650323 -0.020288834309289 -0.1225623 -0.1213255 -0.9850171 137 137 137
-0.0213816303679766 -0.0280237137168564 -0.0206254496540135 -0.1030888 -0.04614329 -0.9936013 139 139 139
-0.0230383634328213 -0.0275251069517577 -0.0203967046069458 -0.07436647 -0.02811093 -0.9968347 151 151 151
-0.0160092072493541 -0.0299053568553591 -0.0213868415713916 -0.1403085 -0.05945424 -0.9883212 131 131 131
-0.0179656362508683 -0.0265782057021913 -0.0207959538382594 -0.1396568 -0.00707035 -0.9901747 207 207 207
-0.0195564977350381 -0.0259262077897808 -0.0209412807463042 -0.1110316 -0.0009674259 -0.9938164 178 178 178
-0.0154945145382756 -0.0279117057889102 -0.0213918387119248 -0.1366587 -0.04156544 -0.9897458 139 139 139
-0.0133422234164009 -0.0263051831363008 -0.0217873733428462 -0.1851166 -0.04330033 -0.9817622 191 191 191
-0.0157096256451861 -0.0264722434778575 -0.0212702782296304 -0.153319 -0.002336877 -0.988174 207 207 207
-0.0168271674301776 -0.0256474344859909 -0.021236058260647 -0.1400754 -0.002890015 -0.9901366 203 203 203
-0.0135890586595881 -0.0240946517280101 -0.0216794836157458 -0.2073229 -0.03499661 -0.9776464 167 167 167
-0.0120957420802892 -0.0247640477076851 -0.0218253711559877 -0.1895857 -0.04424499 -0.9808668 208 208 208
-0.0100542782744076 -0.0238858523198664 -0.0229671352602239 -0.2122035 -0.0704001 -0.9746863 227 227 227
-0.00334377027266797 -0.0192414595683146 -0.02463231969201 -0.2392994 -0.08406857 -0.9672995 92 92 92
-0.00776969728675689 -0.01831484215932 -0.0236145431672619 -0.2349018 -0.08792219 -0.9680345 190 190 190
-0.00497773124889297 -0.0196758153600838 -0.0242018127103046 -0.2468985 -0.102646 -0.9635896 153 153 153
-0.00613298686320454 -0.0161339268312624 -0.0244103148812077 -0.2290985 -0.09800623 -0.9684569 140 140 140
-0.0240197219909326 -0.0263704642400515 -0.0210195069903455 -0.05449237 -0.007580231 -0.9984854 221 221 221
-0.0248080652945812 -0.0250020850877735 -0.0204145795678453 -0.003660664 -0.04199952 -0.9991109 180 180 180
-0.0261610688094653 -0.0242807017807962 -0.0206070491008229 0.03683874 -0.07548144 -0.9964665 115 115 115
-0.0208308599453461 -0.0256544889467558 -0.0208978588448664 -0.09577975 0.01256349 -0.9953232 143 143 143
-0.0235375279962123 -0.024895710475269 -0.0205636373754154 -0.01432759 -0.01719703 -0.9997495 168 168 168
-0.0252951430937635 -0.0228514487322682 -0.0197739216683429 0.0618725 -0.08389007 -0.9945523 146 146 146
-0.0195877784018542 -0.0242935500550969 -0.0205647410623025 -0.1050921 0.02069623 -0.9942471 168 168 168
-0.0191119443209206 -0.0218522299316755 -0.0204827000824311 -0.1206553 -0.01728313 -0.992544 153 153 153
-0.0229901503245316 -0.0195852796407274 -0.0206484468140862 0.0746266 -0.1964575 -0.9776683 169 169 169
-0.0293329129194348 -0.0277077952138107 -0.0203699774374592 -0.1664582 -0.2700854 -0.9483383 64 64 64
-0.0310744384317601 -0.0265088309994412 -0.0199500793102654 -0.1868195 -0.3044226 -0.9340371 100 100 100
-0.0313648823824853 -0.0260403583240485 -0.0205073973789424 -0.1695847 -0.2883174 -0.9423981 132 132 132
-0.0338904403609881 -0.0249946966064685 -0.0201722788384433 -0.300118 -0.4267603 -0.8531147 108 108 108
-0.0272309463309059 -0.0263554760240234 -0.0203577466828734 -0.03776025 -0.1089116 -0.993334 119 119 119
-0.0281800557121591 -0.0261862442992471 -0.0206842138999108 -0.0153296 -0.1410075 -0.9898899 99 99 99
-0.0296885066540475 -0.0246429483221666 -0.0205520869665633 -0.02563512 -0.1770867 -0.9838613 126 126 126
-0.0284839940794934 -0.0238791366670716 -0.0207300039796079 0.01102782 -0.1305559 -0.9913796 117 117 117
-0.0307884196866429 -0.0234525014926084 -0.020807314911007 -0.03071614 -0.2185671 -0.9753384 139 139 139
-0.0371286130324814 -0.0221202655160491 -0.0209705262339233 -0.2059564 -0.5102462 -0.8350034 119 119 119
-0.0377976458155622 -0.0200858548486775 -0.0209347961061013 -0.08986126 -0.4591345 -0.8838102 125 125 125
-0.034256200097033 -0.0202705963911014 -0.0215445598202242 -0.03791407 -0.2964625 -0.9542916 142 142 142
-0.0268090552691038 -0.0212152999708544 -0.0210794647996442 0.0925497 -0.1806724 -0.9791793 120 120 120
-0.0297318986890844 -0.021088918630418 -0.0214471755413322 0.07367479 -0.2693123 -0.9602306 152 152 152
-0.0296767588697053 -0.0197499739509353 -0.0215802759042407 0.0643808 -0.2771089 -0.9586792 138 138 138
-0.0245527484786653 -0.0203441409792973 -0.0207107063935125 0.1054177 -0.2116067 -0.971653 125 125 125
-0.027897305680164 -0.0187894669989002 -0.0214290785022331 0.1188001 -0.3079673 -0.9439506 142 142 142
-0.0264261244209256 -0.0180296394964148 -0.0221502667502759 0.1471694 -0.2988225 -0.9428926 145 145 145
-0.031622718076095 -0.0196511450875516 -0.021577649971798 0.01126256 -0.2680668 -0.9633345 143 143 143
-0.0310807006918488 -0.018780923727105 -0.0218768256587757 0.02508205 -0.2892123 -0.9569364 139 139 139
-0.0321659798883389 -0.0183802679420084 -0.0227517641706035 0.01704666 -0.3027194 -0.9529272 116 116 116
-0.0350714227299968 -0.0163017362141524 -0.0227447939295156 0.02759246 -0.3493232 -0.9365959 171 171 171
-0.0291419877645478 -0.0166679282240481 -0.023002398493794 0.05999838 -0.3256309 -0.9435914 158 158 158
-0.0145279354275126 -0.0222541335551398 -0.0217783687346743 -0.2142461 -0.04155953 -0.9758952 212 212 212
-0.0110191265158189 -0.0222740710217655 -0.0224892658427533 -0.225593 -0.06842867 -0.9718155 212 212 212
-0.0116457703717858 -0.01999491814402 -0.0224783575917064 -0.2272374 -0.07930436 -0.970605 227 227 227
-0.0135943683926084 -0.020249147066342 -0.0220732406802458 -0.2208564 -0.08371996 -0.9717064 217 217 217
-0.0141409339684438 -0.0173868133491506 -0.0222069919591497 -0.2031597 -0.1322707 -0.9701704 178 178 178
-0.0180196280247938 -0.0208888338429625 -0.0210613099732823 -0.1560819 -0.05803826 -0.9860375 185 185 185
-0.0189259731732648 -0.0170521648862494 -0.021112506361039 -0.07311384 -0.2225287 -0.9721807 112 112 112
-0.0213912953215699 -0.0165012981331165 -0.0217549396775713 0.08468926 -0.2748591 -0.9577475 137 137 137
-0.0188753674513893 -0.0159396783124304 -0.0213111937136805 -0.05031936 -0.2305256 -0.9717643 150 150 150
-0.021626189423949 -0.0139333330681894 -0.0224612156721763 0.1433759 -0.3153387 -0.9380857 223 223 223
-0.0202399969041334 -0.0144761603463117 -0.0219661641422175 0.05703548 -0.3023729 -0.9514818 216 216 216
-0.0178422722859824 -0.0134857580434202 -0.0220789210185383 -0.04141267 -0.2830755 -0.9582031 219 219 219
-0.00875211728277303 -0.0186813404791428 -0.0232538233151474 -0.2319721 -0.08215423 -0.9692469 183 183 183
-0.0106562631585734 -0.0162778724883974 -0.0229269921647448 -0.2095798 -0.1254345 -0.9697126 204 204 204
-0.0127757637741025 -0.0160709876974807 -0.0224324571172092 -0.1931947 -0.1545886 -0.9689056 123 123 123
-0.00929553176521186 -0.0152481018447568 -0.0235196091356993 -0.2153331 -0.1220582 -0.9688826 213 213 213
-0.0144223022159955 -0.0130566024528511 -0.0227961799458628 -0.1708965 -0.1891066 -0.9669711 116 116 116
-0.0153116052076626 -0.0126876649612231 -0.0230246201629471 -0.1289913 -0.2226767 -0.9663211 150 150 150
-0.0141970622535681 -0.0125391760366513 -0.0234970461360182 -0.1411432 -0.2025439 -0.9690483 120 120 120
-0.0146815299474174 -0.0104892674020434 -0.0237150136316197 -0.06212733 -0.1983683 -0.9781566 201 201 201
-0.0161859606857143 -0.00965156870935546 -0.0228215888951668 -0.02420555 -0.2364063 -0.9713528 72 72 72
-0.0235233843656453 -0.0136619456990283 -0.0229290960162482 0.1822044 -0.3095906 -0.9332498 170 170 170
0.010161480624078 0.0446840685816559 0.0355042606073428 0.6422801 0.5500566 0.5337734 117 117 117
-0.0252873625382959 -0.0126440831292491 -0.0237467715384106 0.1504527 -0.3037913 -0.9407842 185 185 185
-0.0296015984104981 -0.0135878476378806 -0.0236575023258861 0.05168966 -0.3333693 -0.9413783 161 161 161
-0.0305636361885246 -0.0125837240264968 -0.0240754041669816 0.06249241 -0.3034113 -0.9508082 150 150 150
-0.0319877920092491 -0.0118327472421202 -0.0246973054747174 0.0240547 -0.2622603 -0.9646973 130 130 130
-0.0311528107691937 -0.0101279443854676 -0.0247638358683277 0.03091175 -0.1925218 -0.9808057 162 162 162
-0.0266573830182335 -0.0104898962237601 -0.0245383050062639 0.112893 -0.2462994 -0.9625964 158 158 158
-0.0265527190368524 -0.00924921445926219 -0.0245105848453774 0.1120748 -0.1598524 -0.9807581 146 146 146
-0.0229771199124972 -0.0097966594378609 -0.0236041776795488 0.1450516 -0.2685996 -0.952268 115 115 115
-0.020292297417294 -0.00835454072901998 -0.023909005559884 0.07474452 -0.2168059 -0.9733491 195 195 195
-0.0191007237440609 -0.0069866784981869 -0.0255006961080624 0.0559157 -0.1173808 -0.9915116 130 130 130
-0.0179116991255573 -0.0058911781619817 -0.0239164982656863 0.05125716 -0.03846546 -0.9979444 216 216 216
-0.0309476260375505 -0.0077678283397431 -0.0251023833133316 0.03685895 -0.09172923 -0.9951016 226 226 226
-0.0292935473648869 -0.00816896388237898 -0.0249194386187765 0.07236675 -0.1346683 -0.9882447 211 211 211
-0.027697809473755 -0.00695936748868342 -0.0250924584128479 0.0925938 -0.08809391 -0.9917993 199 199 199
-0.0220962815008556 -0.00438245562324413 -0.0246422129088135 0.04939233 -0.02634236 -0.998432 198 198 198
-0.0238349188772167 -0.00323060130911013 -0.0245510212277436 0.1268697 -0.01733149 -0.9917679 211 211 211
-0.0272265349269609 -0.00402162207087198 -0.0248909403938747 0.1201773 -0.09065899 -0.9886042 194 194 194
-0.0261976796825865 -0.00419338614312759 -0.0249808589666415 0.1266736 -0.06002374 -0.9901267 221 221 221
-0.029363799004907 -0.00554581184859426 -0.0251062104771953 0.06344844 -0.08057084 -0.9947274 201 201 201
-0.0251958745923141 -0.000448217387474026 -0.0250592474316074 0.1806072 -0.2091942 -0.9610509 169 169 169
0.0116607102050414 -0.0294541586231976 0.0253475077948866 0.7741444 -0.3300094 0.5401799 71 71 71
0.00999853543736307 -0.0259047710242857 0.0285015537123649 0.7536713 -0.1996473 0.6261953 42 42 42
0.0120809861681791 -0.0268482916254986 0.02482017068071 0.8207262 -0.2264991 0.5245062 43 43 43
0.011053890899961 -0.025794130854905 0.027520687892873 0.7594529 -0.1978162 0.6197581 31 31 31
0.011849895802879 -0.0246310722328298 0.0270378153675813 0.7724599 -0.1643589 0.6134263 49 49 49
0.0114477430651685 -0.0240105870922944 0.0280672052841184 0.7596103 -0.1274628 0.6377659 46 46 46
0.0283381797319091 -0.0122928251229011 0.0154776423460604 0.5991452 -0.6881428 0.4092486 99 99 99
0.02907878451197 -0.0106131614381229 0.0164921774866553 0.6070592 -0.6609975 0.4410911 77 77 77
0.0291730558641666 -0.00887385517147554 0.0190314139688137 0.5798816 -0.6256158 0.5218642 85 85 85
0.0278844405630434 -0.00767187818464476 0.0219271816180071 0.5893739 -0.5825727 0.5596851 69 69 69
0.0291869223883824 -0.00703039627988833 0.0209526568101344 0.5762331 -0.6085791 0.5455153 96 96 96
0.0256962451069618 -0.00677140786946051 0.025081857599757 0.5407555 -0.5514735 0.6351854 84 84 84
0.0246667964940158 -0.00504797585856021 0.0270440887512814 0.4669896 -0.3754971 0.8005764 82 82 82
0.0299239907684762 -0.00449159719286962 0.0234174468319812 0.5980865 -0.5198123 0.6099899 89 89 89
0.0275350915569142 -0.00455385580389112 0.0248584743777804 0.5742671 -0.531388 0.6227713 73 73 73
0.0286767566484204 -0.00346975505177993 0.0250472212194127 0.5860456 -0.5194274 0.6218889 93 93 93
0.0241516752720718 -0.00419921105263454 0.0280187081401438 0.4728931 -0.271318 0.838307 75 75 75
0.0273739774763002 -0.00266648149547066 0.0262078280043326 0.4919419 -0.3489578 0.797635 82 82 82
0.0267062292850327 0.00268445049945187 0.0280036591491024 0.4160753 -0.5234367 0.7435693 72 72 72
0.0133929431456517 -0.0258356502028689 0.0238544346201104 0.84999 -0.243332 0.4672329 95 95 95
0.0137472947758324 -0.0252424001146336 0.0227241534241543 0.8491863 -0.2425895 0.4690767 100 100 100
0.0130344765627189 -0.0241462373897781 0.0256358839719213 0.7998461 -0.2061709 0.5636841 54 54 54
0.0152254017650889 -0.0250437952914153 0.0215142509734992 0.8807457 -0.2063007 0.4262945 80 80 80
0.0154041987307983 -0.0215133098259708 0.022998462193811 0.8818125 -0.2024482 0.425936 84 84 84
0.0141766788348152 -0.0198046672418177 0.0249565372605547 0.7631907 -0.198307 0.6149912 72 72 72
0.0106053056348503 -0.0177875394790663 0.0278829014990644 0.7523462 -0.3275445 0.571568 29 29 29
0.0123182035323355 -0.0158853036358781 0.0275498279938535 0.7255852 -0.4546577 0.516539 42 42 42
0.0162722368738763 -0.0217549421593897 0.018951318491521 0.8735283 -0.2486488 0.418476 73 73 73
0.0159928191344766 -0.0210532323933381 0.0206804960150261 0.8393102 -0.3164636 0.4420511 72 72 72
0.0153682940441053 -0.0192749849403198 0.02312911987181 0.8058528 -0.297453 0.5119795 83 83 83
0.016022273238616 -0.0186118120101029 0.021761291774145 0.7797092 -0.3867601 0.4924126 75 75 75
0.019094701422254 -0.0168494648061321 0.0209580207605074 0.6154947 -0.6069716 0.5027443 50 50 50
0.0154209538534898 -0.0176375357539702 0.0227958044287047 0.7366921 -0.364917 0.5693157 55 55 55
0.0156938841344458 -0.0143328759951544 0.0263053329706139 0.6742285 -0.5527264 0.4898055 59 59 59
0.0179449324255155 -0.0161084148019717 0.0219668256503438 0.671551 -0.4927442 0.5533736 45 45 45
0.0133115353449721 -0.011227131227783 0.0327179701230968 0.5560215 -0.3908652 0.7335288 58 58 58
0.0150148705444738 -0.0122244507446838 0.0296185317782698 0.6563094 -0.6006473 0.4565969 52 52 52
0.0158722780221092 -0.0112190459129959 0.0305358312996099 0.6530111 -0.5948738 0.4687234 54 54 54
0.0149640073780433 0.0483462065614693 -0.00864132556251299 0.04688931 0.8287363 -0.5576715 120 120 120
0.0184191793792905 -0.0107410953535627 0.0275209138851441 0.6138159 -0.6391554 0.4633686 46 46 46
0.0126653161349709 -0.00712503235797945 0.0335460849842691 0.5606367 -0.1984139 0.8039393 71 71 71
0.0128503794652234 -0.00522452113706273 0.0342319710631722 0.5760382 -0.1925437 0.7944224 96 96 96
0.0188115081526762 -0.00828195962120137 0.0299559210688908 0.6413298 -0.3060793 0.7035706 46 46 46
0.0143522627575641 -0.00343465078607652 0.0327088617692776 0.6191866 -0.2585811 0.741447 59 59 59
0.019532925660653 -0.0182523268556005 0.016155579847767 0.7121507 -0.5947062 0.3730493 53 53 53
0.020006271706963 -0.0172587559041657 0.017382423999479 0.6408924 -0.6679801 0.3782322 66 66 66
0.0190504779327614 -0.0176898278979976 0.0182706949521781 0.6664878 -0.628244 0.4013771 66 66 66
0.0193075361770784 -0.0171582451323242 0.0199244634551413 0.6089345 -0.6669742 0.4293531 50 50 50
0.0203304845947797 -0.0153100498489038 0.0218898699643904 0.5330262 -0.646295 0.5460639 63 63 63
0.021389496959334 -0.013425514730893 0.0230028852715363 0.5018531 -0.6258516 0.597037 46 46 46
0.0274678076276153 -0.013865691101641 0.0135543944315043 0.566269 -0.7526168 0.3360168 96 96 96
0.0289789447175505 -0.0122489438769213 0.0139591254236015 0.583876 -0.713338 0.3876051 110 110 110
0.0265153545209581 -0.0132942848837523 0.0160412079166369 0.5956255 -0.7013684 0.3915516 69 69 69
0.0208877600208603 -0.00822593256389514 0.0270829880584352 0.5550985 -0.4907325 0.6716005 61 61 61
0.020563258785992 -0.00692760891473343 0.0290571479793141 0.5388179 -0.2866198 0.7921644 95 95 95
0.0224184170628038 -0.0103997989346232 0.0240066498682871 0.5186933 -0.5808432 0.6273583 54 54 54
0.0219651650280719 -0.00873718249531041 0.024873863618856 0.525047 -0.5841498 0.6189464 54 54 54
0.0218273468424577 -0.00696767862346048 0.0273355061196882 0.5446165 -0.4274789 0.7215641 60 60 60
0.0226501104796944 -0.00667381423798052 0.027435432839646 0.5387838 -0.4779414 0.6937464 124 124 124
0.0180294075125016 -0.00460919065049525 0.0302745566159529 0.5715334 -0.1752112 0.8016549 73 73 73
0.0177986743165721 -0.00341099065371542 0.0300810982569622 0.5734097 -0.1891181 0.7971422 72 72 72
0.0190884571989105 -0.00317954812851884 0.0291746027142934 0.5079814 -0.220666 0.8326232 90 90 90
-0.0575488651504007 0.00712604612567413 -0.0220179417665707 -0.4644799 0.6749148 -0.5733659 79 79 79
0.0126576654459686 0.0506751631559694 0.0254308123647245 0.7045488 0.4588419 0.5413641 146 146 146
0.0256755796715272 0.00280212281106018 0.0292308097193879 0.3983605 -0.5669438 0.7210296 54 54 54
0.0261541014085567 0.00392582351369519 0.0299921040915102 0.4204938 -0.6822692 0.598075 58 58 58
0.0256820599856516 0.00584476841066928 0.0326702463101721 0.39709 -0.6728916 0.6241285 78 78 78
0.0236006990383739 0.00722834686029183 0.0349139579079708 0.4146096 -0.6499325 0.6369354 80 80 80
0.0229525043914733 0.00770975613973701 0.0360422458192438 0.4306385 -0.6506904 0.6254218 95 95 95
0.0228080104116948 0.0104226023164573 0.038726206316987 0.4821727 -0.5611218 0.672794 86 86 86
0.0248520386014382 0.0159292085038085 0.0415389960351334 0.5558189 -0.3807036 0.7390062 83 83 83
0.0241205576193774 0.0167361874076606 0.0422901225792736 0.5402053 -0.2612328 0.7999598 94 94 94
0.021732471901359 0.0176070858527246 0.0435758089804196 0.4304906 -0.1976612 0.880686 117 117 117
0.0227485331628935 0.0176301540780546 0.0431968855046558 0.4825861 -0.1878385 0.8554691 131 131 131
0.0134748616515136 -0.00232778621944818 0.0348761793518249 0.6691925 -0.3860946 0.6349114 48 48 48
0.0152503512811427 -0.00108175860891113 0.0338130630489984 0.6410898 -0.5022934 0.5802631 54 54 54
0.0144378557258124 1.84430189069662E-05 0.0358519196125217 0.6469688 -0.5448675 0.5334331 55 55 55
0.0158095546429222 0.00206958425439696 0.0372544233033176 0.6158838 -0.5912229 0.5207135 83 83 83
0.0170657495666477 -0.000860336778780058 0.0318783825370696 0.6190692 -0.4339246 0.6545707 48 48 48
0.015192125256649 -0.00016148571443253 0.0344837107765828 0.6427262 -0.5422274 0.5411954 48 48 48
0.0166282975011576 0.0020864463597916 0.0359609183175934 0.6010632 -0.5965536 0.5318335 63 63 63
0.0186127352762974 0.000905810882130043 0.0321208720577452 0.5636805 -0.5431314 0.6223122 64 64 64
0.0180848672220645 0.0026902924634582 0.0345421513668344 0.5717656 -0.6164795 0.541329 72 72 72
0.0177249227650365 0.00407719847946142 0.0374388407260605 0.5770267 -0.6225252 0.52868 85 85 85
0.0175826259815865 0.00405697499914237 0.0367599262934183 0.5849191 -0.6174483 0.5259537 82 82 82
0.0165031927823246 0.0035143141557783 0.038215854634311 0.6065094 -0.6035706 0.5175411 73 73 73
0.0180921217244963 0.00705141367853335 0.0395778244732351 0.5363406 -0.5934379 0.6001418 82 82 82
0.0205081425857356 0.00420921937974672 0.03409509464408 0.4964409 -0.6408213 0.5855719 72 72 72
0.0212451938617843 0.00552094354074617 0.0349600526787583 0.4996736 -0.6348397 0.5893257 80 80 80
0.022414873287089 0.00522595571517148 0.0336025518679521 0.4371619 -0.6594784 0.6115372 89 89 89
0.0191091322149268 0.0104968801237639 0.041271175993491 0.4939311 -0.5303223 0.6890504 69 69 69
0.0214037737212543 0.0100682425047531 0.039754429934044 0.4820617 -0.5644794 0.6700593 95 95 95
0.0205058143822833 0.012179483120395 0.0417803895348242 0.4796628 -0.5107662 0.7134714 93 93 93
-0.0340021289024136 0.0357641594145572 0.00580095771690778 -0.3923239 0.9051536 -0.1636429 55 55 55
-0.0319296358579226 0.0369935891436632 0.00982320661257949 -0.4405218 0.8927159 -0.09486232 43 43 43
0.0179093888628749 -0.0369143519007711 -0.0236146083843491 0.8986422 -0.3828719 -0.2141293 123 123 123
0.017809363507451 -0.0347404543049536 -0.0258597143357016 0.6642755 -0.1427051 -0.7337393 167 167 167
0.0188079798754435 -0.0332845215529884 -0.0236406158610394 0.9313881 -0.2756335 -0.2377864 134 134 134
0.019458328085274 -0.0314764873118867 -0.018698419694177 0.8769237 -0.4434695 0.1853092 121 121 121
0.0202702077859911 -0.0303733224023162 -0.0198047269217272 0.8573686 -0.5065745 0.09111188 96 96 96
0.0194988034742986 -0.0327290411120797 -0.0225759221354093 0.9545357 -0.2624242 -0.1414041 162 162 162
0.0200883477165542 -0.0316124358258141 -0.0220828027294958 0.9133028 -0.3692375 -0.1718766 120 120 120
0.0205918871074878 -0.0304570007169218 -0.0217669506547008 0.8634664 -0.4865991 -0.1328421 111 111 111
0.0211073381744491 -0.0263191511053431 -0.0115795782854889 0.6987656 -0.6849456 0.2063401 107 107 107
0.0227521100645494 -0.0273557146290639 -0.0194307015061707 0.7120926 -0.6956017 0.0951965 114 114 114
0.0239270530829455 -0.0262495902462838 -0.0217770479940398 0.5785435 -0.7821548 -0.2313467 116 116 116
0.0198481129638254 -0.0281622838118754 -0.0258002982205886 0.4653574 -0.3421854 -0.8163037 168 168 168
0.0196279472925519 -0.0260111979549047 -0.02659132387083 0.3185451 -0.2451274 -0.9156646 153 153 153
0.024709940056746 -0.0253797646196687 -0.023741494738122 0.5550733 -0.7080876 -0.4364693 124 124 124
0.024509824388994 -0.0256399381196208 -0.0188206841697484 0.5748563 -0.817661 0.03115799 100 100 100
0.0280088791642029 -0.0245127676040784 -0.0194998097553591 0.4297082 -0.9028833 -0.01235517 58 58 58
0.0307397044737587 -0.0230640594785534 -0.0185658871528109 0.4390025 -0.8979789 0.03017789 125 125 125
0.0343494004664624 -0.0208007615836079 -0.0159219228856946 0.4784316 -0.867859 0.1338801 109 109 109
0.0349220300688385 -0.0207645799702549 -0.0202364961817591 0.554158 -0.7879561 -0.2683916 88 88 88
0.0337591671160121 -0.0207056827724075 -0.0171271638875491 0.4915216 -0.8683105 0.06665862 85 85 85
0.0397650843087733 -0.0163718667700052 -0.0187958681313845 0.8881757 -0.3663382 -0.2773809 222 222 222
0.036327669957593 -0.020225003081384 -0.0200363007302991 0.5970549 -0.7730415 -0.2143181 118 118 118
0.0344467502320161 -0.0201131936788836 -0.0227225573900247 0.5312448 -0.6513614 -0.5417632 149 149 149
0.0350356848064355 -0.0196765770082927 -0.0222423893612237 0.5236648 -0.6785478 -0.5151195 170 170 170
0.0374743695482777 -0.0191194721367332 -0.0200780867973336 0.6828639 -0.6894256 -0.2416386 181 181 181
0.0384157230589069 -0.0185070132300724 -0.0175887259505601 0.6854507 -0.727607 -0.0273027 170 170 170
0.0365229841146054 -0.016509077271357 -0.024020054345445 0.58317 -0.4155065 -0.6980451 194 194 194
0.0391919420327267 -0.0159019879659092 -0.0206356834802517 0.8742934 -0.3398302 -0.3465927 202 202 202
0.0277865121696884 -0.0243636778920882 -0.0224161697351813 0.4884667 -0.7976581 -0.3537538 109 109 109
0.0310896067314607 -0.0222456222999738 -0.023121869928463 0.4474545 -0.7248328 -0.5238338 127 127 127
0.0292571296576179 -0.022052826664442 -0.024171419283672 0.434606 -0.6471899 -0.626309 160 160 160
0.0279393497074992 -0.0216940820967753 -0.0253020360443743 0.3470296 -0.4927556 -0.7979739 173 173 173
0.0245298961293564 -0.0244213850148134 -0.0249069389720451 0.3943312 -0.4816736 -0.7826197 165 165 165
0.025250382007679 -0.023541095325798 -0.0249561124839431 0.392654 -0.4994027 -0.7722822 133 133 133
0.0293790390236544 -0.0237128473578616 -0.0203568264137585 0.4122678 -0.9054519 -0.1009563 98 98 98
0.0312400284213078 -0.0229771030949137 -0.020480376597119 0.4713782 -0.869766 -0.1459786 112 112 112
0.0322626629742286 -0.0216717767379622 -0.0223869747310016 0.4886852 -0.7246331 -0.4858947 146 146 146
0.0261622243466998 -0.0187525325106221 -0.026325745232035 0.2346173 -0.2312582 -0.9441792 143 143 143
0.023971491311836 -0.0173828712234645 -0.0275387744772621 0.218586 -0.1570921 -0.9630899 135 135 135
0.0310786053118853 -0.0198127964496984 -0.0250090095785215 0.3927405 -0.4304892 -0.8126709 164 164 164
0.0296755016357373 -0.0183529136400864 -0.0259918385794047 0.2905738 -0.2946186 -0.9103663 164 164 164
0.0340713604320857 -0.0173151734180796 -0.0247114500474201 0.4231953 -0.4461002 -0.7886066 160 160 160
0.0344299885326815 -0.0170644860319706 -0.0247008248076448 0.4193962 -0.4296467 -0.7996941 183 183 183
0.0322887881486197 -0.0170291018246644 -0.0256506883365156 0.2879282 -0.3200167 -0.9026 153 153 153
0.0310517943338701 -0.0146068602705656 -0.0259713997038689 0.2027489 -0.2131158 -0.9557586 146 146 146
0.0328205674457688 -0.0155242667388997 -0.0257137138083197 0.291005 -0.2847696 -0.9133577 140 140 140
0.0277120026035161 -0.0194496613411923 -0.0263245788543272 0.2637993 -0.2629122 -0.9280555 160 160 160
0.0279285911118411 -0.016401374619829 -0.0267261923903871 0.2301484 -0.15771 -0.9602913 154 154 154
0.0246101334183403 -0.0163975131362188 -0.0275312792829557 0.2179195 -0.1470541 -0.9648244 118 118 118
0.0277680524325262 -0.0136103882868119 -0.0272045747748903 0.2120485 -0.1143451 -0.9705465 140 140 140
0.0257094969115346 -0.0135729166316434 -0.0275262809196583 0.2147532 -0.09856667 -0.9716819 143 143 143
0.0264927481474244 -0.012409598312388 -0.0272845912019844 0.2010742 -0.07350146 -0.9768146 107 107 107
0.0283021427237117 -0.0122290535388168 -0.0268421134187427 0.1584092 -0.1277639 -0.9790725 114 114 114
0.0329954723335077 -0.0116947562252747 0.00958444693765956 0.611889 -0.7193184 0.3288963 127 127 127
0.035707957611589 -0.0111832363344893 0.00388919287668918 0.6126521 -0.6964545 0.3736424 154 154 154
0.0367391252461216 -0.0118126502467979 0.00231522453354491 0.5881885 -0.7030705 0.3996575 109 109 109
0.0375538845592686 -0.0117182192731606 0.000346201260283591 0.6000395 -0.68196 0.4181903 127 127 127
0.0385264390681468 -0.0102247130872424 0.00149009828269434 0.6115867 -0.6770967 0.4092698 133 133 133
0.0393249145905466 -0.0127177760527049 -0.00329018110183402 0.6324647 -0.6734598 0.3826752 112 112 112
0.0412620938929197 -0.00934969500372151 -0.00203630885308567 0.8152626 -0.4901633 0.3083615 156 156 156
0.0387717533142684 -0.00976215118487844 0.00237426860545661 0.6241633 -0.6715908 0.3992317 159 159 159
0.0394912903035335 -0.00820633617384536 0.00267530589617718 0.7151239 -0.5963365 0.3646649 115 115 115
0.0394547932854739 -0.00709360205277587 0.0045039043901898 0.7484367 -0.589144 0.3045519 147 147 147
0.0403773794053703 -0.00820952604621206 0.00122460938528265 0.7623473 -0.536941 0.3612768 116 116 116
0.0416415505956189 -0.00495156149425924 0.00387227634004808 0.916442 -0.3221006 0.2374556 219 219 219
0.0416700059825616 -0.0106871104379096 -0.00442261127541313 0.8400767 -0.4933021 0.2256638 133 133 133
0.042812396959408 -0.0101213166312581 -0.00624990527816119 0.9200374 -0.3405409 0.1938118 189 189 189
0.0423298818420615 -0.00783095614014728 -0.000772112619007809 0.8762667 -0.3870711 0.2869366 159 159 159
0.0425522756777232 -0.00848093775764536 -0.0028134393402818 0.9181668 -0.3232045 0.2291475 159 159 159
0.0428084015674383 -0.00546129691249853 -0.00140751531066938 0.9815367 -0.1303226 0.1400059 169 169 169
0.0426271355237704 -0.00573228334440912 0.00049142255044668 0.9575249 -0.2114383 0.196061 208 208 208
0.0423634959087462 -0.00359589133901217 0.000624171392800438 0.9889292 -0.07124818 0.1301641 154 154 154
0.0427797445835345 -0.00458288718340349 -0.00466924586862563 0.9979631 -0.01414996 0.06220556 103 103 103
0.0425958232495287 -0.00294921549026728 -0.00152067152607402 0.9959231 0.03927819 0.08120603 157 157 157
0.0423155176556746 -0.00121736071112721 2.58367879911459E-05 0.9928901 0.07102404 0.09552434 133 133 133
0.0287681663030369 -0.0195210497134928 -0.000578024003449723 0.5447837 -0.7770741 0.3152245 110 110 110
0.0227370494012862 -0.0232901140768369 -0.00461394082814318 0.6377822 -0.7509841 0.1710461 82 82 82
0.0289651107396235 -0.0209998000122358 -0.00553483076370984 0.4272122 -0.8518106 0.3031639 78 78 78
0.0257870476638223 -0.0220842427288803 -0.00547892575141587 0.4330209 -0.867848 0.243583 72 72 72
0.0265106382145916 -0.0220284579169394 -0.00680160411926387 0.405544 -0.8819706 0.2401288 75 75 75
0.0277326949459774 -0.0201403917296183 -0.00275720479525607 0.4697514 -0.8312377 0.2972836 77 77 77
0.0288243111968213 -0.0225105097568679 -0.0117552078332631 0.4091105 -0.8862433 0.217259 102 102 102
0.030257358769245 -0.021025959689392 -0.00815500504014979 0.4482856 -0.8506091 0.2747803 73 73 73
0.0281778232408618 -0.0221929773232015 -0.00872698149780995 0.3931969 -0.8867633 0.242996 78 78 78
