ply
format ascii 1.0
comment File exported by Rhinoceros Version 7.0
element vertex 470
property float x
property float y
property float z
property float nx
property float ny
property float nz
property uchar red
property uchar green
property uchar blue
end_header
0.0511238666124227 -0.00858617654521998 -0.0187099659747053 0.1400531 0.06788743 -0.9878139 42 42 42
0.0515178534573164 -0.00616734188235446 -0.0187053422745534 0.1086312 0.2065901 -0.9723784 73 73 73
0.0512192523081758 -0.00444746301267251 -0.0189060746422654 0.09792656 0.2910715 -0.9516763 37 37 37
0.0490789313712083 -0.00178352982100805 -0.0177602146836867 0.1180461 0.1622001 -0.9796715 72 72 72
0.0470883229709265 -0.000452770127475244 -0.017447756630366 -0.1405132 0.1042157 -0.9845787 42 42 42
0.0478556046017604 0.00125900037765114 -0.0168941138173418 -0.05914285 0.1723885 -0.9832519 84 84 84
0.0484705195693529 -0.000365083235593255 -0.0174032349232737 0.01838269 0.1739983 -0.9845744 70 70 70
0.0501531700997502 -0.00114510432859616 -0.0178130138164649 0.1925785 0.2478777 -0.9494578 110 110 110
0.0497377831099541 0.00130245025055675 -0.0174750916457957 0.1838802 0.1757882 -0.9671022 63 63 63
0.0507524716454646 -0.000882451119958994 -0.0151361157750859 0.407047 0.3399654 -0.8477831 50 50 50
0.0516317936759609 0.00176205202359858 -0.0160951892292356 0.5393584 0.3352833 -0.7724491 84 84 84
0.0531417198624275 -0.00263527934110441 -0.0165235889666555 0.5015241 0.332014 -0.7988994 61 61 61
0.0549927750841439 -0.0100066421037504 -0.0184422028736678 0.5540168 -0.1083985 -0.8254182 47 47 47
0.0481190131632689 0.00349428407058161 -0.0168768715518042 0.07373948 0.2799922 -0.9571661 38 38 38
0.0509300319215371 0.00432839400832519 -0.0161773938002649 0.5056782 0.324532 -0.799355 60 60 60
0.050421119795776 0.00575597822124174 -0.0147892135433828 0.494135 0.3180197 -0.8091317 60 60 60
0.058066820376085 -0.0074285000899923 -0.011976104413051 0.9488156 0.04941338 -0.311941 110 110 110
0.057213570786625 -0.00392157114409075 -0.0120660785639816 0.8340077 0.3375973 -0.4364164 36 36 36
0.0565794031622371 -0.00741277948297703 -0.0150823486215701 0.8326004 0.2458253 -0.4963331 87 87 87
0.0563710549327845 -0.00583657013648042 -0.014508828006702 0.7913311 0.3196853 -0.521149 67 67 67
0.056182354691245 -0.00673006940106902 -0.0155029383809291 0.7380872 0.2871597 -0.6105461 56 56 56
0.0549768619605313 0.000978371894699848 -0.0126169336109394 0.7476278 0.4006132 -0.5296808 61 61 61
0.0534825839867703 0.000852294493250749 -0.0147225829348345 0.7360724 0.3611681 -0.5724989 60 60 60
0.0551257348904977 -0.00152860376004904 -0.0127439070047945 0.7689363 0.3720287 -0.5199342 74 74 74
0.0537237790230893 -0.00251513285217353 -0.0160376305515037 0.6014062 0.3588855 -0.7138009 65 65 65
0.053150879056131 -0.00137601554547739 -0.015865528613169 0.565165 0.3678095 -0.7384475 46 46 46
0.0592340332866228 -0.00714052825414502 -0.00941302677208147 0.9751146 0.04364939 -0.2173618 79 79 79
0.0591457203853105 -0.00766497472790251 -0.0119367397625918 0.9506739 0.01404652 -0.3098738 88 88 88
0.0573498538168655 -0.000401992219897007 -0.0101735899469463 0.8486741 0.3685624 -0.3793601 77 77 77
0.0590609309357415 -0.00877745243909733 0.004151123085362 0.7970983 -0.4325698 0.4213284 43 43 43
0.058269581148453 -0.00916334381235884 0.00201121307958041 0.7472363 -0.6536137 0.1201127 83 83 83
0.0591045376070514 -0.0104438891630401 0.00321455747428692 0.7517171 -0.6107045 0.2489203 86 86 86
0.0589258694460089 -0.00847464214616034 0.00290440100242001 0.7865588 -0.5071287 0.3523432 39 39 39
0.0609240680856957 -0.00828416503600371 -0.000437443235311058 0.932496 -0.3425443 0.114519 67 67 67
0.0579135087057323 -0.00377656015302641 0.00203060119748311 0.8880835 0.1452769 0.436122 24 24 24
0.0581752930719239 0.00395147955224084 0.0042253228193119 0.8866985 0.3926281 0.2441491 45 45 45
0.0591804194483121 -0.000951010609369307 -0.000919826472363106 0.9564037 0.2661929 -0.1201382 42 42 42
0.0597156863216219 0.0021684909718438 0.00143185324988726 0.9487926 0.3150035 -0.02378004 26 26 26
0.058737630377089 0.00120286458986052 0.000290666744977935 0.9363127 0.3331723 -0.1109719 28 28 28
0.0612044994259104 -0.00672513070420022 0.00023504005077743 0.9892321 -0.02443472 0.1443008 44 44 44
0.0610402050959626 -0.00590668260921001 -0.000611587512328177 0.9973444 0.03480104 0.06397624 40 40 40
0.0605080987386311 -0.00735137152653897 -0.00245172461964302 0.9892832 -0.1406995 0.03901857 76 76 76
0.0600153192247226 -0.00465901801797641 -0.00182311577469213 0.9903352 0.1146909 -0.07798859 48 48 48
0.0594567530767214 -0.00224122773636348 -0.00153124262685286 0.9566416 0.2534788 -0.1434763 48 48 48
0.0593886915730519 -0.00185561723638394 -0.00293898530129816 0.9476727 0.2783009 -0.1564134 23 23 23
0.0565331026688369 0.00634214484606499 0.0033271822379726 0.7943333 0.5600859 0.235241 83 83 83
0.057324230219169 0.00479003136587997 0.00241646564963011 0.8705127 0.4913335 0.02826698 45 45 45
0.0576256197810556 0.00444565229717298 0.00218240277104426 0.8812002 0.4721786 -0.02309885 29 29 29
0.0565871094351658 0.00753769723697673 0.000777290242988532 0.843074 0.5166209 -0.149429 35 35 35
-0.00934167741252523 0.0281833587597966 -0.0115685568332024 0.244665 -0.2334368 -0.9410878 57 57 57
0.00696747112777585 0.0270974044790542 -0.0107829282780723 -0.2549176 -0.4270983 -0.8675275 81 81 81
-0.0483750483216387 0.0244435117157609 -0.00967308545600565 -0.08767202 -0.1535773 -0.9842396 120 120 120
0.00634505001252439 0.0370068023466201 0.00683403910734687 0.7476375 0.5594375 0.3578659 71 71 71
0.0354920768351996 0.0157324869207103 -0.00954472411085328 -0.06766212 0.02849113 -0.9973014 75 75 75
-0.0500683762509828 0.0120322255628356 -0.00682038757777537 -0.2046147 -0.1246375 -0.970875 117 117 117
-0.0496905640309198 0.014334216505415 -0.00690355240415771 -0.1760368 -0.1583755 -0.9715597 90 90 90
-0.0522059123303436 0.0260718073075392 -0.00941855432308714 -0.1432834 -0.1125786 -0.9832578 87 87 87
-0.0512384016157186 0.0297365955555855 -0.00852816293611491 -0.2093278 -0.0379757 -0.9771078 73 73 73
-0.0503082961960057 0.0320554099582648 -0.0103177359549331 -0.3325814 0.06024288 -0.9411485 66 66 66
-0.050972636463094 0.0347015444488534 -0.00869857352890036 -0.4327022 0.07540052 -0.8983783 95 95 95
-0.0505066372958396 0.034845838133823 -0.0103659297875234 -0.5056741 0.1016557 -0.8567146 78 78 78
-0.0489169597305721 0.0353473377198561 -0.00592067404243918 -0.4581841 0.1094361 -0.8820947 50 50 50
-0.0493065650543816 0.0373079837783048 -0.00818804915316085 -0.6198545 0.2769964 -0.7342026 39 39 39
-0.0487350341433945 0.0371807638153725 -0.00729370821966979 -0.5453779 0.2372575 -0.8039104 39 39 39
-0.0489234562073539 0.0393223380937286 -0.00779280029452378 -0.6506006 0.5302045 -0.543693 26 26 26
-0.0433495494523251 0.0415091443685345 -0.00350398792801068 -0.462036 0.8847786 0.06074126 70 70 70
0.00209306158599887 0.0520530523906582 -0.0046096331719338 0.8019937 0.5342458 0.2671844 66 66 66
0.00636548093415223 0.0490234320318303 -0.0150280274092221 0.8390923 0.5436026 0.02050355 124 124 124
-0.0398172509666597 0.0285924930302677 -0.0113323459667114 -0.2071043 -0.2431106 -0.9476313 131 131 131
0.0282181541711219 0.0220479096283672 -0.0114111782602009 -0.0857842 -0.2079217 -0.9743766 66 66 66
-0.0167366476899904 0.0216304244679923 -0.0117975071087585 0.06631321 -0.2168418 -0.9739518 240 240 240
-0.00936619344709566 0.0290242089614901 -0.0117565817594291 0.2455701 -0.230826 -0.941496 84 84 84
-0.030297476774384 0.0151209687571561 -0.00934988919131799 -0.04242351 -0.1187228 -0.9920207 208 208 208
0.00587379737197447 0.0320110893138925 0.0111944085741586 0.6765748 0.6046576 0.4202805 99 99 99
-0.0227058571508096 0.0474229343453221 -0.014701235067889 -0.2133376 0.7012932 -0.6802021 18 18 18
-0.0477058445655518 0.0180556804369036 -0.00800606239463877 -0.1137254 -0.2127227 -0.9704718 105 105 105
-0.0467650055703648 0.0128391026668806 -0.00784453745077698 -0.1962985 -0.090919 -0.9763199 98 98 98
-0.0464740445602416 0.0130360569858692 -0.00766793126760493 -0.1959192 -0.09677773 -0.9758328 96 96 96
-0.0474534611640385 0.0147549953017889 -0.0070056607920872 -0.1628384 -0.1464065 -0.9757299 121 121 121
-0.0474987443783164 0.0164224870932608 -0.0074067696848279 -0.1443151 -0.1691504 -0.9749673 105 105 105
-0.0459133156175633 0.0148685511835729 -0.00786908476719642 -0.1658061 -0.1498371 -0.9747088 78 78 78
-0.042099897047827 0.0135529727833887 -0.00797193273218205 -0.1813609 -0.08642799 -0.9796113 49 49 49
-0.0419121690034276 0.0128450007120342 -0.00845409269208602 -0.1819986 -0.07113032 -0.9807227 76 76 76
-0.0407621850272575 0.0142382473095655 -0.00839598818540291 -0.1504852 -0.1026871 -0.9832647 39 39 39
-0.0420584329113347 0.0167941788631636 -0.00856754344358521 -0.171866 -0.1333233 -0.9760569 78 78 78
-0.0487631034776155 0.0172400988048542 -0.0074085549300664 -0.1137968 -0.1893733 -0.9752887 97 97 97
-0.0459784566871155 0.0211889400186307 -0.00881900509092023 -0.08962845 -0.194611 -0.976777 132 132 132
-0.0460193723469158 0.0225426286062735 -0.00962204189246929 -0.07370685 -0.1922732 -0.9785695 124 124 124
-0.0437464470287674 0.0195040254728054 -0.0089490361640969 -0.1223916 -0.1819462 -0.9756618 209 209 209
-0.041909860627384 0.0180376071412172 -0.00886938968692011 -0.1567572 -0.1453875 -0.9768775 59 59 59
-0.0437327338273215 0.0199217263507694 -0.00908278033299906 -0.1150957 -0.1829027 -0.9763706 227 227 227
-0.0420533593897567 0.0230431396688491 -0.00942394164067403 -0.09796283 -0.1499748 -0.9838246 171 171 171
-0.0398367338613195 0.020776248467141 -0.0095521352011696 -0.1372422 -0.1413856 -0.9803952 227 227 227
-0.0498294667590802 0.0242863486852301 -0.00941875221810662 -0.1111142 -0.1771762 -0.9778866 78 78 78
-0.0511723892119713 0.0310444994985641 -0.0103386866905336 -0.2784257 0.002195701 -0.9604553 87 87 87
-0.0481314880615731 0.0301596670400479 -0.010298646951379 -0.1685343 -0.1112598 -0.9793965 83 83 83
-0.0476189447080118 0.0291212902712508 -0.0105550757037781 -0.1287224 -0.1291456 -0.9832355 99 99 99
-0.0463400841354868 0.0236097420789103 -0.00956446054697102 -0.07559669 -0.1648728 -0.9834135 85 85 85
-0.045808911898114 0.022891721005357 -0.00956550282807908 -0.06106184 -0.1809654 -0.9815921 61 61 61
-0.0443690978962148 0.0266633396653502 -0.00999455453727877 -0.08626463 -0.1730339 -0.9811308 101 101 101
-0.0437620846812643 0.0227646703934501 -0.00981089187103862 -0.09078065 -0.161194 -0.9827387 120 120 120
-0.0433960031447915 0.024464863537802 -0.00968936784574784 -0.0859468 -0.1739134 -0.9810032 120 120 120
-0.042450337805894 0.0265752031043371 -0.0101273119098625 -0.08869877 -0.1742518 -0.9806981 75 75 75
-0.0416773620752227 0.0249503688345507 -0.00987900250492116 -0.0983115 -0.1654869 -0.9812996 95 95 95
-0.0437173618847879 0.0287436427656618 -0.0102671483996202 -0.09831645 -0.1710394 -0.9803466 92 92 92
-0.0462061835583469 0.0296988823673878 -0.0101548738279954 -0.1394652 -0.1584475 -0.9774681 77 77 77
-0.0476814136351615 0.0344256917553674 -0.0110204962935074 -0.3596803 -0.02572288 -0.932721 61 61 61
-0.0455438748192347 0.0306586273072029 -0.010897350367261 -0.1270493 -0.1542175 -0.9798344 79 79 79
-0.0453571111129918 0.0321627454548983 -0.0109932953729194 -0.1562004 -0.1688834 -0.9731803 113 113 113
-0.0459485346802251 0.0343066473627711 -0.0110451490030393 -0.2621391 -0.1122233 -0.9584827 95 95 95
-0.0445640394739 0.0346592683477494 -0.0116335869956751 -0.179375 -0.1913281 -0.9649965 79 79 79
-0.0432482496620268 0.0297730134097383 -0.0107000646124033 -0.1128589 -0.1920896 -0.9748664 115 115 115
-0.0419843144963798 0.0304414839473837 -0.010773067997046 -0.1506841 -0.2185161 -0.9641291 148 148 148
-0.0432764462864825 0.0332122104319721 -0.0114402403853404 -0.1583741 -0.1901566 -0.9688953 94 94 94
-0.0417229795331373 0.0347809751602655 -0.0122110540734275 -0.2111003 -0.1853242 -0.9597352 94 94 94
-0.0421741104741464 0.0340744224331406 -0.0116608495317219 -0.2075882 -0.2126345 -0.9548265 122 122 122
-0.0372131067523847 0.0131260062476239 -0.00887052393990204 -0.125499 -0.1103318 -0.9859396 134 134 134
-0.0372308042415788 0.0137291230137333 -0.00929355635085286 -0.1331886 -0.1136474 -0.9845532 92 92 92
-0.0391763577752533 0.0150085565944575 -0.00874335778800062 -0.1517734 -0.1090918 -0.9823766 91 91 91
-0.0379170891733898 0.0162510275340724 -0.00934834981818308 -0.1338589 -0.1164163 -0.9841387 228 228 228
-0.0357891306589559 0.0133081934281265 -0.00934553972734706 -0.09364376 -0.1073555 -0.9898008 210 210 210
-0.0354026485744678 0.0139889112744509 -0.0093959303607756 -0.05332243 -0.09003793 -0.9945099 231 231 231
-0.0326938163327153 0.0128319882316701 -0.0092224114200439 -0.02168735 -0.0713416 -0.9972162 221 221 221
-0.0347994775322737 0.0167610248278058 -0.00990463806274874 -0.04702267 -0.1213169 -0.9914994 232 232 232
-0.0329463515831838 0.014736775596045 -0.00967123606751588 -0.02060794 -0.09915555 -0.9948585 229 229 229
-0.0329379064173927 0.0163772979607937 -0.00951398653031446 -0.0562598 -0.1279908 -0.9901783 222 222 222
-0.0376653508151774 0.0213785871206096 -0.0100510273487228 -0.1195366 -0.1421899 -0.982595 218 218 218
-0.036233683136524 0.0187310361131132 -0.00989831039706357 -0.09998539 -0.127158 -0.9868302 238 238 238
-0.0351257758156351 0.0218094124803885 -0.0101835106995852 -0.1125745 -0.1916589 -0.974984 234 234 234
-0.0338282362998039 0.0228806442566452 -0.0106748145796987 -0.1243711 -0.2214449 -0.9672094 230 230 230
-0.0328153388711345 0.0211496121877037 -0.010617719604417 -0.1160436 -0.2150991 -0.9696733 157 157 157
-0.0291844616104506 0.0129807714920669 -0.00908045542016994 -0.04098103 -0.1017906 -0.9939614 230 230 230
-0.0318789593083784 0.0213062999321654 -0.0101585584889526 -0.08948474 -0.2267667 -0.9698296 90 90 90
-0.0381678459120338 0.0239381674094985 -0.0100450953437627 -0.1554244 -0.1640211 -0.9741357 123 123 123
-0.0397089430688164 0.0269490899274329 -0.0108348528354891 -0.1779829 -0.206311 -0.9621631 94 94 94
-0.038074849020775 0.0272378486721712 -0.0105542214818097 -0.1950244 -0.2293343 -0.9536096 94 94 94
-0.0356014358685361 0.0283577559618851 -0.0116782824086633 -0.1739474 -0.2765877 -0.9451146 86 86 86
-0.0349438611465183 0.0241890329421766 -0.0108550949215324 -0.1391008 -0.2025757 -0.9693369 229 229 229
-0.0338102357013716 0.0245933362574473 -0.0116206206665684 -0.1603063 -0.2578276 -0.9527994 237 237 237
-0.0330375286400164 0.0271140194715753 -0.0120863829022121 -0.167942 -0.2592534 -0.9510958 55 55 55
-0.0391251756083975 0.0292117605856035 -0.0109227648961815 -0.2146412 -0.2479775 -0.9446885 114 114 114
-0.0364459967749262 0.0300047697282664 -0.0118137740075893 -0.2075132 -0.2627849 -0.9422751 115 115 115
-0.0378323916295362 0.0327489346955057 -0.0127113600317223 -0.2446866 -0.2357207 -0.9405127 103 103 103
-0.03698248267176 0.0330320279124738 -0.0133695938022761 -0.2299998 -0.2205478 -0.9478707 77 77 77
-0.0373067530725226 0.0345397150637439 -0.0132027487313116 -0.2358325 -0.2114964 -0.9485 91 91 91
-0.0356675724404369 0.0345219900614064 -0.0134947194853378 -0.2020058 -0.2140745 -0.9557017 111 111 111
-0.0352579372486517 0.0300192021784766 -0.0131706895210948 -0.1874989 -0.270586 -0.9442602 97 97 97
-0.0325657063815292 0.0252618220210583 -0.0111945486559142 -0.1716623 -0.2708333 -0.9471966 224 224 224
-0.0288987308067514 0.0147666447888135 -0.00943450080283423 -0.04490079 -0.1151533 -0.9923324 99 99 99
-0.0265798230483187 0.0144327839875891 -0.00971518368228391 -0.05336183 -0.1258158 -0.9906175 86 86 86
-0.0297181832288183 0.0191848345901104 -0.0100774526082227 -0.08912288 -0.2235398 -0.9706117 70 70 70
-0.0308472569899689 0.0223907689557306 -0.0110094567885723 -0.1438578 -0.2666008 -0.9530105 118 118 118
-0.0277136070052424 0.018891684313975 -0.0105380026970774 -0.09645492 -0.2451957 -0.9646634 76 76 76
-0.0268425723184356 0.017647309919252 -0.0104509957652994 -0.09231576 -0.2252741 -0.9699121 103 103 103
-0.0276505027721914 0.0231113784731098 -0.0123816609621653 -0.1253812 -0.2771423 -0.9526131 132 132 132
-0.0255802962667762 0.0214707718065481 -0.0113314874409678 -0.07314833 -0.2770793 -0.9580587 99 99 99
-0.0246824247611697 0.0231896203591475 -0.0121526799303806 -0.05547872 -0.2719828 -0.9607015 124 124 124
-0.0330514609735952 0.0304617430777379 -0.0131995681429595 -0.1430824 -0.286046 -0.947473 91 91 91
-0.0314955199840479 0.0251743921856542 -0.0115835533545954 -0.1559427 -0.2628573 -0.9521491 225 225 225
-0.0291453491514808 0.0240035192216728 -0.0118852797250849 -0.1398401 -0.2800441 -0.9497474 230 230 230
-0.0298161673915942 0.0271105316366258 -0.0122358902780449 -0.1444795 -0.24373 -0.959021 137 137 137
-0.0291035952002097 0.0289598347914393 -0.0130261468479838 -0.1170896 -0.2375821 -0.9642846 73 73 73
-0.0284343373185862 0.0234177171219021 -0.0118347717615233 -0.1360447 -0.2799372 -0.95033 167 167 167
-0.0267924795869523 0.0259094924026122 -0.0129814593570749 -0.1118509 -0.2633921 -0.9581826 234 234 234
-0.0271479854223884 0.0275387157213172 -0.0132699116226432 -0.09299526 -0.2258125 -0.9697219 219 219 219
-0.0275461959186649 0.0285501045911547 -0.0132591225595054 -0.097331 -0.2246839 -0.9695585 106 106 106
-0.0295004042168547 0.0301574812528429 -0.0133117186261497 -0.09235128 -0.2598683 -0.9612178 73 73 73
-0.0292632213887876 0.0313335868042146 -0.0136078438069711 -0.08300981 -0.2476043 -0.9652987 127 127 127
-0.0297883089852031 0.0329489303920962 -0.0142906136163474 -0.1091488 -0.2673531 -0.9573969 91 91 91
-0.0275171705515467 0.0314550014942752 -0.0138680744505062 -0.07523926 -0.2635969 -0.9616942 82 82 82
-0.0253341128009672 0.0312446743429429 -0.014047026700948 -0.05967756 -0.2413036 -0.968613 111 111 111
-0.026237075986399 0.035202049365292 -0.0149685723123922 -0.08874404 -0.3458747 -0.9340745 102 102 102
-0.0498651713691247 0.0375728185716762 -0.010618952424848 -0.6198545 0.2769964 -0.7342026 38 38 38
-0.048630649080434 0.035742253788394 -0.0108223995611783 -0.4906377 0.03438652 -0.8706849 60 60 60
-0.0494162950194736 0.0395872308553786 -0.00927081053557574 -0.5871937 0.3489992 -0.7303445 59 59 59
-0.0476801412917367 0.0380004328633166 -0.0116086271436962 -0.4874855 0.1934325 -0.8514351 124 124 124
-0.0480329196072882 0.040442778648188 -0.0111555359687801 -0.511952 0.3737494 -0.7734446 123 123 123
-0.0462200080545179 0.0363327714790567 -0.0112209058633766 -0.3805482 -0.06774282 -0.9222765 74 74 74
-0.0466151374889505 0.0398942838180543 -0.0121384039601713 -0.4963034 0.3664384 -0.7870234 104 104 104
-0.0454688079480929 0.0382557897960081 -0.0121710831375683 -0.3814049 0.06629132 -0.9220281 95 95 95
-0.0447059863068464 0.0402751856986618 -0.0126275100984864 -0.3693491 0.3322974 -0.8678477 159 159 159
-0.0439039197555005 0.0356412854140937 -0.0118197951209823 -0.175448 -0.1875824 -0.9664527 98 98 98
-0.0455220144351407 0.0423837618032077 -0.00828353488651395 -0.5059801 0.81165 -0.2919047 73 73 73
-0.0459541228070846 0.0423221337643003 -0.00725370701924113 -0.5618287 0.7971023 -0.2213063 60 60 60
-0.0442144228788299 0.0428924257288081 -0.00854440598691619 -0.3192912 0.8755696 -0.3625341 25 25 25
-0.04247396508767 0.0430951231552577 -0.0114015817494804 -0.3227294 0.797968 -0.5090115 49 49 49
-0.0421095241227345 0.0372155878903144 -0.0128031424710807 -0.163974 -0.0917986 -0.9821841 93 93 93
-0.0426678893196604 0.0396014473033677 -0.0125942315918866 -0.2180701 0.2095514 -0.9531703 134 134 134
-0.0425979252937112 0.0401602240208934 -0.0125303568666129 -0.2903621 0.3439031 -0.8929841 175 175 175
-0.0401921955555449 0.0379960433645601 -0.0129970267475856 -0.2000962 -0.06275139 -0.9777647 126 126 126
-0.0410332074753521 0.0421772213092091 -0.0132016593841695 -0.3468858 0.5992746 -0.7214847 128 128 128
-0.0404441231583066 0.0437068451640874 -0.00528279619864067 -0.3589849 0.9318343 -0.05305256 26 26 26
-0.0411592137748662 0.0435698420433781 -0.00784509395873667 -0.3290303 0.9268707 -0.1806926 49 49 49
-0.0405253065628992 0.0436886339251863 -0.0103392794939226 -0.3896267 0.8776962 -0.2789992 31 31 31
-0.0400823595879127 0.0436543717574733 -0.00794308643024161 -0.3594921 0.9247229 -0.1251118 54 54 54
-0.0381641439809077 0.043894110006651 -0.0068193255821275 -0.4646891 0.8851963 -0.02217021 30 30 30
-0.0374879849463237 0.0436307850781976 -0.00834948743658692 -0.3805016 0.9173136 -0.1172785 38 38 38
-0.0364248042654904 0.0442477122603886 -0.002976838436273 -0.5864172 0.780314 0.2173129 18 18 18
-0.0356357793900477 0.045399414066017 -0.00254080593417386 -0.5623745 0.8004991 0.2072102 19 19 19
-0.0378421003576674 0.0354884462866893 -0.0127938536102343 -0.2663555 -0.1366609 -0.9541376 71 71 71
-0.0361120935241623 0.0370191451848778 -0.0137878107616217 -0.2374309 -0.1287896 -0.9628291 84 84 84
-0.0377662382540596 0.03840491488206 -0.0141217554006139 -0.2367616 -0.1173071 -0.96446 63 63 63
-0.0378260407572517 0.0381208926580645 -0.0132501986724908 -0.2912886 -0.1110146 -0.9501719 59 59 59
-0.0358720598718514 0.0388408112786871 -0.0143258728588683 -0.2700752 -0.1147155 -0.955981 76 76 76
-0.0358561922261518 0.0404106630718859 -0.0146517875909901 -0.2610445 -0.08458275 -0.961614 176 176 176
-0.0348251414259573 0.0473362414324368 -0.0107326401729666 -0.6168823 0.7507468 -0.2362953 13 13 13
-0.0380414451949536 0.0424465856377816 -0.0143733054968693 -0.4485699 0.2397719 -0.8609846 151 151 151
-0.0382638175943195 0.0435478788771098 -0.0142537843360162 -0.4984271 0.3431976 -0.7961066 116 116 116
-0.0365924358780312 0.0425368622979763 -0.0147402156108239 -0.5545325 0.2836655 -0.7823219 151 151 151
-0.0361533251719859 0.0440171235922173 -0.0147832614236739 -0.580048 0.3778663 -0.721638 107 107 107
-0.0374392468509157 0.0444188468411173 -0.0130357371638057 -0.494916 0.5746404 -0.6518026 26 26 26
-0.0340130992455845 0.0467137463531395 -0.0145376705004199 -0.5025859 0.5489095 -0.6679115 49 49 49
-0.0355960340870518 0.0436647780584456 -0.00785425620356509 -0.5570744 0.8201991 -0.1301596 44 44 44
-0.0351507127406605 0.0467764886882345 -0.00971239797985529 -0.6070194 0.7645474 -0.2167826 40 40 40
-0.0326456566022761 0.0490649255209097 -0.00425220817197511 -0.5377593 0.8177549 0.2051633 72 72 72
-0.0331801224645689 0.0485514871368513 -0.00536226642576249 -0.5910094 0.7922875 0.1516197 30 30 30
-0.0341669038665913 0.0481875560963962 -0.0140579429950544 -0.5004326 0.6990715 -0.5107508 38 38 38
-0.0300443706707409 0.0506924454810707 -0.00880646467608484 -0.3285768 0.9416723 -0.07273576 62 62 62
-0.033450995771775 0.0364021022599641 -0.0143464400420038 -0.1995172 -0.2119242 -0.9567032 77 77 77
-0.0321238293536208 0.0403383042542593 -0.0154482485590525 -0.3143683 -0.1525701 -0.9369605 127 127 127
-0.0341244033977759 0.0443889962677668 -0.0157858243971059 -0.4178873 0.3126193 -0.8530178 108 108 108
-0.0336844675072339 0.0452171847362024 -0.0153280855888227 -0.4537719 0.4162186 -0.7879423 100 100 100
-0.0303462560527388 0.0369377663241366 -0.0149602976737592 -0.186695 -0.2496393 -0.9501712 115 115 115
-0.0306652799930416 0.0467881395410523 -0.016477207559171 -0.436123 0.4752506 -0.7641555 86 86 86
-0.0296179388753868 0.0447047222265389 -0.0174774263390634 -0.2735015 0.04440365 -0.9608461 78 78 78
-0.0272642930243676 0.0462745735648569 -0.0177725738796932 -0.1704326 0.2904446 -0.9415916 56 56 56
-0.028333105073437 0.0465231356153628 -0.0150762797162103 -0.2778482 0.5474808 -0.7893448 94 94 94
-0.0256802566258667 0.0368406307378186 -0.0160545914446361 -0.09770521 -0.3321378 -0.9381568 95 95 95
-0.0234592129254452 0.0367866827494638 -0.0163617578170501 0.0007683528 -0.3353932 -0.9420779 80 80 80
-0.026234814127077 0.0408880395915427 -0.0171052791984502 -0.1257906 -0.2289271 -0.9652818 100 100 100
-0.0236103498059079 0.0394551009053676 -0.0173564160598706 -0.00745255 -0.3023594 -0.9531649 87 87 87
-0.0232800020769788 0.0401309361761564 -0.0171872779896139 0.00775637 -0.2806306 -0.9597845 109 109 109
-0.0273968978153372 0.0421279249024675 -0.0169462533381152 -0.1966301 -0.1426825 -0.9700404 111 111 111
-0.0265713395033234 0.0412309569218072 -0.017197410710282 -0.1553141 -0.1725947 -0.9726709 108 108 108
-0.0230771032056007 0.0411207255170689 -0.0176634859572388 0.01144649 -0.2275238 -0.9737052 124 124 124
-0.0232367238553772 0.0450481138749028 -0.0185348851854649 -0.08020685 0.07620887 -0.9938607 101 101 101
-0.0258154643945785 0.0465221115862742 -0.0175059591665442 -0.1699994 0.3261033 -0.9299231 68 68 68
-0.0247325799446134 0.0457792382489157 -0.0184147252935175 -0.1581154 0.1819269 -0.9705164 88 88 88
-0.0236581991155456 0.046658823921236 -0.018199801120392 -0.1346786 0.3483517 -0.9276382 67 67 67
-0.0284899894066117 0.0504939427432427 -0.0115299437539747 -0.2400679 0.9269362 -0.288369 31 31 31
-0.0287112870534716 0.0495561639620468 -0.0146807071939406 -0.2460856 0.8171737 -0.5212187 23 23 23
-0.0279617819709559 0.0498482195921879 -0.0125047643721445 -0.2434646 0.9111939 -0.3323412 18 18 18
-0.0272870223199306 0.0484770648401966 -0.0165751669469778 -0.1590239 0.6909546 -0.7051902 80 80 80
-0.0227922603150241 0.0134820021178037 -0.00961844097532466 -0.01160264 -0.1501367 -0.9885972 76 76 76
-0.0243504059558282 0.0156656845693641 -0.0101439611050117 -0.0715014 -0.1814799 -0.9807918 81 81 81
-0.0229310737171504 0.0174766984350121 -0.010739653350678 -0.03209437 -0.221727 -0.9745805 65 65 65
-0.0215642444826467 0.0173926091751131 -0.0104894522382647 -0.005008024 -0.2196929 -0.9755563 101 101 101
-0.0225343268541618 0.019804879225213 -0.011053943339799 -0.02549718 -0.2507467 -0.9677169 53 53 53
-0.0212918152287656 0.01997434915276 -0.0113339177231444 -0.01029117 -0.2435392 -0.9698365 125 125 125
-0.0184283772971683 0.0127618936881813 -0.00961590543495977 0.08773126 -0.1679491 -0.9818841 234 234 234
-0.0203300452377766 0.0164256355901027 -0.0106581847728906 -6.964558E-05 -0.1971307 -0.9803772 76 76 76
-0.0203926297826178 0.0178265618418765 -0.0109668037274095 0.005801605 -0.2264584 -0.9740036 52 52 52
-0.019235306681705 0.0214213291088476 -0.0113692451846359 0.03175638 -0.2350169 -0.9714724 100 100 100
-0.0170418990875985 0.0140587354854318 -0.00942488052799217 0.06691362 -0.2127842 -0.9748054 147 147 147
-0.0152846467683867 0.0125519600627282 -0.00947958197834928 0.1006895 -0.2089431 -0.9727304 207 207 207
-0.0164990320172564 0.0175601897187698 -0.0106775706693042 0.05615663 -0.2196733 -0.9739559 239 239 239
-0.0126777154336142 0.0124741774775448 -0.00881246447008557 0.1337396 -0.1846635 -0.9736596 75 75 75
-0.0108014366237001 0.0137622362870917 -0.00917262980924768 0.1451935 -0.1917849 -0.9706376 70 70 70
-0.0132275173897636 0.0176817099655893 -0.0105148273175607 0.1274096 -0.2112593 -0.9690905 122 122 122
-0.0166529484547455 0.0201753540330047 -0.0110732420444666 0.05495535 -0.2098182 -0.9761947 237 237 237
-0.0153164471701279 0.0210523902680728 -0.0109995558201071 0.1157987 -0.1922405 -0.9744918 221 221 221
-0.0163741580369408 0.023224321420886 -0.0117847288299091 0.08438704 -0.2334427 -0.9687019 225 225 225
-0.0134175455995984 0.0199112782364825 -0.0106742115931131 0.1253782 -0.1899886 -0.9737477 129 129 129
-0.0128771944819568 0.0215766599505083 -0.0111093449678391 0.1645912 -0.1779332 -0.9701802 137 137 137
-0.0112790577787307 0.0183163553127901 -0.0106157257613749 0.1786841 -0.2037464 -0.9625795 71 71 71
-0.011316691817441 0.0235607758341445 -0.0108900930200022 0.2033219 -0.1976039 -0.9589645 102 102 102
-0.023748764651351 0.0274270037961826 -0.0129734092764765 -0.04222393 -0.2134048 -0.976051 232 232 232
-0.0214841782435307 0.0255677404771528 -0.0127004569781579 0.01565855 -0.2690249 -0.9630059 82 82 82
-0.0208960573658681 0.0296205214771246 -0.0137911775132828 0.0007633155 -0.2677136 -0.9634982 226 226 226
-0.0188236390627625 0.0276380142792161 -0.0129812429303808 0.03098796 -0.2846413 -0.9581331 131 131 131
-0.0217137454261431 0.0323813322156021 -0.0140336803749578 -0.03458122 -0.2974035 -0.9541254 102 102 102
-0.0215880521221021 0.0335573028652707 -0.0147723393816877 -0.02884614 -0.3015434 -0.953016 138 138 138
-0.0192872185573911 0.0318376678965084 -0.0147981513800109 0.03143124 -0.2594101 -0.9652556 151 151 151
-0.0185680520520362 0.0321581761289436 -0.0152601342721459 0.04017853 -0.2601211 -0.9647397 86 86 86
-0.017829055428233 0.0327531566043626 -0.0148750629865385 0.09552101 -0.2399015 -0.9660864 102 102 102
-0.0188952755311464 0.035199354483932 -0.0154574101222548 0.07136893 -0.263198 -0.9620984 93 93 93
-0.0157996594518637 0.0269637618717662 -0.0124076451950167 0.1546722 -0.2598411 -0.9531837 232 232 232
-0.0155923910294913 0.028785376371951 -0.0134221305583235 0.1809532 -0.2700861 -0.9456794 214 214 214
-0.0108700078972395 0.0258286640755356 -0.0111912631127112 0.2148251 -0.2207016 -0.951389 100 100 100
-0.0129974531436701 0.0274322953749468 -0.0125132517662393 0.210434 -0.2405762 -0.9475445 78 78 78
-0.0125842230542093 0.0294870740521838 -0.012698314496235 0.2254024 -0.2533257 -0.940755 121 121 121
-0.0168691201896767 0.0304504590363288 -0.0139172645658114 0.1182255 -0.2507734 -0.9607994 233 233 233
-0.0151653611196783 0.0333835203919597 -0.0144852969747815 0.2331895 -0.2287431 -0.9451451 44 44 44
-0.0117522888748214 0.0319091374878264 -0.0129762705980253 0.2506575 -0.2112974 -0.944735 86 86 86
-0.0113548958422633 0.0342778356646432 -0.0133640932436508 0.2353081 -0.2278961 -0.9448246 72 72 72
-0.0074802396027267 0.0145701511508289 -0.00823257770892832 0.2298483 -0.1630597 -0.9594693 71 71 71
-0.00534018893578825 0.0140582239654161 -0.00797329190234297 0.2387858 -0.1135122 -0.964415 72 72 72
-0.00480908149644321 0.0155285795925317 -0.00758581521202015 0.2642242 -0.1629113 -0.9506027 119 119 119
-0.00622719769076285 0.0163324766885056 -0.00802842912886742 0.2592858 -0.1964993 -0.9455997 73 73 73
-0.00521617107388828 0.0164475449678181 -0.00802940144944861 0.2496794 -0.182707 -0.9509355 94 94 94
-0.00935038229330365 0.0198069895035677 -0.0100647329792631 0.2173553 -0.1731811 -0.9606066 83 83 83
-0.00884268628128115 0.0220948565492423 -0.0100241084330197 0.2108956 -0.1672616 -0.9630922 104 104 104
-0.00746811627719746 0.0201177949918347 -0.00958551159853252 0.2382178 -0.186588 -0.9531197 85 85 85
-0.010280251916793 0.0275583026459902 -0.0116838919086082 0.2328474 -0.2326022 -0.9442872 101 101 101
-0.0316455539367988 0.0462849343025715 0.00159901490651962 -0.4801977 0.8158606 0.3221517 46 46 46
0.00149918142034444 0.0521483766540822 -0.00238839617133729 0.7017134 0.6472073 0.2978608 53 53 53
-0.0305822612007831 0.0458162646730982 0.000734277690906393 -0.4436404 0.8222248 0.3565524 30 30 30
-0.0311183445359693 0.0490554471586571 -0.00257056336207689 -0.4517443 0.8514551 0.266367 24 24 24
-0.0285855003613578 0.0501691573749747 -0.00239461119717588 -0.4173414 0.8734927 0.2506725 70 70 70
-0.028799175273885 0.0504047483062906 -0.00347953486782823 -0.3742154 0.9094964 0.1810504 63 63 63
-0.0233488213139896 0.0517803873257594 0.000386613043056983 -0.3241243 0.9130933 0.2473944 75 75 75
-0.0294110246901957 0.0506264205621763 -0.00608448144364215 -0.3175974 0.9472992 0.04190441 48 48 48
-0.0273449752212804 0.0512818994906825 -0.00639997169331297 -0.2353526 0.971191 0.03737914 76 76 76
-0.0260978278270074 0.0513964881649593 -0.00601910763241881 -0.2814 0.9588143 0.03859032 69 69 69
-0.0273651131609318 0.0509385364424473 -0.00991541328983137 -0.2407175 0.9509406 -0.1943376 77 77 77
-0.0232758609648931 0.0514912511166736 -0.00776358449967374 -0.2455955 0.9672415 -0.06423897 43 43 43
-0.0240759467344658 0.0519651077667596 -0.00352806018865703 -0.3847753 0.9214163 -0.05422087 46 46 46
-0.0254832575219641 0.0522304368232624 -0.00337180139002888 -0.4001055 0.9164327 -0.008169581 50 50 50
-0.0217798546611654 0.0529710426450671 -0.00623404567312089 -0.364636 0.9283259 -0.07246823 27 27 27
-0.0149022196981416 0.0495205698834149 0.00583811892528704 -0.08784664 0.7661582 0.6366197 61 61 61
-0.0193437481034322 0.0525137778087257 0.00369362255952502 -0.2796845 0.8556824 0.4354127 63 63 63
-0.0146647560632203 0.051315183344379 0.00649458220312207 -0.1007729 0.828918 0.5502179 119 119 119
-0.0176023420266533 0.05200556036588 0.00310438808580493 -0.265674 0.8572588 0.4410495 33 33 33
-0.0159216668092066 0.0515459344158444 0.00304070714165278 -0.275162 0.8655871 0.4183837 37 37 37
-0.0173363211231239 0.0528661301165334 0.00299115593969851 -0.2581034 0.8618941 0.4364873 51 51 51
-0.0182027968289682 0.0545072888650173 -0.00283599003626048 -0.2543162 0.9669686 0.01717728 100 100 100
-0.0174175258096549 0.0542183528349136 -0.00369585985381818 -0.1961154 0.9777856 -0.07398598 49 49 49
-0.0167532816914102 0.0546123867216626 -0.00215150055691485 -0.2456796 0.9508621 0.1884219 91 91 91
-0.0140769219999979 0.0502733412589664 -4.40565206524524E-05 -0.3284458 0.9073187 0.2624806 94 94 94
-0.0218201670771445 0.038221487419364 -0.0165839095013907 0.05310459 -0.2923844 -0.9548253 128 128 128
-0.0200448808000133 0.0374151748021303 -0.0160782390196977 0.1086369 -0.2610612 -0.9591898 101 101 101
-0.0212162569486356 0.0403180357770017 -0.0171590063943724 0.08746493 -0.2795134 -0.9561496 84 84 84
-0.0179262749236186 0.0387565876356235 -0.0157528508203531 0.1540946 -0.2466822 -0.9567668 86 86 86
-0.0192560109690758 0.0396627969700891 -0.0166566166553891 0.1476019 -0.2538799 -0.9559073 77 77 77
-0.0225737242914197 0.0435355439026348 -0.0178714155526011 -0.02296956 -0.0829154 -0.9962918 145 145 145
-0.0190112826844806 0.0427777093114203 -0.0175750821257179 0.1944102 -0.1992601 -0.9604686 93 93 93
-0.0212895356941467 0.0453048373326532 -0.0189175159447031 -0.02299923 0.03235448 -0.9992118 110 110 110
-0.0175545313063741 0.0427077022831952 -0.0175467234138917 0.2270876 -0.1931927 -0.9545196 107 107 107
-0.0194745532620626 0.046933670933883 -0.018696837821499 -0.0007272689 0.3410045 -0.9400614 72 72 72
-0.0163020370971996 0.0402080139461978 -0.0160427296775912 0.2212385 -0.236703 -0.9460577 121 121 121
-0.0167394896699014 0.0477573784145984 -0.0153733529349249 -0.1543384 0.3146491 -0.9365765 26 26 26
-0.0269765485512807 0.0507540698126132 -0.0119802970128857 -0.2213237 0.9264855 -0.3043687 87 87 87
-0.0250370964088278 0.0512512992270664 -0.011656692864319 -0.1627172 0.9428094 -0.2909185 50 50 50
-0.0236730471548419 0.0493664054877405 -0.00904185006576375 -0.2915768 0.9038823 -0.3130172 62 62 62
-0.0229261335080997 0.0521005897375992 -0.0104112206888389 -0.2032536 0.9455521 -0.2542032 41 41 41
-0.0239096934819489 0.0496763589276117 -0.0150758102009931 -0.1130224 0.7996279 -0.5897636 24 24 24
-0.0212133203615683 0.0513871088274811 -0.0127679926858349 -0.2298678 0.8726883 -0.4307852 22 22 22
-0.021937974229421 0.0525580256398688 -0.010403528417474 -0.2016311 0.9495082 -0.2403726 24 24 24
-0.0215702094728969 0.0531755505544513 -0.00667985933606341 -0.2785838 0.9392384 -0.2005551 65 65 65
-0.0213758979434302 0.052280000116204 -0.00872295271759341 -0.1820212 0.9641259 -0.1932084 49 49 49
-0.0192955226577709 0.053376748674447 -0.00856200943706603 -0.1637797 0.9621176 -0.2179586 64 64 64
-0.0202920707539431 0.0529017219600456 -0.010545545803257 -0.174107 0.9579568 -0.2280473 95 95 95
0.00304273099701913 0.055270151990918 -0.0122305765681905 0.6547378 0.7387807 0.1597545 78 78 78
-0.0196871646041696 0.0527119326585181 -0.0103075405858289 -0.2260861 0.9452541 -0.2353288 15 15 15
-0.0184719160359137 0.0522560022676857 -0.0106188460166208 -0.1651343 0.9439039 -0.2859651 34 34 34
-0.0172117705351353 0.0534290502563151 -0.00845447611239772 -0.09991253 0.9769278 -0.188758 37 37 37
-0.0161934759711029 0.0526948651642398 -0.00859093214366724 -0.1641068 0.9659319 -0.2001112 8 8 8
-0.0157279452020718 0.0531762894433376 -0.00974169561370919 -0.1632414 0.9704807 -0.1775372 14 14 14
-0.0226711527211529 0.0497034191444889 -0.0155901679975312 -0.09866142 0.7540397 -0.6493766 10 10 10
-0.022450695835976 0.0475566159219558 -0.0168754331801086 -0.06694487 0.6347024 -0.7698514 39 39 39
-0.0212661842457194 0.0489352730384776 -0.0167368309930694 -0.07849841 0.7068152 -0.7030294 36 36 36
-0.0192739749664992 0.0481590402605956 -0.0178165308141841 -0.0420845 0.4106405 -0.9108256 50 50 50
-0.0178239368349833 0.0487270370884381 -0.0179410248547526 0.0160457 0.4373581 -0.8991442 30 30 30
-0.0192400975974905 0.051494842509165 -0.012205755852856 -0.2132108 0.9138781 -0.3454966 21 21 21
-0.0180645981762244 0.0518574786987134 -0.0139077944668984 -0.1717036 0.8692007 -0.4636895 80 80 80
-0.0165273281173199 0.0524345678018652 -0.0135683219464381 -0.1881257 0.9104335 -0.3684013 36 36 36
-0.0165226998939443 0.0527992090618676 -0.011789665554507 -0.1539083 0.9419188 -0.298498 12 12 12
-0.0145345767305667 0.0534513531442926 -0.0113691535176441 -0.2035746 0.9365355 -0.2854096 27 27 27
-0.0139295026891144 0.050257997347209 -0.0154725214223251 -0.2287797 0.5657647 -0.7921932 86 86 86
-0.0122268711061877 0.0525601135699372 -0.0141776841571151 -0.2665268 0.8370095 -0.4778896 76 76 76
-0.0169492610542084 0.0543833048244529 -0.0040078106363734 -0.2232945 0.9585677 -0.1768828 77 77 77
-0.016258079800533 0.054300191777517 -0.00614726843678645 -0.205134 0.9381638 -0.2788706 44 44 44
-0.014251537564514 0.0546150889445822 -0.00347338016020979 -0.3187401 0.9475783 0.02236315 67 67 67
-0.0145686616816398 0.054182469638002 -0.00581185501237896 -0.3767169 0.8899032 -0.2572095 46 46 46
-0.0114073394429806 0.0558328472122547 -0.00596363063659133 -0.2937582 0.9384598 -0.1816575 85 85 85
-0.012968639812426 0.0552044236321452 -0.0014242727400321 -0.3133566 0.9373671 0.1521527 75 75 75
-0.0109295353211376 0.055614550676218 -0.0030200054289361 -0.1151771 0.99179 -0.05555912 70 70 70
-0.0114776070433287 0.0559870902301971 -0.00385909070979151 -0.253601 0.9649717 -0.06720322 95 95 95
-0.00727456542021043 0.0572842237112812 -0.00319159820848394 -0.08217558 0.989899 0.1155299 64 64 64
-0.0105406009536475 0.0517433595755283 -0.0100613174868152 -0.2714677 0.9416375 -0.1990581 26 26 26
-0.00950989263543001 0.0548128239855468 -0.00925893937313763 -0.2288503 0.9131259 -0.3373851 35 35 35
-0.0106723273068909 0.0540570893902741 -0.010990235278067 -0.1818286 0.9546962 -0.2355706 57 57 57
-0.0110018370960514 0.055688703662359 -0.00762210764923182 -0.3113626 0.9145324 -0.2582322 17 17 17
-0.00943059851047456 0.055044120764326 -0.00757388189461303 -0.2823251 0.8939966 -0.3479404 23 23 23
-0.00951344389328312 0.0558237502568788 -0.00836454194774031 -0.2636961 0.9047554 -0.3344877 75 75 75
-0.00984920737006023 0.0547865200200237 -0.0110145077004416 -0.2413508 0.9365744 -0.2541225 69 69 69
-0.00700221354404063 0.0556420791555661 -0.0105205062584381 -0.2975496 0.9253953 -0.2347505 55 55 55
-0.0079717063810798 0.0551512781537431 -0.0105515880654286 -0.2932256 0.9161542 -0.2732767 44 44 44
-0.00857853309887613 0.0507948305042598 -0.00643790740960221 -0.3154377 0.9078947 -0.2760912 19 19 19
-0.00373444316905136 0.0550442214901457 -0.00390662551246981 0.3807721 0.8883882 0.2564741 32 32 32
-0.0050148064239468 0.05281671565739 -0.00982149630347617 -0.2034724 0.9568848 -0.2072931 32 32 32
-0.00720092412939799 0.0564169583265519 -0.00820177407774125 -0.1491978 0.955714 -0.2536745 54 54 54
-0.006303495558456 0.0571567173370728 -0.00541988853705497 -0.01976253 0.9992967 0.03186866 65 65 65
-0.00805635885991585 0.055154046310659 -0.00901475103672725 -0.3039564 0.8866087 -0.3486196 45 45 45
-0.00547324647254799 0.0564834097121552 -0.00852707764492883 -0.04380355 0.9894522 -0.1380781 55 55 55
-0.0117893298314802 0.0355453467338402 -0.0140203329374497 0.2425163 -0.2223634 -0.94432 78 78 78
-0.00580146476380472 0.0130416658706172 -0.00814754838161649 0.2358252 -0.1053329 -0.9660701 92 92 92
-0.0069809732742927 0.0179126367273175 -0.00962602422220124 0.2491272 -0.1874745 -0.9501521 51 51 51
-0.00710761189971088 0.0241898698769045 -0.00988800035870638 0.2149071 -0.167902 -0.9620935 55 55 55
-0.00579135495395944 0.0243080277282059 -0.00974648769934866 0.2198748 -0.1760656 -0.9595082 75 75 75
-0.00269324945183458 0.0148889444946705 -0.00739984464141114 0.2802903 -0.2140225 -0.9357519 79 79 79
-0.00352624779425481 0.0172151843390476 -0.00751801350742057 0.2661263 -0.2178941 -0.9389883 114 114 114
-0.00113836163566861 0.0183894166417928 -0.00780124271454063 0.2501897 -0.2667496 -0.9307254 78 78 78
-0.00132344773882398 0.0148811778823947 -0.00693975115224685 0.2629441 -0.1886137 -0.9461952 68 68 68
0.000437911492975562 0.0146141455622679 -0.00579807119424819 0.1861122 -0.2024657 -0.9614416 87 87 87
-0.000801495243738959 0.0157434362400963 -0.00665825070795292 0.2317595 -0.2187163 -0.9478664 53 53 53
-0.00214314994797338 0.0219005493683262 -0.00884372505729192 0.2058277 -0.1987592 -0.9581909 96 96 96
-0.000277814544030974 0.0206655766198593 -0.00836320798438475 0.2005285 -0.2402522 -0.9497722 96 96 96
0.000360320831208405 0.0195904944653718 -0.00741648043258289 0.2240915 -0.2714218 -0.9360092 58 58 58
0.00133810527863565 0.0219279361398794 -0.00887286191942327 0.169224 -0.2658993 -0.9490315 54 54 54
0.00246823273292085 0.0227037890668074 -0.00811193434993104 0.05289019 -0.3007931 -0.9522217 126 126 126
0.00275463301771683 0.0247124755545152 -0.00838619015447217 -0.007121983 -0.2941091 -0.9557453 135 135 135
-0.0095166210035873 0.0298489562023565 -0.0120543195235709 0.253316 -0.2087007 -0.9446031 75 75 75
-0.00723043271944368 0.030234769202298 -0.0113920048951307 0.2414713 -0.2286049 -0.9430967 63 63 63
-0.00743759212489614 0.0271124338959807 -0.0106475236888187 0.243328 -0.2208844 -0.9444584 57 57 57
-0.00509666069353143 0.0262216301048808 -0.010278018592904 0.2090535 -0.1897183 -0.9593245 94 94 94
-0.0053589758967032 0.0280875780205903 -0.0105077762839773 0.2227035 -0.2131755 -0.9512935 58 58 58
-0.00532492481237812 0.0302058076614169 -0.0107318792144854 0.2033422 -0.2467282 -0.947511 109 109 109
-0.00956697239796567 0.0355549994579243 -0.0133073523009724 0.1709879 -0.2837891 -0.9435183 107 107 107
-0.00672321908531215 0.0308755655696609 -0.0115787418314452 0.2409109 -0.2403932 -0.9403048 46 46 46
-0.00582629994712036 0.0324693818295338 -0.0115577896591278 0.178601 -0.3024603 -0.9362795 77 77 77
-0.00382637049433665 0.0323651610202202 -0.0108116975953897 0.02900884 -0.376932 -0.9257866 91 91 91
-0.00668655897317993 0.0348868137556035 -0.012117153167086 0.1405826 -0.3075079 -0.9411033 79 79 79
-0.00405194535263664 0.0339687059105787 -0.0119120310784212 -0.01901346 -0.4084585 -0.9125788 106 106 106
-0.00356490166922141 0.0263125859851085 -0.00965254754015876 0.154012 -0.1995806 -0.9677024 57 57 57
-0.00136245298139714 0.0263729794855236 -0.00926885877430347 0.1092099 -0.2140242 -0.9707043 104 104 104
-0.00345618005528348 0.0295198114288919 -0.0102587046096566 0.1161097 -0.2763035 -0.9540309 93 93 93
-0.00220066103874528 0.0295503784672912 -0.0100087218234474 0.02872659 -0.3297418 -0.943634 102 102 102
0.00092545597672844 0.0293966987631256 -0.0105134198876437 -0.06136366 -0.4136831 -0.9083506 125 125 125
0.00312793300093128 0.0301648736723854 -0.0107949305664667 -0.1585002 -0.4703751 -0.8681157 117 117 117
-0.00161175248466927 0.0339916404127962 -0.0122632389525031 -0.1324833 -0.4888527 -0.8622478 82 82 82
0.00077710873064829 0.0306898060370469 -0.0111550186649253 -0.09792379 -0.4605169 -0.882233 100 100 100
0.00125703733371596 0.032176751662069 -0.0125367053366259 -0.1401708 -0.520543 -0.8422512 74 74 74
0.00220050550313022 0.0323056617193302 -0.0126112718995034 -0.1463304 -0.5294818 -0.8356054 77 77 77
0.0016215194574758 0.034226306376044 -0.0134072687297025 -0.1554791 -0.5214432 -0.8390014 88 88 88
0.000757679569032277 0.0364362053308478 -0.0145423094676186 -0.1744192 -0.5097266 -0.8424706 70 70 70
0.00305516523811544 0.0361426073510787 -0.0149724569798942 -0.08989678 -0.4981103 -0.8624411 106 106 106
-0.0164427510021548 0.0446290071618431 -0.0176923035710329 0.1927691 -0.09312923 -0.9768147 38 38 38
-0.0142922917734603 0.0418161510610706 -0.0161198256286439 0.2698631 -0.2250116 -0.9362391 113 113 113
-0.011396888093568 0.0380159029389591 -0.0142193737688567 0.2209423 -0.2040547 -0.9537013 65 65 65
-0.013058000156017 0.0418997534207308 -0.0154797683957469 0.2296286 -0.2533912 -0.9397146 89 89 89
-0.0116572828351744 0.0393721678141721 -0.0146542317063985 0.2166983 -0.2008756 -0.9553486 72 72 72
-0.0111360645174647 0.0418369439322746 -0.0153373546846404 0.1446051 -0.254279 -0.9562591 105 105 105
-0.014880798251796 0.0421747989432164 -0.0161029425360993 0.2652513 -0.2283494 -0.9367488 87 87 87
-0.0133965267027349 0.0454863588790309 -0.0166132057890052 0.1709408 -0.1242677 -0.9774133 87 87 87
-0.0123065944736327 0.0431372967940482 -0.0154534490526649 0.1915144 -0.2607489 -0.94622 89 89 89
-0.0108813705575312 0.0421680390753174 -0.0149947098915867 0.1063632 -0.291567 -0.9506185 97 97 97
-0.0161751497828155 0.0488601013062915 -0.018038140936007 -0.07055835 0.3842113 -0.920545 48 48 48
-0.0154911542418481 0.0506600858019437 -0.0170332684652689 -0.1817791 0.5114289 -0.8398791 48 48 48
-0.0115726243489647 0.0498782908501045 -0.0169763687459095 -0.1818592 0.03943651 -0.9825335 111 111 111
-0.0104854226616169 0.0523284748973925 -0.0168334819950889 -0.3777691 0.6056294 -0.7003595 124 124 124
-0.00966305791243283 0.0534693593265705 -0.0166450145696506 -0.4108459 0.696373 -0.5884473 95 95 95
-0.0100066385762414 0.050209359065956 -0.018193440545217 -0.2992388 0.07267129 -0.9514069 135 135 135
-0.00947782264926067 0.0378226973827054 -0.0138612062945193 0.1189789 -0.2404958 -0.9633306 103 103 103
-0.00616690647353968 0.0379177608733396 -0.0134472189506818 0.002016283 -0.3803332 -0.9248473 86 86 86
-0.00554334584804561 0.0394669565161327 -0.0144170099441212 -0.1510402 -0.4396473 -0.8853797 83 83 83
-0.0045717638190288 0.0373881076737013 -0.0138652227906151 -0.1205555 -0.4475493 -0.8860959 122 122 122
-0.00465724857345462 0.041016938088811 -0.0158219162522633 -0.2272633 -0.4228931 -0.8772188 106 106 106
-0.0102958502155639 0.0451318553933566 -0.0152438948428234 -0.02838784 -0.2612512 -0.9648533 115 115 115
-0.00835414317073724 0.0449365494927014 -0.0166338265674098 -0.1673115 -0.3454593 -0.9233985 154 154 154
-0.00730811628679806 0.0433105056056595 -0.0162495780912641 -0.1779749 -0.3835787 -0.9061966 96 96 96
-0.00644349995424065 0.0454083745640166 -0.0172941010181311 -0.2519893 -0.3351685 -0.9078345 146 146 146
-0.00547147887459465 0.0456123607294532 -0.0174689510188163 -0.2637916 -0.335312 -0.9044223 149 149 149
-0.00489161334704269 0.0420973007549252 -0.0166471608919663 -0.2442249 -0.4343303 -0.8670129 109 109 109
-0.00551546241929968 0.0445866258887868 -0.0165735552894935 -0.2551962 -0.3541143 -0.8997099 100 100 100
-0.00242969820334071 0.0423688822260537 -0.0176440331391201 -0.2427652 -0.4111284 -0.8786572 126 126 126
-0.0025188965632954 0.047122176446394 -0.0193398831424499 -0.2241351 -0.3209378 -0.920197 187 187 187
-0.00113472630168499 0.045826212163854 -0.0190275478467903 -0.2129833 -0.3290117 -0.9199942 156 156 156
-0.000832554964523169 0.0404206037162191 -0.0167633646767019 -0.2318505 -0.4358826 -0.8696273 105 105 105
0.000465544557948228 0.0411378173142221 -0.0170875948462941 -0.14223 -0.4140561 -0.8990707 75 75 75
0.000755565739881003 0.0397482459550889 -0.0165173206216333 -0.1633489 -0.456617 -0.8745388 105 105 105
0.00327547528864347 0.0371657629128421 -0.015686056159767 -0.06360986 -0.4809648 -0.8744293 101 101 101
0.0052422881723091 0.0383256992330101 -0.015930798373846 0.02764409 -0.4062868 -0.9133273 93 93 93
-0.000301050948559922 0.0429591148151778 -0.0174306549408693 -0.1799337 -0.3835736 -0.9058118 84 84 84
0.000560897104186164 0.0434010982515782 -0.0180162209100382 -0.1222007 -0.3411861 -0.9320188 74 74 74
-0.000407776104572211 0.044515630905851 -0.0185751829625127 -0.1853395 -0.3435186 -0.920676 122 122 122
0.000155417494686283 0.0470430370245392 -0.0198607968673252 -0.1491957 -0.3063842 -0.9401433 135 135 135
-0.0103994941287686 0.0528810561780426 -0.015123695792432 -0.3522517 0.8183494 -0.4541178 64 64 64
-0.00722138551040485 0.0497361191333063 -0.0185576587974592 -0.2640691 -0.08322597 -0.9609063 181 181 181
-0.00702460735562127 0.0513060770489626 -0.0189217215969203 -0.3152165 0.2917179 -0.9030721 175 175 175
