ply
format ascii 1.0
comment File exported by Rhinoceros Version 7.0
element vertex 469
property float x
property float y
property float z
property float nx
property float ny
property float nz
property uchar red
property uchar green
property uchar blue
end_header
0.0772076190621487 -0.0575145136247361 -0.00604552149866264 0.3466098 -0.8756296 0.3363547 121 121 121
0.0762441433459298 -0.0599491824896481 -0.0124524213577253 0.3378972 -0.9314772 0.1348177 62 62 62
0.0749331861096714 -0.0584753622146681 -0.0105609162390533 0.2441753 -0.9415025 0.2322747 53 53 53
0.0731347122447952 -0.0584950233042822 -0.0104271647382685 0.2407492 -0.9442906 0.2243996 67 67 67
0.0741620746386666 -0.0548050868056242 -0.000587444574159462 0.2887325 -0.8926398 0.3461615 83 83 83
0.070451460473933 -0.0555682773033941 -0.000919514167151941 0.6507237 -0.7380953 0.1782526 133 133 133
0.0705672493724387 -0.0564174530492172 -0.00249253026872268 0.6827786 -0.7011185 0.205539 98 98 98
0.0709245928280064 -0.0563713287109158 -0.00408894559859307 0.5314416 -0.7908952 0.3034049 113 113 113
0.070077020469459 -0.0572726671817274 -0.00108788086403286 0.817489 -0.5675039 0.0982403 134 134 134
0.0703913771930367 -0.056503494459063 0.00191449567437968 0.7972942 -0.6015846 0.04917191 96 96 96
0.0696432582566011 -0.0574467769606324 0.00225590917982343 0.8558981 -0.5158046 0.0372008 103 103 103
0.069804260813525 -0.0569779787531306 -0.000540617978071284 0.8058483 -0.5833545 0.1015189 138 138 138
0.0693860523510414 -0.0574290884305255 -0.00156252052984404 0.8216999 -0.5608519 0.1012645 192 192 192
0.0690259068376249 -0.0593988075332934 -0.000974334866933158 0.8928933 -0.4401042 0.09513059 124 124 124
0.0679933098159644 -0.0605895707052237 -0.00068677570961273 0.9293203 -0.3562537 0.09719591 138 138 138
0.0680711851921028 -0.0599432375590712 0.00362566295130301 0.9096848 -0.4127955 0.04553406 112 112 112
0.0681088588371899 -0.058865875855838 0.00421972828782854 0.8969862 -0.4414873 0.02246471 162 162 162
0.0668336191065109 -0.0623435494358631 0.0069176596214493 0.906738 -0.4212155 0.02009439 251 251 251
-0.0491625733539598 0.00683494585746458 -0.0423743749031065 -0.07123128 0.01974869 -0.9972643 65 65 65
0.0665642102105046 -0.0630477814604489 0.00733587436253952 0.906738 -0.4212155 0.02009439 188 188 188
0.0665577640119226 -0.0624956402143937 0.00519501203411019 0.9189997 -0.3819943 0.09756934 190 190 190
0.068264511032881 -0.0613657205277021 0.000441262441850082 0.9296103 -0.3615701 0.07135655 86 86 86
0.067702296458962 -0.0631959602132302 0.00116178940846878 0.9360451 -0.3348315 0.1082013 95 95 95
0.0667092785441472 -0.0637270825519147 0.00340816924389203 0.929529 -0.3583602 0.08691301 150 150 150
0.0655952983493928 -0.065056736962174 0.00424997247983092 0.9018107 -0.4216811 0.09445924 166 166 166
0.0704899259782921 -0.0581493439287424 -0.0078574868570733 0.6303825 -0.7327709 0.2562513 152 152 152
0.070906955479122 -0.0584979385683817 -0.00969523242188253 0.572223 -0.7675026 0.2889646 160 160 160
0.0688793228316595 -0.0620368721905045 -0.00658823178588638 0.8984129 -0.4301313 0.08855135 101 101 101
0.0684963160996843 -0.0610744465864677 -0.00885292254949788 0.8775814 -0.4787463 0.02554942 162 162 162
0.0690411197141731 -0.062428592637559 -0.00793898576657218 0.8708791 -0.4864001 0.07060079 158 158 158
0.0662159550511192 -0.0667793320455445 0.000118215795912674 0.9054096 -0.4078078 0.1180095 169 169 169
0.066382742111768 -0.0659026390189352 -0.00258153333840611 0.9318206 -0.3553559 0.0737057 137 137 137
0.0665417026786019 -0.0669183395048902 -0.00429098172996215 0.9304408 -0.359279 0.07210037 189 189 189
0.066191548819893 -0.0674735425010329 0.00203970045853283 0.8781037 -0.4524479 0.155643 161 161 161
0.0782285796657929 -0.0587593310438708 -0.0161949672713905 0.5841097 -0.8104171 0.04516694 113 113 113
0.0778399194661388 -0.0595072885398917 -0.0156585405415552 0.5499167 -0.8318188 0.07529357 175 175 175
0.0750199603179138 -0.0598990108395285 -0.0136175818162136 0.1720305 -0.9817937 0.0805395 36 36 36
0.0730072765951038 -0.0583906309328284 -0.0130640531252049 0.1729195 -0.9763414 0.1298316 16 16 16
0.0746173941076016 -0.0599251694874161 -0.0161726635543029 0.1217943 -0.989704 -0.07518017 143 143 143
0.0725427612368543 -0.0595864074737094 -0.0157794538100982 0.2017487 -0.9791951 -0.02178308 30 30 30
0.0675213103968684 -0.0642945725825543 -0.0099527526042634 0.9090201 -0.4167034 0.006382244 138 138 138
0.0698452394974369 -0.0604017912696688 -0.0135979460470978 0.5710108 -0.8207815 -0.01626192 160 160 160
0.0690029934080698 -0.0602839482538604 -0.0158554121484259 0.6067222 -0.7925503 -0.06125524 165 165 165
0.0685693079653391 -0.062668933691489 -0.0152659605312622 0.7832106 -0.5895972 -0.1973737 170 170 170
0.0686347666810212 -0.0628589064066765 -0.0122012843809539 0.9116744 -0.4065677 -0.05960275 123 123 123
0.0676481626009537 -0.0630610263616229 -0.0127490767032861 0.9024557 -0.4242828 -0.07455089 123 123 123
0.0671415350177935 -0.0654352774485247 -0.0074728239853617 0.9178789 -0.3958156 0.02878054 207 207 207
0.0659999247785752 -0.0689017795560922 -0.00944319801422167 0.8732702 -0.4871016 -0.01145119 136 136 136
0.0661487382125094 -0.0675180927303711 -0.00623805080028153 0.9070573 -0.420823 0.01244798 183 183 183
0.066056794526709 -0.0685071771265553 -0.0050883344446116 0.8751179 -0.4832842 0.02459672 234 234 234
0.0659430065887943 -0.0681583401320649 -0.00836578668159618 0.8915629 -0.4523351 0.02255042 195 195 195
0.0652368087701776 -0.068591039120063 -0.00803488311542896 0.8654143 -0.5009749 0.00907454 215 215 215
0.0651513195753712 -0.0694211682869972 -0.00970191071542428 0.7852908 -0.6187965 -0.02022777 187 187 187
0.065838573078782 -0.0702424398435517 -0.00903285755430655 0.7940543 -0.6073118 -0.02549747 207 207 207
0.0684288015819297 -0.062537844238141 -0.0165784361504792 0.7618269 -0.6334909 -0.1353113 182 182 182
0.0669580806187859 -0.0645144078726356 -0.015842586759051 0.7588908 -0.5775762 -0.3008163 119 119 119
0.0670855641517796 -0.0627073723704246 -0.0204823619049967 0.4322212 -0.8202444 -0.3746785 96 96 96
0.0657237746308508 -0.0663769829433301 -0.0161726213830668 0.6526231 -0.5918588 -0.4730605 99 99 99
0.0634927699577803 -0.0667627800181663 -0.016808373658367 0.358526 -0.5701312 -0.7391951 223 223 223
0.0635399794764719 -0.0679097640918047 -0.016132826793199 0.4128704 -0.6171888 -0.669788 193 193 193
0.0665826634303839 -0.0672066078684157 -0.0136143987117084 0.8353172 -0.4732667 -0.2797568 166 166 166
0.0660117790935986 -0.0680944763551288 -0.0115391473278595 0.8493566 -0.5083728 -0.1419522 223 223 223
0.0649978153823536 -0.0692532339335676 -0.0117175326567951 0.7373132 -0.647508 -0.1926204 163 163 163
0.0642224615416085 -0.0708348308695916 -0.013645554782426 0.481006 -0.7364905 -0.4756206 164 164 164
0.0615352136103668 -0.066422820045136 -0.0168017459278816 0.1781252 -0.580981 -0.7941867 217 217 217
0.0598344147772729 -0.0666681103268369 -0.0167825620808855 0.0718517 -0.6454885 -0.7603828 190 190 190
0.0648284371239356 -0.06840475086711 -0.0108227958008203 0.7727383 -0.6311141 -0.06760558 144 144 144
0.0624412760875961 -0.0720438890883701 -0.0106303996410505 0.3921507 -0.8815998 -0.2626778 87 87 87
0.061951272723805 -0.0706045958313075 -0.0139025916258793 0.2384459 -0.7828571 -0.5746984 136 136 136
0.0629333419702465 -0.0713375074097411 -0.0125976943320491 0.4126701 -0.8298322 -0.3756088 135 135 135
0.0592955819063032 -0.0705484755053061 -0.0133000551421527 -0.02262471 -0.825707 -0.5636454 145 145 145
0.0604732268745489 -0.0712224934849226 -0.0116488921955215 0.1086967 -0.9028085 -0.4160792 180 180 180
0.061071108625439 -0.072303247610946 -0.0107649674265996 0.1765058 -0.9248922 -0.3367791 137 137 137
0.0592527321762351 -0.0726524222809053 -0.0101748578295553 0.00896738 -0.9519191 -0.306218 195 195 195
0.0651727839032552 -0.0699938829283688 -0.00493871172935559 0.7976085 -0.6015276 0.0445561 243 243 243
0.0638999188125546 -0.0711654532500803 -0.001562541953883 0.6608502 -0.7434253 0.102936 223 223 223
0.0634279039904064 -0.0717760062428947 -1.92158683516852E-05 0.5722235 -0.8167185 0.07437235 225 225 225
0.0636608956572484 -0.0724124334702296 -0.0071173369698157 0.5658774 -0.8242973 -0.01779752 173 173 173
0.061948553371729 -0.0724944807240309 -0.00505432529186975 0.3662919 -0.9289133 0.05431744 95 95 95
0.0634027771242325 -0.0721094249473118 -0.00836309282229714 0.5225199 -0.8494509 -0.07352614 177 177 177
0.0613437138319846 -0.0724697275220438 -0.00804295628841364 0.3073537 -0.9479314 -0.08342476 167 167 167
0.0661302263106007 -0.0647739558828486 0.0077148878801237 0.8962213 -0.4399216 0.05706462 182 182 182
0.0653088811769837 -0.0654486957192211 0.00848738058021037 0.8962213 -0.4399216 0.05706462 198 198 198
0.0641303551346208 -0.0678981570317032 0.0106661003867324 0.8277436 -0.5540469 0.0887274 135 135 135
0.0634495682951246 -0.0695638785753623 0.00803817514348362 0.7740369 -0.6264855 0.09155768 200 200 200
0.0621118491630024 -0.0708377174671424 0.00817515432101956 0.6700687 -0.7336626 0.1129031 140 140 140
0.0626680605334515 -0.0693377034209479 0.0127840417889171 0.6574619 -0.7365209 0.158999 176 176 176
0.0583884640647008 -0.0706167167103025 0.014934533522123 0.1445869 -0.9387013 0.312945 234 234 234
0.0600725517483731 -0.0719911468982608 0.011087455087936 0.3827392 -0.8719456 0.3053223 210 210 210
0.0561452898909587 -0.0713005999026197 0.0121260040877696 0.01341502 -0.9007218 0.4341892 224 224 224
0.0584637891141924 -0.0726037685685894 0.0109953922532584 0.2319494 -0.9123045 0.3374906 209 209 209
0.0631941133070351 -0.0701908263692996 0.00424582220744826 0.7044147 -0.7004831 0.1145573 124 124 124
0.0627243827547219 -0.0712936753594915 0.00587659424518031 0.6464955 -0.7546672 0.1118973 117 117 117
0.0623113232307118 -0.0719642623870316 0.00542386545207363 0.5960068 -0.7997913 0.07148324 143 143 143
0.063404403111182 -0.0709842501224027 0.00168505259556051 0.5901648 -0.8024529 0.08817497 194 194 194
0.0616586703252708 -0.0717097702414271 0.00278836561671955 0.5191969 -0.8539117 0.03562946 223 223 223
0.0621765201139417 -0.0721242667880637 0.000568841234503042 0.4607967 -0.8872248 0.02232938 211 211 211
0.060023613533434 -0.0732364113306956 0.00374479090376065 0.4815731 -0.8756913 0.03538609 219 219 219
0.0564517420090236 -0.0734124434296246 0.00946885899280711 0.126148 -0.9309224 0.3427393 203 203 203
0.0543812411135356 -0.0735413260623505 0.00946605408152285 0.0127703 -0.9280411 0.3722589 207 207 207
0.0565294686515618 -0.0742872841845805 0.00548562711586623 0.2810538 -0.9481272 0.1485379 232 232 232
0.0569317764422137 -0.0747360982691363 0.0065274804838851 0.2601952 -0.9509655 0.1672215 219 219 219
0.0560547486145069 -0.074341714256065 0.00735542029212272 0.1600102 -0.9548265 0.250406 227 227 227
0.0539808365267809 -0.0730360103681227 0.00743461053328506 0.03569773 -0.9310257 0.3632035 208 208 208
0.0415870262485281 -0.0687715520692975 0.00922959278871216 -0.2575692 -0.8161476 0.5172631 126 126 126
0.0517070027825257 -0.0689324229150767 0.0164603431986925 -0.2322213 -0.8604695 0.4535036 184 184 184
0.0498077791990785 -0.0698887296263939 0.0143096651645846 -0.2379055 -0.8466162 0.4760693 210 210 210
0.0503067743977792 -0.0707158440167779 0.0132223604888854 -0.195113 -0.8689504 0.4548144 129 129 129
0.0496955555388157 -0.0702869861222626 0.0127075575099575 -0.240209 -0.8635367 0.4434005 224 224 224
0.0543550351117119 -0.069427686991699 0.0167700028814202 -0.143722 -0.8998123 0.4119246 179 179 179
0.055080892629197 -0.0719709235942669 0.0126951704219544 -0.05124114 -0.905629 0.4209638 209 209 209
0.053559031893383 -0.0712433656875351 0.0144543064035277 -0.1361148 -0.8806639 0.4537663 236 236 236
0.0518506009360951 -0.0716342456101888 0.0130831290379602 -0.1624057 -0.8776847 0.4508813 237 237 237
0.0494298457573987 -0.0683905665317386 0.0164232202334383 -0.2648825 -0.835924 0.4806956 190 190 190
0.0509147636424667 -0.0691465723145037 0.01614249229237 -0.2391067 -0.8520667 0.4656289 157 157 157
0.0468086166958583 -0.0658118222769222 0.0178715566203161 -0.3463092 -0.8143957 0.4656496 132 132 132
0.0473710908745604 -0.0673359963793452 0.017524138285106 -0.323644 -0.8249021 0.4634557 183 183 183
0.0448687578197413 -0.067416792215073 0.0155244603760509 -0.3283235 -0.7971795 0.506664 182 182 182
0.0501415440289046 -0.0735348693321429 0.00739543207168611 -0.2175096 -0.8636739 0.4547054 193 193 193
0.0476879818185205 -0.0730515655233155 0.00731566757055455 -0.2493407 -0.8279477 0.5023264 213 213 213
0.0530539451223069 -0.0723336471778668 0.010077319435937 -0.1181711 -0.8876783 0.4450426 217 217 217
0.0477194634891474 -0.0709783544023319 0.0109233295468547 -0.2529877 -0.8615038 0.4402367 173 173 173
0.0470901871555842 -0.0711657348880734 0.0119320982113632 -0.2652624 -0.8484085 0.4580818 204 204 204
0.0432274930189758 -0.0676796349071764 0.0132306334514861 -0.3425657 -0.8246337 0.4501423 86 86 86
0.0435398848962443 -0.0695254517984909 0.0118878044617044 -0.316333 -0.8265737 0.4655205 136 136 136
0.0457843337887711 -0.0701814292642235 0.0100498835932224 -0.3267945 -0.8225242 0.4654667 191 191 191
0.0417530560171335 -0.0693911800457037 0.0103041662454849 -0.2986632 -0.8246112 0.4804339 131 131 131
0.04481577242084 -0.0705957161759727 0.0105496362594878 -0.3222817 -0.8221987 0.4691736 209 209 209
0.0591534188297711 -0.071919955397874 -0.00845650003469361 0.02529372 -0.9727856 -0.2303225 132 132 132
0.0565582811843583 -0.0727878077342714 -0.00864682777458223 0.005443524 -0.935017 -0.354561 123 123 123
0.056000479041038 -0.0714907342702393 -0.0107537972909562 -0.1297646 -0.8842966 -0.4485316 121 121 121
0.0581450449635996 -0.0714320668258206 -0.0114004253577545 -0.08526789 -0.9086125 -0.4088431 155 155 155
0.0520823566676833 -0.0707700628916226 -0.00999509819162775 -0.1192899 -0.8413708 -0.5271291 96 96 96
0.0514413892840717 -0.0719829636549727 -0.00892275121167749 -0.0636614 -0.8379223 -0.542064 98 98 98
0.0491238692701668 -0.0732935666136867 -0.00616143330796703 0.1174359 -0.7463398 -0.6551227 102 102 102
0.0622271148390912 -0.0721507792374925 -0.00185722160230065 0.4457199 -0.890758 0.08879228 231 231 231
0.0591035145225547 -0.0723121979582042 -0.000801311005464322 0.430833 -0.9020573 -0.02598937 247 247 247
0.0583029881290105 -0.0731387575813229 0.00134524835178865 0.4434747 -0.8959723 -0.02374675 230 230 230
0.0592633747727378 -0.0723252077064223 -0.00383698525546869 0.2787858 -0.9603366 -0.005669812 139 139 139
0.0573558707671675 -0.0731323955077849 -0.00393741269088715 0.3847484 -0.9112612 -0.146873 145 145 145
0.0572146167767356 -0.0740967257056533 -0.000170843036520263 0.4501775 -0.8915555 -0.0496885 240 240 240
0.055479501340812 -0.075624628784722 -0.000105442211811191 0.4920554 -0.8666999 -0.08193228 215 215 215
0.0520120528889438 -0.0772276991645222 0.00224316937244542 0.2088788 -0.951004 0.2279494 190 190 190
0.0570494917988178 -0.0728670413633847 -0.00652313314744091 0.2389867 -0.9524648 -0.1889341 146 146 146
0.0580306743435957 -0.0735792182458475 -0.0078666742053532 0.06929306 -0.9704406 -0.2311788 138 138 138
0.0568491569697835 -0.0738997368248162 -0.00500634975869491 0.3304075 -0.9340134 -0.1358306 157 157 157
0.0551707007172904 -0.0744810916794414 -0.00423394143287056 0.3373873 -0.8974949 -0.2840294 135 135 135
0.0534360231971633 -0.074208077474919 -0.00542065283391488 0.1309151 -0.8538613 -0.503768 172 172 172
0.0537862305699925 -0.0735402388338939 -0.00617312862156152 0.1003622 -0.8783096 -0.4674394 132 132 132
0.0539227079683364 -0.0759609291533012 -0.00289532125985642 0.3132742 -0.8943297 -0.3194273 193 193 193
-0.056965798279744 -0.0652084596803326 -0.0151455879802508 -0.2504802 -0.8611585 0.442341 138 138 138
0.0528582026662203 -0.0761001995529211 -0.00338372527199682 0.3423672 -0.8809975 -0.3265397 188 188 188
0.0525400950366972 -0.0767623232150934 -0.00222426623611649 0.3531211 -0.9011481 -0.251471 223 223 223
0.051948559425961 -0.0771367357165915 -0.00018122568052592 0.3034258 -0.9522116 0.03501354 160 160 160
0.050334575265774 -0.0740454106346184 -0.0058301151996539 0.1140049 -0.7820951 -0.612642 102 102 102
0.0508288191427879 -0.0747837289531652 -0.00523580857146022 0.1154506 -0.7860552 -0.6072795 139 139 139
0.0488658678426117 -0.0775465015483561 -0.0033232734591572 0.2341975 -0.9216475 -0.3093823 134 134 134
0.0502613516383006 -0.078062023314929 -0.000336650780673103 0.1879535 -0.9694991 0.1573055 210 210 210
0.0405415795099655 -0.0705158932150882 0.00508407185655826 -0.2637695 -0.7733201 0.5765429 119 119 119
0.0376517365644582 -0.0734389943153033 -0.000517602488859931 -0.1419736 -0.7484475 0.6478193 164 164 164
0.0503036337514988 -0.0745705497968874 0.00594011996276997 -0.1254757 -0.8701465 0.476551 145 145 145
0.048764913639868 -0.0737625855469384 0.00657217194734189 -0.2162429 -0.8170915 0.5344161 180 180 180
0.0498964340988071 -0.0761526170439375 0.0027531387535743 0.03684651 -0.898078 0.4382901 179 179 179
0.0479077096310747 -0.0764080815681449 0.00275399473718962 -0.1323946 -0.8451355 0.5178974 147 147 147
0.0459901311188951 -0.0749625284223421 0.00294720691081971 -0.2417744 -0.788538 0.5654671 70 70 70
0.0500962407992049 -0.0757675624411254 0.00420518797524019 -0.04360833 -0.8841451 0.4651728 214 214 214
0.045048123228872 -0.0715290132411333 0.00686002059553614 -0.3008452 -0.8291071 0.4712468 182 182 182
0.0445824013306559 -0.0719590934070471 0.00731341535428465 -0.3008452 -0.8291071 0.4712468 161 161 161
0.0435197292728788 -0.0717265624308694 0.00576739085502342 -0.235216 -0.7986281 0.5539554 165 165 165
0.0458281198725046 -0.0730721435595696 0.00624737977508066 -0.3117593 -0.7835785 0.5374112 161 161 161
0.0407517090041165 -0.0696629018495869 0.00814620942830105 -0.2662112 -0.8215904 0.5041041 143 143 143
0.0419502696958363 -0.0722430151450391 0.00653166729835547 -0.2057319 -0.8097168 0.5495754 177 177 177
0.0437497055426288 -0.0719893352727479 0.00788862718636349 -0.292464 -0.8427842 0.4518624 136 136 136
0.0435425970598162 -0.072895419656926 0.00500108360616153 -0.2396723 -0.742999 0.6249078 165 165 165
0.0425441197497016 -0.0730447072479077 0.00369674261389599 -0.2076684 -0.7527272 0.6247203 150 150 150
0.0457910239684698 -0.0762824481221827 0.00260140703738093 -0.1782321 -0.8246218 0.5368727 86 86 86
0.0460237969917014 -0.0762911002907034 -0.000108718695487342 -0.1276163 -0.9365086 0.3265973 55 55 55
0.0478302864611511 -0.0784500407345932 -0.00128953214987404 0.09818695 -0.9755235 0.1967569 119 119 119
0.0467241373759508 -0.0785579070013975 -0.00192285980166881 0.003425197 -0.9652891 0.2611613 99 99 99
0.0445176140268195 -0.0776892846513284 -0.00174452453274318 -0.08445214 -0.9733732 0.2131017 82 82 82
0.0432483569119242 -0.0748016091236212 0.000776406633002186 -0.2395116 -0.8153335 0.5271295 138 138 138
0.0435852174045759 -0.0752970470675727 0.00233343464930513 -0.1952709 -0.7875719 0.5844654 168 168 168
0.0417420324040556 -0.0761037967757126 0.00122636813678856 -0.2141034 -0.7797582 0.5883341 150 150 150
0.0397618889974618 -0.0749617827256044 0.00122172950046254 -0.195842 -0.7661109 0.6121438 154 154 154
0.0389995599005433 -0.0755069578189091 0.000190506688927672 -0.1769559 -0.7765929 0.6046405 170 170 170
0.0376806859611243 -0.074989901293611 0.000860090123190133 -0.1511592 -0.7561226 0.6367335 210 210 210
0.0573318858075926 -0.00862642307292205 0.0465446716081208 0.3335547 0.1563158 0.9296809 176 176 176
-0.00910204348496446 -0.00507939501954802 -0.0389281996172904 0.1109145 0.07193968 -0.9912228 128 128 128
0.0577678292400421 -0.0455538419416959 -0.0327273493056145 0.05280703 -0.1314591 -0.9899141 135 135 135
-0.00722830418834208 0.000444792464128874 0.0445423137161418 0.02361077 -0.0683156 0.9973843 31 31 31
-0.0187467447057936 -0.00192309828483772 0.0449101255237856 0.05335474 -0.009080176 0.9985343 10 10 10
-0.0191392884904369 -0.0010666656984375 0.0448187282078355 0.05926977 0.01212194 0.9981684 18 18 18
-0.105555312967915 -0.0367719335254271 -0.0207319251148737 -0.5007752 -0.6425675 -0.5799407 144 144 144
0.0363242400847876 -0.0627242233353023 0.0174911128880378 -0.3084156 -0.7646378 0.56587 145 145 145
0.0238943896977242 0.0345638328167044 -0.0250877631360391 -0.05010452 0.878498 -0.4751113 32 32 32
0.016610766778967 0.026192765812739 -0.039469078800173 -0.2577742 -0.2627067 -0.9298052 51 51 51
0.0161003958260313 0.0229249920131411 -0.0385580228770265 -0.2275813 -0.2621957 -0.9377954 32 32 32
0.0129506487002615 0.0238365589929663 -0.0375894229659307 -0.2103687 -0.2434655 -0.9468207 41 41 41
0.0100485232646426 0.0248463436169613 -0.0373069183548561 -0.1493139 -0.2506477 -0.9564942 41 41 41
0.0138404337013758 0.0229110482739863 -0.0379517068844972 -0.2115021 -0.2540221 -0.94379 21 21 21
0.0122666293471498 0.0207899747749338 -0.0371027137403317 -0.1780463 -0.2382529 -0.9547434 27 27 27
0.0182401072552731 0.0164557185263583 -0.0374334196869091 -0.1762781 -0.2728611 -0.9457657 32 32 32
0.0165329428494969 0.0147795332729559 -0.0361847993199891 -0.1628902 -0.2093771 -0.9641722 47 47 47
0.0135757365806586 0.0190048744936782 -0.0368468724372021 -0.1746976 -0.2465321 -0.953259 28 28 28
0.0146528784806188 0.0148440777257723 -0.0359431736838659 -0.1453014 -0.2264876 -0.9631152 48 48 48
0.0102651069113597 0.0215333100233073 -0.0366557602841823 -0.1420068 -0.2281382 -0.963217 33 33 33
0.0109294735080345 0.0203821808842992 -0.0371698153809057 -0.1497072 -0.2279355 -0.9620983 36 36 36
0.00887828690113768 0.0213056436085097 -0.0367124712013417 -0.1227971 -0.2254834 -0.9664772 41 41 41
0.00567535676110076 0.0251599598752748 -0.0368597885689385 -0.07703174 -0.2531226 -0.9643625 92 92 92
0.00863544311412978 0.0203466567357147 -0.0362428156292065 -0.1093206 -0.1999664 -0.973685 19 19 19
0.00741141241591015 0.0196744641291748 -0.0361853785337188 -0.1023 -0.1952006 -0.9754135 67 67 67
0.0116534693480284 0.0167029345156939 -0.0357371032811979 -0.1169104 -0.2051705 -0.9717186 80 80 80
0.00980633999134639 0.0161656072609098 -0.0356639033452426 -0.09148665 -0.2056234 -0.9743455 63 63 63
0.0091861245753484 0.0180680031622698 -0.0359010327531065 -0.1034681 -0.202417 -0.9738181 37 37 37
0.00541377604646343 0.0178356281319427 -0.0356211721378603 -0.09143864 -0.1851741 -0.9784424 39 39 39
0.0078914203166236 0.0135802099679585 -0.0352397078888232 -0.08097573 -0.1479758 -0.9856704 65 65 65
0.0158706757598424 0.0120625975141724 -0.0360380903346397 -0.1621076 -0.1944445 -0.9674257 94 94 94
0.0128878238667762 0.0132309341552439 -0.035230537674051 -0.1022374 -0.1832426 -0.977737 106 106 106
0.0166231127072387 0.00878730596026189 -0.0351168542225614 -0.1686015 -0.1959109 -0.9660189 114 114 114
0.0155825916689802 0.00895310200244448 -0.0349461104959769 -0.1420883 -0.201966 -0.9690308 74 74 74
0.0143715094748869 0.0101655035046639 -0.0349671684671628 -0.1280349 -0.1923019 -0.9729476 128 128 128
0.0129036073321989 0.0100644812936437 -0.034744585113024 -0.09735482 -0.1930197 -0.9763531 69 69 69
0.0192199955654346 0.00744476539898375 -0.0356501709319588 -0.1322518 -0.2269085 -0.9648948 71 71 71
0.0136469547046785 0.00718222399891966 -0.0343407796487449 -0.07067984 -0.1944634 -0.9783601 45 45 45
0.0161138522176683 0.00334649909273788 -0.0338315839899688 -0.08724411 -0.1108654 -0.9899986 75 75 75
0.0151319600745046 0.00473328040580068 -0.0333468220680388 -0.1070863 -0.1295808 -0.9857694 68 68 68
0.0127655774766273 0.0117632176467337 -0.0350018361286342 -0.08574796 -0.1790481 -0.9800965 130 130 130
0.0115737189523459 0.011186925782831 -0.0350419023810518 -0.07978482 -0.1769158 -0.9809868 105 105 105
0.0105552982989408 0.0128229466531289 -0.0352212407991779 -0.08036408 -0.1756575 -0.9811656 102 102 102
0.00770443283843347 0.0125085177823085 -0.0345962299432618 -0.06439311 -0.1388864 -0.9882126 37 37 37
0.00733372744593641 0.00964238606357815 -0.0347836714837518 -0.01073923 -0.1055604 -0.9943549 64 64 64
0.00902997140987871 0.00811797410590831 -0.0343507010283455 0.005264522 -0.1356332 -0.9907451 148 148 148
0.0116202884534422 0.00630302560986462 -0.0337603094753004 -0.02212401 -0.1632533 -0.9863361 93 93 93
0.00929833082946141 0.00590926763696431 -0.0338029093935589 0.09563706 -0.09221534 -0.9911357 100 100 100
0.0114284165029521 0.00461843822440278 -0.0333105464648422 0.07649723 -0.07918551 -0.9939204 118 118 118
0.013269858081753 0.00299146596268485 -0.0332212219073951 0.02241974 0.03273705 -0.9992125 99 99 99
0.00467839568952177 0.0239058199259192 -0.0365533240975917 -0.06702561 -0.2561087 -0.9643215 132 132 132
0.00364050880026801 0.0213122413943483 -0.0364786037170747 -0.05023672 -0.2149827 -0.9753249 10 10 10
0.00104484598277743 0.0227929996488649 -0.0360521213340095 -0.06247792 -0.2137051 -0.9748983 37 37 37
6.17349560636526E-05 0.0204232160256013 -0.0356290485481744 -0.07767966 -0.2176585 -0.9729289 56 56 56
0.000556190132424028 0.0188558786974413 -0.0353351621585678 -0.07695705 -0.2096677 -0.9747395 66 66 66
-0.0006810031666169 0.0198199867752102 -0.0358311126945949 -0.09418268 -0.2115964 -0.9728086 79 79 79
-0.000572458894200434 0.0186523583373572 -0.0352308337794627 -0.07889178 -0.2093489 -0.9746534 73 73 73
0.00486233843700878 0.0180315075317581 -0.0355062590172162 -0.06823377 -0.1795446 -0.9813806 33 33 33
0.00342105568884721 0.0166237642522933 -0.0351445548000258 -0.06817856 -0.1841464 -0.9805314 37 37 37
0.00150615751728944 0.0171555088697801 -0.0348540567979204 -0.07278772 -0.1986186 -0.9773703 29 29 29
0.00183543614376269 0.0145236619903317 -0.0347707349346592 -0.07732027 -0.1557342 -0.9847682 22 22 22
-0.00293074045947384 0.0230896246006058 -0.0359148905018528 -0.1793014 -0.1764161 -0.9678473 46 46 46
-0.00613191671393709 0.0219709541818041 -0.0349351033930199 -0.1726808 -0.1411856 -0.9748066 45 45 45
-0.00769015601240941 0.0214970436584794 -0.0347466248230197 -0.1521211 -0.1189164 -0.981182 67 67 67
-0.00086660276326711 0.0173102397207519 -0.034993111352007 -0.07402539 -0.1921739 -0.978565 60 60 60
0.00586517926296448 0.0121342525703882 -0.0345587821553842 -0.08564986 -0.1232185 -0.9886765 28 28 28
0.00437063270904492 0.0121746016262834 -0.0345589744169292 -0.07527251 -0.1229113 -0.9895589 30 30 30
0.00579443608735053 0.00920070426230279 -0.0335962269065193 -0.03652898 -0.05980887 -0.9975412 51 51 51
0.0193675372038462 -0.00261664334432909 -0.0334271873668026 -0.007741033 -0.09333439 -0.9956048 134 134 134
0.0276402891276066 -0.0492291270692604 0.0276413103495767 -0.2621086 -0.8259303 0.4991374 179 179 179
0.0225193274854343 -0.0484204662665211 0.0293089456822664 -0.2547014 -0.8024988 0.5395581 141 141 141
0.0207369872013317 -0.0504456463736831 0.0249061802173859 -0.2970159 -0.8103289 0.5051224 66 66 66
0.0227896597648169 -0.0511109413996211 0.022243324244658 -0.2728115 -0.8228303 0.498522 61 61 61
0.0239800678990951 -0.0421888603087581 0.0426918865940323 -0.3533015 -0.8567877 0.3756235 144 144 144
0.0224878591573665 -0.041921784995216 0.0427206616359919 -0.3160879 -0.8709179 0.3762852 130 130 130
0.0249008314917449 -0.0430931976630406 0.0403695123755172 -0.366244 -0.8629833 0.3480304 164 164 164
0.0223416595526227 -0.0427242186315153 0.0412615132609764 -0.3274307 -0.865298 0.3795372 128 128 128
0.0216216790920694 -0.0408325988665244 0.0455401888764831 -0.3218336 -0.8930408 0.3144859 78 78 78
0.0204134604891508 -0.0398045321846379 0.0449952988259662 -0.325596 -0.8885243 0.3232828 81 81 81
0.0210254025535503 -0.0407974565324154 0.0411059411456058 -0.3187782 -0.8708397 0.3741908 130 130 130
0.0206502012055609 -0.0415876770863817 0.0424215361690049 -0.3296583 -0.8803023 0.3411647 127 127 127
0.0176204006471203 -0.0398568000188748 0.042146285785934 -0.3017639 -0.8849847 0.3545993 134 134 134
0.0159494782491358 -0.0402788818433497 0.042093923648537 -0.28686 -0.8920369 0.3492586 106 106 106
0.0247956337390862 -0.0430735325871194 0.0380039767856653 -0.370768 -0.8454843 0.3843012 119 119 119
0.0254169580089485 -0.0452344652513508 0.0382185083281103 -0.3772866 -0.8276173 0.4155772 148 148 148
0.0253320238862709 -0.0449595186786358 0.0365219868682134 -0.3606905 -0.8270722 0.4311078 82 82 82
0.0256269946348704 -0.0455088074300543 0.0366923729559809 -0.3606905 -0.8270722 0.4311078 170 170 170
0.0220142498621354 -0.0440462701263358 0.0371859126994731 -0.3366923 -0.8419291 0.4216558 173 173 173
0.0261251743391004 -0.046364403133492 0.0351523937624805 -0.3703596 -0.8304272 0.4162025 131 131 131
0.0221512985415737 -0.045575606316032 0.0340282335976721 -0.3264226 -0.8322213 0.4481696 126 126 126
0.0155910962269505 -0.0417716212395243 0.0364084306307246 -0.3179766 -0.8483264 0.4233594 147 147 147
0.0211344950231696 -0.0431557792862909 0.0391455159237962 -0.3101886 -0.8588921 0.4075383 139 139 139
0.0165587369040541 -0.0411934896635431 0.0405846298500306 -0.2965105 -0.8660415 0.4025589 165 165 165
0.0155974942853616 -0.0400491699569403 0.0407797376709637 -0.2924737 -0.8862649 0.3591569 132 132 132
0.0165450921312864 -0.0415058360013598 0.0381078948211625 -0.3090906 -0.8611442 0.4036008 146 146 146
0.0176730132706466 -0.0435640855167017 0.0353248785638658 -0.3109426 -0.8494502 0.4263204 133 133 133
0.0168013812896297 -0.0430336039561483 0.0361449292129569 -0.2911542 -0.8509052 0.4372522 171 171 171
0.0189302183833946 -0.044349383588165 0.0359582236062809 -0.3269654 -0.8328633 0.4465786 126 126 126
0.0134886914436212 -0.0388923952668099 0.0421885797848214 -0.3093651 -0.8694989 0.3850518 136 136 136
0.0113014156648559 -0.0379564848594212 0.0414902825291853 -0.2648228 -0.8605097 0.4351918 173 173 173
0.0102483694354691 -0.0380668194691811 0.0431294551428292 -0.1845371 -0.7811715 0.5964203 77 77 77
0.00786024102284433 -0.0348624196244405 0.0430283637771313 -0.02536294 -0.803969 0.5941301 114 114 114
0.00610342486731463 -0.0347540411431726 0.0434233735221459 -0.02235726 -0.8012239 0.5979468 28 28 28
0.0138711308584147 -0.0397919363568051 0.0395541008159257 -0.2811372 -0.8757871 0.3923758 155 155 155
0.00983443498902092 -0.0377528026310954 0.0417967879097997 -0.2247198 -0.8371125 0.498742 80 80 80
0.0108334352297059 -0.0393734306787117 0.0398226981896518 -0.1868008 -0.9135638 0.361257 163 163 163
0.00934166701033767 -0.038736233657831 0.0397575726534078 -0.09832612 -0.8740629 0.4757584 132 132 132
0.0120356021997554 -0.0408005217159693 0.0382335545689779 -0.2732382 -0.8891019 0.3672039 164 164 164
0.0113049708374251 -0.0399584351470497 0.037865879972049 -0.2243283 -0.8950964 0.3853302 189 189 189
0.00534391501613074 -0.0363352352716595 0.0425427972462262 0.1764594 -0.6963896 0.6956318 32 32 32
0.00654300657399487 -0.0404672530887644 0.0384905445691651 0.4989133 -0.8206449 0.2786171 75 75 75
0.0026060765990219 -0.0384055230100844 0.0419055526488521 0.4154426 -0.6109864 0.6738718 14 14 14
0.00307619153814054 -0.0403345820888761 0.0411813258622729 0.5967814 -0.5655469 0.5692176 43 43 43
0.0242824072979957 -0.0459707825683739 0.0317651101127822 -0.3614327 -0.7935653 0.4895106 145 145 145
0.0247075120422573 -0.0472836427518932 0.0325352673049642 -0.3248606 -0.8266008 0.4595613 146 146 146
0.0221077677360375 -0.0467223901430278 0.0321715380363184 -0.3057111 -0.8103517 0.4998709 158 158 158
0.0203905009767618 -0.047090295201538 0.0306597857673531 -0.2797436 -0.7767448 0.5642793 151 151 151
0.0136423362345885 -0.042324615457092 0.0343294890814174 -0.3147779 -0.8296092 0.4611546 154 154 154
0.0139072839954189 -0.0445167644509938 0.0310181668318295 -0.3276622 -0.8175203 0.4736013 134 134 134
0.0154260795702039 -0.0441123958580669 0.0304616461339161 -0.2561549 -0.8020813 0.5394908 143 143 143
0.0111542454958355 -0.0431811893426715 0.0315537775222757 -0.3126451 -0.8164226 0.4854968 155 155 155
0.0173551295379939 -0.0457699903444948 0.0323152977210077 -0.2747829 -0.8072952 0.5222727 149 149 149
0.0158480914951311 -0.0436714448229534 0.0337438544243183 -0.2486728 -0.8274817 0.5034241 160 160 160
0.0155629803446811 -0.044896850783037 0.032652340934164 -0.2669441 -0.8232493 0.5010005 116 116 116
0.0154772848692541 -0.0454934006642382 0.0299762884320536 -0.2737713 -0.7800413 0.5626588 131 131 131
0.0227874875953082 -0.0501533564983305 0.0285682395201613 -0.2579375 -0.809713 0.5270987 164 164 164
0.0209732576111032 -0.0498121733609347 0.0270431619736178 -0.3074142 -0.824873 0.474427 54 54 54
0.015841603680407 -0.0475090871394936 0.0267701295391742 -0.3171191 -0.7931508 0.5199493 80 80 80
0.0174828977208108 -0.0485961576013176 0.0277936030532918 -0.2674645 -0.8289278 0.4912651 145 145 145
0.0176770803406279 -0.0494124543798626 0.02684026919341 -0.2783498 -0.8200865 0.4999794 122 122 122
0.0183008915202598 -0.0497990481904731 0.0259191137868062 -0.2725061 -0.8234845 0.4976079 91 91 91
0.0108648912768294 -0.0457036528246357 0.0274942030310249 -0.2771349 -0.8231673 0.4955722 129 129 129
0.0122474710517593 -0.0472615252678745 0.026261345429712 -0.3281138 -0.787166 0.5222174 147 147 147
0.0100462331114692 -0.0445758392441555 0.026099427632903 -0.3197609 -0.8005182 0.5068763 134 134 134
0.0106797004684855 -0.0450999539864954 0.0274482761242738 -0.297222 -0.7946637 0.5293097 166 166 166
0.0104396089782752 -0.046229334949011 0.0256672417620261 -0.2921391 -0.7737252 0.5621423 186 186 186
0.0156384613110432 -0.0457680380861025 0.0295277171010356 -0.2598106 -0.7981629 0.5435388 118 118 118
0.0135727754373756 -0.0457906594068613 0.0291998199685881 -0.3868581 -0.7784584 0.4943109 137 137 137
0.0141005006831194 -0.0466137307016228 0.0293570976565951 -0.3350918 -0.8118668 0.4781064 125 125 125
0.0131354474464644 -0.0477088152184235 0.0261317617844946 -0.3490916 -0.7786481 0.5213848 118 118 118
0.000922275554556595 -0.0412317235444566 0.0297179740890665 0.06832571 -0.9969255 -0.03835401 113 113 113
-0.000171044476021009 -0.040181261096446 0.028463165213465 -0.09317483 -0.98292 0.1587035 162 162 162
-0.00287448620901332 -0.0380216488441159 0.0285611936534936 0.205478 -0.9668805 -0.1513965 102 102 102
-0.000863014091664116 -0.0415998728732112 0.0291958497541984 0.3538646 -0.9340752 -0.04778378 115 115 115
0.0109716426502979 -0.039994868388624 0.0332628178951301 -0.304265 -0.8306319 0.4663405 166 166 166
-0.0452038796237635 -0.051775991035081 0.0191318542979081 -0.3636472 -0.8690537 0.3354198 184 184 184
0.0112855355105523 -0.0406144373534385 0.0356124994122722 -0.2799826 -0.8698274 0.4062142 157 157 157
0.011571753219116 -0.0424641639334884 0.0341569091202474 -0.3062995 -0.853659 0.4212445 150 150 150
0.00727771911507791 -0.0386530739601081 0.0367326491804524 0.09920941 -0.9432757 0.3168415 137 137 137
0.00685877457100759 -0.0383181733764375 0.0339254593618117 -0.01435218 -0.9457203 0.3246647 171 171 171
-0.0599661145314774 -0.0481244751130623 0.0257162390049194 -0.528788 -0.8138767 0.2408069 98 98 98
0.0106128507976351 -0.0423365583089355 0.0336764915945023 -0.3192161 -0.838701 0.4412276 155 155 155
0.0064473515712864 -0.0407827559520939 0.0337724668429624 0.005731519 -0.9740966 0.2260596 138 138 138
0.00543920213477822 -0.0413094675920143 0.0318475084341228 -0.01897686 -0.9345162 0.3554143 137 137 137
0.00401908522754413 -0.0409842768259492 0.0353078164522907 0.4864406 -0.8546084 -0.181714 66 66 66
0.00352612155023557 -0.0423178488484601 0.0361888306695959 0.5789334 -0.8146635 -0.03405379 88 88 88
0.00134553877637922 -0.043192032762768 0.0348054889746519 0.4621786 -0.8557687 -0.2324885 68 68 68
0.00313187203447507 -0.0432670660295524 0.0404442055320531 0.6470733 -0.7469911 0.152645 31 31 31
0.00356681237030587 -0.0440915365287684 0.0387694007837291 0.6375574 -0.7659285 0.08291014 14 14 14
0.00906977956595423 -0.0438632587914274 0.0291988255564308 -0.3317209 -0.8324988 0.443742 137 137 137
0.00769244403339808 -0.0439918161964206 0.0283011653885124 -0.283803 -0.8212506 0.4949781 140 140 140
0.00716611003776579 -0.0434588310647981 0.0298481244985017 -0.2309468 -0.866713 0.4421223 166 166 166
0.00662977112067509 -0.0422000926426558 0.0303020204887708 -0.1821077 -0.8863177 0.4257672 149 149 149
0.0048428863999721 -0.0421452452973876 0.030096004834345 -0.1274111 -0.9294571 0.3462311 149 149 149
0.00331154188715344 -0.0410569191911496 0.0291678598485592 -0.1848821 -0.9377739 0.2939367 171 171 171
0.00673624516101112 -0.043400103089368 0.0281374569394719 -0.2420572 -0.8316921 0.4996964 144 144 144
0.0051258689193947 -0.0444116750361225 0.0262023551609607 -0.2853487 -0.826411 0.485408 145 145 145
0.00479351488997093 -0.0426990891582366 0.0261194170038058 -0.2316895 -0.8491179 0.4746775 157 157 157
0.00218528481095071 -0.041621136120062 0.0329296823737277 0.3891957 -0.8935663 -0.2237544 97 97 97
0.00091145660786518 -0.0418179151777647 0.0324405473254191 0.3703645 -0.9087964 -0.192144 89 89 89
-0.000417788924336637 -0.0439445566196219 0.0347158294953438 0.4658692 -0.8477817 -0.2534406 42 42 42
-3.67098968578894E-05 -0.0446946693157204 0.0355737799025952 0.4410508 -0.8538659 -0.2763825 30 30 30
0.0010966992432051 -0.0423514227405919 0.0270818694178778 -0.1363007 -0.9194359 0.3688627 150 150 150
-0.00141176942825716 -0.0421076018132946 0.0282302370588664 0.2412636 -0.9634904 -0.1160953 115 115 115
-0.00158298795397815 -0.0443402301833289 0.0325409801646903 0.5781466 -0.7681625 -0.2750869 34 34 34
-0.0319213200352118 -0.00581821163508245 0.0448377452342141 0.1822302 -0.3331913 0.9250815 12 12 12
0.0215342804294139 -0.0536759204181958 0.0176841019939525 -0.2692787 -0.7380543 0.6186799 84 84 84
0.0206647383828429 -0.0549958401807709 0.0185254538249599 -0.2550194 -0.7480857 0.6126441 115 115 115
0.0193477439549703 -0.0550704406713105 0.0185565868938833 -0.302208 -0.7577313 0.5783715 108 108 108
0.0203961135090536 -0.0571105015780158 0.0156651441956953 -0.2989896 -0.7236124 0.6220855 166 166 166
0.0190440139194035 -0.0586562209687649 0.0120480473411236 -0.2878693 -0.7496486 0.5959516 137 137 137
0.0156689630835483 -0.0593165263380624 0.0118952387387774 -0.2963318 -0.7768511 0.5555986 62 62 62
0.0139801600127081 -0.06056157417145 0.00658533551176571 -0.2856749 -0.8054888 0.5192087 35 35 35
0.0130381270958941 -0.0616558104748295 0.00633794008572389 -0.2595401 -0.8148956 0.5182509 62 62 62
0.0186958116560336 -0.0519333637227735 0.023046269277026 -0.2178815 -0.8149456 0.5370207 93 93 93
0.0191158521009238 -0.0528408561416465 0.0213483697891283 -0.2776432 -0.7519802 0.5978629 101 101 101
0.0156100909218542 -0.050934437893293 0.0215749714796179 -0.3108702 -0.7709879 0.5558214 131 131 131
0.0164297699007627 -0.0539653127219091 0.0181973916321972 -0.2834504 -0.759863 0.5850335 101 101 101
0.0146711631067822 -0.0528365160167406 0.0200763470456269 -0.3038924 -0.7586407 0.576293 109 109 109
0.0136000165212034 -0.0470667868320183 0.0228649425997483 -0.3439921 -0.7617941 0.5489438 121 121 121
0.0106598572441716 -0.0482252002157724 0.023278133760165 -0.2316388 -0.7677313 0.5974379 66 66 66
0.0112524337910198 -0.0486971918719148 0.0219500434271596 -0.2595657 -0.7340174 0.6275701 107 107 107
0.00669937720502256 -0.048098667280349 0.0219793802213441 -0.3093733 -0.7307464 0.608521 146 146 146
0.0139240016463091 -0.0496347803933606 0.0235012755558665 -0.3127211 -0.7723845 0.5528359 132 132 132
0.0114265100636515 -0.0483548673673797 0.0239651792624709 -0.2572517 -0.787906 0.559487 119 119 119
0.0107961232344684 -0.0502856063869961 0.0216082301867863 -0.2469188 -0.765666 0.5939584 99 99 99
0.0121286766783322 -0.0508026119781593 0.0204048378316449 -0.251014 -0.7745246 0.5806063 86 86 86
0.0115162594889187 -0.050596803131205 0.0202199375153796 -0.2324343 -0.7717987 0.5918623 117 117 117
0.0101658683227184 -0.0493146964422233 0.0225292701119177 -0.2416475 -0.7677047 0.5934947 111 111 111
0.0144893405588791 -0.0536467849025428 0.0166257355539711 -0.2654634 -0.7254781 0.6349887 99 99 99
0.0160769272574366 -0.0556910875261387 0.0162727681887459 -0.2780553 -0.7475892 0.6031548 104 104 104
0.0146372181965693 -0.0556924780654489 0.0168958497259674 -0.2557078 -0.7422077 0.6194686 77 77 77
0.0145546894208026 -0.052625567476885 0.0182541901630107 -0.29885 -0.7559823 0.5823912 52 52 52
0.0124557436686832 -0.052712377297665 0.0176842611359262 -0.2298322 -0.7491134 0.621294 110 110 110
0.0127087141902549 -0.0553559651308724 0.0161389181611496 -0.2436824 -0.7422885 0.6242008 61 61 61
0.0103557068118891 -0.0508434608386041 0.0190344774622882 -0.2361732 -0.7634787 0.601101 104 104 104
0.00830821485879119 -0.0511804860241296 0.0185841840359681 -0.2453312 -0.7469503 0.6179627 117 117 117
0.007019973129339 -0.0495939710908007 0.0197050249575221 -0.2605935 -0.7539874 0.6029876 126 126 126
0.00585566889385092 -0.0494897987021798 0.0196836629554144 -0.3273488 -0.7144557 0.6183816 118 118 118
-0.0480589305936046 -0.0533537032810443 0.00815467927294455 -0.1827434 -0.8946666 0.4076475 147 147 147
0.00665401380939512 -0.050416355014979 0.0190123262086889 -0.2889901 -0.7423518 0.604482 122 122 122
0.00768060277661498 -0.0526903731068364 0.0163783784264797 -0.2782705 -0.7101796 0.6466919 83 83 83
0.00624619799730386 -0.0531631383954203 0.0154250963022285 -0.3005153 -0.7144048 0.6319149 139 139 139
0.00849507741747901 -0.0541906002511512 0.0157846111684605 -0.2158926 -0.7430615 0.6334429 82 82 82
0.00659501645173677 -0.0528190375348878 0.0168021842295654 -0.2517285 -0.7170845 0.6499404 120 120 120
-0.000208733979022213 -0.0433921775943793 0.0218874304427253 -0.2850886 -0.8118349 0.5095573 121 121 121
0.000401223178208898 -0.0418122786469843 0.0243612295076779 -0.2834791 -0.8766254 0.3888027 141 141 141
-0.000941692636804881 -0.0434705734593179 0.02406506587618 -0.2468923 -0.9244114 0.2907023 160 160 160
-0.00110297613446297 -0.0437205289076092 0.0227740767314092 -0.2598765 -0.8694974 0.4200459 154 154 154
-0.00317211775208293 -0.0437178417253044 0.0217069650121291 -0.06711403 -0.8869222 0.4570172 160 160 160
-0.00201365929811814 -0.043241705414339 0.022574161284777 -0.243239 -0.9158559 0.3194414 145 145 145
-0.00232981880342953 -0.0436488674579298 0.0231805432516633 -0.1219582 -0.9582484 0.2586236 169 169 169
-0.00342110974264287 -0.0422047326463777 0.0240792051009673 -0.0788929 -0.9600052 0.2686371 141 141 141
-0.00537995351641385 -0.0429488572215171 0.0234006964829589 0.3134013 -0.9481131 0.05348928 101 101 101
-0.00642494518943382 -0.0423126745470863 0.0201565324697829 -0.09440311 -0.8582019 0.5045569 141 141 141
-0.00621721490920812 -0.0430113007417314 0.022501367027235 0.2846893 -0.9541987 0.09196091 43 43 43
-0.00513799458023456 -0.0453383381294248 0.0175577982440361 -0.2574181 -0.7665763 0.5882999 149 149 149
-0.00661388470912971 -0.0443553095314781 0.0188019239058951 -0.08001421 -0.9014593 0.4254044 135 135 135
0.00702541082563535 -0.0458699385851868 0.0254726248963147 -0.2767598 -0.7766045 0.5659412 158 158 158
0.00595709675796785 -0.045906448063042 0.0249971418029288 -0.277555 -0.8286559 0.4860994 119 119 119
0.00219969275179333 -0.0435349461622339 0.0267213381856991 -0.2683038 -0.8805749 0.3906416 127 127 127
0.00341204379189275 -0.0449781335885313 0.0237738814175807 -0.3934694 -0.7932493 0.4646906 106 106 106
0.00260421064665772 -0.04533826554761 0.0205653336500304 -0.3358509 -0.7113894 0.6173567 168 168 168
0.00307923358718565 -0.0461827764858294 0.0226927432863676 -0.3761073 -0.7396604 0.5580732 105 105 105
-0.00334178472381996 -0.0438820093983068 0.0284344814878028 0.5690048 -0.7958255 -0.2071117 37 37 37
-0.00353919476544995 -0.0436824340308644 0.0275642472854418 0.5397845 -0.8252773 -0.1659822 39 39 39
0.00350524976719235 -0.0495792289891934 0.0196995909581305 -0.3224818 -0.6895128 0.6485195 141 141 141
0.00213345683691601 -0.0488716312266084 0.0195841257570697 -0.3090933 -0.689362 0.6551652 135 135 135
0.0017596844576917 -0.047228359073336 0.0204525386631416 -0.3424381 -0.6992322 0.6275433 146 146 146
0.00333787609404856 -0.0504528264965722 0.0177427822100673 -0.2925841 -0.7090768 0.6415642 122 122 122
0.00162548778277127 -0.0507479987941848 0.016759656491408 -0.3300952 -0.7154696 0.6157438 90 90 90
-0.0049432711587345 -0.0476210075532897 0.0173034295589544 -0.2382196 -0.7582967 0.6068258 164 164 164
0.0140978955095061 -0.0581148619641094 0.0133153537630613 -0.2577274 -0.7541776 0.6039808 65 65 65
0.0106610007445198 -0.0567924296679263 0.0119307200298312 -0.2683325 -0.8118183 0.5186027 47 47 47
0.0120847630756251 -0.0569361442750209 0.0127340039446793 -0.2198457 -0.7964028 0.5633919 34 34 34
0.0138057038154442 -0.0590641920656061 0.0113701373078357 -0.2634506 -0.7902029 0.5533292 63 63 63
0.0134590368685985 -0.0605029370995291 0.0096344895172063 -0.3250588 -0.7933416 0.5147289 60 60 60
0.0123882696414599 -0.0595369804836825 0.00938343291272159 -0.2842645 -0.7846126 0.550978 69 69 69
0.0102976425077292 -0.0577534750470785 0.00870601278860095 -0.2469835 -0.7825882 0.5714498 63 63 63
0.00840980660165513 -0.0580287159122284 0.0107814117555277 -0.2170411 -0.8205147 0.5288184 38 38 38
0.010327850241842 -0.0583336766938594 0.0105780956206383 -0.2717178 -0.8167345 0.5090326 34 34 34
0.00195342908155149 -0.0539546711945242 0.0114201852281204 -0.2613217 -0.7519355 0.6052306 117 117 117
0.00270930049215812 -0.0546265054551398 0.0115642894441452 -0.2389217 -0.7703925 0.5911106 124 124 124
0.00964629603635991 -0.0555278267425763 0.0146230433901354 -0.2043263 -0.7669345 0.6083274 129 129 129
0.00867632728934975 -0.0553330661852944 0.0141201583762483 -0.2652819 -0.7793896 0.5676067 78 78 78
0.00691818265071431 -0.0556641025737024 0.0134320157161832 -0.2566609 -0.7964864 0.5474802 100 100 100
0.00652766456803056 -0.0558175737156195 0.0112939736593862 -0.2368477 -0.7950376 0.558407 75 75 75
0.00788799598403322 -0.0569926274572934 0.0126127054727853 -0.2342617 -0.7964743 0.5574497 77 77 77
0.00487287757131671 -0.0573182411760511 0.0102376559643442 -0.2368396 -0.757883 0.6078818 69 69 69
0.0054741333067958 -0.0566578563692748 0.0116010934455232 -0.2362835 -0.779026 0.5807655 64 64 64
0.0108288555970941 -0.060213307962 0.00733102501945193 -0.2398517 -0.7778633 0.5808613 63 63 63
0.0106395820928089 -0.0622775092801842 0.00421079935078242 -0.2394777 -0.7694511 0.5921109 77 77 77
0.0101940044750068 -0.0617721686936095 0.00495461983806519 -0.1923415 -0.7801701 0.5952641 65 65 65
0.00765522040933719 -0.0620548043500797 0.00557491787762809 -0.1748732 -0.7839344 0.5957065 55 55 55
0.00632756505210041 -0.0554801798283762 0.00861928700640402 -0.2117202 -0.7560853 0.6192815 28 28 28
0.000952588959278522 -0.0564101152252001 0.00943762997161823 -0.2262459 -0.7347705 0.6394725 105 105 105
3.18379947250591E-06 -0.0571964588018508 0.00805517314515128 -0.2767682 -0.7438099 0.6083964 72 72 72
1.55091885769565E-05 -0.057770459630119 0.00643507827515499 -0.2577696 -0.7507991 0.6081575 56 56 56
0.00512128780190846 -0.0578525087047921 0.00861885342133303 -0.2131344 -0.7942128 0.5690341 59 59 59
0.00695401785997962 -0.0602341806537807 0.0081653337105691 -0.1683096 -0.7756013 0.6083704 34 34 34
0.00217973791545356 -0.0579908040411845 0.00910933757459992 -0.2315348 -0.7645324 0.6015662 73 73 73
0.0410940825327581 -0.0620479404002394 0.0214484893716441 -0.3550472 -0.7584535 0.5465252 159 159 159
0.00442843707288798 -0.0608892882621361 0.00506026689477992 -0.2169544 -0.7535684 0.6205364 77 77 77
0.00197830483563521 -0.0591624156435964 0.00639641545674119 -0.185157 -0.7752733 0.6038776 53 53 53
-0.00499928178866238 -0.048638623678124 0.0151509522911799 -0.2396773 -0.7203848 0.6508461 154 154 154
-0.00539971159094588 -0.0470632966024556 0.0144773035563472 -0.250414 -0.7175801 0.6499013 183 183 183
-0.00860485564184543 -0.0454187921733487 0.0172024421405388 0.2699746 -0.8063183 0.5262742 110 110 110
-0.00775036865176704 -0.046387192061095 0.016763086654934 0.1902162 -0.8654236 0.4635296 162 162 162
-0.00854345388421907 -0.0462471013695749 0.0166391286479233 0.2706069 -0.8559024 0.4406847 138 138 138
-0.00878490046509217 -0.0489070575815957 0.013073624646013 -0.1262305 -0.7692319 0.626377 154 154 154
-0.0111541032537703 -0.0489488831745302 0.0128812091905287 0.2863719 -0.9313537 0.2248808 151 151 151
-0.0109684910474459 -0.0496750902891989 0.0115739069223773 -0.123046 -0.8261738 0.5498149 149 149 149
-0.0068079234219196 -0.0507140937720247 0.0087760395033471 -0.2530224 -0.7080554 0.6592702 103 103 103
