ply
format ascii 1.0
comment File exported by Rhinoceros Version 7.0
element vertex 474
property float x
property float y
property float z
property float nx
property float ny
property float nz
property uchar red
property uchar green
property uchar blue
end_header
0.092017085439719 0.0825354532251297 0.0130377933195204 0.5389213 0.8423098 0.008830585 110 110 110
-0.140095572833778 0.118099486754265 -0.0130395209706546 -0.5116611 0.6894957 -0.512639 79 79 79
-0.0727002083238669 -0.00841830039265523 -0.0355934685220629 -0.1765885 0.0188099 -0.984105 95 95 95
-0.0823806328127635 -0.0568677736144356 -0.0421998433773969 0.1517385 0.1859491 -0.970772 179 179 179
-0.0231287713540342 -0.00159152300161103 -0.0433967073047941 -0.03543011 0.07469184 -0.9965771 85 85 85
-0.0402005521876984 0.11569867900782 -0.044827265381604 0.2715886 0.957382 -0.09828181 226 226 226
0.103928169520242 0.00709884169492869 -0.0312668996918545 0.3406585 0.3927774 -0.8542117 116 116 116
-0.0377250563386481 0.112620647628388 0.0372081564512854 0.3011093 0.9442284 0.1332892 89 89 89
-0.0807989517877624 -0.038449477851856 -0.0386578047449236 0.1532787 0.1207017 -0.9807838 106 106 106
0.111797185642727 0.000648534691609193 0.0180727663072049 0.812605 -0.2231084 0.5384197 101 101 101
-0.00554879161452437 -0.186547029358483 -0.0143966649291082 -0.2635449 -0.6201158 -0.7389185 117 117 117
-0.107721254464736 0.104527133874227 -0.0401391801330012 -0.1213481 0.04672745 -0.9915096 94 94 94
0.0884174625389136 -0.187382064127501 -0.00108971248085715 0.9944131 0.06057498 0.0864484 61 61 61
-0.0694007882789619 0.0829568155334479 -0.0439918825012992 -0.07070655 -0.03422722 -0.9969097 233 233 233
0.126509374711183 0.0320308244656435 -0.00280663386277247 0.9436014 0.2861474 -0.1665413 64 64 64
-0.0922326357498519 -0.0428450898626898 -0.0378722726918646 -0.3691525 0.1654019 -0.9145319 46 46 46
-0.084939907471544 -0.102255295445539 -0.00873415649370218 -0.9253636 -0.120466 0.3594303 34 34 34
0.0542626594254347 -0.0657902065178233 -0.023456371914412 0.2067747 -0.2015898 -0.9573953 245 245 245
0.0802619881685046 -0.116089430266924 -0.025967865370998 -0.1352477 0.2285943 -0.9640813 58 58 58
-0.117504898069139 0.120519414460757 -0.0232443965860142 -0.240972 0.9603515 -0.1402054 23 23 23
0.0332951644228991 -0.196211470930151 -0.00805587299657665 -0.01548331 -0.9990096 -0.04171388 39 39 39
-0.114641814059398 0.0248397594423821 -0.0301853231966889 -0.258411 -0.2759835 -0.9257737 206 206 206
-0.0799886825147721 -0.0937526481597599 -0.0427891261031154 -0.1152169 -0.250323 -0.9612822 140 140 140
0.0330762767997095 -0.127326176782496 -0.0327568434454806 0.1359907 0.2555462 -0.9571848 82 82 82
-0.164806940564298 0.0513784805401449 -0.0158383354291596 -0.9327605 0.283903 -0.2221642 95 95 95
0.0827636206029888 0.0342304343357942 -0.0300633009783416 0.7485052 0.01146361 -0.6630298 52 52 52
0.0524363774324891 -0.043540892744121 -0.026932437694842 0.2908032 -0.2309542 -0.92849 59 59 59
0.108748819263581 0.0713057653382432 -0.000243763767686367 0.8838566 0.1194222 0.4522564 141 141 141
0.109262556157474 -0.133667386418103 0.00867036611256031 0.7295821 -0.6735286 -0.118614 83 83 83
-0.140190211115767 0.033764460470842 -0.026906486719152 -0.03839518 -0.1022473 -0.9940178 115 115 115
0.115761197184394 -0.0499372798725304 -0.0251646543307891 0.9353876 -0.3527295 -0.02513911 65 65 65
-0.0143352529605615 0.111520420771693 -0.0294095324309833 0.184966 0.9807827 -0.06207184 137 137 137
-0.0345037465084295 0.118534458309855 0.0100896196200466 0.1909085 0.9796652 0.06172481 206 206 206
0.109800049471887 0.0749879624879952 -0.0273205197050707 0.9570022 0.2795997 -0.07727057 63 63 63
0.0440022680723369 0.0942185314293105 0.00318818715802274 0.1936378 0.9163994 -0.3503093 237 237 237
0.107466286326593 -0.134066539126165 0.0027187285568514 0.6994911 -0.6841015 -0.2066816 105 105 105
-0.0838485107316254 -0.13041882250468 -0.0305647155396958 -0.5599422 -0.3585781 -0.746918 168 168 168
-0.0272305804942561 -0.135470878464418 -0.0388431765300709 -0.2260923 -0.3200063 -0.9200425 175 175 175
0.107085366833889 -0.064263127686232 0.0138523631160964 0.9763035 0.006830491 0.216298 195 195 195
-0.1537683977282 0.0447355932929723 -0.0250724914475497 -0.2469624 -0.1130446 -0.9624087 113 113 113
0.0818953144137727 0.0285719387272281 -0.0304412727780972 0.7180583 0.1788223 -0.672618 45 45 45
0.0783791701219727 -0.192910131850003 -0.0166671271108494 0.4782978 -0.271602 -0.8351429 98 98 98
-0.0607312721170753 -0.0401453615722178 -0.0374024038191174 0.1030136 -0.104548 -0.9891703 112 112 112
0.0514697886205446 0.0108365790564344 -0.0418854449553216 0.2159386 0.07346066 -0.9736396 135 135 135
0.09555862383686 -0.14988101941487 -0.0058109741283916 0.9366292 -0.3022957 -0.1770398 84 84 84
0.112858938376281 -0.121126572203467 0.00657641624817526 0.9367632 0.2057091 -0.2831226 101 101 101
-0.0518312511509605 -0.131540694055862 0.011403981827577 -0.5119185 -0.09919575 0.8532875 56 56 56
-0.133838618418627 0.00574005382320131 0.0218229049766395 -0.6237959 -0.7754961 0.0973878 56 56 56
-0.0716285231904437 -0.0623816219407469 -0.0406577631983581 0.3337707 0.06907106 -0.9401204 154 154 154
-0.0719680308905889 0.121038512008049 0.0138182204900176 0.1055144 0.9935936 0.04047849 180 180 180
-0.0429956773247316 -0.0800742710207554 -0.0389791990304895 0.130581 -0.08209427 -0.9880329 196 196 196
0.0273769901191 -0.145699551971617 -0.0368603777074869 0.2171389 -0.03049201 -0.9756644 170 170 170
-0.127661027193635 -0.00117475817511381 -0.00994878400314436 -0.611573 -0.7866808 0.08433152 75 75 75
0.0884457267262695 0.0673886367832939 -0.0293677035227088 -0.1550821 -0.2773945 -0.9481571 78 78 78
-0.0837616156677865 0.0564490337254722 -0.0366309299007081 -0.2174822 -0.03696305 -0.9753641 161 161 161
0.110380617914108 -0.0761717365603845 0.00302345063787862 0.9676951 0.02130802 0.2512213 146 146 146
0.0945535822483267 0.0799927413491219 0.0210138023868923 0.8139653 0.5646384 0.1365427 238 238 238
0.0909201248866247 -0.0272370889252356 0.0335956679341459 0.91123 0.07501944 0.4050085 105 105 105
0.0734095002383078 0.0718866987839568 0.0469170768681902 0.9501094 -0.2460352 0.1917259 49 49 49
-0.0604239133943695 0.118507767458698 8.65754227119542E-06 0.161461 0.9828344 0.08925723 66 66 66
0.115798649248409 -0.0488069732199619 -0.0202272302610303 0.9594848 -0.2815894 0.009814953 87 87 87
-0.117042808983593 0.118368447771908 -0.0287940071148378 -0.2579754 0.8902974 -0.375259 148 148 148
-0.0616040099775648 -0.0740487101652587 -0.0385258520662693 0.1795567 0.1257826 -0.9756731 75 75 75
-0.156398877319452 0.0917080881593419 -0.00197041796923109 -0.9296265 0.1523347 -0.3355426 78 78 78
0.0557867859525778 -0.0932916432514133 -0.0210153189744791 0.2308214 0.1022166 -0.9676121 201 201 201
-0.0925255617215364 0.121890030429752 0.0207701440675669 0.1328785 0.9879552 0.07929573 45 45 45
0.0129372581139665 -0.0788322403837387 -0.027165541518605 0.09149142 -0.148619 -0.9846531 219 219 219
-0.0877555082336289 -0.112203962776861 -0.027158068582248 -0.9749091 -0.2207653 0.02854855 37 37 37
-0.05850514199253 -0.113502738811031 -0.0405981854446147 -0.1922208 -0.3504944 -0.9166269 141 141 141
-0.161310714241107 0.0668551489325544 -0.00660926429725886 -0.946705 0.3028513 -0.1096843 31 31 31
-0.158052259648201 0.0767953333036095 -0.00979083567389918 -0.9386439 0.3352839 -0.08082289 71 71 71
-0.0366659096685236 -0.100875521451972 -0.0396241843153852 0.2028076 0.2123506 -0.9559165 176 176 176
-0.0156148019266377 -0.129337504299422 -0.0418152637453205 0.1223206 0.1141378 -0.9859058 176 176 176
-0.148798119246399 0.123478756865423 0.000916707603879102 -0.3893023 0.7799049 -0.4900939 233 233 233
0.0443102217629908 0.100943874366884 0.0279887175562183 0.166964 0.910324 -0.3787259 143 143 143
0.120080081021981 -0.0310357996210398 -0.00831149656088875 0.8772776 -0.2596484 0.4036913 106 106 106
-0.129167683055907 0.12115659824507 -0.0124766531558547 0.03164749 0.9764724 -0.2133075 89 89 89
0.00584605966848817 0.105208678597292 -0.0145155325562115 0.2798536 0.9358028 0.2143717 194 194 194
0.0359011934913367 0.109049974773282 0.0424297045222236 0.2570146 0.9211875 -0.2921593 145 145 145
-0.0379084226794744 -0.0456986045277405 -0.0389833487564771 0.09856072 -0.09605191 -0.9904847 176 176 176
-0.165730629220889 0.0266597202481176 -0.00569055594388226 -0.5237592 -0.8496053 0.06202564 21 21 21
-0.0146236593893974 0.111380802689111 -0.0214746880022058 0.2065469 0.9779216 0.0317454 195 195 195
0.0823123552824852 -0.172224796575696 -0.0212800802251705 0.4797779 -0.1326417 -0.8673058 137 137 137
-0.116648150515176 0.124549589926394 0.00312507825540956 -0.03030969 0.9971121 -0.06963297 218 218 218
0.0473870034319763 0.0265738169528902 -0.0413999692792551 0.1696646 0.1100583 -0.9793371 169 169 169
-0.131157925231771 0.00420404944989494 0.0262699570279497 -0.6997947 -0.7056776 0.1109348 77 77 77
-0.0464757084669344 -0.148275914664391 -0.0268805468342891 -0.1910294 -0.3527935 -0.9159937 112 112 112
-0.112545010448066 -0.0316014055341693 0.00250480516791468 -0.8740978 -0.3470405 0.3398762 39 39 39
0.0939699139522943 -0.0235903661396017 0.0272604439980271 0.8513488 -0.2373367 0.4678425 149 149 149
-0.00507502866188303 0.0655198813533417 -0.0501790536767435 -0.1375998 -0.02056296 -0.9902744 153 153 153
-0.0577520064046078 -0.122858862816475 -0.0368848469802277 -0.1490922 -0.3328948 -0.9311029 148 148 148
-0.0427909927301036 -0.0971393043524784 -0.0399795808450056 0.2439652 0.1924898 -0.9504886 138 138 138
-0.0305900215685339 -0.0843729481925573 -0.0363985414469472 0.1917 0.02701427 -0.9810817 72 72 72
0.0991599208671635 -0.141076803655491 -0.00637457962570684 0.7981303 -0.5495644 -0.2469148 61 61 61
-0.000288874542428319 0.106055272082051 -0.0110190285385086 0.1747718 0.9843755 -0.02144178 221 221 221
-0.0309525072510692 0.116408171067776 -0.00379516071156685 0.1582577 0.9795185 -0.1244908 225 225 225
-0.0826886099834511 0.121606579914988 0.0272122003693132 0.04475734 0.9986655 -0.0257699 104 104 104
0.11044367568486 -0.086087405938126 -0.000652338742504921 0.9996457 0.003462784 0.02638976 128 128 128
-0.11915823106476 -0.00915757061203704 -0.00985138779227243 -0.7648504 -0.61255 -0.199465 64 64 64
-0.00764693128462146 -0.0767129770091792 -0.0301423190324088 0.2555706 0.01358163 -0.966695 125 125 125
0.0231678413250377 -0.183804750625517 -0.0157432622258241 -0.05980586 -0.1280968 -0.9899568 66 66 66
0.0476566155209206 -0.0970526689682047 -0.0234219149030946 0.2591163 0.1219467 -0.9581168 234 234 234
0.0483991871359958 -0.123670981805453 -0.0284836274153284 0.2680439 0.2262658 -0.9364594 229 229 229
0.104138971102697 0.0125826932425497 0.0335492099574779 0.957066 -0.04706852 0.2860231 58 58 58
-0.0622832155166358 0.119616545131886 0.0272460791365778 0.115671 0.9926023 0.03688861 91 91 91
0.0513595932577806 -0.0196415716602687 -0.0334612244777968 0.1794679 -0.4096533 -0.8944134 57 57 57
-0.167814819852655 0.0410942359209492 -0.0212643377522713 -0.7529869 0.3220704 -0.5738304 110 110 110
-0.137267353384218 0.00811510471158039 0.0250908933397714 -0.5821365 -0.8062561 0.1052059 83 83 83
0.0825737206474109 -0.201152243529326 -0.00883824605590178 0.7912646 -0.4235157 -0.441061 94 94 94
0.125551658809402 -0.00228232149398155 -0.0031709090450707 0.9561917 -0.2920064 -0.0207316 127 127 127
-0.0558483703741454 0.118335142922593 -0.00364799259642751 0.09196229 0.9719163 0.2166141 91 91 91
-0.00790844648015276 -0.0483673234616393 -0.0332666264822651 0.1020063 -0.3437013 -0.9335224 66 66 66
-0.14233414154008 0.109868926859745 -0.0172690150494376 -0.6733485 0.4629259 -0.5764558 237 237 237
-0.0948428666446058 0.121142120173819 -0.0216324854879854 -0.2953061 0.954256 0.04679558 38 38 38
-0.0904745391829689 -0.0573554356509622 0.00352101812980729 -0.7345971 -0.422643 0.5307918 62 62 62
0.124827193671428 0.0128636466179515 0.0054475213742621 0.7192499 -0.2763689 0.6374165 69 69 69
-0.0511563487043236 -0.157897900717958 -0.0216586568237349 -0.1790055 -0.498226 -0.8483678 87 87 87
0.0991441109167253 0.079830834050078 -0.00542774070305876 0.3590938 0.9325762 0.03678653 78 78 78
0.117020079886506 -0.0456177248438201 -0.021265927919132 0.9592091 -0.2821577 0.0174616 97 97 97
-0.145248744149336 0.0136212901238375 0.0144441810857205 -0.6347805 -0.7706361 -0.05633551 57 57 57
0.0189126897956317 -0.188484840269952 -0.0154585495283491 -0.05510486 -0.2157598 -0.9748904 91 91 91
0.116924249688077 -0.00529150506236076 0.00754310195607072 0.7964305 -0.2583926 0.5467466 93 93 93
-0.0519520198434683 0.0782116025307371 -0.0437409386510187 -0.3342326 -0.1251446 -0.9341453 179 179 179
-0.108704323365897 0.0376253385228709 -0.0327210068298717 0.008455707 -0.07757913 -0.9969503 131 131 131
0.0823816306681708 -0.0228597971347135 -0.0348547497269917 -0.07254845 -0.2998696 -0.9512176 92 92 92
0.0560405820970252 -0.0744693483246635 -0.021648322056751 0.1380837 -0.1585184 -0.9776527 87 87 87
0.11074518403605 -0.0760032039024978 0.000693047553684711 0.9748627 0.008718777 0.2226357 138 138 138
-0.0486354496430588 -0.0314929948884271 -0.0389146625967328 -0.2023537 0.1131515 -0.9727537 144 144 144
-0.0759349272398714 -0.115562222804744 -0.0372020402725058 -0.06223347 -0.3158469 -0.946767 124 124 124
0.00402241742373488 -0.0523079723475512 -0.0328182121227467 -0.1631403 -0.1740093 -0.9711365 69 69 69
-0.0792942448767918 0.121665488112378 -0.0152376842359928 -0.1527207 0.9881036 -0.01810054 77 77 77
0.0667782051624932 0.0858984485144589 -0.00838134383809352 0.1477457 0.9869629 -0.06383925 75 75 75
-0.0107757352581265 0.11034128819845 -0.0294430492772705 0.1904772 0.9792402 -0.06933246 159 159 159
0.0493544772530902 0.10366223895808 0.0368369794011058 0.148432 0.9457833 -0.2888979 111 111 111
-0.097047373316833 0.121601972135216 0.0248093330102639 -0.01381422 0.9749993 0.2217782 52 52 52
0.0910151029245093 -0.145484058151845 -0.0234093025928365 0.5970078 0.1866976 -0.7802087 63 63 63
0.114318539075289 0.058175315800741 0.00148907502369397 0.8295549 0.5451732 0.1209328 72 72 72
0.0774739567042482 0.0841616266788459 0.0086903894405371 -0.09422634 0.9818113 -0.1648271 184 184 184
-0.0444852099624493 0.11594411949185 0.0296606418121637 0.3564559 0.9131089 0.1979172 38 38 38
-0.106202834567831 -0.0282964646129371 0.0244703013528836 -0.730316 -0.6814104 0.04814892 48 48 48
-0.0262590989253634 0.112159548653011 -0.0480194724761987 0.2787897 0.9509838 -0.1338135 243 243 243
0.109337204232831 0.0755535423173508 -0.00249324539841522 0.8413806 0.5161684 0.1601527 213 213 213
0.0085271802150283 -0.00695393514343734 -0.0474944999013904 -0.1593936 0.03956416 -0.986422 145 145 145
0.0798928414803171 -0.0337339076454271 -0.0307452723715524 -0.1425577 -0.2886658 -0.9467573 70 70 70
0.113188030959792 0.0676552310231238 -0.0178582443528326 0.9431476 0.3312467 -0.02735456 143 143 143
0.0458484769473432 0.0941373479656187 0.00503056449343967 0.2038674 0.9345315 -0.2917002 243 243 243
0.0894050990420042 -0.0256793395894095 0.0394969752165704 0.9635757 -0.1740068 0.2030852 40 40 40
-0.141655271791713 0.0773103311492382 -0.0306405227847691 -0.2928022 -0.01000761 -0.9561207 146 146 146
0.0158783071732684 -0.00544281915802181 -0.0487569041452009 -0.01222583 -0.09954359 -0.9949581 187 187 187
-0.0985944481867083 0.00497330980593391 -0.0312915978483053 -0.3674764 -0.06085162 -0.92804 89 89 89
0.0573666494593128 0.0881010009899152 -0.00927748907050707 0.1140823 0.9907186 0.07390463 80 80 80
-0.154050557554367 0.0815184575384784 -0.0194789786377165 -0.8440109 0.3736238 -0.3847739 106 106 106
0.0337510847386213 0.0982116304792102 -0.0336993781351408 0.2587123 0.9625584 0.08092719 117 117 117
0.129794794403122 0.0157486474740014 -0.00466854827326368 0.9586981 -0.2504334 -0.1348373 132 132 132
-0.0444759975921336 0.119328374457901 0.0109666790109952 -0.1787131 0.9835358 0.02681156 223 223 223
-0.097238007866757 -0.0669707048606465 -0.0369815120131899 -0.9004263 -0.4010054 -0.1686034 68 68 68
0.00103564695887681 0.108250908499771 -0.030983828257537 0.2350874 0.9635287 -0.1278528 155 155 155
-0.0601200098368579 0.119684254148108 0.0248402430441004 0.03017601 0.9991893 0.02664736 109 109 109
-0.132520981035594 0.0035535119011767 -0.0059777307731731 -0.5962254 -0.7960474 0.1040371 50 50 50
-0.0398042064648703 0.118184848181824 -0.0283236012644636 0.1799392 0.9830102 0.03623168 97 97 97
-0.0243609987090838 -0.161581372108012 -0.0246820758904992 -0.0864555 -0.5024386 -0.8602796 143 143 143
-0.137568391491986 0.0633593965527404 -0.0317043894087947 -0.2881755 -0.02211764 -0.9573221 188 188 188
-0.0545678315725674 0.0232428669581763 -0.0408644363691296 -0.2247203 -0.01959276 -0.9742263 93 93 93
0.0107741277828125 0.10262329681435 0.00577726325156369 0.2962298 0.9293072 -0.2205356 199 199 199
-0.0245844995057002 0.0407431079516829 -0.0444863021236435 -0.1946211 -0.1139309 -0.9742394 56 56 56
0.00233790327889583 0.107327881993788 -0.0226701997029004 0.03312996 0.9800532 0.1959544 134 134 134
-0.167271875944046 0.0430144639031014 -0.0194761891885736 -0.8540707 0.456423 -0.2494818 100 100 100
-0.0477532650509848 0.0535108230328984 -0.0443000857726049 -0.3717669 -0.09495971 -0.9234565 119 119 119
-0.0365446215897275 -0.159926692919685 -0.0246269033908213 -0.1882908 -0.4626808 -0.8662985 72 72 72
-0.000489564327794567 0.107602571510528 0.00328554988676039 0.4587063 0.8863615 -0.06286298 189 189 189
-0.0620218107728394 -0.0373065893097417 -0.0379945750741837 0.1708553 -0.119906 -0.9779729 120 120 120
0.109921149623654 -0.0962022641450004 -0.00423133756251187 0.9930674 0.1043505 -0.05411271 69 69 69
0.111912295995087 0.0694969581356604 -0.023588793717202 0.9439767 0.2907689 -0.1560815 76 76 76
0.00143620920673426 -0.0333474513944523 -0.0427700860317284 0.0663607 -0.2962783 -0.9527935 109 109 109
-0.00740382928235983 -0.0297968534574209 -0.0441826802492894 -0.1189944 -0.2403176 -0.9633731 140 140 140
-0.164730434215848 0.0766378445116265 0.0195379975226651 -0.9731096 0.227339 -0.03707732 93 93 93
-0.0756769564414774 0.0613958221375985 -0.0382910620002941 -0.2594104 -0.2128631 -0.9420167 123 123 123
-0.0565268433351779 0.0279474782882869 -0.0405084149467627 -0.2000579 -0.0740123 -0.9769847 117 117 117
0.028495713695458 -0.0815059738729427 -0.0253166980108037 0.09950388 -0.09717041 -0.9902812 152 152 152
-0.0951289450696222 0.121654915025548 -0.0259815341285344 -0.3579579 0.9262764 0.1178058 37 37 37
-0.0471529927064858 -0.12992361745666 -0.035808783380129 -0.1571606 -0.3996923 -0.9030762 106 106 106
0.124976980913158 0.0394065586932844 -0.00206925282353237 0.962224 0.268301 -0.04625494 190 190 190
0.0688875719094556 -0.0477545677844273 -0.0227654889824685 -0.129619 -0.3756007 -0.9176726 55 55 55
-0.0130518276828583 -0.157016868590866 -0.0294651576930699 -0.02363189 -0.4526585 -0.8913708 44 44 44
0.041141872751033 -0.017190911028341 -0.0393254191698804 0.1922623 -0.2661395 -0.944566 90 90 90
-0.0037523466846171 -0.0944411201896336 -0.0316332284900613 0.2444552 0.2055142 -0.9476316 140 140 140
0.0338622554335498 0.0969741263301533 -0.0102449520881682 0.2700062 0.9048653 0.329113 97 97 97
0.107233873004229 -0.0704579786605157 0.0135511139130118 0.9758166 0.05308204 0.2120477 180 180 180
-0.000665411002494398 -0.188659213293453 -0.0140426349204862 -0.2316178 -0.6804604 -0.6952171 110 110 110
-0.113880188725764 0.0385840025687503 -0.032498104119894 -0.1165808 -0.1236576 -0.9854531 169 169 169
-0.0500779233386367 0.117702636305848 -0.0353857450503734 0.049949 0.9952773 -0.08323598 156 156 156
0.0719431133516221 0.0452893504858289 0.0463719773312673 0.1085408 0.2438312 0.9637247 145 145 145
-0.115230890678433 0.0860306313831294 -0.0387992610642907 -0.2627589 -0.09255815 -0.9604117 155 155 155
-0.101272272571524 0.120848454093085 -0.0209924295211867 0.4730943 0.69223 -0.5449765 199 199 199
-0.047787466122985 0.117604692121789 -0.00305305910558357 0.08829555 0.9943608 0.05874073 240 240 240
-0.0912934088546906 0.121296576764037 -0.0152286230179544 -0.05678222 0.9820777 -0.1797194 43 43 43
-0.100541090829347 0.0197847400429119 -0.0311765919935479 -0.1871702 -0.05604284 -0.9807276 99 99 99
0.125708473031932 0.0227109922999205 -0.0177761720945439 0.866943 0.3296598 -0.3738104 105 105 105
0.0587568995104794 -0.10008171208675 -0.02102377802096 0.2238218 0.1088742 -0.9685299 239 239 239
-0.00930841546633765 0.109920806557997 -0.0194247104202473 0.2573624 0.9510961 0.1708236 204 204 204
0.105018601308815 -0.0686535446668084 0.0217918304015759 0.902711 -0.08236475 0.42229 66 66 66
0.117109140925162 -0.0211977770363867 -0.0283782541948969 0.6281534 0.1324473 -0.7667339 183 183 183
0.018394549680129 0.101885015642379 -0.0423183240356926 0.1190631 0.8960579 -0.4276731 150 150 150
-0.00788197829202342 -0.112454559236956 -0.0370108941152824 0.1578248 0.2309852 -0.9600714 120 120 120
0.119951390219052 -0.0233020309340108 -0.00335940663649956 0.8138986 -0.2330187 0.5322325 145 145 145
0.00485033554261893 0.044158681316194 -0.0505807882331408 0.03453707 -0.03078592 -0.9989291 194 194 194
0.0652276623718081 0.0807071280954952 -0.032857433890481 0.2600737 0.2225887 -0.9395829 136 136 136
0.0216569549447007 -0.197161326513377 -0.00670043980598864 0.01423589 -0.9674907 -0.2525058 44 44 44
-0.0740794929011604 -0.035837466031615 -0.0372221785165897 -0.1003054 0.08641585 -0.9911968 100 100 100
-0.0724552339696919 0.0847148051951603 -0.0440915573216238 -0.1264278 -0.02913006 -0.991548 234 234 234
-0.168654988215143 0.0650781453058853 0.0182900339276203 -0.9282319 0.3201535 -0.1894393 71 71 71
-0.0168524818721023 0.111291129461514 -0.0359634310710058 0.2273593 0.9678257 -0.1078015 226 226 226
0.0933701433453079 0.0521430560758849 -0.0277366596106873 -0.1870331 -0.07869976 -0.9791961 79 79 79
-0.144925261063262 0.120331060450596 -0.00650677611569853 -0.472399 0.6887249 -0.5499975 114 114 114
0.123971051783583 0.0371231074815828 -0.0125672264613743 0.9310023 0.1877036 -0.313053 177 177 177
0.121874545853573 -0.0235396394639955 -0.0222789219426022 0.9662696 -0.06822889 -0.2483301 134 134 134
0.105035135116174 -0.0168182912105679 -0.0360361656375756 0.06406278 0.166398 -0.9839754 164 164 164
0.0584712939880225 -0.0252152151713068 -0.031740863190738 0.02490191 -0.3158547 -0.9484807 97 97 97
-0.0150970836742145 0.111027866544858 -0.0239913031836453 0.1602847 0.986421 0.03581171 212 212 212
-0.0645452793782341 -0.0103577694461792 -0.0371047241439833 -0.03572946 -0.03073985 -0.9988886 156 156 156
0.0952291613075437 0.0794760826920695 0.0169505086426186 0.72528 0.6711684 0.1533029 242 242 242
0.11259542064543 -0.126362071732922 0.0143076653025943 0.9456649 0.05168527 0.3210085 199 199 199
-0.0930870875941452 -0.00105602839481356 -0.0325698379307183 -0.1716091 -0.1556651 -0.9727891 178 178 178
0.112497452004334 -0.00529104137217495 -0.0342009540510071 0.4375902 0.1671489 -0.8835021 147 147 147
0.073288913205099 0.0900018155149809 0.0207105758768022 0.2800343 0.9004671 -0.3327759 107 107 107
-0.0444549689445534 -0.171028102972694 -0.0149052033043453 -0.4325452 -0.8492831 -0.3026927 140 140 140
0.0822701340259668 0.08595638816363 0.0209022992308341 0.3400952 0.917534 -0.2060743 177 177 177
-0.11276931670403 -0.0181149350897392 -0.0225367344544238 -0.9420356 -0.2557205 -0.2172003 8 8 8
-0.0251622764341225 0.113676211343378 0.0345601752859327 0.008941032 0.9951303 0.09816203 161 161 161
0.110243451265002 -0.0824220860023412 4.32420288911661E-05 0.9926221 -0.01146298 0.120706 123 123 123
-0.0356942174014814 0.0969988777444442 -0.0524599986387538 -0.2764476 0.0674203 -0.9586611 144 144 144
-0.0433703930206445 -0.140887720793586 -0.0321156190006556 -0.2707542 -0.4648763 -0.8429604 84 84 84
0.0101376144334547 -0.0587552838782111 -0.0318600278089979 0.08174808 -0.2900328 -0.9535189 110 110 110
0.0404030551495672 -0.118324968694698 -0.0299144288824674 0.2439319 0.1569147 -0.9570136 245 245 245
0.102883525575528 0.0810304991786184 -0.0206489935979493 0.3827126 0.901275 0.2030624 112 112 112
0.106962193877329 0.0709014262370491 0.00438124678505616 0.8627658 0.2505905 0.439135 112 112 112
-0.0640232138877721 -0.0436210780458595 -0.0376135365220948 0.136143 -0.1255377 -0.9827031 86 86 86
-0.0678506582207683 0.119710686211471 0.00553797964281974 0.1957406 0.9739424 -0.1145505 117 117 117
0.0567103125375082 0.0721758681674904 -0.0363375455027117 0.1802692 0.09018965 -0.9794738 203 203 203
-0.0979776582074529 -0.0602383374151119 -0.0193266612502572 -0.8104757 -0.5622824 0.1642183 52 52 52
0.104489815903982 0.0503531306146658 0.0361634582597695 0.9458498 -0.06450299 0.3181312 156 156 156
0.0720569340991651 -0.0168493781087857 -0.0349140424690868 -0.1154828 -0.1614997 -0.9800926 127 127 127
-0.000914702951550384 0.0093274892197881 -0.0455578494530331 0.2200038 -0.09597678 -0.9707661 58 58 58
0.0955502388912762 -0.150600097744848 -0.00359584531735144 0.9298556 -0.2849591 -0.2327377 53 53 53
-0.0370817746118535 -0.0586607083053463 -0.0375976285309036 0.1859597 -0.05387286 -0.9810793 137 137 137
0.0963162150269464 -0.106631858149582 -0.0219569442171425 0.1907489 0.04654054 -0.980535 88 88 88
0.0660819900478199 -0.0863630959272292 -0.0186857926343151 0.05133329 0.07989631 -0.9954805 247 247 247
-0.0415807695485342 0.115568090244429 -0.0486253201247773 0.1826662 0.9403855 -0.2868942 231 231 231
-0.0858459855174701 -0.121532126826073 -0.0184017510011166 -0.9133744 -0.2181497 0.3437411 143 143 143
-0.0394634084442563 -0.0684021145750806 -0.0381093565898061 0.2178583 0.07768948 -0.9728834 172 172 172
0.023984682685395 -0.0776935912216477 -0.0263396942131092 0.1078505 -0.1649569 -0.9803864 166 166 166
0.114778665556083 -0.0229607349479293 -0.0298514922511472 0.682428 0.144622 -0.716503 161 161 161
-0.130804546129404 0.0452243943587793 -0.0307432406685291 -0.1888996 -0.2316607 -0.95428 208 208 208
-0.0604545136766961 0.120174821327631 -0.00775741351036988 0.08532646 0.9545227 0.2856674 80 80 80
0.121907134340292 -0.025280898380591 -0.0224600891218737 0.9508787 -0.1472297 -0.2723106 143 143 143
-0.053276873646467 0.0381000278485211 -0.0417117738393877 -0.2058927 0.01474588 -0.9784635 115 115 115
0.0112474130693848 -0.0386702386725328 -0.0401553538236102 0.1580723 -0.4486668 -0.8796086 99 99 99
-0.0632159040883283 0.00525512669076944 -0.0363934722318629 -0.2514145 -0.1901978 -0.9490077 64 64 64
0.0798586981544975 0.0869434941702296 -0.0155412866677976 -0.1009214 0.9925608 0.06810256 109 109 109
0.0466404537459546 -0.0403399875953809 -0.0286620589158146 0.170781 -0.120762 -0.9778805 64 64 64
0.0012391827186965 -0.0676552074294658 -0.0303819924631211 0.04144135 -0.1820168 -0.9824218 108 108 108
-0.0691954412737547 0.0787479943336928 -0.0443359172127248 -0.04796495 -0.06882156 -0.9964753 229 229 229
0.110948131057707 -0.118558519666826 -0.0127451742102005 0.985664 0.08113708 0.1479303 189 189 189
0.111847842446133 -0.0292596251196897 -0.032912996387294 0.5410163 -0.00773181 -0.8409765 133 133 133
0.107407550255927 -0.0853071312103004 0.0133923897986067 0.9872696 0.05205086 0.150298 122 122 122
-0.0312125250991131 -0.0590757773664381 -0.0359533418940092 0.2614587 -0.05150012 -0.9638398 244 244 244
0.0111496380479699 0.0311142925468397 -0.0477064663181508 0.01192756 -0.2977665 -0.9545642 94 94 94
-0.157231521282826 0.1053299447949 0.0117685901416581 -0.9232955 0.08231442 -0.3751663 100 100 100
0.045111003659326 0.0217805048690582 -0.0423881228691524 0.1715643 0.102849 -0.9797897 110 110 110
0.0586773552348472 0.0382640031230852 -0.0380460136762051 0.1901019 0.07262558 -0.9790745 135 135 135
-0.15378488445225 0.105874823370612 8.41186640475056E-05 -0.9204549 0.2386129 -0.3095588 131 131 131
-0.00406298794685112 0.0974752893730946 -0.0516921819303964 0.2937973 0.1282241 -0.9472284 99 99 99
-0.160057522221399 0.0662127115785809 -0.0199743628791885 -0.9033252 0.2766801 -0.3277982 74 74 74
-0.0913157628168638 0.0222692419293147 -0.0329378219115396 -0.185463 0.01075523 -0.9825924 121 121 121
-0.149134841965674 0.124108823474653 0.0024032741461322 -0.2650106 0.8713521 -0.4129345 140 140 140
-0.0190063593478673 0.107785195779468 -0.049234382912519 0.2846109 0.8511001 -0.4411636 167 167 167
-0.0188483412627914 0.107378685249495 -0.0507029010476075 0.2880295 0.847469 -0.4459096 232 232 232
-0.0850845193189602 0.120493449769587 0.0319919825013394 -0.08810881 0.9880475 0.1264867 79 79 79
-0.0548556348205333 0.0329028354610987 -0.0415030394850134 -0.2092 -0.06316063 -0.975831 100 100 100
-0.0310138056681809 0.115711227363625 -0.0099693641572994 0.1672328 0.9772944 -0.1301106 210 210 210
0.110162255798109 -0.051841968318197 0.00613444773016417 0.9871064 0.02122735 0.1586517 190 190 190
-0.0802328193120526 -0.089208813651781 -0.0441475692457863 0.005479434 -0.1890479 -0.9819526 234 234 234
-0.0808721580905878 0.0812467486479942 -0.0417666676588814 -0.3399985 -0.1215397 -0.932539 210 210 210
0.115126883172343 -0.0188004230830032 0.0040476205550489 0.7382622 -0.2036934 0.6430225 149 149 149
0.106626318767453 -0.0833274877759851 0.0179286488576918 0.9635807 0.001649822 0.2674126 152 152 152
0.00447247265311501 0.10595203388944 0.0102628185386227 0.389587 0.9076727 -0.156052 201 201 201
-0.102029883332562 0.117359531674778 -0.0393963512523552 -0.4246551 0.8385287 -0.3413761 238 238 238
-0.0319651554226049 0.114038281701153 -0.038790747673311 0.262751 0.9279091 -0.2644742 215 215 215
0.103678597649492 0.0689079988823176 0.0203327050587208 0.8373417 0.5462996 -0.02038524 149 149 149
-0.0322283533367326 0.115517472594242 -0.0265956308812563 0.3125556 0.9322442 0.1822905 64 64 64
0.0528184062071572 -0.197708220568134 -0.00114993795355064 -0.3193359 -0.9206215 0.2246788 28 28 28
-0.108746833316302 0.123963658975199 0.0217020395202755 0.1095836 0.9939487 0.007575673 155 155 155
-0.149356345674288 0.0921565867647178 -0.0194534472606005 -0.8261335 0.3317568 -0.4554568 101 101 101
-0.145232018802717 0.0096165356028779 -0.0184490934781256 -0.5374926 -0.8189685 -0.2009785 156 156 156
0.0830421938167392 0.0722261803611663 0.0365126791217542 0.07663076 0.3133233 0.9465497 139 139 139
0.0183566239217203 0.10260832654247 0.0121744069367365 0.1892128 0.9374632 -0.2921664 115 115 115
-0.0847123110033032 -0.0894125537627968 -0.0438206322438292 -0.1914083 -0.1956938 -0.9618039 227 227 227
-0.0494094773337291 -0.166454314148589 -0.0164431177846443 -0.3658481 -0.6846891 -0.6303618 64 64 64
0.101266055687654 -0.0334019822455984 0.0180292155001984 0.8234718 0.1952662 0.5326962 82 82 82
0.125299038076181 0.00142980030578044 -0.00829347872000585 0.9329122 -0.276336 -0.2308964 79 79 79
-0.0761384982081444 -0.124316279128494 -0.0347806003515069 -0.08927179 -0.4138694 -0.9059485 139 139 139
0.0855173665841454 0.0863394029197451 -0.00704004318099893 0.2556235 0.9654396 0.05082446 151 151 151
-0.00662274352326653 0.110124257504251 0.0172514331803399 0.2028968 0.9776155 -0.05568517 181 181 181
-0.0843548966548578 -0.0382209323142018 -0.0391754171254328 -0.08187182 0.1910631 -0.9781574 220 220 220
0.112319729414074 -0.122078613304358 -0.0174406042226581 0.9994016 -0.03458754 -0.0002354632 165 165 165
0.0458653090457278 -0.0383553095086235 -0.029078305056275 0.1761808 -0.1767549 -0.9683584 76 76 76
-0.0349944388084568 -0.0809059397004159 -0.0377378841088673 0.2584974 0.0002690147 -0.9660119 243 243 243
0.0737256030911687 0.0377374346787445 -0.0346061459899649 0.3715612 0.08661193 -0.9243596 62 62 62
-0.076157206348016 0.0759498542712131 -0.0427810640077245 -0.3303022 -0.1816762 -0.9262258 206 206 206
-0.0616478103703048 0.122595466325985 -0.0215280812915097 0.05267667 0.9986078 0.002779857 89 89 89
0.0882215630377019 0.0521237545803281 0.0427710310897379 0.08413424 0.2987579 0.950613 79 79 79
0.0871221028246373 -0.185851682080252 0.00714067141485739 0.9792652 0.08124309 0.185578 59 59 59
0.00525485412354498 -0.191435846011607 -0.00534812991976208 -0.5031366 -0.8623915 0.05598559 41 41 41
-0.0825164554493665 -0.0420118063197628 -0.0397602917691642 0.09545704 0.1592132 -0.9826185 169 169 169
0.0409110045522639 0.0248224670957504 -0.0426663785469229 0.1916125 0.1116374 -0.9751009 134 134 134
0.123539613386686 0.029013929933434 0.0139335109539195 0.7150996 -0.09268095 0.6928512 171 171 171
-0.0114936329060685 0.0915839695038079 -0.0534057549497152 -0.002654243 -0.1115027 -0.9937606 176 176 176
-0.140238235539946 0.00621893888052094 -0.0176567559348186 -0.4179005 -0.8560998 -0.3040596 122 122 122
0.029398766547183 0.0984316813684332 -0.0142546238758334 0.01581717 0.9660279 0.2579535 96 96 96
-0.0644962723914815 0.119475696370837 0.0325515822105072 0.1034678 0.9944964 0.0164721 61 61 61
0.032944062643646 0.0345880769470241 -0.0448608851437617 0.3408033 -0.1077234 -0.9339426 134 134 134
-0.057370530308207 0.0668942015671519 -0.041892905981865 -0.05973953 -0.1774556 -0.9823139 169 169 169
0.103351615816237 0.0803149678587793 -0.0182847900652368 0.338277 0.9268651 0.1627569 88 88 88
0.0134253632446519 -0.00912215672452588 -0.0473583277877654 0.02439485 -0.2162459 -0.9760341 167 167 167
0.0885232549833566 -0.0277032619536097 0.0428879266256656 0.8335239 -0.01204658 0.552352 114 114 114
0.0821808898659663 0.0470050028747071 0.044700328419699 0.09069074 0.2952504 0.9511058 117 117 117
0.0122861909144245 0.106289318907911 -0.0217944633021921 0.3961705 0.8964773 0.1984376 181 181 181
0.0279606751616057 0.09754230527136 0.00379569053669979 0.1636632 0.8909196 -0.4236469 234 234 234
0.100905825524697 -0.10645174312445 -0.0211233894586794 0.1069345 0.09455725 -0.9897596 82 82 82
-0.00826882930533401 0.113253601024485 0.0278732801713217 0.1688352 0.9084716 -0.3823272 115 115 115
-0.00239106311835591 -0.0350918789733481 -0.0428418248981136 0.005583856 -0.4181888 -0.908343 159 159 159
0.078650616923343 0.0841552760730067 0.00596696537983357 -0.2615424 0.9617605 0.08131596 88 88 88
0.0979735934095942 -0.0380406987656818 0.0227104181578716 0.7910181 -0.05385279 0.609418 63 63 63
0.100595324891173 0.0700973370094131 0.0345940199974779 0.8154656 0.3757128 0.4402905 165 165 165
-0.0105273528932992 -0.183908300265315 0.000534148789516575 -0.3424266 -0.9350476 -0.09181505 24 24 24
-0.0922175510464222 -0.093111722460925 -0.0331884874669589 -0.9862532 0.1171196 0.1165659 33 33 33
0.0155190271052319 0.109243674254742 0.0291312117618125 0.2124754 0.9114081 -0.3524054 103 103 103
0.0281557643578878 -0.0465258233462744 -0.0339681524555303 0.0600884 -0.4567838 -0.887546 40 40 40
-0.0435681791150448 -0.16269415958653 -0.0211005954337659 -0.2962688 -0.5058083 -0.8101745 65 65 65
0.0607807443185904 -0.0985225165539065 -0.0207663883488543 0.1026812 0.06721347 -0.9924409 240 240 240
-0.0246657895027039 -0.0523793350133617 -0.0351059744903512 0.2174489 -0.06891707 -0.9736357 136 136 136
-0.104255683883565 0.119856731840178 -0.024452186535708 0.5997872 0.5258533 -0.6031033 107 107 107
0.111774406220802 0.0676847570728736 -0.0277186402903458 0.952677 0.2706134 -0.1384735 72 72 72
-0.0143972244636537 0.111127986404099 -0.00243614539474202 0.3771183 0.9033834 -0.2041574 223 223 223
0.110729909628665 -0.0414087092549398 0.00409134386619314 0.9054356 0.00239493 0.424477 132 132 132
-0.13966842438083 0.0096432045112218 0.0229279981492092 -0.6069237 -0.7922403 0.06323754 62 62 62
0.108219871290567 0.0788294536436813 -0.0133622357224665 0.4927116 0.8558672 0.1572471 176 176 176
0.0835885221588727 0.0221808023496821 -0.0334184001263809 0.6095976 0.4327967 -0.6641369 149 149 149
-3.94353451438345E-05 0.02895867376672 -0.048701498256096 0.02333769 -0.07563276 -0.9968626 182 182 182
0.00450805641346308 -0.111094928378373 -0.0339139597302075 0.1747615 0.292723 -0.9400913 119 119 119
-0.0312574550168794 -0.0913312238521435 -0.0364399285366371 0.1542043 0.04928647 -0.986809 207 207 207
0.0105523154924838 -0.0289271962477247 -0.042836647278874 0.1174991 -0.223098 -0.9676886 99 99 99
0.0636964412090376 -0.0188843067142912 -0.0336613433689552 -0.02878775 -0.2911928 -0.9562311 97 97 97
0.0187033069406988 -0.150177879807658 -0.034201097820991 -0.1606256 -0.6113867 -0.7748585 101 101 101
-0.0479107567824026 -0.14668503269723 -0.0266357643987324 -0.1682441 -0.3696846 -0.9137982 103 103 103
0.038884348337589 0.102438012492055 0.0282368307795535 0.1889723 0.9087006 -0.3722266 230 230 230
0.0702455772738011 0.0592797399822347 0.0447504525181623 0.8558856 0.2144606 0.4706024 88 88 88
-0.0874347643782168 -0.0470445730554898 0.0195051782003722 -0.7842644 -0.6081817 0.122656 32 32 32
0.0414273169792014 -0.157009004042049 -0.0281981272296478 -0.003662614 -0.4887521 -0.872415 122 122 122
-0.0877264755403393 -0.0331668531112099 -0.0364367274513914 -0.2304249 0.3935452 -0.8899587 83 83 83
0.0207214800099286 -0.125979867706428 -0.0354367988020794 0.2551631 0.25899 -0.9315664 164 164 164
-0.0846148200968027 -0.0588157717593571 0.0102678514670991 -0.8160148 -0.2937716 0.4978132 50 50 50
0.115997759141005 0.0424048148786567 -0.0325396216855177 0.9493906 0.08741797 -0.3016877 123 123 123
0.0175336051244559 -0.136444423741779 -0.038441473608833 0.1672184 0.1106527 -0.9796907 152 152 152
0.0895121350935613 0.00654696764695073 -0.0368822090634466 0.3827344 0.388819 -0.8380538 131 131 131
-0.053208973911536 0.0305613450365487 -0.0416579671082485 -0.227046 -0.09489656 -0.9692496 126 126 126
0.0673074099011438 -0.0527383603299036 -0.021173221698724 0.06016834 -0.200003 -0.9779461 95 95 95
0.0786554820586575 0.0603597187426175 -0.0295473189914579 0.4500411 -0.09705875 -0.8877177 65 65 65
0.0403047573430535 -0.0862796790288518 -0.0244506441513745 0.2706155 0.09512347 -0.9579764 129 129 129
0.044504187729848 0.0997078253949215 0.0238799279612859 0.1438242 0.9463063 -0.2895149 86 86 86
-0.0786132017223372 -0.118945527678193 -0.0358906191089444 -0.1283835 -0.3347943 -0.9335044 73 73 73
0.10825601488169 -0.135979232459363 0.0165032956841949 0.7992334 -0.5990198 -0.04900215 70 70 70
-0.0959463657449038 0.0232508649946004 -0.0318857119225589 -0.1561423 -0.03655935 -0.9870577 154 154 154
0.0146332581282292 0.104516507807098 -0.0323950320736837 0.3387696 0.9145166 -0.2211211 177 177 177
0.121950797341911 0.0132700499827973 -0.0284373618080155 0.7763032 0.0493614 -0.628424 181 181 181
0.0363804221079425 0.100169873555161 0.0150107771906825 0.1669553 0.9824484 -0.08319273 180 180 180
-0.106798578280072 0.116443675922923 -0.035802579274764 -0.3210658 0.919618 -0.2263173 246 246 246
-0.0656737159610119 0.032411243913848 -0.0397136878758887 -0.1258015 -0.1869442 -0.9742822 124 124 124
0.0939824966468086 0.0419624725270848 -0.0278182132618708 -0.04597171 0.006008673 -0.9989247 98 98 98
-0.0370086176670474 -0.075010194764294 -0.0377941777790008 0.2497804 0.02497824 -0.9679803 248 248 248
-0.156269017076967 0.106176206173085 0.00658414595521731 -0.9501699 0.1197881 -0.2877985 44 44 44
0.0686456112263559 0.0993082961104679 0.0376353782355554 0.3860452 0.8965058 -0.2173626 113 113 113
-0.144325684898313 0.0924181826810722 -0.0284412505092917 -0.6350202 0.4412457 -0.6340754 214 214 214
-0.0540794587584067 -0.128015214520739 -0.0360450772486674 -0.1664932 -0.3890646 -0.9060401 119 119 119
-0.0817685485872625 0.0422005677460957 -0.0360356482431738 -0.2292594 -0.0410987 -0.9724973 116 116 116
-0.0607561045081998 -0.144393921669266 -0.026652281120413 -0.1416623 -0.4653421 -0.8737211 102 102 102
0.0954937784807501 -0.110185731782832 -0.0224433957310246 0.1982791 0.1516073 -0.9683495 97 97 97
0.0563214931808727 0.098179233569426 0.0245382795028297 0.1894944 0.9243621 -0.3311294 98 98 98
0.092553185237133 0.0536333812764633 0.0418800605775905 0.1164534 0.3124822 0.9427584 134 134 134
-0.0600841374390864 -0.0890778676134865 -0.0404829062039267 0.2664182 0.2208789 -0.9382078 159 159 159
0.0923574238417872 -0.152255364467925 -0.0205795327965046 0.8059812 -0.2790647 -0.5220318 113 113 113
0.0205868670404591 0.101604571728666 -0.0403452390186283 0.2195086 0.9586946 -0.1808882 115 115 115
0.106146343688578 0.0289959706897223 0.0332520035559658 0.9624165 -0.007194909 0.2714826 59 59 59
0.0951697727882824 -0.0398462082435074 0.0263761324950056 0.8526005 0.2402307 0.4640707 43 43 43
-0.0499731119669758 0.118889496769091 0.0236951536942901 0.1427665 0.9891497 -0.03465071 172 172 172
0.108587229244298 0.0618268536521347 0.0257749102815005 0.7275661 0.5482132 0.4124439 215 215 215
0.003442175163196 -0.0104894958080017 -0.0473421155866425 -0.2707651 0.05339232 -0.9611636 177 177 177
0.0438951778541612 0.0950035503526561 0.00645477613338127 0.3081923 0.8754656 -0.37226 241 241 241
0.0629579213532189 -0.0261841094551161 -0.0314617970691933 0.01045336 -0.3096253 -0.9508012 103 103 103
0.00459686068621334 -0.0697592626727059 -0.0295164879672208 0.07238587 -0.2205855 -0.9726779 141 141 141
0.0986551904199027 -0.110958157515912 -0.0220560336738281 0.1524025 0.1492619 -0.9769823 69 69 69
0.0309358348525616 0.102829122421123 0.0235401879193635 0.2575873 0.9249613 -0.2794557 224 224 224
-0.0716354877715369 0.0172069030697126 -0.0361381501130024 -0.1252028 0.01798271 -0.9919682 104 104 104
0.10798502458724 0.0248207045085362 0.0290408622327078 0.8424791 -0.1290357 0.5230476 117 117 117
-0.0534922637680758 -0.0986580673418862 -0.0420567559190085 -0.01213004 0.311098 -0.9503004 81 81 81
-0.125624357230222 0.0240288727916469 -0.0271085333143215 -0.2404248 -0.1769468 -0.9544033 113 113 113
0.116213452440449 0.0552538409144383 0.0153387740830979 0.7983667 0.5273045 0.2907931 169 169 169
0.0867653796685486 -0.193231759512135 0.0154279361333496 0.947808 -0.06695404 0.3117325 75 75 75
-0.0306795673586744 -0.141466927787374 -0.0348552859829681 -0.2994896 -0.4560958 -0.838023 136 136 136
-0.0568187037141423 -0.0682675408782332 -0.0372951389589379 -0.04811661 0.1498868 -0.9875317 49 49 49
0.0681046908854629 -0.196890091404449 0.0117552400027352 -0.09122296 -0.9757215 0.1991126 29 29 29
0.119765006392266 -0.03508054030375 -0.0101055120062722 0.9323004 -0.2446277 0.2664078 155 155 155
0.112968978263807 0.0604496570116682 0.0138189160819436 0.666765 0.7396957 0.09096582 115 115 115
-0.0997160837364913 -0.0566611446647627 -0.0136800626042696 -0.7981977 -0.5502988 0.2450543 23 23 23
0.121279360782695 -0.0101633654634492 -0.000123534082564325 0.7733484 -0.2457239 0.5844245 136 136 136
0.044124104148665 0.0929620406829406 -0.0133226323530778 0.4295395 0.8794913 0.2049168 79 79 79
-0.15944169300128 0.0851832465106612 0.00671015527833022 -0.9370096 0.2183536 -0.2726438 71 71 71
-0.0565631056676814 -0.0434079766129734 -0.0372248942419614 -0.07336309 -0.142254 -0.9871077 109 109 109
0.0407868245855818 -0.0695554058463959 -0.0262523152699821 0.162353 -0.2640671 -0.9507419 209 209 209
-0.0465358259959655 0.118882645885591 -0.0166397929757041 0.2650694 0.9634785 -0.03804458 89 89 89
-0.00937842155475388 -0.166254748326475 -0.0256342093141926 0.0158188 -0.5383611 -0.8425658 99 99 99
-0.129451705556286 0.0683486541173692 -0.0345759657182402 -0.2903003 -0.04161164 -0.9560304 178 178 178
0.0474215848014752 -0.00420428930281092 -0.041984223941624 0.5117058 -0.4014795 -0.7595863 69 69 69
0.0726713111614276 -0.103645498781372 -0.0211070811620303 -0.2132288 -0.007514204 -0.9769734 79 79 79
-0.155568789432875 0.0184729414870246 -0.0141963033674403 -0.5988382 -0.7831036 0.1677546 45 45 45
0.0517447987778474 -0.123379549463116 -0.0275129548777312 0.2645967 0.2568734 -0.9295185 245 245 245
-0.048742445141685 0.11887610340531 0.0203417344420184 0.2083811 0.9762921 0.05857561 181 181 181
0.0641773930591681 0.0235081537056261 -0.0372868537273188 0.250568 0.05777382 -0.9663736 128 128 128
0.0364624574075522 -0.119040256762889 -0.0310590962179422 0.1511087 0.1656153 -0.9745449 67 67 67
0.0461712497189484 0.0964606615100554 0.0133940951139728 0.2226116 0.9531896 -0.2046307 59 59 59
-0.0230932756423368 0.114562924275613 -0.00201411164942275 0.2714433 0.9396145 -0.2084303 186 186 186
-0.0601466906136635 0.0225605847283976 -0.0389894922278995 -0.2557069 -0.04284915 -0.9658043 78 78 78
0.0894488763663817 -0.109835595844414 -0.0246914846669572 0.2246129 0.1244547 -0.9664679 36 36 36
-0.0653486662139443 0.0267060643371537 -0.0383094475438146 -0.1750223 -0.1497771 -0.9731053 76 76 76
-0.160026904969794 0.0235038329197226 -0.00512888320839969 -0.5021958 -0.8636914 0.04285365 52 52 52
0.0890168131402405 -0.116246908512881 -0.0251279263591246 0.2657937 0.03719053 -0.9633123 53 53 53
-0.00580187032386859 0.109196923004725 -0.00281600839742024 0.2770899 0.9386145 -0.2054845 214 214 214
0.0984420193283577 0.076202769843531 0.0168871280982002 0.7050532 0.6508924 0.2814942 233 233 233
0.0388264486490602 0.0870011502664692 -0.0412010396691523 0.4311725 0.07278962 -0.8993286 241 241 241
0.0799170730832586 -0.200844737737267 -0.012959937534465 0.6524276 -0.4026112 -0.6420611 121 121 121
-0.0960553489941626 0.0354357735301474 -0.0328591972504217 -0.1525339 -0.0421693 -0.9873981 97 97 97
0.0523722689655651 -0.0219048977560206 -0.0329617197298301 0.08274437 -0.3310204 -0.9399887 35 35 35
-0.116993755632403 0.0863599446979946 -0.0383770774648591 -0.3060284 -0.07246388 -0.9492605 158 158 158
-0.156420987372144 0.0910411332589569 -0.000809469710332911 -0.9377916 0.1575683 -0.309385 123 123 123
0.032786821216013 -0.136001529239548 -0.0353619050533033 0.1610064 0.1391436 -0.9770957 121 121 121
-0.149833604068014 0.064808306546023 -0.0284244477583753 -0.2041648 0.02809943 -0.9785331 82 82 82
0.0589917390903355 0.0540544803085061 -0.0371624737786742 0.1518311 0.0477563 -0.9872521 127 127 127
-0.124588710499758 0.124935392874861 0.0145387165572313 0.1384006 0.9903731 -0.002506214 187 187 187
-0.032008063032542 -0.117211138947559 -0.0422024145389772 0.07587618 0.0619125 -0.9951932 152 152 152
-0.121056390238455 0.107972170573773 -0.0350788013253119 -0.416949 0.3918784 -0.8201127 241 241 241
0.00357356411592191 -0.058674735418248 -0.0323229437471423 -0.09293716 -0.1927785 -0.9768312 96 96 96
-0.145512576244582 0.0118432587820849 -0.00767522484745853 -0.6133957 -0.7751809 0.1511298 26 26 26
0.0578869276482799 -0.186363481671092 -0.0194701278549604 -0.1297549 -0.3201886 -0.9384258 93 93 93
0.0915515265109885 0.0838553725107696 -0.0195231025162727 0.3232266 0.9456808 0.03482006 135 135 135
-0.0895984172062884 0.122787167753815 -0.00371522610737413 0.121435 0.9923736 -0.02116735 165 165 165
-0.0227254567232067 0.00598396363757381 -0.0429507536627131 -0.08461796 0.02033536 -0.9962059 87 87 87
-0.094235518953571 0.122653446203669 0.00556952177586165 0.08737293 0.9947537 0.05320813 81 81 81
-0.124879035295496 0.125042533426345 0.0224509052035108 0.06459406 0.9850463 0.1597231 166 166 166
0.117913876719016 0.0542295965212247 -0.0184917031319881 0.9338682 0.3034506 -0.1892299 246 246 246
0.0902457331605822 0.0159786204863026 -0.0315730540517388 0.3133686 0.3795288 -0.870493 110 110 110
-0.0443818609135918 0.0571282179188506 -0.04593016613417 -0.1892828 -0.08808293 -0.9779639 126 126 126
-0.0151598464378334 0.111574375391151 -0.00681410952139685 0.4370595 0.8968448 0.06817903 108 108 108
-0.0675907650099146 -0.0943068611204765 -0.0430841242216146 0.167349 0.1037519 -0.9804233 187 187 187
-0.00291506225737326 0.108889827110875 -0.0256719442428354 0.1417907 0.9718348 0.1882352 155 155 155
-0.0241945886738886 0.00761020552872371 -0.0427122921790704 -0.05771489 0.01737263 -0.9981819 97 97 97
0.0851671938574567 0.0161563468756303 0.0535245971364789 0.1628845 -0.02089169 0.986424 182 182 182
0.107062198277871 -0.0757272708278518 0.0164226745714922 0.9432213 0.07405424 0.3238048 159 159 159
-0.0876060389574963 0.122527475258335 0.00686821388371234 0.1268693 0.9904165 0.05458245 92 92 92
0.0794525496310444 -0.00167253024849989 0.0536448060386625 0.79668 -0.09328558 0.5971589 139 139 139
-0.137687330465165 0.121983922000889 -0.0076315817408561 -0.1793546 0.9183304 -0.3528474 156 156 156
0.0860603995056149 -0.172383286131275 0.00875713793896379 0.9684904 -0.01219906 0.2487522 95 95 95
-0.0127771479820629 0.108975421244312 -0.0418831397591299 0.2024319 0.9750295 -0.09131712 231 231 231
0.0877930838959926 0.0411085486551044 -0.0282725434538642 0.2348845 -0.03117753 -0.9715232 103 103 103
0.0811002616499306 0.0859196909942115 0.00411651704370816 -0.2312496 0.9717566 0.04703831 99 99 99
