ply
format ascii 1.0
comment File exported by Rhinoceros Version 7.0
element vertex 469
property float x
property float y
property float z
property float nx
property float ny
property float nz
property uchar red
property uchar green
property uchar blue
end_header
-0.0112524110794886 -0.0897502960069223 0.00938329868564944 -0.3244281 -0.9317115 0.1632791 87 87 87
-0.0170419890404566 0.0856951414244131 0.0184677320028339 -0.02648603 0.0726779 0.9970037 96 96 96
0.00146876983634392 -0.0932691158158823 0.0176649319435153 -0.4866098 -0.8548558 0.1800898 67 67 67
-0.0342422801972254 0.0972667871611075 0.0179537611509357 -0.01162745 0.06229608 0.99799 90 90 90
0.116593651103892 -0.0661150277955576 0.0284664409662281 0.2078672 0.004567049 0.9781464 150 150 150
-0.0170419890404566 0.0199367939131216 0.0219867753292118 -0.01449605 0.02983346 0.9994498 135 135 135
-0.0757235366822108 0.00196384774612945 0.0217016267086063 -0.0311974 -0.03897519 0.9987531 110 110 110
-0.0119637925148829 -0.0575739206178232 0.0261754768396411 -0.006447509 0.02974332 0.9995368 128 128 128
-0.131439693641744 0.0577207742826895 0.0177785085941349 -0.01558459 0.0300637 0.9994265 94 94 94
-0.0973801691056116 -0.02036190641952 0.0226543920541797 -0.02720222 0.06047872 0.9977987 89 89 89
0.0145971696852819 -0.0994322360856577 -0.00948693580379148 -0.07360129 -0.9958532 0.05347137 95 95 95
-0.109829910469137 -0.0385053218705698 0.0112045931125675 -0.9517221 -0.3068686 0.007534368 116 116 116
0.0321250479697363 -0.0815481008393808 0.0278735684658084 -0.03398228 0.04682858 0.9983248 150 150 150
-0.0939400870324 -0.0711320699555917 -0.00449005491485258 -0.1654105 -0.8731303 0.4585661 47 47 47
-0.0757101256371363 -0.00216198576522308 0.0190541224981342 0.3221755 0.1569396 0.9335807 160 160 160
-0.0832039196015223 -0.0636991323335214 0.0147098975683246 -0.2921681 -0.8756001 0.3846586 87 87 87
0.0591423433303014 0.0381599603788809 0.0222152697349582 -0.01826135 0.05487366 0.9983263 109 109 109
0.121613375472941 -0.0176891149385019 0.00438273720989565 0.995162 -0.01098172 -0.09763262 181 181 181
0.0410762351035253 -0.0899123014314218 0.0286677407527957 -0.03307161 0.05040102 0.9981813 140 140 140
0.118851892280497 -0.0970617593629404 0.0138930904174838 0.9872532 -0.009692475 0.1588622 138 138 138
-0.0673791248322352 -0.00419927252364594 0.0223292040134464 0.005382186 0.05494651 0.9984748 115 115 115
0.0331547182082311 -0.0843368829591318 0.0282640682960544 -0.02678471 0.06731648 0.9973721 134 134 134
0.0249485295294897 -0.0422818721635385 0.0260419028306995 -0.0186747 0.03993557 0.9990277 121 121 121
0.0906762402533666 0.0369445024626212 0.0228469448591266 -0.009911151 0.05931133 0.9981903 112 112 112
-0.0944783765793665 0.0157210765974478 0.0196087139154468 -0.08300103 0.3495024 0.9332518 186 186 186
-0.0973400551796778 0.0359171568052725 0.0196842330003772 -0.009208356 0.04598975 0.9988995 124 124 124
0.116605333614268 0.0893567739622549 0.0167902486825977 0.9514424 0.1962358 0.2371686 66 66 66
-0.0732764083863123 -0.0522339404923959 0.0249732064510379 0.02980511 0.1061807 0.9939001 100 100 100
-0.0955080468178614 -0.0696927369935556 -0.00798831112136503 -0.1155215 -0.7771208 0.6186582 107 107 107
0.10431944541923 -0.114832764993434 -0.00942652649631162 0.01763128 -0.9997168 0.01598416 142 142 142
-0.0575867969513758 0.0100880800383047 0.0217523800636325 0.06711234 0.09511404 0.9932015 111 111 111
-0.0695788938523157 -0.00805342806411224 0.021946512391666 -0.0697442 0.04810726 0.9964042 134 134 134
0.0385137718199865 -0.0301888049943491 0.0254285859371219 -0.01993805 0.06281503 0.997826 128 128 128
-0.100469179821096 -0.037002211938624 0.0184437262321506 0.4876989 -0.5760292 0.6560031 150 150 150
0.109397582340159 -0.0853707851274057 0.029384427001575 -0.005231797 0.04691335 0.9988853 146 146 146
0.102096251773752 -0.015433436761622 0.0252484010959659 -0.03105487 0.0566818 0.9979092 132 132 132
-0.0645241219521387 0.0208637653486685 0.0197714942003284 -0.1608156 -0.046281 0.9858988 143 143 143
0.0787335556029455 -0.0599200786454721 0.0276686327959094 -0.003531452 0.04458362 0.9989994 130 130 130
0.124000303077616 0.015817874540563 -0.0188105476592984 0.9726182 0.03731951 -0.2293929 25 25 25
-0.0976609665871485 0.016617172827001 0.0182437228466068 -0.2832269 0.9170903 0.280585 118 118 118
-0.0853516537667139 -0.0400941432817026 0.0190588908697162 -0.7035423 0.6556721 0.2740846 147 147 147
0.0598795335768835 -0.0708603919847055 0.0278647171760593 -0.02502129 0.04733052 0.9985659 128 128 128
-0.0470196086884364 -0.0763509334428354 0.0266085343862567 -0.2689201 -0.4281944 0.8627465 118 118 118
0.0260249894141332 -0.0569632114274545 0.0266549962068592 -0.007875891 0.06468606 0.9978746 150 150 150
-0.027221747112356 -0.0255684913499399 0.0240456240678821 8.185427E-05 0.02640656 0.9996513 134 134 134
0.104623667526163 -0.114602035413508 -0.0111954433416333 0.01718695 -0.9998293 0.00678303 95 95 95
-0.0770291764260157 0.0776526867048697 0.0181065576578174 0.002683816 0.0221813 0.9997504 109 109 109
-0.0573631603241785 -0.0731835426194711 0.0178372638727222 -0.3698303 -0.8207164 0.4354884 114 114 114
0.0844747941970007 0.0111313997404532 0.0238088744188343 0.003233764 0.02261939 0.9997389 116 116 116
-0.0258644301415308 0.0937422453062491 -0.0247907561754193 -0.04879517 0.9507267 -0.306166 50 50 50
-0.0572321493149622 -0.00232768667769867 0.0223715382123981 -0.05522944 0.06169607 0.9965658 110 110 110
-0.136414237690054 0.0545369325773672 -0.0101782900785412 -0.9583324 -0.2852232 0.01570643 72 72 72
-0.0753825385094508 -0.0283418954713388 0.0156019108797107 0.6267769 -0.1333967 0.7676953 202 202 202
-0.00915325469978889 0.091936701406713 0.0182351844812427 -0.0309909 0.05607456 0.9979455 91 91 91
-0.098222621154867 -0.06860089911056 -0.00500393635978361 -0.2101227 -0.8074036 0.5513147 146 146 146
-0.0132743198395594 -0.0578736127717538 0.0261205660606418 -0.01140423 0.02574503 0.9996035 138 138 138
-0.071427651119314 -0.0770655931336923 -0.00286348886241575 -0.3585831 -0.8421455 0.4027519 121 121 121
-0.0351315218926295 -0.0853915275437875 0.00466860108623843 -0.01251774 -0.974776 0.2228342 92 92 92
-0.0270969349861964 0.0896843610899405 0.0181757288480792 -0.004123715 0.02604863 0.9996521 96 96 96
-0.122981675338827 0.00644659387039703 -0.00122141070117612 -0.967512 -0.2527473 0.006278269 73 73 73
-0.00157345123299202 -0.0930826724870248 0.00122524075756411 -0.4021277 -0.9143977 0.04658497 96 96 96
-0.0471074063301905 -0.0887283147676035 -0.0128497404550519 -0.05028442 -0.9837116 0.1725775 88 88 88
-0.105366833877645 0.0356732545988516 0.0196260439659152 -0.04132394 0.09599972 0.9945232 102 102 102
-0.0915063101769312 0.0318874059812979 0.0201964753175769 -0.05034225 -0.03584624 0.9980885 160 160 160
0.0487871091841833 -0.0725432695252939 0.0277390258813892 -0.01208707 0.02118489 0.9997025 123 123 123
-0.0470196086884364 0.0217891870634512 0.021291427543262 -0.03420685 0.06685871 0.9971759 123 123 123
-0.0351682979584559 0.0758629976408438 0.0187243448997531 -0.01883885 0.05397615 0.9983645 116 116 116
-0.0553389269829615 -0.0848186076982065 0.00120621197471957 -0.2782906 -0.9033913 0.3262492 84 84 84
0.00086616687766472 -0.0283684791429086 0.0247379469181095 -0.03329431 0.05001162 0.9981935 192 192 192
0.0485531013487951 -0.111137992273097 0.010529093673328 -0.2013559 -0.9730776 -0.1121417 95 95 95
-0.069306560230337 -0.0481082261903329 0.02462337188969 -0.06270849 -0.04494665 0.9970193 99 99 99
-0.0653197843552454 -0.0498690666062875 0.0239262061620746 -0.1041808 0.001158298 0.9945577 129 129 129
0.0125144045828954 -0.0543414415223642 0.0258571731353794 -0.02665007 0.04546641 0.9986103 148 148 148
0.125029973316111 -0.108424371610407 -0.00492285914172788 0.9654914 0.08130018 0.24742 150 150 150
0.020143381881632 -0.0995220006806894 -0.00519149727573057 -0.08300498 -0.9950362 -0.05489108 110 110 110
-0.0551934916497095 0.0217508016722159 0.0211403893734012 -0.02380577 0.1372498 0.9902503 121 121 121
-0.121423788738333 0.0258628069059805 0.0195163118148838 -0.075775 0.03004811 0.9966721 103 103 103
-0.0427371341706141 0.0960154472486929 -0.0197591257785763 0.00151093 0.9735298 -0.2285551 119 119 119
0.0405262630461828 0.00798785077499908 0.0234591292644535 -0.02292069 0.05612554 0.9981606 133 133 133
0.072563282775797 -0.0379740060670419 0.0264872985387836 -0.02588827 0.06988965 0.9972187 127 127 127
-0.0231498558045252 0.0335144935743765 0.0196228849197422 -0.04322883 0.03923003 0.9982947 153 153 153
-0.0755229074478968 -0.0707765878541513 0.00726490490684847 -0.3311239 -0.8754186 0.3521353 94 94 94
-0.0390130955696925 0.0975636182920889 0.0174066501165424 -0.04288525 0.0682112 0.9967487 102 102 102
0.116277686881937 0.072668427099462 -0.0145191026424374 0.9596108 0.09945587 -0.2631648 133 133 133
-0.111585028839193 -0.0344809354646249 -0.0170576346610989 -0.9515319 -0.2986365 -0.07350709 119 119 119
-0.0595629293442591 0.00551914559769195 0.0220034199262653 -0.04936107 0.04790194 0.9976317 105 105 105
0.0887104790686742 -0.0366857112748666 0.026580266883472 -0.03428448 0.08418109 0.9958605 124 124 124
-0.105366535854421 0.0117210088865713 0.0208483564163242 0.07900991 -0.002731692 0.9968701 88 88 88
0.0964798253058569 -0.113434857259516 0.00915563874492983 0.007294288 -0.9967545 0.08017015 185 185 185
0.104366235065378 -0.0361321033341928 0.026720322897533 0.002414958 0.04098958 0.9991567 137 137 137
-0.00129259414681038 -0.015814787278895 0.0239051955247913 -0.003597364 0.04492525 0.9989839 124 124 124
0.0221091430663244 0.0166039405958609 0.0226034896875415 -0.0007336518 0.04961096 0.9987683 119 119 119
-0.0590200502396449 0.00592553006577057 0.0217903482223545 -0.08399064 0.03330365 0.9959099 122 122 122
0.127972714233317 -0.0877564014298959 -0.0135321391319241 0.9111394 -0.1538427 0.3823055 141 141 141
-0.0771282989502772 -0.074263101945643 -0.00117153651466032 -0.3319785 -0.808344 0.4861792 106 106 106
-0.0624179918290003 -0.0856119455201669 -0.00782345957507749 -0.4920498 -0.7760633 0.3944779 106 106 106
0.0880083959578649 0.00797211514877838 0.0234948324466739 -0.02509668 0.0297235 0.999243 128 128 128
0.102299086379923 0.093888753523107 -0.0233240795825924 0.2713069 0.8847032 -0.3790684 88 88 88
0.0945141237258093 0.0357026992933707 0.0227411913181339 -0.007202667 0.05470179 0.9984767 112 112 112
-0.0731827694893702 -0.0809140266282602 -0.0129039657806363 -0.3084435 -0.8589274 0.4087863 92 92 92
-0.0867908675194605 -0.0442082942826791 0.0240788834596668 -0.02997511 0.008712086 0.9995127 121 121 121
0.0886074822425024 -0.114633327852015 -0.0148853433822598 -0.05963475 -0.9922717 0.1088148 79 79 79
0.0895997207640783 -0.115283137689356 -0.0169905794357266 -0.06129819 -0.9949132 0.07993881 69 69 69
-0.0310752470017298 0.061855906118627 0.0194442050958667 -0.002686821 0.07694595 0.9970316 111 111 111
-0.0657175857544764 -0.0296407998902841 0.0240181016231571 -0.02612393 0.1197044 0.9924658 123 123 123
0.0687019746779577 -0.0697420896394296 0.0282281117940937 -0.006735773 0.04174709 0.9991055 125 125 125
0.11206542663566 0.101289981474157 0.00364904873619418 0.4392472 0.877341 -0.1932218 76 76 76
0.123360685634531 -0.000363475213770448 0.0144936221147571 0.9812291 -0.1899474 0.03330788 58 58 58
-0.125228234005056 0.0138722597258047 -0.00234603113879819 -0.9590886 -0.2829321 -0.009921487 56 56 56
0.121940962600626 -0.0261340202195688 -0.00358960754623075 0.993493 0.1111332 -0.0249218 153 153 153
0.126319162177958 -0.0921574891908212 -0.00907083577861448 0.9736822 -0.01229669 0.2275779 134 134 134
-0.0652043301583155 0.0338414846556143 0.0203805940652881 -0.01746245 0.03478743 0.9992422 126 126 126
-0.0573892075539454 0.0657478510038809 0.0188555049205814 -0.07568426 0.09802017 0.9923024 127 127 127
0.0673212926863805 -0.0210977853639169 0.0259708689952884 -0.03053132 0.08707266 0.995734 196 196 196
0.124526850509562 -0.0724446834428354 0.00302041344890933 0.9870177 0.09770622 0.1274739 120 120 120
0.122069649028696 -0.0178861678941293 0.0168253856206928 0.9957186 -0.09220767 -0.006499874 123 123 123
-0.0950867611885889 -0.0530277551515146 0.0209610687995944 -0.2943289 -0.8743904 0.3857615 77 77 77
-0.0775266963959559 0.0158406435148672 0.0210592823530231 0.02331643 -0.07537711 0.9968824 112 112 112
0.0621495168685094 -0.11334765566421 -0.00464897579898496 -0.141987 -0.9897549 0.01499829 148 148 148
-0.0849304277420863 -0.0631904662950082 0.0144051241184268 -0.3380797 -0.8277345 0.4478366 88 88 88
0.0892954986571447 -0.0946991504533334 0.0297551231885944 -0.02320424 0.05468965 0.9982337 158 158 158
0.0262044589995519 -0.0803126157624765 0.0280634688640628 -0.01175974 0.06163543 0.9980295 137 137 137
-0.120856769752584 0.0580160556929068 0.0180787371898685 0.01136608 -0.01137612 0.9998707 93 93 93
0.0466341298102514 -0.0939003290040537 0.0289643334651981 -0.009573366 0.07109211 0.9974238 143 143 143
0.1233450692176 -0.102179891000514 0.00112784676800112 0.926034 -0.1080674 0.3616385 170 170 170
0.0291413586615697 0.0258291898863272 0.0223715233112369 -0.03016353 0.03865143 0.9987974 174 174 174
0.0119995396613256 -0.0878123105866953 0.0279133843685184 -0.01425881 0.03573768 0.9992595 89 89 89
0.0447954457282201 -0.0121339620454355 0.0245929288173709 -0.008124916 0.05765811 0.9983034 119 119 119
0.0682885568617956 -0.111526495347743 0.0247364419008289 -0.07382418 -0.9964905 0.03945537 116 116 116
0.0721420567511694 -0.0520211519105478 0.0272084998394046 -0.008214884 0.04679724 0.9988706 136 136 136
-0.0796884376526698 -0.0422345460755869 0.0241883175874744 -0.0345542 0.08569971 0.9957216 124 124 124
0.0283808033942358 -0.0603429139955087 0.026823483636478 -0.01932737 0.05898479 0.9980718 148 148 148
0.0302997153281347 -0.10427737845016 0.0158664809967075 -0.3880522 -0.868083 -0.3095924 69 69 69
-0.0178142268181666 0.013298982252355 0.0218880551363025 -0.02214818 0.04670054 0.9986634 104 104 104
-0.0113554079056605 0.0952942310469107 -0.0195135844444241 0.06797405 0.9636607 -0.2583363 33 33 33
0.0289346497534887 -0.100458091626887 -0.00119791156997343 -0.1422689 -0.9882052 -0.0566575 104 104 104
-0.0472068268776759 -0.0879311622483774 -0.00915387994994779 -0.03117262 -0.9731112 0.2282168 107 107 107
-0.051298804950796 -0.0858581127030893 -0.00129050738563199 -0.07038944 -0.9731892 0.2189708 62 62 62
0.0665490549086706 -0.094841247926478 0.0292173253799472 -0.0113344 0.04665856 0.9988466 163 163 163
0.108704916763224 -0.00224781645369965 0.0251527505422626 -0.01131462 0.02791778 0.9995462 133 133 133
0.00532536916724602 -0.0944091142518564 0.0249813126827274 -0.3873598 -0.9081494 0.1587987 65 65 65
0.0520633380889074 -0.0163694681031747 0.0249702262187992 -0.01401884 0.05910253 0.9981534 127 127 127
-0.125162668895803 0.0220662294523672 0.0198456870819126 -0.01371974 0.02933686 0.9994754 101 101 101
0.00266229324332634 -0.0100768865449472 0.0240278320814167 -0.02132278 0.03576742 0.9991326 120 120 120
0.0268830578803197 -0.105272716413264 0.0244875627065692 -0.4750532 -0.8412973 0.2579598 125 125 125
-0.0115894157410487 -0.0121839107377573 0.0236738997007404 -0.01813482 0.06488176 0.9977282 136 136 136
-0.0672855455399378 0.0559487281935171 0.0192913787866626 -0.04959484 0.004036351 0.9987612 131 131 131
-0.0145379979134425 -0.0912244380815073 -0.0182527673934903 -0.2254502 -0.9741547 -0.01396082 145 145 145
0.0449648421286718 0.0182994543211417 0.023053370645145 0.0005073147 0.05577738 0.9984431 121 121 121
0.0598795335768835 -0.111068195234065 0.0217376726175342 -0.06605633 -0.9881425 0.1386037 52 52 52
0.114031187820353 0.0221122442381338 0.0237959104085956 -0.03057256 0.03809614 0.9988063 152 152 152
-0.0776993114472254 -0.00211430204940277 0.0219019430185352 0.06999079 0.08204355 0.994168 123 123 123
0.0606049817084447 0.0978596149580435 -0.00462567038287778 0.04206831 0.970717 -0.2365139 120 120 120
-0.0434703309059962 -0.0218290151460214 0.0235623198057208 0.02839527 0.07152718 0.9970344 134 134 134
0.0341961305617468 -0.0140414298875375 0.0245843606496845 -0.007665342 0.06088223 0.9981155 131 131 131
-0.117348201942526 0.0258823572294669 0.019740410378078 -0.009945752 0.02348528 0.9996747 108 108 108
0.0431706827162878 0.0958396135466055 -0.0148778033946957 0.02648555 0.9576907 -0.2865784 85 85 85
-0.0049853999138697 0.0341391502516226 0.0211404638792072 -0.0295189 0.0845736 0.9959799 122 122 122
-0.0133678991318568 0.103541725744482 0.00888086133251528 0.01832712 0.955672 -0.2938626 40 40 40
-0.0579716045380457 -0.0407415689332529 0.0216269718910251 0.09570052 -0.04279817 0.9944897 159 159 159
0.125299088287272 -0.0901398719651743 -0.00479995436420103 0.9717765 -0.01583424 0.2353713 89 89 89
-0.112076469135366 -0.0301070274217172 -0.0210689229463543 -0.9510362 -0.3040382 -0.05559672 97 97 97
0.0767100375174657 -0.112112885843043 0.0147397892976795 -0.04797716 -0.9986604 0.01937704 142 142 142
0.131198696422495 -0.0781401456697031 -0.0192906183694806 0.8572955 0.165236 0.4875874 71 71 71
-0.0607798177719935 0.0235177217619376 0.0196182357574497 -0.05552704 -0.06196852 0.9965323 142 142 142
0.0668415349005834 0.0621894537107901 0.0209964590574298 -0.0161837 0.05358643 0.998432 109 109 109
0.00207721405021111 -0.0602519573075815 0.02647664420853 -0.01940704 0.0468821 0.9987119 149 149 149
0.0792249958991186 0.0597842870848135 0.0213288294578586 -0.01190981 0.05269969 0.9985394 202 202 202
0.128500096130289 -0.106238728891139 -0.0148906481956448 0.9642586 0.0244063 0.2638364 76 76 76
-0.11348057575234 -0.00141502035689789 0.0142805951143299 -0.4401962 -0.410448 0.7985986 128 128 128
0.102377108859934 0.0157546936171011 0.0241704659963642 -0.003320411 0.03741109 0.9992945 151 151 151
-0.0185163099289759 -0.0876500667436166 0.0126694517637287 -0.2559906 -0.9296678 0.2649274 133 133 133
-0.0753825385094508 0.0739260851042227 0.0181602465415988 -0.004126815 0.0385515 0.9992481 76 76 76
-0.113227852058493 0.0537666021482901 0.0184708016420398 -0.09961785 0.02681038 0.9946645 87 87 87
-0.0012458045006617 -0.0110901655061288 0.0240888076330219 -0.009003597 0.0304688 0.9994951 109 109 109
-0.0573241788864954 -0.0737437070710703 0.0205442088151966 -0.4005198 -0.8383855 0.3697209 117 117 117
-0.0963504988671168 -0.063367253671412 0.00875549786339144 -0.1292946 -0.7574191 0.6399994 105 105 105
-0.105243154239736 -0.0456576408250375 0.0163393693471942 -0.8657767 -0.04940399 0.4979859 170 170 170
-0.132529564571462 0.0850205360548453 -0.0269651783203091 -0.2100872 0.8975598 -0.3876207 13 13 13
-0.0908410627365931 -0.00216162813735443 0.0217635857368503 -0.0195725 0.03185975 0.9993007 160 160 160
0.0868695300101415 -0.0140868486268564 0.0256353395486865 -0.02293174 0.04736875 0.9986142 140 140 140
0.0933751981734411 -0.00841284407210785 0.025247715642551 0.0003031941 0.03517116 0.9993812 135 135 135
-0.0170185644150599 0.101918572057958 0.00504978769073824 0.00677453 0.9584959 -0.2850259 68 68 68
0.0707847397803442 0.0939094959394888 0.0192737656141315 -0.01724537 0.05133037 0.9985328 112 112 112
-0.0651559907914027 0.0299245058195547 0.0206071811224018 0.01386309 0.06884503 0.9975311 116 116 116
-0.116663225364767 -0.017788058648829 0.00239674024830203 -0.9563658 -0.2920832 0.00719703 108 108 108
-0.134887285900198 0.0978083549635367 0.0157341288829837 -0.02277951 0.04412077 0.9987665 92 92 92
0.0189004462241308 0.0359989343779044 0.0212547706867252 -0.02685396 0.06284243 0.9976621 127 127 127
0.0518293302535192 -0.109106367955927 -0.0128974688743557 -0.4407258 -0.8919515 0.1009122 70 70 70
0.121660105514445 -0.00608933580947357 0.0216180609966312 0.9318158 -0.1357848 0.3365736 82 82 82
0.0743651907920019 0.027782910932775 0.0229892807508502 -0.009978822 0.03562193 0.9993155 197 197 197
0.0974627655028478 -0.0276520313127084 0.0264966862703357 -0.01041892 0.04884843 0.9987519 106 106 106
-0.0568015653611048 -0.0334501327378793 0.0236945378089939 -0.008254165 0.0337841 0.9993951 111 111 111
-0.105664380264364 0.0969971357481436 -0.0149215532039609 0.03773443 0.9030901 -0.42779 18 18 18
0.0234430354117529 -0.0743739665849252 0.0275892841125522 -0.01886455 0.05197548 0.9984702 105 105 105
-0.0195694047928675 -0.0323678315980478 0.0246491508985553 -0.03081271 0.05394806 0.9980682 131 131 131
-0.0843219835282191 0.102465504278417 0.00621008150825839 0.03827199 0.9771731 -0.2089687 35 35 35
-0.0148188549996241 0.0201256214277701 0.0209399836565052 -0.04158856 0.0362556 0.9984768 124 124 124
0.125036649036326 -0.0521947206361337 -0.00314825005283018 0.9783577 0.07889356 0.1912901 58 58 58
0.115084282684244 -0.0104820789201303 0.0253578352237735 0.02659828 0.04956673 0.9984166 114 114 114
0.00422083549491326 -0.046087151895289 0.0257160442377124 -0.02850568 0.04035632 0.9987786 130 130 130
-0.136063225936972 0.0555938421385245 -0.0291238350366559 -0.9600911 -0.2795049 0.01010618 58 58 58
0.019768945503153 -0.00984633577895599 0.023817233970264 -0.01036791 0.03456055 0.9993488 178 178 178
-0.0957888442993983 -0.0712131322724863 -0.00401446945418973 -0.1667744 -0.8118163 0.5595897 72 72 72
-0.105071552467428 -0.0568884672029062 -0.0187908036207165 -0.9552275 -0.2957067 -0.009896786 90 90 90
-0.0314340669632777 -0.00912440432143646 0.0193802493120227 -0.02827941 0.06856307 0.9972459 134 134 134
0.0107358615874426 0.0658761201994376 0.0198399203325305 -0.001317144 0.01796509 0.9998378 119 119 119
0.0091328542708532 -0.0439547361238046 0.0256956743503604 0.003730265 0.06231254 0.9980497 123 123 123
-0.00315136499413093 0.033912414182897 0.021240689089397 -0.05235444 0.09092516 0.9944806 127 127 127
-0.0350713808060511 0.0014817653791861 0.0226028638387714 -0.02706321 0.01437425 0.9995304 177 177 177
-0.0648829419136866 0.104438775648351 0.00936008267650942 0.005078217 0.9676942 -0.2520756 110 110 110
-0.0536891300202235 -0.0743191303117319 0.0232239740396533 -0.4365864 -0.7593411 0.4824867 102 102 102
0.118037514018931 -0.0939651788575693 0.0290080981756244 0.8863983 -0.1259349 0.4454643 172 172 172
-0.120454259586416 -0.00122881544661957 -0.0215025318359341 -0.9589639 -0.2714726 -0.08179814 87 87 87
-0.0585332591057642 0.0312676368849234 0.0165913032794986 0.07972075 -0.06863247 0.9944517 132 132 132
0.0827944796561376 -0.0399240316255136 0.0265069680715595 -0.01118052 0.06623915 0.9977412 124 124 124
0.119507185745157 -0.104783481488947 0.00991893582592349 0.9340259 0.001960159 0.3571998 65 65 65
0.0512521188735143 0.0341596542494254 0.0221963899637256 -0.01801604 0.06606044 0.9976529 131 131 131
-0.125415452194296 0.103704446424718 0.0149628894830738 -0.02417456 0.6805994 0.7322568 56 56 56
0.120646051692881 0.0437254844801382 -0.016995303103825 0.9577921 0.1045421 -0.2677782 70 70 70
0.123313836383738 -0.0321868718965097 -0.0153556985353436 0.9767119 0.1772549 0.1208907 55 55 55
-0.0640561062813624 0.0196701227323965 0.0193699377084766 -0.2762713 0.2272662 0.9338223 128 128 128
0.121706954765238 -0.0574724735124155 0.011395655801395 0.9677452 0.1171768 0.2230221 60 60 60
0.0998964827536718 -0.115235990415339 -0.0109991652463879 0.05241474 -0.9985266 0.01404341 102 102 102
0.0690717022894994 -0.113521701226954 -0.00721595413436552 -0.04108596 -0.9978248 0.05155218 123 123 123
0.0829723399161474 -0.114156252275233 -0.00935129053344388 0.05766184 -0.993542 0.09772117 137 137 137
0.0386173646926061 0.00381564485001129 0.0234745072628055 -0.03117242 0.04986725 0.9982693 119 119 119
0.0936248224257604 -0.0765551389558359 0.0288192259574924 -0.01658913 0.05198643 0.99851 125 125 125
-0.083807178211294 0.0242726741926627 0.0175268130804096 0.05798363 -0.1394972 0.9885234 98 98 98
0.121613375472941 -0.0726150335176035 0.0189406203533206 0.9909725 -0.02481831 0.1317482 145 145 145
0.0884296219824926 0.00147044049667877 0.0247969406152759 -0.0412436 0.06375304 0.9971131 131 131 131
0.123937897014536 -0.0947315753800912 0.00262073450336794 0.9396707 -0.02030889 0.341477 74 74 74
0.11096554212562 -0.113508767019038 0.00683306925545077 -0.04758513 -0.9968562 0.06335171 149 149 149
0.0507060211180822 -0.110210544000392 0.00362988584289889 -0.3708481 -0.9138911 -0.1651508 95 95 95
-0.0690640289307459 -0.0407806695802255 0.0244162457490955 0.0141777 -0.02531233 0.9995791 87 87 87
-0.0187035281182154 0.0171464620726065 0.0221363382841144 -0.005366456 0.02754067 0.9996063 174 174 174
-0.133440144729696 0.0997112928526358 0.0157399999404941 -0.02207963 0.0505928 0.9984753 99 99 99
-0.0452293831826075 -0.0741477073533579 0.0263467656875644 -0.09181703 -0.04699621 0.9946663 114 114 114
0.0121399682044164 -0.0841870368821664 0.027767606308559 -0.001358419 0.05600413 0.9984296 119 119 119
0.0833436768530981 0.0679305730955557 0.0209739732051883 -0.01850326 0.04794015 0.9986788 186 186 186
-0.100422390174948 0.0449103056089835 0.0165818559433017 0.0567779 0.4362364 0.898039 88 88 88
-0.0911771137238367 0.0755752264158682 0.0176840352321659 -0.02880726 0.02675888 0.9992267 109 109 109
-0.138551600647055 0.0623913942472891 -0.0155925524925198 -0.9688221 -0.2476725 0.006487388 77 77 77
-0.0890210349083765 -0.0558056892259164 0.0241467135454212 -0.2781309 -0.4831509 0.8301858 68 68 68
-0.0833859521866663 0.0310069261686758 0.0195592569614444 -0.07476378 0.0856126 0.9935194 108 108 108
0.123616508769907 -0.066151267419581 0.00503816478500704 0.9876752 0.08648507 0.1304532 112 112 112
-0.0138359744072779 0.0223832069532828 0.0220848696733509 -0.02641376 0.05107995 0.9983452 128 128 128
-0.0174440819741114 0.0278366743223624 0.0214129167104755 -0.01645304 0.05679492 0.9982503 160 160 160
0.121543161201395 -0.0421319068772836 0.00887051992664675 0.9879767 -0.02971177 0.1517209 168 168 168
-0.0154005367279871 0.0359002290861563 0.0211176353002582 -0.01380085 0.1045259 0.9944264 169 169 169
0.0149949710845129 -0.0995129407746835 -0.0110354942773785 -0.07571504 -0.9949775 0.0654757 79 79 79
-0.0235710818291529 0.103105181326147 0.00601056986103396 0.02312788 0.9391315 -0.3427785 32 32 32
-0.0377603251458033 -0.0847420753343149 0.00696387164841036 -0.03113091 -0.9932351 0.1118699 96 96 96
0.00627785139075676 -0.0972954691751047 -0.000885776946445899 -0.2472941 -0.9679856 0.04300581 91 91 91
-0.00317413396843513 0.0175561844007925 0.0221578257585559 -0.01458443 0.02199537 0.9996517 120 120 120
-0.0332500416756495 -0.0542806447846933 0.0254790114666019 -0.02210055 0.06095596 0.9978958 140 140 140
0.0624692957877294 0.00573586808609527 0.0240394251848255 -0.04136128 -4.641221E-05 0.9991443 129 129 129
0.122549406814493 -0.0123180211885019 -0.0203000677322354 0.9849826 -0.01238123 0.1722089 151 151 151
0.0360253375052587 -0.0798057378633066 0.0280731248165164 -0.02053874 0.04895082 0.99859 108 108 108
-0.0434880930901392 -0.0864468873841806 -0.00298073119868894 -0.03207577 -0.9747555 0.2209588 75 75 75
-0.00721067972191414 0.0719733177320914 0.0193450378681217 -0.01019109 0.08055611 0.996698 107 107 107
-0.134916551780783 0.0516885458128409 0.0180253165269885 -0.06120478 -0.0489507 0.9969242 100 100 100
-0.0313897211075648 0.0719326673643546 0.01899053924332 -0.01113609 0.05114194 0.9986293 111 111 111
0.0549729388236181 -0.0262805284364267 0.0255620854402576 -0.02468513 0.06599411 0.9975146 187 187 187
0.0587094347952978 -0.0289120735032602 0.0260250943208728 -0.02234655 0.05449145 0.9982641 187 187 187
0.121484629440226 -0.0461163581712289 0.00871286564121584 0.9774615 -6.940326E-05 0.2111137 107 107 107
-0.0792672116280421 -0.072866207490687 -0.000180743405720191 -0.2810536 -0.8619685 0.4219233 85 85 85
-0.0692653138161524 -0.0666192830903574 0.0210832285190616 -0.4263162 -0.8631634 0.2705614 99 99 99
-0.041702755165182 -0.0442146123750253 0.0249395000244174 -0.03023121 0.06429774 0.9974728 134 134 134
0.125825635719217 0.00566577302383942 -0.0114200634454693 0.9978644 -0.002824364 -0.06525883 44 44 44
-0.0774886686325892 -0.0792112411363168 -0.0114327890371289 -0.2284868 -0.8676192 0.4416228 74 74 74
0.0189732831000463 -0.0996128977639719 -0.00911641843070646 -0.01334729 -0.9993344 0.03395091 93 93 93
0.107104234027781 -0.0283465446336313 0.0255987273956333 -0.006779063 0.05535794 0.9984435 117 117 117
0.0152172964095251 -0.0281010927064462 0.025057308604816 -0.0176516 0.05814034 0.9981524 132 132 132
0.0913548391341344 -0.11233801258636 0.0132923948074375 -0.08829144 -0.9946088 0.05438713 149 149 149
-0.0848836380959376 0.0424435077803091 0.0200684445405994 -0.0362594 0.03963241 0.9985562 104 104 104
0.108096472549357 -0.114804810415034 -0.0131121946071591 0.0007118918 -0.9999893 0.004573254 90 90 90
0.0351906936644689 -0.0803074897630258 0.0281680005098377 -0.02337775 0.03785656 0.9990097 110 110 110
-0.118394919109426 -0.0105260671479745 -0.0051640493368115 -0.960515 -0.2775456 0.01948 114 114 114
0.0163456123351232 -0.064193374047999 0.0268377887512241 -0.006782664 0.04142505 0.9991186 145 145 145
-0.0433056432724818 0.0598363815443472 0.0194202291275058 -0.01211882 0.1073166 0.9941511 127 127 127
-0.0973187167168482 -0.0598486722810312 0.0109456258321796 -0.3890189 -0.4509797 0.8032942 92 92 92
-0.101966925335012 -0.064741617570643 -0.0129295063709225 -0.9510995 -0.3069364 0.03463859 87 87 87
-0.0576089102745875 0.019739264120336 0.0211757945323978 -0.03588657 0.1191527 0.9922272 123 123 123
-0.0132222849846705 0.0318837104933218 0.0213365035558734 -0.007661144 0.04774604 0.9988301 124 124 124
0.0311188023566381 -0.100247746835475 -0.00314342207660337 -0.2207124 -0.9707077 -0.09493504 105 105 105
0.0761671584128515 0.0666476427214102 0.0213033931757007 -0.02566587 0.06304014 0.9976809 123 123 123
-0.0289668519020899 -0.0742989839417978 0.026572115948299 -0.01439795 0.06496857 0.9977834 131 131 131
-0.14628977365502 0.0909224687712149 0.0147073196674381 -0.7416013 -0.232772 0.6291618 107 107 107
-0.129019268226705 0.0291545330183463 -0.0175997240041699 -0.9682775 -0.2450862 0.04869694 52 52 52
0.0584286373137609 0.0819638906614737 0.019974015882114 -0.01382226 0.05028142 0.9986395 122 122 122
-0.0828242976189478 -0.0189514221055551 0.0232023077512775 0.006641769 0.1125999 0.9936182 117 117 117
0.0474297922133581 0.00461470471787018 0.0238298701549564 0.00259086 0.04573815 0.9989501 111 111 111
0.0711942832945959 -0.0500391782624765 0.0270311164165531 -0.01094848 0.05171155 0.998602 146 146 146
-0.0250921923638209 -0.080041533838038 0.0270911531950031 -0.08814449 -0.3263754 0.9411215 89 89 89
-0.0429945070267542 0.102816098798986 0.00273471348533968 0.007566902 0.9492297 -0.3144927 47 47 47
0.0580775659560339 0.0404326854841666 0.0219814705158267 -0.01347012 0.04864002 0.9987255 111 111 111
0.0321718972205297 0.0947744785444693 -0.0215309930538144 0.06671439 0.9477872 -0.3118471 104 104 104
0.0949119251250402 -0.0278767408235117 0.0261935370470081 -0.007704549 0.0301074 0.999517 131 131 131
-0.0913776237488612 -0.0617318214280649 0.0125012772584949 -0.3481573 -0.8062229 0.4783213 84 84 84
0.0271639149665014 -0.0440211356980844 0.0256256239915882 -0.02344123 0.05805179 0.9980384 130 130 130
-0.0967717248917445 0.0946779190199332 -0.0188436878417935 -0.04872835 0.881272 -0.4700907 20 20 20
-0.0153258521080836 -0.0120519460542245 0.0235744195486103 -0.007589697 0.05671273 0.9983617 124 124 124
-0.0213010985375269 -0.0766258300645395 0.0269785302187 -0.01530676 0.05785451 0.9982077 90 90 90
0.068809620666422 0.0635191141264395 0.0210150408054386 -0.0131846 0.05536169 0.9983793 112 112 112
0.0363607328414098 -0.107300049196009 0.0145082401538883 -0.3924196 -0.8902951 -0.2310442 46 46 46
0.000879041480936205 0.0261646448271231 0.0215107428337131 -0.006856444 0.04776547 0.998835 126 126 126
0.0103279870032446 -0.0222969116075082 0.024497770001987 -0.01873347 0.09085058 0.9956883 155 155 155
0.117588214206614 -0.100069528947596 0.0225027131343875 0.9978725 0.01025764 0.06438296 163 163 163
-0.0446091968537196 -0.085407859216456 0.00425865524063448 -0.00992546 -0.9764001 0.2157415 59 59 59
-0.12366033382424 0.0117442546980338 0.0104600714946781 -0.9587615 -0.2380069 0.1553355 103 103 103
-0.0758037645340784 -0.0809602798326059 -0.0162495595907177 -0.2715143 -0.8725241 0.4061794 74 74 74
0.0645442526816503 -0.0322763980729623 0.026220746567348 0.003175635 0.04235802 0.9990975 170 170 170
0.114873639869608 0.0962356268064932 0.0192695634866748 0.6669636 0.2422793 0.7045994 75 75 75
0.1208956759452 -0.0345941842896982 0.015599243571857 0.9796118 -0.07488386 0.1864222 128 128 128
-0.0948996026039942 -0.0520359338624521 0.0241809266115222 -0.2221798 -0.3339432 0.9160339 92 92 92
-0.0887332040787562 -0.0808939994676157 -0.0210153830741849 -0.1338784 -0.9052008 0.403346 67 67 67
0.0693650167464391 0.0797434984343008 0.0201336073185001 -0.01250436 0.06022782 0.9981064 99 99 99
0.02875518016807 -0.106758898626093 0.0234718846584354 -0.4561389 -0.8884627 0.05070807 68 68 68
-0.0120106417656763 0.0207818685667471 0.0219131933952365 -0.0170453 0.01353074 0.9997631 118 118 118
0.034418455886759 -0.0642882646424814 0.0272751378322635 -0.006141867 0.05321512 0.9985642 128 128 128
-0.022166975212179 -0.060197955499415 0.0256671088243518 -0.01789531 0.03256219 0.9993095 138 138 138
-0.0992055017472132 -0.0210599960191293 0.018319614460567 0.8502876 -0.5236431 0.0529983 128 128 128
-0.145255454254232 0.0959095893995718 0.0155757146383319 -0.1247927 0.02429585 0.9918853 82 82 82
0.126722685623087 -0.0761250318391367 -0.0110417378639187 0.9844381 0.03365605 0.172479 64 64 64
0.0463220994948522 0.0399827896254019 0.0217873530889545 -0.01384362 0.04882985 0.9987112 131 131 131
0.0983520071982519 -0.0705301822526498 0.0284979271198307 -0.0140528 0.0471706 0.998788 163 163 163
0.125685207176127 0.0188115774290518 0.00803300016174655 0.9969518 -0.06768294 -0.03880922 37 37 37
0.0768926065444128 0.0158694921629385 0.0236355590129886 -0.0179157 0.07653484 0.9969059 110 110 110
-0.0949229676247462 0.0259709297316031 0.0195378588939701 -0.1105269 0.03219841 0.9933515 176 176 176
-0.0591183382988795 -0.0886974395616098 -0.0149627102111783 -0.03937449 -0.9855866 0.1645254 107 107 107
0.0163522880553381 -0.0995334447724863 -0.00317903585185667 -0.09624705 -0.9910638 -0.09235305 99 99 99
-0.0851137716294154 -0.0782095254762216 -0.0127768290733304 -0.1626299 -0.9062461 0.3902174 64 64 64
-0.0890625197411402 -0.0723587335450693 -0.00513396389236112 -0.1533929 -0.8887939 0.4318749 99 99 99
-0.0987374860764368 -0.0740592540605112 -0.00834693736781736 -0.197207 -0.7952812 0.5732689 74 74 74
0.0988512557028906 -0.115281111131434 -0.00952295191039701 0.02175528 -0.9979089 0.06086425 185 185 185
0.00212406330100456 -0.0441225828034921 0.0261126982475315 -0.00724134 0.06901655 0.9975892 115 115 115
0.0524144094466344 0.0380514799253897 0.022142075231174 -0.01160121 0.04818164 0.9987712 123 123 123
0.10025530271522 0.0981411872999625 -0.00514266617049833 0.0001922217 0.9778813 -0.2091604 45 45 45
-0.0973801691056116 -0.028337603936915 0.0230037795806919 -0.003231995 0.09495001 0.9954768 122 122 122
0.00671075992576042 -0.0476753772599741 0.0261011796499286 0.006799265 0.0400045 0.9991764 118 118 118
0.125560395049967 0.0160374580519156 0.0109586047435794 0.9950179 -0.06740566 0.07345592 46 46 46
-0.0789864141465052 -0.035280472169642 0.0239744114185367 0.01172005 0.0995876 0.9949598 90 90 90
-0.116873808574758 -0.0141764940125986 0.00737216346512179 -0.9665428 -0.2545644 0.03149419 99 99 99
-0.107536502552114 0.0174992023603873 0.0205225276256595 -0.07777762 0.1188235 0.9898645 110 110 110
0.0366182249068395 0.0179083286421255 0.022915698816875 -0.02675572 0.06707674 0.997389 116 116 116
0.000907115268625414 -0.0419504703385873 0.0259625094438587 -0.01985473 0.06359852 0.9977781 134 134 134
0.0844357531546728 -0.0255185426576181 0.0261353480125461 -0.00734323 0.02628038 0.9996276 126 126 126
0.0109230797766821 -0.043436890969996 0.0259946959520374 -0.003526821 0.05404038 0.9985325 131 131 131
0.0908049266814367 -0.114887541661982 -0.0166225952600445 -0.07415885 -0.9948308 0.06936993 132 132 132
0.122422329711832 -0.11227685822082 0.00283771031151156 0.855691 -0.283059 0.4332097 67 67 67
-0.0930508453369959 0.0215113102095084 0.0197287427688632 -0.02992467 -0.08826108 0.9956478 186 186 186
0.0750344913481847 0.0198877988951163 0.0231481420303379 -0.007995099 0.0764217 0.9970436 186 186 186
0.00577472858420769 0.0946974693434195 -0.0171890331005063 -0.007153071 0.9748797 -0.2226171 37 37 37
0.0487714927672521 -0.110841399560694 0.028809897830585 0.07931791 -0.8137137 0.5758287 100 100 100
0.106449000167765 0.0477744279997305 0.0223280417228733 -0.01228878 0.05055217 0.9986458 142 142 142
-0.0533849079132899 -0.0134185613496347 0.0211032258773838 0.02077193 -0.004523069 0.999774 200 200 200
0.0766664069174902 0.0476727424757437 0.021830134322742 -0.01178084 0.04625219 0.9988603 200 200 200
0.0349533479689733 -0.0204665721757455 0.0249394404197727 -0.02503171 0.06217697 0.9977512 126 126 126
-0.0255251008988245 0.0123438774244742 0.021647490789989 -0.003510026 -0.001713433 0.9999924 147 147 147
0.0246900241850988 -0.0526192249162241 0.0264135079885517 -0.01617937 0.06369039 0.9978386 135 135 135
0.000242523479379808 -0.0948652089936777 -0.0125888807271924 -0.3442599 -0.9367377 -0.06330682 83 83 83
0.0784839313506261 0.0298198400633292 0.0228615479970966 -0.01718075 0.03429632 0.999264 152 152 152
-0.112310476970754 -0.0312105478150888 -0.00873302645434995 -0.9590951 -0.2830834 0.0006736285 134 134 134
0.0870879810332433 -0.112841612230067 0.00283891730556826 -0.02786677 -0.9961065 0.08363806 159 159 159
-0.0769972283364161 -0.0358208478791757 0.0240642058158908 -0.05955099 0.07571701 0.9953495 110 110 110
-0.00555170364388069 -0.092379933725123 0.00116924219379763 -0.3372412 -0.9382443 0.07723927 99 99 99
0.0204709690093176 0.0967032848494009 -0.0131080818866696 0.01388918 0.958993 -0.2830892 39 39 39
-0.0371721465111597 -0.0840854705674692 0.0134641753936801 -0.1197136 -0.978365 0.1687322 86 86 86
-0.0878557044983729 -0.0437120260102792 0.0238393472934757 0.08979551 -0.05362515 0.9945155 128 128 128
0.124842755126871 0.0540358959333853 0.0197106080556903 0.9111868 0.188019 0.366589 74 74 74
0.0665880363463537 0.00971030579971832 0.0237504916692768 -0.01132699 0.05104667 0.998632 138 138 138
-0.0450890142441615 -0.0849555791719003 0.00513202719936709 -0.02384443 -0.9755089 0.2186638 88 88 88
-0.0549200255394801 -0.0818706811769052 0.00887312762985568 -0.5097905 -0.7857791 0.3502355 192 192 192
0.0568373125075475 -0.0686692060334726 0.027676902940372 -0.01343025 0.05365238 0.9984694 146 146 146
-0.0692044574738367 0.00984334336685699 0.0214839803482089 -0.01623616 0.07306488 0.997195 124 124 124
0.121238879489817 -0.00557232512069183 0.00319194071541171 0.9599875 -0.2796833 0.01418933 61 61 61
-0.0972806889534815 0.00790678845810455 0.0210801737810169 -0.03576933 0.06553059 0.9972093 95 95 95
0.12360244207374 -0.0616537393434091 0.00298022501716952 0.9786652 0.036465 0.2021995 85 85 85
-0.0752888996125086 -0.0662711919648691 0.0135632234121356 -0.4565291 -0.7280418 0.5114062 94 94 94
0.0546241324423925 -0.0962960780961557 0.0293123053813968 -0.006482102 0.06494053 0.9978681 103 103 103
0.120692841339029 0.0257266698973135 0.0238532351757083 0.09568124 0.0567223 0.9937946 120 120 120
0.0885934751509801 -0.0481292070252939 0.0272974299694095 -0.008351053 0.05130626 0.998648 136 136 136
-0.0114567954064234 -0.0909967483384653 -0.00520781404723783 -0.1891642 -0.9800522 0.06094684 91 91 91
-0.136765309047781 0.0577686964170889 0.000841237833598657 -0.9591309 -0.2827068 -0.01202885 72 72 72
-0.109519012641989 0.0994934974806265 0.0161991196180377 0.01041631 0.02835962 0.9995435 107 107 107
-0.043017931652151 0.0200053392546133 0.0214175062681232 -0.01584896 0.07180151 0.997293 133 133 133
0.118461899089731 -0.105426794420008 0.0190848188901935 0.9926556 0.01730454 0.1197302 110 110 110
0.075527481365122 -0.0319728912217661 0.0255838858390842 -0.01779932 0.06346383 0.9978254 192 192 192
0.125895849990763 0.0197524963514761 -0.000208131739994483 0.9999278 -0.004937648 0.01095259 35 35 35
0.051595322418131 -0.0950592817170663 0.0292596446777378 -0.005791464 0.06942084 0.9975706 108 108 108
-0.0966781455994471 -0.0656925500733896 -0.00089461333503385 -0.3025806 -0.6473311 0.6995766 82 82 82
-0.019536622238241 -0.0888981880052133 -0.0005970669483151 -0.2063615 -0.970215 0.1268772 78 78 78
-0.0752888996125086 0.0317479311125235 0.0199205058122669 -0.05032264 0.05404302 0.9972697 98 98 98
-0.137315877151571 0.0879324613707022 0.016260482599834 -0.004262344 0.0548934 0.9984831 89 89 89
-0.00332856960304817 0.0192571817533926 0.0222267287279163 -0.0322534 0.01274787 0.9993984 112 112 112
-0.11535269804009 -0.0176087678773447 0.0127196984792743 -0.9397094 -0.1857187 0.2871495 107 107 107
0.0745290439604894 -0.0632269443376108 0.0279662089849506 -0.0307516 0.03676947 0.9988505 115 115 115
-0.0432128984452113 -0.0518343509538217 0.0251418875957523 -0.04908645 0.03851992 0.9980515 108 108 108
-0.111504383754812 0.00608813153671783 0.0209691154266391 -0.1280187 0.1032632 0.9863812 94 94 94
0.000797919559396898 0.0972149311201529 -0.0106920821165051 0.04850683 0.9597294 -0.2767065 21 21 21
0.00731920413962761 -0.0905121625764413 0.0279851185585056 -0.00379964 -0.03538763 0.9993665 161 161 161
0.031220189857401 -0.0739982189042612 0.0276997911239658 -0.008258086 0.04126953 0.9991139 116 116 116
0.013038627433695 0.0160214840071158 0.0225235449577365 -0.005701944 0.04284139 0.9990656 128 128 128
-0.0471717197419032 -0.08531392229629 0.00472288601646761 -0.01954723 -0.960814 0.2765038 74 74 74
-0.0773389417649134 0.0217436491148428 0.0210269766355548 -0.07128659 0.1212988 0.9900529 112 112 112
0.0685849707602636 0.028224223722692 0.0229463356042896 -0.002902661 0.06039023 0.9981706 118 118 118
-0.0214941579819544 -0.0842939676148935 0.0207173454071079 -0.2042435 -0.9743763 0.09420963 122 122 122
0.072641305255808 -0.113528317342524 -0.00673221773852964 -0.04733217 -0.9974872 0.05271511 155 155 155
0.0989136617659704 -0.112192279229884 0.0226267653013263 -0.02289502 -0.9995551 0.01911877 108 108 108
-0.1197990257264 -0.00224805487227875 0.00765774421940188 -0.9648024 -0.2569775 0.0558464 71 71 71
0.0195349376677648 -0.100975161920313 0.00685796909580569 0.09775846 -0.9901209 0.100518 99 99 99
0.00657974891654411 0.0942634283201651 0.0184974747205768 -0.02461767 0.07385571 0.9969651 91 91 91
0.104670457172312 -0.0237066806657358 0.0260450320745502 -0.02105081 0.04764628 0.9986424 141 141 141
0.0400816720008031 -0.102793640027766 -0.0153288466428723 -0.4254926 -0.9010836 -0.08369277 53 53 53
-0.11773968524941 -0.0079239667756601 -0.0263242495750393 -0.9545779 -0.2826199 -0.09437677 76 76 76
-0.120875485611044 -0.00209320200515228 -0.00731337792625089 -0.9653414 -0.2595292 0.02757946 100 100 100
0.0729962509154455 -0.0979303182466074 0.0295756536031757 -0.01399424 0.05025967 0.9986382 138 138 138
-0.0131606537819727 0.0201437412397818 0.0218432175422702 -0.0287302 0.02313445 0.9993194 114 114 114
0.121426097679056 -0.0225555957658334 -0.00705827004661222 0.9939488 0.1056191 0.03017159 101 101 101
-0.0972163755417689 -0.00410628927779633 0.0217141138816867 -0.03017936 -0.02503857 0.9992309 92 92 92
0.1225025575637 -0.0321615995271249 -0.005528069803616 0.9875602 0.118874 0.1029266 104 104 104
-0.0514035303116663 -0.0185629190309091 0.0232877361084018 -0.03900323 0.05334417 0.9978142 120 120 120
-0.129066117477499 0.0635482011930899 0.0181257056499515 0.001941894 0.06044474 0.9981697 83 83 83
0.119273118305124 -0.0580947460038705 0.0279199408794437 0.6204438 0.2696503 0.7364361 186 186 186
-0.0249049741745814 -0.0834565223557993 0.0265855269933734 -0.1418359 -0.7617377 0.6321695 122 122 122
-0.0852073509217127 -0.0139492811067148 0.0225442873741184 -0.06502445 0.08116719 0.9945772 100 100 100
0.0885700505255834 -0.0161513151032968 0.0253093468452487 -0.0161329 0.07691936 0.9969068 123 123 123
0.0611197870253698 0.0966515480177359 -0.00910269446124692 0.02793298 0.9718442 -0.2339629 132 132 132
-0.103324182701193 -0.0479601682527109 0.024103500177959 -0.06616107 -0.192454 0.9790731 92 92 92
0.055011979865946 0.0261776386396841 0.0226962792182956 -0.01408132 0.05944131 0.9981325 120 120 120
0.0889210622786657 -0.00402188910079437 0.0250462817455326 -0.01344846 0.06672644 0.9976807 108 108 108
-0.0341018516541346 -0.0332536758286996 0.0238524007106815 -0.03906431 0.09144133 0.9950439 157 157 157
0.00288849287024895 -0.0958502949578806 -0.0130949092601742 -0.3781975 -0.9254277 -0.02345811 101 101 101
-0.0949463922501429 -0.000530010591272889 0.0168980138803516 -0.1114736 -0.8671038 -0.4854943 146 146 146
0.0866510789870397 -0.101875966916804 0.0299871491695438 -0.01422661 0.05682034 0.998283 120 120 120
-0.0874890167237147 -0.00243068350387055 0.0220713841224704 -0.01194892 0.00778121 0.9998983 102 102 102
0.070897034931101 0.0276759802000479 0.0229904281402622 -0.004194402 0.05128095 0.9986755 187 187 187
-0.0821222145081385 -0.0490107597215219 0.0230661111379657 0.04005691 -0.1272317 0.9910638 172 172 172
0.118781678008951 0.0312917171614127 0.0235897975469623 -0.01673809 0.06170103 0.9979543 161 161 161
-0.0934174735070094 -0.0425133766038461 0.0242022352720294 -0.07575668 0.09134635 0.9929334 107 107 107
-0.0341018516541346 0.099427813162084 -0.00679955608596464 0.02431934 0.970982 -0.2379129 16 16 16
0.124000303077616 -0.110194987188105 -0.000368468234440283 0.9363315 -0.03085697 0.3497589 55 55 55
-0.0694072920800074 0.0316132246153311 0.0194591807628665 -0.01993815 0.03642412 0.9991375 119 119 119
0.106753222274698 -0.0644468129975839 0.0280898737216983 -0.02753101 0.05654284 0.9980205 162 162 162
-0.0272685367585047 -0.0284550250871225 0.0242628680969272 -0.0235918 0.06032291 0.9979001 129 129 129
-0.11986143178948 -0.0038811029298349 0.00965323322067599 -0.9618428 -0.26933 0.0481628 103 103 103
-0.0310596305847987 0.0338866649763541 0.0209635423923526 -0.03750245 0.02661116 0.9989421 102 102 102
0.118771068382181 -0.102372950444941 0.0108066128994022 0.9631441 -0.01191932 0.2687218 88 88 88
-0.0494300205231532 -0.0267020524842783 0.023798249890903 -0.02807244 0.07485459 0.9967992 112 112 112
-0.0936065990448817 0.0715869604246573 0.0181755649353061 0.003591425 0.02133483 0.9997659 175 175 175
-0.0551556427002772 -0.0519177974565073 0.0250098335052524 0.03496981 0.0688605 0.9970132 105 105 105
0.0530618350981847 -0.0921139778001352 0.0289241897369419 -0.01236124 0.05642761 0.9983302 109 109 109
0.0982115786551611 -0.0987783135278268 0.0299060719514881 -0.01352624 0.04930407 0.9986922 231 231 231
-0.0331189710617884 -0.0897797407014413 -0.0119747591709103 0.001028877 -0.9878529 0.1553887 48 48 48
0.124288908767618 0.0277073322431998 -0.0127179098819699 0.9806902 0.00865206 -0.1953763 39 39 39
0.0808058898924963 -0.00405848635268646 0.0247325825000797 -0.02307864 0.06583425 0.9975637 122 122 122
0.119975201415934 0.0771174369947867 0.0177636372352634 0.9168634 0.2663496 0.2973541 76 76 76
0.121956519412913 -0.0260787071092172 0.00452851526985507 0.9998978 0.0103041 -0.00990928 150 150 150
0.0940460484503881 0.0119188963072256 0.0236334132457767 -0.0279607 0.03515384 0.9989907 125 125 125
-0.097707815837942 -0.0195945562226816 0.0178693460727725 -0.4400838 -0.7484971 0.4960629 127 127 127
-0.0540401417733057 -0.0345110954148813 0.0234330820346866 0.08390827 0.03660178 0.995801 134 134 134
-0.0850614983559473 0.099887722601171 0.0165510105396305 0.003347283 0.1264353 0.9919692 100 100 100
-0.124362357330404 0.0129284797804312 -0.020646951863667 -0.9615277 -0.2747078 0.0003041676 83 83 83
-0.0971929509163721 -0.01287580145431 0.0185403751636539 0.3367383 0.1179009 0.9341877 116 116 116
-0.113284834098898 0.103772634138341 0.015691869189838 0.003734729 0.3159754 0.94876 89 89 89
0.000930539894022142 0.0297203003065543 0.0216012375856433 -0.02201802 0.05405553 0.9982951 136 136 136
-0.095163710784994 0.0977501808302359 0.0164222347045932 -0.04677977 0.06647547 0.9966909 113 113 113
0.0553629916190282 -0.102105862031703 0.0295794683004413 -0.02302868 0.05579071 0.9981769 79 79 79
