ply
format ascii 1.0
comment File exported by Rhinoceros Version 7.0
element vertex 474
property float x
property float y
property float z
property float nx
property float ny
property float nz
property uchar red
property uchar green
property uchar blue
end_header
-0.0271156291830743 0.0267984061708595 0.0245705515262451 0.09399371 0.5908382 0.8012961 151 151 151
0.0351022620332038 -0.0141038507947777 0.0273583054658737 0.1163625 -0.5587029 0.8211644 200 200 200
0.0137405533921515 -0.0186544270047997 0.0257236629840698 -0.08720668 -0.6984207 0.7103545 223 223 223
-0.0217309455740655 -0.0432662577161644 0.00210708082884212 0.07887913 -0.7317376 0.6770068 115 115 115
0.0599624652993476 -0.0211838097104882 -0.00749412475854497 0.94701 0.1749546 -0.2693751 103 103 103
0.056170477403382 0.0380225568285133 -0.0121125310543213 0.5951883 0.458468 0.6599683 124 124 124
0.0110761661660468 -0.0570648521909569 -0.0219238281133805 0.03481421 -0.8761146 0.4808442 86 86 86
0.0506665845048224 0.0327949910631324 -0.00533740519315343 0.5263146 0.4502774 0.7212789 76 76 76
0.0464549799096381 -0.0361134619245385 0.0044753819820251 0.0491611 -0.763483 0.643954 199 199 199
-0.0113226632940973 0.0651518493166114 -0.00311197637349706 -0.1612951 0.6156183 0.7713611 115 115 115
0.0472105283868109 0.0188441663255836 0.00643314124315639 0.4410457 0.5778291 0.6867257 121 121 121
0.00107879830716007 -0.0556171745786522 -0.0157258540275727 0.2040986 -0.8245777 0.5276508 119 119 119
0.0430545349252021 0.0512437015047218 -0.0111966013792191 0.4895478 0.3229544 0.8099651 119 119 119
0.0387513775956427 -0.0510034174451683 -0.0132024019840394 -0.1381878 -0.8160744 0.5611833 92 92 92
-0.0397563438284601 -0.0307334274778222 0.00927476288050075 -0.6499248 -0.5697581 0.5029647 128 128 128
-0.0385747413504327 -0.0346783012876366 0.00589087308615108 -0.6801844 -0.5524991 0.4817612 122 122 122
0.010149433149079 -0.0238022417554711 0.0190712630864944 -0.1656666 -0.6492087 0.7423494 164 164 164
0.0269468565118109 0.019396820591941 0.0172756284591522 0.3601815 0.5804007 0.7303453 138 138 138
-0.0473711948263849 0.0542313247194435 0.00753172935217281 0.08435811 0.4511418 0.8884564 158 158 158
-0.0620061616766656 0.0343652158250953 0.0195946812745895 0.1465679 0.3601221 0.9213197 154 154 154
0.00224877787945621 0.0421293168535377 0.0119100183364715 0.3066091 0.6168544 0.7249011 133 133 133
-0.0592954020369256 0.0373440175523903 0.0171074390527572 -0.07645521 0.5452083 0.8348069 66 66 66
-0.000763164030333829 -0.0320888371000145 0.012374353420433 -0.08269461 -0.6109632 0.7873281 123 123 123
0.0447868247163092 -0.0426007122526024 -0.00368872581750493 -0.05053182 -0.8050942 0.5909905 110 110 110
0.0472427148949897 0.0134460120668556 0.0111013472196426 0.4654461 0.5766779 0.6714183 115 115 115
-0.0267122845518792 0.0395155339708473 0.0152439445373382 0.002216293 0.5350226 0.8448348 161 161 161
-0.00938855217578061 0.0321127562990333 0.0215086907264556 0.02383448 0.5995612 0.799974 170 170 170
-0.0310751657355035 0.0284072547426368 0.0237030953285064 0.07663475 0.6184256 0.7820978 141 141 141
-0.0647092323172296 0.0418491750230934 0.0134511709329452 -0.09110332 0.6350286 0.7670977 111 111 111
-0.0535881380903924 -0.024170598460183 -0.0171532660606537 -0.807733 -0.5180886 0.2813389 81 81 81
-0.069178209768554 0.0348021178712989 0.0168826401349868 -0.6727999 0.02550719 0.7393847 131 131 131
-0.00483314798953183 -0.0552432150373314 -0.0138916104915772 0.1259148 -0.8411582 0.5259262 112 112 112
-0.0272914628851617 0.00280670218373791 0.0390792161342468 0.004633624 -0.2590563 0.9658511 168 168 168
0.0385570068490302 0.0101449876299049 0.0197502046939697 0.3027012 0.6167467 0.726633 164 164 164
-0.019075797067901 0.0143863349428321 0.0318335265037384 0.05042453 0.5880304 0.8072655 124 124 124
0.0305666465890204 0.0110117583742286 0.0205546438810195 0.301768 0.5159708 0.8016921 120 120 120
-0.0475333194601739 -0.0160015434751366 0.0047284931060638 -0.6064474 -0.6084276 0.5118958 69 69 69
0.00285275174496524 0.024534144925132 0.0222902119275894 0.1870113 0.5835844 0.7902253 140 140 140
0.0605880160462653 -0.0316677898893212 -0.00601099728376012 0.9082742 -0.1993242 -0.3678421 116 116 116
0.00667323066113346 0.0606654077043678 -0.00195484160215001 0.1203367 0.4533945 0.8831492 170 170 170
0.0621634860169684 -0.003068885279641 -0.00500992237359624 0.8899391 -0.3368022 -0.3075269 82 82 82
-0.0674083690512384 0.0455674319734718 0.011158031236824 -0.1772387 0.4463351 0.8771382 135 135 135
0.0170942683350837 0.0203684955110695 0.0219125270959701 0.2041483 0.5979009 0.7751374 166 166 166
-0.0550807576048578 0.0589527278413917 0.00460003019541164 -0.0267199 0.63899 0.7687508 145 145 145
-0.0551172952521051 -0.0203460068235253 -0.0139137685182724 -0.8104952 -0.5220432 0.2656472 84 84 84
-0.0347286920416559 0.0195320039262916 0.0312394768115844 0.1448708 0.486916 0.8613508 103 103 103
0.0389225621354377 0.0121302991380836 0.0178001940366592 0.3109606 0.6383497 0.7041401 134 134 134
0.0248152752053534 -0.0372546524534081 0.00624227226942439 0.03023579 -0.6932403 0.720072 110 110 110
0.0445435781609809 -0.0489739984998558 -0.009866657841507 0.08070015 -0.6930121 0.716395 114 114 114
-0.0373868207800592 0.0435177474489357 0.0108126074191894 -0.2555864 0.5876014 0.767724 101 101 101
0.0519691844117438 -0.0395404905805443 -0.0171894311788712 0.8438374 0.02089376 -0.5361921 43 43 43
-0.00716774271609433 0.0386083512773658 0.0160422593471374 0.07848345 0.5908377 0.802964 151 151 151
-0.00926499174716122 0.0445500998964454 0.0119549006339874 0.2200865 0.5674311 0.7934632 150 150 150
-0.0171845416891778 0.0154289393892433 0.0307985216495361 -0.03442863 0.464056 0.8851365 134 134 134
-0.0370904664862359 0.0629505305757667 0.000666525971588089 0.2128459 0.5544114 0.8045649 103 103 103
-0.0278243880140985 0.0698748021593238 -0.00453277229100804 0.1298123 0.5092002 0.8508019 107 107 107
0.0109911699425971 -0.0329386801252221 0.0118690699455108 -0.03274693 -0.5659066 0.8238187 204 204 204
-0.0332753519880975 0.0561353354921486 0.00567039550512691 -0.02440916 0.6859475 0.7272415 104 104 104
0.0146673460137641 0.0267438083162452 0.0182883411762085 0.3098232 0.5640451 0.7654166 174 174 174
-0.0421890478003228 -0.0382401556501244 -0.00329813658029179 -0.8575158 -0.3671724 0.3603487 65 65 65
0.0243519086968695 -0.0504721016416405 -0.0142909616115723 0.1425806 -0.776071 0.6143163 116 116 116
-0.0331145982611383 0.0442489772310402 0.0134712427970733 -0.2037379 0.5646412 0.7997945 156 156 156
-0.0208273987639154 -0.0158429951200341 0.0252080977079238 0.04489726 -0.6639124 0.7464613 200 200 200
-0.00924293802859433 0.0578426509370948 0.00362400413721461 0.1443402 0.5996629 0.7871279 136 136 136
0.0286844511163031 -0.0252729267606591 0.0170593679067459 -0.04172392 -0.6747081 0.7369044 109 109 109
-0.0170647363531793 0.0659422069063331 -0.00452141760617833 -0.0002849707 0.5599703 0.8285126 126 126 126
-0.0411431650984491 0.0399116664400245 0.0176804632064666 0.1375116 0.7980362 0.5867102 96 96 96
0.061148299707154 0.0113490014543678 0.00280795694559474 0.4009048 0.6885963 0.6042438 80 80 80
-0.0151818852293695 0.0106391101350929 0.034264606249031 0.07506232 0.5606008 0.8246771 111 111 111
-0.00325559185626156 0.0244905143251564 0.0258441239711608 0.3365405 0.5541916 0.7613226 139 139 139
0.0239812274110114 -1.92732343529123E-05 0.0353904932853546 0.3054224 0.6001387 0.7392907 75 75 75
0.0617928047311103 -0.0132821411619042 0.00938291550844569 0.8455276 -0.3623531 -0.3921521 115 115 115
-0.0573863248694146 0.0588882356157447 0.00475543440550227 -0.1774058 0.6800573 0.7113714 168 168 168
0.0178646583688056 -0.0312611670026635 0.0129641413804855 0.05997519 -0.6325469 0.7721965 118 118 118
0.00898559285519474 0.04454092078115 0.00801446737020869 0.1740495 0.544818 0.8202927 175 175 175
-0.0608863096106256 0.00605420164968029 0.0103753477451171 -0.7629478 -0.5758753 0.2937317 95 95 95
-0.0476105670798028 -0.0126969427594994 0.0116706460830535 -0.7804919 -0.5228747 0.3426872 53 53 53
0.0386980910432135 -0.0485674948224877 -0.0102088183048401 -0.09801589 -0.7282479 0.6782683 125 125 125
0.0372195382249152 0.0232962756624366 0.00852508546083827 0.3781851 0.5974117 0.70716 59 59 59
0.0507643957268988 -0.0294746965894555 0.0110617250320282 0.002103984 -0.6620931 0.7494187 148 148 148
0.0381605763566291 -0.0470591396818016 -0.00828862487107854 -0.09036293 -0.6927251 0.7155184 123 123 123
-0.0613217811453546 0.0465257554521705 0.0105375170823898 -0.1087751 0.5437453 0.8321713 81 81 81
-0.0635044436323846 0.0516478209962989 0.00735062063902278 -0.1073451 0.5521341 0.8268162 170 170 170
0.0307774086129462 -0.0173390717038964 0.0258317560073699 0.02899743 -0.6627207 0.748305 147 147 147
0.0640478868615424 -0.00498135991190418 0.00292312802046199 0.8867443 -0.326289 -0.3274447 75 75 75
0.0568363804948127 0.0147173791399147 0.00244171620577235 0.5017322 0.6060236 0.6172521 89 89 89
0.0626732249390876 0.0254506259431984 -0.0128710746648941 0.7938983 0.606275 0.04643298 72 72 72
-0.0271441202032769 0.0367521434297706 0.0180133104440536 0.0276137 0.6135799 0.7891496 159 159 159
0.0384849448334967 0.0139446645250465 0.0159351647016372 0.3377925 0.65269 0.6781534 117 117 117
-0.0651798109877313 0.050609150456443 0.00812180043428798 -0.05563377 0.5400041 0.8398217 151 151 151
0.059441163076142 -0.0357529730329369 0.00490878225534816 0.490274 -0.7456396 0.4512793 146 146 146
-0.0664237003195489 0.0198984532823707 0.0158376962062683 -0.8480283 -0.1414478 0.5107255 77 77 77
0.0351857085358893 -0.047415694666848 -0.00974397658139806 -0.1693777 -0.706296 0.6873552 109 109 109
0.0182551880013739 0.0222485452165748 0.0197814822313156 0.2536771 0.59927 0.7592913 149 149 149
0.0467793483865058 -0.0284006208906029 0.0136809915420379 0.241409 -0.6954329 0.676827 127 127 127
0.0602868337762152 0.0331412940492775 -0.0143589556100998 0.9482772 0.198628 0.2476231 122 122 122
-0.037144051061889 0.0562413125505592 0.00406758190363307 0.08143839 0.5475032 0.8328313 109 109 109
0.0543787617814337 -0.0239181131849144 0.0157042414066162 0.1628621 -0.5908107 0.7902016 174 174 174
-0.00521157787921078 0.0514152436723854 0.00526833237379451 0.119738 0.5555097 0.8228437 157 157 157
0.0581089396607672 0.0351361423006202 -0.0211863398435746 0.9227802 -0.06823228 -0.3792374 101 101 101
-0.021383450495025 -0.0133328051099633 0.0280348777887191 -0.01329959 -0.6444602 0.7645221 138 138 138
-0.0127831559050287 0.0154737620821144 0.0312652558204498 -0.06008887 0.4480514 0.8919861 145 145 145
0.0145540375840461 0.042324820088401 0.00772313476770778 0.2599044 0.5160516 0.8161743 146 146 146
-0.0100770454275811 0.0157646327486183 0.0312670290586319 -0.05454725 0.4335416 0.8994811 159 159 159
0.0328030724656379 0.0245533376207496 0.0102184981223907 0.4074658 0.5840162 0.702066 75 75 75
-0.0429737429487909 0.0332529931535865 0.0228777647134628 0.1813624 0.5702713 0.8011856 144 144 144
0.0567095418107306 -0.00917681164835438 0.0241899162647094 0.5184459 0.3737659 0.7690988 101 101 101
-0.0338714580404962 -0.051007232142434 -0.00912148057252507 -0.1911701 -0.9168054 0.350602 131 131 131
0.0411076088082587 -0.0397291988859032 0.000491333019432022 0.03513862 -0.8862061 0.4619567 118 118 118
-0.0669017295706476 0.0492656617632057 0.00908420683115382 -0.05769586 0.5388235 0.8404406 158 158 158
0.0224983830582892 -0.0543869347104882 -0.0177997231367264 0.1631183 -0.7660937 0.6216855 99 99 99
0.0351176996362006 -0.0326982349881981 0.0121579587575759 -0.05769671 -0.7137435 0.6980267 147 147 147
0.0560701031815802 -0.0209903330335472 -0.0135239392402802 0.8675761 0.0585617 -0.4938444 79 79 79
0.00680710269329898 0.0587602048387672 -0.00128297804624181 0.1136743 0.4395347 0.8910036 147 147 147
0.0447636981141364 0.054898062275901 -0.0138898521545563 0.5655633 0.4137875 0.7133849 134 134 134
0.0198571224343573 -0.034315428210244 0.00975753070085902 0.1579023 -0.6212077 0.7675728 112 112 112
0.0425089736115729 0.0062622218599464 0.020136964332756 0.5087485 0.5831894 0.633297 83 83 83
0.0138796110284125 0.0598930507173683 -0.00251129566461186 0.1971125 0.5124217 0.8358054 101 101 101
0.0369227070939337 0.0551234870424415 -0.0109832465532456 0.2561864 0.4379036 0.8617476 91 91 91
0.018624557985047 -0.0515633434781884 -0.014050561178032 0.1759049 -0.7825163 0.5972652 155 155 155
0.0463836927544867 0.0262378840913917 0.00177414418428798 0.5548885 0.5144853 0.6537611 118 118 118
-0.0132372836935724 0.00685624174977795 0.0367422372218933 0.00359132 0.6061415 0.7953487 118 118 118
0.0480768222939765 -0.00594743199442371 -0.024633783090416 0.7449456 -0.1192047 -0.6563888 53 53 53
-0.0623922805655206 0.0134026198854591 0.0184521794435348 -0.745481 -0.3643933 0.5581 109 109 109
0.0636926431786811 0.0024085431566383 -0.00651960371762852 0.897617 -0.3047555 -0.318446 125 125 125
0.0523051757943427 -0.0472930283079003 -0.0173692732933197 0.7668621 -0.3187141 -0.5570852 89 89 89
0.0239348549973761 -0.0249209017286156 0.0172025233623352 0.05753313 -0.6633551 0.7460898 124 124 124
-0.00525789068820126 -0.0570426792631005 -0.0163285910967026 0.1485974 -0.7816372 0.605774 152 152 152
0.0681874294411933 0.00719324641133801 -0.00177483557492833 0.9907029 -0.1170021 -0.06941448 174 174 174
0.0579467554223334 0.033303299473777 -0.0115556001547013 0.7032403 0.2355452 0.6707993 126 126 126
-0.0311047892439569 0.0167638450136329 0.0322710394975509 0.1086177 0.6045399 0.7891348 119 119 119
-0.0412313799727166 -0.026617845965371 0.0118791580316391 -0.6708437 -0.5005725 0.5471708 126 126 126
-0.0150815110075677 -0.0574786276349877 -0.015742945659462 -0.2754253 -0.7506127 0.600601 98 98 98
0.0592442293298041 -0.0254028648862694 -0.00961759983331303 0.8347405 -0.003232566 -0.550634 88 88 88
-0.0653115968573297 -0.00499542660807117 -0.0152885049465332 -0.9771353 -0.2109167 0.02684547 88 88 88
0.0229125161301886 0.00932327799703137 0.0266718387719955 0.4672299 0.5405897 0.6996134 129 129 129
-0.00145821379305966 -0.016039928866372 0.0250548392650451 -0.004319245 -0.7073052 0.7068951 199 199 199
0.0288095612656867 -0.0315062613019799 0.0127101659890975 -0.04763014 -0.6387288 0.7679563 158 158 158
0.0506717701089179 0.00055018954183117 0.0200780153390731 0.4345255 0.4659851 0.7707434 94 94 94
-0.0571187000143731 0.0609203963747169 0.00268448592394252 -0.1562234 0.7288325 0.6666314 146 146 146
-0.0248503546583856 0.0693486123552467 -0.00501574872762303 0.1284619 0.5528634 0.8233101 85 85 85
-0.0131192664969171 0.0285236030092384 0.0242873400565948 -0.06619447 0.6670298 0.7420846 119 119 119
0.0107904214989936 -0.0498145432004784 -0.0112136185053025 0.1645452 -0.8410249 0.5153659 111 111 111
-0.0392990569937433 0.040192046689048 0.0164163231965866 0.1418601 0.8426399 0.5194551 93 93 93
0.00137765599606388 0.00961939387227551 0.0332044929382171 0.2100975 0.5588977 0.8021798 123 123 123
0.0186832685601508 0.0493238358965065 0.00116823316782375 0.3878658 0.4973498 0.7760175 126 126 126
0.0129956145417487 0.0532508283128883 0.00111347140043636 0.1796778 0.4719649 0.8631136 130 130 130
-0.0322264294493402 -0.0321918339261864 0.0130248189088668 -0.1796505 -0.6565615 0.7325658 223 223 223
-0.0389861922133172 0.0145570426454689 0.0345571905490722 0.1164147 0.4932679 0.8620524 123 123 123
0.0386054058205878 0.000623980092063103 0.0279305994626846 0.3133911 0.5864134 0.7469307 118 118 118
-0.033060536848327 0.0711887269487526 -0.00476382969647984 0.08841956 0.5245296 0.8467885 163 163 163
0.0660790343415534 0.0159955411424781 -0.00420742033750157 0.6154976 0.5600416 0.5545413 143 143 143
-0.051132247911712 -0.0293294996747826 -0.0228600233677063 -0.8067334 -0.5800105 0.1130007 83 83 83
-0.0089533190596307 0.054901519345298 0.00473054946630855 0.2375464 0.5324318 0.812458 115 115 115
0.0104043026101386 -0.0259366840848778 0.0170714676496353 -0.1204379 -0.6556609 0.7453882 116 116 116
-0.0418646793234552 -0.0397400469312523 -0.00416599510938268 -0.8596042 -0.389417 0.3308095 78 78 78
-0.0547002415526117 0.00712315134908215 0.0226307779666748 -0.6183203 -0.4894312 0.6149285 105 105 105
0.00907011224148624 0.0548738627901222 0.000930961978134109 0.07942701 0.5256407 0.8469907 124 124 124
0.0543208260667121 -0.033210954142556 -0.0153463512542878 0.8662502 -0.1739716 -0.4683422 99 99 99
-0.0557660322058404 0.00825850062276379 0.022047963750061 -0.6154141 -0.488667 0.6184416 110 110 110
-0.0151058297026361 0.0527301221361305 0.00820624531477351 0.07242236 0.6472441 0.7588347 140 140 140
0.0191435356271064 0.0294016986360695 0.0131995350238647 0.2964202 0.49581 0.8162766 111 111 111
0.00283379746792667 0.0594547181596901 -0.00095376669198613 0.2007187 0.4725326 0.8581521 127 127 127
0.0420992512833869 0.0102452426424171 0.0178335726377334 0.4560304 0.5262945 0.7176701 134 134 134
-0.0493714074957574 0.063972392605796 -0.000887531030479477 -0.038923 0.6342803 0.7721227 80 80 80
0.0293955941331183 0.0372637897005226 0.00288270117014308 0.3895759 0.4322569 0.8132555 114 114 114
0.0443883676659858 0.0283450274934913 0.00199408532350917 0.4995058 0.587469 0.63669 85 85 85
-0.0254148106444085 0.016259351300254 0.0320419937488403 0.19419 0.6378688 0.7452607 117 117 117
0.00670416547177188 0.018678465413108 0.026159462344345 0.2740175 0.5980837 0.7531336 97 97 97
0.0604200501572882 -0.0170410484800194 0.00671545864313502 0.9675997 -0.006829383 -0.252397 111 111 111
0.0269236107003485 -0.0335411638746117 0.0103785067912902 -0.04739362 -0.728012 0.6839242 116 116 116
-0.0651004772055352 0.0493646054735328 0.00899468065470119 -0.04856098 0.539498 0.8405854 130 130 130
0.000778808130005526 0.0148011832704689 0.0305271268007125 0.2102195 0.5142818 0.8314577 134 134 134
-0.0192518691885675 0.0257100253572609 0.0250807672855224 -0.08369895 0.6577901 0.7485363 114 114 114
0.0654534835946357 -0.0103022665510033 0.0162286281701889 0.9385756 -0.229312 0.2578603 116 116 116
-0.00326536701800473 0.0455515771379615 0.00876566470831294 0.08775761 0.6215045 0.7784798 121 121 121
0.0505790848862921 -0.0509821981916283 -0.0133958786609803 0.3742172 -0.8188719 0.4352129 113 113 113
0.0330943007600104 -0.00272043652628406 0.0329257369157638 0.280177 0.6024602 0.747357 127 127 127
0.044914259446839 0.0145357041826393 0.0121014982578125 0.4524889 0.5783886 0.6787639 99 99 99
0.0508570809495246 -0.0275749773511742 -0.0203162610414658 0.6044695 -0.1846969 -0.7749217 91 91 91
-0.0428609709608758 -0.0253024906644677 0.0103951066848602 -0.7979146 -0.4288031 0.4236275 91 91 91
-0.00158177422167904 -0.0349790663251732 0.00987694860666652 -0.08203906 -0.6524044 0.7534177 154 154 154
0.0508372326028144 0.00503865771199719 -0.023991379130188 0.744376 -0.02363206 -0.6673424 81 81 81
-0.0226345519888604 -0.0193602652082299 0.0228623718139495 0.03014185 -0.6142071 0.788569 229 229 229
0.0666118998658454 -0.00653501458261951 0.00871456862657924 0.8698238 -0.3840584 -0.3096864 79 79 79
0.042961134446839 0.0330095677843238 -0.00136173068315129 0.4324642 0.5065011 0.7459432 81 81 81
-0.0112354616987909 0.00161782793904797 0.0394786417600479 -0.09961023 0.03186863 0.9945161 161 161 161
0.0528727908265387 -0.00108607716654285 -0.0199070304515992 0.7564703 -0.1561232 -0.6351206 50 50 50
0.00117726518032901 0.0452552228441383 0.00887843669622798 0.2267972 0.5822759 0.7807162 127 127 127
-0.0109497170317376 0.0371985822191383 0.0170269280788269 0.08962318 0.5648212 0.8203321 144 144 144
-0.034944937692901 0.0299406438341285 0.0235035240766372 0.1791934 0.6417054 0.7457237 99 99 99
-0.0261562328207696 0.03164128355886 0.0212397843715515 0.1102498 0.5645773 0.8179838 161 161 161
-0.0349974493849481 0.0234961896410133 0.0291971236583557 0.1034704 0.5449787 0.832041 136 136 136
-0.0359334807265008 -0.0339485020170067 0.009650525462326 -0.4580743 -0.6639746 0.5910209 86 86 86
-0.0494640927183831 -0.0194331020841454 -0.00405368505746465 -0.7321355 -0.5754405 0.3644801 54 54 54
-0.0490702252257074 0.0551666408052589 0.00705603958338161 0.03151794 0.4921654 0.8699309 130 130 130
0.054811253083924 0.0394940762987281 -0.0129006981733475 0.4959343 0.4927103 0.7150425 142 142 142
0.0613757510316169 0.00779716067220226 -0.0113046944025193 0.7501698 -0.1959224 -0.6315534 70 70 70
0.0477293272149359 -0.022865495158181 0.0184702694532241 0.1606805 -0.6371409 0.7538125 207 207 207
-0.0604461293089593 0.00363282256032482 0.00572567881315608 -0.851338 -0.456818 0.2579553 74 74 74
-0.0413086275923455 0.00227598242665783 0.0361961096641387 -0.57458 -0.387407 0.7209533 162 162 162
0.0597539086472785 0.0307103782167579 -0.0181980758789216 0.8763986 -0.09616315 -0.4718879 85 85 85
-0.025461123453399 -0.0140508026609276 0.0268980085965957 -0.04720138 -0.6211371 0.7822791 152 152 152
0.0571937699448859 -0.037988147212014 0.000646722328361465 0.3881551 -0.8475951 0.3618262 141 141 141
-0.0427015285361017 0.0110868602266456 0.037725162517723 -0.01640045 0.4978652 0.8670993 163 163 163
0.0273226637971198 0.00947681956197277 0.0229849487659301 0.4627749 0.5298837 0.7106776 116 116 116
0.0584829588067328 0.000754514264121209 -0.0134383767727051 0.8092858 -0.1912317 -0.555416 51 51 51
-0.0285658101904596 0.0575371175279762 0.0032389432308044 0.04084289 0.6439685 0.763961 117 117 117
-0.0566310148108209 0.00685373835469738 0.0205162882921066 -0.6418517 -0.5234651 0.5603665 99 99 99
0.0163355012070929 0.0420384793749 0.00743719638555904 0.2569947 0.5040641 0.8245441 152 152 152
0.0393537421357428 -0.0408315271863793 -0.0017170190694962 0.03501426 -0.8712522 0.489585 115 115 115
-0.0209932784903253 0.0109770684709694 0.0345783501979675 0.2080954 0.6418284 0.7380736 111 111 111
-0.0588301281798089 0.0585405021181251 0.00449309946268459 -0.306352 0.6697581 0.6764411 140 140 140
0.0653144855630194 0.00538686804677502 0.00523751677244563 0.7731598 0.4542336 0.4426011 127 127 127
0.0226798792016303 0.0308484225740577 0.0118148744222488 0.4215113 0.442984 0.7912606 161 161 161
0.00879402352688663 0.008161583470359 0.0338978886720504 0.1661116 0.6066547 0.7774169 121 121 121
0.0028048892152106 -0.0370903820524071 0.00828404427736659 -0.03999679 -0.6870933 0.7254674 123 123 123
-0.035099373327514 0.0565778403749611 0.00398379267424007 -0.01983631 0.6420493 0.7664067 98 98 98
-0.00555913256289609 -0.0520217031965111 -0.00732127128869633 0.08831601 -0.8472831 0.5237477 128 128 128
-0.0366749029028619 -0.00374241776560291 0.0343456983682479 -0.1944414 -0.5723033 0.7966564 157 157 157
-0.0251499872076715 0.0503430753221656 0.00981495977610011 -0.07712592 0.5230907 0.8487802 143 143 143
0.0109371681344306 -0.00100620694254383 0.0395493328687515 0.1701112 0.2262218 0.9591068 172 172 172
-0.0529886345732415 0.03282217078115 0.0223309368011322 -0.5335453 0.2321327 0.813292 137 137 137
0.0354729433190619 -0.0525780529508446 -0.0161732166889344 -0.09870981 -0.8515314 0.5149278 92 92 92
0.0110807557236945 0.0672011762132789 -0.0068400978925858 0.134167 0.5229439 0.8417416 158 158 158
-0.0181397657263482 0.0237737088670875 0.0273390680667724 -0.108175 0.6084232 0.7862056 150 150 150
-0.0303729634154046 0.0576066165437843 0.00318941177099605 0.04885091 0.6598012 0.7498506 120 120 120
0.0589352984559333 0.0249561458101417 -0.00760905741483311 0.4891071 0.6941298 0.5281648 73 73 73
-0.0234685997832025 -0.00611504025553211 0.0326728791114654 0.008319455 -0.5537133 0.8326658 225 225 225
0.0584641833436286 -0.00754233307932362 -0.00997224746972661 0.924503 -0.137034 -0.3556907 53 53 53
-0.0426756005156244 0.0462394147386695 0.00975916982859035 0.09132506 0.3990428 0.9123731 121 121 121
0.0546372671258246 0.024609485196128 -0.00351049302846532 0.530254 0.4021648 0.7463874 120 120 120
-0.0491372804510797 0.0409264951219703 0.0184276372310485 -0.03009138 0.735754 0.6765801 134 134 134
-0.016935036646148 0.0575155406465675 0.00294401944845576 0.08818787 0.7233962 0.684778 89 89 89
-0.024627075659057 -0.052058896494851 -0.0129881977918778 -0.1101397 -0.9571483 0.2678365 90 90 90
-0.0185105066168512 -0.0333122820386742 0.0109693229314651 0.09767672 -0.6311202 0.7695106 219 219 219
0.0607819695603644 0.00863067202474133 0.00644509197443385 0.3659256 0.6756061 0.6400428 111 111 111
-0.0559050302374566 -0.00557025380228504 0.00503821374147792 -0.7894876 -0.5018212 0.3533905 104 104 104
-0.0592413406241143 -0.00462087102030262 -0.00163448153764348 -0.8215992 -0.476647 0.3127018 84 84 84
-0.0111273388731683 -0.0510773272046898 -0.00515389739305119 0.009790174 -0.8035491 0.595158 127 127 127
0.0269959111344611 0.0286265998354103 0.00983379484384914 0.3789524 0.5370549 0.7536359 120 120 120
-0.000438795553466154 0.0675563006868507 -0.00499214528829198 0.1146348 0.6629602 0.7398261 153 153 153
-0.0191252093184198 0.0328241973390724 0.020845633756813 0.01635747 0.5467094 0.8371627 154 154 154
-0.0361651639807428 -0.0250041098127221 0.0175194710609283 -0.4498347 -0.5506799 0.7031361 136 136 136
-0.0051652650702203 -0.0151309580335472 0.0263350129243698 -0.05432999 -0.6313462 0.7735956 214 214 214
0.0328822870385443 -0.0411289543638085 0.000633937132057144 0.1995365 -0.8675491 0.4555697 206 206 206
0.0317659516465461 -0.0247132391462181 0.0184764981386032 -0.08533923 -0.6766025 0.7313865 151 151 151
0.0314614315163886 0.0195430903902198 0.0150064647313919 0.4181718 0.558507 0.7163813 115 115 115
0.0267635126244818 0.056703367756858 -0.00591408013135533 0.4077446 0.4406313 0.7997427 110 110 110
0.0153287191521918 0.0294139771928932 0.0149642944452133 0.3861115 0.5671563 0.7274968 93 93 93
0.038563682569245 0.0584746985902931 -0.0124803960207139 0.2925332 0.3783964 0.878203 139 139 139
0.0137405533921515 -0.0456989616880272 -0.00430700479776006 0.1557435 -0.8969135 0.4138722 96 96 96
0.064415528310517 -0.00118907399271473 0.0138505220529403 0.4259796 0.5652481 0.7064247 113 113 113
-0.0173057179320062 0.0557200103273536 0.00504301191538234 0.110555 0.7282401 0.676346 163 163 163
0.0322756905686652 0.0740300803651954 -0.0201088964822922 0.4812903 0.7495146 0.454519 78 78 78
-0.00955574320437558 0.0400710492601539 0.0154828697559204 0.1350085 0.5494849 0.8245235 139 139 139
-0.0319947461950982 0.0222508101930763 0.0294631540891494 0.2425583 0.4950654 0.8343115 137 137 137
0.0307765145432746 -0.002977332545266 0.0344069570419158 0.2664392 0.4774613 0.8372818 169 169 169
0.000571980012634921 0.00430540137197033 0.0379185050842132 0.1665433 0.5234798 0.8356029 129 129 129
-0.0437182049620355 -0.0265026897916649 0.0063199967262115 -0.8890894 -0.3547463 0.2892665 77 77 77
0.0630323429238593 -0.00950714058969959 0.00636785925596614 0.7955478 -0.5121939 -0.323668 101 101 101
0.0438600916993415 0.0420958190431739 -0.00633496342927556 0.4893281 0.4522067 0.7456991 123 123 123
0.0540080804955756 -0.0164858908185814 -0.0174570262315903 0.8254808 0.007493455 -0.5643805 92 92 92
-0.035504863725921 -0.0447185844907616 0.000218537461456253 -0.2708765 -0.6721442 0.6890922 130 130 130
-0.00321208046557553 0.0371109633913185 0.016951990139183 0.1709079 0.5877112 0.7908135 152 152 152
0.0224211950433051 0.0205566077699806 0.0199343234416809 0.4102165 0.6049721 0.682445 151 151 151
-0.0476569394934381 -0.0264629930982445 -0.00867627857953648 -0.6752669 -0.3924231 0.6245148 78 78 78
0.0545023222100531 0.0132767348756935 -0.02026638685495 0.6332009 -0.1322488 -0.7626053 74 74 74
0.02501918269513 0.0171517520418312 0.0205426037427749 0.4981551 0.4535668 0.7389985 143 143 143
0.0360289950501715 0.0379006057253028 -0.000288236129585312 0.3479037 0.435596 0.8301922 151 151 151
-0.0216614465582574 -0.0394193739423607 0.00616536737650294 0.07488794 -0.7189167 0.6910504 225 225 225
-0.0466838340628351 0.0533754020204689 0.00709260703295131 0.09474538 0.4325683 0.8966091 147 147 147
-0.0447208146918023 0.0144378333559181 0.0357599228736724 -0.189555 0.4029295 0.8953863 129 129 129
0.0442153949868476 0.0562428622713234 -0.014117363083664 0.5828981 0.459091 0.6704217 103 103 103
0.036214365495423 0.0682889609804298 -0.0164326310041581 0.4338118 0.5089102 0.7435172 110 110 110
-0.00871007250430234 -0.0365963787565087 0.00805800856321712 0.04225907 -0.5825245 0.8117139 142 142 142
-0.0523833494055475 -0.0264663309583519 -0.0186026275041733 -0.8002751 -0.5681647 0.1916991 69 69 69
-0.0390164117682184 0.0445332913866188 0.00993920565813441 -0.1249434 0.5188143 0.8457073 119 119 119
0.0544559497964179 -0.00555451817606434 -0.0174394875648652 0.7561172 -0.0959787 -0.64736 73 73 73
-0.00326536701800473 -0.0435921759137963 0.00199337006777187 0.07708021 -0.7215955 0.6880106 209 209 209
0.049130990041474 0.00239066176320568 -0.0255876213195954 0.7343793 -0.09228735 -0.6724359 67 67 67
-0.0330895047056878 0.0167360692491676 0.0326695114490356 0.1215093 0.5627774 0.817629 116 116 116
-0.0230870108473504 0.0224874406328346 0.0277149051544036 -0.06718555 0.5547261 0.829316 142 142 142
-0.0086508254873956 0.0453012376299049 0.0110824972507324 0.2528634 0.5780711 0.7758182 172 172 172
0.050741269124726 -0.0359096140394066 0.00505393446653743 -0.02956818 -0.774458 0.6319339 171 171 171
-0.054144189821502 0.0324099450578834 0.021085855376419 -0.5320126 0.1695341 0.8295907 124 124 124
0.0386934418809211 -0.0211021513471459 0.0216260820743408 0.09783182 -0.655529 0.7488062 139 139 139
0.0593832273614203 0.0234200149049903 -0.00706933735639195 0.4680942 0.6594715 0.5882051 44 44 44
0.0467595000397956 0.000713387059226189 0.0222101330873336 0.4929478 0.518126 0.698962 131 131 131
0.0165084738862311 0.0507486253252174 0.00181880296438594 0.3070566 0.4803025 0.8215995 153 153 153
-0.00737850474002011 0.00728134207631603 0.0369715809938278 -0.0044737 0.625546 0.7801745 118 118 118
0.0366823811661994 0.0706805377473976 -0.0196599841001664 0.4669426 0.6381199 0.6121826 70 70 70
-0.0457802276480401 -0.00921722359751209 0.0185910284635391 -0.8106734 -0.3975253 0.4298633 72 72 72
-0.0431673388350213 0.0523595004549171 0.00750724674433131 0.1406732 0.3444976 0.9281877 128 128 128
-0.0525995950567926 -0.0256270975599144 -0.0171967327478562 -0.8265092 -0.520814 0.2136241 64 64 64
-0.037277267442962 -0.0489785284528588 -0.0249846160295639 -0.7871407 -0.6043591 -0.1231242 29 29 29
0.00285120202420108 -0.0528660625943993 -0.0117518782499466 0.1867578 -0.8936749 0.4080034 105 105 105
0.0496754784714972 -0.012995323611245 -0.0223675697925721 0.7390876 -0.04497845 -0.672106 77 77 77
-0.00586031483294613 -0.0226710648069237 0.0198593706008758 0.05071136 -0.641299 0.7656134 213 213 213
0.00695057107327335 0.015166559742942 0.0290369361755218 0.2187321 0.6111143 0.7607204 128 128 128
0.0390178103577887 -0.0525196403989647 -0.0160731702926789 -0.1096572 -0.8706439 0.4795357 102 102 102
-0.0127414922583307 -0.0627861828336571 -0.0257457077387009 0.03798343 -0.9282148 0.3701007 76 76 76
-0.0273147086966241 -0.0520757050046776 -0.0132467031362687 0.01883622 -0.98315 0.1818276 84 84 84
0.0308365960252082 0.00675097994710461 0.0240348994848098 0.2672386 0.6591647 0.702912 84 84 84
0.0046931047570502 -0.0553589672574852 -0.017258676874939 0.2288514 -0.8171821 0.5289995 109 109 109
-0.037010834680816 0.00861684374715344 0.0380379229900207 0.01619444 0.5144439 0.8573711 145 145 145
0.0554213662278449 0.0013399510851051 0.015151065599617 0.5154788 0.4851208 0.7063564 120 120 120
-0.0502518277037347 0.0435430198183204 0.0126762062427368 0.1903837 0.793427 0.5781243 113 113 113
-0.0307436447012628 -0.0526510090360497 -0.0153793126228486 0.02279824 -0.9648643 0.2617579 66 66 66
0.0257883806359565 0.033003964947715 0.00694641174047847 0.492074 0.5151218 0.7017925 60 60 60
0.0418675680291449 -0.0402425140867089 7.20888492431182E-05 0.02742437 -0.8788371 0.4763331 105 105 105
-0.0519199828970636 -0.0151619524488305 -0.00320381222993474 -0.7620142 -0.5523186 0.338051 68 68 68
0.00442667199490421 -0.025251707507119 0.0162688017007675 -0.04080917 -0.6055871 0.794732 151 151 151
-0.0153479437697137 0.0641550212373878 -0.0024387866142426 -0.07365115 0.5933595 0.801561 136 136 136
-0.0290291170942987 -0.0415255636701439 0.00491825939386745 -0.09688864 -0.7249404 0.6819633 163 163 163
0.0370124120843207 0.0209947019090797 0.0105152994510498 0.4123157 0.5862802 0.6973316 125 125 125
0.0587808628213202 -0.0172553867826317 -0.00791986583501439 0.9672567 0.11347 -0.2270221 77 77 77
0.0147864956986701 -0.0412807077894066 0.00430500210493465 0.05010546 -0.8181462 0.572823 190 190 190
0.0525808472764289 0.0246565728655006 -0.00211745797425847 0.5071422 0.4029229 0.7618793 135 135 135
0.0124431390893256 -0.0557055086622094 -0.0192296832683716 0.00569014 -0.8524997 0.5226967 157 157 157
-0.0329678516257013 0.0022867112627174 0.0386943340417709 -0.05307284 -0.3416648 0.9383221 165 165 165
0.0602173347604071 0.0292897611131813 -0.0176900952938233 0.8659126 -0.06183995 -0.4963579 109 109 109
0.0433967251908576 -0.0417856783399437 -0.00321229099065404 -0.04635098 -0.8134048 0.5798485 138 138 138
0.0250411768090522 0.0530431657304908 -0.00304073392182927 0.3042362 0.4340538 0.8479608 115 115 115
0.0431001324784552 0.0468385606279518 -0.00958892999917607 0.5341116 0.3673084 0.7614521 100 100 100
-0.0659372072088922 0.022272387074485 0.0170535266515579 -0.8392332 -0.1128432 0.5319343 126 126 126
-0.0153131942618097 -0.0230718464383934 0.0191275149700012 0.001711611 -0.5913765 0.8063937 140 140 140
-0.00139330433489926 0.0447677760591652 0.0105264008161392 0.08698765 0.6942455 0.7144623 155 155 155
0.0370600361954962 0.0417162566652443 -0.00275905727178197 0.4279335 0.4067808 0.807095 103 103 103
0.0626533765923774 0.0243877559175636 -0.00983508228093724 0.665911 0.6506854 0.3649261 108 108 108
-0.0357944826948846 -0.00346704430674061 0.0345873206970062 -0.163351 -0.5657167 0.8082581 153 153 153
0.0129991908204352 -0.0212794155607079 0.0225167840835418 -0.1607294 -0.7139181 0.6815329 176 176 176
-0.0398027162420953 -0.048480114413247 -0.0132007777574692 -0.7625131 -0.6296524 0.1486996 118 118 118
0.0148887176644599 -0.053411206675515 -0.0156804799917374 0.02984422 -0.8199962 0.5715904 122 122 122
0.0410798330437934 -0.034862360430703 0.00846223236292262 0.2091558 -0.7960728 0.5679102 197 197 197
-0.0653579096663202 0.0295192389955665 -0.00397816597253423 -0.8695222 -0.01505184 -0.4936645 30 30 30
0.0247792739999091 0.0329707055559303 0.00852916837900539 0.5567375 0.5013783 0.6623166 84 84 84
-0.0590096573698724 0.00387720160390392 -0.0220555394771729 -0.8330465 0.2302619 -0.503004 28 28 28
-0.0212388496267999 0.0389084010591652 0.0165453076478805 -0.1155024 0.6075991 0.7858005 124 124 124
0.064818634523133 -0.011160811854348 0.012297329318222 0.8571181 -0.4670841 -0.2172116 114 114 114
0.0507180829179084 -0.0294513315687035 -0.0197924405220185 0.6459924 -0.1976217 -0.7373191 55 55 55
-0.039547787176391 0.047501125859275 0.00910788477629085 -0.05486255 0.3983389 0.9155961 124 124 124
-0.0270019035208429 0.00958804182912365 0.0371833711978759 0.0636813 0.5415578 0.8382481 135 135 135
0.0389983196389472 0.0146191506853248 0.0144621104118194 0.3385403 0.6510492 0.6793566 111 111 111
0.0358436842095649 0.0257110982408668 0.00704811216562648 0.3856415 0.5362306 0.7508245 55 55 55
-0.0133515457976068 -0.0525467009076928 -0.00773006974488835 -0.1391556 -0.8221616 0.5519837 149 149 149
0.00881333543179386 0.0642242818346168 -0.00441217719346623 0.1723693 0.5242764 0.8339203 139 139 139
0.0288466949593817 -0.0449188560972069 -0.00713602005273442 0.2408765 -0.8858176 0.3966177 93 93 93
0.0166907448899543 0.0774830966463234 -0.0172605395200882 -0.1323106 0.8904523 0.4354177 109 109 109
-0.0451952080595697 0.024151721524253 0.0277219832059707 -0.09231676 0.5860659 0.8049871 119 119 119
0.0478451390397345 -0.000461658907875862 -0.0261752486112748 0.7439321 -0.131191 -0.6552511 63 63 63
-0.0369727473128045 0.0474144607057716 0.00917227269380946 -0.1898513 0.4332579 0.8810471 137 137 137
0.0486676235329901 0.0586408763399269 -0.0203618883970414 0.5456347 0.4333814 0.717261 116 116 116
0.0406190295350348 0.0386530547609474 -0.00359306036264043 0.4500505 0.4325966 0.7812265 86 86 86
0.0264062423836982 0.075976410435691 -0.0159509062650834 0.3761105 0.7151417 0.5891631 124 124 124
0.0528959770333564 0.0531125455370094 -0.0262418568018113 0.9645336 0.2002327 -0.1719935 109 109 109
0.023332490457276 0.0456220298280861 0.00113963783949275 0.4130717 0.463239 0.78408 152 152 152
0.0185597081315314 -0.038199386073098 0.00751875044077296 0.218089 -0.6821436 0.697938 107 107 107
0.0573675770890509 0.0371276526918556 -0.013575348246399 0.7121041 0.4259337 0.5581113 95 95 95
-0.06686394022586 0.0447079329958107 0.00171841384142299 -0.9389461 0.2128153 -0.2703513 35 35 35
-0.0492383699286187 0.0447827964296486 0.0120330572244491 0.2419378 0.635963 0.7328146 124 124 124
0.0256956954133307 -0.0342056364545678 0.00921043456762691 -0.0370966 -0.7152209 0.6979133 121 121 121
-0.0626703362333978 0.0151026635637428 -0.0148752957466279 -0.8900751 0.161322 -0.4263114 54 54 54
-0.0453147749769891 0.0425926833620216 0.0124776482698288 0.2477473 0.821503 0.5135698 78 78 78
-0.000781701074858976 -0.0148409218320702 0.026372161519226 -0.08129621 -0.7225378 0.6865349 204 204 204
-0.0450532297957147 0.0349482684602882 0.0222724348422851 0.1942032 0.5404847 0.8186339 120 120 120
0.0104969282281195 -0.0177441448697899 0.0253528177854385 -0.2401017 -0.708961 0.6631179 157 157 157
-0.057387814985534 0.00516060881520763 0.0157810717937316 -0.7333474 -0.6009786 0.3178462 60 60 60
-0.013201818929931 0.0651585250368263 -0.00326367019445042 -0.1031681 0.6174403 0.7798229 114 114 114
0.0547620792519843 0.000703731106772576 0.0161651194211807 0.5408337 0.4933293 0.6812673 105 105 105
0.0606593032014167 -0.00871189541910633 0.0206536769983139 0.4127721 0.4309307 0.802445 109 109 109
0.0386331815850531 0.0080244927873756 0.0216748684760894 0.2800338 0.6572828 0.6996859 151 151 151
0.0387397546899115 -0.0434239716062401 -0.00532755552560429 -0.01979438 -0.7483885 0.6629652 149 149 149
0.0268412966859137 0.0186763196458961 0.0180632889386978 0.4121612 0.5123197 0.7534266 109 109 109
0.0608428855073249 -0.0013223499784325 -0.00943810044557195 0.8057131 -0.345224 -0.4812971 75 75 75
0.028985692990998 0.0234647183885719 0.0129490912076797 0.2995134 0.6169741 0.7277601 94 94 94
0.0328687567841803 -0.0249070734510277 0.0180530667421188 -0.07382902 -0.6708954 0.7378676 147 147 147
0.00329144193051212 -0.0511040300855492 -0.00797815917760472 0.1377596 -0.8757365 0.462718 101 101 101
0.0430955429208075 -0.0170398563871239 0.0235728591796722 0.1420729 -0.60253 0.7853489 226 226 226
0.0261127491128241 -0.00404580540750965 0.0356633931514587 0.3816225 0.2999745 0.874288 132 132 132
-0.0230069618094171 0.0689825206270362 -0.00513452588349919 0.09914599 0.5292401 0.8426595 95 95 95
-0.049287662969848 0.0305729299059059 0.0247000575181808 -0.2294658 0.3445531 0.9102904 153 153 153
-0.0372124175894464 -0.0270781130323265 0.0146310448762741 -0.5245261 -0.5094364 0.6821634 114 114 114
0.0521545548569953 0.0168384700288917 -0.0226514369133149 0.6545216 -0.111699 -0.7477465 81 81 81
-0.0389686088431085 -0.020959338618264 0.0182421624776687 -0.5519475 -0.5390484 0.6362238 116 116 116
-0.023422286974212 -0.0484793991575097 -0.00236051081449132 0.1226983 -0.8160104 0.5648648 125 125 125
-0.0552827577460016 0.0263469605913307 0.0259608894702758 -0.1008211 0.7082847 0.6986901 160 160 160
-0.0603071312773431 0.00211290411855236 0.00248135329454799 -0.8575293 -0.4093244 0.3116038 85 85 85
0.0510347027909552 -0.00895496316050037 0.0266600221511688 0.3439998 0.5729008 0.7439414 118 118 118
0.056695653928498 -0.0247462601194237 -0.0127650678041611 0.817048 -0.01511117 -0.5763717 69 69 69
0.000744952691773104 0.0125662475099708 0.0316964656230773 0.2099146 0.492969 0.8443444 129 129 129
0.000841035379151034 0.0589769273271705 0.000106674444374039 0.1632631 0.4457741 0.8801311 139 139 139
-0.00159721182467587 -0.0178187698850487 0.0235717862960662 0.05879643 -0.6712667 0.7388802 99 99 99
0.004287673963288 -0.0469150156507347 -0.00225486158162694 0.06489407 -0.7645296 0.6413137 116 116 116
-0.0510704974997247 0.052569428013816 0.00819559098451991 0.02896239 0.4926982 0.8697181 142 142 142
0.0300514240395819 -0.00628443665598377 0.0335768878576126 0.2578998 -0.2470938 0.9340408 144 144 144
0.044647826684693 -0.0336333126554345 0.00824275315969844 0.2121221 -0.7730876 0.5977791 140 140 140
-0.0327593545782769 -0.0317326397428368 0.013856720935997 -0.1938082 -0.6294601 0.7524748 219 219 219
0.0368116040360724 -0.0035719484815453 0.0320755958673324 0.3985056 0.5292925 0.7490279 147 147 147
-0.0252083997595514 0.0555260568132545 0.00507013202875514 -0.07767305 0.7127333 0.6971214 112 112 112
0.0547378797662055 -0.00704785294626697 -0.0169873416307602 0.752356 -0.06248425 -0.6557867 69 69 69
-0.0686942200529779 0.0301050334444191 0.00372966827124019 -0.9390079 -0.2157239 -0.2678196 65 65 65
-0.0267122845518792 -0.0232346863279198 0.0198130428907241 0.005554946 -0.6078008 0.7940701 207 207 207
0.0471691627633368 0.0407617478838112 -0.00923961697846989 0.5811883 0.4741556 0.6613597 101 101 101
0.0347605486047065 0.0285542397966529 0.00586335064142604 0.3792691 0.5107017 0.771582 128 128 128
0.0615843076836859 0.0171609311571266 -0.0145214676740799 0.7725958 -0.197256 -0.6034781 118 118 118
0.0527498264443671 0.00279597334767834 0.0167787194368209 0.5245174 0.5461994 0.6531062 101 101 101
0.0410798330437934 0.0336375623216774 -0.000695589173141525 0.4409974 0.5060946 0.7412082 117 117 117
0.0271476049554145 0.0577098517885353 -0.00679923890859227 0.4463024 0.4378406 0.7804549 136 136 136
0.00864340258953922 0.0180555968752052 0.0256352096912231 0.2893251 0.6009948 0.7450479 102 102 102
-0.0647184710371698 0.0166006474962379 0.0168252557632293 -0.7914093 -0.2517974 0.5570183 102 102 102
-0.0574056367743219 0.0512652783861305 0.00912634731501002 -0.1305716 0.4366826 0.8900895 125 125 125
0.0602173347604071 -0.0309880585203026 -0.00705215631753545 0.8875849 -0.2002996 -0.414817 92 92 92
-0.0412027101385797 0.0223567872514869 0.0301890194532241 -0.02262904 0.6108265 0.791441 144 144 144
0.0368399162423407 0.0327095180025245 0.00232094229429622 0.3180193 0.5575586 0.7668064 102 102 102
0.0392528314721381 0.062696495579734 -0.0151394188287888 0.4555659 0.4692782 0.7564639 103 103 103
-0.0347364406454767 0.0525344996919777 0.00775831640928645 -0.1867752 0.4592836 0.8684317 134 134 134
0.0572722692620551 0.0271333842744972 -0.00935814081460576 0.6236747 0.5602145 0.5451511 94 94 94
0.0370057959687506 0.00514272742177502 0.0243481665965881 0.1609674 0.6664268 0.7279868 113 113 113
-0.029137299524566 0.0688884644975807 -0.00423507689267735 0.1187012 0.4059468 0.9061552 136 136 136
-0.0221248130667413 -0.0141105265149926 0.0272549063083496 -0.01095834 -0.6509743 0.7590207 146 146 146
0.0183494229447638 0.052369871663108 -0.00019651948243718 0.3854259 0.4792378 0.788529 134 134 134
-0.0551636676657403 -0.0218655676374291 -0.016836273658577 -0.8118296 -0.4975154 0.3056323 89 89 89
0.00859708978054874 -0.00723894543741688 0.0358196765300598 9.306005E-05 -0.6850472 0.7284986 187 187 187
0.0386660833489691 0.0487198024263527 -0.00774856208592992 0.3784244 0.41335 0.828213 118 118 118
0.0485931773316657 0.00235406451131359 0.0200121075031127 0.3740005 0.5782382 0.725096 95 95 95
-0.00124757097842343 0.0562556176653053 0.00155071617334743 0.1826359 0.5331366 0.8260808 120 120 120
0.0569273371827399 0.016610184239402 0.000236657273467972 0.481573 0.5533897 0.6795934 101 101 101
0.0531739730965888 0.0373331695070411 -0.0109960019472275 0.4143591 0.531923 0.738488 103 103 103
-0.0132717351782525 0.0130427270403053 0.03281859756678 0.004365928 0.5087584 0.8608983 116 116 116
-0.0341726403105462 -0.0143348783979271 0.026044306170639 -0.203113 -0.6464677 0.7354078 161 161 161
-0.0515338640082086 -0.0177960009107445 -0.0049564868095551 -0.6823887 -0.5690545 0.4588274 80 80 80
0.0350559492242133 -0.0462787956724022 -0.00842255650788884 -0.1470068 -0.7078519 0.6908941 110 110 110
-0.00669436262728818 -0.0499821514615868 -0.0050245404127274 0.07780857 -0.7862039 0.6130491 125 125 125
-0.0572927455771173 0.0429006009569313 0.0146756291505661 -0.2179 0.548989 0.8069267 75 75 75
0.040310635102967 0.0341382413377906 -0.000150892126861618 0.4300358 0.5133321 0.7426704 123 123 123
0.0314364571702277 0.00535956911946789 0.0249193579074707 0.2502942 0.6707452 0.6981789 102 102 102
-0.00123469637515194 0.0612701564302589 -0.00109979807168584 0.149506 0.4668384 0.8716133 120 120 120
0.0228205461633002 0.0353941112032081 0.00834709109037776 0.5144622 0.5347424 0.6703576 117 117 117
0.0471500892770087 -0.0527258724698876 -0.0178041934850846 0.1859227 -0.9319169 0.3113899 85 85 85
-0.0530012111532892 -0.0188848585615013 -0.00721830426484685 -0.6207656 -0.5569608 0.551765 84 84 84
-0.0352059464323724 0.00873629145528332 0.0381184041616287 -0.003627527 0.525306 0.8509057 133 133 133
0.0349778671395575 0.0408218293657447 -0.0016164958360825 0.4006541 0.3711684 0.8376815 123 123 123
0.0475671429765021 -0.04563983388041 -0.00732897518903355 0.03460542 -0.7408729 0.6707531 142 142 142
-0.0247197608816827 -0.0594411701688622 -0.0239701449754868 -0.4264161 -0.6921945 0.5822681 91 91 91
0.0590919990670478 0.0227878480425026 -0.0051768898847733 0.4622647 0.6141939 0.6395915 93 93 93
0.0107112665307318 0.0486711650362159 0.00423063040941615 0.1881269 0.549094 0.814312 105 105 105
0.060189499391297 -0.0152287096509789 0.00647371710508723 0.948699 -0.1448085 -0.2810707 97 97 97
0.031430019868592 0.0270358710756446 0.00905140937536617 0.3706546 0.5490142 0.7491319 120 120 120
-0.0621606569159234 -0.00740679211710438 -0.012618470180336 -0.7626747 -0.4725735 0.4415897 86 86 86
0.0271877784859931 0.0668442636003639 -0.0111664414289628 0.5015897 0.3366039 0.7969351 131 131 131
-0.0411969284880365 0.0504370122423317 0.00775815249651332 0.07220037 0.370167 0.9261552 119 119 119
-0.0412391285765374 0.0205470710268165 0.0316392302629318 0.07261244 0.6115305 0.7878819 161 161 161
0.0364229221474921 -0.0424033016691063 -0.00408578215867619 0.03878209 -0.8396915 0.5416772 152 152 152
0.0524943609368598 -0.0367229790220116 0.00404441059797664 0.04383838 -0.8037035 0.5934129 144 144 144
0.0307465334069525 -0.018745622111306 0.0240059763309326 -0.00087764 -0.6932856 0.7206624 137 137 137
0.0365541715752875 0.0338192372789528 0.00166693032949825 0.329682 0.5244024 0.7850554 112 112 112
0.00481285048840396 0.0736947446336891 -0.0129363119486008 -0.02192654 0.8858395 0.4634735 81 81 81
-0.0622532825339044 0.0497880368700172 0.00940316618650813 -0.07899241 0.4976883 0.8637514 109 109 109
0.0607336301934516 -0.00254591412638172 0.0148862570640411 0.185708 0.6053941 0.7739577 105 105 105
0.0412738461625373 0.0230489163866188 0.00694654585092921 0.3559996 0.5243154 0.7735358 120 120 120
0.0563455362450873 -0.0449645132551049 -0.00988810061246495 0.899627 -0.4357703 0.02784963 106 106 106
-0.0232369165289605 0.0564846187105323 0.00434073508947749 -0.08225821 0.7478556 0.6587455 95 95 95
-0.0278398256170953 -0.0396229834089135 0.00691935123175044 -0.01022628 -0.7195609 0.6943541 198 198 198
-0.0252641897070611 0.0232779174318458 0.0269802928087081 0.003344208 0.5901045 0.80732 139 139 139
0.0111920375954901 0.0415388732423927 0.00913114548891444 0.2549354 0.5448864 0.7988158 112 112 112
0.00293852282879703 0.0409659533968116 0.0122539818403091 0.3229299 0.5856723 0.7434409 149 149 149
0.0393189926278388 -0.0402460903653954 -0.000301498163047836 0.0368348 -0.8937358 0.4470789 182 182 182
0.0131333012711798 0.0713791041841652 -0.0112981229904328 0.1093253 0.7821788 0.6133876 85 85 85
-0.0704551200735772 0.0440097241869117 0.00980071426599879 -0.5740825 0.4228017 0.7011904 111 111 111
0.0267887253892218 -0.00107260651682362 0.0344305902835693 0.3430612 0.5214336 0.7812912 125 125 125
-0.0003924231398309 0.0514563708772804 0.00536948145597835 0.1515047 0.5929388 0.7908666 143 143 143
0.0208951373231208 -0.0374941439161156 0.00674177409380336 0.202986 -0.6664008 0.7174305 147 147 147
-0.0547466139662469 -0.011592587901101 -0.00260591803819279 -0.7831709 -0.4813174 0.3936709 87 87 87
