ply
format ascii 1.0
comment File exported by Rhinoceros Version 7.0
element vertex 474
property float x
property float y
property float z
property float nx
property float ny
property float nz
property uchar red
property uchar green
property uchar blue
end_header
0.0545275597677168 0.00594195066939052 -0.0121832404668878 0.3527517 0.664307 -0.6589859 183 187 195
0.0347228356549176 0.0104862834906432 -0.0191987013667178 0.3462678 0.6612634 -0.6654543 188 163 168
0.053147505079695 -0.0126864977061162 0.00726959164267826 0.3605976 -0.659582 -0.6594853 135 136 131
0.00964447737920082 -0.033168221716566 -0.0747316821047137 -0.1289128 0.4623804 -0.8772604 196 200 205
0.034451261241597 0.0342200492335875 0.00763468278162349 0.275882 0.7770985 -0.5656916 180 171 173
0.063858722999373 0.00553570314652907 -0.0083209890072512 0.3438908 0.7000855 -0.6257951 180 182 194
-0.0139511289874061 0.0387852516532898 0.0304100266095736 -0.3032632 0.9473708 -0.1025671 173 177 178
0.0223761273327305 0.025014668309435 -0.00985189709847967 0.2643678 0.7179273 -0.6439644 193 189 194
-0.0249522744491957 0.0201419219084324 0.0325974038680175 -0.7779348 0.5780765 0.246262 180 187 189
0.0487859589317106 0.0301785106394239 0.0225078228593185 0.4839802 0.3601234 0.7975427 166 169 170
0.0647404303704864 0.0238616623243845 0.0121176328784619 0.632762 0.7613088 -0.1414957 169 174 179
-0.0508342983506962 -0.00681200098130674 -0.0344881004743675 -0.0459517 0.8144425 -0.5784219 192 194 203
-0.00969378424135492 0.0262222880738998 0.000764743162214976 -0.1719308 0.9400057 -0.2946679 190 194 200
-0.072826230063987 -0.0143322893333391 -0.0151542621655697 -0.8687904 0.464604 -0.1713077 190 194 203
-0.0339211805665571 0.0168064229868672 -0.00229751880948781 -0.6026641 0.6965015 -0.3894632 190 196 200
-0.0111323974653441 -0.0421192746510646 -0.0636087420099339 -0.489896 -0.03147991 -0.8712123 200 202 207
-0.0155888970489739 -0.00448652902913504 -0.0360522391742513 0.1095343 0.4777736 -0.8716276 184 180 185
0.0503546539897015 0.0175381505950506 0.0237966196563528 0.612601 0.1943215 0.7661326 153 162 156
-0.028190629929048 -0.0125615636647344 -0.0444335426875514 0.1633403 0.6649037 -0.7288505 173 174 182
-0.0310656560166738 0.0147505012151299 0.0279607728074072 -0.7859698 0.4788471 0.3910971 175 179 183
0.0767904461027187 0.00789585460029218 0.0116713292842304 0.576624 0.2257576 0.7851995 87 101 76
-0.0243949831258083 0.0225528571091546 0.0298534461135591 -0.7702782 0.4726978 0.4280519 178 180 185
0.0470793928576017 -0.00288664477928557 -0.0263328296792014 0.3419283 0.6440043 -0.6843562 173 180 185
-0.0482074014282543 -0.0271701971037562 -0.0411759511280303 -0.516695 -0.1507058 -0.8428013 201 203 208
0.0174763218724534 -0.00923926653374241 -0.015532724754534 0.4927177 -0.8661774 0.083463 149 152 153
0.0660041666625704 0.00245505178250094 0.018423708841055 0.4891692 0.1619288 0.8570254 84 90 66
0.0653756459551804 0.00315302838598819 0.0197728764840898 0.4872614 0.1378454 0.862308 80 83 64
0.0609423127299102 -0.00158051881990429 -0.0172808606315372 0.4064216 0.6057163 -0.6840535 178 181 179
-0.0336484470310281 0.0143609408720058 0.0179871791810822 -0.9086301 0.414204 0.05316269 186 190 196
0.0327664971174295 0.0214421005765447 0.0375469775793291 0.5084693 0.3524774 0.7856326 151 162 154
-0.0659547782736549 -0.00897546287894446 -0.0299839442731148 -0.6936917 0.04297353 -0.718989 206 208 212
-0.0363161554159377 -0.00349607516758432 -0.0323678985494024 -0.06850836 0.8830028 -0.4643412 211 177 174
0.0736692584914662 0.000233174995293406 -0.00783375453525481 0.4571267 0.650022 -0.6070474 185 186 187
-0.0303833768946986 -0.0334387606478392 -0.0523881831825712 -0.5728294 -0.1296784 -0.8093516 193 197 201
-0.0121059842807361 0.0287692931756126 0.00983006504623585 -0.08154121 0.9332804 -0.3497695 192 163 161
-0.00737610152522183 -0.014336809833006 -0.0250340028386818 0.8895334 -0.4089743 -0.2036427 127 136 129
-0.0110390414473116 -0.0126714778625904 -0.0259794997446318 -0.6984025 -0.6838695 -0.2110837 156 154 144
0.0311321707017527 0.0353958459453356 0.024566805088211 0.05278984 0.9963078 -0.0677043 176 179 185
0.0520721170572545 0.00509792875053106 0.0285527184568941 0.6156374 0.2856729 0.734426 154 157 164
-0.0204236937198425 0.0362241396693413 0.0253454489508821 -0.5148723 0.8528804 0.0866119 150 164 172
0.037965397545269 -0.0100530889327413 -0.0132130777520572 0.4219692 -0.8833389 0.2040941 137 145 133
0.0252658241838306 -0.0110431410362273 0.00630304659891057 -0.1772952 -0.9827248 0.05308733 75 81 55
-0.00266522846840811 -0.0288054254526963 -0.0694334950177506 -0.3061135 0.5560734 -0.7727075 189 194 197
-0.0579695759903602 -0.01243375044009 0.000678382871012073 -0.6066126 0.6895108 0.3957222 173 177 180
-0.00454829779408961 -0.025217423558126 -0.0620076729597397 -0.03508983 0.952368 -0.3029256 196 197 200
0.00144020080567397 0.0349934896088528 0.0178756210772049 -0.07061872 0.9040828 -0.4214822 191 195 201
-0.0270401090193069 0.0269218941856985 0.0095032466497843 -0.7716306 0.632777 -0.06464864 180 185 193
-0.00891107982656703 0.0400207265488679 0.0527976974415389 -0.2193728 0.6911597 0.6886028 184 188 185
0.0378722047254163 -0.00442236247261008 -0.0311986364746544 0.3341521 0.6610389 -0.6718407 183 186 192
-0.0620314388889787 -0.0318029944026835 -0.0300000113323777 -0.640724 -0.2383255 -0.729845 194 200 202
-0.0271355674762921 0.0247363844562757 0.0252425690540339 -0.836287 0.4195094 0.3530383 180 183 189
-0.040981606964154 0.00427717572825481 -0.0158771215555328 -0.09024283 0.8460292 -0.5254434 176 179 185
0.0101498096804322 -0.0143997960968772 -0.0429427586648499 -0.2014612 0.8297635 -0.5204862 191 170 160
0.0663915425924668 0.0105449616544951 0.0171891705371683 0.467599 0.2360513 0.8518398 70 78 66
0.0162029640741217 -0.0356514892731372 -0.0562811090495963 0.5048078 -0.8311633 0.2331022 73 75 32
0.0053565440299419 -0.0216778043848419 -0.0548474544010988 -0.06926672 0.8795667 -0.4707064 183 183 184
0.0469572650004197 -0.00365532539708424 0.00161861822356912 0.2654675 -0.7338541 -0.6252881 58 73 0
-0.0384332550993021 -0.0057387138450824 -0.0360198145653069 -0.09945716 0.858909 -0.5023779 221 195 206
-0.0443357900814965 -0.00372410878138463 0.00754309105246198 -0.683987 0.6813562 0.2606061 184 189 194
-0.0121813640658592 0.0284264437262826 0.00768039214380156 -0.08881655 0.9623262 -0.2569822 179 149 154
0.0707865445414502 0.010175809345955 0.0002484168574034 0.3518707 0.6695375 -0.6541457 176 182 185
-0.0518511695425237 -0.00866986102831802 0.0050801459734523 -0.6497073 0.6891946 0.3207668 181 187 190
0.0716430310806544 0.00163725225007771 -0.00755550014790207 0.3718168 0.6733392 -0.6390356 171 173 174
-0.0213496732136385 0.011473951653678 0.0609859604681179 -0.8244712 0.4843826 0.2926103 190 198 199
-0.0251798874720235 0.0217956865814969 -0.00216620280464785 -0.3459397 0.6465423 -0.679933 204 192 196
0.0365359610180871 0.00811985635307355 0.0185995659049591 0.7329273 -0.3944989 0.5542457 127 135 137
-0.00109799158655388 0.0370825471056467 0.0218254113316821 -0.002716613 0.9499686 -0.3123337 184 184 193
0.0433966227204197 0.0121003696149938 0.0059445122634002 0.6206589 -0.7314307 0.2824742 139 153 153
-0.00474988662980724 -0.0367845822974553 -0.0672239097175943 -0.5516611 -0.1174449 -0.8257582 194 199 201
-0.0281143517733655 0.0233790428084397 0.0204542256654324 -0.8944669 0.4434192 0.05751887 173 178 183
0.0701455301991589 0.00228421700477055 -0.00816061814030145 0.3685514 0.6717956 -0.6425422 175 181 184
0.0142105002943698 0.030045819380889 -0.0041090092926126 -0.1817461 0.892321 -0.4131968 189 192 198
0.00747721209193664 0.0319558516423086 0.00584444316070232 -0.3003609 0.9162006 -0.2652542 196 195 198
0.0211430469959044 0.0229874326675386 0.0442463296551352 0.4580137 0.2902483 0.8402258 116 119 109
0.00466747595726469 -0.0290811468371319 -0.0718577477849098 -0.1600492 0.5885153 -0.792486 198 200 206
-0.0168979483909268 -0.0189804474178031 -0.0514504183370964 -0.09387152 0.8472894 -0.5227702 193 196 207
-0.016470070334405 0.0338776083887552 0.0406367397360474 -0.8797751 0.4649743 0.09896787 190 192 190
0.080688623115214 0.00939990531525658 0.0101886176937529 0.909889 0.3299641 0.2514472 173 175 184
0.0539617683076248 0.00822869938742321 -0.0109099060537579 0.3501401 0.6671209 -0.6575345 183 189 196
0.0547456699251576 -0.0147571944874055 0.00552636088323755 0.4011528 -0.8884514 -0.2230036 134 135 131
-0.0346388474275789 0.010301514626046 -0.0104186251920787 -0.1974497 0.7903001 -0.5800339 180 184 191
0.00895868598396143 0.0219869221548207 -0.0155915034095682 0.06042573 0.7152953 -0.696205 189 182 189
-0.0483022127462585 0.00160552299199768 -0.0108050010157512 -0.6119443 0.7370693 0.2867978 183 189 190
-0.00893394217638344 -0.0110576597493109 -0.0247023726666776 -0.1051912 -0.8955417 -0.4323655 154 142 136
-0.0524751152248477 -0.00133503918007538 -0.0250228842993173 -0.1317264 0.9236203 -0.3599635 177 156 160
-0.0328792778190148 -0.0266730061711815 -0.0520684604731413 -0.5097331 -0.0730134 -0.8572288 204 207 209
0.0193346760915114 0.0210658491534349 -0.0149858836981022 0.1815988 0.6764474 -0.7137512 210 167 174
-0.0293201035980166 0.0202921853672019 0.0243983094355725 -0.8258013 0.5321335 0.1867783 194 197 198
0.0205246636975298 0.0143488402185673 -0.019320841912319 0.2277835 0.6263525 -0.7455181 183 173 181
0.0185609964284144 0.0308773986584168 -0.0046793065732742 0.02825534 0.8356591 -0.5485212 192 197 203
0.044285556970177 0.0288776775004306 0.0262862714867399 0.5844786 0.2926048 0.7568138 163 170 172
-0.00143659404493945 0.0391445513728587 0.0367769414183728 0.1150771 0.9844424 -0.13278 176 174 182
0.065760008343652 -0.00132654672605337 -0.0133988698351702 0.373042 0.5842676 -0.7207434 186 184 181
-0.0160983084678961 0.0102405470061208 -0.0273464159868123 -0.2678146 0.7318668 -0.626615 196 190 193
-0.016774465676928 0.0179996004692593 0.0633608312524783 -0.6367258 0.4318124 0.6388413 184 192 195
-0.00944636105402363 0.00992481612467222 0.047234459148278 -0.3218198 -0.710646 0.6256312 125 135 124
0.0675076566441222 0.00687112013573954 -0.0050487047735136 0.3598226 0.6884068 -0.6297808 181 184 188
0.0486621178948599 0.0146197132152973 0.0264719385853472 0.6392873 0.1879517 0.7456446 142 154 155
-0.043539419440616 -0.0109962118913385 -0.041913580074792 -0.326097 0.5684421 -0.7553372 225 229 237
0.0266458319916376 0.00216725245686589 0.0467172234348683 0.529518 0.1650671 0.8320838 153 162 148
0.031508506933116 0.033198705538018 0.032759079153415 0.5728831 0.5812666 0.5778702 151 159 155
0.0153761585039103 0.0335554990919403 0.00496903433735163 -0.2159032 0.954976 -0.2034864 182 186 197
-0.0495592089256678 -0.000815443992735143 -0.0244336856391157 -0.09881967 0.9044695 -0.4149331 190 172 180
0.0169731785366949 0.00285532405080779 -0.031951820951658 0.09850141 0.6276191 -0.772264 192 192 196
-0.0501663263572789 0.00101407473776249 -0.0199404674078129 -0.2661282 0.9162467 -0.2994457 173 179 179
0.0240042520701369 -0.0139143979147628 0.0104046145143538 -0.1523992 -0.9662861 0.2075229 139 141 138
0.0779250570701837 0.000394206147578013 -0.00242375214687984 0.8240272 0.4324849 -0.3659726 154 155 126
0.0772605748519832 0.0152119890278022 0.00885523930298626 0.6919215 0.6756228 -0.2545161 177 183 188
-0.0125930183465193 -0.00805450563973631 -0.0372203103996531 0.1395251 0.4408796 -0.8866554 172 179 179
-0.036282508390483 -0.000360353602347097 -0.0256365622271287 -0.09184939 0.8919334 -0.4427396 183 185 191
-0.00115777684692064 -0.0366422654479766 -0.0696034241238411 -0.5313535 -0.07603116 -0.8437315 191 196 199
0.0505330545472611 0.0152858976565621 0.0245131229947098 0.5995976 0.2036739 0.7739507 151 156 155
-0.000736444320158292 -0.0297565175977569 -0.025822779743771 0.3142227 -0.8542679 0.4141141 66 62 0
-0.0206654588286437 0.02691472569056 0.00421195616950476 -0.05717314 0.8976654 -0.4369531 177 170 176
0.0170409468327337 -0.0144236668650534 -0.0273022815795408 0.8409215 0.4994572 0.208311 147 152 144
-0.00517598982514311 0.0237995725165581 -0.0114789661861845 -0.2308837 0.9102756 -0.3436439 183 188 195
0.0032738294279766 -0.0419176006817955 -0.058681712694326 0.3550253 -0.9340833 0.03801973 70 78 23
-0.013098161170527 0.0376959283096753 0.0475736809864306 -0.8446271 0.4441151 0.298943 180 184 187
0.006669378626317 0.0142520300821499 -0.0233977280709832 0.06986171 0.6645865 -0.7439382 186 189 196
0.0205005936991438 -0.018424263584398 -0.0177696321375792 0.7615471 -0.524383 0.3808785 98 102 75
-0.0399793647991742 -0.0242703733754841 -0.0475325980169417 -0.5474027 -0.1369231 -0.8255921 203 208 215
-0.00796089027145097 -0.0156414090666226 -0.0461247964702488 0.03578986 0.853589 -0.5197162 209 166 172
-0.00359366733718991 -0.00748519178505336 0.020911828095031 -0.1370313 -0.8900664 0.4347461 126 136 129
0.0236129688631852 -0.00483997890832844 -0.0371277693905632 0.05110753 0.6480036 -0.7599206 204 206 212
0.055190636401262 -0.006954970447139 -0.00896703756313166 0.4183178 -0.9082243 0.01178066 139 141 138
0.027220494820555 -0.0221451986717636 -0.036056657725887 0.8163457 -0.4943112 0.2987242 70 83 28
0.0219709234273004 0.0224470214507976 0.0437636799621982 0.480532 0.2850725 0.8293507 145 150 145
0.00904779779629994 0.014374571951094 -0.0231992082010946 0.08076585 0.660437 -0.7465252 190 195 197
0.0416108686722954 0.00108057726991251 0.0370632763835486 0.6232944 0.2215809 0.7499374 158 162 162
0.0404384615047402 0.00513712487240947 0.0367485253673828 0.636038 0.2248354 0.7381766 131 135 117
-0.0368278377710629 0.0061077654989623 0.0182533732364637 -0.9085393 0.4150783 0.04760656 189 193 195
0.0610448033418649 0.00646813266760871 0.0209228899575969 0.4472201 0.2163717 0.867858 148 150 149
0.0563282041588424 0.00712306935855933 0.0232034723402947 0.5180449 0.2321348 0.8232514 113 121 98
0.0545530813737312 0.00361695937644468 0.0245248546746226 0.5583526 0.1383132 0.8179926 142 149 135
-0.00177746503412202 0.0368335559443377 0.0211213458174034 -0.005066502 0.939083 -0.3436531 183 187 195
0.0578336021635968 0.00298203906076389 0.0229977673370929 0.5045682 0.1248342 0.8542994 92 102 90
0.0569453899395178 0.00338862057738487 0.0226237581787657 0.5056983 -0.01882281 0.862505 106 114 92
0.0503980114673817 -0.000699305071590772 0.0306163973941774 0.6957257 -0.1666837 0.6987004 107 115 96
0.0430204755756076 -0.0013737560707332 0.036158939791286 0.6804503 -0.1729805 0.712085 149 154 146
0.0459812076108284 -0.000648425335623148 0.0335185189585764 0.651803 -0.002872281 0.7583829 100 109 93
0.0459627072847022 0.00484003684298229 0.0328103135985996 0.6250938 0.253183 0.7383469 167 168 177
0.0505696881492099 0.00394075494459822 0.0285554526229136 0.6237609 0.2991511 0.7221017 140 147 139
0.0494123596484632 0.00284322496254685 0.0300239070630718 0.625865 0.211255 0.7507758 145 154 153
0.0474818682819884 0.0037808092580851 0.031151907285989 0.5972089 0.2803927 0.7514795 135 144 139
0.0449149972053098 0.000577865424485235 0.0339718201718908 0.635023 0.1703817 0.7534692 120 130 115
0.0438592585357176 0.00181559633350414 0.0346636097916307 0.6150288 0.2174924 0.757916 160 160 168
0.043234874654857 0.00570244911846673 0.0337751415341234 0.6264842 0.2284371 0.7452074 135 144 137
0.041554894864225 0.00338166960866126 0.0357436237812769 0.6160334 0.2340401 0.7521489 155 161 164
0.0529591019677067 -0.000189792514012743 0.0267903348086603 0.7072592 -0.3360967 0.6219513 136 144 132
0.0519582490723169 -0.00582076037571388 0.0206859319782585 0.4916003 -0.7776271 0.3919505 128 135 125
0.0514484632623438 0.00262136934057655 0.028329815930758 0.6994543 0.01906866 0.7144229 136 151 137
0.0480264320123958 -0.00319078872360379 0.024941355161724 0.6194465 -0.6577153 0.4285986 55 68 45
0.0499729128358597 -0.00562778869110403 0.020654531225996 0.4088381 -0.848672 0.3355699 121 134 116
0.0558718247738641 0.0195459100305011 0.0197032744610554 0.5742256 0.1123956 0.8109453 162 164 160
0.0597149401732411 0.0162140976075081 0.0177303036771858 0.4229061 0.2192367 0.8792529 137 139 135
0.057891409393263 0.0181743293340247 0.0186948905431139 0.5068159 0.2254672 0.832047 161 169 170
0.0777517982734972 0.000136208063179488 0.00387891472438517 0.9638519 -0.1609074 -0.2123638 165 163 123
0.0489812337286732 0.0258129712015359 0.0238557060435991 0.5048751 0.2247476 0.8334205 144 153 148
0.0536032002172657 0.0323374845426235 0.0192319216309067 0.5355592 0.7124205 0.4534681 147 158 150
0.0507277443810761 0.0271315218048034 0.0224116201744922 0.4824122 0.2512991 0.8391228 164 168 160
0.0585635384662053 0.0235956696956431 0.0176789105653281 0.7079325 0.1545169 0.6891707 179 176 167
0.0615853304907072 0.0217778704271808 0.0150601169010981 0.7016487 0.3781354 0.6039063 148 149 143
0.0567805120255445 0.0232899520386439 0.018894484477621 0.6503984 0.1241288 0.7493823 161 167 153
0.0547549527182936 0.0254777728846342 0.0206714231014514 0.5783895 0.1237425 0.8063209 136 143 136
0.0578955899040809 0.0307749807211404 0.0161787652612492 0.7820818 0.6193782 0.06869278 145 152 148
0.0579910869420033 0.0299980025886171 0.0152948867838895 0.7470416 0.6558315 0.1086917 170 180 181
0.0546357242099162 0.030341231640218 0.0191627834351279 0.5904427 0.5237685 0.6140391 113 126 103
0.0588144680023017 0.0284924717449835 0.016001806613511 0.7673092 0.4997838 0.4018117 176 182 181
0.05932064653673 0.0264248274490737 0.0116853272193777 0.5807664 0.7302641 -0.3597565 176 179 175
0.0583666580194158 0.0294825167598574 0.014632473892275 0.6757347 0.7271144 -0.1211906 187 192 196
0.0562326644958424 0.0280289867000859 0.0118022029473186 0.4228354 0.680184 -0.5987988 177 182 182
0.0317863114759454 0.0107667347152353 0.0422821243145489 0.5519677 0.2598824 0.7923337 156 158 158
0.0302904109053252 0.0133902637198344 0.0421178931636935 0.5147785 0.2852067 0.8084926 113 125 100
0.0309748605359701 0.0144228889964525 0.0412761302315868 0.514976 0.289156 0.8069625 151 159 153
0.0421295005270759 0.0104057744876564 0.033598090857167 0.6291137 0.2063711 0.7494178 166 166 161
0.035757076847446 0.00776103851840559 0.0404555086710591 0.6483296 0.206472 0.7328289 133 139 129
0.0341474114696361 0.0104189326449771 0.0411512377593981 0.5904781 0.2463569 0.7685336 151 156 147
0.0334443427335236 0.00970417710560167 0.0415724766144009 0.5814232 0.2527283 0.7733533 157 166 153
0.0414421616365646 0.0077045164866909 0.0344523479774484 0.6154345 0.2198365 0.7569097 141 148 157
0.040192699513681 0.00577556226507991 0.0349492147102032 0.6259835 0.2099118 0.7510537 124 129 123
0.0377266134778544 0.00882629833543724 0.0370530500096684 0.681297 0.2095208 0.7013811 108 116 94
0.0382497381786377 0.00806999858768664 0.0366284057765136 0.6732583 0.2169336 0.7068685 77 89 71
0.0379954887433733 0.0129908472117514 0.0368886618245114 0.6855071 0.2039346 0.6989211 145 150 144
0.0356295210023729 0.0173429082063369 0.0385011061519169 0.5501217 0.2775093 0.787626 147 147 149
0.0374532716194427 0.0174010377198155 0.0360227139519612 0.6296171 0.236197 0.7401306 149 157 151
0.0399212977005314 0.0140446596548676 0.0342551673984071 0.6965102 0.2345368 0.6781343 146 150 159
0.0401001577971933 0.0132814814285482 0.0330726693782527 0.664957 0.2821357 0.691543 97 103 96
0.0347904040079827 0.0120410497517166 0.0384373726147904 0.6202748 0.2027826 0.7577192 89 100 81
0.0365426284412105 0.0130106308785174 0.0368010939379416 0.6648901 0.2139905 0.715632 70 87 58
0.0374540869532103 0.0221457346304151 0.0338095812757979 0.5182756 0.3771164 0.7675765 138 144 135
0.0394316236057861 0.0204181016187743 0.0328030781749986 0.6460736 0.2012606 0.7362629 166 172 171
0.0432328626852216 0.0246235252632055 0.0282038494585958 0.5953321 0.2353832 0.7682281 135 146 128
0.0421237992200663 0.0254993025596961 0.0288230314273997 0.5920144 0.2490159 0.766492 149 149 140
0.0422490463990068 0.0277110768813569 0.0281019558132021 0.587474 0.243841 0.7716319 162 168 160
0.0368485321596879 0.0254574298590764 0.032301221791191 0.5039292 0.3290091 0.798629 139 147 145
0.0369308630759404 0.0277638970991814 0.0310459404704452 0.4977027 0.3270366 0.8033299 137 141 132
0.0396229592233701 0.0267946303868057 0.0306775313436108 0.5356778 0.3097586 0.7855564 105 114 96
0.0312390405541834 0.0215442287257059 0.0374861036541128 0.5300515 0.3191117 0.7856291 149 157 151
0.0296317906364258 0.0174807489281255 0.0398945573260424 0.4933046 0.3478642 0.797271 75 92 64
0.0299174532556075 0.0211024372000498 0.0393107292409735 0.5104221 0.2996707 0.8060191 81 94 64
0.0321752176529935 0.0229402174270843 0.0371450223502136 0.5486086 0.2748668 0.7896055 172 171 176
0.0297687466451779 0.0287670536390779 0.0380107385565851 0.5657054 0.3319383 0.7548473 169 171 175
0.0237149164357113 0.0267874716418169 0.0417396619582441 0.5074509 0.3187668 0.8005506 148 152 154
0.0221993265937819 0.0255520290780334 0.0421669665124736 0.4904918 0.3079753 0.815211 84 101 64
0.0340705891254549 0.0196131319798347 0.0368042507773207 0.5224262 0.3259557 0.7879237 159 163 165
0.0335742815731668 0.0215169030633456 0.0359063713867201 0.5212358 0.3468126 0.7797655 160 164 168
0.0327451746241243 0.0264639178858773 0.0343565036564881 0.5838599 0.3251014 0.7439198 86 97 78
0.051794458063557 0.0171026837242106 0.0236618103200514 0.6031208 0.212454 0.7688359 107 116 87
0.0512402623718149 0.0183849982809531 0.0231727824522467 0.6125419 0.187749 0.7678169 160 159 161
0.0459217648596417 0.0151560107145109 0.0287738833792897 0.5852681 0.2071946 0.7839207 138 146 136
0.0440466086548552 0.0176216167608355 0.0298703950337927 0.5975977 0.183445 0.7805286 122 135 120
0.0486175834806293 0.0133030398343932 0.0270437359272492 0.6358742 0.1720339 0.7523751 141 152 145
0.0467425973810318 0.0120595191295659 0.0287533547021718 0.6649354 0.1650578 0.7284346 77 90 62
0.0600384485012011 0.00911151413064126 0.0208433884502511 0.4551571 0.2377996 0.8580695 132 134 131
0.0597528674663712 0.0135053462578648 0.0195836631021258 0.4460161 0.3027223 0.842276 164 167 169
0.0577695741970077 0.0122546714848363 0.0207680129482914 0.5042887 0.3201134 0.8020102 138 144 140
0.0521448046360189 0.00848917758804202 0.0251491573373125 0.5528264 0.2400002 0.7979867 151 156 153
0.0509588211094547 0.0071896226507695 0.0268790596824577 0.5791678 0.2642643 0.7711868 91 94 83
0.0554637043041248 0.0156640920062598 0.0212357992494333 0.5325187 0.2542312 0.8073353 158 160 164
0.0549666806490468 0.0182423440908672 0.0202130755553668 0.546239 0.1860577 0.816704 82 89 70
0.0528737493628064 0.0156870055516082 0.022361588646355 0.5852188 0.2384979 0.7750082 145 151 145
0.0451848224490408 0.00637968143837886 0.0322069630833476 0.6266039 0.2497081 0.7382503 123 132 119
0.0449040293459948 0.00857779341804366 0.0315340866849478 0.6337714 0.22415 0.7403314 151 162 155
0.0446835090190314 0.0104353528739159 0.0324056671796986 0.6516795 0.1966541 0.7325578 171 179 176
0.0432628978613723 0.00869038705235803 0.0322236852432715 0.630803 0.2202046 0.7440413 87 92 78
0.0471799541923184 0.00819010270800669 0.0287595135407417 0.6278301 0.2729364 0.7289273 112 117 118
0.0496679881160933 0.00728404714135078 0.0280537201007798 0.6131951 0.2830503 0.7374784 156 162 156
0.0434954787696755 0.0141043904948588 0.0317133126013083 0.6054482 0.227678 0.7626239 173 167 173
0.0467599428731589 0.0241004753886925 0.0253704650300138 0.5514287 0.2270469 0.8027304 122 130 124
0.0501833100693458 0.0205026826078673 0.0242055452740328 0.6336383 0.1375559 0.7613021 143 152 140
-0.0634143350714864 -0.0138387418000618 -0.0316114117483238 -0.612606 -0.05091457 -0.7887468 198 203 208
0.0510763565729966 0.0196419262103543 0.023119500970278 0.6211795 0.1440804 0.7703096 132 148 128
0.0495656281262269 0.0197074038594514 0.0243189198735417 0.6424398 0.1431049 0.7528559 143 144 139
0.0429590857156592 0.0199358348586605 0.0299061003824033 0.5980747 0.196207 0.7770517 143 149 149
0.0457468634366345 0.0207638683525955 0.0278717549470723 0.6018758 0.2475184 0.7592629 123 128 131
0.0432615648321959 0.0224095920519942 0.0278335016967819 0.6176374 0.269678 0.7387813 140 148 145
0.0474928870528952 0.018714250837192 0.0264768940178322 0.6442724 0.2141029 0.7342159 134 146 131
0.0438873218436973 0.0271385518307067 0.0270696101608211 0.5782773 0.2430848 0.7787843 151 157 152
0.0523109192796571 0.0190758154720089 0.0212240442810836 0.5992441 0.131628 0.7896712 103 111 93
0.0498313296501838 0.0121407383436998 0.0137829319466082 -0.8308555 -0.2893692 0.4753363 130 138 119
0.0478529720096552 0.0160512520881143 0.0138049776125927 -0.3277734 -0.8350911 0.4418004 146 151 147
0.0395717334670849 0.0155689494938916 0.0277229293873085 0.4760113 0.293332 0.8290775 135 146 135
0.0362133306528696 0.0124012537301468 0.0290771896859203 0.3336616 0.4788921 0.8119928 128 135 125
-0.0382067671459625 0.00240730945773449 0.0260070061145967 -0.8940204 0.4364535 0.1011729 188 193 194
0.0582851455498528 0.013862408566599 -0.00249495672945554 0.3358743 0.7008306 -0.6293052 171 173 177
-0.0529250797674266 5.10660970770571E-05 -0.0161249248702984 -0.5003896 0.858058 0.1155277 179 187 190
-0.0121240265487619 0.0229807911763771 -0.00716431099288894 -0.3340913 0.860207 -0.385262 187 185 185
-0.00797317255229979 -0.0279524963263361 -0.0200681015182955 -0.5768441 -0.7599293 0.299597 125 135 135
0.00346484848304662 0.0332592638587599 0.0496697723041124 0.3824858 0.3096919 0.8705145 81 87 64
-0.0700163887964083 -0.0177055591545645 -0.0242087298702263 -0.8534598 -0.1469513 -0.5000117 195 198 203
-0.0296474199449621 0.0154529192410038 0.0294751119806383 -0.7814462 0.5178429 0.34811 181 184 181
-0.00678504928045021 0.013241955667433 -0.0241906491173588 -0.013079 0.6653954 -0.7463765 205 185 191
0.0112236101701342 -0.0137279611955153 -0.0427759932638476 -0.2150196 0.8281031 -0.5176986 206 183 184
-0.0423598710786139 -0.00184183689431283 0.00750922258057996 -0.7716298 0.5997975 0.2117318 183 190 193
0.0794237502561579 0.0128866768620929 0.00886510315213407 0.8398392 0.5427203 -0.01117364 165 170 160
0.0709559097093813 0.00539236551073397 0.0151420692736648 0.4856008 0.1883238 0.8536545 107 124 118
0.0756598371283674 0.00454687682671895 0.0131689391382074 0.6036685 -0.1036423 0.7904699 100 112 80
0.0765443411682716 0.00364055564278287 0.0128109016584449 0.6084802 -0.1531158 0.7786574 62 80 0
0.0805067728989841 0.00482353886529918 0.00746379070709879 0.9870446 -0.156336 -0.03608368 138 147 138
0.0794819704626857 0.00317328175938625 0.00693475106154839 0.9714724 -0.2370186 -0.007968095 109 123 94
0.0753661368640923 0.00367949158162972 0.0129430195360479 0.6023217 -0.09474244 0.7926112 106 116 111
0.0781712807521746 0.000718673001424031 0.00765810579382908 0.8071936 -0.5525444 0.2076851 98 105 71
0.0764378024173951 0.00994334864964908 0.0115472351128085 0.6128303 0.2854677 0.7368495 98 98 96
0.0782933776769958 0.00854128763500017 0.011519352284475 0.7340736 0.1549464 0.6611562 172 173 171
0.0800427311960119 0.00710536323270128 0.00848650129510919 0.984365 0.1760716 0.004920856 111 115 101
0.0796270250264177 0.00534930182348847 0.00552330254888234 0.9383436 -0.05188931 -0.3417877 160 160 162
0.0794540526985132 0.00823946920457452 0.00505645096938145 0.8531892 0.2034256 -0.480298 125 143 122
0.0779922907258608 0.00950600819257696 0.00399447836355193 0.6897216 0.4112756 -0.5959333 191 192 198
0.0786503827369449 0.00342679076669161 0.0024832975202127 0.9373149 0.1418322 -0.318315 167 159 158
0.0778750505861501 0.00200992276159706 0.00333844797355309 0.9295865 0.1538385 -0.3349666 144 150 121
0.0782376970822316 0.00314724403916444 -0.0012936587845177 0.8073986 0.4858679 -0.3347235 144 149 149
0.0772661817169968 0.00214383223252002 -0.00293408230057457 0.7279704 0.5522836 -0.4062535 169 172 173
0.0779954862563805 0.00198542770283772 -0.00468662299476807 0.6285616 0.6055736 -0.4880481 192 193 196
0.0660301487945221 0.00467076072611938 0.0183912177200602 0.4916779 0.1772963 0.8525367 92 101 75
0.0625624915308607 0.0051604290653644 0.0210045915131799 0.4385505 0.2083614 0.8742191 94 101 92
0.0650599870981621 0.00695460622089106 0.0185429879270094 0.4948558 0.1852314 0.8490036 78 90 70
0.0644896073288188 0.00731229588089455 0.0192694764394185 0.4706031 0.2315546 0.8514195 92 100 80
0.0548650027961903 -0.00767599327331769 0.0112986257834092 0.6175719 -0.7426999 0.2588471 128 136 132
0.0549083511847543 -0.00828527185369687 0.00975197558760066 0.5111831 -0.8480588 -0.1395994 135 139 134
0.0713999547306603 -0.00561333770804895 0.0045789717392769 0.3668395 -0.9272165 0.07548795 136 144 130
0.0745119239176422 0.01826592422855 0.0104648900053711 0.5018589 0.8556449 -0.1265284 167 181 183
0.073781240643958 0.0175859255408428 0.00990700645831555 0.3877956 0.8561139 -0.3415899 190 194 194
0.0705729163731821 0.0199989677975695 0.0103119142463611 0.5137138 0.8561255 -0.05610048 179 179 185
0.0779265223587982 0.0137556262328702 0.00884811256958395 0.7865165 0.566387 -0.2461656 181 187 190
0.0773160536084707 0.0130984152820056 0.0069664111911365 0.6405776 0.6180934 -0.4556544 176 183 186
0.0750604275075677 0.0147629299044212 0.00702321804063044 0.4162834 0.6802113 -0.6033413 170 177 183
0.0717997874143776 0.0144320683071925 0.0134173657759469 0.4820445 0.5351753 0.6937006 131 138 125
0.0695804585891828 0.0120183180724255 0.015020545770835 0.4676246 0.2378492 0.8513255 133 136 131
0.0639409231982522 0.0115501962630394 0.0180402672860382 0.4446645 0.2783644 0.851344 121 128 120
0.0646587624062258 0.010229728927393 0.0177186266789814 0.4572777 0.265118 0.8488873 84 102 78
0.0649784909773743 0.0151197958924023 0.016743723705724 0.4078943 0.2804053 0.8689045 158 164 156
0.0675187968026032 0.0202596523818315 0.00983496903262149 0.4896057 0.8296381 -0.2683038 179 185 188
0.0687836151190973 0.0178388158910875 0.00726095172344188 0.3468716 0.6751785 -0.65101 176 182 184
0.0641299590819626 0.012318761673648 0.0082105614301714 -0.3605136 -0.2317522 0.9035048 140 142 139
0.07407122001021 0.0136596632742576 0.00619138568971722 0.3606696 0.6655442 -0.6534282 156 166 175
0.0736316288399399 0.0131874148887867 0.00488979591782279 0.3563264 0.6830879 -0.6375126 167 175 181
0.0769753008841008 0.0102363736636522 0.00395389449189243 0.581102 0.5278178 -0.6194586 180 182 185
0.0756632772766395 0.00968900720031785 0.00270688094441074 0.5288739 0.5612067 -0.6366627 182 188 191
0.0741893021899358 0.0103896920784514 0.00260115348330536 0.3804723 0.6515182 -0.6563268 187 191 195
0.0693773848440431 0.0142355166738691 0.00449964027193572 0.3473932 0.6693999 -0.6566749 181 186 186
0.0709541819802277 0.0117926796319296 0.00213194836623254 0.345625 0.6752556 -0.6515929 164 173 176
0.0667704960092967 0.013825482826833 0.00226616343120245 0.3404907 0.6823769 -0.64686 192 192 200
0.0687817476776376 0.0125829277886111 0.00205950780477271 0.3530853 0.6732205 -0.6496961 194 196 203
0.0671484603429624 0.012166831163565 0.00134385509551971 0.3444613 0.6806239 -0.6466046 179 181 189
0.0658181234511401 0.0222475883451797 0.0103240092294915 0.5371451 0.7941946 -0.2841305 165 166 169
0.0629618124044899 0.0236056760686357 0.0106855073906508 0.4846338 0.7853847 -0.3850987 177 181 182
0.061121775930002 0.0246525518715522 0.0108735053671708 0.4575751 0.7802277 -0.4264619 169 173 173
0.0640097391397192 0.0191285132236531 0.0058349304393972 0.3048712 0.7050374 -0.6402936 164 149 143
0.0606846878053067 0.0201011179458953 0.00585007433503293 0.3365068 0.6741914 -0.6574413 192 183 183
0.0624425141068938 0.0181647479560187 0.00464451536942678 0.3013141 0.6988609 -0.6486936 189 153 158
0.0605736203255152 0.0236537055372534 0.00914920925731388 0.3780392 0.7371482 -0.5600883 186 189 191
0.0568155230220668 0.0254126141440666 0.00859692671541823 0.3612331 0.683859 -0.6339144 187 183 181
0.0589488022483557 0.0200999578536165 0.00458743587857136 0.3544495 0.6661726 -0.6561857 192 171 168
0.0665120898194616 0.0172017835536341 0.00556430568678301 0.3381733 0.6599277 -0.6709204 179 171 168
0.0654229041325975 0.0155460747736417 0.00322133011063352 0.3490681 0.6768208 -0.6481243 193 175 179
0.0633883866338354 0.0140771558705231 0.000349776576438643 0.3407684 0.6908322 -0.6376737 160 157 163
0.0614865390981389 0.0154591520902533 0.00141064463568064 0.3234417 0.6934638 -0.6438116 198 151 156
0.074752412110267 0.00539928612232066 -0.00226723165122444 0.5716739 0.6382528 -0.5155796 188 192 196
0.0725134476874185 0.00752482714837199 -0.00113947154605953 0.3831063 0.6510799 -0.6552286 187 190 192
0.0730525473792616 0.00634298445454018 -0.00206217297510902 0.451597 0.624137 -0.6375839 189 193 196
0.0726210609488893 0.00583300361473105 -0.00222623366993713 0.4083486 0.642741 -0.6481785 178 183 189
0.0760214495567135 0.000762869241985542 -0.00643661622345126 0.5066514 0.6387329 -0.5790723 179 182 181
0.0758332142669786 0.0012278122470456 -0.00680659174712606 0.5066514 0.6387329 -0.5790723 189 192 194
0.0754320701539557 0.000520453135899324 -0.00648113109558801 0.5125076 0.6151327 -0.5991225 181 183 184
0.0737157756780671 0.00293723994395156 -0.00564591119969571 0.4178762 0.6709074 -0.6125869 167 168 177
0.0691364621956585 0.00869560194816921 -0.0016562705647224 0.3704214 0.6709055 -0.6423969 191 190 195
0.0593600331171547 0.00374478530774514 0.010790565779018 0.82721 -0.2800728 -0.4871169 132 142 126
0.0581888964168651 0.0101027414772134 0.0052800320590104 0.8369314 -0.4439806 -0.3200423 137 142 135
0.0541199672777077 0.00616958835060288 0.0103090990990842 -0.2443663 -0.5684067 0.7856201 132 146 137
0.0550051092380732 -7.27997739962127E-05 0.00830530337325819 0.738844 -0.5770506 -0.3480261 129 139 132
0.055463499215838 -0.00122226483243937 0.00750551610939532 0.6137808 -0.4281899 -0.6632696 68 75 36
0.0551834722133426 -0.0017787207362242 0.00525878446892869 0.8440375 -0.4459258 -0.2979108 135 144 135
0.0545416514197816 0.00331542260800433 0.00145568225941195 0.739462 -0.5452878 -0.3947875 127 135 122
-0.0531147398014773 -0.00910357211851409 0.00105035505176021 -0.6297572 0.6860125 0.3644074 163 173 173
0.057696568837299 0.0179524731551427 0.00183729891923889 0.3516475 0.67604 -0.6475446 202 153 151
0.055195271288881 0.019220277078887 0.001941119843893 0.334183 0.6725084 -0.6603439 191 143 138
0.0639363180882344 0.010779544046474 -0.00262612201492163 0.3275311 0.6793952 -0.6566167 178 181 183
0.0646193396604753 0.00922828398473963 -0.00351570373022581 0.3374263 0.6819451 -0.6489179 176 178 186
0.0603336502266325 0.0132457738272521 -0.0018368499642375 0.3465474 0.6877352 -0.6379068 182 175 181
0.0581991963627342 0.0159033403198295 0.000510832606110401 0.3337403 0.7005556 -0.630745 215 164 174
0.0576340870908476 0.017368058101542 0.00089636012406813 0.3469237 0.6912862 -0.6338512 193 144 151
0.057389892903668 0.015916861541138 -0.000692934272989665 0.3443594 0.7036713 -0.6215008 196 174 173
0.0539658941891101 0.0169257144168129 -0.00102535173145424 0.3354575 0.6890499 -0.6424006 191 155 158
0.0578391340676361 0.0125050375007733 -0.00340919529582162 0.3582677 0.6776301 -0.6422318 181 183 190
0.0569009535988014 0.0132818667751876 -0.00359691556738717 0.3623576 0.6781551 -0.6393768 181 184 187
0.0573327539387671 0.0124837038616119 -0.00445350302725867 0.3716196 0.677084 -0.635182 175 182 183
-0.0594433093519493 -0.00971143448298195 -0.00596468771157388 -0.5943406 0.7164153 0.3653879 180 184 192
0.0575291610475532 0.0103809184740489 -0.0067152085880986 0.3790872 0.6760127 -0.6319017 163 173 179
0.0561186306865933 0.0101654601259239 -0.0069986249975873 0.3789289 0.6825312 -0.6249512 185 189 196
0.0568051260205928 0.0091001407490362 -0.00803151394628066 0.3605565 0.6836006 -0.634578 166 175 183
0.0547198411399608 0.0126417906174024 -0.00515366966246833 0.3446472 0.6971771 -0.6286194 193 194 202
0.054659086741403 0.0120715418601701 -0.00619460422096363 0.3663374 0.6834822 -0.6313866 181 185 190
0.0546642907084021 0.00998867065978093 -0.00874655406401159 0.3747181 0.6701227 -0.6407198 172 179 183
0.0455691373169911 0.015762162474935 0.00696609807712156 0.99174 -0.1153066 0.05617977 130 145 129
0.0462371038251219 0.00819053406299286 0.00319486807380076 0.8545573 -0.2248308 0.4681697 143 140 150
0.0466475758089375 0.00672527745493057 -0.000311454310492176 0.684064 -0.4523718 -0.5722029 141 144 148
0.0438346921858166 0.00519959901693234 -0.00224946398238479 0.9363745 0.03126623 0.3496071 126 130 129
0.0733848392654619 -1.43440638837866E-05 -0.00811044430740082 0.4527113 0.6483677 -0.6121044 173 177 174
0.0727397548685511 0.00210678785445639 -0.00697622085450533 0.4114615 0.6639217 -0.6244256 172 176 183
0.0714580307586283 0.00283257645772006 -0.00649961360581175 0.3658457 0.6735151 -0.6422884 183 190 196
0.0723329376715194 0.000414182106388883 -0.0082148064441453 0.3977171 0.6725978 -0.6240459 181 183 186
0.0682806785323544 0.00488039218465242 -0.00598268290144688 0.365161 0.6793593 -0.636497 181 186 191
0.0654183996574806 0.00531316131111959 -0.00755425985438851 0.3589998 0.6889036 -0.629707 182 186 190
0.0695686830138111 0.0032046695336978 -0.00736511422162134 0.3685514 0.6717956 -0.6425422 174 178 184
0.0690520156373733 0.00139377809992258 -0.009585530285804 0.3636107 0.656985 -0.6604226 173 178 184
0.0696573167855687 0.000752991802203229 -0.0100957617602193 0.3600369 0.6653416 -0.6539832 174 177 183
0.0652059122909314 0.00267473581189093 -0.00991932424951614 0.3731391 0.6444961 -0.6673769 172 180 183
0.0657304989922096 0.00110247025964916 -0.0120430648377422 0.3773819 0.6413377 -0.6680336 173 179 181
0.0539687382717116 -0.00403432512844126 -0.00671325454746396 0.6657661 -0.7447482 -0.04588675 135 135 128
0.0628916866204263 -0.00199521815245685 -0.0144654543040169 0.3716681 0.5896315 -0.7170756 161 171 156
0.0635204116549635 -0.000936253473098669 -0.0147494120067077 0.3716681 0.5896315 -0.7170756 174 178 168
0.0640086505647988 0.00873784133409927 -0.00456706282625063 0.3497549 0.6876954 -0.6361969 189 190 199
0.0590382989674882 0.00817444223807862 -0.00621005363916716 0.3610853 0.6933855 -0.6235655 178 182 192
0.0629508559082499 0.00348239465491751 -0.0102764051223373 0.3659748 0.6494696 -0.6665221 180 182 192
0.0574219865348722 0.00719391015668225 -0.00990713347182925 0.3524511 0.6799553 -0.6429922 177 181 191
0.0552453728483511 0.00823472715653284 -0.0101522783769774 0.369011 0.672196 -0.6418594 182 190 192
0.0641550157047126 0.00051657094808355 -0.0136633086122284 0.3618962 0.5957096 -0.7170504 153 166 166
0.0589870314746292 0.00160166601684486 -0.0144598736919632 0.3817593 0.5942307 -0.7079192 179 184 190
0.0526559329392695 0.00544565168823652 -0.0142717736493542 0.3475846 0.6815627 -0.6439389 191 194 201
0.0550435944910159 0.00371899834854528 -0.0146482767717722 0.3611061 0.6706998 -0.6478921 181 184 188
0.0533299750560925 0.00249878505784917 -0.0175116899798083 0.3801631 0.6833087 -0.6233501 180 183 185
0.054127353827421 0.00107889312478371 -0.0183031418417502 0.3766809 0.679329 -0.6297807 181 183 187
0.0607332145199386 0.000122194995928582 -0.0155331629206209 0.3883311 0.6030468 -0.6968024 186 190 190
0.0597180568399507 -0.0034269572781046 -0.0170901849937301 0.4320233 0.6129199 -0.6615777 142 152 105
0.0589554870743063 -0.000872276473268596 -0.0171522156347239 0.4145503 0.6138706 -0.6717967 185 189 190
0.0567098903377761 -0.00414793125353208 -0.0222178977742173 0.4892071 0.5402449 -0.6846983 176 175 182
0.054777585617404 -0.00208765413293677 -0.0210913752816182 0.4692583 0.5941567 -0.6532797 199 200 203
0.0534118697059358 0.00123997633448314 -0.0187824104086053 0.3739884 0.6781427 -0.6326572 181 183 188
0.0528464610009429 -0.00214330963425713 -0.0222834850411489 0.3692994 0.6093795 -0.7016228 185 188 191
-0.00123144478950543 0.015781033807992 0.0263469695348941 0.8661243 -0.4985932 -0.03512151 141 143 140
0.00835906199746361 -0.0323158947475292 -0.0741134198606176 -0.1384306 0.5017198 -0.8538818 195 198 201
-0.0151169268985876 0.0238258864789761 -0.00303538001580239 -0.203184 0.8731471 -0.4430918 194 196 207
-0.035408097899821 -0.00843402617274081 -0.0414469668836157 -0.08767358 0.8373198 -0.5396377 211 205 211
0.0101321374599719 0.0239765176705564 0.0496041038825498 0.3926537 0.3245476 0.8605184 129 136 122
-0.00150651120289913 0.0195969813484604 0.0578348888407146 0.4418024 0.3017661 0.844836 87 103 84
-0.00259938653022029 0.0162515455183948 0.0590398117062482 0.4237023 0.2946467 0.8565394 104 115 93
-0.00386530825134868 0.0178243238710426 0.0587837131223675 0.4262733 0.3060588 0.8512456 105 114 84
0.0212171960213308 0.0139821971979858 0.047636480454094 0.4609992 0.3290648 0.8241336 98 108 93
0.00586084147125021 0.00921110961281546 0.0572576894196352 0.4351061 0.3067014 0.8465323 151 160 159
0.0129462863062462 0.00562459077521182 0.0543740624917544 0.4262062 0.2734732 0.8622996 147 155 160
0.0138469211494714 0.00771960536834504 0.0534294278055406 0.4286414 0.279581 0.8591281 162 169 165
0.0149649514654793 0.0101082657549795 0.0521873345935132 0.4301946 0.2795508 0.8583612 160 164 166
0.00883396604459374 0.0207954117391917 0.0510736377264753 0.4496535 0.2989697 0.8416821 160 167 161
0.0154281773576534 0.0134510597365689 0.050514085991334 0.4273568 0.2929996 0.8552879 130 134 136
0.0163419384682095 0.0177067453461726 0.0488147162688911 0.4410795 0.3528709 0.8251854 115 124 114
0.01388011095138 0.0166250180512256 0.0504636823603645 0.4351406 0.33682 0.834988 90 102 71
0.0175902183924768 0.0165716810769662 0.0482224179262052 0.4374785 0.3242532 0.8387327 116 127 119
0.0169383416920761 0.0187988259834874 0.0477880362813066 0.4255366 0.3264239 0.8440178 73 80 50
0.0200368026846354 0.0230576438738206 0.0454003395130756 0.4487436 0.3026049 0.8408683 151 160 159
0.0184856287509971 0.0223351386879774 0.0457976852345016 0.4253026 0.3072835 0.8512899 108 121 106
0.0125537819047548 0.0190393938954756 0.0504400650722954 0.4424587 0.3315208 0.8332612 130 137 123
0.0127405901897792 0.019442360778774 0.0491086804838279 0.4385376 0.3289029 0.8363658 124 133 123
0.0120611174815233 0.0225574577121275 0.0479997312674646 0.4296394 0.3094705 0.8483148 96 112 86
0.00296908665192275 0.0100816624052075 0.0576168308756747 0.4441705 0.3069625 0.8417165 144 152 143
0.00374185587462961 0.0131342361192326 0.0578259720954086 0.4490601 0.2784202 0.8490155 100 108 98
0.00293480803877921 0.0146996986153021 0.0562462970720088 0.4477275 0.2790044 0.8495273 102 111 101
0.00516666004481392 0.017587059689995 0.0543186402364537 0.4565567 0.3000379 0.8375758 155 160 160
0.0066915926224711 0.0207297354878372 0.0528067703598265 0.4305303 0.3051968 0.8494107 152 161 156
0.000347902314586257 0.0200906647016685 0.0564839207322608 0.4315618 0.296525 0.851955 162 161 172
0.0124990139233447 0.0119120784283323 0.0525717852543289 0.4260489 0.2983868 0.854077 160 170 170
0.0102683740216318 0.0135001392217509 0.053178682955086 0.4308182 0.3080211 0.8482445 167 172 169
0.020290167455256 0.0340704591196846 0.00196070759946121 -0.08758923 0.9476441 -0.3070812 197 199 206
-0.00336477476784225 0.0155923681043737 0.0591154873442975 0.4237023 0.2946467 0.8565394 123 135 117
-0.00511981113243554 0.016855387321161 0.0597307760949608 0.4235662 0.3011837 0.8543302 157 165 155
-0.0116698986923898 0.0148135145696883 0.0633647707806101 0.1528171 0.3009649 0.9413114 147 152 151
-0.015147535574604 0.015518717119465 0.0651024779685767 -0.3803308 0.3135269 0.8700858 111 123 108
-0.00866812878801326 0.0139776541079425 0.0616166651431798 0.399017 0.2360041 0.8860517 87 103 75
-0.0141316853561917 0.0106158288929517 0.0646538573510975 -0.1762249 -0.1450846 0.9735991 133 147 138
0.0389579236706981 0.00102125470164005 0.0385721994853847 0.6399379 0.1956565 0.7431002 150 154 149
0.0428215073440046 -0.00426962409788656 0.0354812762046748 0.5618055 -0.4431215 0.6985828 168 167 151
0.040750608677687 -0.00496870104360025 0.026955502172514 0.3720005 -0.84579 0.382433 128 131 137
0.0438494066077642 -0.00545312118782382 0.0192594740897677 0.4282777 -0.8992718 0.08881698 98 105 73
0.0299801647281761 0.00679610762733962 0.044581935084379 0.5210947 0.1727258 0.8358386 179 180 188
0.0317713480958095 0.00771343302585903 0.0426042659526498 0.5411054 0.2021112 0.8163063 145 157 128
0.0280124677026863 0.00324932348717988 0.0456126259167949 0.5329849 0.1672752 0.8294252 148 157 144
0.0258360322262483 0.0137524179078971 0.045545060358184 0.5190156 0.3085214 0.7971432 165 173 166
0.0277896864844749 0.011768084553175 0.0437957165247449 0.5325818 0.3082698 0.7882426 166 165 161
0.0278879296556402 0.0126946264313985 0.0439042019891555 0.5348147 0.3131156 0.7848132 177 181 178
0.0345863227060175 0.0057454626899478 0.0415006098615058 0.5949664 0.1997449 0.7785351 168 164 167
0.0256236718922542 0.01679137180415 0.0432865463539069 0.517196 0.3286479 0.7902524 146 153 156
0.0224200159960892 0.0161989641411422 0.0456940161375704 0.4747842 0.3312955 0.8153669 87 97 73
0.0263395541774027 0.00088621737040917 0.0295117459302349 -0.6347717 -0.4860303 0.6006991 156 160 155
0.0259852236290947 -0.00648331096436428 0.0233599081799246 -0.06424758 -0.7570819 0.6501533 157 163 157
0.0363213520376302 -0.00896853099915118 0.0165092366296511 0.0441696 -0.9818696 0.1843394 138 143 148
0.0261525031479111 -0.0100118071322985 0.0208875153823178 -0.1596177 -0.7851081 0.5984375 149 153 150
0.0363107529159308 0.00847895300323043 0.0199198954867625 0.2728362 -0.9403109 -0.2034106 134 145 132
0.0274404788313984 0.00919607914479614 0.026414730839006 -0.6279409 0.4739752 0.6172826 118 130 112
0.0275934215281453 0.00869131261193579 0.0249745544463642 -0.3467401 -0.06738245 0.9355378 115 126 117
0.0258305983124343 0.00407609449866397 0.0222904040767589 -0.003928715 -0.04179265 0.9991186 123 133 135
0.0264848268735975 -0.000739166445542505 0.0192767829125442 -0.3473835 -0.3719434 0.8608036 126 136 123
0.0269673436454281 0.00201744528070191 0.0203205425290198 -0.6645989 -0.009161828 0.7471441 129 134 128
0.0269578071158731 -0.00228712496990613 0.015833290684143 -0.5540744 -0.5498913 0.6249968 140 136 128
0.0133186404442229 -0.00286452714053609 0.0260701720239827 0.2148582 -0.1798637 0.9599401 135 133 134
0.000687533982991706 -0.00313796106549458 0.0321965142952094 0.6325427 -0.07445393 0.7709386 136 145 146
-0.0114740916390224 0.040274188047712 0.0380643416134124 -0.324922 0.9439891 -0.05753526 166 165 160
0.0542199180051388 -0.00995491959425809 0.00808325377417507 0.4217429 -0.7773729 -0.4667166 127 135 133
0.0430561436042067 -0.00508184671337697 0.0114950939893941 0.5775932 -0.8108557 0.09433547 107 111 73
0.04000485669386 -0.00615968056927574 0.0135017475137281 0.4685037 -0.8777912 0.09993431 64 78 58
0.045516100443618 0.000142382369459515 0.00618042288750875 0.3431912 -0.5537384 -0.7586788 135 144 126
0.0431958521272766 -0.00556850287642774 0.00580463072387105 0.5275352 -0.8449771 -0.08786543 53 64 0
0.0413266094824896 -0.0069748945200897 0.00674848743549139 0.5694555 -0.8219666 -0.009560298 100 105 50
0.0402753184544347 -0.00735683664455722 0.00510904931857437 0.6081824 -0.7913376 0.06244224 78 80 66
0.0467171906587263 -0.0102699887389409 0.00421973142245213 0.2209744 -0.637967 -0.7376777 151 151 147
0.0437250889866787 -0.0119247371315315 0.00205628166132032 0.4366499 -0.8996315 3.314274E-05 124 129 132
0.04493137184879 -0.00248377889496787 0.00237000660688902 0.6895324 -0.3757432 -0.6191624 132 142 135
0.0377210490167101 -0.0100389886275957 0.013084087021725 0.3676101 -0.92265 0.1165323 129 138 139
0.035269372944521 -0.0121741706331961 0.0123229541571481 0.2967661 -0.9514731 0.08141784 126 134 121
0.0370305205304629 -0.0142225783199385 0.00888791749678008 0.2026267 -0.9621071 0.1824621 132 142 135
0.0344970792857393 -0.00937974123553242 0.00289432882763796 0.1075227 -0.9849278 -0.1354845 75 92 66
0.0329194963335615 -0.00971376029815951 0.005505224626011 0.1544965 -0.9851806 -0.07449921 78 87 68
0.0432032576615953 -0.0128528266847724 0.00345847764984319 0.4591459 -0.8846104 -0.08154394 144 145 148
0.0368422772048635 0.00746607406848054 0.00581962334427155 -0.2220214 -0.765457 0.603972 135 143 145
0.0353190487592938 0.00300484433619475 0.00161871137707781 0.6110072 0.2912893 0.7360847 131 139 135
0.0454928259938807 0.00230845007365588 -0.00435278635592962 0.8577308 0.4241275 0.2905405 136 138 128
