ply
format ascii 1.0
comment File exported by Rhinoceros Version 7.0
element vertex 467
property float x
property float y
property float z
property float nx
property float ny
property float nz
property uchar red
property uchar green
property uchar blue
end_header
-0.00135772435689896 0.0914312183576727 -0.018284121203929 -0.02271713 0.0728457 0.9970844 184 189 196
-0.0014268107771338 0.0874510050611133 -0.0181326075759352 -0.02080495 0.07897178 0.9966598 182 187 194
-0.00244678351460825 0.0888201585562507 -0.0181053138678586 -0.02213102 0.07556378 0.9968954 182 185 194
-0.00503320217185088 0.0860646896489514 -0.0179905666429185 -0.01444164 0.06628266 0.9976964 170 179 183
-0.00299923526591961 0.090465466931305 -0.0182994562641309 -0.0244233 0.0721937 0.9970915 184 189 195
-0.00469459595121346 0.0901838898410159 -0.0183149759243813 -0.01580153 0.06906869 0.9974868 187 192 201
-0.00642604675143277 0.0872969465251361 -0.0182744246768596 -0.008815659 0.07005016 0.9975045 187 192 198
-0.00497183197447892 0.0789326113234055 -0.0176608248787567 -0.009432123 0.0698021 0.9975163 183 188 196
-0.00879139686487607 0.0777846623414853 -0.017779846135508 -0.01641379 0.0737263 0.9971434 183 188 195
-0.00639171144430684 0.0827065406354028 -0.0178892472853495 -0.007736926 0.07359276 0.9972584 184 190 197
-0.00861324302616051 0.0822055272075028 -0.0179569055655411 -0.01483537 0.07396772 0.9971503 181 186 194
-0.0106687019519525 0.0770741216973778 -0.0178289198261506 -0.02074911 0.07271033 0.9971372 182 188 194
-0.0124577120179796 0.0762038244560832 -0.0178568938299774 -0.01714915 0.07100853 0.9973283 186 191 199
-0.0141445781058742 0.074958352230136 -0.0177597134099642 -0.0139126 0.06574316 0.9977396 185 189 197
-0.0131088733669649 0.0782287340339456 -0.0179291965551709 -0.01485719 0.07858597 0.9967966 182 187 195
-0.0114307697335061 0.0788301668643803 -0.0179728017036333 -0.01548644 0.07919051 0.9967392 185 190 198
-0.0124141427661235 0.0804948931727674 -0.0181426401739653 -0.01410688 0.08047824 0.9966565 181 187 193
-0.0144008459312115 0.0797411637686751 -0.0181809853645691 -0.01529715 0.08011955 0.9966679 188 192 200
-0.00800695102376769 0.0862136069971944 -0.0182386255977131 -0.01609946 0.0663842 0.9976643 184 190 195
-0.00914884225365808 0.0839335249132775 -0.0180679385459849 -0.01670582 0.06851976 0.9975099 186 191 199
-0.0109218882830286 0.0836714273970685 -0.0181169717728037 -0.01554213 0.06977233 0.9974419 181 188 195
-0.0120090277839044 0.0850278755206209 -0.0183288292259396 -0.01287711 0.06941003 0.9975051 181 186 192
-0.0126685457535261 0.0865732809215214 -0.0185165781502734 -0.01457581 0.06593474 0.9977175 187 193 199
-0.0122323652471463 0.0830237030880794 -0.0180816368695256 -0.01261836 0.06978469 0.9974822 175 184 190
-0.0167388184294972 0.081053519568252 -0.018181602617777 -0.01280828 0.08205497 0.9965455 185 190 197
-0.0145961220717821 0.0860535095549479 -0.0184322080250944 -0.0104701 0.06239253 0.9979967 183 188 194
-0.0165517310484264 0.0841122341216087 -0.0184327570833344 -0.01256921 0.0712375 0.9973802 178 183 188
-0.018316584155071 0.0844727767839688 -0.0184379805459796 -0.0082755 0.07171935 0.9973905 188 192 199
-0.015068746973034 0.0766409253761327 -0.0180249443654379 -0.009532328 0.07071547 0.997451 182 188 194
-0.0137104136246871 0.0676582758234396 -0.0171884182861211 -0.01920826 0.07076937 0.9973077 183 189 195
-0.0151446100476584 0.066704128365948 -0.0172759360890278 -0.01843728 0.06834894 0.9974911 186 191 199
-0.0154745456588681 0.0619686669384272 -0.0170868849847319 -0.01096452 0.07203081 0.9973421 180 184 191
-0.0173722272233081 0.0616473296998092 -0.017018816826842 -0.01273826 0.07074013 0.9974135 171 180 186
-0.0352234076699869 -0.084189579799958 -0.00109670705932913 0.8967732 -0.4279996 0.1123127 156 170 169
-0.0192629430580622 0.060121743447205 -0.0172062881276403 -0.01518302 0.07137448 0.997334 174 180 185
-0.0196463676539524 0.0626757117909016 -0.0172154502933141 -0.0161081 0.06765455 0.9975787 185 190 195
-0.0177598126387091 0.0634671846306973 -0.0172733576770173 -0.01560599 0.06595892 0.9977003 186 192 199
-0.016863927154668 0.0650551842216311 -0.0173203857374584 -0.01647277 0.067728 0.9975678 184 189 197
-0.0200511632456402 0.0641995380920515 -0.0174225186192008 -0.01266389 0.06781572 0.9976175 185 189 198
-0.0219009439285798 0.0617983871441441 -0.017295322422377 -0.01160408 0.07079 0.9974238 160 175 186
-0.0143456182296542 0.0707362745330655 -0.0176074940318002 -0.01892024 0.06389821 0.997777 187 192 199
-0.0169661658947193 0.069885966399043 -0.0176166284499625 -0.0163178 0.07198469 0.9972723 186 190 198
-0.018583603366817 0.0695114751857109 -0.017659965169474 -0.01569993 0.07200152 0.997281 185 191 198
-0.0195901798445486 0.0712636265590645 -0.0178614175803266 -0.01068745 0.07208563 0.9973412 185 190 198
-0.0176912165811278 0.0725826035112942 -0.0178071806645728 -0.01313692 0.07272538 0.9972655 183 187 196
-0.0199028910633241 0.0668581923594502 -0.0175594850358953 -0.01145737 0.06881245 0.9975638 184 188 196
-0.0205970981428019 0.068461766854153 -0.0176595202517077 -0.008760874 0.07022785 0.9974925 182 188 196
-0.0215175459971517 0.0660365430771643 -0.0176104538887573 -0.0092268 0.06885146 0.9975842 185 190 198
-0.0222633164508892 0.067574282951153 -0.017660773955451 0.04566106 0.08331314 0.9954768 186 189 197
-0.0209434885433737 0.0707140769710504 -0.0178024637768979 -0.007464553 0.07190195 0.9973838 186 191 199
-0.0298970021776208 0.060841717401843 -0.0129938312895961 0.9889982 0.1263564 0.07692001 161 169 172
-0.0307098557483365 0.056708814519183 -0.0142906441171033 0.9491007 0.1697141 0.2653392 149 159 162
-0.0301070295070263 0.0580604248641376 -0.0150107799877501 0.923986 0.179496 0.3376848 161 164 173
-0.0311000300759576 0.0548893563144246 -0.0157467624924176 0.9039732 0.2518707 0.3455339 152 154 172
-0.0299269037511052 0.0585450998142096 -0.0155242271566112 0.8707582 0.1791487 0.4579147 142 153 161
-0.0297972777862316 0.0607926331605595 -0.0150466252116486 0.9678007 0.08663053 0.2363409 144 149 150
-0.029331973626129 0.0607960414886473 -0.0172210146407726 0.6482394 0.08657963 0.7564983 162 170 171
-0.0282488774329175 0.0676372103694669 -0.0156476554295993 0.8682449 0.2780595 0.4108937 113 127 134
-0.0280803957627374 0.0674262963802115 -0.0172336527633687 0.5155801 0.2509799 0.8192596 148 159 160
-0.0279648898749474 0.0659064152422502 -0.0176609158108916 0.5462725 0.2427634 0.8016559 159 167 171
-0.0291851520440352 0.0632486818558904 -0.0129457154741373 0.9904743 0.1198449 0.06780689 163 168 170
-0.0295001784807245 0.0629471600625038 -0.0157391160772073 0.9315617 0.1427632 0.3343822 130 142 141
-0.0294602871377734 0.0649257795288267 -0.0153051396815007 0.945852 0.1519725 0.2868245 149 158 152
-0.0292317955851673 0.0631560678892578 -0.0171664608512717 0.7893357 0.1228473 0.601546 106 123 135
-0.022369412930173 0.0588548093173091 -0.0171679130717848 -0.01953635 0.07466658 0.9970171 179 185 190
-0.0263062603833544 0.0578381184091989 -0.0172084507641934 0.1676308 0.08319639 0.9823331 183 187 194
-0.0247187163644185 0.0623800257148763 -0.0175361864193934 0.09212585 0.1087074 0.9897957 137 151 165
-0.0281106942831628 0.0576643843024913 -0.0175458942117104 0.2809291 0.1186436 0.9523668 164 170 174
-0.0282768747270099 0.0610149742015766 -0.0174404786520506 0.5265831 0.06680567 0.8474947 171 178 179
-0.0254020184289327 0.0646291787239652 -0.0175732503254221 0.1455616 0.1239081 0.9815593 174 180 184
-0.0258482946394012 0.0661451639589175 -0.0177290224935763 0.2979448 0.1529225 0.9422545 180 184 187
-0.0275034515349488 0.0635296575387547 -0.0174810272754392 0.393375 0.1082792 0.9129796 137 144 166
-0.0268271233114117 0.0680889613300459 -0.017897299780996 0.4728586 0.2032749 0.8573704 182 186 191
-0.0190923352368246 0.0759510217948922 -0.0180396870462275 -0.01293616 0.07294713 0.9972519 185 190 199
-0.0263509548705305 0.0746374711259283 -0.0145172725808005 0.9573447 0.2767631 0.0830265 140 152 161
-0.0201913056496537 0.072985604023631 -0.0178534851032091 -0.008489874 0.07009551 0.9975042 183 187 196
-0.0250454915158533 0.0800065155047942 -0.014469187204807 0.9998268 -0.004473204 0.01806649 148 155 164
-0.0249763002340608 0.0780663954075334 -0.0142962257620085 0.991439 0.1006376 0.08319046 139 151 164
-0.0251248512249522 0.0819555900387139 -0.0130322335483743 0.9961763 0.01147934 -0.08660864 149 156 158
-0.0253147659747239 0.0777740383178835 -0.0155599587217776 0.9935505 0.02606509 0.1103534 148 156 164
-0.0254285021609637 0.0801528465141759 -0.0163995736938422 0.9651068 0.01539851 0.2614035 152 161 168
-0.0255306606746655 0.0817771774578266 -0.0165370111018855 0.9782463 0.007117434 0.2073247 152 159 167
-0.0231137644416552 0.0801929433331263 -0.0184831257612284 0.4039914 0.104312 0.9087958 187 193 198
-0.0252396055751678 0.0818915913119229 -0.0182885053806446 0.8745207 0.04233886 0.4831366 171 177 183
-0.0171021003784264 0.076603029689869 -0.0180339513661502 -0.01579432 0.06947812 0.9974585 184 189 197
-0.0194715158370991 0.0772892519811823 -0.0182335159578859 -0.007428541 0.07269986 0.9973262 182 187 194
-0.0216631176797328 0.0769463013174307 -0.0181482504755808 0.2061291 0.1625987 0.9649209 186 190 198
-0.0217325095743846 0.0732485354525034 -0.0179757390041963 0.04875318 0.07074502 0.9963023 192 197 203
-0.0239195893941453 0.0716421241654983 -0.0179412506469743 0.4036687 0.05605113 0.9131867 187 191 199
-0.0245674832772815 0.0737609593901702 -0.0182261033035103 0.3448433 0.1234042 0.930513 185 190 198
-0.0195976066951418 0.0823229660752116 -0.0184924837258395 -0.001645591 0.08081238 0.9967279 184 190 196
-0.0237419229599016 0.0825747426039205 -0.0186008468877721 0.5287194 0.05621431 0.8469332 191 196 202
-0.0224419612309683 0.0788014586826986 -0.0184154583482254 0.2835518 0.121697 0.9512036 187 192 198
-0.0238979793174541 0.077348143748255 -0.0183097932953645 0.3275887 0.1150996 0.9377834 185 189 196
-0.0250285106681583 0.0799611173986434 -0.0184352608931819 0.8549946 0.1323412 0.5014679 180 184 190
-0.0267949544275083 0.0718711879222595 -0.0130800991782006 0.9804044 0.1873296 -0.06094939 151 162 169
-0.0272509199423654 0.0704740351752637 -0.0140329374794664 0.9841946 0.1765923 -0.01327423 151 163 154
-0.0276992559765392 0.0689611661331766 -0.0140628465340105 0.9703547 0.2412792 0.01400264 154 162 164
-0.0273045972527672 0.0700159219987297 -0.0177383491064257 0.6225732 0.1895122 0.7592679 168 177 181
-0.0264947473965171 0.0745806603589922 -0.0162522243481467 0.90947 0.2313824 0.3454366 157 167 174
-0.0262449302049688 0.0723999357519609 -0.0180831062072986 0.701406 0.1642013 0.6935903 184 189 195
0.00112538291848852 0.0946149004841017 -0.0184718192806098 -0.01876082 0.05857395 0.9981068 185 189 196
-0.00050136810283874 0.0941298641830361 -0.0183828262066869 -0.026343 0.06734677 0.9973818 184 188 197
0.00111155701972221 0.0966018421485615 -0.0185977759154169 -0.01680022 0.06052276 0.9980254 186 189 197
-0.00136160938464869 0.0957761156063854 -0.0186287692581568 -0.02624647 0.05818607 0.9979607 186 190 198
-0.00326915616916379 0.0971688226346192 -0.0187093922576991 -0.01940089 0.07299149 0.9971439 188 192 199
-0.00409915124060145 0.0929558390257841 -0.0184457738142694 -0.02373082 0.06771943 0.9974222 186 192 198
-0.00585160111404504 0.0917386014685435 -0.0185247834507643 -0.01185072 0.07053918 0.9974386 184 191 197
-0.00784402144438978 0.0912348996234511 -0.0185640862609698 -0.0177411 0.07126433 0.9972997 188 193 200
-0.00678992864562344 0.09347849583649 -0.0186011440962715 -0.006033236 0.06768651 0.9976884 186 191 198
-0.00696459312720821 0.0954354768808849 -0.0188201318247437 -0.007580947 0.07075819 0.9974647 189 193 200
-0.00915020518569909 0.0946243155818001 -0.0187658736779651 -0.01122915 0.06935667 0.9975287 187 190 199
-0.00286244691212811 0.0998595511642437 -0.0188228428325906 -0.01485507 0.06513509 0.9977659 181 185 192
-0.00475864426230954 0.0986186883100137 -0.0189386206178724 -0.01375625 0.08148805 0.9965794 184 189 196
-0.00147238228672375 0.101892234090575 -0.0189187715495141 -0.009227552 0.0674805 0.9976779 188 193 200
-0.00306298254584103 0.101151275414443 -0.0189029880262484 -0.00674758 0.07233296 0.9973577 183 188 194
-0.00409915414454298 0.103144430134692 -0.0191371037403877 -0.003577896 0.07204653 0.9973949 180 186 192
-0.00459215594794138 0.100282678483641 -0.0189258372213573 -0.01441584 0.08226112 0.9965066 184 189 196
-0.00582687731664899 0.098488867591308 -0.0188826310473888 -0.01551099 0.07892562 0.9967598 182 187 194
-0.00750263353310388 0.0995572178999302 -0.0190096738734301 -0.01709243 0.08221959 0.9964676 183 187 194
-0.00981244012417148 0.0962892454417317 -0.0189337224555889 -0.01205162 0.0771671 0.9969453 189 194 200
-0.00860114937422507 0.0988936144311963 -0.0190312886424823 -0.007981701 0.07156792 0.9974038 187 191 199
-0.00657445641513599 0.10240068036555 -0.0191591780216717 -0.0159546 0.07732478 0.9968783 181 187 194
-0.00973124133237402 0.101027918865039 -0.0192987305471874 -0.01728901 0.07240432 0.9972255 185 189 196
-0.0114095218426216 0.100083683396915 -0.0192168857442177 -0.01677472 0.06759333 0.9975719 185 190 197
-0.00925011619368021 0.0909903142700712 -0.0184511073910106 -0.01418002 0.07611401 0.9969983 191 196 202
-0.0103753297128772 0.0919360454041203 -0.0186371235031726 -0.01419274 0.07704445 0.9969267 185 190 198
-0.0108522305677461 0.0884350010108779 -0.0186179283323656 -0.01043521 0.06714199 0.9976888 192 195 202
-0.0128301529456474 0.0913696295235213 -0.0187675801183322 -0.01295105 0.07640826 0.9969925 183 189 196
-0.0140401041545783 0.090440411401721 -0.0187543663324614 -0.01588515 0.07347327 0.9971707 185 190 198
-0.012921622483363 0.0932732864369028 -0.0189450594251409 -0.01410534 0.07538737 0.9970546 182 187 196
-0.0151722201276256 0.0879710516145542 -0.0186427861278861 -0.007985958 0.06204109 0.9980416 182 187 195
-0.0186026140138389 0.0866111887337901 -0.0186450858347975 -0.00655352 0.06525414 0.9978471 185 189 196
-0.0164573399248971 0.0917030235429059 -0.0189868089771448 -0.01377926 0.07204557 0.9973062 185 189 197
-0.0182405435179076 0.091192081159208 -0.0189231191424333 0.0217013 0.07028571 0.9972908 185 190 196
-0.0203865968517181 0.0901032069293974 -0.0189065507985935 0.2418658 0.138767 0.9603357 185 189 196
-0.0119906442694782 0.0956636896814451 -0.0188747161441973 -0.013638 0.06903125 0.9975213 183 189 194
-0.0144878215449751 0.0971474897603193 -0.0191479916069956 -0.01653909 0.06803405 0.9975459 182 189 193
-0.0144105867826161 0.0953889893854967 -0.0190497251886045 -0.01737118 0.074207 0.9970915 189 193 202
-0.0155841708654916 0.0942801118285732 -0.0189466245919913 -0.01641059 0.07761835 0.996848 183 188 195
-0.0133893492496613 0.0996408891780851 -0.0191226134877906 -0.02179607 0.06918592 0.9973657 182 187 194
-0.0163055700118058 0.0963334736075325 -0.0191234762111369 -0.0179809 0.07152203 0.997277 183 188 194
-0.0150810316843573 0.0988843687617569 -0.0193341713652931 -0.01494745 0.06755187 0.9976038 186 191 198
-0.0173758726793087 0.0936289145079103 -0.0190507042651072 -0.01104532 0.07175231 0.9973613 185 190 197
-0.0181869591847903 0.0954385354813907 -0.0191277286857907 0.01345947 0.07392462 0.997173 185 189 196
-0.0206155962806278 0.0919519494303003 -0.0190908926269519 0.2354206 0.02660258 0.9715294 181 188 194
-0.0211477883234168 0.093703575398173 -0.0191442380601559 0.2843603 0.02428797 0.9584098 184 188 195
-0.0211645518963919 0.0961836122120088 -0.019385012357104 0.3050842 0.09576701 0.9474979 186 190 197
-0.00237575967188919 0.105457652182429 -0.0190140309173154 -0.005748032 0.05827789 0.9982839 176 182 188
-0.00254802390082265 0.105545335513071 -0.0191955302269651 -0.005753405 0.05919638 0.9982298 176 183 190
-0.00496526049341384 0.103655352081569 -0.0189724299269498 -0.006153081 0.06262984 0.9980178 180 185 190
-0.00609399857756943 0.104418784772993 -0.0193273485015696 -0.01276552 0.06113198 0.9980481 187 190 199
-0.00538948272727602 0.104953131938532 -0.0190802750028372 -0.009850273 0.05631041 0.9983647 186 190 198
-0.00371774717724671 0.107627655274599 -0.0193896000415932 0.001076024 0.06542446 0.997857 183 189 194
-0.00547473746530081 0.106956499361858 -0.0195211834542803 -0.01978945 0.06839268 0.9974622 190 194 201
-0.00809593624506855 0.108253138439227 -0.0196802724071408 -0.01832193 0.07315809 0.997152 194 199 207
-0.00824094238698692 0.103161065113387 -0.0194177920743628 -0.01866409 0.0719046 0.9972368 189 193 200
-0.00888058896349797 0.102282507537576 -0.0188984195122404 -0.01393467 0.0729235 0.9972402 182 190 194
-0.0106874537240311 0.103517855920747 -0.0193393802556522 -0.02332773 0.06060811 0.997889 181 187 193
-0.0102585913990074 0.107283529755883 -0.0196034288602481 -0.0183684 0.06086173 0.9979772 185 190 198
-0.0127745311908467 0.104342357713026 -0.0194984389898696 -0.0130122 0.06749513 0.9976348 186 190 197
-0.00520834082217592 0.111143449093751 -0.0198407863337648 -0.01390843 0.06773558 0.9976063 189 193 201
-0.00488208822816905 0.111563476032919 -0.0194857724162421 -0.01373641 0.07914434 0.9967685 173 180 185
-0.00696491185462822 0.110415577396888 -0.019408218783863 -0.02100291 0.08089946 0.996501 175 180 184
-0.00665763962329091 0.114588423798242 -0.0200267758793048 -0.008863742 0.05983892 0.9981687 189 195 204
-0.00794022573294528 0.11276342800651 -0.0199349140270309 -0.01721708 0.09094991 0.9957066 184 189 197
-0.00944065573427677 0.113309848328141 -0.0198006431855846 -0.0151911 0.08191823 0.9965233 185 192 199
-0.0137277459467948 0.106171410953133 -0.0198206145348527 -0.01038124 0.06824484 0.9976146 189 193 200
-0.0103436146205458 0.111283404285514 -0.0196630053448142 -0.005601707 0.08178798 0.996634 186 191 199
-0.0111914813084284 0.111144406483423 -0.019988890037923 -0.01276102 0.08512975 0.9962882 196 202 211
-0.0121298886340422 0.113154325294568 -0.0200243420826218 -0.01752887 0.08436826 0.9962804 177 183 189
-0.0135497514590512 0.11043307355979 -0.0200873241192636 -0.005275197 0.08747878 0.9961524 188 193 201
-0.014529881870208 0.109365221421344 -0.0195067938629381 -0.006054457 0.07073589 0.9974767 173 181 185
-0.0179909306800545 0.100046690329187 -0.0195000542782136 0.06278948 0.08575829 0.9943355 177 183 192
-0.0144204143552664 0.102978320837655 -0.0195734259720944 -0.02249512 0.06588065 0.9975739 186 191 198
-0.0157285602198254 0.105177770922571 -0.0197062218820415 -0.01200005 0.07522749 0.9970942 187 191 198
-0.0228246215152161 0.100481730135527 -0.0161097469824966 0.9838476 0.1258869 -0.1272654 164 166 172
-0.022384022563648 0.102366190638394 -0.0161541925788181 0.9892429 0.1230814 -0.0790534 141 145 151
-0.0198668437088583 0.0990615396972145 -0.0194887916341644 0.2407879 0.1334217 0.9613636 188 192 200
-0.0214332607132834 0.0981928645480454 -0.019547404227207 0.3243851 0.1390211 0.9356535 188 191 196
-0.0231367976236165 0.0973779685175684 -0.0194056885921028 0.5543945 0.07601138 0.8287756 178 184 188
-0.020295820346754 0.10092186175604 -0.0195819861510858 0.2559608 0.08250136 0.9631602 184 188 196
-0.0229601384655593 0.102210462451038 -0.0197178978230363 0.4942604 0.106962 0.8627084 175 182 185
-0.0230299368809659 0.102374134647754 -0.0187607821737023 0.8688868 0.0909175 0.4865899 172 177 181
-0.0208852027775657 0.109177183327818 -0.0150704432955268 0.9707265 -0.09024356 -0.2225894 196 198 206
-0.0190743632029702 0.104173885905134 -0.0196550210608542 0.2023495 0.0808857 0.9759673 184 192 200
-0.018291396945572 0.106373164174996 -0.0199257585107193 0.1858979 0.1047744 0.9769669 181 188 195
-0.0170029958594706 0.108908100848337 -0.0200138548688465 0.07820685 0.03490691 0.9963259 191 195 203
-0.0178525188786587 0.110814040823882 -0.0200095725099945 0.1135826 0.07666416 0.9905663 181 187 193
-0.0192040250988983 0.108032269085639 -0.0200105167639789 0.2256733 0.009106111 0.9741605 187 192 200
-0.0196466587601072 0.110152884785525 -0.0201496183160051 0.4150373 0.1180983 0.9021069 196 200 206
-0.0219005459239026 0.10680877409271 -0.0167899997108393 0.989298 -0.1018073 -0.1045209 197 198 204
-0.0213214466103224 0.108269298611346 -0.016448872069229 0.9811401 -0.1157553 -0.1548056 176 182 183
-0.0218804725849067 0.104798377997414 -0.019883695017236 0.614816 0.0961659 0.7827857 186 191 195
-0.0224025039640066 0.107086928719907 -0.018949872862108 0.9907042 0.08621281 0.1052261 175 182 188
-0.0222481855675349 0.10904731862643 -0.0187087536065975 0.9815133 -0.02041222 0.1903021 150 159 162
-0.0222466884331687 0.106668076924956 -0.0200571231400181 0.818307 0.1503198 0.5547771 190 194 199
-0.0219811951253575 0.107750952787435 -0.0194380425472615 0.8919274 0.1088814 0.4388741 167 176 182
-0.0243788147500643 0.0853949833185019 -0.0137725383850453 0.9931894 0.1131468 -0.02779585 139 149 151
-0.0240667596711743 0.0871274393026014 -0.0143790686987943 0.9865916 0.1592024 0.03593734 143 153 158
-0.0203658345338948 0.086027294687862 -0.0185517323930306 0.1229049 0.07750774 0.9893872 188 192 200
-0.0225272715352189 0.0852018709775482 -0.0186794044364623 0.3969635 0.09601289 0.9127987 186 191 197
-0.0244542242818793 0.0841990261222876 -0.0186997762005396 0.683844 0.1291236 0.7181118 184 188 193
-0.0220082884335295 0.0876677838948974 -0.0187097631864256 0.3241061 0.1720333 0.9302471 186 190 197
-0.022216553849816 0.0890752908131682 -0.0189855460305511 0.4326306 0.1353392 0.8913552 184 190 195
-0.0246201060686877 0.0888272630092561 -0.017467679470563 0.9176891 0.2105289 0.3369336 149 158 157
-0.0251650511943362 0.0860097054904572 -0.0174875799313752 0.9329371 0.1900625 0.3057852 137 151 159
-0.0247854967648755 0.0832806901065772 -0.0141210764795552 0.9988899 0.04322968 0.01871528 147 150 161
-0.0247789190291297 0.0835941914171212 -0.0147161994708409 0.9954588 0.05300529 0.07907037 150 159 167
-0.0253777342128427 0.0834662540385496 -0.0172619077637139 0.9556428 0.07086744 0.2858753 145 155 166
-0.0251170263894029 0.0846603551691441 -0.0166141698348204 0.9656153 0.07209712 0.2497779 135 147 162
-0.0234332957399377 0.0900927027068901 -0.0151423313962232 0.9821298 0.1736515 0.07256848 164 176 169
-0.0232544239301644 0.0939037769123405 -0.0137402644820225 0.9870992 0.05680119 -0.1496954 166 169 174
-0.0235955223936752 0.0936159329752464 -0.0158116943437441 0.9961904 0.04230117 0.07625882 145 155 154
-0.0229391932805734 0.090986031564144 -0.0190167770404745 0.6221855 0.1124375 0.7747536 184 185 194
-0.0241991701470443 0.0898445386762494 -0.0179258421100276 0.9082657 0.1192492 0.4010399 157 163 167
-0.0240153207302867 0.0936973665227543 -0.0175093658831132 0.9528483 -0.01716069 0.3029616 143 154 158
-0.0241083931591946 0.0951970514844451 -0.0180679218302864 0.9598438 0.02374054 0.2795289 155 162 167
-0.0235495594508857 0.093936212758132 -0.0192321399832847 0.704621 0.04123667 0.7083846 160 171 172
-0.0238849109012094 0.0955473117008168 -0.0191642349501139 0.7692305 0.05679904 0.6364418 164 170 175
-0.0227787622284854 0.0866173032556163 -0.0188728770337053 0.3274287 0.2170891 0.9195992 186 190 198
-0.0252271979274474 0.0829736179005771 -0.018561602400431 0.7445639 0.08541778 0.6620638 172 180 183
-0.0238180050892201 0.0964313304588928 -0.0172810064356055 0.9559333 0.04385349 0.29029 139 148 157
-0.0166781145529256 0.126162410612911 0.00426184319009731 0.9267865 0.3750124 0.02079368 176 183 184
-0.018903996585498 0.120577691224554 0.00242514350557937 0.983067 0.1813497 -0.02629962 189 193 195
-0.018461079481094 0.121520739917341 0.00233214967080514 0.9673522 0.2531243 -0.01256664 172 177 179
-0.0180964825214143 0.123399096587925 0.00217866610102885 0.9529406 0.3031568 -0.0001531835 193 197 201
-0.0191153762416478 0.118612182439411 0.000263194772832931 0.9871932 0.159528 -0.000615647 176 178 181
-0.018186445702737 0.122958232942318 9.94494339777163E-05 0.9530932 0.3015339 0.0262815 201 203 206
-0.0168859152042335 0.12546084896768 0.000138464984734854 0.9182366 0.3943061 0.0369367 184 188 193
-0.0172547134141312 0.124125002061591 -0.00173715725415841 0.9313641 0.3589806 0.06077699 193 200 203
-0.017399761414044 0.124008541319565 -0.000442460310693338 0.933835 0.3552378 0.04193167 210 211 216
-0.0189382543273382 0.120312946968554 -0.00148404183418621 0.9727884 0.2250188 0.05522009 181 187 187
-0.0190876405568927 0.118464625549313 -0.00146710857660087 0.9837678 0.1762907 0.03350397 166 171 169
-0.0165844391381995 0.125280603433195 -0.00199041274375628 0.9106721 0.4084114 0.06226141 195 200 204
-0.0166049127631083 0.124901776625282 -0.00375881862517308 0.9212885 0.3883066 0.02110716 200 205 210
-0.0194721849724258 0.114286569929442 0.00321295385594095 0.9842744 0.1331439 -0.1160887 164 169 170
-0.0198750090655739 0.113196026911871 0.00307977741689419 0.9814244 0.1398835 -0.1312966 189 191 193
-0.0195247957674991 0.116187670623218 0.00281155987337928 0.9861256 0.1443371 -0.08199361 172 177 175
-0.0200729789565597 0.113524492118329 0.000819179240511614 0.9803676 0.1792874 -0.08206924 183 187 191
-0.019535462143129 0.116124667601762 0.00104923523806982 0.9863694 0.1525731 -0.06161829 169 175 174
-0.0194637845672907 0.116054696548829 -0.000915004025876354 0.9833665 0.1798995 -0.02502973 152 160 157
-0.0207145038870911 0.111584422430793 -0.00110862678337448 0.9771074 0.1796989 -0.1138835 199 205 209
-0.0189136957031883 0.116772039376082 -0.00279621935448487 0.9766265 0.2148705 0.005595653 118 127 121
-0.0159915890448734 0.128220801518333 0.0040908361100947 0.8928659 0.4450614 0.06863542 199 204 209
-0.0159919091847232 0.128476733198288 0.00191762097338571 0.8705416 0.4870322 0.07040621 188 193 197
-0.0151909539065951 0.130219671110115 0.00307745236805607 0.7940791 0.5997087 0.09893373 195 197 200
-0.0155858676314531 0.129855717215163 0.00298336831103524 0.7771727 0.6069826 0.1660559 208 218 223
-0.0100490213133204 0.127710027078369 -0.000399026532626967 -0.4437329 0.8856449 -0.136873 156 164 151
-0.0160265697749318 0.126700482036108 -0.000484785265703891 0.9031138 0.4246892 0.06343956 198 203 212
-0.0153433341592839 0.127773063831656 -0.00208697381103945 0.8910531 0.4538148 0.00874289 200 204 209
-0.0138239184795657 0.130901968172887 0.000561550176733483 0.02843402 0.902644 -0.4294477 212 209 203
-0.0145292735180336 0.130217926163054 -0.00038234682544519 0.619054 0.7850079 -0.02312617 204 207 211
-0.0152710792857969 0.129632846203272 0.00117876976860981 0.7807485 0.6236867 0.03803413 196 198 205
-0.0142717684032494 0.129674111499502 -0.000175647986433491 0.3955775 0.9183014 -0.01552443 145 155 128
-0.0144845018770465 0.129175851944419 -0.00197601355004146 0.7103547 0.6837306 -0.1670588 188 192 196
-0.0106793894747894 0.128135633413215 -0.00197490790503591 -0.3590604 0.933092 0.02037218 165 171 169
-0.0146680246851734 0.128697151441846 -0.00360104075987416 0.8985503 0.4238779 -0.1137314 203 206 214
-0.0136058144481948 0.130401127938936 -0.00232035229036182 0.6017388 0.7775708 -0.1824669 126 135 136
-0.0143164905594992 0.130543261478745 -0.004439636771911 0.9009792 0.3949893 -0.1794993 206 210 212
-0.013783174006206 0.130995799630744 -0.00415159743192056 0.9009792 0.3949893 -0.1794993 220 221 220
-0.0160340932026957 0.126188037168624 -0.00388592947127392 0.9202761 0.3912093 0.006863686 190 195 198
-0.018576557859844 0.117679106365899 -0.00499054785580461 0.9790465 0.203622 -0.002453118 167 173 174
-0.0183149290612374 0.119669055256822 -0.00546274453316892 0.9735281 0.2284058 -0.008593969 134 147 147
-0.0179414616900333 0.120157738654555 -0.00573278826169105 0.9707094 0.2400356 -0.01030581 156 161 164
-0.0167746566530704 0.123806861532276 -0.00522045078428585 0.9417734 0.3360331 -0.01202886 199 203 208
-0.0162303615626338 0.124929721860855 -0.00603651455410598 0.9368057 0.3480839 -0.03511057 183 188 191
-0.0165837752511799 0.124682111573042 -0.00757243419953596 0.9374546 0.3412485 -0.06876329 195 200 202
-0.0177910184949854 0.122231422387057 -0.00561466298134811 0.9548344 0.2971369 -0.0009554328 185 193 194
-0.018343354818009 0.120182950466467 -0.00711353818451471 0.9698009 0.2205438 -0.104147 174 180 182
-0.0176988160086706 0.122329844038432 -0.00721977926789291 0.9496939 0.301952 -0.08310466 158 166 164
-0.0188194717478853 0.117707239696901 -0.00954231751830875 0.9703399 0.1428988 -0.1949884 163 166 169
-0.018783212166221 0.121008424585872 -0.0124405433454721 0.9487994 0.1383723 -0.283959 210 211 209
-0.019548441675338 0.119885904743652 -0.0136261678871534 0.9345613 0.1546955 -0.320413 158 165 171
-0.0193231439932005 0.122699197718124 -0.0131748496772484 0.9315881 0.08950714 -0.352324 115 152 151
-0.0191313409518696 0.121649198560568 -0.0139816668356859 0.9486628 0.08814521 -0.3037585 139 154 159
-0.0196441977022053 0.120734128626071 -0.0158808139197997 0.9927965 0.1149613 -0.03374859 172 178 179
-0.019670440130271 0.1138812277479 -0.00527408098285914 0.9651889 0.26108 -0.0157349 162 175 172
-0.0207560413331778 0.111164154672163 -0.00529652511123485 0.9745376 0.2238638 0.01270553 135 146 144
-0.0192040193081011 0.115309370782743 -0.00490604761224372 0.9709784 0.2389698 -0.009713223 156 164 162
-0.0196466947200427 0.113304567828417 -0.00739999357080839 0.9746467 0.2233724 0.01298325 152 157 157
-0.0201519423097842 0.11246765125932 -0.00690347507208228 0.9705795 0.2380173 0.03637641 167 175 176
-0.0204906681168175 0.111190656971513 -0.00843114852626675 0.9760439 0.205501 0.07146832 138 150 151
-0.0192732999693783 0.115483177404214 -0.00706388719359102 0.9761534 0.2145533 -0.03303574 161 166 164
-0.0194712840359874 0.115066976327122 -0.00939381545778489 0.9782059 0.1370753 -0.1559606 183 187 190
-0.0194930115821257 0.112536025265567 -0.0113936135135775 0.9855238 0.04300508 -0.1639918 127 140 140
-0.0195350605655116 0.114900979870486 -0.0108960414063496 0.9761683 0.08365776 -0.2002418 182 187 191
-0.0191623321685799 0.116761231855905 -0.0115435254350268 0.9580659 0.1200606 -0.2601829 205 208 208
-0.0189613752329807 0.117362580603922 -0.0109032904713822 0.9619974 0.112104 -0.2489853 178 184 188
-0.0194361875979157 0.115663176449781 -0.0125461826311034 0.9559356 0.08845352 -0.2799341 202 206 216
-0.021174463892395 0.11565834745329 -0.0145220727737876 0.9435223 0.07243751 -0.3232931 204 206 216
-0.0201031005554366 0.119228838772443 -0.0143863908669707 0.9377871 0.1473083 -0.3144132 161 176 179
-0.0157246095246504 0.125978538999623 -0.00576490170068283 0.9297896 0.3652704 -0.04548365 189 194 199
-0.015437093941387 0.127692978477009 -0.00592903545432771 0.9468055 0.3149831 -0.0659162 180 181 188
-0.0153401285969341 0.127042928258706 -0.0077306604244643 0.9457289 0.3117235 -0.09178936 198 203 204
-0.014649907634662 0.129210139323505 -0.00677348984765541 0.9474093 0.305578 -0.09506711 212 211 213
-0.0159740461683726 0.125853968787946 -0.00938296287662704 0.9123096 0.3000435 -0.2786848 210 211 214
-0.0153496029251357 0.127338018068504 -0.0092712396381282 0.9112509 0.2809499 -0.301146 215 208 214
-0.0139505566909937 0.131340985166297 -0.00820263282946915 0.9065133 0.2173765 -0.361913 215 221 220
-0.0164305184290625 0.125283103191385 -0.00998030157448432 0.9057297 0.2510679 -0.3414946 215 216 222
-0.0138168063503614 0.132033932471271 -0.00647097474385544 0.9345296 0.2838485 -0.2146727 229 224 224
-0.01896714441465 0.125985701137603 -0.0142309778075739 0.947169 0.02330484 -0.319887 156 162 167
-0.0187316698646671 0.124485536917239 -0.0146711173871717 0.9564792 0.03672364 -0.2894804 131 136 149
-0.0188708849285488 0.123231035894606 -0.0158343210928728 0.9862339 0.07627241 -0.1467142 157 165 165
-0.0190337774735472 0.126001185649147 -0.0161119306789702 0.9985397 0.04471574 -0.03031247 179 182 182
-0.0190764723161645 0.126945652503468 -0.014226761233975 0.9334297 0.01890853 -0.3582618 196 203 199
-0.019140932592606 0.126821330807918 -0.0156807757678479 0.9948236 0.02683032 -0.09801114 205 208 213
-0.0190062930491699 0.128013596690624 -0.0161442596263332 0.9976085 0.01682357 -0.06703904 183 188 190
-0.0182417241317627 0.134148868121283 -0.0167504604824444 0.9973403 -0.05075092 0.05231375 194 197 195
-0.0184710781020039 0.130494248650141 -0.0144047168293315 0.9358372 0.04166321 -0.3499613 194 197 201
-0.0181868923321109 0.131082750745612 -0.0143893986548294 0.9162423 0.05289387 -0.3971175 211 209 198
-0.0188266227077469 0.130402813499366 -0.0161228785084885 0.996544 0.06486578 -0.05188902 183 186 189
-0.018135880208249 0.136905879928616 -0.0167175950107886 0.9757882 -0.03617768 0.2157049 203 205 206
-0.00779580105691169 0.116842624819841 -0.0202220145716057 -0.004501824 0.06121123 0.9981147 187 193 200
-0.00886619690595802 0.116004793814465 -0.0201788055283689 0.00174293 0.06023516 0.9981827 191 196 204
-0.00844432571351783 0.115359668469938 -0.0195269657915728 -0.007102016 0.06092497 0.9981171 187 194 199
-0.0112453225001166 0.115537641826154 -0.0199612134775328 -0.0149907 0.06873583 0.9975222 178 183 192
-0.00836994574620498 0.118783224739764 -0.0201688200120966 -0.008825074 0.05704294 0.9983327 178 185 193
-0.00897548482428601 0.120503779183526 -0.0205792233053898 -0.004573495 0.06151735 0.9980955 205 209 218
-0.011574570169564 0.117108595260843 -0.0200577046769182 -0.0183509 0.058165 0.9981383 171 177 186
-0.0115805782727434 0.117189744239072 -0.0204013264191592 -0.01426401 0.06297047 0.9979135 186 190 199
-0.0108500580792241 0.120187914586485 -0.0202947965846292 -0.01879176 0.05620285 0.9982425 176 183 188
-0.0124163132279906 0.118386944493052 -0.0201570173022717 -0.007116201 0.06490452 0.9978661 179 182 190
-0.0128912900244935 0.114751320174178 -0.0203331166115723 -0.01354867 0.08257048 0.9964931 191 196 204
-0.0129646621460942 0.115238044713793 -0.0198349548272157 -0.01096332 0.08041278 0.9967014 169 175 183
-0.0143519530145775 0.11389123976468 -0.0203225370024192 -0.0126627 0.0716821 0.9973472 193 198 207
-0.0138008803755643 0.11668101221199 -0.0204875317452023 0.004606328 0.05704505 0.998361 201 206 215
-0.0157208110467333 0.115849689660149 -0.0204517389861704 -0.01866927 0.07963002 0.9966496 189 195 202
-0.017554873996287 0.114975900464277 -0.0204808387375418 0.004913643 0.08289602 0.9965461 191 196 205
-0.00975403344650605 0.122486402474425 -0.0204647169525256 -0.003036826 0.04892044 0.9987981 175 181 187
-0.00922779264392704 0.123023671091958 -0.0206936004299914 -0.0056573 0.05130602 0.9986669 194 199 207
-0.0112686339904768 0.121731480113127 -0.0206846966045651 -0.008186286 0.06643894 0.9977569 197 201 210
-0.0129436414195929 0.121282764400003 -0.0203894205328706 -0.003635679 0.06884152 0.997621 175 181 186
-0.0134312046004474 0.121046836686531 -0.0207617202390675 -0.01131982 0.07260609 0.9972965 196 201 211
-0.00904628911749761 0.124528623527968 -0.0206531106995549 -0.002739552 0.05721276 0.9983582 164 170 179
-0.00963029544948135 0.124151056016851 -0.0205899552847923 0.001446493 0.05362704 0.99856 179 186 194
-0.0104320013932062 0.124369134394752 -0.020797587993793 0.005093809 0.05943976 0.9982189 203 209 217
-0.012560556623344 0.123658522355646 -0.0208153896958178 -0.01339846 0.05434331 0.9984324 194 199 207
-0.011346362537767 0.126016998283194 -0.0209952111095035 -0.00239231 0.04913976 0.9987891 194 199 207
-0.013861368104481 0.12288355689692 -0.0208272388336238 -0.00175718 0.0602302 0.998183 193 198 206
-0.0129751746534916 0.123617294593172 -0.0205918840026894 -0.00563685 0.06304961 0.9979945 178 185 195
-0.0128344525708566 0.125678551796733 -0.0210594576913056 -0.009592859 0.05798979 0.9982711 211 214 224
-0.0142422735007113 0.124510920567654 -0.0205939414465299 -0.003024719 0.06669337 0.9977689 171 179 183
-0.0200137408991665 0.120995011874386 -0.0176121844183719 0.9935378 0.1105058 0.02590372 204 212 208
-0.014576108960596 0.11863473249335 -0.0205611785515279 -0.005716729 0.05828824 0.9982834 189 195 203
-0.014774572651346 0.118753525928508 -0.0203228551747272 -0.01111068 0.05108684 0.9986324 190 194 203
-0.0150112620727323 0.119941644170398 -0.0207765759970097 -0.00574517 0.06590396 0.9978094 201 205 215
-0.016845271602743 0.119727159676699 -0.0207237906568757 0.04269352 0.07133943 0.996538 192 197 205
-0.0161964342193675 0.11801891990298 -0.0202030765891907 -0.02366569 0.06191541 0.9978008 181 187 194
-0.0178751541576525 0.118346112870209 -0.0202839910942056 0.236244 0.1082194 0.9656487 172 178 184
-0.0177094537198674 0.118847447836987 -0.0203877262272392 0.249212 0.08352537 0.9648404 169 176 185
-0.0158156394539342 0.122081817848395 -0.0207870050198587 -0.0101487 0.05640497 0.9983564 194 198 206
-0.0177364560045761 0.121086825361717 -0.0208627166148622 0.165586 0.08665971 0.9823804 190 195 205
-0.0164030759426841 0.122434617649142 -0.0205914276642691 0.01917773 0.06445496 0.9977363 182 187 194
-0.0169384739722416 0.123860633816905 -0.0210246251597374 0.08564835 0.08211486 0.9929358 200 205 214
-0.0174833444893312 0.12109150094563 -0.020555349447788 0.165586 0.08665971 0.9823804 164 173 182
-0.0185793190543162 0.122930225537152 -0.0210682178115651 0.3908019 0.07768502 0.9171908 199 203 212
-0.0218021045997872 0.111530524121524 -0.0169520847057341 0.9912058 0.04668425 0.1238214 180 184 188
-0.022017523743517 0.112734506863724 -0.0171248086645399 0.9902271 0.0001845481 0.1394639 180 185 188
-0.0205195396465094 0.111665344272232 -0.0203492279518101 0.5091872 0.07655316 0.8572444 194 196 204
-0.0223479227144785 0.110634090312674 -0.0189351923026244 0.971342 0.03094394 0.2356633 158 160 167
-0.0216007496361086 0.110711545099507 -0.0203125561958927 0.720153 0.04339061 0.6924571 177 186 189
-0.0195670893718631 0.116177935406967 -0.0206136819992186 0.2885915 0.08160851 0.953968 193 198 205
-0.0220366470677034 0.115313184828015 -0.0195220242942024 0.9432072 0.1307085 0.3054103 170 176 180
-0.0209760381579907 0.118408272304603 -0.0175393585332119 0.981198 0.1888888 0.03964322 168 172 177
-0.0206914511991596 0.11986408898098 -0.0178586682261866 0.9642686 0.2450984 0.1005622 200 203 206
-0.0204192904232521 0.118065239024788 -0.0208151096856699 0.3483169 0.1555043 0.9243883 200 205 212
-0.0207147960056102 0.120096705482913 -0.0195007094374467 0.9103321 0.1522859 0.3848433 181 190 190
-0.0205162195284014 0.120786340034688 -0.0198800020583993 0.8347321 0.1098986 0.5395782 173 181 189
-0.0203570431033198 0.122473938502835 -0.0200895026575333 0.9004936 0.05571857 0.431285 171 181 184
-0.0205948494270149 0.119299542631363 -0.0207227967890801 0.4440951 0.162248 0.8811669 183 191 196
-0.010736402019083 0.126566305502839 -0.0206940720942015 0.003730166 0.04110473 0.9991479 176 182 189
-0.0117824365862105 0.128310853227976 -0.0208598122806777 0.002120867 0.05735233 0.9983518 177 182 189
-0.0112760684235367 0.128052116322093 -0.0210870651048468 -0.002583304 0.0547451 0.998497 202 208 216
-0.0128717883699565 0.127201097478423 -0.0209331965143147 0.003132973 0.06054119 0.9981608 181 186 195
-0.0135025357398049 0.127076517636714 -0.0211520633032282 0.00779471 0.07251575 0.9973368 206 209 218
-0.014810127548095 0.124983583647215 -0.0210388926223853 -0.001872827 0.06369329 0.9979678 206 211 220
-0.0157613703196242 0.126758025979818 -0.0208646120054097 0.03124764 0.05142735 0.9981878 191 198 204
-0.0155177779753504 0.126171395901658 -0.0211513489200318 0.02073408 0.06898029 0.9974025 206 210 219
-0.0144717593827033 0.129218224042879 -0.0213347289211368 0.003776546 0.05887121 0.9982585 197 203 212
-0.0135424572087843 0.131838319316044 -0.0215030183795281 0.005928291 0.06024969 0.9981657 198 203 211
-0.0152659420174244 0.13075377844745 -0.0211155770305841 0.05052252 0.06343322 0.9967064 168 175 181
-0.0162922739435976 0.128626706599637 -0.0209954878303822 0.1799053 0.06526253 0.9815166 141 159 168
-0.0171008049875523 0.130206641522323 -0.0213921618679896 0.2591314 0.04831819 0.9646327 196 203 210
-0.019471972348716 0.123564373868517 -0.017379682204322 0.997542 0.02978843 0.06342375 156 165 169
-0.0198341646982128 0.122946323490479 -0.0178192027046051 0.9896048 0.1181185 0.08203882 161 167 169
-0.0195296014150728 0.125025355259493 -0.0178126899360535 0.9953026 0.07969701 0.05496394 191 195 199
-0.0196520638580595 0.127457992353362 -0.0180473028223304 0.9978017 0.05803295 0.03199838 192 196 196
-0.0172566427628729 0.125957990098114 -0.0208783300286845 0.1610753 0.08349527 0.9834039 175 178 184
-0.0171119901529564 0.126018356737899 -0.0211441537511247 0.0474752 0.06748979 0.9965898 199 204 211
-0.0203569217758743 0.124005144464099 -0.0203325886675684 0.8654122 0.06653444 0.4966235 184 193 200
-0.0200211893814526 0.123400810541476 -0.0211630964649529 0.564198 0.03739734 0.8247921 211 213 222
-0.0195491852042013 0.12545165279703 -0.0201762684547488 0.7018548 0.0775445 0.7080867 168 174 182
-0.0181995953278675 0.127599617729569 -0.0213094013540617 0.2963634 0.1362035 0.9453134 172 182 192
-0.0199033582221708 0.126984519686159 -0.0202169954447219 0.8850889 0.1771304 0.430398 185 189 199
-0.0132745094485638 0.131640534891078 -0.0211749029915276 0.007574309 0.05700453 0.9983452 182 187 194
-0.0162411008941516 0.132973517215515 -0.0212896937103902 0.2141899 0.0235496 0.9765081 190 194 202
-0.0161206935414366 0.132866851153965 -0.0216675816921629 0.0865509 0.07670619 0.9932901 199 201 210
-0.018310533951051 0.13203789607328 -0.0210270762673354 0.4823683 0.0365831 0.8752043 173 178 182
-0.0147205305647362 0.135507809973812 -0.0218577853224035 0.09215706 0.1361132 0.9863976 203 205 209
-0.0163956686471529 0.134610972824076 -0.0216734138445484 0.2499383 0.06191265 0.9662803 221 221 231
-0.018259025241441 0.13399235248375 -0.0217425650958522 0.4822295 0.08043558 0.8723444 221 224 232
-0.0187288381448583 0.131271880424879 -0.0165623047825462 0.9988902 0.04338996 -0.01832278 205 209 212
-0.0188560191950624 0.132581021327638 -0.0182417254360832 0.9959346 -0.01310137 0.08912112 160 165 166
-0.0189243622266271 0.131524211484067 -0.0206067733907785 0.8225109 0.01692613 0.5684974 166 173 179
-0.0186719493706025 0.129503556127126 -0.0214339377207639 0.408429 0.1233851 0.9044124 206 208 215
-0.019866416902687 0.128729581570328 -0.0208222748676223 0.8075766 0.09931701 0.58134 187 200 204
-0.0186480044116228 0.130810405467766 -0.0215290978579403 0.5119552 0.1295739 0.8491834 189 191 198
-0.0192119411779448 0.136179419736185 -0.0191364440604299 0.963968 0.07147223 0.2562372 199 200 206
-0.0185219327106223 0.13850868444378 -0.0191466266543611 0.9138175 0.04581355 0.4035328 208 209 211
-0.0191466663760433 0.13576692991327 -0.020830538604199 0.8440304 0.102282 0.5264513 188 193 199
-0.01903134769461 0.137380380228927 -0.0203572445527871 0.8440304 0.102282 0.5264513 188 194 202
-0.0179721238724273 0.136345740439502 -0.0213233229448572 0.7775996 0.08870962 0.6224704 173 176 178
-0.0173865172094403 0.136379123673 -0.0219033775730901 0.4765217 0.1876997 0.8588923 201 205 213
-0.0185861009752109 0.135598455291733 -0.0218493022159233 0.644488 0.1129864 0.7562205 219 224 231
-0.0379794168267114 -0.0700405312444906 0.016240817119883 0.9831474 -0.1827737 -0.003870221 167 171 168
-0.0386031416045829 -0.0614617378795536 -0.0106856451607619 -0.0230674 0.08775499 0.9958749 192 195 206
-0.040048339977127 -0.0709270312951781 -0.00972552514705088 0.5439529 -0.1982407 0.8153624 177 182 188
-0.0324747450298615 -0.0916535654763406 0.0103596631359743 0.8540893 -0.5201262 -0.0003456331 165 165 162
-0.0322824133969157 -0.0871864100342041 -0.00597283782125907 0.7029306 -0.56098 0.4372529 159 168 170
-0.0223074433647272 -0.105030242116995 0.0148295974254698 0.4578257 -0.8885409 -0.02984514 176 182 181
-0.0253465160322386 -0.103493687561924 0.0177594052389188 0.6281513 -0.7780672 0.006120822 206 205 209
-0.0285329805337029 -0.101771115147305 0.0156302309007754 0.8095747 -0.5818531 0.07769041 170 176 170
-0.0247002876764459 -0.103444488163318 0.0158490972050625 0.6025671 -0.7979314 0.01477528 167 175 176
-0.0305245289258211 -0.0975528142777438 0.0182988512991396 0.9208072 -0.384987 0.06244233 170 177 183
-0.0298890276257482 -0.0988137215184097 0.0166715682269367 0.8907476 -0.4456168 0.08941119 150 152 164
-0.0305038174890759 -0.0968824019924914 0.0164199803838879 0.9382782 -0.3197901 0.131789 149 157 145
-0.0309921062460603 -0.0947749054038513 0.0169685252425359 0.9346294 -0.3336784 0.1229898 151 154 156
-0.0295512882748379 -0.0986615628731609 0.0133052926373315 0.9265736 -0.3499125 0.1379226 168 171 173
-0.0301574982727351 -0.0969315851015787 0.0134146050393837 0.9392796 -0.3182912 0.1282368 154 158 160
-0.0303197020082275 -0.0964423807171572 0.0150189690850258 0.9394248 -0.3202601 0.1221254 147 161 159
-0.0305379022591525 -0.095714888886329 0.0150503205331373 0.9394248 -0.3202601 0.1221254 165 168 170
-0.0158211447887862 -0.108888025989762 0.00998250827350161 0.4176189 -0.9072009 0.05080274 179 181 178
-0.0181611512888549 -0.108190969276603 0.0101420351829963 0.3750688 -0.9268904 -0.01405847 167 168 173
-0.0190525937680754 -0.106828518555423 0.0130207854099464 0.3760402 -0.9257971 -0.03864485 167 168 170
-0.0225720755739309 -0.105983111574867 0.0118129282498177 0.4390577 -0.8978877 -0.0320309 181 179 181
-0.0216798379394647 -0.106679017439613 0.00953044329150493 0.4093521 -0.9122338 -0.01613262 169 174 167
-0.0234894862722452 -0.105364096239991 0.0112676439926397 0.5120708 -0.8589147 -0.00700182 170 173 170
-0.0241940310228124 -0.105299178133381 0.00985506233309746 0.538804 -0.842178 -0.02065003 164 171 170
-0.0251106355312087 -0.104537413894911 0.0101213643734961 0.6242164 -0.7811812 0.0104867 164 158 167
-0.0183033915604143 -0.108423197335108 0.00516090428373212 0.3069814 -0.9517059 0.004264597 188 192 193
-0.0163277841224292 -0.109493447080912 0.0029055703818594 0.3486167 -0.9368199 -0.02889372 144 159 145
-0.0220312845441915 -0.10718163554076 0.00613485197666647 0.4604857 -0.886902 0.03684726 156 162 161
-0.021420272610285 -0.107506246351617 0.00521213130402226 0.4475219 -0.8914893 0.0705049 156 161 167
-0.0200012973108521 -0.107880731292354 0.00451473253311702 0.3952823 -0.9164016 0.0629289 175 176 180
-0.0218874343770099 -0.107343142369371 0.0044136099192133 0.4664679 -0.8795781 0.09354192 193 196 197
-0.0187577028785997 -0.108699766952747 0.00288835730517628 0.3741527 -0.926293 0.04462239 181 181 181
-0.0216873380233675 -0.107651933991732 0.00243056448933604 0.4914678 -0.8464019 0.2050932 209 210 218
-0.0246205725247659 -0.105142002478007 0.00588190096360114 0.6319317 -0.7679759 0.1042848 159 163 167
-0.0260091420421111 -0.103764948835592 0.0113011380340133 0.6576596 -0.7502657 0.06771384 177 181 184
-0.0271215238409446 -0.102513025196865 0.0127598281582378 0.7192166 -0.6894744 0.08574654 148 146 156
-0.0273198642593573 -0.10269562540414 0.00746912418733287 0.789757 -0.6064175 0.09242101 155 157 159
-0.0279743690166443 -0.100483494303609 0.00936584965544945 0.8739647 -0.4797983 0.07732607 169 172 176
-0.0287893977191915 -0.0991773697182836 0.00752844989717677 0.8817157 -0.4672463 0.06525666 164 167 168
-0.0290411855902502 -0.0986340389701341 0.01112231102373 0.9182653 -0.3883762 0.07715321 156 161 161
-0.0295998669095092 -0.0970646763129435 0.0109338993677107 0.9269955 -0.3692431 0.06587019 155 159 162
-0.0301851143702887 -0.0951047915800507 0.01068452837127 0.9043515 -0.4260633 0.02486811 154 157 161
-0.0289198758795606 -0.0989443108935455 0.00862374728952991 0.8927777 -0.4473805 0.05290197 153 162 159
-0.0297768158958602 -0.0967690182232605 0.0090113288699683 0.9035171 -0.4285126 0.00580589 170 174 171
-0.0300365062742078 -0.0956868381525564 0.00891945149975121 0.8909786 -0.4538973 -0.01159219 164 166 163
-0.0302616843449881 -0.0957717003013058 0.00694896634953041 0.8807613 -0.4735603 0.0003057628 170 170 170
-0.0268650370237298 -0.102731216009173 0.00588140895178219 0.7995573 -0.590201 0.111225 150 157 155
-0.0287773067900834 -0.0993864479254092 0.00548455753302096 0.8609842 -0.5017393 0.08345012 171 173 170
-0.0253698795114832 -0.104377359010081 0.00363795166883624 0.7016605 -0.6723536 0.2358246 155 162 155
-0.0258020023314924 -0.104095253928681 0.0014600744961078 0.7385245 -0.5934944 0.3199156 152 161 156
-0.0265523437115389 -0.10295214752988 0.00175373720124156 0.780007 -0.5488372 0.3006105 150 156 155
-0.0274291391901187 -0.100933068954676 0.0033196696520234 0.8380601 -0.5001207 0.2180241 154 163 163
