ply
format ascii 1.0
comment File exported by Rhinoceros Version 7.0
element vertex 479
property float x
property float y
property float z
property float nx
property float ny
property float nz
property uchar red
property uchar green
property uchar blue
end_header
0.0201721394345264 -0.0572820953125848 -0.0343214018954254 0.02631624 -0.9296225 -0.3675725 47 47 47
0.0216767535327749 -0.0573174631051478 -0.0329378686644894 0.04269727 -0.9708769 -0.2357435 63 63 63
0.0243046141711309 -0.057476623591572 -0.0291348603687782 0.04016673 -0.9958118 0.0821311 69 69 69
0.0240246554831647 -0.0567457376281135 -0.0283811906303994 0.01877976 -0.993195 0.1149392 49 49 49
-0.0383409123053584 0.00394042279576423 0.000575370228438399 -0.9558581 0.09954363 -0.2764534 194 194 194
0.025704665019922 -0.0562257755343312 -0.0264749482494022 0.007922332 -0.9845723 0.1747988 45 45 45
0.0260135995387965 -0.057076914748587 -0.0292890194251449 0.06570864 -0.9969198 0.04281623 60 60 60
0.0283165772374157 -0.0568018695423755 -0.0282030851133601 0.08726034 -0.996007 0.01885685 51 51 51
0.0265600339005845 -0.0574658176092087 -0.0312557765372691 0.1024611 -0.9857017 -0.1337676 88 88 88
0.0261506926595716 -0.0577137293276977 -0.0319632538894263 0.1657401 -0.926333 -0.3382859 122 122 122
0.0306495010729431 -0.0568095611812511 -0.0302070924838031 0.1905474 -0.9385727 -0.2877029 83 83 83
0.028184026120079 -0.0554675586481992 -0.0203196736262083 -0.02049745 -0.9982263 -0.0558928 36 36 36
0.0297198698494323 -0.0555021721468354 -0.0182892559105751 -0.0004983646 -0.977437 -0.2112265 97 97 97
0.0324820490531001 -0.0557172640937424 -0.0204991575776076 -0.03467764 -0.999292 -0.0145962 52 52 52
0.0324038413872123 -0.0562065055948668 -0.016894348451109 0.02149502 -0.9629968 -0.2686542 83 83 83
0.032287272607959 -0.0557489487455984 -0.0187527016333708 0.003189037 -0.986 -0.1667148 82 82 82
0.0345168838109213 -0.0570291306874431 -0.0151567029778156 0.05611403 -0.9516007 -0.3021709 95 95 95
0.0355630034825813 -0.0570651258483077 -0.01584149307821 -0.01689795 -0.9733327 -0.2287747 101 101 101
0.036399212843881 -0.0563751274544908 -0.0163659496630368 -0.01240935 -0.9753474 -0.2203258 80 80 80
0.0348099276991936 -0.055882035520378 -0.0179898723389162 -0.03239376 -0.9818491 -0.1868769 75 75 75
0.038241733357665 -0.0559021377664699 -0.0176990635773472 -0.01941771 -0.9883192 -0.1511559 89 89 89
0.0321705823320841 -0.0559709691388375 -0.0244864871684546 -0.0275193 -0.9880297 0.1517894 48 48 48
0.034107643109422 -0.0559569791207775 -0.0243294407016263 -0.02355271 -0.9905939 0.1347925 58 58 58
0.0307324960931872 -0.0571010599523174 -0.0279712962880278 0.03817817 -0.9986216 0.03601956 47 47 47
0.0337193424378197 -0.0565580153871807 -0.0259374210761906 0.02919815 -0.9992198 0.02659609 50 50 50
0.0377990035335607 -0.0599523397841879 -0.0192068504181028 -0.03889913 -0.9954762 -0.08668247 114 114 114
0.0381192591119948 -0.0556277702645178 -0.0202907650439583 -0.04858969 -0.9986948 0.01573884 67 67 67
0.035530038886884 -0.0568370981767778 -0.0251233686028273 0.01741574 -0.998399 0.05381583 69 69 69
0.0374183018056784 -0.0561386823477816 -0.0240173415158182 -0.01166906 -0.9991714 0.03899134 49 49 49
0.0366544987959814 -0.0567184165797401 -0.0264968220830719 0.04786893 -0.9760821 -0.2120665 65 65 65
0.0380194581808175 -0.0567851042428635 -0.0256866978493395 0.08491827 -0.9860232 -0.1433427 61 61 61
0.0380661550418522 -0.0562492272777195 -0.0243043260466348 -0.0001000808 -0.9996347 -0.0270256 43 43 43
0.0384054285009705 -0.05586555489921 -0.022594171030676 -0.03989931 -0.997537 0.05768878 61 61 61
0.0406342950598033 -0.056325176298081 -0.0235410257336472 -0.003922245 -0.9998973 -0.01378563 43 43 43
0.0314163863237507 -0.0593178154677887 -0.00468321542559241 0.1173874 -0.9925932 0.03128719 92 92 92
0.0325196668250993 -0.0578158416981973 -0.00145290461386599 0.3452567 -0.90492 0.2488325 49 49 49
0.0374663514505125 -0.056830085750466 -0.00383019723299455 0.4260166 -0.8614663 0.2763797 77 77 77
0.0335914008626894 -0.0589217894731029 -0.0087441426309664 0.1001983 -0.9894754 -0.1043967 93 93 93
0.0355097941617175 -0.059051871813431 -0.00895753490851509 0.1798708 -0.9819936 -0.05775047 106 106 106
0.0345434001227889 -0.0587058113866032 -0.00712410725338869 0.2010049 -0.9784505 -0.04724017 95 95 95
0.0341469495167388 -0.0588792168824854 -0.00913443537837461 0.1475329 -0.9823012 -0.1154051 97 97 97
0.0382659797050269 -0.0569205194690339 -0.00624419046477159 0.3816961 -0.8885124 0.254664 69 69 69
0.0377852821301399 -0.0577858239013089 -0.00846538767714761 0.3166642 -0.9462975 0.06515257 95 95 95
0.0365958176041068 -0.0581644892990523 -0.010439999695162 0.1531033 -0.9764933 -0.1517241 98 98 98
0.0359980537933289 -0.057738373121867 -0.0123708517599709 0.09242982 -0.9604685 -0.2625965 107 107 107
0.0393261057621475 -0.0571303290324201 -0.0138166399751149 0.01540049 -0.9734177 -0.2285188 82 82 82
-0.0172588598686259 0.0517231456964224 -0.0440941314045035 0.06946345 0.5356756 -0.8415619 176 176 176
0.0386620781240641 -0.0574595817371433 -0.0128955089448006 0.05140378 -0.9761259 -0.2110354 111 111 111
0.0407868972187757 -0.0576851915156704 -0.0108055536474151 0.2721188 -0.9571886 0.09869835 108 108 108
0.0400538992233999 -0.0565248813142449 -0.01504848918324 -0.0360464 -0.9750299 -0.2191285 97 97 97
0.0403100406021211 -0.0560936103982193 -0.0178007308171343 -0.05958206 -0.991695 -0.113978 63 63 63
0.0424343661489226 -0.0569994987510232 -0.0133930146417984 0.03557117 -0.9979495 0.05321194 81 81 81
0.0482409944791897 -0.0564573269215973 -0.0129372783794949 0.4556797 -0.7676456 0.4506399 74 74 74
0.0402183398785141 -0.0557835563053974 -0.0193892956743308 -0.08806632 -0.9960276 -0.01316771 56 56 56
0.0445539167489262 -0.0570111996675711 -0.0174795313593443 -0.08843318 -0.9958469 -0.02164555 96 96 96
0.0419065180933689 -0.0565407407204734 -0.0225424832853007 -0.06164603 -0.9972826 -0.04033723 68 68 68
0.0462042240952238 -0.056923975631207 -0.0173849197658042 0.03604276 -0.9965594 0.07463485 70 70 70
0.0473019120440554 -0.0572800642852189 -0.020118448813059 0.1334386 -0.9869671 -0.08994435 90 90 90
0.050015115304556 -0.0572728564029492 -0.0184489622141406 0.5875703 -0.8055365 0.07662914 116 116 116
-0.00195123052673929 -0.0512932123608512 0.00566218846152849 -0.1876229 -0.8934391 0.4081228 73 73 73
0.00119588860480402 -0.0508506290528496 0.00682816390940127 -0.1885271 -0.8861043 0.4234108 32 32 32
-1.94788624390263E-05 -0.0529551323348776 0.00287776083229035 -0.1518519 -0.9434829 0.2945862 60 60 60
-0.000111992486414803 -0.0523154242570818 0.00450216841151035 -0.1738624 -0.9108126 0.3744228 57 57 57
0.00182105956404688 -0.0537615317487194 0.00278217593633917 -0.1527686 -0.9507506 0.2696944 80 80 80
0.00383424647549591 -0.0527639175059178 0.00498045198146274 -0.1499523 -0.9210239 0.3594847 70 70 70
0.003768772381467 -0.0533528372056404 0.00350371446090608 -0.1499877 -0.9446704 0.2917216 64 64 64
0.00408469924900157 -0.0507959534002542 0.00958439099076963 -0.2432708 -0.8961564 0.3711106 33 33 33
0.00357644176594873 -0.0515659921568739 0.00730088473483398 -0.1898559 -0.8970262 0.3991224 64 64 64
0.00587603286982263 -0.0518482928864643 0.00912513622221384 -0.2612602 -0.9007001 0.3471058 69 69 69
0.00675103653617226 -0.0507197825426724 0.0121586014698559 -0.3001541 -0.9357177 0.1853101 74 74 74
0.0278901388950936 0.0374486288454228 0.00151572221737811 0.7969943 0.08545472 0.597911 120 120 120
0.00607716025227378 -0.0518735683788982 0.00829210113771867 -0.2699004 -0.8988289 0.3453409 44 44 44
0.00194009387960503 -0.0540813883187159 -0.000221290954724951 -0.1318766 -0.9692335 0.2078339 56 56 56
0.00370640802881228 -0.0538478401962583 0.00225023445415201 -0.135361 -0.9599596 0.2452653 70 70 70
0.00334889007385053 -0.0543612364048744 0.000744563890294148 -0.1198416 -0.9720744 0.2017657 73 73 73
0.00422219284231873 -0.0544933266829684 -0.00101036095326207 -0.1110801 -0.9748875 0.1930168 50 50 50
0.00385671767977169 -0.054527556924191 -0.00298789318769516 -0.1219486 -0.9759935 0.1804584 62 62 62
0.00575981914069956 -0.0544553098187965 -0.000515390280011185 -0.1168568 -0.9737089 0.1955388 47 47 47
0.00540321886316164 -0.0535116789035177 0.00320824920126822 -0.1603481 -0.9568068 0.2425062 37 37 37
0.00628358925447992 -0.0533119498680288 0.00475935253937637 -0.2058528 -0.9378076 0.2795379 62 62 62
0.00919387711440045 -0.0542169351456412 0.00394507098160896 -0.2610162 -0.9432863 0.2051378 83 83 83
0.0103356003635722 -0.0544534448588465 0.00459454508939344 -0.3040088 -0.9294447 0.2090725 63 63 63
0.00835269206603373 -0.0538632872495788 0.00183115966617869 -0.201571 -0.9686816 0.1450002 47 47 47
0.0102163618547135 -0.0544881358519624 0.00365002027373379 -0.3086741 -0.9337834 0.1810215 89 89 89
0.0122541056224483 -0.05233143047251 0.0123084382747485 -0.3187671 -0.9249062 0.2072101 76 76 76
0.0111243420574461 -0.0524009520074697 0.00953772796931701 -0.3026359 -0.9063402 0.2948881 96 96 96
0.0139160135929572 -0.054206980287326 0.00961336490529435 -0.3436958 -0.8841695 0.3164136 81 81 81
0.0140759772830623 -0.0529761027570799 0.0128585547402092 -0.3269159 -0.9254857 0.1913171 84 84 84
0.0138201861166085 -0.0524829811849534 0.0152414969208941 -0.3127928 -0.9395677 0.1391873 94 94 94
0.0177329644209208 -0.0541447776142767 0.013778343975107 -0.2552317 -0.9411675 0.2214962 76 76 76
0.0179823400150472 -0.0545099337054475 0.0117918934679005 -0.2839715 -0.9143003 0.2888169 80 80 80
0.0202145278031516 -0.0545903446216334 0.0133326567609187 -0.1999027 -0.9223971 0.3304883 72 72 72
0.0102909124672075 -0.0541518020693896 0.00681992491842115 -0.3065182 -0.9056256 0.2930681 100 100 100
0.011518554305558 -0.0542025480815806 0.00705935116941464 -0.3363782 -0.8951264 0.2925721 60 60 60
0.0142091077545636 -0.0542979313660563 0.00846671302412211 -0.3465998 -0.875769 0.336002 56 56 56
0.0117009289826691 -0.0554109496195765 0.00436711039852039 -0.3277052 -0.9233997 0.1998554 75 75 75
0.0183731363459785 -0.0559072236689768 0.00889951081395363 -0.3129278 -0.877919 0.3624008 69 69 69
0.0199403718667055 -0.0551422091456377 0.0120104444417093 -0.2281721 -0.9199563 0.3187755 80 80 80
0.0235576919358971 -0.0526473124759022 0.0196318834904328 0.2549006 -0.8355437 0.4867159 117 117 117
0.0213214385502598 -0.0548176869282349 0.0138530013076739 -0.141668 -0.9268571 0.3476579 90 90 90
0.0242092183569267 -0.0542455687402335 0.0171159459924724 0.1444199 -0.8661479 0.478467 86 86 86
0.0255826001154871 -0.0536882725588017 0.0175390084351846 0.328929 -0.7918649 0.5145442 88 88 88
0.025474862373706 -0.0524386121348024 0.0201386314697794 0.4761144 -0.7107806 0.5177895 110 110 110
0.0258181591896689 -0.0519227954011334 0.0203784103685021 0.5320726 -0.6922047 0.4875976 105 105 105
0.0269028076549551 -0.051177330259619 0.0201214647768751 0.5677003 -0.618221 0.5436168 114 114 114
0.0283363647431407 -0.0497235571631669 0.0200584854375368 0.7850223 -0.3467015 0.5133597 100 100 100
0.0278751786425095 -0.0485304947239129 0.0211953922905626 0.7982222 -0.2892624 0.528364 117 117 117
0.0296402860754901 -0.0471065588168635 0.0178631472496432 0.8889567 -0.1209826 0.4417231 69 69 69
0.0231652320573577 -0.0557453708029567 0.0126983864877906 -0.07945965 -0.9426335 0.3242351 99 99 99
0.0256290956033751 -0.0547049259080337 0.0156219050235172 0.2288855 -0.8377981 0.4956872 84 84 84
0.029192130353179 -0.0546696432516289 0.0141531963875091 0.4703734 -0.7232468 0.5056313 76 76 76
0.0298623250285879 -0.0518315329145131 0.0140928612951393 0.7320263 -0.4658327 0.4971291 68 68 68
0.0291326433686667 -0.0507326226399345 0.0179164527984688 0.739059 -0.4295363 0.5189319 120 120 120
0.0298335182102802 -0.0502562876461439 0.0164739333382731 0.8176379 -0.3298011 0.4719106 106 106 106
0.0300778628703211 -0.0473392465145628 0.0163716414419178 0.8999303 -0.08674025 0.427319 100 100 100
0.0303047372029233 -0.0451390562553085 0.0155273285509011 0.8944831 -0.04342163 0.4449882 79 79 79
0.0307932348564004 -0.0478811770622516 0.0148529659615844 0.8912663 -0.07555359 0.4471421 74 74 74
0.0316766193827478 -0.0465689077398939 0.0135945229317223 0.8870549 -0.06521512 0.4570346 62 62 62
0.0268669415644234 -0.0396301702582538 0.0230909187151041 0.8388785 -0.03088273 0.5434419 40 40 40
0.0286615692105172 -0.0425057398486524 0.0215503048774608 0.8771076 -0.05707887 0.4768903 51 51 51
0.0296269702242522 -0.0443039479476026 0.0189355379966377 0.9167081 -0.03820844 0.3977264 52 52 52
0.0289839685172668 -0.0433841876344006 0.0183740372540489 0.9124898 -0.03713939 0.4074102 89 89 89
0.0293782866977248 -0.0434987970076866 0.0191989322149953 0.8999524 -0.03579267 0.4345164 56 56 56
0.0282612356877459 -0.0392965850705078 0.0214686816594776 0.8898684 0.01679141 0.4559083 63 63 63
0.0281668730497775 -0.0362010590094353 0.0222706261907815 0.8980961 0.03355075 0.4385177 30 30 30
0.0280910098732048 -0.0329909787249483 0.0194224904007679 0.9092935 0.09238171 0.4057719 47 47 47
0.028552693676662 -0.0371337770797346 0.0210797383828163 0.8986186 0.03361068 0.4374414 45 45 45
0.0302513165002518 -0.0426458589388961 0.0162986946923772 0.9203833 -0.02139579 0.3904317 76 76 76
0.0292410759406547 -0.0393784836890692 0.0179280604831512 0.9161506 0.008006119 0.4007544 71 71 71
0.0294358317061612 -0.0396131242342159 0.0168846936552694 0.9143091 0.000267287 0.4050169 55 55 55
0.0294522227727858 -0.0401076753667668 0.0180281291402438 0.9191484 -0.001383898 0.393909 75 75 75
0.0308393133284528 -0.0431462879389124 0.0143069969385659 0.9102106 0.00868198 0.4140547 95 95 95
0.032136296986599 -0.0412387647023931 0.0126748604667573 0.9144274 -0.01081397 0.4046055 59 59 59
-0.0174108421331287 0.0621764709367283 0.00884312955912298 0.1957181 0.9020801 -0.3846373 93 93 93
0.0316342395238967 -0.0394473907262187 0.0145987992299504 0.9070892 -0.03124638 0.4197771 105 105 105
0.0292529113902213 -0.0352164911129405 0.0174550313946689 0.9054146 0.05955225 0.4203309 31 31 31
0.0294991736580987 -0.0368942572423996 0.018313189999488 0.9136882 0.05069328 0.4032421 70 70 70
0.0313215762627719 -0.0355357830554248 0.0146245863503205 0.8769152 0.007359831 0.4805888 73 73 73
0.0307479504591395 -0.0330948842636059 0.0140015888429286 0.8591381 0.02113261 0.5113072 44 44 44
0.0290087543922533 -0.0563405411285371 0.00647023571267119 0.3308112 -0.9153456 0.2295787 98 98 98
0.030481845166942 -0.0560316414958792 0.00788671808973068 0.4456974 -0.8417495 0.3046499 69 69 69
0.032715955717086 -0.0521059586002344 0.0114597667053212 0.7701989 -0.3012736 0.5621636 61 61 61
0.0305621567916554 -0.0556871532088217 0.00781992981430674 0.4480567 -0.8380409 0.3113401 92 92 92
0.0322801633494176 -0.0561704452788667 0.00895757866281427 0.5088117 -0.7880073 0.3466339 68 68 68
0.0316497044963968 -0.0556065765283318 0.00631468423091991 0.44305 -0.8379992 0.3185343 95 95 95
0.0338683544724061 -0.0560740415620293 0.00839690593147174 0.5537668 -0.7320131 0.3968615 127 127 127
0.0324186050206157 -0.0466506969273619 0.0119041590120626 0.863978 -0.005154111 0.5035031 62 62 62
0.032016310606559 -0.048634644934854 0.0120341054760842 0.8527982 -0.05948731 0.5188414 74 74 74
0.0337461328618498 -0.0451685224861771 0.0103409004669981 0.8912975 0.06272817 0.4490589 57 57 57
0.0329735437257859 -0.04547468468924 0.0108174434034772 0.8791472 0.05522254 0.4733399 67 67 67
0.0345177618502157 -0.0453862240514216 0.00837191275536969 0.869814 0.1083691 0.4813311 46 46 46
0.0355416021127284 -0.0505719692420092 0.00798853027808361 0.8049245 -0.1312051 0.5786896 65 65 65
0.0338522246417701 -0.0552288918539208 0.00529514658923463 0.5450526 -0.7605136 0.3528976 75 75 75
0.0342555165379461 -0.0555379598563663 0.00330310093910785 0.5419514 -0.7959074 0.2698518 63 63 63
0.0357356232660551 -0.0548817859117983 0.00425526732165676 0.671067 -0.6546184 0.3480573 57 57 57
0.0356316070692844 -0.0513168016441619 0.00681538545038146 0.7968459 -0.230137 0.5586354 64 64 64
0.0370522549816052 -0.0522851649446419 0.00672882028047855 0.8008758 -0.3140703 0.5098606 78 78 78
0.0359300253109092 -0.055248475795278 0.00220521678580693 0.6277646 -0.691424 0.3575534 90 90 90
0.0369452836060871 -0.0549473405128234 0.00270661781878762 0.6619564 -0.6572668 0.3602972 86 86 86
0.0374063848530184 -0.0523989040891728 0.00427672548611008 0.8230104 -0.3974057 0.4058602 89 89 89
0.0369455688747733 -0.0507614854229372 0.00512609224800326 0.8531871 -0.1338778 0.5041314 95 95 95
0.0371010766298334 -0.0515528705588817 0.00387985340708147 0.8448251 -0.3302188 0.4209824 100 100 100
0.0360071171766116 -0.0466562869186893 0.00439215023667289 0.8371525 0.1550955 0.5245198 71 71 71
0.0353025942826366 -0.046126841495334 0.00694210949911028 0.8482841 0.1440434 0.5095739 63 63 63
0.0320377016104958 -0.0403612952906593 0.0103195983978981 0.8995826 -0.03797672 0.4350965 66 66 66
0.0322979518801345 -0.0397406917836967 0.0100498948489816 0.8982184 -0.05246833 0.4364066 46 46 46
0.0342475983851445 -0.0428758585675801 0.00834469987624514 0.9022077 0.01982916 0.4308457 46 46 46
0.0337112130309711 -0.0409205136050705 0.00951539231493143 0.9021443 -0.02658465 0.4306145 46 46 46
0.0341475412158412 -0.0393054487395383 0.00874705411278881 0.8966077 -0.08555946 0.4344815 65 65 65
0.0326326668226931 -0.040961543455317 0.0078550353715397 0.899221 -0.02676987 0.4366749 62 62 62
0.0332385259654306 -0.0374192709148253 0.0107497304029259 0.8829465 -0.08248591 0.4621705 84 84 84
0.0329554740434841 -0.0331841698959676 0.0111847944279467 0.8581218 -0.01621914 0.51319 52 52 52
0.0345967905411151 -0.033971078804589 0.00858716827487466 0.878747 -0.01641511 0.4770056 92 92 92
0.0341065926889847 -0.04246279060264 0.0070725852730667 0.8920787 0.01800319 0.4515213 34 34 34
0.0354329081728231 -0.0444551597467642 0.00504248119839784 0.8544989 0.1477177 0.4980072 57 57 57
0.0349810175635408 -0.0414536035192379 0.00530792111045858 0.8802619 -0.01644411 0.4742031 55 55 55
0.0358598544110857 -0.039511054498655 0.0054871997471207 0.8609272 -0.1147623 0.4956147 85 85 85
0.0349812201638668 -0.0434785329156975 0.00415508899018208 0.8581709 0.07583468 0.507732 46 46 46
0.0371282257177921 -0.0419668633394097 0.00330080106565905 0.8306808 0.02229138 0.5563024 53 53 53
0.0366728175502393 -0.040780939762685 0.00318305545742331 0.8263395 -0.01259624 0.5630314 52 52 52
0.0362479016375692 -0.0368138869864907 0.00536536877583932 0.8844946 -0.09730994 0.4562895 50 50 50
0.0357453814741031 -0.0331884833147815 0.0072196215497134 0.896874 0.02862559 0.441359 88 88 88
0.0363768867131604 -0.033577886682961 0.00601269988881664 0.9071476 0.0228898 0.4201896 79 79 79
0.0372704982797565 -0.0348049413130003 0.00344624495464624 0.897601 -0.0268506 0.4399903 52 52 52
0.0372630506000582 -0.0335252260806604 0.00351592331593437 0.9033286 0.05514606 0.4253897 74 74 74
0.0269059840974322 -0.032892161430611 0.0228456206979504 0.8969432 0.08250105 0.4343805 37 37 37
0.0271073959806103 -0.0289452744231109 0.0218190296915058 0.8992088 0.05688908 0.4338053 43 43 43
0.0277739685271952 -0.0314173722223348 0.0212549563490983 0.9155794 0.09059614 0.3917994 31 31 31
0.0287258468807998 -0.0306915222563429 0.0189796823416151 0.9110493 0.05712807 0.4083204 56 56 56
0.0276066180255032 -0.0283828190972957 0.01988031372357 0.9150569 0.03328481 0.401949 24 24 24
0.0280717803497801 -0.0276718303833079 0.0186919883374047 0.8986909 0.02295679 0.4379814 36 36 36
0.0273857482581905 -0.0222460046046036 0.0216281895686457 0.8615571 0.07270742 0.5024272 34 34 34
0.027997696461896 -0.0242903306283948 0.018638960282347 0.8860755 0.04768629 0.4610816 37 37 37
0.0287623756431208 -0.0249511558605107 0.019551403655558 0.8813356 0.04702464 0.470145 41 41 41
0.0286422543039522 -0.023280644298056 0.0187108823555172 0.8881819 0.06218011 0.4552654 40 40 40
0.03175785237637 -0.0311254618724373 0.0131906196014513 0.8545887 0.04894996 0.5169933 55 55 55
0.0302221000032616 -0.0283659251370605 0.0156969879226912 0.8732049 0.05104838 0.4846723 55 55 55
0.0300449557058711 -0.0277818957309361 0.0156122514815729 0.8827077 0.0595597 0.4661328 71 71 71
0.0314693884190933 -0.028146724877228 0.0141236157427525 0.8491703 0.08229464 0.5216679 42 42 42
0.0283974887645722 -0.0260886877177366 0.0181599137871882 0.8894577 0.03186179 0.4559056 24 24 24
0.0300395549602921 -0.0234260956871282 0.015914297792316 0.9016372 0.07505099 0.4259315 31 31 31
0.0310449369287797 -0.022811592234961 0.0130512852031402 0.8756641 0.1286014 0.4654827 62 62 62
0.0248853061677918 -0.0109131089285655 0.0234205021326848 0.9125503 0.1000351 0.3965412 110 110 110
0.024711514092117 -0.0086024044898827 0.0222397661026784 0.9156476 0.1521226 0.3720863 57 57 57
0.0253973523228461 -0.0100890413284851 0.021879632088494 0.9069081 0.1176778 0.4045611 73 73 73
0.0262507320529946 -0.0112124844555599 0.0197488734060223 0.9040634 0.08537032 0.4187855 57 57 57
0.0266973278101375 -0.0139300811166603 0.0189599477413256 0.8998867 0.08067806 0.4285966 65 65 65
0.0256815488571223 -0.00875507427908317 0.0201406724474179 0.8912823 0.1403669 0.4311763 70 70 70
0.0252874746447966 -0.0196205504449682 0.0232329775488987 0.8481434 0.06641684 0.5255869 83 83 83
0.0267543125176246 -0.0182396672970291 0.021108856162557 0.8735963 0.07481247 0.4808666 70 70 70
0.0276551296151564 -0.0187178413437323 0.0195620215790873 0.8745942 0.1234361 0.46888 56 56 56
0.026055047205777 -0.011725040994909 0.0220731583543421 0.9113852 0.08569708 0.4025333 92 92 92
0.0272725976974013 -0.0134773741813627 0.0205070643604084 0.8934959 0.08567736 0.4408224 63 63 63
0.0271245077262152 -0.0142151716144123 0.0194160026364315 0.8943121 0.06470196 0.4427409 43 43 43
0.0285679857428884 -0.0170589554168625 0.0163892509845443 0.9022992 0.1155469 0.4153374 73 73 73
0.0277808453695314 -0.0151778373657281 0.0174135972507215 0.9082456 0.08240927 0.4102421 66 66 66
0.0296510078647259 -0.0167155550582965 0.014451600987113 0.8901491 0.07799483 0.4489447 69 69 69
0.0299491091355262 -0.014679455172097 0.0135067848723536 0.8832067 0.03756488 0.4674771 67 67 67
0.0280689366706179 -0.0140631747011186 0.0159711974263033 0.8918663 0.04619471 0.449934 72 72 72
0.029334707296683 -0.0133552336956633 0.0141492882399875 0.8756784 0.02040974 0.4824633 70 70 70
0.0287597675602129 -0.00944173101338319 0.0151910607735999 0.8504449 0.05572669 0.5231042 54 54 54
0.0297604812467103 -0.0199634840257714 0.0162789546740505 0.903961 0.1115958 0.4127965 59 59 59
0.0332695827583227 -0.0317506038357303 0.0116078024179625 0.8582327 0.02831729 0.512479 72 72 72
0.0328112811408925 -0.027926093615684 0.0116202728165205 0.864342 0.09449545 0.4939468 64 64 64
0.0343470688131851 -0.0297268180165384 0.0102083843509969 0.8722885 0.06069694 0.48521 88 88 88
0.0333197008952304 -0.0287213931146495 0.0101393495723763 0.8657184 0.09737037 0.490969 125 125 125
0.0347127068146889 -0.027345331585743 0.00857414817076824 0.8858235 0.1498976 0.439144 84 84 84
0.0315087772904634 -0.0249449523087688 0.0118701256005432 0.8604649 0.1398171 0.4899503 91 91 91
0.0325124426140262 -0.0257631763651662 0.010636731306762 0.8770603 0.1235056 0.4642323 94 94 94
0.0321207697329045 -0.0205934582913279 0.0103440036948007 0.8815413 0.1268021 0.4547595 78 78 78
0.0336267164870427 -0.0251374276570855 0.00954566964806919 0.8851349 0.1404832 0.4436222 118 118 118
0.0338711745959115 -0.0203666325681999 0.00738304664609007 0.8842543 0.1277757 0.4491857 81 81 81
0.0354076677229516 -0.0229642600386653 0.00330499206007745 0.9094617 0.1042757 0.4024996 70 70 70
0.035549718778018 -0.0205101489853643 0.00307559058523227 0.904856 0.08213414 0.4177195 71 71 71
0.0355081173603833 -0.0212961918913688 0.002317739087006 0.9065378 0.07660431 0.4151157 61 61 61
0.0365349084142919 -0.0306465449363851 0.00548929444661744 0.9040943 0.07126411 0.4213488 71 71 71
0.0349234436062238 -0.0287439809925862 0.00709581675000043 0.8998438 0.1113014 0.4217739 87 87 87
0.0348978973017207 -0.0284954974009615 0.00569390816877685 0.9039127 0.1248662 0.4090846 82 82 82
0.0367326669269128 -0.0312781134168754 0.00333139981992853 0.9034491 0.06657019 0.4234952 36 36 36
0.0338217694381728 -0.0234679347565088 0.00762849033874563 0.8918409 0.1080727 0.4392494 66 66 66
0.0350701805261451 -0.0234054583498045 0.00588712609324232 0.9035358 0.1195212 0.4115068 62 62 62
0.0315828032787591 -0.0188598208821664 0.0100033916835237 0.8857179 0.08882306 0.4556471 42 42 42
0.0304628472001345 -0.0143584935615388 0.0120341240550251 0.8739847 -0.01574169 0.4856984 59 59 59
0.0312510649809321 -0.0147925281308037 0.0106425995401125 0.8653314 0.00179748 0.501197 39 39 39
0.0329179902624113 -0.0167467494749201 0.00807112434231888 0.8816586 0.02936327 0.4709733 120 120 120
0.0325564232703244 -0.015606419735517 0.00838877938162402 0.8769038 0.02629274 0.4799463 72 72 72
0.0307456283268837 -0.0122101533472987 0.0120408434650717 0.8434056 -0.03368176 0.5362206 34 34 34
0.0304919759457059 -0.00983531186621689 0.0131129373259236 0.836086 0.02677027 0.5479449 41 41 41
0.0333852578520666 -0.0121013952691029 0.00789228025710204 0.8898543 -0.05780176 0.4525685 59 59 59
0.0332678886494684 -0.00907241075851339 0.00904363469156105 0.8821065 0.01352064 0.470856 53 53 53
0.0403604365385639 0.0152429066136415 -0.043644243231345 0.2569216 -0.12959 -0.9577044 151 151 151
0.0338263752237957 -0.0178405255821241 0.0077136998106398 0.8837307 0.07002454 0.4627274 103 103 103
0.0333882621785138 -0.0167291440805246 0.00626389600376581 0.8932468 0.02577575 0.448827 93 93 93
0.0355648652178802 -0.0168149720464899 0.00286424752750475 0.9002464 0.0008855609 0.4353797 69 69 69
0.0343958614044919 -0.0162813975050371 0.0045046661282771 0.9011858 0.03955671 0.4316241 125 125 125
0.0342306410895643 -0.0147430121441696 0.00434533139282706 0.8852807 -0.004066221 0.4650394 84 84 84
0.0356066284502454 -0.0143068236273061 0.00219603134567309 0.903632 -0.01015495 0.4281893 84 84 84
0.0346296911614159 -0.0123875738809132 0.00437021614476901 0.8853474 -0.03103203 0.4638933 91 91 91
0.0347188554037716 -0.0115277544862695 0.0058685122224314 0.8921856 -0.07675525 0.4450995 80 80 80
0.03382172927142 -0.00902639918042425 0.00678212187378252 0.9066124 0.05037187 0.4189471 54 54 54
0.0354578458789316 -0.0130826308162828 0.00334944258820996 0.9032779 -0.005120923 0.4290255 76 76 76
0.0353156444518452 -0.0126914972461567 0.00245877480611695 0.9044706 -0.006111741 0.4264921 119 119 119
0.0343632988085516 -0.0106384318542605 0.00394006283020826 0.9039463 -0.0193517 0.4272079 70 70 70
0.0360457362498867 -0.0106639277637761 0.0025276614929795 0.9160382 0.0121545 0.4009069 80 80 80
0.0343592565402027 -0.0201024494534374 0.00650469684992455 0.8859176 0.123372 0.4471346 106 106 106
0.0370683836544687 -0.0552746756774836 -0.000376719405682235 0.5597026 -0.7404484 0.3721145 81 81 81
0.0365242435756798 -0.0559274086459174 -0.000954796654712042 0.4793093 -0.811553 0.3341323 91 91 91
0.0368541009860164 -0.0555071865408303 -0.00151843549984892 0.5367867 -0.7659213 0.3538709 56 56 56
0.0389894450542829 -0.0515860080612791 0.00201136750099501 0.8313614 -0.3437705 0.4366465 76 76 76
0.0377715373783061 -0.0556475269224352 -0.00234406924936098 0.5215449 -0.7905626 0.320939 61 61 61
0.039319701992778 -0.0547510001364457 -0.00232102886929625 0.6493897 -0.6336414 0.4204659 90 90 90
0.0388932828836537 -0.0471049892354349 0.00186839406086819 0.8027744 0.1376073 0.5801874 61 61 61
0.0395922425938449 -0.0464258766394616 0.00103229370323571 0.8062605 0.1315859 0.5767401 67 67 67
0.0296513299486838 0.00621101726343665 0.00675519148805487 0.9161302 0.2136873 0.3391801 76 76 76
0.0393111685931697 -0.0449746326861156 1.08135987267333E-05 0.7987872 0.09108116 0.5946791 51 51 51
0.0408882065655942 -0.0487986169671635 -0.00138189322246335 0.8150724 -0.005370355 0.5793342 57 57 57
0.0418001381420552 -0.0547044199813886 -0.00621653559468321 0.5686225 -0.7009754 0.4304671 84 84 84
0.0432750181255506 -0.0522042793472388 -0.00412878513738874 0.6955954 -0.3094533 0.6483716 73 73 73
0.0412349131720664 -0.0559846562011124 -0.00770911525382151 0.4608692 -0.8351655 0.3001636 95 95 95
0.0437968241229001 -0.0540448431408138 -0.00645296491166841 0.6223205 -0.5509155 0.556066 79 79 79
0.0436165718827657 -0.0550189276619568 -0.00795224936046862 0.5329039 -0.7032315 0.4706154 72 72 72
0.0453897553724796 -0.0507535842357618 -0.00637055081200794 0.7517366 -0.08887461 0.6534473 51 51 51
0.0433218148221546 -0.0476941121839141 -0.00489968224609422 0.8000142 0.08228277 0.594312 72 72 72
0.0450321098920294 -0.0484686518594648 -0.00694684127641149 0.7773262 0.08787578 0.62293 57 57 57
0.0436858992434754 -0.0456935839052381 -0.00610839176108929 0.8014128 0.05114768 0.5959207 75 75 75
0.0440847083233102 -0.045245656452737 -0.00597537291541056 0.8042222 0.06002598 0.5912897 93 93 93
0.0446536669293582 -0.0445790590676687 -0.00703245272702396 0.8038532 0.04806296 0.5928828 80 80 80
0.0383725899655054 -0.0419896235231385 0.000980378027265305 0.7931979 0.04030349 0.6076288 42 42 42
0.037554889716459 -0.0404905388334811 0.00123773975844094 0.8023936 0.006002375 0.596765 64 64 64
0.0410304655440259 -0.041065569012515 -0.00116686523159742 0.7913503 0.02737955 0.6107496 57 57 57
0.0373112121744705 -0.0373226453205635 0.00173719164564795 0.8563107 -0.04996694 0.5140382 41 41 41
0.037575388308176 -0.0367401512120915 0.00212485216289587 0.8615021 -0.03350513 0.5066473 56 56 56
0.0386906222333312 -0.0352620250950795 0.000676460134598378 0.8587953 0.03506843 0.5111172 51 51 51
0.0374718841152684 -0.0334796856695112 0.00172320325768954 0.8921801 0.06595186 0.4468389 42 42 42
0.0386400527807864 -0.032599075200088 0.000287759733890447 0.8722306 0.05211884 0.4863099 56 56 56
0.0404366850352693 -0.0362704742253703 -0.00146644948364621 0.791018 0.08568315 0.605763 60 60 60
0.0432953274309025 -0.0391236911269344 -0.00471887769354667 0.8161798 0.03835626 0.5765234 98 98 98
0.0450447561625962 -0.0429812191790142 -0.00732598012297786 0.8114023 0.02421546 0.5839863 67 67 67
0.0434737882715146 -0.039921470736465 -0.00504980740917221 0.8266829 0.02096916 0.5622773 76 76 76
0.0439080375757706 -0.0382839778179214 -0.00538115803102607 0.8267674 0.04570112 0.5606844 91 91 91
0.0446268286327531 -0.0406784329366785 -0.0070613725906849 0.8198296 0.004481907 0.5725899 72 72 72
0.0442209314437731 -0.0383356242225661 -0.00722620479973041 0.8377786 0.07237645 0.5411919 78 78 78
0.0411268961369551 -0.0351747005901295 -0.00251412955686731 0.7947122 0.1204351 0.5949184 43 43 43
0.0413887401040136 -0.0319933032902968 -0.00433042705001835 0.827787 0.1419496 0.5427882 70 70 70
0.0414251290569139 -0.0383090877443215 -0.00281715393660814 0.7939038 0.05371851 0.6056659 93 93 93
0.0430405191395355 -0.0357667544812277 -0.00460313136699803 0.79978 0.1441888 0.5827191 40 40 40
0.0441828264908259 -0.0364881483380095 -0.0070847180944868 0.8288782 0.1696173 0.5330955 66 66 66
0.0430028014875055 -0.0340333264019004 -0.00495694779132488 0.8155271 0.1717299 0.5526522 55 55 55
0.0468586704924603 -0.0517740319440367 -0.00889189105364635 0.7874498 -0.1820966 0.5888664 51 51 51
0.048527434818703 -0.0552991553163431 -0.0118363500856479 0.6422039 -0.605276 0.470335 89 89 89
0.0451800400092119 -0.0464408478778888 -0.00844314052273959 0.7918856 0.1144407 0.5998504 88 88 88
0.0462373391485995 -0.0443423170702595 -0.00864886046547747 0.8151027 0.06685609 0.5754458 66 66 66
0.0468036707061699 -0.0457496012306537 -0.00945821424171961 0.8312912 0.1106885 0.5447045 92 92 92
0.048680140875192 -0.0497124058391865 -0.0115851887534272 0.8818915 0.07980178 0.4646494 80 80 80
0.0491935246046058 -0.0554100641341095 -0.0137808698208299 0.6512269 -0.6218227 0.4350174 93 93 93
0.0491051238209483 -0.0530268046584652 -0.0129963620649673 0.8553324 -0.281935 0.4346482 105 105 105
0.0503095126361972 -0.0505832655558145 -0.0143653023829395 0.9332705 0.01557335 0.3588365 94 94 94
0.0490671680254087 -0.0496325366454309 -0.0133017349913271 0.9094058 0.05883609 0.4117275 94 94 94
0.0489014690281611 -0.0483408176024098 -0.0133045067955865 0.8960011 0.08839238 0.4351653 112 112 112
0.0499256522862459 -0.0466909997109324 -0.0160034058732094 0.9566723 0.0944096 0.2754359 112 112 112
0.0508625967278515 -0.0477511346197161 -0.0177926321513479 0.9632314 0.06003334 0.2618802 96 96 96
0.0503168760590464 -0.0449791029790068 -0.0175877977883609 0.9569972 0.05989185 0.2838474 108 108 108
0.0462789842277469 -0.038983887611922 -0.00928853832845017 0.8596429 0.07860093 0.5048127 40 40 40
0.0469834910928673 -0.0385966039238728 -0.0113878175973443 0.8840169 0.09721017 0.4572356 68 68 68
0.0450437098903271 -0.034326401602242 -0.00904219200215567 0.8418888 0.2266486 0.4897485 80 80 80
0.0458248900971756 -0.0337110815783666 -0.0100789768616769 0.8363682 0.2181488 0.502891 81 81 81
0.0450181846679569 -0.0376931766878685 -0.00833500493413258 0.8540993 0.1202264 0.5060237 83 83 83
0.0460626288618147 -0.037403061677997 -0.00849167981682813 0.8569592 0.121337 0.5008975 82 82 82
0.0452978503692747 -0.0333508709698056 -0.00886750581866863 0.8507124 0.2183941 0.4781135 102 102 102
0.0463755658281801 -0.0349021846279638 -0.0117386024803822 0.8584247 0.1989508 0.4727849 91 91 91
0.0470905637180727 -0.0354289367077905 -0.00981166881939427 0.8570608 0.1861414 0.4804145 58 58 58
0.0476903023647903 -0.0384956170444681 -0.0127832038365527 0.9046118 0.09738394 0.4149626 79 79 79
0.0490165164925815 -0.0423660963534942 -0.0131547627493093 0.9059286 0.08662155 0.4144758 92 92 92
0.049110069422337 -0.0421123197126978 -0.0151625723506871 0.9307316 0.08741575 0.3551017 70 70 70
0.049188987421759 -0.0434415131490375 -0.0164959539194304 0.9444719 0.07164101 0.3206874 89 89 89
0.0496191679575126 -0.041864331867175 -0.0168769142433873 0.9436179 0.06266291 0.3250516 71 71 71
0.0494746135982185 -0.0404062066831277 -0.0170359087603713 0.9343599 0.05675095 0.3517824 87 87 87
0.0478530068660448 -0.036280583746529 -0.0134178201861228 0.8993162 0.129614 0.4176489 70 70 70
0.0475789597467569 -0.0356949684016048 -0.0138590068695147 0.9016337 0.129366 0.4126998 43 43 43
0.0479914042109613 -0.0336599840113148 -0.0132342665186888 0.8784341 0.181466 0.4420674 52 52 52
0.0492970027269453 -0.0361121059245986 -0.016752652298809 0.9132597 0.08871448 0.3976008 69 69 69
0.0486600058705406 -0.0351521493178244 -0.0159560067890749 0.90637 0.09920283 0.4106728 72 72 72
0.0497858693367748 -0.0373887563910238 -0.0172882505920846 0.9302475 0.0727099 0.3596564 67 67 67
0.0499660344549533 -0.038155302577431 -0.0185742504064021 0.9256801 0.03762185 0.3764319 79 79 79
0.0491656153431048 -0.036234640750255 -0.0157516904173982 0.9098243 0.07997581 0.4072144 72 72 72
0.047376682629807 -0.0516555011038784 -0.0089187359074922 0.8139562 -0.1145724 0.5695159 60 60 60
0.037694840127259 -0.022367647167991 6.54435093603856E-05 0.8822947 0.09868959 0.4602351 60 60 60
0.0394825614533509 -0.0301476251639132 -0.000496006202040655 0.8539083 0.1161215 0.5073031 36 36 36
0.0399914409367177 -0.0318320636283698 -0.00263163269951766 0.8218818 0.1288978 0.5548834 68 68 68
0.039499080788185 -0.0272642957952753 -0.00187876994861064 0.8354725 0.1231514 0.5355552 82 82 82
0.0376569254462873 -0.0249288223110931 1.60941880339438E-06 0.866827 0.1535627 0.4743727 53 53 53
0.0398202647747967 -0.023634154924012 -0.00287307933599318 0.8099823 0.153633 0.5659732 74 74 74
0.0399329674663982 -0.0223118611918047 -0.00364461924246856 0.8208897 0.1482215 0.5515165 76 76 76
0.0417850234726467 -0.0302091621346312 -0.0042873823205502 0.8277978 0.1401789 0.5432318 59 59 59
0.0415139497118535 -0.0281949419560701 -0.00463954450547316 0.8562582 0.09776312 0.5072122 56 56 56
0.0436670929164655 -0.0318049866301979 -0.00790045468308626 0.8670201 0.2262523 0.4439437 81 81 81
0.0430144530527083 -0.0266721152930867 -0.00774271097187612 0.9067182 0.09313313 0.4113251 81 81 81
0.0431269464382404 -0.0282060387795549 -0.00720343927379713 0.8949447 0.1500038 0.4202057 55 55 55
0.0399879081564378 -0.024771303416155 -0.00390369617580516 0.8121856 0.132352 0.5681878 95 95 95
0.0425900074972201 -0.0213302393157735 -0.00728365338389619 0.8665425 0.1444725 0.4777361 63 63 63
0.0363772599842469 -0.017829872508871 0.0016336850675685 0.8922646 0.02837174 0.4506206 70 70 70
0.0370582344168555 -0.0166160613337119 0.00143181479440685 0.8960955 0.01952706 0.4434316 65 65 65
0.03724401959401 -0.0163753352613252 0.000807351143693957 0.9035789 0.02543957 0.4276658 79 79 79
0.0380003532208226 -0.0168720543299743 -0.00235442536539371 0.8888593 0.0528935 0.455117 77 77 77
0.037367257197477 -0.0116847131032247 0.000550563844665286 0.9182457 0.02270046 0.3953601 81 81 81
0.0365486719091084 -0.00816699228036688 -0.000127073500952368 0.925553 0.06011181 0.3738159 124 124 124
0.0374755616839695 -0.0093747875479111 0.000789733684320171 0.9287629 0.03850467 0.3686691 87 87 87
0.0376838407336428 -0.0127056016023552 -0.00179923503638085 0.9251664 0.04235474 0.3771912 92 92 92
0.0370362018147956 -0.0126831172362218 -0.00245802936602652 0.9164956 0.04624218 0.3973632 77 77 77
0.0383018858635957 -0.0124885159513031 -0.00362055263069067 0.9174815 0.08946562 0.3875869 83 83 83
0.0376502991981102 -0.0089112060625145 -0.00190349777684923 0.9312723 0.04670356 0.3613181 97 97 97
0.0397872843793685 -0.0139900982427217 -0.00605526999787415 0.8706412 0.1609188 0.4648538 55 55 55
0.0421901350838672 -0.0188868826667545 -0.00809828758813874 0.8707743 0.1238492 0.4758293 100 100 100
0.0405333594131863 -0.0167377114680909 -0.00685516224064292 0.8255903 0.1848166 0.5331448 66 66 66
0.0414805274679879 -0.0143724805418135 -0.00788205288564175 0.8458633 0.2098695 0.4903773 66 66 66
0.0385679137673962 -0.00839118366929004 -0.0056628672069749 0.9254409 0.09238438 0.3674565 96 96 96
0.0389965293707368 -0.0103151614691306 -0.00563676127297857 0.9149866 0.1427455 0.3773902 82 82 82
0.038768182002948 -0.00803796625914477 -0.00701393989946436 0.9308754 0.1200014 0.3450663 117 117 117
0.04049824336647 -0.0100079926938828 -0.0097774808566406 0.8782618 0.1941489 0.4369924 126 126 126
0.0410724351264966 -0.0134575942150339 -0.00732428758875264 0.8645925 0.1859177 0.4668131 107 107 107
0.0435506366150191 -0.0276329920182719 -0.0106345037969079 0.8860617 0.1709424 0.4308982 83 83 83
0.0443178000404814 -0.026371262456655 -0.012015895365508 0.8854775 0.1466468 0.4409358 86 86 86
0.0444261811752491 -0.0240507617369725 -0.0136083827978234 0.9001921 0.09475458 0.4250597 67 67 67
0.0443891020761249 -0.020508263235099 -0.0123639432422513 0.9255109 0.1052447 0.3638036 97 97 97
0.0445720384850092 -0.0222294794965789 -0.0131704686325284 0.9130328 0.1043758 0.3943055 75 75 75
0.0442264117856126 -0.0297924325788224 -0.0103090939571541 0.8721522 0.2033265 0.4449819 104 104 104
0.0453644446915895 -0.0311803017675345 -0.0102969992332626 0.84606 0.2673544 0.4611985 55 55 55
0.0441090171428449 -0.0259012026762615 -0.0103721781003422 0.9174393 0.08446428 0.3888069 84 84 84
0.0445572068380327 -0.029778993538663 -0.0116498070481532 0.837836 0.2353168 0.4926022 76 76 76
0.0454887086611377 -0.0315292285459372 -0.0109467144981518 0.838696 0.2555657 0.4809107 52 52 52
0.0464357205653589 -0.0310765633342032 -0.0130139879882227 0.825968 0.2708169 0.4944038 93 93 93
0.0439018514025953 -0.021834658683932 -0.00955201234491682 0.9187387 0.08874857 0.3847634 94 94 94
0.0448545753888698 -0.0247265848365466 -0.0129716710033087 0.8985602 0.1119338 0.4243353 89 89 89
0.0472987218594931 -0.0237768706247299 -0.0183473498911323 0.8471587 0.1759498 0.501362 119 119 119
0.0459224659672046 -0.0195836348439673 -0.0173479364661817 0.8779662 0.1462867 0.455824 84 84 84
0.0478222138792865 -0.0216503879821375 -0.0198162086893474 0.847383 0.1730169 0.5020032 102 102 102
0.0477486498380868 -0.0303628431023797 -0.014152403489988 0.8389114 0.2274291 0.4944731 124 124 124
0.0463296613527389 -0.0289488724628195 -0.015200231587477 0.8306458 0.2688582 0.4875888 100 100 100
0.0464719045233315 -0.0263160996982477 -0.0156430556086637 0.8483864 0.2114203 0.4853266 75 75 75
0.0488655845389607 -0.0301662814582717 -0.0164576066922446 0.8699316 0.2002665 0.4506798 93 93 93
0.0472552269826951 -0.0267859454838018 -0.0164095636697878 0.8369499 0.2286413 0.4972304 69 69 69
0.0482178021170334 -0.0280996234472006 -0.0179453836449978 0.8689224 0.1899362 0.4570538 115 115 115
0.041678455305739 -0.0168044593966132 -0.00915189246715981 0.8671573 0.2049781 0.4538966 86 86 86
0.0429825455610495 -0.015675759127608 -0.010884758444799 0.8797107 0.2000785 0.4313672 114 114 114
0.044908572758265 -0.018049139354432 -0.0142400954634249 0.9142751 0.1112522 0.3895175 100 100 100
0.0436086780744251 -0.0139687352013653 -0.0113498394819344 0.8753949 0.2095355 0.4356358 82 82 82
0.0437383871808301 -0.0139021233752676 -0.0139895353987715 0.8947029 0.1777504 0.4097703 122 122 122
0.0414681743516436 -0.0100021347706047 -0.011534749007185 0.861727 0.192236 0.4695444 141 141 141
0.0406318263062535 -0.0120266950803931 -0.00950450879007797 0.8619995 0.2178427 0.4577132 106 106 106
0.0423752250580041 -0.0118571669279115 -0.0120154649989638 0.8764416 0.1965517 0.4395653 122 122 122
0.0428593251012148 -0.00810668843398377 -0.0144803600390883 0.8814577 0.1189795 0.4570298 85 85 85
0.0422426541803533 -0.0119645192614193 -0.0127875098890821 0.8789806 0.1769449 0.4428133 123 123 123
0.0435126877546117 -0.0130594521654437 -0.012198769147562 0.8779691 0.2254963 0.4222814 123 123 123
0.0440155121348198 -0.0188295860640018 -0.0106565702350247 0.9153126 0.1197794 0.3845202 70 70 70
0.0441381767573887 -0.0174457840936291 -0.0149752965675486 0.9073609 0.1349222 0.3981109 117 117 117
0.0441995038243828 -0.016799105737177 -0.0147023559874301 0.9048376 0.1387791 0.4025038 140 140 140
0.0454916382304928 -0.019361009173082 -0.0158938106019232 0.9015306 0.120864 0.415493 106 106 106
0.0468310764218729 -0.0176017016152894 -0.0184264287824802 0.8634378 0.1563129 0.4796263 85 85 85
0.0444552568686263 -0.00855170767774815 -0.0174039246133821 0.9011025 0.1114826 0.4190296 93 93 93
0.0456170544597498 -0.0121436644191448 -0.0187551544243098 0.8758429 0.1330695 0.4638877 61 61 61
0.0455179872653519 -0.0127093180591893 -0.0175161316675895 0.8930398 0.1647165 0.4187461 69 69 69
0.0458146774061878 -0.0129633931197275 -0.0183100013399062 0.8778127 0.156701 0.4526474 66 66 66
-0.0200969534812749 0.0629678449862006 0.00896262008636933 0.2317205 0.8951019 -0.3809175 66 66 66
-0.0341953653203164 0.0599160146009647 0.0217679816834693 -0.9151323 -0.07007729 -0.3970163 105 105 105
0.0334383382752061 0.0504998000673698 -0.0220515504972191 0.1064153 0.9936265 -0.03717699 91 91 91
-0.0179432196784397 0.0589706716498726 -0.000634907251736372 0.2613687 0.9325322 -0.2491387 72 72 72
0.0216017204420791 0.0525247889570404 -0.0163149662763533 0.07766149 0.9958652 -0.04712921 72 72 72
-0.0396929622368345 0.0179793442817962 0.0269874727165751 -0.9742707 0.09935096 -0.2023018 102 102 102
0.0253597434237418 0.0372542407522614 0.00705526773447224 0.9375339 0.0132697 0.3476408 90 90 90
-0.0318727519811617 0.0316008376283883 -0.00903361348627846 -0.9712689 0.2026037 -0.1248537 102 102 102
0.0394496629133732 0.0149615493701916 -0.0165588453662022 0.9173601 0.03461012 0.396551 108 108 108
0.0358488439913329 -0.00228957612933778 -0.0401701215872574 0.5741484 -0.0816837 -0.8146665 165 165 165
-0.03856130788254 0.000494487468814642 -6.22506627913633E-05 -0.9642171 0.06790315 -0.2562705 171 171 171
-0.0402338777177504 0.0285480268339506 0.0279882291763452 -0.9828482 -0.02257546 -0.1830295 108 108 108
0.0442336475384806 0.00280270218405665 -0.0356563113992074 0.5659984 -0.3267329 -0.7568959 134 134 134
0.0268030651309277 0.0511498522325904 -0.00188040844886211 0.3602498 0.920476 0.1514729 32 32 32
-0.0346310628275501 0.0129536319794656 -0.0105359369680726 -0.9650788 0.1586167 -0.2084796 111 111 111
-0.0406736745449365 -0.00489610331366852 0.0214524316175691 -0.9958776 0.0665637 -0.06162151 70 70 70
-0.0263988500039183 -0.00124857734950212 -0.0400154766146743 -0.3445054 -0.2312043 -0.9098685 144 144 144
-0.0341696731126873 0.00511303385803275 -0.0159141156654249 -0.9517732 0.2029992 -0.2300413 84 84 84
0.0477412123502559 0.010385045335594 -0.0300273428067268 0.9171833 -0.007360243 0.3983974 112 112 112
-0.0354650722112742 0.030524921164824 0.00967828744623361 -0.9451932 0.243394 -0.2176445 108 108 108
0.0201155024256565 0.0150211985352682 -0.04448911418819 0.006666221 -0.03898292 -0.9992176 86 86 86
-0.0397950724657115 0.00520289517790018 0.0137216359187534 -0.9870799 -0.06182663 -0.1478199 117 117 117
0.0406531961035985 0.0266140568632309 -0.0175085122452804 0.8999408 0.06686793 0.430854 111 111 111
0.00934015625413553 0.0611438297162377 0.0282066235632917 0.2997077 0.8446299 -0.4435939 106 106 106
0.00856389215471776 -0.0503385055640755 -0.0429795733466555 0.1749208 -0.2157968 -0.9606428 193 193 193
0.00821733274476588 -0.0478282481445527 -0.0433515115971254 0.06294079 -0.1508215 -0.9865553 188 188 188
0.0105087127022712 -0.0468407952707421 -0.0434818071945774 0.1687898 -0.1720844 -0.9705138 165 165 165
0.00914327866805809 -0.0431728926437858 -0.0434376430816099 0.06665643 -0.07382163 -0.9950414 174 174 174
0.00922810319029876 -0.0403962927745658 -0.0436877906331303 0.08754125 -0.06289867 -0.9941732 166 166 166
0.0117680349310336 -0.0429588966160577 -0.0434646009741985 0.2420172 -0.08918567 -0.9661644 156 156 156
0.00509881141424118 -0.0324622116129769 -0.0442027431780349 0.02659224 -0.000159771 -0.9996464 198 198 198
0.0058005024273089 -0.0308893917128752 -0.0440541170297028 0.02957214 0.005644904 -0.9995467 72 72 72
0.0071099554230305 -0.0364244486127383 -0.0439827153723901 0.0596142 -0.0353639 -0.9975949 209 209 209
0.0111370120043763 -0.0403253347017356 -0.0432581881295617 0.1389088 -0.08646221 -0.9865235 105 105 105
0.0119588420101673 -0.0386170791234217 -0.043706412396403 0.1487009 -0.08328621 -0.9853687 113 113 113
0.00983680308682744 -0.0345339844273806 -0.0438253637625292 0.09248441 -0.01866011 -0.9955392 96 96 96
0.0119749239802869 -0.0366765971801311 -0.0437816961339656 0.1242168 -0.04522905 -0.9912238 125 125 125
0.011160158494101 -0.0351192846161885 -0.043712331924105 0.09032676 -0.01968894 -0.9957175 97 97 97
0.00744536902644488 -0.0287323370514618 -0.0441299841278508 0.0427006 0.004103956 -0.9990795 91 91 91
0.0100957984098831 -0.0332155164979331 -0.0436670179171934 0.09361696 -0.01136206 -0.9955435 71 71 71
0.0109719959907355 -0.0515034540955761 -0.0413284328903491 0.413956 -0.2943996 -0.8613764 95 95 95
0.0125045541549269 -0.050508750925673 -0.0417580497672216 0.4033155 -0.3331029 -0.8522788 175 175 175
0.0126814597272744 -0.046739608744522 -0.0427036563416773 0.360648 -0.2164004 -0.9072507 174 174 174
0.0129203586141049 -0.0489283137665517 -0.0423204561242742 0.4065331 -0.3092274 -0.8597146 189 189 189
0.0143558218164412 -0.0509094824193759 -0.0396937577591374 0.4909303 -0.3599439 -0.7933649 181 181 181
0.0136239310954167 -0.0497673910258631 -0.0407373782871631 0.4805544 -0.3408766 -0.8080041 166 166 166
0.0150199429166136 -0.047840612956437 -0.0403159471727143 0.5050626 -0.293984 -0.811471 127 127 127
0.0150903706193783 -0.0480887320626193 -0.0414311335036494 0.4972454 -0.3077707 -0.8111869 127 127 127
0.0233470641406373 -0.0371174768021447 -0.0401185036619964 0.4859871 -0.2042186 -0.8497713 161 161 161
0.0123290268370297 -0.0458554304063374 -0.0431721228200969 0.3293585 -0.1902142 -0.9248468 172 172 172
0.0149803346002737 -0.0447233785182406 -0.0419975227934798 0.4491463 -0.2475853 -0.8584691 204 204 204
0.0139927199603336 -0.0432752662004448 -0.0423589273726718 0.3274049 -0.1793736 -0.9277021 187 187 187
0.015332045895768 -0.0466567596961225 -0.0417425187389728 0.4794159 -0.268391 -0.8355398 195 195 195
0.0164241916757002 -0.0453927632154549 -0.0406948140379801 0.4511428 -0.2853768 -0.8455946 199 199 199
0.0151052348284213 -0.0425540355840621 -0.041807563366907 0.3471741 -0.203592 -0.9154345 213 213 213
0.0165668154676992 -0.0411192129740934 -0.0419780374015383 0.2846685 -0.2394055 -0.9282504 170 170 170
0.0178857852194103 -0.0521179251039261 -0.0374262066096888 0.3184072 -0.3365749 -0.8861908 159 159 159
