ply
format ascii 1.0
comment File exported by Rhinoceros Version 7.0
element vertex 474
property float x
property float y
property float z
property float nx
property float ny
property float nz
property uchar red
property uchar green
property uchar blue
end_header
-0.155729011621366 0.00772269632856282 0.029151674726646 -0.9858546 -0.1640969 0.03410324 77 77 77
0.120043729314721 0.0562848699812568 0.0596777162952673 0.06438705 -0.5563747 0.8284332 164 164 164
-0.0100729225425509 0.0451488941559222 0.0595609434653179 0.05646366 -0.5429356 0.8378739 196 196 196
-0.148618660415501 -0.0595649513566108 -0.0482845190488275 -0.9841495 0.09287748 -0.1510748 55 55 55
-0.0180870243755198 -0.144888156536033 -0.0640408535211218 0.1580708 -0.9732891 -0.1664993 78 78 78
-0.137682746922447 -0.0129670205238346 0.0296693491348377 0.03775574 -0.543443 0.8385966 131 131 131
-0.0697697435341673 -0.0169029810744989 0.0234627956310334 0.02230748 -0.5279476 0.8489839 179 179 179
0.0902297663193674 -0.116400146391299 -0.0479113164043206 0.04094265 -0.5247346 0.8502807 147 147 147
-0.132280780198143 0.0377054488386688 0.0613829641527944 0.05022342 -0.5307809 0.8460197 151 151 151
-0.156143993812656 0.0133301309927236 0.0316027696664393 -0.9833675 -0.1258608 0.1309483 82 82 82
0.0697592434958691 -0.136623970301289 -0.059298623544107 0.04226877 -0.5364456 0.8428757 157 157 157
0.0379648986059316 0.0444943576849566 0.0557228063793888 0.06449378 -0.5443394 0.8363822 97 97 97
-0.10005402306124 -0.136609199051965 -0.0502454181645755 0.06291421 -0.5283735 0.8466777 123 123 123
-0.130111825574559 0.0976756721998089 0.0974852887085083 -0.1747771 0.2006043 0.9639558 106 106 106
0.109634613784745 0.110100374928451 0.0795165751104894 0.02103936 0.7247879 0.6886507 65 65 65
-0.126375010404069 0.0552009843310552 0.0721648604958868 0.05114156 -0.5266796 0.8485241 168 168 168
-0.11817539521436 0.120760039853324 0.0824193809391673 -0.06258078 0.7488325 0.6597981 80 80 80
0.103591271006353 -0.0108069996647486 0.0176194357988034 0.0377699 -0.5453786 0.8373384 165 165 165
0.0016617574675335 -0.14250430474592 -0.0594597397387589 0.05734761 -0.6969386 0.7148341 114 114 114
-0.122402301303571 -0.10952123565927 -0.0316710215230892 0.05142777 -0.5335525 0.8442019 177 177 177
0.120670739544338 0.0196134047150498 0.0359876583919669 0.05478141 -0.5363337 0.8422263 129 129 129
0.000146621166246863 -0.0899742241456796 -0.0264591756197436 0.04193961 -0.5411016 0.8399108 114 114 114
-0.0627153380295273 0.0866432797488914 0.0877786779193372 0.05387387 -0.5164902 0.8545967 145 145 145
0.143838791349518 -0.0322684941657534 -0.0516036242423549 0.9597933 -0.2000967 -0.1968707 85 85 85
0.0322219111261166 0.0587508493950426 0.0655769170545351 0.0410318 -0.530322 0.8468028 199 199 199
0.190528044114535 0.101566228240086 0.0547717788288463 0.9511756 -0.2065958 -0.22931 93 93 93
0.0327674283993034 -0.0036861504670036 0.0256599917512247 0.02121348 -0.5312875 0.846926 207 207 207
0.139037758005474 0.127242484495026 0.0560750253999017 0.008833402 0.83516 0.5499362 63 63 63
0.0700766802283264 0.125600232818288 0.0632301912051845 -0.03355899 0.8773034 0.4787614 22 22 22
0.0216951104846679 -0.0399066608791216 0.00408267701498577 0.06769687 -0.5150868 0.8544605 199 199 199
-0.0488488567835934 -0.0879814019701302 -0.0221856190029744 0.04627341 -0.547832 0.8353077 109 109 109
-0.0691994097287245 -0.144479974342163 -0.0649013403241166 -0.09436895 -0.8896761 -0.4467337 126 126 126
-0.0170009405757723 0.0293332386143943 0.0498779753834546 0.06479388 -0.5370741 0.8410429 188 188 188
-0.160963645055809 0.0334824342008038 0.0431997565475848 -0.9548651 -0.180805 -0.2356739 57 57 57
0.0575731879238783 0.0304296903547248 0.0462479844660522 0.05114449 -0.5293189 0.84688 163 163 163
-0.0240754836935735 0.116490505620782 0.0811704695438124 0.1398871 0.9293745 0.3416059 95 95 95
-0.0946316551051538 0.0622784364617028 0.0742206814398583 0.0331268 -0.5490837 0.8351106 139 139 139
-0.151153040476508 -0.0526347934143265 -0.0220966676153744 -0.9813676 0.0006041006 -0.1921385 34 34 34
0.0882539346475575 -0.0619718402977707 -0.0137547600150966 0.02497193 -0.5291787 0.8481429 162 162 162
0.0320754119756304 -0.138055933443049 -0.0745715671449854 0.02345772 -0.8841866 -0.4665446 122 122 122
0.112217439027293 -0.0719105661573942 -0.0210717232024091 0.04903196 -0.5253471 0.8494742 175 175 175
0.193116938284585 0.106481546288423 0.063334639486549 0.9739718 -0.1667467 -0.15354 84 84 84
-0.0653094116118469 0.0477385105540049 0.064026646883756 0.04632973 -0.5140004 0.8565379 128 128 128
-0.152481647044292 0.0171538475427906 0.0496357894671709 0.06483729 -0.5254734 0.8483359 132 132 132
-0.150154652303503 -0.0724596588447153 -0.00670180508257484 0.07199392 -0.525525 0.8477266 142 142 142
-0.0193011609772267 -0.133122208812669 -0.0879280136891379 0.02791276 -0.8205207 -0.570935 61 61 61
-0.148223622932985 -0.114539321346389 -0.0618842462778298 -0.952684 0.303519 0.01641295 33 33 33
0.179863828135953 0.110242774783182 0.0785858153894727 -0.03566127 0.7540915 0.6558005 112 112 112
-0.154122597956169 -0.00529276638789122 0.0356451565932387 -0.06550996 -0.5785844 0.8129874 167 167 167
-0.0443752900662453 -0.057861714630093 -0.00350283201333029 0.0291017 -0.5251132 0.8505347 195 195 195
0.109074126638349 -0.140401260009714 -0.0840774601093029 -0.2942491 -0.849911 -0.4371141 100 100 100
0.0450305728252074 0.0406162294474235 0.0531525719633749 0.03212747 -0.5350268 0.844224 165 165 165
0.161734100967839 0.0155910191133932 0.0311872565444377 0.04671863 -0.5584336 0.8282326 195 195 195
-0.151147322296275 -0.0611569867067361 -0.0247900378391386 -0.9863847 0.05732442 -0.15414 30 30 30
-0.156099535496366 0.0163106924989322 0.0342520304382501 -0.9891687 -0.1465212 0.00876463 73 73 73
0.157455628214989 0.000467155578557144 0.0220748367987159 0.0690759 -0.5087587 0.8581336 138 138 138
0.10611875967297 0.112480956092662 0.0773795335817661 0.02794952 0.7279133 0.6850992 56 56 56
0.179660583555981 0.0642236404801524 0.0368665499607413 0.9707901 -0.1751896 -0.1639362 80 80 80
0.0896681107406079 -0.122538429358103 -0.0518624638815344 0.03991642 -0.53113 0.8463496 139 139 139
-0.131490424827652 0.0320573996894074 0.0580640117432188 0.05024465 -0.537522 0.8417515 147 147 147
-0.115883197688857 -0.135047758258789 -0.048270838906012 0.03885195 -0.5271471 0.8488854 122 122 122
-0.131930452426764 -0.133111707564591 -0.0776690168129056 0.01871807 -0.9153069 -0.4023218 80 80 80
0.0580999899844974 0.0416019554131963 0.0532458909759339 0.05899289 -0.5194399 0.8524682 144 144 144
-0.0996594486248221 -0.00473797554902733 0.0328539617928436 0.03917607 -0.5347713 0.8440882 150 150 150
0.0837350760778381 -0.0579215464891611 -0.0106580013135427 0.07671084 -0.5435934 0.8358359 129 129 129
0.156034774854937 0.128342714530293 0.054717079879578 -0.006456921 0.8016263 0.5977906 72 72 72
0.147654803604647 -0.037827687597759 -0.025114752471679 0.9663433 -0.1884331 -0.1751386 69 69 69
-0.0762084211763467 -0.0209038658465979 0.0212877499690274 0.04482231 -0.5070959 0.8607234 142 142 142
-0.151756246042547 -0.0340458083997093 -0.0290287252866039 -0.938521 0.1209494 -0.3233414 64 64 64
0.18626011033225 0.074813981825443 0.0612246519403805 0.9634045 -0.2041535 -0.1737039 103 103 103
-0.0839710561234905 0.0895434199672465 0.0910386542555532 0.03854249 -0.5303839 0.846881 140 140 140
0.00627221250814225 0.120320869752303 0.076737188218679 -0.1155039 0.885939 0.4491892 59 59 59
-0.0253371678916503 -0.00348419250841281 0.0298424874965857 0.04801975 -0.5256506 0.8493442 121 121 121
-0.0798952590915503 0.0638729922763754 0.0748747777559885 0.07337826 -0.519681 0.8512034 209 209 209
-0.0417921439641584 0.127501436698072 0.0691520100571172 0.07440336 0.8940776 0.4416892 39 39 39
-0.145641149297616 -0.0520101594537798 0.00633277292734241 0.02875053 -0.5067471 0.8616152 163 163 163
0.0699556225716171 -0.0440050550224611 -0.00114662826451162 0.05248039 -0.5435396 0.8377413 132 132 132
0.183865646518243 0.0915682207209876 0.0336960306191327 0.9701267 -0.1859714 -0.1557843 61 61 61
-0.136469116352874 -0.0106431266698594 0.0311094122944765 0.04120331 -0.5440346 0.8380505 127 127 127
0.122192789347305 0.102695825347834 0.0870068418243168 0.07877889 0.1640829 0.9832959 100 100 100
-0.146001052864859 -0.109768347054185 -0.0804328601889633 -0.9829355 0.1738347 -0.06016058 40 40 40
0.065177224282567 -0.00740438038238511 0.0219085831639991 0.05583003 -0.5296162 0.8463981 172 172 172
0.126301611742718 -0.0717186462150918 -0.0221498765078637 0.06045092 -0.5147318 0.8552175 111 111 111
-0.0357747734794054 -0.145150262383398 -0.0667554191276647 0.01611947 -0.9296405 -0.3681152 107 107 107
0.18422316222973 0.085408922301289 0.0401756214499294 0.9680371 -0.1925373 -0.160728 82 82 82
-0.148706884710146 -0.0484595979763591 -0.0389897005667612 -0.9979361 -0.0640896 -0.004009215 30 30 30
-0.113912452265088 -0.136999914228246 -0.07362276715799 -0.04569818 -0.8804716 -0.4718914 71 71 71
0.00992267062320051 -0.102732271186001 -0.0349129551336074 0.03528596 -0.5366948 0.8430383 132 132 132
0.135564409189266 -0.0721727255680229 -0.0555551636099995 0.9610766 -0.2144174 -0.1742326 52 52 52
0.138446366929364 0.00525968874413274 0.026139905919156 0.02510381 -0.5479347 0.8361444 157 157 157
-0.00228183430230811 0.0800999598201575 0.0809144610816185 0.05272226 -0.5363911 0.8423212 178 178 178
-0.152442107051526 -0.0498097572361511 0.00747497835497085 0.04634658 -0.5308748 0.846182 106 106 106
-0.0204435762208064 0.0210281556998033 0.0441864624387741 0.03172489 -0.5211053 0.8529025 116 116 116
-0.0761999425030069 0.0455777061212399 0.0633049783372596 0.05158161 -0.5437232 0.837678 135 135 135
-0.0626000061625804 -0.140200493229135 -0.0544450032087003 0.04929252 -0.5268949 0.8484999 129 129 129
-0.11203306258846 -0.130529212862475 -0.0886458202603319 -0.1527286 -0.9092929 -0.387118 41 41 41
-0.0261119322266179 -0.0388214179258339 0.00735750905445537 0.06180727 -0.5352595 0.8424233 137 137 137
-0.0600474316646222 -0.0944845472686566 -0.0257843178271336 0.04078155 -0.5349602 0.8438925 142 142 142
-0.133918190537265 -0.139825161677122 -0.0500686311658447 0.07100692 -0.5199882 0.851217 106 106 106
0.0692337937125691 0.0132653937199541 0.0345757850963668 0.04247872 -0.5100224 0.8591116 146 146 146
-0.00911371192823252 -0.080917465027299 -0.0205155740787106 0.01690189 -0.5553426 0.8314499 147 147 147
-0.0262991214542745 -0.0964571625443817 -0.0287942347556737 0.06719953 -0.5402594 0.8388111 154 154 154
-0.0921353323195924 0.0173406933725879 0.0464935585675436 0.03211816 -0.5433637 0.8388827 192 192 192
-0.0164209758920877 -0.0503394117343594 -0.000415434912692969 0.03348978 -0.5367893 0.8430514 160 160 160
-0.116255564180584 -0.144398312855315 -0.0537124460485825 0.1038568 -0.8883049 0.4473569 109 109 109
0.15420577093618 -0.0118119523646794 0.0142857092351615 0.09449358 -0.5112355 0.8542302 110 110 110
0.0776176177411756 0.0333877927656776 0.046751621754472 0.03553965 -0.5494528 0.8347686 184 184 184
0.0477320860246935 0.0115641008764895 0.035067552194371 0.05912072 -0.5367993 0.8416361 152 152 152
0.0982510889045689 0.0633042047186698 0.0642541880363128 0.03982911 -0.4911967 0.8701376 169 169 169
-0.0996216851482083 -0.0181143134102639 0.0241112019263811 0.04916637 -0.5183064 0.8537805 112 112 112
-0.0530875276001415 -0.144153452826771 -0.0684549065734102 -0.02482127 -0.8953404 -0.4446904 144 144 144
-0.158033100506876 0.0283409745289558 0.0176074488277472 -0.9985185 -0.05304636 -0.01211624 52 52 52
0.115451503739904 0.055529220188256 0.0590213740105985 0.0561862 -0.5395936 0.8400487 136 136 136
-0.0522604515322063 0.0409525193145477 0.058986937435102 0.05188805 -0.5358964 0.8426878 160 160 160
0.119713323528571 -0.0338833541179031 0.00225444778338213 0.04243385 -0.5525852 0.8323755 193 193 193
-0.109392675644436 0.102842384070942 0.0980836724293128 -0.1374082 0.4099904 0.90168 60 60 60
0.0214770210969397 -0.134755436669328 -0.0557471989928572 0.06102751 -0.5325621 0.8441879 165 165 165
0.149329610340811 0.00633125663316769 0.0260373588158244 0.0652206 -0.5186526 0.8524939 142 142 142
-0.0664964845357976 0.12810166377298 0.0670294900050866 0.00276019 0.8979519 0.440085 47 47 47
0.0274929778159785 -0.0362500358709876 0.00601791207670155 0.04701592 -0.5349064 0.8436022 125 125 125
0.185425454095582 0.0820811005553033 0.0501423954232859 0.9742314 -0.1689879 -0.1493865 66 66 66
0.170137054859047 0.0319643163108698 0.0209611833528027 0.9636195 -0.1996299 -0.1777229 46 46 46
0.181140264394508 0.111944057222173 0.0768509926409984 -0.02092594 0.7829586 0.6217217 104 104 104
-0.052446978707493 -0.130883501722553 -0.0489388866918631 0.06251529 -0.5134065 0.8558654 128 128 128
-0.104043014321745 -0.0107183906393504 0.0292654500668707 0.03864632 -0.5371931 0.8425735 97 97 97
-0.102355304842402 -0.117182644301979 -0.0380114518855461 0.04363592 -0.5382848 0.8416325 140 140 140
0.102325163411149 -0.0665562188548499 -0.0175705191733643 0.05842404 -0.5150387 0.8551735 134 134 134
0.0783869985156778 0.118323589683264 0.0752446994094196 0.2631859 0.6757748 0.6885213 85 85 85
-0.0196587163371817 -0.106716380367328 -0.0356911066845907 0.03986534 -0.5244384 0.8505146 64 64 64
0.0172412016215677 0.105982273552663 0.0957102881700519 0.03022903 0.2382949 0.9707223 175 175 175
-0.1646072263306 0.0476452930382774 0.0488783788903824 -0.9666809 -0.1628209 -0.1975281 60 60 60
0.0214713574670822 -0.113692734301853 -0.0426110591128054 0.05098544 -0.5242727 0.8500227 126 126 126
0.177584248514968 0.0699203003775035 0.0206564521168447 0.9638386 -0.2199317 -0.1504829 73 73 73
-0.0637707060840105 0.0162269938762623 0.0439635078287316 0.04974462 -0.516587 0.8547885 108 108 108
0.0575277936399683 -0.131405169237029 -0.0887791067274704 0.08251061 -0.9210034 -0.3807161 70 70 70
-0.157490311908366 -0.00499642132413758 0.0167021145974955 -0.9715197 0.2277087 -0.065561 63 63 63
0.0553406086019059 -0.0443300036136449 -0.000818410628577571 0.06163916 -0.5228139 0.8502154 140 140 140
0.0896939935619838 -0.126204159864866 -0.102774621217382 -0.1799397 -0.8883257 -0.4224916 92 92 92
0.0303399087901148 -0.0728823719323477 -0.0172732229247918 0.06297508 -0.5165613 0.8539312 166 166 166
-0.15035066612063 -0.00565143856926853 -0.0111477249599859 -0.9714924 0.06916501 -0.226757 4 4 4
-0.023909295515232 -0.145711285919015 -0.0598604689528875 0.02036288 -0.8955461 0.4445025 171 171 171
-0.0626775624411842 -0.0540398608120514 -1.66673782037163E-06 0.0622704 -0.5214148 0.8510283 127 127 127
-0.147307486564488 0.070831844811549 0.0832972648082706 0.04509813 -0.522056 0.8517181 189 189 189
0.177197308481914 0.0480892383432996 0.0392250528092955 0.9719216 -0.1663545 -0.1664168 54 54 54
-0.130158647778931 0.104983281915681 0.0902509452113569 -0.3393421 0.7479194 0.5704941 85 85 85
-0.0204962160605886 -0.0296196773013224 0.0126156418951947 0.05682951 -0.532936 0.844245 121 121 121
-0.150381089909899 0.0993647252883791 0.0907079958948455 -0.2349313 0.6658731 0.7081104 62 62 62
-0.00534934662052056 -0.122155691505984 -0.0463512225262091 0.06170228 -0.5454803 0.8358493 98 98 98
-0.12206495824826 0.0849628594143046 0.0903996995275386 0.05234984 -0.5281202 0.8475545 147 147 147
-0.118088776768881 0.0258126443293254 0.0530679694764574 0.02464761 -0.5297538 0.8477933 162 162 162
0.178320389327454 0.0497022843035022 0.0468625849317884 0.9694411 -0.2103713 -0.1262061 128 128 128
-0.052504394265724 -0.130273447822222 -0.0950968472894753 0.03590999 -0.9089605 -0.4153327 108 108 108
0.0720013337558423 0.119288143648143 0.0777993717852579 0.3583781 0.6502471 0.6698835 117 117 117
0.0582638306276557 0.0913666851123784 0.084706163363553 0.04182573 -0.524263 0.8505286 189 189 189
-0.166164242338031 0.0827337787954128 0.0916451485951945 0.0492541 -0.4809897 0.8753416 158 158 158
-0.0653497574724839 -0.13489365315997 -0.0507323729539569 0.04909942 -0.5254781 0.8493892 166 166 166
0.039099726756529 0.0971451587640302 0.0893233875332451 0.04193426 -0.5308833 0.8464068 184 184 184
-0.0843300726691554 -0.0447609653151244 0.0067676789367041 0.05125724 -0.5295048 0.8467569 122 122 122
0.106216826363835 -0.0905953353074578 -0.0329857561399867 0.04544096 -0.5382964 0.8415296 148 148 148
0.0222434970629299 0.0572387000169809 0.0649718242926655 0.03919145 -0.5273241 0.8487599 168 168 168
-0.0605381965464602 -0.135242197815156 -0.0859311905056302 -0.01234273 -0.9149435 -0.4033933 163 163 163
0.00563130056469685 0.0140353867609533 0.0388978689941767 0.05907694 -0.5083373 0.8591293 134 134 134
-0.0822491945945147 0.0453944794402541 0.0632687208773978 0.04133917 -0.532139 0.8456472 134 134 134
0.154724207898199 -0.0263830950318202 0.00465920828114463 0.6005218 -0.6097861 0.5172374 185 185 185
0.029513504515724 0.0032871280366904 0.0307273970643683 0.04941131 -0.5433279 0.8380653 154 154 154
-0.0921293044932256 -0.0508924288556907 0.00299525348127072 0.05842249 -0.5464271 0.8354664 119 119 119
0.0798846340193875 -0.134898218824308 -0.0587967233988702 0.04350807 -0.5219662 0.8518558 161 161 161
0.129784991182264 -0.086034822337286 -0.0715398226008738 0.9657235 -0.1951871 -0.1711144 38 38 38
-0.155829919603324 -0.00141788307940027 0.0231687817268202 -0.981469 0.1903066 0.02240715 50 50 50
-0.0622019574691417 -0.0166385982111761 0.0233262995060339 0.05904229 -0.5399873 0.8395998 158 158 158
-0.00229142856605513 0.00373834090593128 0.0328590277981975 0.03982227 -0.5276415 0.8485332 86 86 86
0.128034786552477 -0.0979315121156015 -0.0691634135933361 0.9632082 -0.1980083 -0.1817215 106 106 106
-0.155497457105471 -0.0341598500794154 -0.00299368803196914 -0.9587207 -0.2505849 -0.1343938 49 49 49
-0.0439671084705657 0.107667481273742 0.0969456976589022 -0.06662118 0.52931 0.8458088 117 117 117
0.110318004805327 0.0968985205306374 0.0846822010290169 0.0586054 -0.4983924 0.8649684 108 108 108
-0.0746764221735816 0.0723677464011825 0.0799788862690241 0.03194634 -0.5447031 0.8380203 157 157 157
-0.0439469643542276 -0.0502552648038799 0.00107769685405601 0.03934632 -0.5289978 0.8477105 157 157 157
0.113737143526436 -0.0880627856938807 -0.0317150807970812 0.05464732 -0.5423496 0.8383737 149 149 149
-0.102631110050802 -0.00606717142908675 0.03229266670971 0.03729844 -0.5460123 0.8369464 129 129 129
-0.0882992893600998 -0.00540695766942823 0.0318235206326022 0.05085013 -0.5252472 0.849429 142 142 142
-0.00569986904346864 0.0358807163574335 0.0531306534454309 0.06264631 -0.5564777 0.8284974 168 168 168
-0.0599102307245274 0.000894032458709004 0.0344356783001856 0.08550175 -0.5317438 0.8425782 139 139 139
0.138523654023703 -0.0763566385018153 -0.033131248729186 0.9696558 -0.19627 -0.1457589 98 98 98
0.138048630759925 -0.0648768252402094 -0.0492184267515259 0.9702203 -0.1906175 -0.1494571 49 49 49
-0.0245055389828841 -0.144917155640236 -0.0593519008275422 0.0353884 -0.7014796 0.7118104 184 184 184
0.17650679442873 0.0637637819570001 0.0222696453183341 0.9769657 -0.161398 -0.139602 38 38 38
0.0684884397299088 -0.133512680786947 -0.0830089252520029 -0.03186809 -0.8941111 -0.44671 39 39 39
0.110948366486951 0.05066710068717 0.0556273110262774 0.04768176 -0.5627478 0.8252522 103 103 103
-0.10044359061201 -0.0829371139663073 -0.0165766409829028 0.07256737 -0.5347192 0.8419082 153 153 153
0.0211232014841123 -0.0471489613617218 -0.000420392835238814 0.05643865 -0.535215 0.8428283 141 141 141
-0.116701164951941 0.0999201561808549 0.0984906883809559 -0.07239002 0.2775759 0.9579725 94 94 94
-0.0369082072323859 0.11387155547325 0.0917185420531228 -0.00376509 0.7034552 0.7107296 66 66 66
0.174764484690278 0.109707362228646 0.0786587400091377 -0.02757715 0.7378978 0.6743489 108 108 108
0.144648262217808 -0.0378753600680966 -0.0449149143185553 0.9640661 -0.175237 -0.1996713 62 62 62
-0.147798162007176 0.0873460159246344 0.0932474992358222 0.02482765 -0.4948488 0.8686244 181 181 181
-0.0155182453165748 -0.141375080336088 -0.0722131831497152 0.1181189 -0.9422236 -0.3134687 58 58 58
0.158690063166677 -0.0143019942629981 0.00847334967558611 0.9418502 -0.3326927 0.04726295 94 94 94
0.111370924683429 -0.129006776618563 -0.107925035820314 0.1188827 -0.8109283 -0.5729416 135 135 135
-0.00919446043738947 0.0596774262931001 0.0680596270474251 0.04314969 -0.5188658 0.853766 154 154 154
-0.0358940816885407 0.0959011422632874 0.0926006524392478 0.03646009 -0.5392352 0.8413656 221 221 221
0.0795319400584167 -0.123521678796266 -0.105234129865849 0.007111549 -0.8649023 -0.5018898 79 79 79
0.150398362831434 -0.0320841610606328 -0.0157352255706589 0.9666924 -0.2065453 -0.1511451 66 66 66
-0.150338463098427 0.00591829866134619 0.0415304855155486 0.04693003 -0.527253 0.8484114 151 151 151
0.0833040842977519 0.0694920924257183 0.0693515823085569 0.04685315 -0.5550078 0.8305246 166 166 166
-0.0306870303085112 0.0222092899317807 0.0458777627820068 0.05425248 -0.5269195 0.8481818 94 94 94
-0.0836338204809661 -0.11697114416815 -0.0384774765076689 0.03552456 -0.5275314 0.8487925 201 201 201
0.158883808537493 -0.00597844181228724 -0.00530380499465294 0.9670404 -0.1641319 -0.1946628 58 58 58
0.137267907968232 -0.0561201975390666 -0.0648635928289026 0.9642795 -0.1915288 -0.1829802 82 82 82
-0.0970995140634598 -0.133471436214431 -0.0843821255771161 -0.05084777 -0.9122287 -0.4065136 121 121 121
0.0535191366157073 0.0414975718024237 0.053439515613017 0.04619512 -0.5242403 0.8503165 173 173 173
0.0506441344010238 -0.137792900521381 -0.0736685562340361 0.01139211 -0.8843779 -0.4666326 103 103 103
-0.164542127465588 0.0597440404047158 0.0411360061472545 -0.9677342 -0.08039345 -0.2388042 40 40 40
-0.0991765951351868 -0.11364674848361 -0.0355429206375518 0.04806316 -0.5614666 0.8261024 160 160 160
-0.0438374121310154 -0.0385116004750514 0.00835431420399452 0.03705792 -0.5369973 0.8427696 108 108 108
0.0718211399230748 -0.136114186128759 -0.0776261798330486 -0.01935358 -0.8799365 -0.474697 74 74 74
0.0412555099103287 -0.140798320255754 -0.0689903937195337 0.0406977 -0.8908567 -0.4524577 69 69 69
-0.0272006060851369 0.0287924124844563 0.0497146772142185 0.05093878 -0.5430881 0.8381292 150 150 150
-0.154450581404475 0.101645262920909 0.0870979833722737 -0.1992754 0.5707291 0.7965912 79 79 79
0.0330264531300619 0.0207769694350568 0.0414671810194931 0.05256432 -0.5269879 0.8482457 145 145 145
-0.0671442301940854 -0.0258727490438218 0.0180636213145469 0.04652025 -0.5297129 0.8469003 210 210 210
-0.154690635940758 0.00380838014093743 0.0207533335953871 -0.999384 -0.03394866 -0.008893955 42 42 42
0.099690677630043 0.130047852684831 0.0555965498383422 -0.07955598 0.8548265 0.5127792 14 14 14
-0.0960560597843974 -0.143026606609176 -0.0613779125604492 -0.1717955 -0.9368595 -0.3045991 84 84 84
-0.0702105772466766 -0.121475283386221 -0.042380709342166 0.05129835 -0.5442035 0.8373834 120 120 120
0.145135059265444 -0.0581569046894406 -0.0159928496968896 0.9038699 -0.3833604 0.1898788 124 124 124
0.164422280139703 0.0173274445822706 0.00599992516049686 0.9644723 -0.2011549 -0.1712599 27 27 27
-0.122455952460002 0.0272849321311142 0.0542460174331441 0.03811638 -0.5277101 0.8485689 154 154 154
-0.0257289978230602 -0.109924234939767 -0.0373610503857578 0.05355626 -0.539187 0.8404815 94 94 94
0.126070053697499 -0.112431309692172 -0.0473842044756523 0.3266183 -0.5721528 0.7523042 127 127 127
0.187951363767197 0.0892105230642526 0.0495649209985198 0.9680781 -0.2012274 -0.1494398 90 90 90
-0.0440567335944544 -0.0945224213305444 -0.0267729890925083 0.02190878 -0.5350072 0.8445634 121 121 121
-0.0257711838135526 -0.0745217346295832 -0.0149191723478631 0.05478938 -0.5345416 0.8433643 173 173 173
-0.02947038033532 -0.0711367113758103 -0.0129384093879597 0.02861854 -0.5171582 0.8554112 181 181 181
-0.0239027802947644 0.0813865413331691 0.0827678241240554 0.04024665 -0.5418646 0.8395016 212 212 212
-0.136471200759748 -0.115085489624673 -0.0345815736648855 0.03241343 -0.5232055 0.8515899 139 139 139
0.0055570297605092 -0.123733546325898 -0.0477342875886352 0.06220744 -0.5240614 0.8494056 85 85 85
-0.127930246983762 0.121774845634452 0.0786543084634855 -0.2676553 0.6447845 0.7159704 79 79 79
0.141532012752766 -0.060795454604696 -0.0158556245101527 0.3165223 -0.461041 0.8290084 131 131 131
0.00523595312932335 0.0906910163140811 0.0871157725495239 0.03568133 -0.5374269 0.8425551 157 157 157
-0.091858859272411 0.0133557791159233 0.0435734389522079 0.03582405 -0.5589608 0.8284199 126 126 126
0.0317985018387454 0.0735428639945044 0.0747617384962573 0.04284169 -0.5110125 0.858505 212 212 212
-0.136386756592458 0.103784397162081 0.0876980707609474 -0.1735011 0.6966037 0.6961614 64 64 64
0.00838764142990023 -0.141746346946975 -0.05913000365105 0.03779837 -0.6134979 0.7887912 118 118 118
-0.121204152024426 0.0363738272839826 0.060037536299352 0.04972358 -0.569128 0.8207441 167 167 167
0.0655481090814072 0.0997201599373045 0.0904368214440862 0.06961896 -0.546224 0.834741 187 187 187
0.0305863910090731 -0.103085279575717 -0.0361542538714429 0.05245383 -0.5241659 0.8499992 106 106 106
0.14383961098152 -0.0588942865713205 -0.022349653810431 0.9611573 -0.2003458 -0.1898375 113 113 113
0.0519293364044997 -0.0550049436868834 -0.00709869980496231 0.07705976 -0.5225469 0.849121 117 117 117
-0.0898175358265985 -0.0242193055324702 0.0201464906077729 0.06865474 -0.5281817 0.8463514 178 178 178
0.0221550859632309 -0.124864511267123 -0.102995463723603 0.004853291 -0.8880159 -0.459787 90 90 90
-0.146652992589668 -0.114611515726059 -0.0765020249522694 -0.9969676 0.07700637 -0.0112071 34 34 34
-0.121615977045983 -0.0777716451420805 -0.0118905905880892 0.0727651 -0.5217422 0.8499943 174 174 174
0.0738184657867733 -0.0720846084894076 -0.0193436000143852 0.05602069 -0.5374829 0.8414118 145 145 145
-0.0557678764796417 0.0269730648097937 0.0497299923151383 0.05211593 -0.5434172 0.8378435 128 128 128
-0.0641910937100243 -0.0917623323037833 -0.0237551299988359 0.03652175 -0.5340316 0.8446754 132 132 132
-0.0860012039047531 0.0435653072127224 0.0626554655823303 0.0540421 -0.5152115 0.8553575 163 163 163
-0.0639044797595847 0.0212091328930055 0.0470766029422289 0.05872198 -0.5348645 0.8428949 154 154 154
0.106399564715622 0.0610832188713062 0.0637136894557332 0.04328096 -0.5237067 0.8507985 192 192 192
-0.114048974730418 0.0271085493217453 0.0538023021748634 0.0471849 -0.5194782 0.8531799 112 112 112
-0.0802647235041081 -0.0484383770736618 0.00431699575075284 0.05685356 -0.5180451 0.8534617 128 128 128
-0.174329733649704 0.107687713382186 0.0754942131059976 -0.5764849 0.5979417 0.556894 78 78 78
0.140293055596678 -0.0721009997443298 -0.0271578153358744 0.9634457 -0.2671059 0.02066118 122 122 122
0.139115433009849 0.0646953224392774 0.0636267009936763 0.04821601 -0.4986848 0.8654413 183 183 183
-0.0835048564920178 0.0642774992283655 0.0754424849295448 0.03893599 -0.5208703 0.8527474 143 143 143
-0.102732812281398 -0.126280248125721 -0.0978867021894547 -0.01074844 -0.8904529 -0.4549485 179 179 179
0.116002846902407 0.12778412112779 0.0564730930926294 0.01945665 0.7144716 0.6993939 69 69 69
-0.00389497336805844 -0.111762535479125 -0.0399064845284066 0.04206694 -0.5266148 0.8490625 101 101 101
-0.131929560323582 0.0454647657261937 0.0662900461412022 0.06707752 -0.5290338 0.8459455 168 168 168
-0.158559214475354 0.0893948902567356 0.0936589439875165 -0.2001781 0.2252685 0.9535108 113 113 113
-0.131822034942957 -0.102859347974848 -0.0270886617335845 0.04251796 -0.5479763 0.8354126 174 174 174
-0.13801874038154 0.00766843940517159 0.043089258887039 0.04001962 -0.5521013 0.8328161 146 146 146
-0.0180114016076405 0.0776395851915563 0.0804257989898786 0.04243304 -0.5332804 0.8448736 211 211 211
-0.00518207052686837 -0.087139211484579 -0.0244946616447759 0.04182341 -0.5302727 0.8467949 111 111 111
-0.140307238171554 0.00128640298945104 0.0387734609409892 0.05946328 -0.5411275 0.8388356 165 165 165
-0.0799240090911273 0.0135542021535044 0.0432487264933507 0.07125982 -0.5298707 0.8450793 130 130 130
-0.0787946052071 0.0333950350383219 0.0556106583282946 0.04693612 -0.5453461 0.8368958 170 170 170
0.0729677702961387 0.0915150679686318 0.0847752467840586 0.05621009 -0.5270395 0.8479798 200 200 200
-0.0863622368438541 0.0720313116109381 0.0803768575550309 0.05291072 -0.5355175 0.842865 148 148 148
-0.0865593730752434 -0.0745766200083975 -0.0119143808037659 0.02349596 -0.5408078 0.840818 155 155 155
-0.00818265943427265 -0.0924942935917317 -0.0273608242476848 0.03575004 -0.5037374 0.8631167 138 138 138
0.152581816876109 -0.00819355432851165 -0.0314802014341489 0.9676456 -0.1967959 -0.1579027 54 54 54
-0.156513919596826 0.0709544280567589 0.0834859045050325 0.06797586 -0.534037 0.842724 140 140 140
-0.127808668455948 0.00990575890342038 0.0441393135220609 0.03484463 -0.5169526 0.8553045 150 150 150
0.126449353838489 0.0408369914218454 0.0490720980799916 0.05605599 -0.5249363 0.8492936 194 194 194
0.115981458147683 0.0530128974843449 0.0570778490993644 0.03267933 -0.5674146 0.8227835 128 128 128
-0.0794686652264309 0.112103369590686 0.0950417885153068 -0.1192236 0.7208692 0.6827396 95 95 95
0.065179077924252 -0.0135862753968423 0.0181995443319861 0.04353134 -0.5374042 0.8422005 219 219 219
0.12619620917689 -0.116302293574316 -0.0496583424668249 0.5364045 -0.570193 0.622214 145 145 145
-0.0801526328871036 0.10584135671587 0.100288537692093 -0.01761019 0.2856535 0.9581711 216 216 216
-0.15820539062451 -0.0288418365777026 0.00727607445683975 -0.9927695 0.07601319 0.09290109 68 68 68
-0.00856973098513425 -0.0484616863682388 0.000313876520596001 0.05853624 -0.5269668 0.8478677 180 180 180
0.133536422212492 -0.0742725325121798 -0.0633129344581127 0.9669706 -0.190013 -0.1698911 54 54 54
-0.137588062078572 -0.0801072366342721 -0.012675530771863 0.03126695 -0.5302519 0.8472635 110 110 110
0.192644990247806 0.107198597390133 0.066028780447223 0.9773197 -0.1471705 -0.1522726 84 84 84
0.158179435254004 -0.00608527874880305 -0.00381482152909846 0.9582195 -0.2012873 -0.2032213 42 42 42
-0.0879733144700052 -0.126808093422255 -0.0446535249809136 0.06402154 -0.516293 0.8540156 194 194 194
-0.158571539252217 0.0493810111806827 0.0285144141702315 -0.9759898 -0.1566854 -0.1513066 29 29 29
0.0820718682394421 -0.0586666294006504 -0.0112740049998735 0.06640381 -0.5375667 0.8406025 129 129 129
-0.0545547492163889 -0.0526621802868401 -0.000409720998014673 0.03306755 -0.5347392 0.8443699 118 118 118
-0.149543765634599 0.102357145687963 0.0877152913742064 -0.1288356 0.6624057 0.7379838 105 105 105
0.0584673979153445 0.0737703647536272 0.0739099953599252 0.04048805 -0.5462732 0.8366279 211 211 211
-0.02953624141945 0.0124960726627303 0.0397828555372094 0.04972611 -0.5345082 0.8436992 198 198 198
-0.156421546395925 -0.0227906219739189 -0.0080485805652023 -0.9733865 0.06713557 -0.2191155 96 96 96
0.148842426046486 -0.0401223147190546 -0.0136577103359248 0.9704834 -0.1719 -0.1691516 106 106 106
0.185592423104916 0.0957430057998649 0.0407366537566404 0.9708949 -0.1577469 -0.1802191 52 52 52
0.0789698552347926 -0.073138693816198 -0.0204983612922216 0.05130611 -0.5430194 0.8381513 136 136 136
-0.0664977325513951 0.0314432859592941 0.0534898578763498 0.02753266 -0.5547296 0.831575 152 152 152
-0.0779143686549828 0.0709658941369162 0.0789234002919231 0.04648735 -0.5469709 0.8358599 182 182 182
-0.146129658353652 0.125989048827083 0.0692432866645394 -0.2678005 0.6533172 0.708138 78 78 78
-0.0679626125257 0.0631462193711481 0.0739208668018824 0.04137984 -0.537905 0.8419892 141 141 141
0.150041703907088 -0.0436092786935645 -0.0110539872070853 0.9794884 -0.1849382 -0.08000223 92 92 92
-0.111557466380547 -0.0487498061096392 0.00522842801700124 0.05908236 -0.5466947 0.835245 127 127 127
-0.013455581029477 0.0332228584451735 0.0516984015283681 0.04170781 -0.5278955 0.8482847 153 153 153
-0.0392140207897724 0.0436602120017688 0.0598860831502864 0.03131727 -0.5516564 0.8334833 172 172 172
-0.175952580372473 0.0873483280819931 0.0811155819015065 -0.9914729 -0.0989586 -0.08478577 55 55 55
0.159874841443731 0.00135263966073218 -0.00128700311204999 0.9684059 -0.1818674 -0.170629 38 38 38
0.111514227352668 -0.140869308530388 -0.0644899638297813 0.05355411 -0.517418 0.8540554 173 173 173
0.117147219920795 -0.134349454452541 -0.0896454917743384 0.9630673 -0.1850306 -0.1956147 77 77 77
0.0402206380902572 -0.138400143944643 -0.0592599858731464 0.0507599 -0.5171093 0.8544129 94 94 94
-0.140759246851971 0.0735619397955416 0.0843336793971425 0.03192321 -0.5233119 0.8515431 194 194 194
0.00636873272844696 -0.125058181118906 -0.103460545946381 0.02086499 -0.8745925 -0.4844096 107 107 107
0.156208902229641 0.129049316996061 0.0533590156100661 -0.0004592545 0.8049136 0.5933918 56 56 56
-0.114468156914556 -0.139451064318185 -0.0672266987961232 -0.04272623 -0.9398119 -0.3390102 72 72 72
-0.0942053668154978 0.00914367469807797 0.04100078977432 0.05805896 -0.5375233 0.8412478 181 181 181
-0.106120632099507 0.044102847846329 0.0640358824216967 0.03521888 -0.5475547 0.8360284 139 139 139
-0.102230014158876 -0.0897171200571767 -0.0207028302565117 0.06104676 -0.5246363 0.8491349 162 162 162
0.157356448329878 -0.0148996002793664 0.00112307222052999 0.9578869 -0.1615058 -0.2374207 87 87 87
-0.128413607639279 0.0249883182866808 0.0526730370186177 0.06040295 -0.5351212 0.842613 142 142 142
-0.0170487985058543 -0.126142482692712 -0.0480137956245116 0.06283832 -0.5180652 0.8530298 159 159 159
0.0912774829107783 0.0538250205231319 0.058876390102202 0.01590222 -0.5209461 0.8534415 151 151 151
-0.0183738426301656 -0.0682250125115258 -0.0115841102932646 0.04983129 -0.5459718 0.8363203 188 188 188
-0.0942124174025294 -0.141872420313756 -0.0672089656865576 -0.157684 -0.9223101 -0.3528171 37 37 37
-0.059388997119143 -0.1336066910731 -0.0499012047212013 0.03119514 -0.5325407 0.8458293 159 159 159
0.026256371994569 -0.129628717790061 -0.0939928650624139 0.02891119 -0.9456258 -0.3239689 63 63 63
0.0709339425408091 -0.0700564972009827 -0.017396989390809 0.03223244 -0.540863 0.8404929 165 165 165
-0.0640398858985198 -0.0795197260582663 -0.0161165067797777 0.01919238 -0.5454777 0.8379056 120 120 120
-0.0720208842154777 -0.133179328587691 -0.0858279127455562 -0.2068019 -0.8847454 -0.4176823 18 18 18
-0.134059438692734 -0.140726070672084 -0.050713115754133 0.0636482 -0.5199342 0.8518317 95 95 95
0.165109101647259 0.0145611807865709 0.0111359259780786 0.9764263 -0.1659658 -0.1380108 38 38 38
0.00631529229988015 -0.0707667830736467 -0.0148618422807124 0.02253953 -0.5522646 0.8333641 193 193 193
0.0707869221229274 -0.015611430362414 0.0165143170789802 0.04256373 -0.5446003 0.837615 196 196 196
-0.145909397256839 -0.133995208245298 -0.0754576209986117 -0.2511591 -0.8089868 -0.531469 109 109 109
0.107715486338968 0.00511600562782721 0.0273943710716252 0.05682747 -0.5341969 0.8434479 121 121 121
0.179252784212399 0.0501523017141581 0.0510193822536428 0.831931 -0.4633825 0.3052335 161 161 161
0.0579174994132603 -0.136676552829482 -0.0585766507293825 0.05840944 -0.5432695 0.8375241 152 152 152
-0.0797884235403825 -0.132900179864064 -0.0487264930990881 0.04572548 -0.5212069 0.8522046 110 110 110
0.173200170064297 0.0690595821827369 0.0642444349666485 0.04998599 -0.5592024 0.8275228 149 149 149
0.0242043246346335 -0.0960491176585216 -0.0314654828049526 0.0477046 -0.5151112 0.8557948 90 90 90
0.186997827694802 0.0984821163797227 0.0371139642373343 0.9704512 -0.1919198 -0.1462576 75 75 75
0.111172814982661 -0.129271148849716 -0.0570567393137395 0.05577428 -0.5355157 0.8426815 150 150 150
-0.137860069210454 0.0779513225169448 0.0876120976906642 0.04594616 -0.5374544 0.8420402 147 147 147
0.0831265000755943 0.0727594594783039 0.0713608548203677 0.04018339 -0.5406013 0.8403187 188 188 188
0.0323114222821372 -0.11761089028144 -0.045958956257881 0.05627565 -0.523507 0.8501608 87 87 87
-0.1378089273724 -0.00781559002017107 0.0331687891077893 0.05115372 -0.5399455 0.8401441 120 120 120
-0.152815047548981 -0.00848014366721417 -0.00708209823427836 -0.9570813 0.1527638 -0.2462898 13 13 13
-0.0561178779758991 -0.0671031213577014 -0.00896270512744263 0.01823125 -0.5350415 0.844629 136 136 136
0.0421001542337964 -0.138265890492081 -0.0738781717492245 0.03406361 -0.8656933 -0.4994143 90 90 90
0.147172820711145 -0.0524879827031057 -0.0174969317325212 0.9812406 -0.1627119 -0.1034013 91 91 91
-0.028709570445189 -0.0538411821996829 -0.00204783124402619 0.06650048 -0.524339 0.8489089 201 201 201
0.0488162310384643 -0.0821793733006837 -0.0240354665006374 0.04974199 -0.5596825 0.8272129 143 143 143
0.163080846497704 0.119342598325133 0.0664646311739338 -0.01444342 0.8005036 0.5991538 93 93 93
0.127734463728792 0.0222925625129229 0.0371816505547495 0.03316258 -0.532028 0.8460771 150 150 150
-0.076276351804426 0.0489684451040837 0.0652994239738037 0.06464742 -0.5256171 0.8482614 129 129 129
-0.119000120776783 0.049711459966544 0.0682474809889299 0.05742934 -0.5278991 0.8473632 158 158 158
0.105864468130085 0.0752568722049143 0.0715739529366638 0.04890388 -0.549235 0.8342357 136 136 136
-0.0481054787271691 0.122933445984736 0.0795900876095429 0.04174178 0.8578767 0.5121574 77 77 77
-0.1495753019118 -0.0925504680021163 -0.0305760500624262 -0.9740739 0.06981666 -0.2151875 43 43 43
0.118573901343998 -0.142701560131403 -0.0701364530349006 0.9379724 -0.3444319 0.03968042 153 153 153
-0.0841950810947714 -0.14269316113496 -0.0669423944429843 -0.08164494 -0.9255074 -0.3698245 32 32 32
-0.118298778230115 -0.10043521945521 -0.0265249936432497 0.04315725 -0.5290239 0.8475088 157 157 157
-0.0966607512978825 -0.110575187355474 -0.0337799947367605 0.05470217 -0.5635599 0.824262 175 175 175
0.194644411315917 0.102641821065276 0.0801562523293476 0.9742595 -0.2181885 0.05667633 114 114 114
0.00404473083494805 -0.083155214545269 -0.0224756094511985 0.0637077 -0.5181403 0.8529197 126 126 126
-0.146202013337725 -0.106639954626035 -0.0289317046819978 0.05251769 -0.5447172 0.8369738 147 147 147
-0.102049824091787 -0.144581656513667 -0.0551219454121467 -0.08465853 -0.9638482 0.252645 111 111 111
0.00438421166340808 -0.0293278380061688 0.0115675131940327 0.03691323 -0.5187837 0.8541083 139 139 139
-0.125572347053025 -0.142553847539628 -0.0520665202480927 0.06201353 -0.6447918 0.7618384 146 146 146
-0.150511730871097 -0.123019866543529 -0.0628083829674485 -0.9574606 0.2641374 -0.1161919 28 28 28
0.00590849258689508 0.00792006262310774 0.03466966989425 0.05706539 -0.5452991 0.8362969 121 121 121
0.0387623743800694 -0.131469147335229 -0.0543126907998182 0.01894335 -0.535653 0.8442256 184 184 184
0.175231132875655 0.039520848004543 0.0396472351232423 0.9624994 -0.2143887 -0.1662297 112 112 112
0.0513415243359829 0.0532372095744693 0.0608861943768988 0.03657492 -0.541981 0.8395945 157 157 157
-0.0163437300110187 -0.119871483109705 -0.0440407691901726 0.04989005 -0.528951 0.8471846 67 67 67
-0.0822274979944742 -0.140595537355822 -0.053504679045215 0.05258011 -0.5401304 0.8399372 81 81 81
-0.0947577042504049 0.0388310245617558 0.0596643740090047 0.02114945 -0.5364499 0.8436671 126 126 126
0.0487217377795144 0.0239953666932078 0.0424401334928613 0.03742369 -0.5420934 0.8394845 138 138 138
-0.1693059905008 0.0560596002976874 0.064427375757944 -0.9826542 -0.1668238 -0.08099726 21 21 21
-0.00587972453678942 -0.138704315099416 -0.0773258719514128 0.09221401 -0.9167264 -0.3887279 86 86 86
-0.0336137311705937 -0.0936611263780311 -0.0260470182194887 0.04557225 -0.5151275 0.8559012 157 157 157
-0.0947371860665074 -0.127463768682434 -0.0963075053020498 -0.03443002 -0.8919603 -0.4508009 68 68 68
0.0024028154954574 -0.0489060164687913 -0.000395895183264883 0.04766247 -0.5230566 0.8509642 198 198 198
-0.116250561659311 0.00333522719433255 0.0388071614340514 0.05498561 -0.5353286 0.8428522 120 120 120
0.0736866136167955 -0.142426385128012 -0.0660154009723824 -0.03702902 -0.9852534 -0.1670466 108 108 108
-0.060450694437082 0.0399720791819778 0.0586627996429868 0.05246696 -0.5339141 0.8439093 115 115 115
-0.117765913304932 -0.111900665842468 -0.0336640830377199 0.05832789 -0.5365851 0.8418279 151 151 151
0.0855861608386506 0.0378782653941194 0.0492801121926846 0.0437891 -0.5373936 0.842194 181 181 181
-0.0825259077505682 0.120489581934007 0.0827554826307572 -0.0450182 0.9244148 0.3787223 83 83 83
-0.0701326188845968 -0.00605938861927857 0.030357353678696 0.02495281 -0.535495 0.8441697 180 180 180
0.151081105137383 -0.0222141901713007 0.00788732158614752 0.1176455 -0.5408791 0.8328321 153 153 153
-0.130240119179458 -0.0249254329691642 0.0215019369071163 0.05401138 -0.5225556 0.8508927 180 180 180
0.0540979420809347 0.126112871562484 0.0681082538467874 0.2954117 0.8897894 0.3478602 19 19 19
-0.086486747224952 -0.014133350466879 0.0261987281308683 0.01475459 -0.5201333 0.8539577 141 141 141
-0.0108388626349525 0.11955164337129 0.0757439613987897 -0.05598723 0.8819996 0.4679125 39 39 39
-0.107989065338927 -0.100254771766415 -0.0269211636988643 0.008361884 -0.5329443 0.846109 151 151 151
0.0633971012857253 -0.0386029862808481 0.00235018785340102 0.06042805 -0.5302827 0.8456646 78 78 78
-0.0457549393926717 0.0685573980964425 0.0760554000355954 0.0785446 -0.5458598 0.8341869 174 174 174
-0.159268394731913 0.021363352789646 0.0464432505675775 -0.9604034 -0.2774322 -0.02562734 38 38 38
-0.0402854511771116 0.0881689197227409 0.0878818071891789 0.04878757 -0.5375021 0.8418499 177 177 177
0.127339466412097 -0.10793118985101 -0.0614742394685421 0.9665905 -0.191903 -0.1699295 110 110 110
0.085932438963801 0.103787001949767 0.0885113726573246 0.1893345 0.4486316 0.8734313 171 171 171
-0.0418574907928253 0.115058373664312 0.0898262833107952 -0.1603318 0.7163303 0.679091 95 95 95
0.0721490682868615 -0.118020374701553 -0.0481305164801977 0.02958752 -0.5361329 0.8436149 168 168 168
0.0495049233435374 -0.0141993053353529 0.0187719806785304 0.04771779 -0.5430504 0.8383432 146 146 146
0.057856952296055 -0.124825670373572 -0.101820469811705 0.005366046 -0.8998612 -0.4361435 56 56 56
-0.15013580679141 0.0780264658882941 0.0874735861593736 0.02442077 -0.5467266 0.836955 197 197 197
-0.00442794754373255 -0.100451704203804 -0.0327968073023474 0.06684982 -0.571339 0.817987 153 153 153
0.0993499954619383 -0.000743906461821764 0.0242923995153267 0.04009967 -0.5288662 0.8477573 192 192 192
-0.038459815017386 -0.1378672001148 -0.0541233322708619 0.04296228 -0.5199358 0.8531243 92 92 92
0.103523842827374 -0.142879849830108 -0.0758350152944773 -0.2815118 -0.8390095 -0.4656331 77 77 77
0.00738605633022882 0.0978468043705816 0.0910758685032799 0.0501793 -0.5292633 0.8469725 149 149 149
0.0705033006310183 0.0556571961742187 0.0612879378680159 0.05144427 -0.51947 0.8529387 153 153 153
0.0225106985469439 0.0479660790841663 0.059054673206655 0.04810155 -0.5421115 0.8389287 182 182 182
-0.0921684248730259 0.0995492974968102 0.0978404395953566 0.04751833 -0.5243626 0.8501682 229 229 229
-0.147916045386234 0.0749156908360338 0.0855941132651222 0.03473611 -0.5316593 0.8462457 177 177 177
0.0677434187539685 -0.0265655225868162 0.0099171403972439 0.0407642 -0.5279638 0.848288 119 119 119
-0.060128855212298 -0.00831283586875697 0.02844557909634 0.08586686 -0.526759 0.8456665 139 139 139
-0.161926037092634 0.0432622858326437 0.0667140675607392 -0.1722696 -0.5573304 0.8122229 167 167 167
0.0255880272313544 -0.110475905459188 -0.0405742582410142 0.03394931 -0.5339848 0.8448122 155 155 155
0.0406547910902644 0.00412341864585608 0.0306686539347381 0.04360101 -0.5323918 0.8453744 143 143 143
0.0198340821477601 0.0698206711509386 0.0732540622338221 0.05442103 -0.5335147 0.8440382 184 184 184
0.0984414271652296 -0.0724552644749277 -0.0209212369759452 0.02963581 -0.5442977 0.8383685 171 171 171
0.0140360304942093 0.0412892271308403 0.056019078934673 0.0465605 -0.5388376 0.841122 199 199 199
-0.148083175865128 -0.116162738037327 -0.0346694050675371 0.03932022 -0.5406593 0.8403223 122 122 122
-0.0872473701309526 0.128034971973237 0.0689994877422488 0.2225594 0.8591737 0.4607472 31 31 31
0.104086288441441 -0.128141792229714 -0.0557559219224323 0.03833456 -0.5455974 0.8371702 156 156 156
-0.0315073948097448 -0.0475150875708195 0.00212113351009763 0.05476263 -0.5592207 0.8272081 186 186 186
-0.0191808117441328 -0.0785880260945624 -0.0182946378457036 0.05140107 -0.5335307 0.8442174 139 139 139
0.146615103449087 0.0864727118161153 0.0765543269055622 0.05513017 -0.4989404 0.864881 150 150 150
-0.0216554493635224 0.0999127432038789 0.0944806821367423 0.0203964 -0.5364518 0.8436844 152 152 152
-0.0210631870623423 0.029019842206381 0.0497508186925206 0.03095736 -0.5369059 0.8430739 169 169 169
-0.0367062343632987 -0.0898007542764778 -0.0241001964467601 0.046104 -0.5143974 0.8563117 162 162 162
0.078400173236179 0.079201241781466 0.0754955323282748 0.03096985 -0.5568544 0.8300326 202 202 202
0.119757642331449 -0.0933477839527981 -0.0355939174298378 0.03536921 -0.521128 0.8527454 140 140 140
-0.0377548463462549 -0.14641077705348 -0.0625138133229647 -0.01498551 -0.9965297 0.0818781 138 138 138
-0.0717739295257331 0.0317798263356432 0.0541443533504473 0.04828854 -0.5505121 0.8334294 151 151 151
0.146492498955032 -0.0428626537277796 -0.0232806616774432 0.9585479 -0.2111492 -0.1913164 50 50 50
0.00610152658955609 -0.0103827077393155 0.0236196115618364 0.05684544 -0.5355836 0.8425668 161 161 161
-0.153285097085901 -0.0391694041059414 -0.0205927848526765 -0.9776551 -0.1789125 -0.1103665 67 67 67
-0.138431156087897 -0.0205407960053616 0.0251112918115901 0.06676964 -0.5269777 0.8472522 107 107 107
0.119577528258436 -0.132358819314982 -0.077699703754728 0.9672171 -0.179497 -0.1796438 95 95 95
-0.117983121763637 -0.125412817059291 -0.0421415793887695 0.02536253 -0.5496124 0.8350347 141 141 141
-0.107740857942113 -0.0343726856723374 0.0148713199606512 0.04295564 -0.5206199 0.8527073 172 172 172
-0.12143211473265 0.0641923092142425 0.0776115416617418 0.03384909 -0.5391343 0.8415393 185 185 185
-0.0154605952465063 -0.12269653861031 -0.0463600812823402 0.0477249 -0.5198496 0.8529236 52 52 52
-0.0838256757543585 -0.145798251460969 -0.0571327711852344 -0.08805606 -0.974571 0.206052 170 170 170
-0.0962030061043435 -0.0322628004549246 0.0153787286870122 0.05690299 -0.5004535 0.8638914 129 129 129
0.0195181864410854 0.0963143897188594 0.0899450718827786 0.07053486 -0.5403844 0.8384567 183 183 183
-0.127298821372568 0.0422400129286291 0.064107761349562 0.0501558 -0.5251394 0.849537 168 168 168
0.154881663301677 -0.0214375684606325 -0.0059385871549863 0.9559459 -0.2007315 -0.2141829 72 72 72
0.0545190919652243 -0.110256811171278 -0.0421244255388399 0.04469587 -0.5205227 0.8526772 150 150 150
0.00801868377587356 0.0283447785787283 0.0473725303331138 0.05067411 -0.5374888 0.841747 181 181 181
0.16651917164384 0.0373698853208808 0.0446924833088188 0.04975305 -0.5593678 0.8274251 181 181 181
0.0189657467398123 0.101700924861433 0.0940301745202406 0.03732478 -0.4396455 0.8973956 123 123 123
0.0756214884416537 0.068865544322561 0.0693616342238006 0.05393241 -0.5227751 0.8507628 171 171 171
-0.106073488360041 0.0846976432488735 0.0887185139284117 0.04493002 -0.5337934 0.8444205 199 199 199
0.109268475477322 -0.110020959453031 -0.0453531746206844 0.06822424 -0.5345635 0.84237 103 103 103
-0.142193238789569 0.0256903300246374 0.0542806629572847 0.03352548 -0.5169824 0.8553392 122 122 122
0.165208233131447 0.0712587078552773 0.0663301896676157 0.04811491 -0.5455858 0.8366727 199 199 199
-0.0222935182980852 0.00411411515869697 0.0337682678920382 0.02373881 -0.5441393 0.838659 186 186 186
-0.0939668481051483 0.0546400336665105 0.0697822524651447 0.04184056 -0.5163357 0.8553635 102 102 102
0.13909241824852 -0.0733828435613719 -0.0345744758797175 0.9675181 -0.1962474 -0.1593605 97 97 97
0.103782940189715 -0.0671286322914124 -0.0176165819570492 0.07719541 -0.5147195 0.8538763 136 136 136
-0.00309691714950411 0.0447148924571972 0.0587349506039885 0.05390701 -0.5172779 0.854118 171 171 171
-0.0404247764024901 0.00185713496260775 0.0335565058122188 0.04803443 -0.5264661 0.8488381 121 121 121
