ply
format ascii 1.0
comment File exported by Rhinoceros Version 7.0
element vertex 474
property float x
property float y
property float z
property float nx
property float ny
property float nz
property uchar red
property uchar green
property uchar blue
end_header
0.00420442036158719 0.0310110095063483 0.0522013525393219 -0.3965053 -0.1726113 0.901659 173 173 173
-0.00638526642971615 0.0308175263543311 0.0508565901232681 -0.06495819 -0.4649673 0.8829415 131 131 131
-0.0163421416853553 0.031944415837617 0.0502739688115007 -0.1499521 -0.4213865 0.894398 145 145 145
-0.0260802329618977 0.034349483120846 0.0485333176115868 -0.130629 -0.1797026 0.9750093 129 129 129
-0.0234632976268194 0.0307145609820285 0.0476003239418164 -0.07817482 -0.1429094 0.9866436 143 143 143
-0.0306438486958827 0.0320215393167396 0.0479837689255025 -0.154383 -0.05344814 0.9865643 130 130 130
0.00716512071044773 0.0297592084459573 0.0549459553645222 -0.2412695 -0.2469771 0.9385048 109 109 109
0.0130477946798648 0.0269113851575418 0.052341332039801 0.1992525 -0.3297049 0.922818 108 108 108
0.00824582419445852 0.0272658534599484 0.053816213804177 -0.04771878 -0.2875042 0.9565899 139 139 139
0.0113072019484599 0.0243889439816134 0.0518083536559339 0.2403079 -0.2983226 0.9237185 121 121 121
0.0151332540211693 0.0211494174042028 0.0500813889739894 0.1936748 -0.3403254 0.920146 195 195 195
0.017981393444829 0.018775545986369 0.048452428666815 0.02114346 -0.2665884 0.9635785 212 212 212
0.0109883640045421 0.020770599304557 0.0508404379872228 0.201663 -0.342451 0.9176379 117 117 117
0.00768708700516618 0.0184373636752195 0.050849680287216 -0.2224665 -0.4744245 0.8517218 77 77 77
0.0071529443577818 0.0169658927762002 0.050664280220268 -0.1658629 -0.4734927 0.8650399 108 108 108
0.00200665576401282 0.0273166626480639 0.0506462231328413 -0.3343012 -0.175262 0.9260269 144 144 144
-0.00180362205272711 0.028220697196734 0.0499460107580137 -0.1581924 -0.2731566 0.9488733 123 123 123
-0.000138917995539778 0.0254396801230523 0.0495137841979949 -0.2482543 -0.2504301 0.9357641 115 115 115
0.00360849682375375 0.0192460471782396 0.048591959130827 -0.2908988 -0.356947 0.8876749 112 112 112
-0.000135542366329178 0.0194312181318321 0.0480943749058012 -0.07637354 -0.2096502 0.9747891 137 137 137
-0.00720547370548452 0.0237313984577765 0.0487676895703476 -0.08793541 -0.1188924 0.9890056 146 146 146
-0.00423466706274667 0.0217857699329245 0.0482833497818332 -0.06639957 -0.1340917 0.9887419 126 126 126
0.0155142837601303 0.0153455829417122 0.0478776650666592 0.08945579 -0.2411594 0.9663539 202 202 202
0.0145199486137291 0.0125051685630106 0.0472498717920838 0.01615294 -0.2642637 0.9643152 122 122 122
0.0106717734383448 0.0156540437425734 0.0492154270708206 0.03781687 -0.4276856 0.9031361 140 140 140
0.0061974463964698 0.0152307536943164 0.0475160274336112 -0.1319668 -0.3381204 0.9318044 154 154 154
0.00967543353384981 0.012835852317824 0.0473726657862898 -0.02836126 -0.3178472 0.9477177 97 97 97
0.00666060375784672 0.0120768864909819 0.0472719536328198 -0.03792449 -0.1965813 0.9797538 113 113 113
0.01156551717218 0.00891859504491088 0.0464561837991541 0.01870225 -0.2420852 0.9700747 129 129 129
0.00541230965288508 0.00803374065875095 0.0461914323361533 0.03281762 -0.1729462 0.9843844 216 216 216
0.00116930595143439 0.0145762506701332 0.0476472729603815 0.007365628 -0.1375431 0.9904684 209 209 209
0.00305784410067411 0.00973045857601185 0.0467767786656004 0.0282116 -0.1234277 0.9919525 213 213 213
-0.0055323935588325 0.0161399763158026 0.0477729419336243 0.07615692 -0.0521191 0.9957328 98 98 98
-0.0074842099331387 0.0125865540610148 0.0481990586304738 0.08021914 -0.03217313 0.9962579 87 87 87
0.0135446325304633 0.00552841940172288 0.0452724009121095 0.04848218 -0.2826835 0.9579872 188 188 188
0.00677394125856545 0.00761899921466003 0.0464819512521004 0.02713206 -0.1774426 0.9837571 214 214 214
-0.0589490244796811 -0.00228537449407407 0.0434788074507898 -0.1742077 -0.006590439 0.9846869 140 140 140
-0.0392615533311638 0.059992637257724 0.0525448515573794 -0.114357 -0.2518913 0.9609752 186 186 186
9.20763084442111E-05 0.0089634116542987 0.046892129250189 0.09982242 -0.1229327 0.9873819 205 205 205
-0.000937733980749256 0.00695412316560673 0.0467445283960443 0.1151734 -0.1249811 0.9854516 200 200 200
0.00129433490279385 0.00148220958083867 0.0455841925881475 0.09691519 -0.2071831 0.9734899 104 104 104
-0.00719113686420148 0.00601357861971263 0.0473970295024602 0.1237342 -0.1239811 0.9845397 95 95 95
-0.00251654707607174 0.00391863505515544 0.0467842909007659 0.1330047 -0.1775019 0.9750912 116 116 116
-0.0104399101196095 0.0281442408138912 0.0485867681572883 -0.1202472 -0.3816009 0.9164723 167 167 167
-0.0183846728829515 0.0277933538005559 0.0481476764057051 -0.08609971 -0.2480862 0.9649042 121 121 121
-0.124900845123883 0.0273576138070766 -0.0147118861332627 -0.512227 0.8582476 -0.03216388 48 48 48
-0.00977216738801134 0.0237275598748745 0.0483777309046191 -0.1025617 -0.08747451 0.990873 108 108 108
-0.012201882965287 0.0198938058678817 0.0481028460031792 -0.06763302 0.04726543 0.9965901 101 101 101
-0.0149619208299476 0.0226232419778161 0.0472175612363745 -0.07493301 -0.00967937 0.9971416 83 83 83
-0.00853738959845773 0.0181371211510539 0.0480816464622258 0.01984661 -0.005286428 0.9997891 91 91 91
-0.0261021876550673 0.0260654011402728 0.0480370602020053 0.01640735 -0.1017522 0.9946744 112 112 112
-0.030574862113361 0.0267846065685797 0.0480460146807646 -0.1345151 -0.04039569 0.9900878 162 162 162
-0.0240314228738798 0.0239374720771244 0.0474865457003963 0.04779349 -0.1340989 0.9898148 113 113 113
-0.0283338438149296 0.0243909971633238 0.0480661270546388 -0.01066297 -0.08646204 0.9961981 122 122 122
-0.0286065872239996 0.0199275948458995 0.0475413768080066 -0.02078182 -0.04321986 0.9988494 146 146 146
-0.0103615668610346 0.0137208692828767 0.0490482278499018 0.04970089 -0.02339785 0.99849 79 79 79
-0.0107376096829277 0.0109068448584633 0.0481962734138364 0.04969373 -0.05807949 0.9970744 85 85 85
-0.0235527078761901 0.014093642350038 0.0479875282986666 -0.1166029 -0.009313423 0.9931349 102 102 102
-0.026628932482065 0.0124718249035169 0.0476675995636014 -0.1224501 -0.0867796 0.9886735 111 111 111
-0.00789132940033821 0.0105593854213479 0.0480660612021534 0.1017148 -0.05464857 0.9933115 103 103 103
-0.0174053838443378 0.0121461043278419 0.0483861003447728 -0.02432192 -0.00990232 0.9996551 109 109 109
-0.0124468871495593 0.00629944225104273 0.048270493194195 0.04555605 -0.08162918 0.9956211 87 87 87
-0.0170822130617829 0.0063446362475279 0.048156308242164 -0.01907522 -0.09195918 0.9955801 92 92 92
-0.0135351427651005 0.00151979715267769 0.0476906740737934 0.04442934 -0.153239 0.9871899 110 110 110
-0.015196011118612 -0.000488184366292055 0.0473137904712814 0.03391434 -0.1506421 0.9880065 125 125 125
-0.113038894067584 -0.094320414968976 0.0232593726888452 0.255292 -0.9667609 -0.01412164 52 52 52
-0.0310075908540812 0.0113069711962988 0.0469593180760618 -0.06408061 -0.06899729 0.9955567 125 125 125
0.0334818084805544 -0.091690439536928 0.0150214518571668 -0.01326984 -0.981862 -0.1891319 100 100 100
-0.0677669946541448 -0.0324066090483226 0.0384933414847816 -0.2206466 -0.1019791 0.9700079 178 178 178
-0.0231128764988178 0.00373453838032267 0.0475089148078495 -0.1420401 -0.03746675 0.9891516 100 100 100
-0.0234546915669089 -5.32326034961006E-05 0.0476942578075961 -0.09504923 -0.08878831 0.9915051 144 144 144
-0.0242020943102021 -0.000270674789085934 0.0475787036590772 -0.1018688 -0.08048352 0.9915367 118 118 118
-0.0335081217381514 8.41784856413508E-05 0.0463419670426434 -0.04236633 -0.02417557 0.9988096 133 133 133
-0.0337011161785354 -0.00230140790141808 0.0468167579417687 -0.06717274 -0.01183527 0.9976712 146 146 146
-0.135516459773678 -0.0137175566879559 0.0158313283431286 -0.3243992 0.3388708 0.8831374 80 80 80
-0.0356402860205463 0.0608719745233004 0.0532338094342656 -0.07795385 -0.1916102 0.9783704 83 83 83
-0.0375358416788167 0.0595597172339073 0.0526478790230313 -0.1207667 -0.2211456 0.9677345 109 109 109
-0.041977326513903 0.0632143941901349 0.0539157370803821 -0.1102544 -0.2816656 0.9531571 170 170 170
-0.0322544542307248 0.0544959383629937 0.0525714528210292 -0.1190939 -0.2019701 0.9721238 77 77 77
-0.0384085635294078 0.0531360109971548 0.0518061285591347 -0.1573238 -0.15989 0.9745175 173 173 173
-0.0607493055331485 -0.100733584390674 -0.0173516655572005 -0.1131169 -0.9801614 0.1627521 137 137 137
-0.0431032933519133 0.0558953145367174 0.050763160406369 -0.1680606 -0.2127797 0.9625385 157 157 157
-0.0436811700630992 0.0515911864930658 0.0502477761907346 -0.1964916 -0.1246087 0.9725553 188 188 188
-0.0453101510844527 0.0614643853985537 0.0524299048036353 -0.1927383 -0.2951779 0.9358001 135 135 135
-0.0495978791277039 0.0610265972951307 0.0510459623581005 -0.2540586 -0.253449 0.9333905 93 93 93
-0.0538434846350646 0.0623155190061071 0.049704118053209 -0.3144059 -0.1868504 0.9307179 121 121 121
-0.0545491304859267 0.060365535042139 0.0495883452015178 -0.2814539 -0.1371189 0.9497274 130 130 130
-0.0457713767556525 0.0560002297423066 0.0506455875467395 -0.1479961 -0.2251834 0.9630107 154 154 154
-0.0516602723241921 0.0543695543900544 0.049302997844529 -0.2147162 -0.18346 0.9592911 153 153 153
-0.0520117010273167 0.0579975670805077 0.0497650333308799 -0.2499121 -0.1578098 0.9553219 116 116 116
-0.0555351540979987 0.0575903372526001 0.0488839962640758 -0.2361774 -0.1359712 0.9621497 116 116 116
-0.056960226949279 0.05471726316127 0.0486311958142891 -0.2457652 -0.1386482 0.9593623 117 117 117
-0.0541602707807782 0.0485588499978373 0.0472653671969198 -0.2002779 -0.1690106 0.9650514 159 159 159
-0.0345199288373785 0.0479870488499581 0.0513061161421487 -0.1036268 -0.1671908 0.9804635 164 164 164
0.116041090221271 -0.0694620147465324 0.0314645620011222 0.8132401 -0.04616123 0.5800946 80 80 80
-0.0360963930004012 0.0431394377283194 0.0494103967844864 -0.1196487 -0.2569911 0.9589785 79 79 79
-0.0580050142277815 -0.0997192260107964 -0.00782594119149063 0.1674461 -0.9803578 0.1042135 151 151 151
-0.0333464219043653 -0.0979982835816697 -0.019035011452952 0.03712106 -0.9988029 0.0318552 85 85 85
-0.019738927341673 -0.0948976941603692 0.013261011135269 0.2495931 -0.9633048 -0.09872817 64 64 64
-0.0339719813982549 0.0390690755237477 0.0488312223803637 -0.1390003 -0.2792585 0.9501019 55 55 55
-0.0357386031281817 0.037220124670573 0.0482817792646628 -0.08344396 -0.2730507 0.9583738 68 68 68
-0.0406071739162635 0.0374667148067802 0.0486701309256595 0.02130268 -0.2784471 0.9602153 99 99 99
-0.0459107602451252 0.0469642726847967 0.0494799900831076 -0.2077378 -0.1124066 0.9717046 196 196 196
-0.0519596741783215 0.0482311982201895 0.0477212392055615 -0.2126175 -0.1605455 0.9638563 169 169 169
-0.0567838098622617 0.0480205947116428 0.046737187859901 -0.2440822 -0.1751105 0.9538135 138 138 138
-0.0495779045546219 0.0402544680557304 0.0476978090101684 -0.2464049 -0.1216851 0.9614974 108 108 108
-0.0547328942340446 0.0428358788905685 0.0464009736978388 -0.2715703 -0.1372161 0.9525867 154 154 154
-0.0477567887696557 0.0397952752740305 0.0481585485073428 -0.1954802 -0.1635286 0.9669777 91 91 91
-0.0501845857610421 0.0359219788160481 0.0469060101740663 -0.2016142 -0.2456853 0.9481511 128 128 128
-0.0520332222467577 0.035591470446114 0.0466661437806849 -0.2702601 -0.2348661 0.9337009 150 150 150
-0.0614296729404695 0.0634490330773263 0.0475907334957547 -0.3402208 -0.0807269 0.936874 131 131 131
-0.0619198238849628 0.0606163274562981 0.0469084403412132 -0.3289972 -0.09989803 0.9390321 83 83 83
-0.0624962545762149 0.0593399076033367 0.047958445870319 -0.3423535 -0.1076033 0.9333893 134 134 134
-0.0637946250994648 0.0624298766897511 0.0461258654348639 -0.3692987 -0.09067999 0.924876 61 61 61
-0.065697181524413 0.0577156433369252 0.0454486463638053 -0.4003403 -0.12884 0.9072639 66 66 66
-0.162169350757095 -0.0248648022812539 -0.0237155230478714 -0.9600866 0.2156672 0.178105 73 73 73
-0.068123371005125 0.0567784680549042 0.0441592599422327 -0.3900885 -0.1221163 0.9126437 134 134 134
-0.0634802570168178 0.0519459159116382 0.0452897202064495 -0.3710318 -0.1707259 0.9127914 109 109 109
-0.0670681813027276 0.0520948647855928 0.0437826325783673 -0.3904337 -0.1345605 0.9107442 132 132 132
-0.0696051386731211 0.0491878633557161 0.0422183380249576 -0.349165 -0.136468 0.9270708 144 144 144
-0.0736548958868575 0.0535775982583959 0.0413950818726826 -0.3154606 -0.114585 0.9419952 48 48 48
-0.0771441904429278 0.0555956548450069 0.0405845716403053 -0.3754953 -0.009685857 0.9267737 80 80 80
-0.0711541345488065 0.0505892985993421 0.0422903974218156 -0.3351998 -0.117305 0.9348158 128 128 128
-0.0755602676458444 0.0494836842951483 0.0403887892981888 -0.263052 -0.1067876 0.9588535 102 102 102
-0.0745018790946992 0.0453288493528339 0.0404023258623549 -0.2308498 -0.1379012 0.9631675 165 165 165
-0.077520848731621 0.044685500080794 0.040089568164184 -0.2107413 -0.1325797 0.9685096 102 102 102
-0.0594122535508681 0.0441866489262133 0.044886715149788 -0.3569886 -0.1961591 0.9132802 144 144 144
-0.0617461833320629 0.0436282339749032 0.0434772285684161 -0.3634288 -0.2084994 0.9079909 149 149 149
-0.0660889669730762 0.0439187681323536 0.0426814655089053 -0.2797951 -0.2416244 0.9291568 98 98 98
-0.0382122101005646 0.03529697237036 0.0471714055660323 -0.01596482 -0.265531 0.9639701 100 100 100
-0.0372384203044647 0.0332416108466955 0.0469377912510214 -0.09842674 -0.2285559 0.9685424 200 200 200
-0.0367247792674101 0.0305222511831436 0.0465571930174879 -0.1642734 -0.1144798 0.9797493 157 157 157
-0.0441796147833202 0.0317554820273496 0.0459667388298601 -0.104776 -0.3466648 0.9321188 183 183 183
-0.0413677764768086 0.0289746746643691 0.0452456331712275 -0.2042968 -0.1568301 0.9662645 170 170 170
-0.0476780573922242 0.0310141969411641 0.0456739415209521 -0.1177327 -0.364585 0.9236974 193 193 193
-0.0576718598155346 0.036585169192564 0.0442954049302733 -0.3117465 -0.2258371 0.9229365 75 75 75
-0.0464145508465306 0.0285593985144419 0.0438362085422692 -0.1277088 -0.2923279 0.9477525 165 165 165
-0.067315560457498 0.0383844226686485 0.0405473535911555 -0.2965777 -0.2422815 0.9237648 64 64 64
-0.137714666996626 -0.0816428774315097 -0.0407960853952246 0.05425381 -0.853175 -0.5187957 101 101 101
-0.0585945595426463 0.0316985930826883 0.0431621898587542 -0.3246257 -0.2211934 0.9196149 58 58 58
-0.0591161804273541 0.0280060718472352 0.0418877449905139 -0.2274253 -0.1540155 0.9615389 131 131 131
-0.0697577966455829 0.0307192816700359 0.0381958054285948 -0.2286361 -0.1250183 0.9654512 66 66 66
-0.074961924370627 0.0404355111753691 0.0391031567560781 -0.1582448 -0.2111446 0.9645603 97 97 97
-0.0763041280264676 0.0422502495937511 0.0397821578520088 -0.1867711 -0.1799982 0.9657729 83 83 83
-0.0775820299375636 0.0403951862795002 0.0387410868831951 -0.1617039 -0.2109917 0.9640199 93 93 93
-0.0813422281527965 0.0388760830237309 0.0376467421255738 -0.1506569 -0.1367577 0.9790811 109 109 109
-0.0717764035848738 0.0329898781125839 0.0379978069795941 -0.219089 -0.1710753 0.9605901 72 72 72
-0.137956401661789 0.019325121410138 -0.00725337544955793 -0.5323749 0.820262 -0.2091583 48 48 48
-0.0711879949305267 0.0272487548364611 0.037600093816279 -0.246232 -0.0837834 0.9655828 62 62 62
-0.0777497037624 0.031751570084146 0.0365842975929298 -0.1608917 -0.2080332 0.9647985 40 40 40
-0.0769525140386431 0.0280443123062157 0.0363037802851094 -0.2291968 -0.1401283 0.9632408 49 49 49
-0.0745165235984746 0.0265531337338245 0.0364511134999817 -0.2759757 -0.1108708 0.9547487 53 53 53
-0.0812069409254212 0.026918508696302 0.0353077966565217 -0.120622 -0.1926307 0.9738294 37 37 37
-0.0339993749434457 0.0250377178312331 0.0470312537714818 -0.1879933 -0.01014874 0.9821179 139 139 139
-0.0415170207580129 0.0262242268952777 0.0450201505435746 -0.2398844 -0.09302395 0.9663343 177 177 177
-0.0424517859614111 0.0226720895932353 0.0449104030079057 -0.2439077 0.04517644 0.9687456 181 181 181
-0.0346967928366013 0.0177307481679194 0.0467500490302176 -0.1706159 -0.03103413 0.9848488 162 162 162
-0.0475891363799645 0.027548106304274 0.0440438836123284 -0.148469 -0.2869188 0.9463797 219 219 219
-0.0462734721807707 0.0204507927823225 0.0446025161952112 -0.1885554 0.1573199 0.9693798 213 213 213
-0.0536047338517638 0.0279557704231543 0.0432257132409043 -0.239356 -0.2437868 0.939828 144 144 144
-0.0579979853184587 0.0268709928105151 0.0417964756226266 -0.1913354 -0.1508458 0.9698641 155 155 155
-0.0484806182745008 0.0182656567466457 0.0451518127333295 -0.1544982 0.1919265 0.9691721 209 209 209
-0.0412133961811998 0.015224414467212 0.0456635507300035 -0.118807 0.03021017 0.9924577 159 159 159
-0.0567422638603039 0.0201919163004789 0.0420308640057848 -0.1887633 0.2111516 0.9590534 146 146 146
-0.046867187469416 0.0131776465537272 0.0455375420047084 -0.1189222 0.04291556 0.9919757 151 151 151
-0.0337519523775331 0.0119785552514458 0.046575823468869 -0.06667426 -0.02358437 0.997496 147 147 147
-0.0368886554007246 0.00865408959708169 0.0464535315412263 -0.09690824 -0.01887532 0.9951143 148 148 148
-0.0428962228361514 0.0118544820950905 0.0459265294721689 -0.1058055 -0.01410418 0.9942868 165 165 165
-0.0451065440348073 0.0119075995666582 0.0457893593498022 -0.1202148 0.01462641 0.9926401 149 149 149
-0.0394901430250996 0.00703283468432825 0.0462881624785711 -0.1168378 -0.03528064 0.9925241 145 145 145
-0.0408070220172627 0.00468606451209963 0.0458404194699771 -0.1230861 -0.01874645 0.9922189 151 151 151
-0.0354737802461433 0.00287790635723728 0.0463782729234038 -0.09950235 -0.01592541 0.9949099 152 152 152
-0.0353160722134176 -0.00048481887351115 0.0465343461401122 -0.09442358 -0.0329609 0.9949863 129 129 129
0.0939389383600739 -0.0940333648427982 -0.00877907432492045 -0.06128286 -0.9949878 -0.0790175 103 103 103
-0.0464096190229413 0.00132635773739564 0.0451478191473864 -0.09280612 -0.05160014 0.9943463 152 152 152
-0.0439895808696256 -0.000650978498326404 0.0462275927769914 -0.114017 -0.04962697 0.9922385 133 133 133
-0.054736636713256 0.0105114915298878 0.0445383291104151 -0.1647555 0.04265283 0.9854118 203 203 203
-0.0579787486337131 0.0109693736464296 0.0448752783732974 -0.1939076 0.01270916 0.9809375 164 164 164
-0.0490218931524871 0.00449228899181264 0.0450968351053126 -0.08735132 -0.06554407 0.994019 134 134 134
-0.0489948290358286 0.00373460521877167 0.0450650088965817 -0.08548856 -0.06851146 0.9939808 129 129 129
-0.0591270501346859 0.00339261120713319 0.0435596674933563 -0.2031305 -0.02890878 0.9787248 171 171 171
-0.0602354497207653 0.0262917296271801 0.0414208853145056 -0.2344357 -0.1202436 0.9646665 141 141 141
-0.0634059981194608 0.0191171540132735 0.0405739724295817 -0.359633 0.2370451 0.902482 158 158 158
-0.0697797792544181 0.0236725840401648 0.038479649932394 -0.3262497 -0.02404568 0.9449778 105 105 105
-0.111805069504871 -0.0890451068150824 -0.0313936727086237 -0.2550207 -0.9535366 -0.1604129 96 96 96
-0.0696890981542457 0.0171781253239494 0.0383673680551593 -0.4476711 0.2172487 0.8674062 141 141 141
-0.0601629234676095 0.015639660351312 0.0432260337193608 -0.260504 0.179097 0.9487159 184 184 184
-0.0704815759445434 0.0154826643482218 0.0381948676823555 -0.4404638 0.2786966 0.8534166 165 165 165
-0.0688789457097332 0.0145817657153633 0.0399529067931434 -0.4300663 0.2139148 0.8770881 144 144 144
-0.0707874797921573 0.0141347586203719 0.0395801744567475 -0.4178468 0.2217358 0.8810433 212 212 212
-0.0756079716599898 0.0228867909442867 0.0366909655315406 -0.2700956 -0.1373989 0.9529795 65 65 65
-0.0742299200353003 0.0190784378535538 0.0353514172411779 -0.3223102 -0.01558811 0.9465057 125 125 125
-0.0812753100420271 0.0214943497298483 0.0345102397874509 -0.192844 -0.1163662 0.9743049 62 62 62
-0.0809534474933411 0.0171676449444875 0.0339788944741795 -0.2524334 -0.06138933 0.9656649 105 105 105
-0.072312963862081 0.0111793503285522 0.0386743255947554 -0.3836117 0.1397168 0.9128643 159 159 159
0.126840729264062 -0.073337332163341 0.00255038506411834 0.9395216 -0.008949674 0.3423728 116 116 116
-0.0814653493641111 0.0119073520535455 0.0322370717035018 -0.4187891 0.06799313 0.9055344 174 174 174
0.127201564395358 -0.0135937705540521 0.0115631334122623 0.9761289 -0.04617365 0.2122273 140 140 140
-0.0643758704368582 0.0107293365148164 0.0424651463905693 -0.3628121 0.03395883 0.9312434 123 123 123
-0.0626289710078693 0.00621704702733905 0.0426208830240546 -0.2440485 -0.00927119 0.9697187 173 173 173
-0.0653357363402476 0.00622697460767707 0.0421141739851515 -0.3168463 0.04082648 0.9475978 172 172 172
-0.0684707236608497 0.00364337695795225 0.0408758740857642 -0.3476309 0.05535986 0.9359958 150 150 150
-0.0611701981232953 -0.000344549024893004 0.0428642699123188 -0.1911309 -0.04042348 0.9807318 180 180 180
-0.0638127656905985 0.00284258880365518 0.0425763003961548 -0.2170925 -0.01624108 0.9760159 154 154 154
-0.0725106582632709 0.00756871960431105 0.0396306411508775 -0.3773969 0.09865624 0.9207815 130 130 130
-0.074556176905983 0.00542459554544061 0.0386966302320421 -0.4017138 0.09425662 0.9109016 151 151 151
-0.083375252920455 0.0820045505261617 0.0230786492179242 -0.7387316 0.656433 -0.1528765 73 73 73
-0.0817629884614819 0.0814219375845873 0.00985686972006358 -0.7534634 0.6201496 -0.2184203 32 32 32
-0.0810637349811802 0.0836260109002702 0.017759917331225 -0.7248695 0.67029 -0.1589828 57 57 57
-0.0831382678161474 0.0818518298534749 0.0206757489975752 -0.7406375 0.6550916 -0.1493687 49 49 49
-0.0818092734826206 0.079982599392751 0.0120178614847522 -0.7633576 0.619554 -0.1828604 23 23 23
-0.0825565458175654 0.0687070134156458 -0.0127325671568433 -0.693212 0.7107747 -0.1194009 18 18 18
-0.0826853307283992 0.0762679739884273 0.00454633207879249 -0.7562091 0.5199509 -0.3972392 17 17 17
-0.0803465267892878 0.0735800987681061 -0.00271461956701727 -0.6740484 0.6070948 -0.4208261 6 6 6
-0.0851505403917046 0.0757112888832405 0.00890228854107791 -0.8349394 0.4839708 -0.2620085 72 72 72
-0.0837950194003187 0.0719723050878507 0.00225124512127264 -0.6994044 0.5864148 -0.4085966 54 54 54
-0.0880510174548959 0.0678595135598365 0.00127029979846358 -0.7446319 0.5919853 -0.3083452 33 33 33
-0.0792719828081945 0.0736990461832916 -0.00360786490411616 -0.6734611 0.6451334 -0.3609058 19 19 19
-0.0851756804536417 0.0648746347859039 -0.00845172114428525 -0.7666953 0.6195295 -0.1684087 25 25 25
-0.0863097185284492 0.0660711098281326 -0.00188949004715769 -0.7455623 0.5873399 -0.3149107 31 31 31
-0.0886745321733429 0.0666391953981851 0.00168322855999933 -0.7626161 0.561211 -0.3216502 27 27 27
-0.0862427851817686 0.0644533042052202 -0.00527981150151149 -0.7647443 0.5992153 -0.2368696 31 31 31
-0.160242362774149 -0.0200988263135544 -0.058722223412236 -0.9582138 0.285901 -0.009321793 60 60 60
-0.0898706644393357 0.0591618993454099 -0.00836310663956732 -0.7738177 0.6298196 -0.06733116 40 40 40
-0.0826413196043418 0.0842420487934623 0.0342061213282183 -0.6923602 0.3378379 0.6375759 108 108 108
-0.0813433869017901 0.0818960524665833 0.0341698561832802 -0.4923994 0.1055353 0.8639474 108 108 108
-0.0864149643575733 0.0804817508229976 0.0273413511660419 -0.7804624 0.6134115 0.1208504 120 120 120
-0.0820496636001899 0.0741068658906825 0.0350463960576574 -0.4399013 0.06878253 0.8954082 69 69 69
-0.0849714038251295 0.0765251771892779 0.0332415801909711 -0.5122708 0.1921971 0.8370418 68 68 68
-0.0868034756113665 0.0776241018078236 0.0241281711269654 -0.7996655 0.5956296 -0.07589805 35 35 35
-0.0895646510126411 0.0713784127566961 0.0166779148874641 -0.8366367 0.4816372 -0.2608922 16 16 16
-0.0927010728541775 0.0686306023056635 0.0228850965917059 -0.863636 0.4855838 -0.1354299 41 41 41
-0.0891143191305432 0.0712286952858436 0.0322237128206394 -0.4656279 0.1258762 0.8759828 40 40 40
-0.0862110053774896 0.0684806647159619 0.032871298499919 -0.4579997 0.04795309 0.887658 21 21 21
-0.0901584679774967 0.0688472328729612 0.0317868123590489 -0.2756815 -0.02340242 0.9609641 62 62 62
-0.0904381054275141 0.0671824751675885 0.0313050443894594 -0.307868 -0.02422296 0.9511207 77 77 77
-0.0902532365205069 0.06581062200848 0.0310723265061447 -0.3350145 -0.01296939 0.9421237 60 60 60
-0.0840352032789975 0.0653360986544123 0.0355781386860315 -0.5514269 0.1693368 0.8168558 38 38 38
-0.0846197340703365 0.0603799959201294 0.0354344821740658 -0.5944199 0.1309713 0.7934176 68 68 68
-0.0898955478736982 0.0640260049779744 0.0317849253542064 -0.3948576 -0.008386659 0.918704 40 40 40
-0.0915118753892914 0.0611416073052633 0.0311078224780358 -0.415688 0.07174569 0.9066731 41 41 41
-0.095566765905005 0.0609210266985167 0.0294542691904729 -0.2603595 -0.03431503 0.9649017 95 95 95
-0.163340438472239 -0.0498610553584535 -0.0149841316728965 -0.9832634 0.04569142 0.1763669 62 62 62
-0.0731449848160404 -0.0742128647864349 0.0344686590273359 -0.02243706 0.1334691 0.990799 111 111 111
-0.0955388843986855 0.0562249806796093 0.0303617924667708 -0.3531189 0.02856616 0.9351423 54 54 54
-0.095110763331316 0.0551945603543655 0.0298855626486566 -0.3763941 0.0335896 0.9258506 69 69 69
-0.0873741503841274 0.0698182769237283 0.0123696554609998 -0.8208842 0.5513337 -0.1489301 24 24 24
-0.0912520451213348 0.0664715324047791 0.0144786336246336 -0.7554813 0.6324288 -0.1711191 36 36 36
-0.092447714967409 0.0655354769212131 0.0127950792852602 -0.759152 0.6381024 -0.1285051 15 15 15
-0.0933980987040677 0.0638729300592156 0.0102380566036757 -0.7898086 0.5707408 -0.224627 21 21 21
0.130655431464378 -0.0829720017014595 -0.0170248360581691 0.975994 -0.1349837 0.1709242 132 132 132
-0.0965262271899316 0.0602515059630226 0.0122265200272792 -0.7693925 0.5870721 -0.2517567 39 39 39
0.0191151310266813 -0.0239957161539555 0.0413067576177169 0.03260503 -0.07895886 0.9963445 151 151 151
-0.0925762682737201 0.0610021240290051 0.00187938328203688 -0.7839409 0.5473762 -0.2929436 21 21 21
-0.0945971477989611 0.0583691494154523 0.00230614861129244 -0.7705933 0.5724794 -0.280095 39 39 39
-0.0962018993672618 0.0535537764495972 -0.00255410512942769 -0.7409492 0.6275653 -0.2390735 17 17 17
-0.0991293176932735 0.0536515503639123 0.00514951430002827 -0.7337043 0.6227365 -0.2718037 32 32 32
-0.0997447372020335 0.050245238396228 0.000170520770734067 -0.713618 0.6453151 -0.2726127 28 28 28
-0.0999295260731174 0.0570006984192539 0.0165621613877028 -0.8069376 0.5662879 -0.1678383 57 57 57
-0.103277865772138 0.0520137796680888 0.0161499623556324 -0.8237258 0.5481347 -0.1449966 51 51 51
-0.106428478420724 0.0481688176941624 0.0197833292282782 -0.8702857 0.4857722 -0.08141334 42 42 42
-0.104010274048542 0.0496049665611435 0.0113867402957011 -0.7961779 0.5894982 -0.1363549 45 45 45
-0.104470096439183 0.0478820766925128 0.00548111241065871 -0.7320065 0.6380432 -0.2388877 28 28 28
-0.106700754255915 0.0459660887483306 0.00851980623001017 -0.7868893 0.6050972 -0.121089 16 16 16
-0.107233530817474 0.0471032359554566 0.0106619099793279 -0.7996385 0.5948162 -0.08229176 21 21 21
-0.107264879586334 0.0452334748602916 0.0143295415959891 -0.8088791 0.5824823 -0.08018067 27 27 27
-0.107808860405302 0.044032093021372 0.0153176191859225 -0.8016415 0.5932887 -0.07334466 40 40 40
-0.108135324620135 0.0443467976565954 0.00766273185814934 -0.7838264 0.6058123 -0.1364096 41 41 41
-0.111656230172356 0.0391577210915335 0.00828235063814522 -0.7749341 0.622149 -0.1113903 26 26 26
-0.0859102849620361 0.0553855872895515 0.0354825444115597 -0.5933123 0.1137581 0.7968937 65 65 65
-0.0880444075104281 0.0518728095927181 0.0350819223195968 -0.593761 0.1334552 0.7934971 62 62 62
-0.0888731690258473 0.0496559145134228 0.0342071751976473 -0.585349 0.1632946 0.7941672 45 45 45
-0.0857603109811582 0.0496479962457108 0.0368206828554916 -0.5372589 0.1211975 0.834664 52 52 52
-0.0851768318737098 0.0477643791981153 0.0377917516640661 -0.4197611 0.08852427 0.9033073 69 69 69
-0.0978298767230237 0.0542533638435161 0.0297586635410166 -0.3230708 -0.03466154 0.9457398 79 79 79
-0.0839620474036682 0.0440560048605307 0.0375987670462342 -0.2880835 -0.03694978 0.9568921 72 72 72
-0.0866640504995975 0.0441389761248612 0.0370631722332573 -0.4266861 0.09925953 0.8989363 110 110 110
-0.0902840728646377 0.0453544440455937 0.034739277534849 -0.5515951 0.2769709 0.7867846 38 38 38
-0.0981566097701914 0.0523239540741671 0.0292861856387763 -0.361366 -0.05788296 0.9306257 99 99 99
-0.0998885865506007 0.0461937874943952 0.0283802525987391 -0.427719 -0.001164314 0.903911 84 84 84
-0.10623474618499 0.0519033585775137 0.0258003586436169 -0.7386091 0.3391583 0.5826046 56 56 56
-0.101619783502049 0.0487391990564714 0.027670935557262 -0.341598 -0.06679287 0.9374697 96 96 96
-0.0973471576353109 0.0428090965971601 0.0307870796275395 -0.6298099 0.2478856 0.7361333 15 15 15
-0.105076226008225 0.0433361823420513 0.0258328603753187 -0.3854831 -0.06127587 0.920678 59 59 59
-0.102567666357875 0.0358518416832823 0.0266172124853836 -0.5219185 0.04613896 0.8517466 68 68 68
-0.0855283576445303 0.0399615132027977 0.0373499352489372 -0.1866558 -0.07657107 0.9794368 83 83 83
-0.0847355135116215 0.037935309285128 0.037517160485362 -0.1909763 -0.1173432 0.9745556 121 121 121
-0.0909694325132828 0.0380831173975003 0.0360921896823525 -0.252352 -0.1399792 0.9574572 127 127 127
-0.0916140512817949 0.033909659335613 0.0346963307720008 -0.2282794 -0.1611101 0.9601729 41 41 41
-0.0931034215660058 0.0345893479579094 0.0342402910816211 -0.3412378 -0.1211518 0.9321368 77 77 77
-0.0833852337368601 0.0342308946584133 0.0367245243022166 -0.1372093 -0.1927188 0.9716136 86 86 86
-0.0879884669446909 0.0291709181922541 0.0348467951115486 -0.1930557 -0.1845027 0.9636847 12 12 12
-0.0888429461019689 0.0276781826919659 0.0345976691763817 -0.1903476 -0.2300453 0.954383 89 89 89
-0.0977257109016028 0.0357519040428502 0.0309962962101749 -0.7003499 0.03310154 0.7130318 60 60 60
-0.0966261233463643 0.0302704349444214 0.0333735701779266 -0.5000307 -0.0714978 0.8630512 94 94 94
-0.0910382074472709 0.0274144187147796 0.0338267866745978 -0.2407312 -0.2481342 0.9383379 73 73 73
-0.0954079839443416 0.0248944782221536 0.0324385333743642 -0.2993313 -0.2611417 0.9177177 140 140 140
-0.0936740019891793 0.0231466490630339 0.0318861044450735 -0.2528469 -0.2825939 0.9253157 90 90 90
-0.106924109147147 0.0320576685962495 0.0248396157681916 -0.4106541 0.06782723 0.9092649 89 89 89
-0.0978536483482382 0.0300529816016692 0.0317653462406648 -0.5563677 -0.04158844 0.8298948 88 88 88
-0.159525218249538 -0.0725552235954994 -0.0341138657959404 -0.9942434 0.05702183 0.09071072 58 58 58
-0.105015484131786 0.0254831729288427 0.0263239785220058 -0.518948 0.003176468 0.8547999 93 93 93
-0.105243605106171 0.0223555394008894 0.0259894323607257 -0.4932725 -0.0284756 0.8694087 82 82 82
-0.104448967120497 0.020504239684265 0.026520008833581 -0.4965752 -0.04788733 0.8666717 126 126 126
-0.109397005301807 0.0438552043292302 0.0207347931192339 -0.8756658 0.4446362 0.1884356 8 8 8
-0.108889580592317 0.0441417019992816 0.0195074003417554 -0.8585771 0.4948706 0.1339718 36 36 36
-0.112696476111343 0.0392510808221889 0.0169568369287233 -0.7573102 0.6435294 0.1111359 9 9 9
-0.115312776239926 0.0369151230513114 0.0137092866566864 -0.7803364 0.615697 -0.1095095 24 24 24
-0.108441815659917 0.03713658958503 0.0240860154099277 -0.3404778 -0.08474503 0.9364257 41 41 41
0.0491183398685646 -0.0937730555360023 -0.0424940789441673 0.137716 -0.9899306 -0.03273748 109 109 109
-0.116180218593071 0.0356536385077169 0.0159058253872819 -0.8249575 0.557918 0.09040263 36 36 36
-0.117968997979311 0.0325398021484 0.013228493816665 -0.7300193 0.6779274 -0.08652302 13 13 13
-0.107439220836567 0.0341885075925763 0.024054466091969 -0.378157 0.02998758 0.9252557 152 152 152
-0.112800449349064 0.0266777518676879 0.0226613337005252 -0.320026 -0.004482509 0.9473982 56 56 56
-0.117368393265455 0.0257608670189446 0.0203635703707232 -0.255295 0.03422869 0.9662572 52 52 52
-0.109405488770705 0.0213747645079596 0.0238970860762522 -0.4499393 -0.04558839 0.8918948 42 42 42
-0.116758193985252 0.0241286448417304 0.0212102272750504 -0.2196752 -0.06310761 0.9735298 56 56 56
-0.121698862848757 0.0280891135971588 0.0205193803515083 -0.4381505 0.3047198 0.8456772 14 14 14
-0.0875998837149332 0.0221480217172672 0.0335985854315719 -0.2576265 -0.1955821 0.9462432 64 64 64
-0.0855016925088519 0.0174026227908493 0.0334803366052137 -0.2250874 -0.1546115 0.9619932 62 62 62
-0.0912722799073165 0.019697005658692 0.0315355624784116 -0.3203424 -0.2287629 0.9192651 57 57 57
-0.0917654421882761 0.0168487903405576 0.030363887734231 -0.355541 -0.1906469 0.9150106 112 112 112
-0.0876292656145128 0.0115174626395658 0.0323141733197311 -0.3139452 -0.03732699 0.9487071 78 78 78
-0.0966281696824796 0.0217931384488865 0.0304648545480928 -0.3127683 -0.2461208 0.9173879 89 89 89
-0.0972175183043176 0.0149562548793984 0.0284673665185439 -0.2283325 -0.3005382 0.9260351 42 42 42
-0.103280910913083 0.0156705045658643 0.0271677880543311 -0.3839155 -0.1686069 0.9078439 55 55 55
-0.155107047222456 -0.023205783257398 -0.0074233482105894 -0.8987017 0.1632215 0.4070552 76 76 76
0.0256707661268163 -0.0577501094601494 0.0391760598823191 0.1381735 -0.1160119 0.98359 140 140 140
0.126230560137893 -0.0548326779424018 0.00389340563032106 0.9389876 -0.004249262 0.3439248 166 166 166
-0.163575995853466 -0.0304871008838057 -0.0345153971206068 -0.9981204 0.05514898 -0.02672635 40 40 40
0.0898662050837198 -0.0940809315430118 0.0190161881901948 -0.04284747 -0.9990017 -0.012636 165 165 165
0.0568645008419213 -0.0801775448854996 0.0357478780729796 0.03619849 -0.2581058 0.9654383 135 135 135
0.126502153509838 -0.01790829145468 0.0110013991780399 0.9605343 -0.1425551 0.2388553 95 95 95
0.0931519345449723 -0.0962229667131218 0.0337731696909569 0.07684539 -0.9811943 0.1770668 115 115 115
-0.157808163420737 -0.0447778813402153 0.000898874396404153 -0.8325874 0.4314275 0.3473738 40 40 40
-0.0174556398639105 -0.097444866972433 -0.0213584539130992 0.0897231 -0.9890788 0.1169317 128 128 128
-0.0400221202171895 -0.0868710232890657 -0.0608230529229325 -0.3559198 -0.9326279 -0.05938295 78 78 78
-0.0787498495586296 -0.0812262687603043 -0.0662249520043922 0.04067941 -0.994464 0.09688352 96 96 96
0.0912202024851136 -0.0939830201047258 0.0216997634620798 -0.0507826 -0.996434 -0.06738175 142 142 142
0.0743657093149446 -0.0647215267818466 0.0367220925680237 0.5281744 0.2836742 0.8003504 94 94 94
0.126107972139577 -1.95416066872678E-05 0.0157361294435047 0.9961756 -0.02954307 0.08222703 89 89 89
-0.152364706187223 0.00102379560657062 -0.0171756972271422 -0.9184246 0.3139672 0.2406675 68 68 68
0.0102521147048171 -0.0331368861314412 0.0408511919342199 -0.01620906 -0.09139361 0.9956829 216 216 216
0.0390025148867803 -0.0739893416806732 0.0371273264885141 -0.1535088 0.08197461 0.9847412 113 113 113
0.0587685110568206 -0.0733653357679578 0.0379124032270608 0.07440713 -0.343677 0.9361355 140 140 140
0.0529537482048392 -0.00822293254228867 0.047079639698544 -0.06378279 -0.1658684 0.9840831 128 128 128
0.0521110095616781 -0.0456259768639706 0.0416028345474407 -0.006639457 -0.06284571 0.9980012 64 64 64
-0.087150087737293 -0.0864891768790044 -0.03793808542981 0.2054435 -0.9391788 -0.2752022 92 92 92
0.130486407443152 -0.0231893461514798 -0.00543039976541812 0.9763033 -0.01602394 0.2158128 80 80 80
0.0911062307257064 -0.066066963533739 0.0282855133476868 -0.0252815 0.130685 0.9911016 86 86 86
0.138304772800725 0.0170494354692836 -0.025396466535597 0.9546096 -0.1821458 0.2356765 131 131 131
0.131669246135009 -0.00707817854774828 -0.0209543119778177 0.9814804 0.0840342 0.1721466 64 64 64
0.0448161610827367 -0.0945341885753348 -0.0367009774449773 0.001050039 -0.9993968 0.03471212 102 102 102
-0.114133078530465 -0.0876770513691822 -0.0287784117246989 -0.224003 -0.9745835 -0.003097252 55 55 55
-0.0330041235198626 -0.0140243674193683 0.0462981012951284 -0.05793635 -0.2264602 0.9722958 125 125 125
-0.129494501808702 -0.0773505630119045 -0.0665097411551425 -0.1510346 -0.9748434 0.163917 109 109 109
-0.0925113072642354 -0.0872211617467966 0.031295303465443 -0.1325776 -0.8092823 0.5722633 212 212 212
0.134238732056234 0.00872878673174982 -0.0227105629319802 0.8106198 -0.3348848 0.480362 63 63 63
0.0563663699689172 -0.0928340013672302 0.0113628221589069 -0.05350783 -0.9921947 -0.1126344 120 120 120
-0.102641504094654 -0.0953091767876248 -0.00909574646581393 -0.2627158 -0.9648166 0.01045556 228 228 228
-0.15887738339657 -0.0177625457062915 -0.0591927314268017 -0.8364449 0.546957 -0.03461303 92 92 92
-0.151454798211167 -0.0850811516164365 -0.0384658824756398 0.2053712 -0.9158854 -0.3449298 70 70 70
0.0521886703587597 -0.0745879899827067 0.0375308575544313 0.02013954 -0.2894573 0.956979 158 158 158
0.130157468683653 -0.0732818668285511 -0.00548021795522188 0.9749354 -0.1271827 0.1825532 42 42 42
0.0712205389486915 -0.0632498247871804 0.0382507391914672 0.4280884 0.2366004 0.8722159 88 88 88
0.095815507232514 -0.0890390338947096 -0.0404043404880485 0.003100107 -0.9313797 -0.364036 56 56 56
0.12224951547752 -0.0417703255950581 0.0144936794825731 0.963884 -0.07753075 0.2547874 104 104 104
0.124055935372946 -0.0247570336628096 0.0143524491660734 0.9554545 -0.1592447 0.2484912 114 114 114
0.127008841317806 0.0622097663346457 -0.00386653496830971 0.9711279 0.1699026 -0.1674629 76 76 76
-0.0507450514115528 -0.0971438376025795 0.0270986473711723 -0.1364836 -0.8755042 0.4635349 177 177 177
0.026297139912598 -0.0928568910062981 0.0119191412408293 0.169339 -0.9714898 -0.1659275 45 45 45
-0.0292533436588369 -0.0177559729120544 0.0437440567032229 0.04505695 -0.324414 0.9448415 122 122 122
0.13006541945128 0.0195291037655221 -0.00753216385164104 0.9616917 -0.137964 0.2368861 93 93 93
0.12639139048208 0.0172891416295593 0.0296622062638026 0.9988334 0.01342672 0.04638541 116 116 116
-0.114908895615064 -0.0798566688581366 -0.0628548242241234 -0.3251801 -0.9415296 0.08820359 86 86 86
0.12513145119844 -0.0490379770433038 0.00382812483546 0.9439176 -0.02528709 0.3292113 183 183 183
0.122686155024366 -0.0219797523559262 0.0282745393085058 0.9856433 -0.1255207 0.1129242 100 100 100
-0.0630431771695434 -0.0747406844325735 -0.0708356595181814 0.132008 -0.6884301 -0.7131885 28 28 28
0.130212126019286 -0.0863483765822108 -0.017584118009738 0.9609641 -0.2428648 0.1325313 91 91 91
-0.157518342794551 -0.00680780626233113 -0.0259847624149891 -0.9468631 0.2618785 0.1867348 74 74 74
0.123525704168261 -0.0940431898091387 0.0181323064816547 0.8648617 -0.4408562 0.2401248 108 108 108
0.122344117930278 -0.078623835651352 0.0181414974005648 0.9423406 0.1223514 0.3114874 105 105 105
-0.0984704533965801 0.000488148593462689 0.0301898434517835 -0.2783834 0.3193492 0.9058249 123 123 123
-0.11666201116108 -0.0386906051969023 0.0310123837253062 -0.04426381 0.1317952 0.9902882 65 65 65
-0.0360376173946426 -0.0974787094756822 -0.0145248004858253 0.005904412 -0.9999766 0.003445667 162 162 162
-0.149885387630069 -0.0265644941143752 0.0139533943372473 -0.9453354 0.1154576 0.3049762 85 85 85
0.0375848195074646 -0.000283734286915527 0.04581803643917 -0.0832362 -0.1801604 0.9801092 139 139 139
0.107954619237489 -0.0808817477122672 0.0313782232854787 0.3071584 -0.3268355 0.8937742 140 140 140
-0.0979548612290162 -0.00435567095227718 0.0317041188337749 -0.1492245 0.2142671 0.9653091 177 177 177
0.127883528021242 0.0292448334792299 0.00977534864126792 0.9803111 -0.0697017 0.1847479 90 90 90
-0.1337759440535 -0.0738332694036481 0.0250515706320162 -0.3701571 -0.05273258 0.9274713 127 127 127
-0.0961671355050184 -0.0965519746099057 -0.00405734718012288 -0.04199432 -0.9970448 0.06432793 149 149 149
0.131751803619495 -0.0594375191527314 -0.0214791896082671 0.9686669 -0.05167081 0.242929 64 64 64
-0.159952445181399 -0.0209868900214463 -0.0583475185879123 -0.9843551 0.1760105 -0.008083355 57 57 57
0.0566972677088353 -0.0928263021231099 -0.0171353842111483 0.06620094 -0.9964886 -0.05126241 47 47 47
-0.00492688861918755 -0.0938838004766673 0.0158746406497534 -0.1506324 -0.9663821 -0.2083637 97 97 97
-0.0838217193752377 -0.013377892774423 0.0348455462270772 -0.2387423 0.03996621 0.9702602 159 159 159
-0.00912976604412874 -0.0958782120714379 -0.0476641814688366 0.1547648 -0.9714509 -0.1798083 82 82 82
-0.143968194392978 -0.0171922726280791 0.0144857129511346 -0.3772507 0.336956 0.862637 45 45 45
-0.138691202181544 -0.091214686163116 -0.00792713833127909 -0.1384016 -0.9851812 -0.1013069 65 65 65
0.129949599316016 -0.0232855307925164 -0.00250625544481928 0.9612781 -0.0451425 0.2718574 121 121 121
0.125614529248625 0.00346675492342419 0.0306584806794195 0.9850047 -0.08651377 0.1492689 99 99 99
0.114262572816 -0.0914399713136764 -0.0302786891785206 0.05454514 -0.9453565 -0.3214436 56 56 56
0.0300367834448469 -0.0918929252581413 -0.00289256996171436 0.03388925 -0.9994254 -0.0006080983 118 118 118
0.048220064054983 -0.0801281280475767 -0.0663468148600917 0.1329498 -0.2136902 -0.9678124 20 20 20
-0.159442935337581 -0.0562575578215057 -0.0682818327879471 -0.9975435 0.05077756 0.04825639 30 30 30
0.0879985565789556 -0.0960910654327065 0.0348636241039504 -0.1749001 -0.8182682 0.547583 122 122 122
0.0481345913592706 -0.0936192814914492 0.0199528931068496 -0.01475208 -0.9873621 -0.157792 92 92 92
0.0331623444391118 -0.0002816722238006 0.045522925682974 -0.1223492 -0.1740055 0.9771145 138 138 138
0.119969422979751 -0.0954550658768516 0.0214048271908508 0.2618722 -0.8633802 0.4312744 138 138 138
0.0228886955155969 -0.0927620621794523 -0.0133554062467663 0.147399 -0.9838451 0.1015991 122 122 122
0.132961172410921 -0.030165238769686 -0.0152547115446567 0.980612 0.01722346 0.1952011 85 85 85
0.0800469415721377 -0.0888696783561236 -0.0444596109310154 0.1182924 -0.9264181 -0.3574302 34 34 34
0.078271127662126 -0.0937563240020354 0.01692597666319 -0.006252805 -0.9994005 -0.03405173 135 135 135
0.00134910155246204 -0.0695755494427865 0.0369319994795314 -0.1271481 -0.1628731 0.97842 164 164 164
-0.102275642523286 -0.0193589613442673 0.0316464448414897 -0.1900337 0.00342641 0.9817716 126 126 126
0.082503887862589 -0.0264904629762304 0.042836834550359 -0.02835971 -0.3774621 0.9255907 96 96 96
-0.155569488744072 -0.0888625318986023 -0.0142121488614747 -0.1760602 -0.9843379 -0.009034513 56 56 56
-0.10684080165731 -0.0832399338773304 -0.04959565998676 -0.1938094 -0.9771395 -0.08738599 43 43 43
0.11529283558862 -0.0947075280514813 -0.0141314805392893 -0.03402737 -0.9917768 -0.1233735 110 110 110
0.134926827206447 -0.0632540516150975 -0.0409202963877749 0.9955405 -0.06703912 0.06636918 122 122 122
0.0407362814869716 -0.00730858663844636 0.0448987597540214 -0.1438546 -0.1805676 0.9729857 84 84 84
-0.127175387242836 -0.0552366319333411 0.0296570232722295 -0.4079687 -0.1673401 0.8975293 193 193 193
-0.10882066169324 -0.0921289377875578 0.0253635411043779 0.3512546 -0.9226684 0.15907 124 124 124
-0.130635154971188 0.0243129500875232 -0.00138099369788572 -0.4191761 0.9079009 0.002692598 78 78 78
-0.144127302890636 -0.0401378150397509 0.0237092525286631 -0.6101639 0.006651524 0.7922474 135 135 135
-0.0435770038956147 -0.0130986268984208 0.0433389363410966 -0.1240689 -0.137658 0.9826786 118 118 118
0.109253713825593 -0.00904456696872957 0.0477912246072625 0.006853365 -0.2688848 0.9631479 114 114 114
0.118070862436947 -0.0963567352983834 -0.00541706550054002 -0.02629636 -0.9964411 -0.0800851 90 90 90
0.102703699537947 -0.0850191813596786 0.0330413486190525 0.5211097 -0.1940149 0.8311455 127 127 127
0.0335443218506506 -0.09113093264456 -0.000518347111682332 0.01710176 -0.9998332 0.006406453 136 136 136
0.0745679391567333 -0.0809646360924428 0.0361197877654266 -0.1720066 -0.3024828 0.9375062 191 191 191
0.116732882418695 -0.0492266915459771 0.029747324985244 0.9177234 -0.1886319 0.3495739 153 153 153
0.126976750018238 0.0167254425324384 0.00648797257265418 0.9963709 -0.03102866 0.07926077 45 45 45
0.0020898934659106 -0.0765959959250024 0.0353410562994426 -0.1167786 -0.2196373 0.9685671 154 154 154
-0.0465989574268497 -0.0034345362048247 0.0448920227593576 -0.1121904 -0.1231194 0.9860299 118 118 118
-0.0263990298606853 -0.0338470652474696 0.0409643529917797 0.07075567 -0.1114011 0.9912534 210 210 210
0.111676926314386 -0.0876789157160729 -0.0393669188822903 0.3322643 -0.8386374 -0.4316107 49 49 49
-0.155542977933948 -0.062007087827284 0.0138060951538885 -0.4862575 -0.06076751 0.8717 147 147 147
-0.111606423678968 -0.0816126797151762 -0.0455421812443108 -0.3195547 -0.9272687 -0.1950836 53 53 53
-0.128400778430907 -0.0784909315401017 0.0262218962322201 -0.2590179 -0.103021 0.9603627 125 125 125
-0.126226543489095 0.0265019865053537 -0.00723918797049608 -0.3965366 0.9174365 0.03269532 103 103 103
0.133674371090885 0.0257587935401882 -0.0128765123449441 0.8823751 -0.1179875 0.4555143 63 63 63
0.097544166845664 -0.0942136060538437 -0.02311914122252 0.05347334 -0.9955726 -0.0773036 116 116 116
-0.0814998780648697 -0.0981747405035913 -0.000427917883899204 -0.1472635 -0.9875845 0.0546846 178 178 178
0.0114474086394269 -0.0867223783679927 -0.0690586108769549 0.1557148 -0.8815361 -0.4456983 108 108 108
0.0219743117623785 -0.0359814186023004 0.0405021068521884 -0.02614286 -0.05032308 0.9983908 143 143 143
-0.0450622366945905 -0.0045355248580834 0.044891426378713 -0.1245057 -0.1260972 0.9841737 137 137 137
-0.147473153773143 -0.0801348912219997 -0.0499466227817105 0.2239468 -0.8629366 -0.4529771 74 74 74
-0.0157987360449958 -0.0939781896293261 0.0305940302822588 -0.02518766 -0.3978446 0.917107 205 205 205
-0.0210037482013787 -0.0621815846173626 0.0371903504611344 0.03796764 -0.1962255 0.9798235 218 218 218
0.0874609438667588 -0.00348191737168269 0.0498558067858804 -0.03028923 -0.1985008 0.9796326 106 106 106
-0.0505177174251477 -0.0826187583463089 -0.0564802938048641 -0.2948735 -0.9553799 0.01728599 85 85 85
0.126417644405995 -0.0264734184679492 0.00565111530891674 0.9600602 -0.1236352 0.2509956 115 115 115
0.0649033065051476 -0.0854313395682431 -0.0591739710018156 0.158059 -0.8885556 -0.4306811 41 41 41
0.119940913206056 -0.0716470457182874 0.023010731857901 0.9567464 0.1294526 0.2605348 64 64 64
-0.121110782467662 -0.0180589333874244 0.026900654337989 -0.2110267 0.1209395 0.9699697 185 185 185
0.0454131152120865 -0.0939513840501673 0.0219853763250756 -0.05502539 -0.9910658 -0.121494 71 71 71
-0.0771112706716806 -0.0281226099510743 0.0365732886286744 -0.2109224 -0.06098808 0.9755984 157 157 157
-0.163321838034305 -0.040220711358822 -0.014917678940775 -0.9727172 0.1134414 0.2023666 49 49 49
-0.0884066632424689 -0.00512579019240444 0.0331740688391735 -0.2665722 0.2168484 0.9391038 143 143 143
0.102145297961333 -0.0953987701240702 0.00193231371186278 -0.150874 -0.98832 0.0214614 146 146 146
-0.138719899304923 -0.0839548949351281 0.0232790489062208 -0.3215797 0.05522318 0.9452708 134 134 134
0.0350305184759043 -0.0948490672282927 0.0261888143888278 0.05822347 -0.9979606 -0.02616759 89 89 89
0.0667017628044102 -0.0932277246073943 0.0131422028295756 -0.01144258 -0.9913713 -0.130583 120 120 120
0.0349108537728151 -0.00578454203727552 0.0444617259723428 -0.1037155 -0.1658854 0.9806758 98 98 98
-0.0302648725604369 -0.0994846053876048 0.0155217456685406 0.3867841 -0.9221132 -0.01025757 71 71 71
0.0874505677562114 -0.0814884042072572 -0.0614768480977229 0.1500802 -0.9750522 -0.1635519 81 81 81
-0.106529592250129 0.0411840320010022 -0.014369423855701 -0.7312313 0.6722476 0.1156888 61 61 61
0.0389856405113851 -0.0931941236464464 -0.0213256462597785 -0.04671149 -0.9988062 -0.01428679 106 106 106
0.100622063682881 -0.0929086466993136 -0.027326098912655 0.07266302 -0.9743341 -0.2130569 92 92 92
-0.0322226088263393 -0.0890200576943574 -0.0530578061572417 -0.2995674 -0.9539561 0.01506845 87 87 87
-0.0917651372143538 0.0070125931035554 0.0315405662070593 -0.3605264 0.1239745 0.9244734 111 111 111
0.132247037942135 -0.0191281188794874 -0.0188702278847949 0.9845661 0.1057645 0.1394399 102 102 102
