ply
format ascii 1.0
comment File exported by Rhinoceros Version 7.0
element vertex 474
property float x
property float y
property float z
property float nx
property float ny
property float nz
property uchar red
property uchar green
property uchar blue
end_header
0.124530571101711 -0.0558294356054357 -0.0673132630111295 0.7515918 -0.6292233 0.1979589 167 167 167
0.026460891819888 0.007263243903054 -0.0662973228181852 0.07062972 0.5453268 -0.8352426 183 183 183
-0.044981128913805 -0.0390865839728198 -0.0995361618729792 0.2413676 0.5045836 -0.8289373 79 79 79
-0.0424739442799265 -0.126435529707649 -0.0742388440934175 0.2805555 -0.94043 -0.1920414 81 81 81
-0.135080085973293 0.0619582792375504 0.0727052242846145 -0.9695449 0.1695823 0.1767046 70 70 70
0.0845289502885541 -0.0801189654608854 -0.0964313092599074 0.2220525 -0.8015442 -0.5551752 55 55 55
-0.00164269460019285 -0.0768690192343048 -0.117980372313086 0.1701308 0.3746076 -0.911441 194 194 194
0.0787372928038328 0.0217848646371064 -0.0579213914006225 0.005047544 0.6249277 -0.7806663 84 84 84
-0.0952624562619023 0.0741308576058708 -0.0190663586238656 0.1323248 0.5003371 -0.8556594 114 114 114
0.05514088199415 0.00185243220178299 -0.0684686125050898 -0.009801538 0.4161589 -0.9092391 125 125 125
0.133575407413464 -0.0123093295165113 0.0389918733898958 0.980579 -0.1739434 -0.09060045 79 79 79
0.0894968010442427 -0.0881790173892136 -0.0446431628838724 0.6894446 -0.7185664 0.09126022 132 132 132
0.12340376978795 -0.0527908169458371 -0.0164361205500718 0.8265916 -0.5627693 -0.006093434 121 121 121
-0.00762401310280136 0.0482616372538038 -0.033651540507331 -0.0149317 0.6409654 -0.7674245 135 135 135
0.123319992022705 -0.0528406026601187 -0.0571128998278818 0.8216 -0.5663331 0.06511723 178 178 178
-0.135016983578409 -0.0526482865944725 0.00304920473884557 -0.831254 -0.1527549 0.534493 74 74 74
-0.13437107988357 0.0662784130361984 -0.00509800533716398 -0.9590637 0.1207586 -0.2561526 80 80 80
-0.0597229287588146 0.0914775671863748 -0.0118496618343909 0.09092538 0.6780558 -0.7293648 207 207 207
0.028490265726328 -0.0298230080218208 -0.0888906446216967 0.02100264 0.4138727 -0.9100925 95 95 95
0.0388038938362812 -0.11329098946567 -0.0774493231894272 0.2394234 -0.6444935 -0.7261574 113 113 113
0.11199760746206 -0.0681466412529758 -0.0215171926319887 0.7632939 -0.6447945 -0.0402804 113 113 113
0.000351063207065003 0.00128830708648398 -0.0699106913403297 -0.02537706 0.6685226 -0.7432587 85 85 85
0.0888911375328758 0.138714721903028 0.0253067205898007 -0.07897237 0.4974949 -0.8638647 223 223 223
0.0581604170796036 -0.0273757355477587 -0.0848878592988742 0.2551109 0.2430015 -0.9358786 108 108 108
0.0248855839203364 0.00133854373571141 -0.071178064534821 0.01590588 0.4552305 -0.8902315 193 193 193
0.0674692380681004 0.10537046788335 0.100658979406079 0.007197706 0.8103472 0.5859058 97 97 97
0.121643247946954 0.138228777691426 0.0223171900866647 -0.1253379 0.586658 -0.8000767 142 142 142
0.0299852208991045 0.100229947898773 0.00145862252435341 0.02699049 0.3013973 -0.9531166 76 76 76
-0.0194656751531605 0.0849734833663889 -0.0104779180489999 0.2895654 0.3431617 -0.8935278 125 125 125
0.0118219104271731 0.0608205572459493 -0.0240664839732591 -0.2441836 0.6659809 -0.7048715 76 76 76
0.0580363091933695 -0.100752868246654 0.000508635237115196 0.7280775 -0.6827809 0.06093786 115 115 115
-0.0185997151885942 0.0261994144162403 -0.0544218061888778 -0.01507751 0.5543044 -0.8321775 107 107 107
0.139217491663237 0.133575106744021 0.0181947452719309 0.08231169 0.578111 -0.8117958 209 209 209
0.110668656029535 0.128609990354046 0.015325815247865 0.06045729 0.6507852 -0.7568511 167 167 167
0.141687861854162 0.0556669747328702 -0.0270225359336648 0.9591362 -0.06618428 -0.2750952 18 18 18
-0.132053007276197 -0.111766297331698 -0.0307623235642874 -0.9163245 -0.3871375 0.1023422 60 60 60
0.0367398288703752 0.1405242689345 0.0311245670936524 0.1348921 0.9904519 0.0284475 61 61 61
-0.134841248562499 0.075944757068195 0.00241296945569935 -0.9466839 0.1967492 -0.2551067 95 95 95
-0.0647660973519529 0.0636552471645004 -0.0275004138597648 -0.08515182 0.5374114 -0.8390102 171 171 171
-0.0642015847439642 -0.059225197754457 -0.115446934777057 0.18604 0.5541105 -0.8113881 202 202 202
-0.13801054480382 -0.0642294691108486 -0.028014931428693 -0.9071603 -0.4140063 -0.07522545 71 71 71
-0.123911359994963 0.132038412702655 0.0201578148560875 -0.8784633 0.4126822 -0.2408227 33 33 33
-0.101093143026588 -0.127015767097332 -0.0804983548328313 -0.0502775 -0.6784308 -0.7329419 57 57 57
-0.00440557622105413 0.107992705548781 0.00575916115276381 0.06313469 0.5257018 -0.8483228 218 218 218
-0.126796231061265 0.0170364843422872 0.0768386635027799 -0.9670251 0.1824096 0.1777334 40 40 40
-0.00939818743773504 -0.0373914688987934 -0.094468080858957 0.1344096 0.4359023 -0.8899007 148 148 148
-0.062000112441627 -0.14008464197966 -0.0371580196554772 0.2538358 -0.8445169 -0.4715491 146 146 146
-0.128323082485436 -0.039593943878891 0.0452030056164444 -0.9944877 -0.002392263 -0.1048259 61 61 61
-0.0252973746227509 -0.025802960136145 -0.0882219473048934 -0.03730163 0.5681521 -0.8220777 110 110 110
0.0576223610450386 0.00584037817834271 -0.0665931438988994 0.01379362 0.5184178 -0.8550162 97 97 97
-0.0446642163168653 -0.0168857894929888 -0.0850816491674695 0.04925282 0.6502855 -0.7580917 77 77 77
0.0936469123799248 -0.084363893813178 -0.0544396957965066 0.7506724 -0.6534773 0.09725431 128 128 128
-0.135453030911715 0.0795120643804004 0.0113997639484951 -0.9696025 0.196908 -0.1452527 58 58 58
-0.124146385166345 0.0971475758133213 0.0716179821733389 -0.7730179 0.4097231 0.4843246 209 209 209
0.108029128984288 -0.0717562426060037 -0.103247009040032 0.1124833 -0.7241945 -0.6803601 113 113 113
0.0421223118011406 -0.109990691480773 -0.0198515513502582 0.4970585 -0.8671896 -0.03024742 147 147 147
0.0933715326822594 0.041824638327 -0.0437996845872792 -0.1956336 0.6384667 -0.7443707 115 115 115
0.157389507720895 0.0903751548466656 0.0110200342298049 0.8625473 0.2950209 -0.4110654 60 60 60
-0.0306832119555442 0.102177534013814 0.105049735449737 -0.1368748 0.5813622 0.8020494 173 173 173
0.153674480739586 0.05811645532523 0.0842736172202672 0.6876271 -0.7260056 0.009211234 39 39 39
-0.123492701259324 -0.146357268934752 -0.0543613246644354 0.01152152 -0.6677806 -0.744269 93 93 93
0.136309370462394 0.00588176479217961 0.0566749511817843 0.9766888 -0.1791992 0.1181803 69 69 69
0.143517038812651 0.0278688395531079 -0.039014928785013 0.9949459 0.07501196 -0.06675136 63 63 63
0.0374333370142338 -0.116964234596017 -0.0756660238902148 0.1814337 -0.6914634 -0.6992569 154 154 154
0.0319223799879957 -0.11805717160643 -0.0742177463751702 0.05066879 -0.8657316 -0.4979372 92 92 92
0.0309268956260774 -0.115465950580713 -0.0782241925095114 0.1477337 -0.7657963 -0.625884 117 117 117
0.020971547595669 -0.115771083832794 -0.0770321357218625 -0.1159057 -0.9374132 -0.3283631 88 88 88
0.0195123292858128 -0.116657861623938 -0.0730176794034282 -0.1576849 -0.9566367 -0.2449114 68 68 68
0.0190972000861789 -0.115429741156131 -0.0763864700135747 -0.1440546 -0.939922 -0.3095073 65 65 65
0.0081895654373413 -0.117423607436838 -0.0667207374291574 0.06207588 -0.9123249 -0.4047343 65 65 65
0.00684558652372796 -0.11684128347953 -0.0683989496429205 0.02665487 -0.9130842 -0.4068989 61 61 61
0.0145539260237998 -0.115789538866504 -0.0700960273077009 -0.1181693 -0.9684759 -0.2192953 49 49 49
0.00772488825852652 -0.115073354959747 -0.0721048273845439 -0.002375999 -0.9215636 -0.3882203 60 60 60
0.0806529360570585 -0.0800834621227101 -0.0985484173891847 0.2534391 -0.7799705 -0.5722016 52 52 52
0.0890679016188625 -0.0764439972186892 -0.102506736642115 0.08871313 -0.790384 -0.6061544 64 64 64
0.0867034186144408 -0.0761552603121904 -0.102539243125535 0.03914739 -0.8015172 -0.5966889 79 79 79
0.0787919174651789 -0.0767677914061549 -0.102971802550618 0.2349623 -0.7487496 -0.619812 103 103 103
0.0703884889521151 -0.0863210541596009 -0.0938727941233015 0.2760211 -0.7873841 -0.5512156 57 57 57
0.0685058860773978 -0.0841712237177075 -0.0974004980662199 0.2981072 -0.7576975 -0.5805399 48 48 48
0.0722615727308858 -0.0845260518255139 -0.0959950935032542 0.2459192 -0.7809296 -0.5741712 72 72 72
0.0694767514379878 -0.0847638269690829 -0.0965430117071819 0.2964044 -0.7672338 -0.5687677 31 31 31
0.0645854219775142 -0.0897332811627704 -0.0915259187112519 0.2604599 -0.8157293 -0.516475 89 89 89
0.0547556593613747 -0.0911303358910962 -0.0935235271108453 0.3005181 -0.7821875 -0.5457761 160 160 160
0.0825492614353747 0.107829015501253 0.0986515948633376 -0.03175068 0.832426 0.5532259 60 60 60
0.0541395747111637 -0.0893772112816225 -0.0977130235584561 0.3069588 -0.7648958 -0.5663133 110 110 110
0.0540045604295898 -0.0872511331650446 -0.100063716914353 0.3091271 -0.7755515 -0.5504183 88 88 88
0.0647992670494458 -0.0881132375757321 -0.0949274676682205 0.2541084 -0.7999083 -0.5436687 105 105 105
0.0859942228613614 0.0952911728408894 -0.00249571303901469 -0.1361492 0.5149027 -0.846368 104 104 104
0.129990826276916 0.144339899328303 0.045932193631863 -0.1157058 0.9670086 0.2269506 117 117 117
0.0568525498171762 -0.0798122932428649 -0.108652033199122 -0.03050959 -0.197734 -0.9797808 126 126 126
0.0550610777919129 -0.0797784672531712 -0.10849682796669 0.00273877 -0.2150028 -0.9766096 141 141 141
0.0786286893367942 -0.0817107296659901 -0.0971425176593206 0.243273 -0.7996282 -0.5490109 73 73 73
0.0687837187651156 -0.0814065418102476 -0.10111472165066 0.2362359 -0.7667933 -0.5968422 70 70 70
0.0705173766920955 -0.077488170131457 -0.10605122750904 0.2276002 -0.6698606 -0.7067425 69 69 69
0.110232721544731 -0.0614731882390962 0.0288150807639178 0.6740276 -0.7283393 0.1233237 104 104 104
0.0767302758248775 -0.0783301588519323 -0.102023343768847 0.2658058 -0.7628258 -0.5894439 71 71 71
0.0607554838564692 -0.0839797676402607 -0.102708774234635 0.2771975 -0.7585596 -0.5897024 68 68 68
0.0658055190922681 -0.0836801891098169 -0.0998155732644921 0.2919797 -0.7433626 -0.6017972 92 92 92
0.0634324240265141 -0.0764431779340039 -0.108641843753723 0.09913857 -0.2242845 -0.9694679 119 119 119
0.0591326341633989 -0.077189067103976 -0.108312478629893 -0.02474561 -0.08808772 -0.9958053 102 102 102
0.0559976002451203 -0.0771662982451697 -0.108087125710734 0.005222142 -0.09814925 -0.995158 116 116 116
0.00156493351320408 0.10915860573741 0.00597978316177361 -0.0001143981 0.4965473 -0.8680097 179 179 179
0.00156129844637468 -0.100764799814603 -0.104379893647867 0.3072115 -0.7034581 -0.6409116 100 100 100
0.0431459867326258 -0.113450420477907 -0.0754346673652059 0.4566649 -0.641054 -0.6168525 67 67 67
0.0452214455630074 -0.110751947953983 -0.0773762544780817 0.4867984 -0.6464888 -0.5874348 79 79 79
0.0460675054546892 -0.107980259413746 -0.0796011139958271 0.4853665 -0.5821104 -0.6523548 66 66 66
0.0281885560290356 -0.114241826778967 -0.0810798997021748 0.09882601 -0.8065016 -0.5829139 77 77 77
0.0394119614019561 -0.111911766285134 -0.0789259224571188 0.2230763 -0.6219921 -0.7505749 111 111 111
-0.112548809485892 -0.127223379882033 -0.0821441584939744 0.1200323 -0.8039937 -0.5823971 68 68 68
0.0345797083338084 -0.10826614391456 -0.0832205682723266 0.3290022 -0.6303133 -0.7031804 95 95 95
0.0279848047632609 -0.109701446257898 -0.0860707023635626 0.3236098 -0.7557411 -0.5693259 66 66 66
0.0276524627465016 -0.104795827338346 -0.0926941632263641 0.3406996 -0.6930722 -0.6352753 107 107 107
0.0310374031572989 -0.100881536623845 -0.0950303693382656 0.3887559 -0.732875 -0.5583575 77 77 77
0.0510513502667209 -0.100493810539303 -0.0834671369628623 0.347589 -0.7401545 -0.5756329 85 85 85
0.0479403979948966 -0.0948077675428266 -0.0930792919314617 0.2536068 -0.8519678 -0.458077 98 98 98
0.0413662440214482 -0.0960831374420305 -0.0942307997656944 0.2968474 -0.8420733 -0.4503267 59 59 59
-0.114993221241022 0.125499948247989 0.0123783670311561 0.177896 0.7083259 -0.6831013 121 121 121
0.0502381613350197 -0.0977481617664214 -0.086596408159111 0.2796426 -0.754443 -0.5938146 84 84 84
0.0456467577169579 -0.0972878697887771 -0.0896151181991712 0.2889131 -0.7704076 -0.5683321 53 53 53
0.0398385923988374 -0.102441081982726 -0.0870234449066173 0.233875 -0.6506696 -0.7224483 91 91 91
0.0391778414688512 -0.101014362524205 -0.0880698043674344 0.259216 -0.7009373 -0.6644501 81 81 81
0.0401269962344568 -0.0995627349489333 -0.089078560098425 0.2976789 -0.7089928 -0.6393093 109 109 109
0.0320978820736858 -0.104651316067654 -0.0888470567124555 0.4639167 -0.6397645 -0.6127663 73 73 73
0.0349919602735418 -0.0994914376119016 -0.0930950105880798 0.3799719 -0.7746661 -0.5054837 59 59 59
-0.0881658617365332 -0.00896593605162344 -0.0852008150419068 0.108051 0.4647096 -0.8788458 148 148 148
0.140889750495238 -0.0123950973754168 -0.0557546039489595 0.9959444 0.05046393 0.0744864 29 29 29
-0.0488534331658597 0.0938565838259722 -0.00986395943504531 0.1393313 0.6372606 -0.7579483 98 98 98
0.0150614943963894 -0.107627769068435 -0.0920602551098994 0.006863351 -0.7570402 -0.6533322 110 110 110
0.0089235063127443 -0.107289122712488 -0.0927075898295689 0.01478274 -0.8123143 -0.5830326 54 54 54
0.0128525131412497 -0.111123461619746 -0.0875153953186029 -0.09345767 -0.8765665 -0.4721196 50 50 50
0.123414000553071 -0.0552138548685747 -0.0203542026852732 0.7940648 -0.6016645 -0.08637677 143 143 143
0.0275809086485646 -0.114516511749739 -0.0804234160256739 0.09837871 -0.8090478 -0.579451 58 58 58
0.024664451544376 -0.112694814716574 -0.082687773279485 0.1168778 -0.8358125 -0.5364299 94 94 94
0.0165132260161519 -0.114210245057909 -0.0801174833194211 -0.1601357 -0.933333 -0.3213193 82 82 82
0.00866261467580434 -0.111798399308786 -0.080662332879897 -0.1365161 -0.9616319 -0.2379653 77 77 77
0.00473875455234868 -0.111153116812561 -0.0814018711013008 -0.02422431 -0.9648362 -0.2617334 38 38 38
-0.134378650473353 0.0643984239752293 -0.00401827858764314 -0.9621003 0.1216888 -0.2440387 62 62 62
0.0201689713262478 -0.10493917283975 -0.0943011775846812 0.1107951 -0.7112212 -0.6941822 96 96 96
0.0208744071987667 -0.103752515881766 -0.0957569536254476 0.1195671 -0.6909487 -0.7129472 78 78 78
-0.135078974046695 -0.0688378815088074 -0.0512386353146504 -0.9802595 -0.1462131 -0.1330906 110 110 110
0.0242552745024484 -0.0975872444748401 -0.100857410184984 0.01788515 -0.5335438 -0.8455834 57 57 57
0.0153877768096866 -0.102378207931184 -0.0977127125793313 0.1068356 -0.6552668 -0.7478045 101 101 101
0.023914717353752 -0.101824948186016 -0.0964337369194017 0.1676159 -0.7245662 -0.6685123 84 84 84
0.00739979351946507 -0.105107384148449 -0.0954452323416704 0.102455 -0.8094572 -0.5781713 65 65 65
0.000855587893908577 -0.103273166785365 -0.100072245594133 0.1171707 -0.8802352 -0.4598446 53 53 53
0.00817531207075327 -0.100731349693762 -0.100632728877007 0.2929696 -0.6369373 -0.7130776 117 117 117
0.00998685101477331 -0.101297717698365 -0.0991580353303421 0.2182762 -0.6666932 -0.712654 104 104 104
0.00920475211268706 -0.0935419421682268 -0.106691649164782 0.3475239 -0.597652 -0.7225228 73 73 73
0.00563557012013473 -0.0951317069430219 -0.10680259776446 0.3326657 -0.5889376 -0.7365365 56 56 56
0.00898462212449694 -0.0881963270543092 -0.110162850393806 0.3470851 -0.4268007 -0.8350887 41 41 41
-0.0114337917038831 -0.106315902405377 -0.0958859317090784 0.2544315 -0.8963264 -0.3631304 64 64 64
0.00750124296046084 -0.0864992081808699 -0.111681785965009 0.3484033 -0.3060183 -0.8859842 73 73 73
0.00288500157595513 -0.0865263014030579 -0.11288862445882 0.3850377 -0.3729415 -0.8441923 66 66 66
0.00685525969224214 -0.0846336732349574 -0.112350785676229 0.3786885 -0.2391582 -0.8940908 118 118 118
0.00781773332057838 -0.0818513356239731 -0.112347455792154 0.3464816 -0.2661379 -0.8995116 73 73 73
0.00515799431556641 -0.0794776393573877 -0.114790656429423 0.4486113 -0.3009724 -0.8415245 140 140 140
0.00285636801152976 -0.0775683214281405 -0.11732069723536 0.4375208 0.02287467 -0.8989173 136 136 136
0.00652209596598831 -0.0783559794762997 -0.114327935532093 0.3786254 -0.3493918 -0.8570696 58 58 58
0.040639538056128 -0.0887385061004722 -0.104295189209572 0.08723912 -0.4534027 -0.8870261 93 93 93
0.0430371907915998 -0.0869284163411327 -0.104768934970763 0.04328967 -0.4613625 -0.886155 81 81 81
0.0277739981321801 -0.0934578935303453 -0.103039897390536 -0.0183012 -0.391583 -0.9199608 110 110 110
0.136651297141867 0.14066934725399 0.0238648468591874 0.09900916 0.7202647 -0.6865973 164 164 164
0.02976976968441 -0.0964130306158866 -0.100364901232463 0.2387911 -0.6601354 -0.7121798 41 41 41
0.0380311496122954 -0.0899904593386194 -0.104063159753593 0.1536481 -0.4526049 -0.8783741 93 93 93
0.0374097396291107 -0.0888744962389135 -0.10456401455604 0.07770139 -0.200721 -0.9765621 92 92 92
0.0279602096588933 -0.0900969486447207 -0.103375434849208 0.001985184 -0.3036177 -0.9527919 105 105 105
0.0276472550883028 -0.0875921910206774 -0.104864061469737 0.07657792 -0.3916 -0.9169434 91 91 91
0.0478107967617639 -0.0919809272196546 -0.0972506400738721 0.2771766 -0.7670571 -0.5786161 64 64 64
0.0522449589856011 -0.0919759134148423 -0.0946756133436668 0.3112164 -0.7788957 -0.5444867 102 102 102
0.0464346665305521 -0.0942844356599278 -0.0950002764200104 0.251819 -0.8286719 -0.49989 74 74 74
0.0505379012279934 -0.0862655779569712 -0.103572855380308 0.2682287 -0.7307341 -0.6277587 86 86 86
0.0504864422149019 -0.0821572658288386 -0.10799816707846 -0.008600594 -0.3557832 -0.9345289 89 89 89
0.0449154188463534 -0.0830996904610949 -0.106689504262857 -0.1271681 -0.3324818 -0.9344967 91 91 91
0.0466907652148318 -0.0812726755811758 -0.106851076635899 -0.09005556 -0.2564077 -0.9623643 64 64 64
0.0513675788167948 -0.0793228195169812 -0.107720366471313 -0.05647722 -0.1776068 -0.9824796 135 135 135
0.0458193934979639 -0.0781080809525948 -0.107598838512698 -0.06847799 -0.2025827 -0.976868 138 138 138
0.0418442547303418 -0.0751730978585129 -0.108520082351745 0.08724145 -0.4925049 -0.865926 128 128 128
0.039777934170231 -0.0800551076210806 -0.106057210789227 -0.02697695 -0.3649482 -0.9306369 140 140 140
0.106515421817625 -0.0685605403871956 -0.058564633317508 0.6849387 -0.7237905 0.0835847 103 103 103
0.0324641331159196 -0.0813067933920895 -0.106672857101416 0.08948976 -0.3527663 -0.9314223 128 128 128
0.0390700692289351 -0.0790715772700122 -0.106979843973414 0.04258125 -0.4236794 -0.9048108 150 150 150
0.0360541483222298 -0.0762001993803175 -0.11009223397511 0.09713758 -0.5963331 -0.7968382 104 104 104
-0.119575718941699 0.128638010434284 0.0492199749156496 -0.6106357 0.6379614 0.4691794 210 210 210
-0.0294981384351689 -0.0586310258403063 -0.107024688322786 0.1012996 0.5289716 -0.8425719 168 168 168
0.0473291195840721 -0.0749353315841523 -0.108242351447286 0.04195827 -0.3095495 -0.9499571 130 130 130
0.0238708641911056 -0.0934250474891247 -0.102711430943549 0.01033838 -0.3953467 -0.9184738 67 67 67
0.0224351108875345 -0.0914960886028131 -0.10367446854444 0.07094547 -0.4594318 -0.8853751 68 68 68
0.0202414074266929 -0.0932234461582966 -0.102164907292398 0.04819382 -0.4794906 -0.8762227 66 66 66
0.0277664013910726 -0.111095611339959 -0.0479956718695643 -0.1690418 -0.9703933 -0.172516 32 32 32
0.0173007644529523 -0.0937472024555321 -0.102481197848654 0.1459345 -0.5027093 -0.8520484 51 51 51
0.0248233609278555 -0.089739573513793 -0.10417511869797 0.09239279 -0.4202065 -0.9027126 90 90 90
0.0204465467795723 -0.0877302594385442 -0.105521598875373 0.1853756 -0.5012941 -0.8451864 62 62 62
0.0157982688991492 -0.089429855524942 -0.106493753890019 0.3002375 -0.5481318 -0.7806465 74 74 74
0.0139620285756972 -0.089003418403949 -0.107484966020794 0.3363702 -0.548914 -0.7652115 126 126 126
0.0181227455569882 -0.0868360041018171 -0.10703371845933 0.2814435 -0.5079703 -0.8140981 66 66 66
0.0874988013313926 0.125616921785981 0.0162383198070302 -0.06787027 0.6377903 -0.7672139 140 140 140
0.0100358310025413 -0.0948275079737205 -0.104722837172447 0.3505771 -0.6027142 -0.7168202 102 102 102
0.0114995557243258 -0.0872961599825189 -0.10939415489629 0.339273 -0.4420848 -0.8303342 42 42 42
0.0229807414093401 -0.0808561923457677 -0.108194911576007 0.2532628 -0.3568362 -0.8991807 90 90 90
0.0142048960337558 -0.0838280606388868 -0.11036544446599 0.257309 -0.3793105 -0.888772 69 69 69
0.0182381212554354 -0.0816833417870586 -0.109989133692963 0.3158927 -0.402739 -0.8590769 50 50 50
0.027508831533814 -0.0823079357328982 -0.106805004448024 0.1773078 -0.3446829 -0.921822 69 69 69
0.0263952185717607 -0.0752774109537485 -0.111551179065712 0.08998087 -0.5983258 -0.7961844 32 32 32
0.0169115476956058 -0.0764489502719133 -0.113722389202571 0.1931556 -0.364651 -0.91089 77 77 77
0.0251180206268651 -0.0785539667867647 -0.108517352263869 0.2315276 -0.4851907 -0.8431993 53 53 53
0.00959015263436042 -0.0831013318222291 -0.111546632195403 0.2931007 -0.2511355 -0.9225091 76 76 76
0.0125720675550821 -0.0767363244916491 -0.113749227813186 0.1177627 -0.3964011 -0.9104933 134 134 134
0.140926908608799 0.0340862751166158 0.0365230007671263 0.937305 -0.347074 -0.03160661 51 51 51
-0.0266160863746737 -0.119326613587997 -0.0878530220377232 0.4976084 -0.7659267 -0.4071145 93 93 93
-0.0346291092378605 -0.121203561486416 -0.0880355932903426 0.1068218 -0.8962414 -0.4305118 57 57 57
-0.0427697797318937 -0.124253855455661 -0.0819275117005723 0.219235 -0.9007287 -0.3749983 99 99 99
-0.131120421074888 -0.0975144686604615 -0.0913424641316003 -0.9863717 -0.1207756 -0.1117324 121 121 121
-0.0442523500162078 -0.11939614385015 -0.0925330684200623 0.1647081 -0.8733346 -0.4584298 44 44 44
-0.0423232850660712 -0.121813972633778 -0.0883176329887902 0.1217355 -0.8846818 -0.4500207 67 67 67
-0.0376927521853471 -0.118773986310126 -0.0922663583364781 0.1334981 -0.846568 -0.5152677 109 109 109
-0.0214114969278441 -0.123161608843441 -0.0661895049368771 0.3172379 -0.9095116 -0.2686051 205 205 205
-0.014676661961369 -0.121075974045496 -0.0620654963160769 0.145764 -0.98074 -0.1300072 169 169 169
-0.0169633324911615 -0.120859884863811 -0.0666507921072689 0.3247042 -0.8995749 -0.2921168 199 199 199
-0.0224601137188595 -0.1188206895132 -0.0762679251988454 0.3839773 -0.8684782 -0.3135394 90 90 90
-0.0850101976145529 0.0850857183611831 0.109092719006511 -0.2975388 0.6970055 0.6524216 101 101 101
-0.0151984525376771 -0.115375497502818 -0.0778045601783206 0.2485377 -0.8853928 -0.3928214 111 111 111
-0.0555423827696589 0.0717792810013136 -0.0252561613386428 0.00394443 0.4091468 -0.91246 148 148 148
-0.000337109600114321 -0.119553361774418 -0.0653709366316198 0.07439398 -0.8518394 -0.5184932 57 57 57
-0.00575836145668082 -0.120090127907952 -0.064930756591378 0.1064052 -0.8787345 -0.4652994 68 68 68
-0.00640364043127024 -0.117449075919766 -0.0687522463147326 0.1640689 -0.8746949 -0.4560594 54 54 54
-0.00137193125837927 -0.113134903436361 -0.077940843578418 0.1159004 -0.9111252 -0.395497 69 69 69
-0.00481292317806137 -0.115801017525578 -0.072202528556621 0.1535804 -0.9176279 -0.3665681 89 89 89
-0.00697752315237143 -0.114614794162058 -0.0764603672671427 0.1481614 -0.9181708 -0.3674379 81 81 81
-0.00176236654190708 -0.11567966193673 -0.071044506866082 0.0818844 -0.9136842 -0.3980907 90 90 90
-0.0125778375747735 -0.118702098269771 -0.069385895290544 0.2216986 -0.8851151 -0.4091712 78 78 78
-0.0128306024243421 -0.11758037432216 -0.0711992164441119 0.2577889 -0.8744345 -0.4109857 66 66 66
-0.0218415605681717 -0.119757966065061 -0.0722199640509323 0.333903 -0.8619219 -0.3815748 103 103 103
-0.0126667444960172 -0.119401298349037 -0.0675141051209243 0.1992034 -0.9041207 -0.3779996 85 85 85
-0.0108362050188835 -0.116113014895458 -0.0736912475705303 0.1979638 -0.9078586 -0.3695987 92 92 92
-0.0452134146391413 -0.130185876576125 -0.0647615782521739 0.314503 -0.9033105 -0.2917498 111 111 111
0.105540612878899 -0.0694397250392887 -0.0588883840768622 0.6641613 -0.7427596 0.08484056 118 118 118
-0.0395386716542663 -0.125872982487323 -0.0756019880536344 0.248272 -0.9482681 -0.1978599 76 76 76
-0.0470232064682495 -0.127971506222655 -0.0745967553761622 0.2562874 -0.929925 -0.2637351 100 100 100
-0.0357866203051841 -0.125788398753217 -0.0691327978549708 0.2313381 -0.9319335 -0.2792538 111 111 111
-0.0255545352542751 -0.124783527476008 -0.0572961581774618 0.3430527 -0.9347125 0.09288359 168 168 168
-0.0308770004602227 -0.126965924819781 -0.0607300623655302 0.3795363 -0.925163 0.005061356 193 193 193
-0.0985669201024932 0.081146589767084 -0.0161704463728932 0.3557377 0.4954173 -0.7924724 134 134 134
-0.0230698841454838 -0.122369955292106 -0.0687330883927184 0.32785 -0.8799937 -0.3436938 179 179 179
-0.0296128208268336 -0.124267283732771 -0.0687800388655056 0.2592146 -0.927117 -0.2706694 127 127 127
-0.0305345090903418 -0.125707515222469 -0.0658419217116346 0.2559555 -0.9067271 -0.3351607 181 181 181
-0.0368404103038057 -0.129255683407871 -0.0633361226837315 0.2825578 -0.9295257 -0.2369451 128 128 128
-0.0400208872158871 -0.128060761623985 -0.0663425669041443 0.2567639 -0.8715333 -0.4177344 86 86 86
-0.0351328579094672 -0.123302165451124 -0.0782678092877935 0.2542514 -0.9279254 -0.2725998 130 130 130
-0.0279946694932143 -0.1215625549081 -0.0769530789621462 0.3774058 -0.8862039 -0.2687145 108 108 108
-0.0276781931907712 -0.121193218574127 -0.075794335794268 0.3957834 -0.8698584 -0.2944518 97 97 97
-0.0254433493457638 -0.119411582571729 -0.0845226193514991 0.5174013 -0.8156607 -0.2588311 111 111 111
-0.0396740518775369 -0.124958189148042 -0.0795821657459809 0.2507659 -0.9206349 -0.2992454 89 89 89
-0.0736864574654018 -0.136900590665633 -0.0707284591767333 0.2706853 -0.8191931 -0.5056205 103 103 103
-0.085538951595431 -0.139196957976845 -0.0671911118890435 -0.01950923 -0.8836532 -0.4677354 115 115 115
-0.0801699261159644 -0.137541275718434 -0.071520615126704 -0.006557564 -0.9173951 -0.3979236 60 60 60
-0.0861452321726175 -0.135415873001289 -0.0730575196969548 -0.1732718 -0.8509847 -0.4957842 90 90 90
-0.0920915461120464 -0.140252360937498 -0.0666869682506149 -0.05136146 -0.8866779 -0.4595262 95 95 95
-0.100312533194636 -0.135861075226373 -0.0725352704312258 -0.1219471 -0.7364814 -0.6653752 53 53 53
-0.0928213615284455 -0.137811576758061 -0.0689439329485341 -0.007418683 -0.8241652 -0.5663008 100 100 100
-0.118881805819426 -0.131746857632576 -0.0744211157750306 -0.04755202 -0.8286169 -0.5577928 38 38 38
-0.0911523472525702 -0.106613763682347 -0.121119249940352 -0.3088302 -0.7167423 -0.6252235 37 37 37
0.0398103488000921 0.122114405442225 0.0170500419891527 -0.09806705 0.606837 -0.7887533 161 161 161
-0.0564659945597254 -0.136999848595221 -0.0608776781514819 0.3235218 -0.9455535 -0.03552815 153 153 153
-0.0607713134144127 -0.136370776380369 -0.0663318044417515 0.2778069 -0.8589846 -0.4300799 116 116 116
-0.0543140132808 -0.13535821206593 -0.0632508095610791 0.3639813 -0.9120901 -0.188704 56 56 56
-0.0554102719488721 -0.136258045654452 -0.062802617537978 0.3372962 -0.929874 -0.1468522 66 66 66
-0.0654474117659715 -0.1392500671801 -0.0650820616921756 0.2582513 -0.8193007 -0.5119107 121 121 121
-0.0718377597839702 -0.138820905688912 -0.0672695995732971 0.2058303 -0.7993051 -0.5645753 116 116 116
-0.0697862495346595 -0.136784857293169 -0.0570440666850244 0.5365444 -0.8289782 0.1578456 110 110 110
-0.0660272395105271 -0.136517494680727 -0.0690422943994068 0.2147135 -0.7730748 -0.5968697 85 85 85
-0.0680857428828895 -0.135257682364856 -0.0708905577828178 0.2511517 -0.7892668 -0.5603399 133 133 133
-0.0539105544545571 -0.132667100520971 -0.0480822663541369 0.2338995 -0.906386 -0.351789 176 176 176
-0.0552464991767903 -0.132807776048217 -0.0558009614079347 0.2679981 -0.9455731 0.1845766 117 117 117
-0.0495726829741525 -0.131560591486187 -0.0508269429222571 0.2220174 -0.9736232 -0.05259362 157 157 157
-0.0656738095978252 -0.136383543121254 -0.0557252090389813 0.3937975 -0.8992989 0.1902236 141 141 141
0.0268190900019205 0.119269711293953 0.0903963989107768 -0.05190132 0.7618805 0.6456349 149 149 149
-0.0636650807445355 -0.135982024870896 -0.0490883207503131 0.3016213 -0.8875794 -0.3481773 160 160 160
-0.0592717342842803 -0.132754299834356 -0.0516329772656428 0.312804 -0.9463535 -0.08104733 153 153 153
-0.0739122875629058 -0.141713692544763 -0.0539682206142064 0.4509229 -0.8924767 0.01240046 130 130 130
-0.0797831462768556 -0.143030005334202 -0.0529473280470089 0.2211014 -0.9659491 -0.1343745 147 147 147
-0.085452082347127 -0.143254786931574 -0.0572508003650596 0.1071205 -0.9532546 -0.2825437 144 144 144
-0.0959254305385436 -0.146525268443297 -0.0519195805408538 0.2806902 -0.9157889 -0.2873042 155 155 155
-0.0239551745192423 0.0106517504850629 -0.0648265234913077 0.08281922 0.5380939 -0.8388063 240 240 240
-0.092935638818984 -0.142575032441006 -0.0586828190346909 0.05278522 -0.8791963 -0.4735268 81 81 81
0.077333595616646 0.133141311099572 0.0646859972780891 -0.03371736 0.8961394 0.44249 55 55 55
-0.0813325367229126 -0.144768602467703 -0.0438553219592749 0.3216894 -0.8447127 -0.4277573 158 158 158
-0.100952739154094 -0.0307549726151635 -0.098949919953483 0.04884082 0.5339521 -0.8441029 97 97 97
-0.0789687903296523 -0.145462252036509 -0.0397915608181291 0.3396755 -0.814823 -0.4697703 136 136 136
-0.0784924895995773 -0.143191056813204 -0.0447084415361581 0.3259643 -0.8381515 -0.4373206 154 154 154
-0.0870453753719349 -0.147493216130563 -0.0429276111091885 0.3377835 -0.8324162 -0.4393013 140 140 140
-0.0939853862069149 -0.147174821868966 -0.0468130584617196 0.2922208 -0.8703789 -0.3962924 146 146 146
0.0226746766679105 0.125098720406975 0.0192557054621443 -0.0120554 0.5522272 -0.8336065 173 173 173
-0.0802042776122067 -0.142159705265596 -0.061764657777467 -0.08068892 -0.9631556 -0.2565552 32 32 32
-0.0840185748763679 -0.139606518649996 -0.0658074263087136 -0.07576396 -0.9149973 -0.3962824 105 105 105
-0.075207723254335 -0.139298801062179 -0.067638433886258 0.1571794 -0.8390928 -0.5207859 107 107 107
-0.0879783927892662 -0.140474978745737 -0.0644898180616726 0.05860089 -0.9059018 -0.4194137 109 109 109
-0.0977422838704733 -0.141019678188122 -0.0627784705320448 0.1301349 -0.8666515 -0.481643 97 97 97
-0.132550477759808 -0.091196702330863 -0.0654841172932077 -0.9971718 0.02435106 -0.07110224 133 133 133
-0.0498771563615691 -0.126738207458731 -0.0813612091507763 0.2825916 -0.8798647 -0.3820735 61 61 61
0.0355823479396522 -0.0235152995824602 -0.086503716883497 0.0631163 0.4099708 -0.9099122 178 178 178
-0.057138692789122 -0.129455671799573 -0.0790463000426541 0.2605079 -0.9326891 -0.2494529 101 101 101
-0.0680603812772626 -0.132553671334553 -0.0778791511076358 0.1326613 -0.9442446 -0.3013355 81 81 81
-0.0693292038704623 -0.133646460941392 -0.0739366067698883 0.2441027 -0.8765143 -0.4148935 123 123 123
-0.0689081235694846 -0.128308170489655 -0.0869258105228151 0.03046238 -0.8452958 -0.5334295 105 105 105
-0.0694034364746395 -0.130833168783256 -0.0812064366193108 0.06128979 -0.9058447 -0.4191527 129 129 129
-0.0723700794616237 -0.129918319724561 -0.0848282661490348 0.1509059 -0.8517967 -0.501667 116 116 116
-0.0670473014813618 -0.131084682860461 -0.081080910396137 0.07859942 -0.9033223 -0.4216999 133 133 133
-0.0577464426043506 -0.122468201699168 -0.0940532176681866 0.2401468 -0.8772811 -0.4155809 76 76 76
-0.0594197413920025 -0.121412159552906 -0.0971059994134623 0.1839014 -0.8033078 -0.56646 116 116 116
-0.0680807619172999 -0.125171504517861 -0.0913787765663088 0.04698391 -0.8626148 -0.5036748 163 163 163
-0.0725337272126923 -0.125001717688065 -0.0920086094096751 0.126272 -0.8592576 -0.4957134 109 109 109
-0.0672916363959691 -0.123679151543219 -0.0940575609105988 0.04238619 -0.8776424 -0.4774383 86 86 86
-0.0731522688551762 -0.123708936222045 -0.0946591441829004 0.1341507 -0.8802313 -0.4551884 127 127 127
-0.138219953753204 -0.011354309102205 -0.0315535080887038 -0.9508604 0.05556652 -0.3045929 205 205 205
-0.0559230499630235 -0.12431844380417 -0.088861748543904 0.267829 -0.85456 -0.444966 101 101 101
-0.0608031235187853 -0.124889120880711 -0.0902577948881301 0.1797723 -0.8836128 -0.4323313 34 34 34
-0.0546809065621255 -0.126105120756883 -0.0851276585479037 0.2486212 -0.8291529 -0.5006925 86 86 86
-0.0518490688020577 -0.119707945017874 -0.0956622996899237 0.2869438 -0.8504946 -0.4408199 136 136 136
-0.0687072021404341 -0.127600069101346 -0.0878366323735676 0.03236027 -0.8333532 -0.5517927 114 114 114
-0.0629513687511009 -0.127931411197938 -0.0865471432134834 0.1619223 -0.8432927 -0.5124829 97 97 97
-0.0714092497743712 -0.127399130236025 -0.0879284623374401 0.0860927 -0.8303137 -0.5506061 90 90 90
-0.0778921787257166 -0.129548841895152 -0.0878774276091701 0.1991595 -0.8311564 -0.5191479 116 116 116
-0.0849170685130879 -0.130058701560335 -0.0854288763027859 -0.4524747 -0.7982526 -0.397567 51 51 51
-0.0793711653096315 -0.133287464291538 -0.0822811593453709 0.01020494 -0.866263 -0.499484 104 104 104
-0.0803296062414852 -0.134695911965239 -0.0798309920224415 0.04333761 -0.8786989 -0.4754052 111 111 111
0.133661169030214 0.0480832110486213 -0.0442568412950536 -0.002403548 0.6730528 -0.7395905 220 220 220
-0.0771787875486624 -0.130546350663229 -0.0846758861369457 0.2212298 -0.8297428 -0.5124298 124 124 124
0.101872515986812 -0.0826921827325151 -0.0743904192343348 0.7529069 -0.5714503 0.3264594 120 120 120
-0.0882088674803719 -0.131212072901058 -0.0784816078932238 -0.3305204 -0.714952 -0.6161168 53 53 53
-0.0962269485470551 -0.133309926950871 -0.0759265776853201 -0.08400238 -0.7341477 -0.6737735 98 98 98
-0.0415549815832619 0.0672444211343093 -0.0261677431690017 0.2085238 0.5681356 -0.7960777 122 122 122
-0.0882386319969919 -0.128299241773998 -0.0810424904192604 -0.4406508 -0.7494585 -0.4941041 37 37 37
-0.0892178831369635 -0.126879454704582 -0.0847289752068702 -0.4905253 -0.7331496 -0.4710377 75 75 75
-0.099980578182274 -0.128534268384833 -0.079563814698669 -0.1048424 -0.689261 -0.7168873 64 64 64
-0.079297674638936 -0.127165220280518 -0.0919100065781166 0.1753705 -0.8477924 -0.500493 142 142 142
-0.081442532581 -0.126883583110279 -0.093611883449649 -0.01693838 -0.874536 -0.4846648 131 131 131
-0.0879266900174114 -0.12427705240036 -0.0923126216238138 -0.6525393 -0.6608608 -0.3707497 54 54 54
-0.0801609192273215 -0.124291622081972 -0.0972996698552652 0.1688675 -0.8313835 -0.5294197 127 127 127
0.0373159726589918 0.0756619330208721 -0.0134576574186418 0.0138282 0.718334 -0.695561 87 87 87
-0.0853756162282268 -0.122760622041239 -0.0991901395523626 -0.497446 -0.7157482 -0.4901551 68 68 68
-0.0884205411385296 -0.125322022736172 -0.0877695747412028 -0.6163805 -0.6900741 -0.3793058 56 56 56
-0.0907887708236461 -0.120607533937133 -0.0906760923243393 -0.5130331 -0.7301778 -0.451262 55 55 55
-0.0887844730471152 -0.118433308129513 -0.0960360587952357 -0.6062638 -0.6381608 -0.4745471 49 49 49
-0.124908214531109 0.0538508248927174 0.105936140537498 -0.9980074 -0.0389116 0.04967036 59 59 59
-0.092027023701428 -0.125750188007081 -0.0837733978103052 -0.2593337 -0.7802313 -0.569197 51 51 51
-0.0969886922495848 -0.122836723209924 -0.085424132983358 -0.1424754 -0.7771635 -0.6129581 96 96 96
-0.0505978577172809 -0.129704451327024 -0.0731490503302697 0.2510804 -0.8814951 -0.3999064 88 88 88
-0.0323394754959782 -0.0980736760624358 -0.117560232052682 0.2908112 -0.5623741 -0.774057 89 89 89
-0.0557895075047095 -0.130896456423094 -0.0721862057593539 0.2733044 -0.8699169 -0.4105474 76 76 76
-0.0539945606086163 -0.132457873855093 -0.0685541135337212 0.3329317 -0.8616463 -0.3830433 74 74 74
-0.0652573366012612 -0.132355742202137 -0.0725223316798008 0.2144572 -0.8758257 -0.4323626 76 76 76
-0.0495822059313901 -0.107840759333649 -0.116694500437761 0.196618 -0.888626 -0.414349 133 133 133
-0.0438978676237925 -0.103951313212426 -0.120812528611116 0.3924333 -0.6099117 -0.6884793 104 104 104
-0.0497702270380131 -0.102567539420004 -0.123824571328116 0.1714991 -0.4558742 -0.8733652 81 81 81
-0.0470225140096671 -0.100758658090465 -0.123294149595814 0.2888135 -0.3958237 -0.8717284 55 55 55
-0.0462685677322008 -0.0973668659243986 -0.124644173080784 0.3748546 -0.3783397 -0.8463706 63 63 63
-0.0463457451189417 -0.0961228356894415 -0.125481232454916 0.3742243 -0.3521771 -0.8578622 77 77 77
-0.0442755436673878 -0.0916183414903209 -0.126127059204015 0.3161455 -0.3923392 -0.8637835 72 72 72
-0.0498859752973337 -0.0906004104740478 -0.128265612718725 0.3076644 -0.2965618 -0.9040983 100 100 100
-0.0427918777872563 -0.0858652200494847 -0.128851118570482 0.2229278 -0.06560944 -0.9726246 120 120 120
-0.0495764092322756 -0.0870713618575281 -0.129477045016828 0.1977464 -0.06425304 -0.9781451 130 130 130
-0.0678458523251142 -0.115691165599653 -0.109834623008248 0.2291208 -0.900908 -0.3686033 99 99 99
-0.0686782129311262 -0.114287872903907 -0.11277338209822 0.1684152 -0.8709614 -0.461587 100 100 100
0.00442288585052389 -0.0744659804617912 -0.115685605476315 0.2133527 0.274186 -0.9377114 172 172 172
-0.05724831849081 -0.109258522050321 -0.117602527997944 0.2306214 -0.857269 -0.4603298 109 109 109
-0.0630893853158957 -0.112011069555322 -0.115204216469493 0.2016988 -0.8754606 -0.4391883 124 124 124
-0.131351192104768 0.0295007582409914 -0.0473161921967813 -0.9252848 0.2994989 -0.2326981 46 46 46
-0.0612456252144275 -0.105131442460305 -0.124038193367073 0.07000133 -0.4972107 -0.8648013 174 174 174
-0.0543230976547549 -0.108865303489035 -0.116307045393913 0.2252738 -0.8635134 -0.4512165 134 134 134
-0.0529994616626074 -0.106050277199222 -0.121590002091555 0.1988049 -0.7355772 -0.6476132 118 118 118
-0.0610298816851251 -0.108254152463754 -0.120898346967438 0.1519925 -0.7884254 -0.5960568 112 112 112
-0.0721768270920269 -0.11178881396308 -0.118107862388634 0.05713878 -0.8512743 -0.5216007 121 121 121
-0.0774916803312476 -0.110652235342039 -0.119322507011462 -0.04514805 -0.8716797 -0.4879919 77 77 77
-0.0693245054108971 -0.112608985884269 -0.116017263708778 0.09766427 -0.850239 -0.5172575 98 98 98
-0.0692511654094504 -0.111030088240197 -0.11803095796946 0.1187624 -0.8301519 -0.5447416 114 114 114
-0.0773170483794155 -0.113303251701009 -0.114395963235746 -0.1059565 -0.8641174 -0.4920106 54 54 54
-0.0690775757534294 -0.10881553512529 -0.121531506389612 0.1060783 -0.7548992 -0.6472052 111 111 111
-0.0692594858935392 -0.106694888213934 -0.124354752452249 0.1007722 -0.5858312 -0.8041435 104 104 104
0.117913984194625 -0.062200260833878 -0.0101359815918573 0.7121257 -0.6890131 0.1346775 151 151 151
-0.0758306973291681 -0.107218681820484 -0.123489491692801 0.06019947 -0.6196033 -0.7826031 66 66 66
-0.0857099110044226 -0.117111836683683 -0.105681559348351 -0.5159478 -0.7257493 -0.4550669 50 50 50
-0.0789053165712705 -0.11417958743842 -0.113402783652792 -0.08692309 -0.8650629 -0.4940755 46 46 46
-0.0841219867112981 -0.116425399015914 -0.108937716591048 -0.3116457 -0.8414281 -0.4414472 74 74 74
-0.0863714323683624 -0.113570259835817 -0.112019388261169 -0.3925687 -0.8415058 -0.3711574 46 46 46
-0.0956516650058618 -0.111842568711596 -0.106818789675079 -0.17035 -0.8806256 -0.4421306 62 62 62
-0.0830263350094965 -0.110893928124269 -0.117744966867574 -0.1294333 -0.8731758 -0.4699054 52 52 52
-0.0779879370627433 0.0395200399440276 -0.0453326599488945 -0.1811406 0.4553379 -0.8716969 91 91 91
-0.0883990060895647 -0.110956994731506 -0.115462595772629 -0.3244571 -0.861405 -0.3907801 41 41 41
-0.0892397127048398 -0.111593413938775 -0.110889809994764 -0.4474131 -0.841741 -0.3021484 107 107 107
-0.0828512080839002 -0.107540542629049 -0.123570610712926 -0.1895424 -0.6894341 -0.6991097 46 46 46
-0.0738047697934825 -0.0650794458319764 -0.121070865819556 0.08092793 0.5269436 -0.8460385 196 196 196
-0.0872573446782887 -0.10574861170049 -0.123107944425469 -0.3223275 -0.6865644 -0.6517165 104 104 104
-0.0919764494349831 -0.108518491398104 -0.117630959599815 -0.3540851 -0.8243166 -0.4417306 51 51 51
-0.0929110002422214 -0.109362884906954 -0.113596987015199 -0.3073884 -0.9002784 -0.3082386 61 61 61
-0.091102844188698 -0.107093534143276 -0.120237820479058 -0.3120594 -0.7418898 -0.5934799 54 54 54
-0.09918511410474 -0.107049796175946 -0.117780969169661 -0.1559697 -0.8093318 -0.5662645 86 86 86
-0.101014065418764 -0.103562748509007 -0.120152004850885 -0.2815518 -0.6111677 -0.7397314 64 64 64
0.154629069522381 0.0568743118774602 0.00560540072741084 0.9536771 -0.03601697 -0.2986682 143 143 143
-0.0631128136639447 -0.104771623250063 -0.124343123678411 0.05829734 -0.4560664 -0.8880342 124 124 124
-0.0562913875360853 -0.102668897315436 -0.124406330394128 0.1587958 -0.3817168 -0.9105362 99 99 99
-0.137799935133913 0.0278957456869753 0.0124975249676499 -0.9912733 0.05481977 -0.1198834 113 113 113
-0.0621863881321446 -0.0977862785140378 -0.126869514802696 0.1328911 -0.419698 -0.8978828 121 121 121
-0.0528620049605037 -0.0981706764710187 -0.125391406419115 0.03431326 -0.4388869 -0.8978869 75 75 75
-0.059183992566907 -0.0952481478511005 -0.127548594815693 0.122054 -0.4244722 -0.8971768 61 61 61
-0.0667240514439723 -0.103621039526185 -0.124619216311877 0.08884572 -0.4199244 -0.9031999 84 84 84
0.0653433840709099 0.0335279384121079 -0.045519226213965 -0.07151577 0.6961651 -0.7143106 132 132 132
-0.0731721267446954 -0.101193717199234 -0.12630692541786 0.08585269 -0.3990414 -0.9129049 76 76 76
-0.0668527882240853 -0.097396268077067 -0.128169506336991 0.08323664 -0.3802203 -0.9211429 106 106 106
-0.0689667558516804 -0.0943414670143148 -0.129165832253796 -0.06584868 -0.1659316 -0.9839363 111 111 111
-0.0748141123129888 -0.097318914337133 -0.128417143506836 0.01780306 -0.1262541 -0.9918382 99 99 99
-0.0627224445438327 -0.0936560973488805 -0.128929154889841 0.08032315 -0.3146138 -0.9458151 92 92 92
-0.0522895328335502 -0.0935956861322603 -0.127721331970354 0.1435382 -0.4309928 -0.8908659 107 107 107
-0.056330379738952 -0.0889325484116573 -0.130337957746568 0.006076652 -0.06283855 -0.9980052 183 183 183
-0.0576806558172118 -0.0861833283217995 -0.129930650189038 0.01120817 0.09722805 -0.995199 169 169 169
0.144629335271085 0.143515372671557 0.0411931162536251 0.3801587 0.9160897 0.1275108 185 185 185
-0.0641820288008134 -0.085592695855332 -0.129964398937765 -0.05053552 -0.01380372 -0.9986269 136 136 136
-0.0610687679638725 -0.0806250832101142 -0.129530779398778 0.08659545 0.3571698 -0.9300166 183 183 183
-0.123405807219015 0.132743999146239 0.0252536843529538 -0.9173598 0.3970624 -0.02814994 114 114 114
-0.0693789184449137 -0.0901315333780622 -0.129263167649654 -0.1391786 -0.03091188 -0.9897847 131 131 131
-0.101803911973374 0.0541822414683382 -0.0367255581931524 0.251866 0.5585358 -0.7903172 213 213 213
-0.0714141185425491 -0.090133238051553 -0.128996177787304 -0.1593404 -0.03805036 -0.9864901 165 165 165
-0.00585871418517234 0.140832231173875 0.0486441428755284 -0.04459528 0.9961481 0.07550006 58 58 58
-0.0711197512269338 -0.0884162410617956 -0.12889930509542 -0.1478332 -0.02942667 -0.9885744 180 180 180
-0.0657576508837483 -0.0854320615473346 -0.129769811959228 -0.1070498 0.001105633 -0.994253 108 108 108
-0.0692790577865459 -0.0840007785198204 -0.128975624479222 -0.1546928 0.08080125 -0.9846529 113 113 113
-0.0756649742811429 -0.0843836090825903 -0.128560037449899 -0.02910571 0.02588676 -0.9992411 168 168 168
-0.0716410470499961 -0.0819495368228876 -0.128733509168334 -0.115438 0.1064184 -0.9875977 135 135 135
-0.0735844750941372 -0.0804112444666517 -0.128268966111782 -0.07396252 0.1156311 -0.9905347 181 181 181
-0.081752339504374 -0.10087705811116 -0.128437230895309 0.1382541 -0.2252575 -0.9644402 59 59 59
-0.0891776140318222 -0.0972827052195473 -0.128583827866553 -0.1131079 -0.317842 -0.941373 175 175 175
-0.092702637084571 -0.0948760651146289 -0.130702508012918 0.1761852 -0.4736102 -0.8629323 198 198 198
0.113458530686436 -0.0661694633947346 -0.0132173254527462 0.7105319 -0.7010657 0.06042569 77 77 77
-0.103078130796751 -0.0964603049255492 -0.127998507733675 -0.1942357 -0.8615089 -0.4691215 78 78 78
-0.0977647622197453 -0.0937135689737764 -0.132261199623096 0.171748 -0.5904038 -0.7886229 139 139 139
-0.0818683885056778 -0.102986222837237 -0.127061728667091 0.1229464 -0.4911313 -0.8623655 101 101 101
-0.0896955552053802 -0.102831071866793 -0.124815715483442 -0.3746118 -0.599649 -0.7071684 98 98 98
-0.0793809731424411 -0.0964897182865758 -0.127958873684027 -0.00887747 0.04076887 -0.9991292 168 168 168
-0.0774757906622112 -0.0936295379221286 -0.127847908934678 -0.0565586 0.01378554 -0.9983041 231 231 231
-0.0852354225434086 -0.0953474682432559 -0.12829148968734 0.2109342 -0.03434263 -0.9768968 224 224 224
-0.0933947070603716 -0.101901407511275 -0.124338265860558 -0.3108592 -0.5490671 -0.7758169 119 119 119
-0.0928843080728784 -0.0998984254269183 -0.125072190346748 -0.3072227 -0.562244 -0.7677864 115 115 115
-0.0971930762682115 -0.0994894298901144 -0.123942389627782 -0.2017149 -0.6606514 -0.7230842 136 136 136
-0.0917005880442347 -0.0969308669854662 -0.128190468982551 -0.06027171 -0.5865934 -0.8076357 74 74 74
0.148929231532726 0.00152800579442069 -0.0133222963014719 0.9870394 -0.08989128 -0.1329392 71 71 71
-0.0942321848684017 -0.0914107632014781 -0.132378765127113 0.270849 -0.3264093 -0.9055925 78 78 78
-0.0945039363536837 -0.0901903026449348 -0.132620634338934 0.2870893 -0.2901443 -0.9129052 108 108 108
-0.126601895694197 -0.0678701491802857 -0.122921158764614 -0.4329239 0.5664964 -0.7011838 234 234 234
-0.0986818250241729 -0.0890871443665781 -0.134248019382532 0.4251439 -0.3650557 -0.8282433 113 113 113
-0.100749358494897 -0.0891592134317279 -0.136487888100627 0.3854066 -0.3845536 -0.8387969 126 126 126
-0.0970903662060591 -0.0847195718969856 -0.136254404881183 0.4503047 -0.2181605 -0.8658127 121 121 121
-0.0815932032314474 -0.0865774911477457 -0.128936868732111 0.2125391 -0.01941658 -0.9769596 155 155 155
0.15275085572119 0.0608557568403383 0.00571446376476781 0.8787664 -0.007847272 -0.4771876 130 130 130
-0.0864743540274562 -0.087020110955656 -0.130248918600653 0.3368024 -0.1110547 -0.9350032 92 92 92
-0.00437097890389472 -0.0756499294403202 -0.117138146109508 0.04022697 0.5491294 -0.8347687 154 154 154
-0.0842045824063539 -0.0846343620215958 -0.129588911288828 0.2710241 0.06640086 -0.9602796 169 169 169
-0.0777786081993656 -0.079543265064427 -0.12806732921289 -0.04530118 0.1456653 -0.9882962 222 222 222
-0.0902800893037464 -0.0896314487953597 -0.131330476723229 0.3650721 -0.2140201 -0.9060451 86 86 86
-0.115064109657151 0.0475642194215649 -0.0465066590911664 0.229326 0.5593588 -0.7965722 81 81 81
-0.0215155961541036 -0.110465516863398 -0.0944173285780259 0.3685783 -0.8473727 -0.3822426 83 83 83
-0.024570031650283 -0.102309100639195 -0.110225512460991 0.1774108 -0.7770932 -0.6038639 85 85 85
-0.0115389609719738 -0.101132968540789 -0.108629287538159 0.1805201 -0.8406753 -0.5105659 87 87 87
-0.00464420319411277 -0.10145649525544 -0.105636734404429 0.1844554 -0.8377965 -0.5138806 94 94 94
-0.0178919116584574 -0.104513275828008 -0.105128338349401 0.2359573 -0.8557876 -0.4603823 73 73 73
-0.0227076867082909 -0.107116171723934 -0.10311071656024 0.2126787 -0.8360114 -0.5058188 74 74 74
-0.141616071050989 0.0299092682905517 0.0433904810069738 -0.9909688 0.05599454 0.121842 78 78 78
-0.018907661833453 -0.108159743142627 -0.0990872429772672 0.3131233 -0.8655618 -0.3908409 76 76 76
-0.0180810255905902 -0.103101101587825 -0.10898433966419 0.1453323 -0.8412125 -0.5208072 49 49 49
-0.0220798593409901 -0.103090887006822 -0.107922454053695 0.1423184 -0.8205767 -0.5535335 64 64 64
0.0714433674641812 0.0921616038872779 -0.0032040128524875 -0.05161033 0.5515406 -0.8325499 65 65 65
-0.115201157256707 0.127860343442335 0.0538296820148322 -0.2851736 0.7187183 0.6341293 176 176 176
-0.0438339623909248 -0.111942065325528 -0.104642353048356 0.2696668 -0.8338289 -0.4816734 110 110 110
-0.0302304371792372 -0.114795016374734 -0.0951950973284575 0.3186952 -0.7628677 -0.5625533 101 101 101
-0.0317169617933876 -0.114548462713921 -0.0956978417860967 0.2837237 -0.7731158 -0.5672679 125 125 125
-0.0283664497251647 -0.115309564935927 -0.0929337005869295 0.3956894 -0.7250257 -0.5637088 90 90 90
