ply
format ascii 1.0
comment File exported by Rhinoceros Version 7.0
element vertex 474
property float x
property float y
property float z
property float nx
property float ny
property float nz
property uchar red
property uchar green
property uchar blue
end_header
0.0640624049234573 -0.0284754252474192 0.0128851249178894 0.0153587 -0.5580983 0.8296327 150 150 150
0.0687554711797076 -0.028006028324073 0.0132364388601195 -0.02160378 -0.559386 0.8286257 147 147 147
0.0616706948054762 -0.0253320987110611 0.0148656135532078 0.0304077 -0.550258 0.8344408 158 158 158
0.0636772666601755 -0.0260320507768931 0.0143839367694056 0.009253529 -0.5436766 0.8392438 149 149 149
0.0651814511303397 -0.026209719196451 0.0141539870006485 0.01194505 -0.5491241 0.8356555 115 115 115
0.0594504875222488 -0.024116553681047 0.0157885249264691 -0.00509467 -0.5519956 0.8338315 132 132 132
0.0602375094723144 -0.0227326674172922 0.0167608630241548 0.01200707 -0.5556402 0.8313362 108 108 108
0.0613911744113231 -0.0224862086808854 0.0167367950353136 0.01722136 -0.5603935 0.8280475 91 91 91
0.0664754333484461 -0.0239513160854109 0.0157264299748587 -0.01107177 -0.5578269 0.8298835 71 71 71
0.0642593730737104 -0.0212022851540661 0.0174860954821241 -0.002055245 -0.5651271 0.8250013 73 73 73
0.065649504571216 -0.0211527436221637 0.017712204208729 -0.001873295 -0.5719671 0.8202745 80 80 80
0.0664943353574312 -0.0222582050262805 0.0165405136512611 -0.01157758 -0.5640597 0.8256528 92 92 92
0.0480329958225347 -0.0199751614921552 0.0182827789591645 -0.009543786 -0.557747 0.8299562 119 119 119
0.0496267221950273 -0.0192417860650749 0.018964915285627 -0.006354577 -0.5523757 0.8335711 132 132 132
0.0513351968322837 -0.0190090097507033 0.0190996222553735 -0.008683762 -0.5527823 0.8332805 159 159 159
0.0481844785683152 -0.0161715437032686 0.0208377833012119 -0.01569395 -0.5502596 0.8348461 142 142 142
0.0516343843273956 -0.0203973624759866 0.0182777889192942 -0.00656326 -0.5603328 0.8282415 126 126 126
0.0541382703412605 -0.0193193757210894 0.0187311680063821 -0.0007290029 -0.5600949 0.8284281 54 54 54
0.0514477802660318 -0.0181890168626405 0.0199204525390387 -0.004490903 -0.5491933 0.8356833 149 149 149
0.0518094629981332 -0.0170489955070015 0.0203310869659123 -0.007144041 -0.5510793 0.8344223 154 154 154
0.0540897323283995 -0.0178165790966404 0.0198717847848873 -0.007959743 -0.5481746 0.8363261 72 72 72
0.0567329705662627 -0.0177176375113414 0.0200051744972428 -0.002957758 -0.5543051 0.8323082 175 175 175
0.0595187922674878 -0.0206546879440874 0.0179483897614299 -0.006266892 -0.5608649 0.8278837 124 124 124
0.0626185629055942 -0.0208430932560375 0.01812652715021 0.01427385 -0.5688905 0.8222894 100 100 100
0.0604715012337538 -0.0186629310877801 0.0192020548082047 -0.01583972 -0.5680371 0.8228505 90 90 90
0.0642356294868662 -0.0206331937168991 0.0181359992676604 -0.005307484 -0.5709609 0.82096 82 82 82
0.0637170744019637 -0.0188083563356075 0.0193937041126792 0.005604241 -0.5740241 0.8188192 151 151 151
0.0679465028785744 -0.0189598032923159 0.0193060899549242 0.004150643 -0.5670649 0.8236627 99 99 99
0.0635676372193483 -0.0171053945018795 0.0205892970933623 -0.004457975 -0.567996 0.8230192 152 152 152
0.0680348026723134 -0.0177296273941062 0.0199905811479725 0.01071061 -0.5710653 0.8208348 133 133 133
0.0534327305389435 -0.0161331338249494 0.0208614265650369 -0.01347758 -0.5508771 0.8344775 112 112 112
0.0460180871025559 -0.0153353306684489 0.0213881385591466 -0.01244992 -0.5528213 0.8332068 126 126 126
0.0495820139122456 -0.0124857296039884 0.0233606985137634 -0.01824426 -0.5651147 0.8248106 125 125 125
0.0508001404829863 -0.0138636912235033 0.0224313457805014 -0.0127549 -0.5592383 0.8289089 86 86 86
0.0510724677317693 -0.0133617726966753 0.0227048475875618 -0.01314197 -0.5631472 0.826252 85 85 85
0.0454636134396549 -0.0116933148362158 0.0239439197124014 -0.005997942 -0.5671346 0.8236033 127 127 127
0.047742824667933 -0.0119371187810098 0.0238724172091719 -0.01666457 -0.56604 0.8242093 115 115 115
0.0455065164224551 -0.0103724636517963 0.0249475491754828 -0.008654872 -0.5637437 0.8259045 131 131 131
0.0477541732603597 -0.0101379483839494 0.0249904113406848 -0.01924526 -0.5703607 0.8211688 123 123 123
0.0510247783018367 -0.0122234246491101 0.0236628672201405 -0.01433261 -0.5649785 0.8249812 113 113 113
0.0511565765122848 -0.00999117316170117 0.0250772859044337 -0.01331941 -0.5689293 0.8222786 160 160 160
0.0538290658124416 -0.0130803958721512 0.0229749607556659 -0.008544979 -0.5616337 0.8273419 108 108 108
0.0563167789135925 -0.0150315261879962 0.0216485383481512 -0.01076012 -0.5556614 0.8313391 90 90 90
0.0536671355213256 -0.0117602271756255 0.0241383487269031 -0.007491928 -0.568868 0.8223947 152 152 152
0.0555027771639476 -0.0107678126111694 0.0246153104184093 -0.00523173 -0.5692494 0.8221483 164 164 164
0.0556727912877597 -0.0120730214031409 0.0238392880241112 -0.007318808 -0.5642658 0.8255607 151 151 151
0.0598731983235323 -0.0157043854446561 0.0215066725304757 -0.02038417 -0.5556592 0.8311602 151 151 151
0.059781192575981 -0.0154311754240718 0.02141587494681 -0.01987713 -0.5557402 0.8311184 166 166 166
0.0620051631698986 -0.0164040147400422 0.0210134422616996 -0.01226442 -0.5564214 0.8308097 132 132 132
0.0665263809597656 -0.0155934272380911 0.0214526043864611 0.005592544 -0.5624708 0.8267983 97 97 97
0.0686684220860143 -0.015541671389538 0.0216321769144745 0.01586151 -0.5633391 0.8260735 137 137 137
0.0581395424311855 -0.0148289008955051 0.0219653589394583 -0.01469994 -0.5562995 0.8308518 163 163 163
0.0617388332610478 -0.0141505485635464 0.0228727156283401 -0.02662226 -0.5585556 0.8290398 146 146 146
0.0598884398021649 -0.0121743550251727 0.0237198298162657 -0.02190858 -0.5556605 0.8311206 161 161 161
0.0608687745706789 -0.012467391145395 0.0233765332870508 -0.02364747 -0.5545338 0.8318251 121 121 121
0.0588621379469019 -0.0118357274760335 0.0238353695749108 -0.01130793 -0.5581766 0.8296451 168 168 168
0.0583391972031144 -0.00863396760172619 0.0261628758155819 -0.00567303 -0.571865 0.8203281 149 149 149
0.0600898904827663 -0.0104960687615252 0.0248071022653201 -0.01605687 -0.5639284 0.8256676 175 175 175
0.0614122083449544 -0.0107579617636199 0.0247899868884943 -0.01945142 -0.5575119 0.829941 172 172 172
0.0617284262196285 -0.00950437704107232 0.0255197712190082 -0.01797143 -0.5670502 0.8234872 158 158 158
0.0651582049860515 -0.01491455485941 0.0221840926436377 -0.003924988 -0.5599324 0.828529 88 88 88
0.0683009761718996 -0.0141308449608194 0.0226364031001768 0.01624957 -0.5612856 0.8274627 147 147 147
0.0659384474471771 -0.0103878325635592 0.0251490333093508 -0.002458728 -0.5532072 0.8330401 151 151 151
0.0662407334681743 -0.00971886643953912 0.0255593459674622 0.003215183 -0.5437206 0.8392601 139 139 139
0.0700603432434797 -0.0327428140400957 0.010074947785075 0.09749776 -0.646897 0.756319 111 111 111
0.0743780077779959 -0.0324227434118249 0.0105367568053827 0.4791113 -0.731153 0.485662 128 128 128
0.0698398369969255 -0.0309099584065188 0.0109995909792312 0.04544573 -0.5760213 0.8161705 107 107 107
0.0704082008941813 -0.0301342269228229 0.0118425877606763 0.04136122 -0.5888453 0.8071868 108 108 108
0.0711170211356449 -0.0312025867724769 0.0112255614579186 0.05623344 -0.6060435 0.7934413 115 115 115
0.0743283781902138 -0.0307600483734554 0.0111990010516732 0.5446965 -0.6668984 0.5084803 144 144 144
0.0736337179862483 -0.0290390406996401 0.0124697513805294 0.3176865 -0.6155614 0.7212208 85 85 85
0.075127693206912 -0.0321461565272546 0.00939671957975172 0.7192367 -0.669064 0.1872218 70 70 70
0.0754908817225406 -0.0310980645222563 0.0107642816174008 0.7364016 -0.5439336 0.4023046 64 64 64
0.0764867814042116 -0.0291347891964006 0.00994433102051387 0.8703038 -0.477461 0.1208402 75 75 75
0.0773967375948494 -0.0281306310322015 0.0112655832643953 0.7799287 -0.6155366 0.1132516 71 71 71
0.0763536176958088 -0.0293194898312197 0.0123824580657607 0.6392486 -0.6703547 0.37681 124 124 124
0.0757783088912545 -0.0266680337654389 0.0140601743252372 0.3076123 -0.627856 0.7149626 138 138 138
0.0723823810162028 -0.0262340721677485 0.0144181041973743 0.1188729 -0.5891013 0.7992677 161 161 161
0.0761134945910662 -0.0255825724807586 0.0115427830941448 0.6896394 -0.6929188 0.210383 45 45 45
0.0788413691825287 -0.0242057074676351 0.00962637931136377 0.8473213 -0.4692143 -0.2487663 82 82 82
0.0791306150953304 -0.0242962998753811 0.0100057023331608 0.8407702 -0.4725375 -0.264223 68 68 68
0.0797032963792104 -0.0229876070121522 0.00932246542035822 0.8457438 -0.4448382 -0.2946803 47 47 47
0.0776681174946483 -0.026263571916742 0.0139555364773525 0.5945541 -0.6961847 0.4022839 71 71 71
0.0788979938866987 -0.0259411373112083 0.0142276537381334 0.6492075 -0.6901454 0.3197326 128 128 128
0.0786613835005028 -0.0238894032242497 0.0122244848092194 0.8308157 -0.5531815 -0.06111898 45 45 45
0.0717185312434294 -0.0248809669311664 0.0152517782253867 0.02509835 -0.5662818 0.8238295 91 91 91
0.0688439664549692 -0.0232384489182802 0.016316398992521 -0.0273103 -0.5591654 0.8286062 112 112 112
0.0715109853026026 -0.023549520850787 0.016381058563552 -0.01203407 -0.5501394 0.8349861 111 111 111
0.0711888714704703 -0.0221384862371973 0.0172257316609195 -0.01232025 -0.5516185 0.8340055 90 90 90
0.0731196373339205 -0.0228159453191062 0.0168049309186602 0.01589536 -0.5847877 0.8110306 142 142 142
0.0776949302594847 -0.0242142716897399 0.0158104772345344 0.356979 -0.7555661 0.5492594 139 139 139
0.0780698338882733 -0.0220266960923624 0.0170574433281628 0.1903958 -0.658034 0.7285196 96 96 96
0.0815801838482271 -0.0208045370533156 0.0121777110528316 0.8614079 -0.4519201 -0.2318292 61 61 61
0.0815187467815952 -0.0226082161332544 0.0162170236161225 0.6913038 -0.665415 0.2816414 94 94 94
0.0824584246118212 -0.0207371760815414 0.0165150970027342 0.7114751 -0.6475349 0.2729501 117 117 117
0.0724156694576714 -0.0203888601241011 0.0184028833154701 0.01008417 -0.5461629 0.8376183 132 132 132
0.0693266834899493 -0.0179384433460297 0.0199735490980942 0.01103633 -0.5654861 0.824684 111 111 111
0.0721649087125162 -0.016867222197156 0.0206543599781684 0.01592208 -0.55994 0.8283802 143 143 143
0.074065720588703 -0.0178482624160526 0.0197852153257985 0.01421801 -0.5527183 0.8332468 110 110 110
0.0758065651109394 -0.0185491339357657 0.0193874315711465 0.0005887585 -0.5530913 0.8331204 110 110 110
0.0787945287209855 -0.0198384692600594 0.01869892179964 0.08734023 -0.6001404 0.7951121 130 130 130
0.0774695784183326 -0.018361933336538 0.0194765841206668 -0.01441883 -0.5647646 0.8251261 108 108 108
0.0752350679577045 -0.0177081022250046 0.0198445897856982 0.004841504 -0.5598059 0.8286096 95 95 95
0.0786988395200763 -0.017902845550739 0.0197715994955452 0.01045824 -0.5950092 0.8036509 78 78 78
0.081314002710593 -0.0201658549344654 0.0104240527685845 0.8778281 -0.3580155 -0.3181866 43 43 43
0.0834702982222413 -0.0167653553948269 0.0116317587163394 0.8743263 -0.3976951 -0.2781945 69 69 69
0.0837661000626313 -0.0144547454008324 0.0107978005702179 0.8918324 -0.3799129 -0.2455632 112 112 112
0.0805637886019217 -0.0199190621935473 0.0123620436014492 0.8816149 -0.3970909 -0.255096 32 32 32
0.0813317361606387 -0.0175926051934886 0.0123629835616188 0.8765758 -0.3715817 -0.3058464 54 54 54
0.0834295015872266 -0.0177693228544417 0.0131804250131915 0.8592969 -0.4222186 -0.288687 84 84 84
0.0832965694653636 -0.0183860971431109 0.0146156120445525 0.8585216 -0.4849542 -0.1666133 85 85 85
0.0831296411019804 -0.00997511043249621 0.0104985271040698 0.8231 -0.4749652 -0.3113109 115 115 115
0.0849699469513756 -0.014756962862352 0.0131125857466444 0.8502656 -0.3907165 -0.3526883 78 78 78
0.0837346864613742 -0.0131200685736104 0.0131838899516413 0.828512 -0.4134193 -0.3776934 92 92 92
0.0861889869093226 -0.0110161408191503 0.0128634647879649 0.8164479 -0.4678658 -0.3383998 76 76 76
0.0836198984839998 -0.0122099959221121 0.0144608111381333 0.8351586 -0.3831183 -0.3946271 83 83 83
0.0868255938797651 -0.0101491275284649 0.0137748084299641 0.8125938 -0.4651418 -0.3511901 47 47 47
0.083122148168616 -0.0201884935502563 0.0166423021958406 0.7247835 -0.6531898 0.2191618 104 104 104
0.0843870903167914 -0.0164023198667131 0.0167805306896994 0.90294 -0.4291583 -0.02285985 51 51 51
0.0840096433979123 -0.0186839368180277 0.0190805142575636 0.5235735 -0.7398781 0.4224348 92 92 92
0.0854355766151289 -0.0159217199304799 0.0180100191330058 0.8512091 -0.5214196 -0.05970465 87 87 87
0.0843799204573554 -0.0142371358976906 0.0162126798147387 0.8623955 -0.4433823 -0.2443075 74 74 74
0.086114368898337 -0.0143019435719223 0.0180560628675916 0.8433192 -0.5103232 -0.1684722 86 86 86
0.0864323202015838 -0.014618711508711 0.0165059353225466 0.8656505 -0.453704 -0.2116644 91 91 91
0.0868762005809325 -0.0113803722981707 0.0148674528522546 0.84769 -0.4352948 -0.3032162 118 118 118
0.0873328346840183 -0.0109701651311817 0.0164166584572508 0.859088 -0.4404354 -0.2607382 72 72 72
0.0871359577276309 -0.0128181448377662 0.018488907556202 0.8443158 -0.5226925 -0.1179977 73 73 73
0.0876384996915376 -0.0123854690706842 0.020562154478483 0.814459 -0.5772473 0.05866977 84 84 84
0.0884719599481021 -0.0102844612402437 0.0179652120586865 0.8924398 -0.3971758 -0.2140153 69 69 69
0.0736819301413036 -0.0158681737314881 0.0212608570231339 0.01556172 -0.570874 0.8208902 115 115 115
0.0696225359959199 -0.0143088448490282 0.0222244025878767 0.01062285 -0.5676499 0.8232015 132 132 132
0.0730423141607655 -0.0152095835421902 0.0215356581445119 0.01704675 -0.5723181 0.8198545 128 128 128
0.0741116517742735 -0.0143411314586893 0.0222641510336426 0.00481929 -0.5843371 0.8114967 130 130 130
0.0693685400531141 -0.0124879958117302 0.0237756959480254 0.01048891 -0.5587679 0.8292577 178 178 178
0.068843479126218 -0.0119885840500914 0.0241413676496654 0.01164514 -0.5581448 0.8296618 171 171 171
0.0699795668402197 -0.0106035204517391 0.0249461544867587 0.01113632 -0.550405 0.8348235 178 178 178
0.0762996074830067 -0.0144258940855072 0.0224207671071011 -0.01063274 -0.5798661 0.8146424 153 153 153
0.0783267845118232 -0.014260306263946 0.0223499296003455 -0.02114744 -0.5761493 0.8170708 144 144 144
0.0798431145140013 -0.0145406558570195 0.0224274914204927 -0.02072319 -0.5745906 0.8181786 150 150 150
0.0795094812899295 -0.0130500086500422 0.023397564371087 -0.01342695 -0.5716448 0.8203913 150 150 150
0.0762013804600277 -0.0111922827769505 0.0245198978271665 -0.01239794 -0.5653974 0.8247255 148 148 148
0.0797116526634571 -0.0116602384466152 0.0243782616194407 -0.01450459 -0.5643564 0.8254039 171 171 171
0.0786842455390686 -0.0107523502506931 0.0249499905713969 -0.01693623 -0.5596859 0.8285317 145 145 145
0.0842538120147127 -0.0153132223049101 0.0218856849824014 0.4017591 -0.7384653 0.5415335 145 145 145
0.0819246697769542 -0.0130881368377233 0.0231209870914045 0.005037657 -0.5712847 0.8207365 142 142 142
0.0826075043830379 -0.01263078532426 0.0236217761321818 0.1360425 -0.5854309 0.7992266 147 147 147
0.0816006498630935 -0.0106903582922563 0.0247639927006629 -0.006073274 -0.5626118 0.8266989 147 147 147
0.0841059650076139 -0.0101667650140003 0.0252321015661036 0.09587441 -0.5592885 0.8234103 110 110 110
0.0869860865559708 -0.0142121293209052 0.022748943488791 0.5943797 -0.6316774 0.4976911 153 153 153
0.088342497068989 -0.0114266255307492 0.0208810463150309 0.824894 -0.5652466 -0.006797459 47 47 47
0.087495489759513 -0.0110827802562657 0.0245281991802555 0.4636296 -0.6397334 0.6130161 99 99 99
0.0867508221967936 -0.0107967297645972 0.0249395449742217 0.3376285 -0.6177393 0.7102149 134 134 134
0.0894375682267032 -0.00987779431676017 0.0255748496690036 0.4009809 -0.6906131 0.601887 130 130 130
0.0239460169877805 -0.00815912003951036 0.026389942974695 0.009434701 -0.5467247 0.8372593 116 116 116
0.0277718456691249 -0.00732746084582392 0.0263856965410819 -0.005159745 -0.5376208 0.8431709 112 112 112
0.0323773905926399 -0.00840728720157824 0.0261054283427105 -0.008802039 -0.5432409 0.8395307 238 238 238
0.0221632800328657 -0.00579560013258651 0.0275335044117846 0.01546731 -0.555077 0.8316551 140 140 140
0.024261015190234 -0.00633604702405965 0.0273024876559458 0.01761822 -0.5499173 0.8350333 132 132 132
0.0260555737362353 -0.00387098156012067 0.0287149540141508 0.01062457 -0.5688313 0.8223855 99 99 99
0.0277655335966007 -0.00443523664221168 0.0283477070025492 -0.00334816 -0.5633659 0.8262007 95 95 95
0.0319188282095286 -0.00704215586051626 0.0269730158608276 -0.0157477 -0.5448535 0.8383833 221 221 221
0.0339599837531628 -0.0069448590849388 0.0268610955934928 -0.01250587 -0.5552629 0.8315809 239 239 239
0.0300903267784682 -0.00463332890662838 0.0282306083664444 -0.0163931 -0.5620532 0.8269386 110 110 110
0.0319282260405198 -0.00440039310641349 0.0287069368011552 -0.02927501 -0.5709295 0.820477 101 101 101
0.0267136291169821 -0.00263928500113431 0.0295354295960582 0.006839578 -0.5879452 0.8088719 83 83 83
0.026152900860017 -0.00112685230463239 0.0310185036170284 0.003615356 -0.5910909 0.8065969 152 152 152
0.0237233617929387 0.000175319131386575 0.031956948751949 -0.01513389 -0.5733533 0.8191684 149 149 149
0.0251800075440181 0.000976705517382381 0.032434240936029 -0.01243938 -0.5732749 0.8192687 155 155 155
0.0284925277699704 -0.00345366964672822 0.0288033063396412 -0.01080594 -0.5805557 0.8141488 98 98 98
0.0301003445254415 -0.00209809575684061 0.03019990106634 -0.01974379 -0.5813038 0.8134471 157 157 157
0.033231558526889 -0.00284800034400312 0.0298002825427989 -0.03199487 -0.5773177 0.8158925 107 107 107
0.0317419199559841 -0.00099415751034182 0.0311253363322958 -0.02104452 -0.5811848 0.8134995 148 148 148
0.032591844004636 -0.00193907066988541 0.0305765895695836 -0.02919293 -0.5770121 0.8162137 153 153 153
0.0310375191831116 0.000379150735666078 0.0321755414262852 -0.007223618 -0.5717126 0.8204222 133 133 133
0.036013039159291 -0.0080319716938243 0.0262195278304215 -0.004744071 -0.5541125 0.8324283 209 209 209
0.0374356556245878 -0.0083920340167476 0.0259166204647314 -0.007856147 -0.5519665 0.8338293 106 106 106
0.041476917593144 -0.00847140212945185 0.0261392012956253 -0.006057583 -0.561934 0.8271599 230 230 230
0.0435200216361205 -0.0085108457604226 0.0261137483227824 0.007564576 -0.5618979 0.827172 212 212 212
0.0355631244978607 -0.00653013684057935 0.027082672790024 -0.01003078 -0.5565003 0.8307868 228 228 228
0.037114808121169 -0.00743661800499773 0.0266925546214386 -0.007364175 -0.557339 0.8302524 226 226 226
0.0358321303103297 -0.00434321757503264 0.0286677709714829 -0.0182013 -0.5708258 0.8208694 185 185 185
0.0376714222990193 -0.00497533510152737 0.0282281417935484 -0.01267668 -0.5686858 0.8224572 233 233 233
0.0417144848252988 -0.00614745065075173 0.0273256982336785 -0.01129272 -0.5640941 0.8256333 232 232 232
0.041851206185286 -0.00596503832820383 0.0276446776451328 -0.004886685 -0.5646302 0.8253295 244 244 244
0.0453612394799716 -0.00627364402620811 0.0276854675711977 -0.00804239 -0.5621306 0.8270094 163 163 163
0.0357147684900223 -0.00261293661729389 0.0300251347855956 -0.01828281 -0.5730439 0.8193207 123 123 123
0.0386111289200497 -0.00360653603371186 0.0296104178455963 -0.009091947 -0.5721026 0.8201317 244 244 244
0.0401578643024521 -0.00252384209965106 0.0301561864158032 -0.005553047 -0.5656675 0.8246147 237 237 237
0.0355236215650327 0.00146302243202345 0.032637767032677 1.317307E-05 -0.5430124 0.8397247 118 118 118
0.0361885568191558 -0.000334222417903374 0.0316214368625721 -0.01196653 -0.5624735 0.8267288 180 180 180
0.0416851740360462 -0.00273187563917532 0.0300401160176806 -0.00645714 -0.5694886 0.8219739 227 227 227
0.0439704424342859 -0.00231513510838 0.0302729666123973 0.00136656 -0.5649558 0.82512 245 245 245
0.0436186854870826 -0.00135955769074381 0.0307451281047154 0.00193455 -0.5677138 0.8232238 241 241 241
0.0451233581427002 -0.00158299077903556 0.0307885689019129 -0.008938767 -0.567662 0.8232132 226 226 226
0.0396972122858594 -0.000278039124027796 0.0314346699554269 -0.008999265 -0.5567675 0.8306196 209 209 209
0.0429317122140893 0.000414501071004936 0.0321830143637284 -0.0008244353 -0.5551689 0.8317372 228 228 228
0.0460481975843274 -0.00793400688189283 0.0264983209726634 -0.01328103 -0.5638461 0.8257731 129 129 129
0.0488731840926797 -0.00785704952841548 0.0262668856797963 -0.01523313 -0.5613257 0.8274548 83 83 83
0.0478941201792691 -0.00452000106161199 0.0287014275789227 -0.01343548 -0.560209 0.8282423 78 78 78
0.0499863025036493 -0.00603215414908498 0.0278392022350025 -0.01684069 -0.564831 0.8250348 135 135 135
0.0535846241185656 -0.00515608672304446 0.0284505111904575 -0.02190284 -0.5602176 0.8280559 151 151 151
0.0562359188673121 -0.00525470243940673 0.0286444860969238 -0.0100975 -0.5590426 0.8290775 156 156 156
0.0480925889147783 -0.00247499552839248 0.0301713054322409 -0.009841122 -0.5592299 0.8289542 118 118 118
0.0464644367997464 8.33051779485228E-05 0.0320186713378888 0.001859524 -0.5624878 0.8268035 182 182 182
0.0474888125506414 0.000382761220155459 0.0318808797517828 -0.001832295 -0.5653955 0.8248179 119 119 119
0.0528744572868232 -0.00342740967950039 0.0295465939248775 -0.02073377 -0.5544107 0.8319849 166 166 166
0.055835325705154 -0.0025648028457298 0.030375176223492 -0.01382646 -0.5518863 0.8338047 145 145 145
0.0677610193936284 -0.00825678525854934 0.0264374841603864 0.00299576 -0.5494998 0.8354885 120 120 120
0.0595810818083242 -0.00690331692180823 0.0273475918551455 -0.005021924 -0.5649629 0.8251011 176 176 176
0.0584395705487402 -0.00577939447108522 0.0281247248161487 0.001427917 -0.5625954 0.8267311 147 147 147
0.0584814128303504 -0.00400299745582966 0.0293565876607128 0.002143709 -0.555854 0.8312772 100 100 100
0.0616724206265888 -0.00440349771003268 0.0291698515993736 -0.0007792533 -0.5548583 0.8319445 120 120 120
0.0640587108958708 -0.00507198806330056 0.0286953031060643 0.01018056 -0.5572485 0.8302833 108 108 108
0.0587542820708018 -0.00368340866843153 0.0296299374404197 0.002143709 -0.555854 0.8312772 152 152 152
0.0683241771717742 -0.00365483701541147 0.0294808942581141 -0.006989281 -0.5765541 0.8170291 125 125 125
0.0595667662588482 -0.00011303659650419 0.0319104586382508 -0.003524753 -0.5499683 0.8351781 139 139 139
0.0620129812333512 -0.000257745894038597 0.0319679415997421 -0.01397499 -0.5572994 0.830194 140 140 140
0.0629450487349064 -0.00312395789474373 0.0294882758671792 -0.00407885 -0.5588496 0.829259 114 114 114
0.063944464774131 -0.00139053017086987 0.0310530710731736 -0.01250339 -0.5627901 0.8265052 104 104 104
0.0638279146447776 -9.29095466165597E-05 0.0320416952553363 -0.01474635 -0.5632318 0.8261673 132 132 132
0.0666771208057528 -0.000562565017722005 0.0315819062137316 -0.007091437 -0.573195 0.8193883 134 134 134
0.0230139572576076 0.00176724843906673 0.033144060066095 -0.02502631 -0.5602887 0.8279192 170 170 170
0.0379465873015254 0.00165980887394224 0.0330183676596471 -0.01016267 -0.5434505 0.8393797 114 114 114
0.0242880754443591 0.00254551558073535 0.0334620663705 -0.01987638 -0.5531257 0.8328606 171 171 171
0.0238989643523744 0.00338693764935105 0.0341012831359199 -0.01796561 -0.5550921 0.8315948 174 174 174
0.0272943542087303 0.00323762671919936 0.0339828435348985 -0.001335797 -0.5529858 0.8331896 136 136 136
0.0239154765330598 0.00614274049558716 0.0356985712310505 -0.01755138 -0.5598956 0.8283772 154 154 154
0.0236410391769484 0.00693107374836477 0.036580641640055 -0.01868211 -0.5644386 0.8252636 165 165 165
0.0260137535049165 0.00542002346904491 0.0354674024975567 -0.009153627 -0.5536349 0.8327092 143 143 143
0.0298475310626656 0.00276688196104813 0.0337740883001478 0.01487477 -0.5571095 0.8303058 166 166 166
0.0316687997486569 0.0034328876012828 0.0340001449012406 0.01857074 -0.5524461 0.8333417 147 147 147
0.0321800689000922 0.00580289084740615 0.0354749552690789 0.02374469 -0.5524033 0.8332387 124 124 124
0.0324829906088957 0.00635014717119553 0.0360978357144486 0.02056697 -0.5475159 0.8365425 111 111 111
0.031297121790562 0.00693871339447649 0.0365555771493002 0.01968294 -0.5491218 0.8355106 150 150 150
0.0301541192783819 0.008484097570848 0.0373330618346242 0.01860176 -0.555872 0.8310598 142 142 142
0.0226311791186302 0.0103288909516037 0.0389393224053615 0.002453733 -0.5722483 0.8200768 148 148 148
0.0250930018775457 0.00974430897267375 0.03825208391724 0.003003791 -0.5660749 0.8243483 146 146 146
0.0257287576562435 0.0109075370324178 0.0391864509582809 0.01453159 -0.5567367 0.8305619 109 109 109
0.0238602605471727 0.0108792686738697 0.0391204868178873 0.01202472 -0.5636837 0.8259032 148 148 148
0.0249073906576771 0.011519937225338 0.0396665331899826 0.01545794 -0.5581093 0.8296235 122 122 122
0.0260434015054027 0.0130262916946813 0.040691690017906 0.01889836 -0.5544773 0.8319842 120 120 120
0.0318983534905661 0.0134082864572651 0.0407072359857002 0.01034116 -0.5670798 0.8235979 80 80 80
0.0338124413016239 0.013413930812645 0.0407617380200457 0.005306339 -0.5731447 0.819437 98 98 98
0.037617732045212 0.00263061563903155 0.0335360874956415 -0.01321112 -0.5419835 0.8402852 141 141 141
0.0354467109507079 0.0056758294081487 0.0355921612407974 0.005981587 -0.5459082 0.8378237 92 92 92
0.0372225369300647 0.00609132734564555 0.0354990715819376 -0.006324397 -0.5448242 0.8385264 115 115 115
0.0394766478590531 0.00711118060135441 0.0364426233216299 -0.02369607 -0.5496658 0.8350485 55 55 55
0.0382681285122777 0.00750624167745462 0.0366381961525251 -0.01996887 -0.5500631 0.8348843 75 75 75
0.0417215533117363 0.00369948255270924 0.034260831155635 -0.01681148 -0.547686 0.8365151 132 132 132
0.0398703655754784 0.00423139105480275 0.0346738088101122 -0.02337162 -0.5432519 0.8392444 125 125 125
0.0440199955988168 0.00301399093894084 0.0338471414633459 -0.005848506 -0.5578812 0.8299002 209 209 209
0.0450192871847257 0.00456551758656287 0.0348953035522918 -0.01383413 -0.551472 0.8340787 219 219 219
0.0416418095354691 0.00692396594794176 0.0364358817578254 -0.02600876 -0.5533774 0.8325245 66 66 66
0.0437863337553184 0.00579157452934354 0.035809357589639 -0.01599885 -0.5521895 0.8335651 106 106 106
0.0455783683652835 0.00593362439033529 0.0358223474233329 -0.01520371 -0.5499156 0.8350818 124 124 124
0.035486096964148 0.00831802331962395 0.0369158963495153 0.008416222 -0.557254 0.8302994 93 93 93
0.0367623060195976 0.00841265022847648 0.0372789003604671 -0.001453051 -0.5590746 0.829116 92 92 92
0.0380820260804207 0.00932742299408751 0.0379615408070158 -0.01178665 -0.5649967 0.825009 95 95 95
0.0430504296949845 0.00879580009852865 0.0374533980085782 -0.01415982 -0.5575634 0.8300136 72 72 72
0.0359357911837952 0.0113479165602831 0.0393103640573553 -0.002730908 -0.5656033 0.8246729 80 80 80
0.0365706423477348 0.0129438052325088 0.0405413193430646 -0.001628848 -0.5739459 0.8188916 115 115 115
0.0391208494031545 0.013748541102369 0.0409716354180792 -0.01864657 -0.5631236 0.8261622 62 62 62
0.0399490943412908 0.00992521961867587 0.0382330644046937 -0.02838372 -0.5699921 0.8211598 60 60 60
0.044050403807157 0.0102559269217031 0.0388204803415163 -0.01094199 -0.5619527 0.827097 83 83 83
0.04003670419928 0.0115651927141592 0.0393280441008796 -0.0229961 -0.5634581 0.8258245 99 99 99
0.0452772515924811 0.011853879981198 0.03968609376419 -0.009811179 -0.5581101 0.8297089 98 98 98
0.0426539917442099 0.0133261751781728 0.0409211580480775 -0.01650353 -0.5693592 0.8219231 75 75 75
0.0438976804835356 0.0134711066778013 0.0409561292680071 -0.004429503 -0.5634661 0.8261273 92 92 92
0.0481705918311177 0.00143206658811201 0.0329290347169701 -0.006128946 -0.5649376 0.8251109 103 103 103
0.049597789243558 0.00183093593076578 0.0333072881624774 -0.001652053 -0.564037 0.8257478 120 120 120
0.0538441679178048 0.00140351376171566 0.0327849717656001 0.0008191615 -0.5533367 0.8329573 105 105 105
0.0605656515070727 0.00183308884538191 0.0333690962501916 -0.02135013 -0.5507112 0.8344228 114 114 114
0.068177172716545 0.0014002715822562 0.0330854788160674 -0.0009190784 -0.5548856 0.8319261 125 125 125
0.0493776529875669 0.00507971328414558 0.035011633034038 -0.002743631 -0.5565855 0.8307858 146 146 146
0.0471135073578113 0.00548272905594283 0.0354858035815446 -0.01734476 -0.549037 0.835618 109 109 109
0.0478849403665551 0.0072043064585553 0.0367964380542088 -0.0173056 -0.5482418 0.8361408 85 85 85
0.0502806657466079 0.0057424436919451 0.0358920798656182 -0.001738371 -0.5493373 0.8355989 116 116 116
0.0521305503178655 0.00378936229670512 0.0347031971801314 0.01216416 -0.5570478 0.8303913 139 139 139
0.0553668171379869 0.00327543106950978 0.0340377944723124 0.00439414 -0.540853 0.8411056 103 103 103
0.0570015291165462 0.00610424171060797 0.0358381325785077 0.003715957 -0.5610204 0.8277937 36 36 36
0.0554787305178062 0.00789109658665843 0.0371783653100819 0.01271566 -0.5772397 0.8164757 43 43 43
0.0473351396845163 0.00848946003445106 0.0375387580101225 -0.01569813 -0.5492598 0.8355042 102 102 102
0.0503434601845991 0.00840709629587222 0.0376715261582718 -0.005209887 -0.5514343 0.8342021 122 122 122
0.046099027639706 0.0111729811988047 0.0393654638207108 -0.01314285 -0.5594173 0.828782 75 75 75
0.0482858435008389 0.0115210304882674 0.0396363675473479 0.004949855 -0.5465589 0.837406 52 52 52
0.0476202403243575 0.0136713045371271 0.040949204663938 0.01518281 -0.5619208 0.8270516 53 53 53
0.0493335462545237 0.0115926864119048 0.0394983567940952 0.005648665 -0.5460314 0.8377457 62 62 62
0.0497404068613867 0.0133882179668604 0.0409576333409454 -0.006648065 -0.5639401 0.8257889 83 83 83
0.0532533130821187 0.0114220871274405 0.0394020142437848 -0.02021739 -0.5589771 0.8289366 58 58 58
0.0558935389289945 0.0130465397966792 0.0409038347666171 -0.02301659 -0.5661106 0.8240079 92 92 92
0.0584213127694464 0.0026924785072544 0.0335092947941152 -0.00490197 -0.5375414 0.8432232 139 139 139
0.0580093487970306 0.00360219943134776 0.0341485902832372 -0.000230005 -0.5374659 0.8432854 128 128 128
0.0588720597347265 0.00506218406704351 0.035196845182376 -0.02750216 -0.547907 0.836087 54 54 54
0.0615637629404726 0.0037947874923342 0.0344479763447519 -0.0367552 -0.5434623 0.8386285 102 102 102
0.0584152019365733 0.0053800208753283 0.0349698371120822 -0.02712889 -0.5499917 0.8347294 138 138 138
0.0584559709571715 0.00779389343530934 0.0368402467454923 -0.01363337 -0.5768195 0.8167579 46 46 46
0.0600061241910304 0.00761614266223309 0.0369444337782702 -0.01469579 -0.5715069 0.8204657 48 48 48
0.0661445566050483 0.00362591322661054 0.0346394031964055 -0.008058794 -0.5505712 0.8347493 109 109 109
0.0670813104199364 0.00230797521277359 0.0336345120441694 -0.005919242 -0.5507698 0.8346362 131 131 131
0.0685390727268564 0.00258566333669608 0.0337695797977231 0.0009327983 -0.5514706 0.8341938 105 105 105
0.0639073657485909 0.00556646097614899 0.0358971344001604 -0.02941992 -0.5473481 0.8363878 103 103 103
0.0676687377048322 0.00481466882900539 0.0355042933318462 -0.01181334 -0.5446334 0.838591 104 104 104
0.0635280413470105 0.00714809178925468 0.0369584923325379 -0.03435877 -0.5430897 0.8389714 78 78 78
0.0680085567028677 0.00574947035966955 0.0360515039595567 -0.007885758 -0.5430512 0.8396626 127 127 127
0.0577934987345379 0.00852069007167366 0.0372974275388156 -0.007538266 -0.586071 0.8102246 50 50 50
0.0618276048023838 0.00844120829373185 0.0377023036284603 -0.01618249 -0.5677305 0.8230554 40 40 40
0.0622055602178877 0.00918628539215904 0.0381733488226392 -0.01554361 -0.5745638 0.8183122 97 97 97
0.0636489914286482 0.00894784719961039 0.0378370921988326 -0.01468853 -0.5560052 0.831049 59 59 59
0.0621587643879611 0.0111114536889632 0.0392353227599505 -0.000322561 -0.5796093 0.8148945 52 52 52
0.0578574317277938 0.0109800228702867 0.039486849447295 -0.01203833 -0.5737947 0.8189107 91 91 91
0.0672937224185368 0.00959621164848279 0.0384139689792549 -0.01617092 -0.5477544 0.8364829 50 50 50
0.0683844133135683 0.0110341146454531 0.0394505268752409 -0.018936 -0.5599744 0.8282935 66 66 66
0.0639629079872015 0.0112717761189967 0.0392513519748485 -0.0004570157 -0.5676711 0.8232553 74 74 74
0.0638241020978865 0.0123644290727217 0.0400727403904139 0.0118576 -0.5688171 0.8223786 82 82 82
0.0681086267884803 0.0120809335263371 0.0400669690809956 -0.0216938 -0.5618198 0.8269752 61 61 61
0.0682156144971571 0.0133700258622891 0.0411434084111732 -0.01399653 -0.5648227 0.8250936 100 100 100
0.0664190472565842 0.0137838150618398 0.0413010125128335 -0.004112878 -0.567392 0.8234376 43 43 43
0.0244904092206748 0.0145704593058008 0.041538061884118 0.01332574 -0.5426717 0.8398392 97 97 97
0.0240778473923275 0.015730662406745 0.0422914929990652 0.01395666 -0.5463107 0.8374663 76 76 76
0.0255561923284349 0.0169308372294834 0.0429513817354131 0.003420051 -0.543836 0.8391846 95 95 95
0.0241659197412161 0.0171656910569644 0.0432723750389905 0.01040839 -0.5428041 0.8397948 109 109 109
0.0305515669417669 0.0144519395345575 0.0413022810846109 0.005188411 -0.5565875 0.8307728 113 113 113
0.029319777079051 0.0152680486976068 0.0419881320021115 0.002434193 -0.5419283 0.8404212 128 128 128
0.0312332832178726 0.0158198320955104 0.0428519911022264 -0.005994389 -0.5437766 0.8392086 68 68 68
0.0280992680131522 0.0178148282564807 0.0439514225028858 0.001382543 -0.5408087 0.8411445 97 97 97
0.0307750318089752 0.0166842356215275 0.0429900107023433 -0.008198227 -0.5420025 0.8403369 55 55 55
0.0359255864387413 0.0161530947770774 0.0424816332641577 -0.001701783 -0.5580751 0.8297887 78 78 78
0.0370661378523138 0.0156099751434949 0.0421151310838978 -0.001692308 -0.5626602 0.8266866 112 112 112
0.0395503970431292 0.0153439902652028 0.0419977777815536 -0.01739641 -0.5601143 0.8282326 76 76 76
0.0412574853469878 0.0164873854385184 0.0431586147856697 -0.02298399 -0.5616319 0.8270679 65 65 65
0.0437195200181444 0.0158117658285482 0.0424257177599748 -0.005528183 -0.5608091 0.8279267 60 60 60
0.0406165642229812 0.017624522998649 0.0435249578302358 -0.02600347 -0.557604 0.8296997 101 101 101
0.0436712120397216 0.0171779435211804 0.043429502537344 -0.008558443 -0.5583293 0.8295753 57 57 57
0.0230822873644789 0.0359626686956555 0.0413069884529867 -0.1062986 0.6909972 0.7149989 52 52 52
0.0226945886693368 0.0365757505090776 0.0425156561411773 -0.1054718 0.693502 0.7126926 28 28 28
0.0244801388411293 0.0343924968130879 0.0437875578487752 -0.054934 0.6479288 0.7597174 47 47 47
0.0247007316832488 0.0364445645150733 0.0430142491739477 -0.0653675 0.65719 0.7508851 63 63 63
0.0255045109006651 0.0379526847142196 0.0408087763274732 -0.09143124 0.7093205 0.6989312 24 24 24
0.0258914476645167 0.0348979162851865 0.0439228745538143 -0.04438187 0.6457551 0.7622536 53 53 53
0.0279397606549909 0.0356332488632953 0.0438069148399201 -0.002019935 0.6238292 0.781558 63 63 63
0.0281274572646777 0.0337200218496445 0.0435088641936012 0.0408336 0.6188762 0.7844265 54 54 54
0.0277992989887226 0.0362265930943979 0.0421897750185052 -0.02113867 0.6437237 0.764966 71 71 71
0.0233487662570466 0.0325191021503862 0.0457014969205175 -0.04401494 0.6183283 0.7846864 66 66 66
0.0296938632335517 0.0354112984654021 0.0429613734180478 0.01773981 0.6144127 0.7887853 62 62 62
0.0291281235332965 0.0343154864685179 0.0434169241342177 0.02555019 0.6122403 0.7902588 71 71 71
0.0298102987180839 0.0349551837627657 0.0438267223074769 0.02307837 0.6106158 0.7915907 80 80 80
0.0317575005586184 0.0351436353159397 0.0433572514305921 0.01390479 0.6305868 0.7759941 66 66 66
0.0323630308393454 0.0346439213640071 0.0436408839142493 0.01461737 0.6303491 0.7761742 89 89 89
0.0714344392425779 0.032111494130181 0.0501051879155628 -0.1553972 0.3383608 0.9280968 29 29 29
0.0353765140078162 0.0375264993639095 0.040558703302782 0.01251138 0.7209793 0.6928437 43 43 43
0.0379116116070599 0.0371921456698527 0.0406964326943054 -0.0110189 0.7097458 0.7043717 37 37 37
0.0395543160915368 0.0329480987050488 0.0444049242926415 -0.002456537 0.6698533 0.7424894 46 46 46
0.0415254503157874 0.0340328146256669 0.0440387014167298 0.01323915 0.6529062 0.7573231 84 84 84
0.0412913245011315 0.0354461654007611 0.0424907221927619 -0.01009325 0.6581486 0.7528204 37 37 37
0.0435262090557575 0.035087701453501 0.0430951736956995 0.008820255 0.6635312 0.7480966 65 65 65
0.0298698865644536 0.0190159835923843 0.0444058574434343 -0.006131679 -0.5493746 0.8355537 103 103 103
0.0314529464788467 0.0191915782940723 0.0444039604691301 -0.003900951 -0.5502488 0.8349916 89 89 89
0.0249792652126253 0.0204475512103492 0.0453703695501518 0.01761986 -0.5516869 0.8338651 66 66 66
0.0256623121045361 0.0208137458716831 0.0458255148551025 0.01905188 -0.5535807 0.8325776 97 97 97
0.0255887825805106 0.0231820443937847 0.0473314619105644 0.02285746 -0.4713603 0.8816445 106 106 106
0.0276774408354972 0.0232338404408398 0.0473439940860175 0.01295148 -0.4594809 0.8880932 75 75 75
0.0265648237108378 0.0249158712605226 0.0483342225986481 0.005945366 -0.1801159 0.9836274 85 85 85
0.0286708696749578 0.0202764850495505 0.045092027453239 -0.006706929 -0.5482152 0.8363104 69 69 69
0.0301252605271474 0.02199645018274 0.0461245428980436 -0.004315762 -0.5617539 0.8272931 73 73 73
0.0313590956021281 0.0204211529386354 0.0450886787519578 -0.006258977 -0.5538714 0.8325787 105 105 105
0.0317059525336005 0.0216063606236462 0.0459399082606683 -0.008970245 -0.554411 0.8321947 106 106 106
0.031642353477654 0.0231544948874494 0.0473388120789487 -0.03293578 -0.490124 0.8710302 86 86 86
0.0338834041049076 0.0229789759485696 0.0472294249357642 -0.02087509 -0.5771622 0.8163627 116 116 116
0.0315549035494471 0.0250671777084756 0.0486469136281667 -0.07316715 -0.1816439 0.9806386 83 83 83
0.0394130550062455 0.0192302202457566 0.0446671503382093 -0.01821426 -0.5639051 0.8256387 121 121 121
0.0423675084163051 0.0193831952291748 0.0448001907685151 -0.02077358 -0.5637046 0.8257152 93 93 93
0.0450357924533491 0.0183207191716755 0.0441122743332983 -0.007337551 -0.5619069 0.8271679 67 67 67
0.0451488333760004 0.0187992403697282 0.0444998892195224 -0.01300735 -0.561973 0.8270533 98 98 98
0.0349602095046144 0.0202492857025679 0.0454484765250518 -0.01650741 -0.5692175 0.8220212 110 110 110
0.0361423093647653 0.0214826925910775 0.0460859837520109 -0.02217403 -0.5767975 0.8165861 103 103 103
0.0381900540807036 0.022991646873919 0.0473150288466437 -0.009199948 -0.5756869 0.8176185 92 92 92
0.0374574904071467 0.0246747027858906 0.0485022531271711 -0.03235322 -0.2699043 0.9623435 47 47 47
0.0416684342606675 0.0214077995735583 0.0463066448432493 -0.02407217 -0.5710878 0.820536 87 87 87
0.0438464907410885 0.0204577922818364 0.0456650370278899 -0.01219911 -0.5619603 0.8270742 123 123 123
0.0457573324662799 0.0219059060500014 0.0465296509428592 -0.01277275 -0.5657911 0.8244497 79 79 79
0.0441833451005564 0.0228045420932653 0.0471704217557039 -0.009040602 -0.5712186 0.8207482 66 66 66
0.0402849368884119 0.0237266645567351 0.0478142411965852 -0.02902915 -0.4275013 0.9035485 48 48 48
0.0409697290320659 0.0230911081724858 0.0473115246234164 -0.02638797 -0.5299366 0.8476266 87 87 87
0.0410359594449874 0.0241161370290919 0.0479730826753355 -0.03499484 -0.3577363 0.9331667 71 71 71
0.0435196374517823 0.0242826047298338 0.0484029697551005 -0.02879317 -0.4703881 0.8819898 94 94 94
0.0434111223267619 0.0253450595443253 0.0491635195637973 -0.04668123 -0.3221267 0.945545 114 114 114
0.0234196686664276 0.0297382100325891 0.0471270177305983 -0.06463335 0.3998896 0.9142816 54 54 54
0.0252145068480778 0.0293780828793428 0.0481573823663417 -0.06033657 0.3589823 0.9313921 53 53 53
0.0327409651593298 0.0312250322423835 0.0461440263425543 -0.02237805 0.5493088 0.8353197 43 43 43
0.0325169089672714 0.0303578018073026 0.0469638906688368 -0.04440386 0.5254671 0.8496544 50 50 50
0.0282351045532487 0.0298434120697578 0.0474247115468118 -0.01018098 0.4561968 0.8898207 39 39 39
0.0281343334711792 0.0320781258252234 0.0450569469652682 0.008161882 0.629011 0.7773535 56 56 56
0.0325952087177743 0.0335502161253229 0.044414403764134 -0.001424606 0.6394097 0.7688649 81 81 81
0.0374984611780409 0.0267245428173319 0.049688783691489 -0.09471945 -0.1144316 0.9889053 87 87 87
0.0362116059652755 0.0296387680434427 0.0480066902283264 -0.02562623 0.3364645 0.9413474 69 69 69
0.0366194324347644 0.0301419038576747 0.0472318543901763 -0.0005520091 0.4109163 0.9116729 69 69 69
0.0387603991301932 0.0303761778540654 0.0471837184143795 0.06466684 0.4252348 0.9027699 72 72 72
0.0392221451316508 0.0291456833052801 0.0489138418114298 -0.002191716 0.2914684 0.956578 67 67 67
0.0358441935414482 0.0340917773759495 0.0442131830216496 0.009153033 0.6568983 0.7539237 71 71 71
0.0339256744205216 0.0315016424110315 0.0465984499716292 -0.01615905 0.6104978 0.7918531 65 65 65
0.0452689625636546 0.0323112742194641 0.0451261662918812 -0.02313971 0.5938959 0.8042091 28 28 28
0.0455461774448076 0.0141318709858496 0.0414193853521172 0.007127602 -0.5645771 0.8253496 83 83 83
0.0462958768591504 0.0151133155136096 0.0421028092136823 0.001391314 -0.5655899 0.8246855 58 58 58
0.0495775159558502 0.0148044866267459 0.0415970278556991 -0.007412164 -0.5764823 0.817076 59 59 59
0.0501422763374628 0.0171972242895844 0.0433756007521785 -0.008065867 -0.5776402 0.8162516 58 58 58
0.0503698787660394 0.0174255426017643 0.0436489257399985 -0.008301638 -0.575997 0.8174096 85 85 85
0.0534280928757074 0.0144748844909646 0.0407259154342368 -0.02325197 -0.5632911 0.8259313 100 100 100
0.0534879202552023 0.0154460364456306 0.0422153316213536 -0.02090883 -0.5715788 0.8202807 95 95 95
0.0560716051564731 0.0150739640517816 0.0422268806887324 -0.02804424 -0.5672281 0.8230832 80 80 80
0.053515931717246 0.0168880610585466 0.0435988523111268 -0.01730018 -0.574779 0.8181257 105 105 105
0.0580762256674432 0.0152772605127628 0.0423156058020729 -0.01720611 -0.5614671 0.8273202 74 74 74
0.0617022418251607 0.0140428571025858 0.0417858279745076 0.004038107 -0.5639746 0.8257823 100 100 100
0.0621159650310341 0.0158812266111231 0.0429337189365982 0.001359884 -0.5716842 0.8204726 89 89 89
0.0580491043344424 0.0171751604078889 0.0434109550642325 -0.01918374 -0.5626698 0.8264591 138 138 138
0.0639546950073409 0.0153707120057909 0.0423384815433328 0.004958748 -0.5698404 0.8217404 112 112 112
0.0633598101924875 0.0166442298185218 0.0432213681319906 0.005490309 -0.5658607 0.8244825 93 93 93
0.0679637441853926 0.0161112640235774 0.0429529403900359 -0.001411426 -0.5623685 0.8268855 72 72 72
0.0471313399885624 0.0337763050336045 0.0437578182931375 -0.03180704 0.6774799 0.7348532 25 25 25
0.0455574366275289 0.037602113361012 0.0408555213988762 0.01803747 0.6668705 0.7449553 40 40 40
0.0480146724426094 0.0351695801075596 0.0428919646105976 -0.04103351 0.6753061 0.7363952 56 56 56
0.0474397295059488 0.0366268285677726 0.0420964048772433 -0.02851642 0.6753047 0.7369874 44 44 44
0.0492663882784892 0.0355790427420895 0.0427357468350722 -0.05276678 0.6799873 0.7313228 70 70 70
0.0517048398510318 0.0354313629676504 0.0426823502271897 -0.06012662 0.6876172 0.7235795 44 44 44
0.0533676312532152 0.0357096671158796 0.0428095543301453 -0.08561911 0.7009328 0.7080696 43 43 43
0.0536827518120022 0.0367137410299583 0.0421112051866911 -0.1241433 0.6850943 0.7177982 62 62 62
0.0553574041985629 0.0358219064854456 0.0428222717196085 -0.124331 0.6825965 0.7201415 30 30 30
0.0566064307793095 0.0352169862231696 0.0439746491384948 -0.1492516 0.6854864 0.7126236 37 37 37
0.0561081905637222 0.0193098628818849 0.0450558212482644 -0.01061159 -0.5471253 0.8369834 104 104 104
0.0481499316456531 0.0219054130217632 0.0465721310311502 0.01156974 -0.5522352 0.8336081 98 98 98
0.0501098544141825 0.0218654914445228 0.0467518550168689 0.0006715276 -0.5449717 0.8384541 139 139 139
0.0459135788226255 0.0235837829731075 0.0478752113587175 0.006967867 -0.5604914 0.8281309 125 125 125
0.0481259468827924 0.0226111656373715 0.0471651887966993 0.01155426 -0.5524138 0.83349 99 99 99
0.0480552963505714 0.0236358064532851 0.0478041392495604 0.006757223 -0.552799 0.8332872 90 90 90
0.0457660343208484 0.0252305658912029 0.04911481805593 -0.03932658 -0.4273854 0.9032138 154 154 154
0.0503572077633549 0.0233466812612279 0.0474819245629154 0.00338985 -0.5358933 0.8442789 64 64 64
0.0515948100541643 0.0201618278250769 0.0456547932886564 -0.01009891 -0.5482482 0.8362547 149 149 149
0.0569241675581238 0.0212708552643132 0.0463324136462331 -0.0004295652 -0.5412106 0.840887 130 130 130
0.0546431495031245 0.0224482738648079 0.047156644083667 -0.006834816 -0.5267418 0.8499979 150 150 150
0.0530217437006733 0.0239695993568395 0.0477752238949208 0.0002757416 -0.5310904 0.8473151 107 107 107
0.0519778591317728 0.0253861550928925 0.0485752576614116 0.005417791 -0.3130381 0.9497251 72 72 72
0.0530643692951043 0.0254726100855583 0.0489840674737802 -0.01647945 -0.3209839 0.9469413 99 99 99
0.0566193396765957 0.0253464477624402 0.0489793755821153 -0.04595537 -0.2959256 0.9541049 94 94 94
0.0601189654420495 0.0190030122146759 0.0447769546106742 -0.009334798 -0.5419413 0.8403645 103 103 103
0.065131644511041 0.0192910434756318 0.0451808804667444 0.001355126 -0.5456884 0.8379871 157 157 157
0.0675458669758955 0.0196173799123732 0.0449957499875451 -0.0003527587 -0.5607384 0.8279929 102 102 102
0.0623044691141996 0.0201478870328919 0.0458688163588045 -0.001495744 -0.5409445 0.8410569 155 155 155
0.0579692887131071 0.0226860721789849 0.0471069668361283 -0.007524996 -0.5390522 0.8422387 100 100 100
0.0609759981566707 0.0231049643575146 0.0473313036001764 -0.005134549 -0.538922 0.84234 128 128 128
0.0614074613558673 0.0237894542587757 0.0477414550072743 -0.004954842 -0.5382853 0.8427482 112 112 112
0.0619291334749699 0.0248841852425199 0.0484252820308533 -0.01204472 -0.5423025 0.840097 71 71 71
0.0633070443125781 0.0199234764527669 0.0453660458714087 -0.001539333 -0.5431071 0.839662 155 155 155
0.0638988445496365 0.0204259813984167 0.0460037081698209 0.006444254 -0.5397691 0.8417885 127 127 127
0.0653571257432577 0.020430393826572 0.0459106945195469 -0.007485063 -0.5437842 0.8391917 157 157 157
0.0659175554096167 0.021009207035636 0.0460623543780902 -0.01108098 -0.5491995 0.8356178 126 126 126
0.0657101250394279 0.0256696536704193 0.049043864782497 -0.01517617 -0.5464325 0.8373656 100 100 100
0.0663084105856493 0.0230295712933475 0.0474610786255052 -0.01687613 -0.5466151 0.8372139 73 73 73
0.0686127367140101 0.0252832544035767 0.0491461483905179 -0.0179261 -0.5554755 0.8313397 87 87 87
0.0506249449493321 0.0258073584616602 0.0487140713041881 -0.006324945 -0.3049843 0.9523364 84 84 84
0.0512660160856204 0.0316667317251911 0.0470319345086994 -0.1283469 0.5252404 0.8412191 61 61 61
0.0534202736114859 0.0342345706436457 0.0449197740461334 -0.0980307 0.7122319 0.6950653 52 52 52
0.0524613696796603 0.0345209973552548 0.0441161384128858 -0.09149481 0.7010629 0.7072054 51 51 51
0.0545118636673343 0.0348002770699021 0.0444555201242362 -0.118557 0.6956737 0.7085071 47 47 47
0.0554533896241929 0.0270512119883356 0.0498937404732846 -0.03077093 -0.2127464 0.9766228 81 81 81
0.057607069437196 0.0268980756356123 0.0499364021636565 -0.02323779 -0.1792601 0.9835272 90 90 90
0.0620619534728779 0.0332483238780281 0.0470193165675466 -0.1349675 0.5389692 0.8314421 50 50 50
0.0602627654656969 0.0329921995502095 0.0471125611962927 -0.1418699 0.5490917 0.823633 31 31 31
0.0665449665644968 0.0348346509359724 0.0460578351793468 -0.1431193 0.6201804 0.7712931 64 64 64
0.0675099261420882 0.0331494578323746 0.0483337902239078 -0.1353602 0.4447301 0.8853772 54 54 54
0.0601818641535257 0.0270422758253113 0.0501610682661176 -0.0660534 -0.03455504 0.9972176 89 89 89
0.0618110056022365 0.0269560768705978 0.0499765935290214 -0.01140078 -0.1252489 0.9920598 77 77 77
0.0865886402841034 -0.00887042887184553 0.00972025342807339 0.8295232 -0.4992681 -0.250245 56 56 56
0.087109913020158 -0.00779807176262104 0.00985718913793469 0.8324986 -0.5120365 -0.211577 48 48 48
0.0883789939880653 -0.00600533458345431 0.0123088198300921 0.8451269 -0.4691715 -0.2562006 45 45 45
0.0894958102502939 -0.00485292981001317 0.0114971522812048 0.8576414 -0.448401 -0.2517692 50 50 50
