ply
format ascii 1.0
comment File exported by Rhinoceros Version 7.0
element vertex 474
property float x
property float y
property float z
property float nx
property float ny
property float nz
property uchar red
property uchar green
property uchar blue
end_header
-0.0243166559545522 0.0214657594341217 -0.00519718660246649 0.1387219 0.6547595 -0.7429982 53 53 53
-0.0227177413904815 0.0196205290641807 -0.00587191007671195 0.1557611 0.6362636 -0.7555839 36 36 36
-0.021413219477628 0.0193586161308283 -0.0060229843196784 0.1922755 0.6106148 -0.7682315 48 48 48
-0.0209958953385163 0.0178861836126776 -0.00696373350054569 0.2043389 0.6075705 -0.7675309 74 74 74
-0.016647362259377 0.0263001792045079 -0.000282165015649927 0.095512 0.6154721 -0.78235 240 240 240
-0.0137199786159417 0.0267582239433819 0.000334043458209865 0.1756909 0.6094577 -0.7731068 194 194 194
-0.011934247698878 0.0258374362716416 0.000243474923584452 0.235926 0.5496543 -0.8013858 68 68 68
-0.0123528825342061 0.0241880453700409 -0.00089159367136038 0.2434863 0.5265023 -0.8145611 85 85 85
-0.0139031441942818 0.0249906832327846 -0.00127896807122674 0.2130843 0.5220968 -0.825839 237 237 237
-0.0161029293259536 0.0226380006035507 -0.00275551172703936 0.1458698 0.5335233 -0.8331116 241 241 241
-0.0139331977828197 0.0218692736432009 -0.00218328370896514 0.2138848 0.5149764 -0.830092 172 172 172
-0.0139631572210908 0.0214334300714745 -0.00301052656089318 0.2014099 0.5169266 -0.8319982 238 238 238
-0.00983010029406906 0.0228315554273224 -0.000459519758320814 0.2194509 0.5595348 -0.7992259 43 43 43
-0.0100820874296557 0.0208021183748925 -0.00198372729206875 0.1688331 0.6050398 -0.7780889 61 61 61
-0.00618331566104446 0.0215273317666655 -0.000744027546394022 0.05377342 0.7085171 -0.7036419 76 76 76
-0.0105384579823573 0.0191787970895587 -0.00345403030197766 0.1113074 0.6239992 -0.773457 132 132 132
-0.012564234993325 0.0176101080965541 -0.0050397866899119 0.09046678 0.6148877 -0.7834085 234 234 234
-0.00866495933227762 0.0176746315794818 -0.00566377761685166 -0.03356301 0.6951977 -0.7180346 219 219 219
-0.00884533866686033 0.0163379059855207 -0.00630469397291755 -0.05437441 0.6946551 -0.717285 228 228 228
-0.0307763013848281 0.0201053879808255 -0.00715241173470971 -0.4782096 0.5287816 -0.7012172 46 46 46
-0.0255035926362828 0.0192310108385187 -0.00675135481246636 0.1672207 0.6633345 -0.7294001 31 31 31
-0.0309893910656189 0.0181091242339886 -0.00869721650907218 -0.596107 0.3180615 -0.73722 106 106 106
-0.0263840421227171 0.0176190952367989 -0.00910500285551274 0.09544489 0.5752575 -0.8123848 218 218 218
-0.0237040431425215 0.0151114515809903 -0.0101614500840055 0.1225885 0.604833 -0.7868603 164 164 164
-0.0296215223634255 0.0137638571136607 -0.0101467816884928 -0.5240437 0.1913924 -0.8299079 53 53 53
-0.0215848313468179 0.0160618862969548 -0.00899654452225751 0.22641 0.6345795 -0.7389501 234 234 234
-0.0210227453166336 0.014169061161712 -0.0102400024446241 0.1533301 0.6313544 -0.7601852 134 134 134
-0.0203367116965332 0.013230012380945 -0.0102730745584196 0.1176899 0.6563775 -0.7451964 177 177 177
-0.02921042819264 0.011391834614908 -0.0100403191502841 -0.5439481 0.0944287 -0.8337888 68 68 68
-0.0281289940093195 0.0117654925686228 -0.0107414231668586 -0.4873406 0.1133809 -0.8658198 87 87 87
-0.026074353397544 0.0120192088203932 -0.011833673996116 -0.2978441 0.2495623 -0.921416 77 77 77
-0.0295232676385946 0.00960032030542268 -0.00963167229295292 -0.5586614 0.1366403 -0.8180629 101 101 101
-0.0309366698710236 0.00782685564684105 -0.00949140684341665 -0.6625663 0.1488412 -0.7340655 76 76 76
-0.0281519272412609 0.0106684097978944 -0.0104441304857052 -0.480225 0.1429668 -0.8654158 91 91 91
-0.0280332184781362 0.00955798388705165 -0.0104455963541518 -0.5002533 0.1323083 -0.8557109 62 62 62
-0.0242664880649022 0.0118123993977266 -0.0128749894427669 -0.1775257 0.381779 -0.9070444 89 89 89
-0.0256404165581872 0.00766525370905713 -0.0120643175294903 -0.4425948 0.1710503 -0.8802566 90 90 90
-0.0221735531064398 0.00915413752240357 -0.0141159547384979 -0.196317 0.4742597 -0.8582175 104 104 104
-0.0217470254310359 0.00815301045323813 -0.0143303239815008 -0.1981565 0.5248873 -0.8277846 87 87 87
-0.0173465019782975 0.0146256594604055 -0.00821964927815788 0.1732798 0.6515149 -0.7385814 119 119 119
-0.0133808035773875 0.014591662922556 -0.00851996158406232 0.0410295 0.7225937 -0.6900542 165 165 165
-0.0175766626307965 0.0123844041883709 -0.0106169352592534 0.1225165 0.7286455 -0.6738438 170 170 170
-0.00933519148447814 0.014995513495679 -0.0083038678431363 -0.02951744 0.7145798 -0.698931 143 143 143
-0.00931939635268675 0.0112989847690443 -0.0117840509249775 0.05275835 0.7214953 -0.6904065 237 237 237
-0.00774931527880973 0.0120805286304371 -0.0118162612612351 -0.00184537 0.7102374 -0.7039598 236 236 236
-0.0185174447437331 0.0111249445766568 -0.0121930659526993 0.06049576 0.7053167 -0.7063063 78 78 78
-0.0172926496210701 0.00927953919123459 -0.01438975419262 -0.002848745 0.7218223 -0.6920726 63 63 63
-0.0496184464427198 0.0112878787331854 0.0124056378247213 -0.6913509 0.1982915 -0.6947765 90 90 90
-0.0479741261308519 0.0115780514579831 0.0111088183397675 -0.6814461 0.1854613 -0.7079797 128 128 128
-0.0490778929239077 0.00959740582120316 0.0118389971058886 -0.6852553 0.1503971 -0.712605 76 76 76
-0.0456735337273568 0.0109545029821774 0.0087512105012546 -0.6957709 0.1611265 -0.699958 123 123 123
-0.0454794439951423 0.00953530497250021 0.00877686149069046 -0.6914558 0.1359729 -0.709507 137 137 137
-0.042559069281777 0.00969382298148092 0.00537008969508357 -0.6665844 0.1948896 -0.7195021 115 115 115
-0.042745894369685 0.00731505794830967 0.00521447536611996 -0.6998046 0.1780279 -0.6917945 103 103 103
-0.0414566774224072 0.00608098663013479 0.00354634775998364 -0.7174222 0.1948329 -0.6688389 102 102 102
-0.0484108356243365 0.00465957287479646 0.00998417600783841 -0.6769126 0.1393268 -0.7227568 98 98 98
-0.046863912637428 0.00426384494186571 0.00922814214838263 -0.6985395 0.1839677 -0.6915189 112 112 112
-0.0474810448528182 0.00300406826752608 0.00937440946700763 -0.6981373 0.2088 -0.6848408 93 93 93
-0.0489984676967383 0.00122200876927137 0.00976410326434496 -0.6702344 0.2708895 -0.6909448 63 63 63
-0.0475354706246889 -0.000723532834906448 0.00714033555384441 -0.6665031 0.3168027 -0.6748405 70 70 70
-0.0469597296353581 -0.00140236171146735 0.00603163380604943 -0.6782185 0.3197264 -0.6616606 96 96 96
-0.0429939005322768 0.0015358622026127 0.0042920742664514 -0.6947134 0.2324726 -0.6806833 128 128 128
-0.03684002143215 0.00871155530692791 -0.000541043687675713 -0.8021583 0.1478567 -0.5785157 81 81 81
-0.0492356549635309 -0.00303568690838985 0.0078108089559995 -0.648012 0.3295012 -0.6866655 104 104 104
-0.0362469675395682 0.00895500437463936 -0.00133813583055087 -0.8123062 0.1280937 -0.5689909 54 54 54
-0.036430456724986 0.00783559767891373 -0.00112433848822313 -0.7938725 0.1601261 -0.5866226 79 79 79
-0.037097313726445 0.00651686498473936 -0.000935443069300823 -0.7698542 0.1757311 -0.6135496 104 104 104
-0.0386869032232169 0.00421576719379924 -0.000583240093013027 -0.7234523 0.2097525 -0.6577391 77 77 77
-0.037101891165805 0.00423311177414498 -0.00156424252100862 -0.7637541 0.1858456 -0.6181757 85 85 85
-0.035427463230536 0.00295898378088455 -0.0034210209025568 -0.8004158 0.1980499 -0.5657834 110 110 110
-0.0341792825437812 0.00551323929709047 -0.00514849628684222 -0.8192296 0.1554864 -0.5519845 58 58 58
-0.0396503207540619 -0.00117823444951992 -0.000481435524123164 -0.7156975 0.2297191 -0.65955 53 53 53
-0.0399613933645666 -0.00090471371786971 -0.000371858720636609 -0.7171335 0.2241111 -0.6599195 84 84 84
-0.0376108111989697 -0.000978199951957803 -0.0026243017055898 -0.7408651 0.2110857 -0.637622 60 60 60
-0.0317156629780802 0.00545162266870025 -0.0100265884135979 -0.6653019 0.1842463 -0.7234824 73 73 73
-0.0335264445744725 0.00255013940616466 -0.00900089830088247 -0.7836788 0.1105062 -0.6112577 73 73 73
-0.0354090123769026 -0.00085656334720885 -0.00616951468976501 -0.7875915 0.1206648 -0.6042678 64 64 64
-0.0366056641594992 -0.00350108358950774 -0.00581713410981344 -0.7384128 0.05480247 -0.6721184 95 95 95
-0.0320065397604306 -0.000867655316774352 -0.00991033175993139 -0.6841559 -0.02275526 -0.7289807 147 147 147
-0.0339890127728864 -0.00339088791386932 -0.00796921274667906 -0.6850545 -0.109438 -0.7202247 87 87 87
-0.0471551452732548 -0.00441810093160799 0.0053374602674926 -0.6685506 0.2788352 -0.6894136 94 94 94
-0.0483727323648417 -0.00616623449859843 0.00580265203697938 -0.6460954 0.254363 -0.7196251 104 104 104
-0.0480764265377629 -0.00851185157687206 0.00453618018997715 -0.6264873 0.1298679 -0.7685363 97 97 97
-0.0443420677333775 -0.00456264073592405 0.00261755053802404 -0.658142 0.2304129 -0.7167698 131 131 131
-0.0440228776725595 -0.00744383982636632 0.00150026824701555 -0.6649696 0.09735951 -0.7404975 123 123 123
-0.0421737942582174 -0.00832022443293834 0.000205736697383996 -0.6241676 -0.1112054 -0.7733358 121 121 121
-0.047188588597042 -0.0128399640794663 0.00410272768553932 -0.4006717 -0.334985 -0.8527879 110 110 110
-0.047993638070789 -0.0134464992514618 0.00474836531174228 -0.4077129 -0.3227899 -0.8541527 97 97 97
-0.0457062182452885 -0.0145870603442932 0.00452619368000384 -0.3305475 -0.4430945 -0.83331 104 104 104
-0.0407086740120035 -0.00581474100217427 -0.00149771216636763 -0.6700876 0.09034811 -0.7367631 99 99 99
-0.0451392143510971 -0.0111538477142819 0.00200432024358399 -0.5300702 -0.2448175 -0.8118436 121 121 121
-0.0431888689853976 -0.0102009157440814 0.00117943527253173 -0.5950006 -0.2126465 -0.7750844 141 141 141
-0.0405245763614848 -0.0129175843739644 -4.81744362217373E-05 -0.4717612 -0.5258499 -0.7077593 63 63 63
-0.0404879427600728 -0.0148538020905535 0.00212167917024342 -0.3984704 -0.5525666 -0.7320461 73 73 73
-0.0384053811390017 -0.0145626891570829 0.00115934252524785 -0.4232499 -0.5739295 -0.7010453 84 84 84
-0.0397289654439903 -0.0105981761618084 -0.00307567236004735 -0.5550947 -0.3749295 -0.7424943 108 108 108
-0.0380152731455374 -0.00452199089464211 -0.00369083854993602 -0.7140556 0.07836612 -0.6956891 73 73 73
-0.035085673148366 -0.00514587929334076 -0.00691834752232579 -0.663721 -0.1430333 -0.734177 93 93 93
-0.0357424172297343 -0.00789945710925233 -0.00576916973551111 -0.5517539 -0.2967621 -0.7794228 101 101 101
-0.0349971731248475 -0.00962501180916786 -0.00561497676453726 -0.4891328 -0.4121673 -0.7686788 104 104 104
-0.0325359520450887 -0.00485033105871224 -0.00858598146854461 -0.5954427 -0.2073626 -0.7761757 126 126 126
-0.0373194821359921 -0.0129110430315618 -0.00139042855434746 -0.3796448 -0.5987986 -0.7052022 87 87 87
-0.0345171637875303 -0.0111743558667865 -0.00472409690331421 -0.4020785 -0.5747434 -0.7127432 96 96 96
-0.0352527979136092 -0.0129442564110687 -0.00250085881963658 -0.3827018 -0.5883443 -0.7123134 74 74 74
-0.0347691855353993 -0.0141697040331217 -0.00203374563551251 -0.41556 -0.5767184 -0.7033533 91 91 91
-0.0330091891328048 -0.0129435254192984 -0.00361053792651977 -0.4364663 -0.5815355 -0.6865229 77 77 77
-0.0301722090738932 -0.0138899956105227 -0.00523076593958105 -0.4833131 -0.5720692 -0.6626803 80 80 80
-0.0140876494413988 0.00756967990181479 -0.0148457006989604 0.02337958 0.7340609 -0.6786811 40 40 40
-0.00785299822062457 0.00788475708004377 -0.0147447306603998 0.03416103 0.733547 -0.6787796 65 65 65
-0.0112696788722122 0.00830434168157779 -0.0160026717150826 0.06141981 0.7257229 -0.68524 40 40 40
-0.0104633493255641 0.00674847424449676 -0.0164918025283575 0.08057318 0.7205357 -0.6887207 30 30 30
0.0448173848601008 -0.0107032306399577 -0.00917478898473223 0.8953947 -0.4344811 0.09743957 25 25 25
-0.0636966714137093 -0.0180147089023299 0.0128531280953401 -0.4499524 0.309549 -0.8376886 155 155 155
-0.0629993396767774 -0.0187110481921027 0.0128752460364109 -0.4327084 0.2275157 -0.8723531 144 144 144
-0.0633817096817011 -0.0184351946222125 0.0125988456853841 -0.4327084 0.2275157 -0.8723531 141 141 141
-0.0623989896973769 -0.0160618821139209 0.0116441486338523 -0.468109 0.2554007 -0.8459577 165 165 165
-0.0584244980992272 -0.0171208789067911 0.0109326883975984 -0.4200416 0.05055843 -0.9060954 108 108 108
-0.0588968797994713 -0.0168288189953534 0.0103938012555591 -0.4200416 0.05055843 -0.9060954 89 89 89
-0.0556374065160057 -0.0174842658228607 0.0097502692528797 -0.324613 -0.405248 -0.8546347 97 97 97
-0.0549290579255817 -0.0182748604449643 0.010355570279966 -0.324613 -0.405248 -0.8546347 64 64 64
-0.0525331262580022 -0.0181154092430744 0.0089044645624996 -0.3351346 -0.3579139 -0.8715402 104 104 104
-0.050114358544207 -0.0154998137263356 0.00636415963726689 -0.3490523 -0.3008302 -0.8875042 106 106 106
-0.0511143496858715 -0.0164346103330881 0.006974807557934 -0.3488633 -0.3064446 -0.8856557 103 103 103
-0.0491907755102607 -0.0162149144122354 0.00639700732569448 -0.3077303 -0.3903205 -0.8677281 85 85 85
-0.0489785490923977 -0.0184811759227195 0.00714099333527518 -0.3081419 -0.4000452 -0.863141 90 90 90
-0.048680344975053 -0.0185473103123261 0.00678029778076628 -0.306531 -0.3876749 -0.8693371 102 102 102
-0.0525699177390955 -0.0197552222351676 0.0100356724791371 -0.3235695 -0.4109844 -0.8522879 54 54 54
0.0414260908235882 -0.0210859156668428 -0.020740772509 0.9116498 -0.4082487 -0.04719871 56 56 56
-0.0437782557774149 -0.0179513150063064 0.00534879571322977 -0.2832091 -0.4299756 -0.857271 156 156 156
-0.0469676970039306 -0.0180802116480525 0.00690096023767872 -0.2868922 -0.3886121 -0.8755989 79 79 79
-0.0453090882192857 -0.0196793169079534 0.00676981233371754 -0.2212685 -0.4270096 -0.8767571 96 96 96
-0.0444087998967735 -0.0195006551816395 0.00606764355834921 -0.2309192 -0.444562 -0.8654715 96 96 96
-0.0431041283827605 -0.016263004164017 0.00486789891970529 -0.340997 -0.4895704 -0.8025222 132 132 132
-0.0414180659807628 -0.0163718768642329 0.00400168170560611 -0.3541148 -0.5108621 -0.7833408 90 90 90
-0.0408096057745895 -0.0173135880487134 0.00447259693710478 -0.377645 -0.4810847 -0.7911648 98 98 98
-0.0460359339591272 -0.0216564961382006 0.00802095043971462 -0.2576162 -0.4356593 -0.8624586 70 70 70
-0.0452390533566871 -0.0218416242218382 0.0077531878810625 -0.2279477 -0.4388007 -0.8691915 68 68 68
-0.0448671649566426 -0.0220609005516614 0.00733573238737262 -0.2279477 -0.4388007 -0.8691915 71 71 71
-0.0405818917882774 -0.021524255561236 0.00665282286117364 -0.3389962 -0.461271 -0.8199455 35 35 35
-0.0382988424047834 -0.0224024786169144 0.00676885334696309 -0.342106 -0.489505 -0.80209 28 28 28
-0.0436010980246282 -0.0152368810021 0.00368000096900267 -0.3539614 -0.4983758 -0.7914119 110 110 110
-0.0399353564670277 -0.0164806994627413 0.0031770961711316 -0.3865239 -0.5285944 -0.7557693 90 90 90
-0.0384691374848507 -0.0162529485506182 0.00196550566079079 -0.4275527 -0.5604615 -0.7092825 62 62 62
-0.0377030331292136 -0.0169245507781894 0.00221394819776022 -0.4378011 -0.5425056 -0.7169504 85 85 85
-0.0327797161061354 -0.0162931180757582 -0.00143364868622486 -0.4400607 -0.5281138 -0.7262523 73 73 73
-0.0320358280154713 -0.0150349309911981 -0.00191503072431054 -0.4700482 -0.5514436 -0.6891768 84 84 84
-0.0311446500566852 -0.016798328797893 -0.00137667864474056 -0.4661506 -0.540522 -0.7003854 60 60 60
-0.0293081707031604 -0.0159336474456622 -0.00405562770800072 -0.4995621 -0.5403103 -0.6771281 60 60 60
-0.0272807743179286 -0.0164775028070709 -0.00541335167842594 -0.5220416 -0.5455181 -0.6556544 29 29 29
-0.0338578953408613 -0.0214287726148161 0.00323978205700592 -0.4577853 -0.4645086 -0.7580662 62 62 62
-0.0314708923092883 -0.0210775061028869 0.00141774167801412 -0.4058862 -0.5159672 -0.7543436 46 46 46
-0.0284499712493669 -0.0217930122187242 -6.16250874073687E-05 -0.4867891 -0.5518253 -0.6771448 46 46 46
-0.0293504056657152 -0.0236638739796236 0.00109304619682793 -0.4434749 -0.5378472 -0.7169731 27 27 27
-0.0248587685302026 -0.0221642839561758 0.00224958141981402 -0.456024 -0.660203 -0.5968032 18 18 18
-0.029265545813006 -0.0212066226633891 -0.000483991086533742 -0.4669253 -0.5325348 -0.7059656 60 60 60
-0.026509696074001 -0.0216269544117964 -0.00123863210160269 -0.5239362 -0.5374441 -0.660791 33 33 33
-0.0287747178066238 -0.0234404621551629 -0.000234122101416601 -0.4923135 -0.5503213 -0.6743692 38 38 38
-0.0258651222593453 -0.0194577360132204 -0.00404480298219811 -0.5440852 -0.4970568 -0.6759481 40 40 40
-0.0243898287266724 -0.0224139285091962 -0.00242285817207122 -0.5367391 -0.5234348 -0.6617606 36 36 36
-0.0199410305848127 -0.0258932305505815 -0.00370941304916728 -0.4615788 -0.6829993 -0.5660892 72 72 72
-0.0210726267685266 -0.025612017603267 -0.00268516452119227 -0.3969331 -0.7554621 -0.5212688 73 73 73
-0.0165137112593055 -0.0244460044916595 0.0012074837666054 -0.4738506 -0.7658454 -0.4346798 9 9 9
-0.0185808722837106 -0.0264814104974322 -0.00316484723870425 -0.4597708 -0.6946633 -0.5532212 21 21 21
2.43277201499303E-05 -0.00725214204018587 -0.025004445297058 -0.2720281 -0.1344629 -0.9528486 102 102 102
-0.018001899656956 -0.0235959610132117 -0.00650493441317646 -0.4394538 -0.4809561 -0.7586578 42 42 42
-0.0145897840483395 -0.0220552367429812 -0.00923951874386786 -0.4333921 -0.4602385 -0.7748237 32 32 32
0.0399076572002661 -0.0182317031572483 0.00368948677092562 0.8808522 -0.46896 0.0646223 23 23 23
0.0252662720697394 0.00389481714271933 -0.0182165888756769 0.1585313 0.7278254 -0.6671866 88 88 88
0.0365477850916416 0.0291100070309938 0.0100937354717461 0.4741757 0.7009023 -0.5328165 24 24 24
-1.06800815244945E-05 0.0496140443043922 0.0151804568979343 -0.09926278 0.3755318 -0.9214786 75 75 75
0.00371370278707062 0.0520085710024654 0.0165034337100618 -0.02914223 0.3930235 -0.9190665 36 36 36
0.00359705820982414 0.0511114132265422 0.0161526585908637 -0.0178328 0.3838568 -0.9232205 46 46 46
0.00572587677367453 0.0507634679421478 0.0158403924651896 0.09331896 0.4405069 -0.8928859 57 57 57
0.00907299117043214 0.0504240588397411 0.0152084968026148 0.1800175 0.554144 -0.8127227 47 47 47
0.00925469247089561 0.049526605666476 0.0153629075225248 0.1693546 0.5198568 -0.837298 25 25 25
0.0111838249890912 -0.00857535399754061 -0.029502920882304 -0.3481999 0.03245741 -0.9368582 77 77 77
-0.00422969974856802 0.0488531078333698 0.0160350736871053 -0.1564285 0.4070454 -0.8999134 65 65 65
-0.00338807411474829 0.0489433538960362 0.0158282145163581 -0.1772074 0.406861 -0.8961371 78 78 78
-0.00471481414164776 0.0479946761629824 0.0158116804993974 -0.1380838 0.4323273 -0.8910813 80 80 80
0.012154585521873 0.0481284726532916 0.0195971599339509 0.4183992 0.761292 -0.495355 70 70 70
0.01214826528 0.0461348925384251 0.0214062875419845 0.4419045 0.7670811 -0.4650882 12 12 12
0.0119512134608355 0.0482138648743347 0.0188069758321403 0.4213851 0.7562766 -0.5004801 109 109 109
0.00984449574074242 0.0483610409301993 0.014936155444447 0.1353219 0.5303196 -0.8369284 45 45 45
0.0135358576875992 0.04750462884337 0.0142555723090237 0.2645669 0.6897688 -0.6739609 61 61 61
0.0127618359564488 0.0460033828971496 0.014186185069091 0.144943 0.5954857 -0.7901824 24 24 24
0.019246741172815 0.0431384553138394 0.0170571898797969 0.4655021 0.7823182 -0.4138672 20 20 20
0.0290796757861198 0.0352650171771207 0.0154274339191249 0.3788715 0.7362113 -0.5607578 68 68 68
-0.00243795137862968 0.0456663255414127 0.0142075983096297 -0.1226258 0.3926774 -0.9114644 155 155 155
-0.000905376738981278 0.0445657886442834 0.0135878507537088 -0.09499945 0.4016405 -0.9108567 71 71 71
0.00100491817205794 0.0437782186053497 0.0130963162478452 -0.05674245 0.3990627 -0.9151663 42 42 42
0.00115666264986958 0.01601048311203 -0.0070936885117896 -0.02630253 0.6668299 -0.7447456 31 31 31
0.00393707384563102 0.0479855007960905 0.0146912174984766 0.002653884 0.3582145 -0.9336355 60 60 60
0.00372322364626942 0.047415969296529 0.0141524114520073 0.007836591 0.3646055 -0.9311292 88 88 88
0.00598255544856841 0.0475058589084514 0.0143045611690197 0.008089717 0.3685443 -0.929575 39 39 39
0.00676991092103885 0.0448543230629233 0.0134535549628955 0.01997275 0.3790693 -0.9251527 61 61 61
0.00609558907293462 0.0432474454173191 0.0129709139780922 0.01389495 0.3864307 -0.9222138 62 62 62
0.0030915296488252 0.0420438730780166 0.0123293623275158 0.0003034722 0.4122296 -0.9110799 58 58 58
-0.00256910939905142 -0.021838934224846 -0.0158409495643939 -0.4627548 -0.4401939 -0.7694721 82 82 82
0.00381228950794643 0.0416023157517176 0.012074885115045 0.01060628 0.4077608 -0.9130272 22 22 22
0.00409237873768387 0.0422551939103089 0.0122436589485585 -0.0005008419 0.3995185 -0.916725 58 58 58
0.00522497198809324 0.0417077436036424 0.0121698646836376 0.01805807 0.3889483 -0.9210826 57 57 57
0.00569088493269332 0.0405054327625773 0.0114160987328649 0.0227625 0.3814631 -0.9241038 38 38 38
-0.00430682589210596 0.0402041932199542 0.0119480330856175 0.009521207 0.5282019 -0.8490654 70 70 70
-0.00302108236944143 0.0394183445942555 0.0112341269846675 0.02191929 0.5316439 -0.8466843 50 50 50
-0.000480614165475846 0.0388894493310514 0.0107147847040441 0.01402392 0.498842 -0.8665795 53 53 53
0.00083987747571701 0.039267444028394 0.0106500022762586 0.01409266 0.4699287 -0.8825918 36 36 36
-0.00386157665042619 0.0375158385055641 0.00988214970434809 0.05720586 0.5670149 -0.8217186 89 89 89
0.00191291321550224 0.0379734499991344 0.0102979398492576 0.06739532 0.439835 -0.8955463 76 76 76
0.00327316029642954 0.0381168819915536 0.0103892376579412 0.08573858 0.4261561 -0.9005775 52 52 52
0.00602814824289233 0.0383197096235441 0.0105467106770543 0.02409521 0.3702138 -0.928634 48 48 48
0.00341638997385862 0.0353254608907969 0.00956109626504975 0.09654717 0.4550409 -0.8852211 36 36 36
0.00634030126039598 0.0368467254001068 0.010143958149331 0.04400933 0.3825624 -0.9228809 71 71 71
0.00581699429187799 0.0351849700120441 0.00980111449997434 0.06818745 0.4572647 -0.8867127 55 55 55
0.00113711416590068 0.0364132893701186 0.00955186308497791 0.1096045 0.4742887 -0.8735199 39 39 39
0.00725787840357883 0.0460650927353519 0.0138420189733878 0.02955237 0.3664393 -0.9299725 28 28 28
0.00960953875549286 0.0457859915464252 0.0140157604858145 0.04884753 0.4462708 -0.8935638 71 71 71
0.00953755465178974 0.0416406837879444 0.0120108335851646 0.01883863 0.3908973 -0.9202415 30 30 30
0.0152885430835221 0.0439641959958739 0.0131452900571681 0.2326405 0.5660899 -0.7908354 55 55 55
0.0121246705433165 0.0427229634671606 0.0128672538812012 -0.007900427 0.3954279 -0.9184631 36 36 36
0.00877424619870038 0.0415402927434667 0.0118557631150665 0.01662381 0.3882401 -0.9214083 46 46 46
0.0130222391459629 0.0395600571929875 0.0108892765742655 -0.002385774 0.3607769 -0.9326491 79 79 79
0.017608292039244 0.04158096776065 0.0120779059633488 0.04155228 0.5505083 -0.833795 39 39 39
0.014423167495023 0.0395863091274946 0.0111916317451003 -0.04154164 0.3761889 -0.9256113 72 72 72
0.0156216844002159 0.0373669770064151 0.0103666738370256 -0.0542945 0.3808159 -0.9230555 39 39 39
0.0172630219501526 0.0390325981695294 0.010720331500549 -0.07284385 0.3691255 -0.9265205 60 60 60
0.00914636257397294 0.0369833735861134 0.0104160807506148 0.02149673 0.3736864 -0.927306 48 48 48
0.00756358298104765 0.0371990869987624 0.0100588893713276 0.03444245 0.3451775 -0.9379053 36 36 36
0.0121034558271709 0.0356381533380166 0.0102052684687152 -0.01586678 0.4090578 -0.9123705 73 73 73
0.0185031931539399 0.0366011959124486 0.00987591579477365 -0.07982517 0.3812485 -0.9210198 52 52 52
0.00496650661215892 0.0321073416425337 0.00828221384962002 0.08827918 0.5186697 -0.8504049 80 80 80
0.00982220745785467 0.0315390127592452 0.00712015472042593 0.05055557 0.5343503 -0.8437499 243 243 243
0.0137990353101389 0.0325882333800451 0.00830383249668731 0.004104884 0.4712675 -0.8819808 92 92 92
0.012086745901255 0.0308476220907474 0.00695238937922027 0.05832876 0.5320681 -0.84469 237 237 237
0.0152275485038285 0.0358670486868189 0.00994408129770596 -0.05535471 0.3823801 -0.9223455 52 52 52
0.0186639885124094 0.0347771032224766 0.00915485245940062 -0.09070314 0.4137891 -0.905843 27 27 27
-0.00273025626183898 0.0340515109094515 0.00737142382613476 0.08907352 0.5111116 -0.8548865 146 146 146
-0.000840881440113961 0.0342193360466458 0.00769465034934258 0.1234102 0.4968716 -0.8590044 57 57 57
-0.00473030920344852 0.0309494235746104 0.00541468295142966 0.0748511 0.4983595 -0.8637332 34 34 34
0.000570355043453041 0.0314579076088284 0.00653277765294202 0.1093794 0.5305015 -0.8405976 35 35 35
-0.0054591224874625 0.0300446657335152 0.00475929936797237 0.1102787 0.5167728 -0.8489903 36 36 36
-0.00383109765344747 0.0299512201706862 0.00516058917100837 0.0963507 0.4893792 -0.8667321 28 28 28
0.00278939930522792 0.0316179474080809 0.0068413583814585 0.1058393 0.5564839 -0.8240896 64 64 64
0.00573436397567617 0.0288566016644827 0.0049653671657115 0.0552652 0.6075479 -0.792358 126 126 126
0.00588851103793342 0.0267002766650022 0.00310642756885326 0.07351239 0.6699259 -0.7387796 50 50 50
0.00657614980914278 0.0270372620449231 0.00363657919189897 0.06951778 0.6378387 -0.7670262 72 72 72
3.27070162509102E-05 0.0263152996197495 0.00345403984765857 0.01877723 0.5843708 -0.8112695 241 241 241
-0.00310719202709908 0.0248466648792116 0.00220844903257056 0.06344846 0.5985294 -0.7985843 46 46 46
0.00712841571695488 0.0256077434715354 0.00216888899030854 0.1696734 0.70147 -0.6922072 52 52 52
0.00317369898257347 0.0233458882267217 0.000642802295427569 -0.07018161 0.7447544 -0.663638 187 187 187
0.00856704520563012 0.0297959670390247 0.00627547587516619 0.07901726 0.5892677 -0.8040646 90 90 90
0.0111869912130955 0.0251759283443638 0.00319997484859957 0.1874254 0.6611824 -0.7264362 49 49 49
0.0152550189828471 0.0268502198664871 0.00457672718496127 0.05499004 0.5347731 -0.8432045 243 243 243
0.0131083912355772 0.024123675421426 0.00305669147038556 0.1722644 0.640978 -0.7479787 71 71 71
0.0183778872993603 0.0242161532007079 0.00319034088350323 0.04817767 0.5658851 -0.8230754 244 244 244
0.00840015820730589 0.0243323925814924 0.000894723862666646 0.15378 0.7587792 -0.6329343 43 43 43
0.00987063746189865 0.0237377382524253 0.00236838397208106 0.2002005 0.7302843 -0.6531497 48 48 48
0.0106339317018995 0.0225251703250917 0.00127445007657068 0.2902371 0.753951 -0.5893389 29 29 29
0.012586455322019 0.0229929261589532 0.00169546214528293 0.2164817 0.7203963 -0.6589118 59 59 59
0.00955872697422322 0.0226812148746858 -0.000263189660138718 0.1666007 0.7937447 -0.5849903 68 68 68
0.0091322913174392 0.0232337837901826 -0.00143523642317367 0.1464895 0.8018857 -0.579241 35 35 35
0.00902205638438325 0.0220517056818583 -0.00252824178926958 0.1511937 0.7842744 -0.6017094 87 87 87
0.0134839592314231 0.0225318025065457 0.00186180795549984 0.1755459 0.7113989 -0.6805111 60 60 60
0.0171724567352114 0.0218989566940802 0.00162137192632028 0.08425468 0.6816842 -0.7267791 107 107 107
0.0164271934613875 0.0209539154137226 0.000784821868896834 0.08563866 0.7375512 -0.669839 94 94 94
0.0209343722553426 0.0413659329837546 0.0110282872586835 0.1833968 0.6146395 -0.7671922 53 53 53
0.0204013005432917 0.0394697803988773 0.0107849887636933 0.03895134 0.4426527 -0.8958467 65 65 65
0.0222695823185264 0.0386331911354343 0.0102457534855227 0.03292217 0.4685632 -0.8828163 53 53 53
0.0194741108754335 0.0383962465141747 0.0103593647021949 -0.08839455 0.3742517 -0.9231046 88 88 88
0.0271519875408752 0.0387856134194591 0.0100862649364988 0.3670901 0.6596924 -0.6557826 120 120 120
0.0268437882876809 0.038453060299547 0.0133235924257471 0.3420903 0.7626452 -0.5489503 96 96 96
0.0303549965371346 0.0343988944316322 0.0128976589767879 0.4150031 0.6609055 -0.625281 86 86 86
0.0276073289189451 0.037622388494003 0.00988602012808326 0.3670901 0.6596924 -0.6557826 94 94 94
0.0271705798866133 0.0364086691240593 0.00873877156418168 0.3270474 0.6661327 -0.6703038 62 62 62
0.029172939821362 0.0358262406389687 0.00999882031189292 0.3904616 0.6559935 -0.6459197 85 85 85
0.0306251359478908 0.0330262345990862 0.0114661290018102 0.42107 0.6710707 -0.6102166 28 28 28
0.0211506447763621 0.0341099351699639 0.00854932382982643 -0.104258 0.4189858 -0.9019874 24 24 24
0.0242860530574736 0.0339097556958621 0.00808270842724346 -0.05343052 0.430408 -0.9010517 69 69 69
0.0243960697661256 0.0331872863355487 0.00763565061215021 -0.04941017 0.4267903 -0.9029998 73 73 73
0.0243122482288256 0.0316303295629869 0.00667989055548102 -0.0590988 0.3993245 -0.9149029 30 30 30
0.0192251587178838 0.032766763604146 0.00785640059638948 -0.09217723 0.4290179 -0.8985806 48 48 48
0.0204136678585076 0.0315312032379358 0.00703376041840831 -0.08194714 0.4397674 -0.8943653 49 49 49
0.0222950487567259 0.031808421242419 0.00679245587455968 -0.07948112 0.4184783 -0.9047424 26 26 26
0.024448430224465 0.0300143181778145 0.00588468742803105 -0.05465892 0.4144874 -0.9084121 43 43 43
0.0272492080925764 0.0332368570905974 0.00748158960654899 0.1819041 0.5408469 -0.8212159 39 39 39
0.0278482857456175 0.0307382968901799 0.0065110277802729 0.05719491 0.4926736 -0.8683326 66 66 66
0.0294623732216199 0.0330869539592658 0.00753461960300994 0.2767886 0.625985 -0.7290617 70 70 70
0.021663874144199 0.0289637100296336 0.00588106092681429 -0.03902122 0.4509355 -0.8917031 39 39 39
0.030579626259529 0.0306016431258096 0.00655273441299564 0.1382103 0.5736947 -0.8073242 58 58 58
0.0267034853929791 0.028177296003886 0.00537211465522658 -0.05115553 0.4154261 -0.9081873 67 67 67
0.0290575820012617 0.0287215033201234 0.00543188367865322 -0.02293724 0.4657809 -0.8846028 84 84 84
0.0366568701539189 0.0286739866136732 0.00918812403835867 0.4639732 0.6564054 -0.594862 58 58 58
0.0349327133444319 0.0290898038778036 0.00534895855408901 0.4054499 0.6247687 -0.6672888 58 58 58
0.0324510118744876 0.0289698580731861 0.00534126215990316 0.1776289 0.5943671 -0.7843314 82 82 82
0.0364477027341699 0.0283777170160329 0.00569660412541995 0.3800607 0.6491832 -0.6588741 68 68 68
0.0347615519479056 0.0267139241316534 0.00400245609711014 0.2470128 0.5110393 -0.8233004 72 72 72
0.037342974119837 0.0262137520696493 0.00433816314730184 0.3807546 0.6309568 -0.6759582 80 80 80
0.0204304767023857 0.027869105444652 0.00560115600305156 -0.02346502 0.479294 -0.8773407 95 95 95
0.0209758188055864 0.0258009048630472 0.0045028034494925 0.01730054 0.4914212 -0.8707502 78 78 78
0.0190022841375774 0.0239629282081373 0.00310878202472187 0.04366954 0.5622548 -0.8258102 238 238 238
0.0213166183699376 0.0228230140305652 0.0023687094147351 0.02753337 0.6067031 -0.7944515 93 93 93
0.0235479646852559 0.0228226788387471 0.00256096297068398 0.03024635 0.5835741 -0.8114964 28 28 28
0.0273700181904739 0.0253016010822233 0.00393173678142966 -0.04249988 0.450067 -0.8919829 32 32 32
0.0307672922936684 0.0261454564184425 0.004213217581572 -0.005474413 0.4282371 -0.9036498 86 86 86
0.0322607315840098 0.0253676700256273 0.00347863728504449 0.03582866 0.4003567 -0.9156587 80 80 80
0.0392840038032345 0.026052381813138 0.00984709852386978 0.5735753 0.6260308 -0.5282961 23 23 23
0.0415835441353551 0.0248105751385375 0.0105477484015742 0.5922036 0.6569151 -0.4666448 25 25 25
0.0445292227238951 0.0215112602890577 0.00882636714410912 0.5283768 0.7091302 -0.4668537 27 27 27
0.0252130924254477 0.0228941414443751 0.0029918259680447 0.005779302 0.5369537 -0.8435919 47 47 47
0.0264906604237041 0.0208582801809778 0.00150623981332498 0.05996273 0.6699557 -0.7399756 47 47 47
0.0287478405238346 0.0226492183191909 0.00243041389985565 0.02834104 0.4938585 -0.8690803 55 55 55
0.031094043127065 0.0210982100772088 0.00179531552793422 0.08926585 0.5592849 -0.8241554 103 103 103
0.0203117891664637 0.0205776001927687 0.000681337416070016 0.06094663 0.6951321 -0.7162939 100 100 100
0.0216915322232882 0.018304529019036 -0.00213380520451034 0.1053884 0.7982726 -0.5930044 113 113 113
0.0224870299004762 0.0177309202801754 -0.00252821861648478 0.0720499 0.8249052 -0.5606606 42 42 42
0.0255579609390884 0.0162805175014777 -0.00325525518489833 0.1275186 0.8127325 -0.5685111 73 73 73
0.0296401767741137 0.0174607215112581 -0.00184325552033404 0.1446669 0.744015 -0.6523137 224 224 224
0.0294169047805233 0.018221079094189 -0.00338582314938363 0.1232666 0.765057 -0.6320547 236 236 236
0.0299697304997402 0.0164866446994347 -0.00343864440034314 0.182996 0.7691122 -0.6123552 220 220 220
0.0332777644797697 0.0224951577388595 0.00278954551318988 0.08876066 0.4228302 -0.9018515 91 91 91
0.0365469505587463 0.0228648840989392 0.00324439947039812 0.1714097 0.4300976 -0.8863604 39 39 39
0.0349870954024487 0.0221269662971648 0.00262921666946214 0.10465 0.4211759 -0.9009213 61 61 61
0.0366678721381821 0.0209544273778393 0.00258103083650818 0.1321454 0.4448433 -0.8858059 41 41 41
0.0330908952852171 0.0207223503737268 0.00202863977700285 0.1358706 0.5044688 -0.8526725 57 57 57
0.0351726581121778 0.0219104730149808 0.00232386187944456 0.1224639 0.4396861 -0.8897633 82 82 82
0.0387076125075807 0.0216795756786716 0.00298611654954162 0.2679846 0.5194716 -0.8113775 47 47 47
0.0407547228907772 0.0205131045779361 0.00275059665955391 0.4000588 0.6191851 -0.6756942 55 55 55
0.0387416619532304 0.019607671950808 0.00180245371971433 0.1705343 0.5228056 -0.83522 67 67 67
0.0397760609359783 0.0196816755100213 0.00172881781304701 0.1838626 0.5253996 -0.8307526 55 55 55
0.0400143101349371 0.0166896841093507 0.000620289089466763 0.2185871 0.5754927 -0.7880532 57 57 57
0.0325027753588643 0.0183212827977985 -5.96519873843349E-05 0.1634768 0.6592548 -0.7339335 210 210 210
0.031760797151875 0.0167074208359872 -0.00212117352151653 0.1744983 0.7496011 -0.6384736 226 226 226
0.0365829527702815 0.0170926196642156 -2.8735661644963E-05 0.1958916 0.5875221 -0.7851396 134 134 134
0.0337149750582575 0.0161827464728881 -0.00224214197280792 0.2428529 0.7393158 -0.6280403 102 102 102
0.0421959906914342 0.0146964002100514 -0.000742054957650562 0.1906537 0.6024438 -0.7750565 93 93 93
0.0406303483027139 0.0139701543141684 -0.00134380507012266 0.244827 0.6303708 -0.7366766 75 75 75
0.0421841117682504 0.0136230269379309 -0.00135532778990066 0.2029719 0.6223916 -0.7559307 42 42 42
0.0391224975524431 0.01386106283523 -0.00211732415433685 0.2745301 0.6613647 -0.6980186 93 93 93
0.0411451172711441 0.0122003191761895 -0.00349867731632647 0.2935574 0.6804726 -0.6714023 66 66 66
0.0425043462904284 0.0114744089254699 -0.00350104759744818 0.268503 0.676625 -0.6856273 43 43 43
-0.00318912945837146 0.0215484197621723 -0.000916128963530549 -0.01652703 0.7546616 -0.6559061 13 13 13
-0.00273234595862526 0.0207321475309068 -0.002697583758142 -0.06270422 0.7618774 -0.6446791 56 56 56
-0.00252935453294123 0.019021779433529 -0.00493604695129246 -0.06228426 0.7252772 -0.6856338 45 45 45
0.00410114713993259 0.021971447254596 -0.00217179867267325 -0.03895992 0.7618154 -0.6466215 248 248 248
0.00500268888589028 0.0216707974795651 -0.00269182309402116 -0.0453354 0.7685904 -0.6381328 182 182 182
0.00398800466689719 0.0196866793781161 -0.00440170884847657 -0.06814636 0.7080433 -0.7028732 237 237 237
0.00287074897844475 0.0189203906552611 -0.00580453944821446 -0.03606315 0.6718218 -0.7398344 228 228 228
-0.000677761810489841 0.0183477671522123 -0.00513405829442881 -0.03262944 0.7082299 -0.7052274 35 35 35
-0.00203682256303539 0.0173662031512556 -0.00645540059332372 -0.03116654 0.6806439 -0.7319512 52 52 52
-0.00434507327727829 0.0156565782687117 -0.00775475423079863 -0.03852589 0.6793829 -0.7327718 63 63 63
-0.00296525413668158 0.0149923723302763 -0.00798462980959247 -0.0496723 0.6778019 -0.7335648 38 38 38
0.00173783412414608 0.0176616594127859 -0.00587602628047945 -0.03095987 0.6819351 -0.7307571 36 36 36
0.00353617777048587 0.0153368093126072 -0.00852412203973796 -0.01420084 0.6676079 -0.7443776 37 37 37
0.00822638616289373 0.0211447345785198 -0.00358540593431478 0.08655798 0.7511829 -0.6543943 85 85 85
0.00973549413542818 0.0198126613748628 -0.00530300017090379 0.08016656 0.6879425 -0.7213241 16 16 16
0.00912024807812983 0.017151555591274 -0.0062625636323369 0.05018003 0.6556373 -0.7534067 70 70 70
0.0130644098705579 0.0202639837087546 -0.00295964136638571 0.2754 0.784388 -0.555779 101 101 101
0.0143122079323059 0.0192361294255863 -0.00277429916276262 0.2437931 0.802564 -0.5444777 65 65 65
0.012584239396908 0.0191428200447328 -0.00453291526753297 0.2247937 0.7373559 -0.637004 47 47 47
0.0116255893152601 0.0184296132922024 -0.00536395013272228 0.1385045 0.6946424 -0.7058955 22 22 22
0.00668232857794049 0.016624093881582 -0.00723579992821266 -0.002347806 0.6484907 -0.761219 231 231 231
-0.00317131171025187 0.0137807404680139 -0.00925492664144145 -0.02721339 0.68648 -0.7266393 80 80 80
-0.000407551619744151 0.0139143889381799 -0.0101221038396122 -0.01595391 0.6913788 -0.7223163 36 36 36
0.00236318386058842 0.0143543449785593 -0.00850934640026157 -0.03281731 0.6638771 -0.7471212 51 51 51
0.011400190480344 0.0172805142565668 -0.0054300326064467 0.1394517 0.6778463 -0.7218571 59 59 59
0.0166445354309053 0.0180368816632193 -0.00409498789032126 0.1720686 0.8028178 -0.5708556 87 87 87
0.0124860359051291 0.0172426722903516 -0.00643758352799328 0.1450901 0.6846727 -0.7142633 61 61 61
0.0164805877819791 0.017371381199766 -0.00490723945146543 0.1688815 0.773275 -0.6111667 117 117 117
0.0158897143329439 0.0155715443619957 -0.00732366589280942 0.1098047 0.6988047 -0.7068344 54 54 54
0.00930206152575064 0.0160209215345577 -0.00736838721355859 0.04049734 0.6590726 -0.7509881 133 133 133
0.00756196031527301 0.0143959605114576 -0.00960329415206762 0.01473339 0.6475638 -0.7618688 195 195 195
0.0050824434950747 0.0133834890243134 -0.00984636137935724 0.0165897 0.6538972 -0.7564015 32 32 32
0.0086638824262435 0.0142790594108841 -0.00937250794371813 0.03670843 0.6373365 -0.7697108 251 251 251
0.0109029812498216 0.0133716987871513 -0.00978595281776851 0.04790624 0.6493961 -0.7589399 245 245 245
0.0111062722072188 0.0144959030690965 -0.00880658802642709 0.07807043 0.6388822 -0.765333 244 244 244
0.0117427042224247 0.0144769127971569 -0.00892981694686634 0.06946561 0.6526911 -0.7544328 191 191 191
0.0151283652782834 0.0134487904924321 -0.00893278848071999 0.06463742 0.6811675 -0.7292687 40 40 40
0.0162003058629741 0.0118711101097371 -0.0104756184398314 0.07037271 0.6692528 -0.7396948 176 176 176
-0.00567710883927708 0.0122218420937086 -0.0104712443958647 -0.02191239 0.6836014 -0.7295266 235 235 235
-0.00643072981173942 0.0106437417222367 -0.0117146458160149 -0.001425868 0.6960034 -0.7180371 158 158 158
-0.00231370940560671 0.0104640296131666 -0.012814899335343 -0.03829523 0.6735034 -0.7381915 73 73 73
0.00353647501988563 0.0126643367909869 -0.0106547119182517 0.01303945 0.6692449 -0.7429274 37 37 37
0.00488989395307771 0.0106082112595263 -0.0120981349223948 0.01015837 0.6845913 -0.7288563 43 43 43
-0.00629587015449884 0.00618051630778349 -0.0173630626759579 0.01559778 0.7249382 -0.6886373 33 33 33
0.000731956463330352 0.00730016785013587 -0.0151329277262378 0.006011043 0.7252669 -0.6884416 243 243 243
-0.00165077052987916 0.00773353415377698 -0.0155588422920927 -0.02217562 0.7352942 -0.6773852 213 213 213
-0.00119571990139633 0.00519080749175238 -0.0181650706907659 0.004843684 0.7007204 -0.7134196 51 51 51
-0.00176262543831029 0.00495846737169137 -0.0185766451997723 0.004843684 0.7007204 -0.7134196 37 37 37
0.00168274632761145 0.00502471765534884 -0.0178592383193964 0.04971184 0.7118791 -0.7005404 21 21 21
0.00652943778774207 0.011872099915055 -0.0117660993076152 0.01626049 0.6669183 -0.7449534 21 21 21
0.00713169687402182 0.00949583020877576 -0.0122842127191604 0.01722874 0.6765419 -0.7362025 53 53 53
0.0044150279868056 0.010071714946539 -0.0136202203708093 0.02906577 0.6906604 -0.722595 97 97 97
0.0067138032613947 0.00774853727927427 -0.015197418908228 0.03065483 0.7172042 -0.6961884 237 237 237
0.0118114581426467 0.00958711689069358 -0.0123289637292586 0.03759595 0.6975078 -0.7155902 177 177 177
0.0151946445746067 0.00992136939431587 -0.0130996804979258 0.07667968 0.7090675 -0.700959 234 234 234
0.0141261798211185 0.00846554816576184 -0.0140253411303884 0.08398975 0.7180609 -0.6908939 238 238 238
0.0144098045673746 0.00641457864302453 -0.0164704867751952 0.09796769 0.7417896 -0.6634384 229 229 229
0.00566228928959056 0.0061374559132219 -0.0162506501329673 0.01777677 0.7187275 -0.6950646 237 237 237
0.00712883100004635 0.00472960524264376 -0.0182387635743624 -0.0151815 0.7128303 -0.7011722 81 81 81
0.0129330658196549 0.006275176956136 -0.0167442430922965 0.07530602 0.7501991 -0.6569096 239 239 239
0.0143358260628612 0.00564770936291037 -0.0174924398640079 0.09898409 0.7242209 -0.6824267 237 237 237
0.0145113610137795 0.00568340289022129 -0.0173421683598554 0.09898409 0.7242209 -0.6824267 197 197 197
0.0129871148886203 0.00367890581927166 -0.0193311764561257 0.03899834 0.753184 -0.6566529 152 152 152
0.0101417909315851 0.00321089993750845 -0.0205516103646141 -0.03944256 0.7180918 -0.6948298 29 29 29
0.0138365634024122 0.00403738504962359 -0.0195501248716955 0.05189522 0.7471597 -0.6626154 107 107 107
0.0155112856208728 0.00131828419862834 -0.021456620937331 0.05504937 0.7112804 -0.7007495 71 71 71
0.019061727945501 0.0169069941051305 -0.00590910564077463 0.09017389 0.7919222 -0.6039271 63 63 63
0.0200689286786702 0.0164367785944248 -0.00568681875364818 0.1130508 0.809401 -0.5762721 52 52 52
0.0226081278822532 0.0159024097647407 -0.00795240488977156 0.1361771 0.7689275 -0.624665 46 46 46
0.0231947323655342 0.0147701311730677 -0.00799149682716138 0.1283568 0.7565306 -0.6412379 145 145 145
0.0292103577686333 0.0153505255253259 -0.00489902916308826 0.1661371 0.7650685 -0.6221485 226 226 226
0.0265134246443433 0.0140148467208119 -0.00708535807580346 0.1391314 0.7504564 -0.6461096 191 191 191
0.0284011699541731 0.0143935323734967 -0.00551805952986051 0.1936722 0.7645661 -0.61476 139 139 139
0.0282782080196706 0.0132385339428354 -0.00710171111040125 0.1954983 0.7213395 -0.6644169 50 50 50
0.0202951884189431 0.0142293585272641 -0.00824053709948114 0.06237199 0.7079599 -0.7034931 52 52 52
0.0218580355876217 0.0127601520072476 -0.00928410989677131 0.05556517 0.6878313 -0.7237408 71 71 71
0.0176951078800749 0.0111639567490578 -0.0107876864009596 0.07314626 0.6727329 -0.7362608 98 98 98
0.0192879800886785 0.0121144269552751 -0.00997707625803557 0.05161699 0.6586922 -0.7506399 50 50 50
0.0247570517531108 0.00951551444847887 -0.0130068442301514 0.09540471 0.681244 -0.725813 223 223 223
0.0261258943813969 0.0080747982937075 -0.0130888711797388 0.09673111 0.7100611 -0.6974642 237 237 237
0.0278369360363082 0.00946734205903854 -0.0111217983254855 0.1813484 0.6751415 -0.7150502 246 246 246
0.0330264556586295 0.014027419426385 -0.00569400690721855 0.2569487 0.7267349 -0.6370509 56 56 56
0.0361043280860316 0.011571966902906 -0.00612324207649373 0.3088358 0.6922703 -0.6522134 244 244 244
0.0307663596433398 0.0130499718762283 -0.00755663033885434 0.2285127 0.7021679 -0.6743458 60 60 60
0.0331827528920878 0.0114218059419655 -0.00774045965395798 0.2387327 0.6879975 -0.685322 17 17 17
0.0337702030779332 0.010164534229449 -0.00850653460097517 0.259836 0.6740792 -0.6914495 59 59 59
0.0329366483350673 0.00845621447628653 -0.0108081089000441 0.2432021 0.6623008 -0.708668 209 209 209
0.0295839941461606 0.00739305096054887 -0.0128388322120108 0.1969828 0.7084677 -0.6776956 239 239 239
0.0401977885193316 0.00866896552388385 -0.0078310403617996 0.3095375 0.6758032 -0.6689368 77 77 77
0.0346070827578679 0.00659756095772446 -0.012066924214541 0.266807 0.7070391 -0.654912 146 146 146
0.0410220715134368 0.00494571884573003 -0.0102552328742229 0.3143222 0.6930917 -0.6487106 121 121 121
0.0184437154493478 0.00885351686048375 -0.0127098301388322 0.07862997 0.6907915 -0.7187659 48 48 48
0.0225935367187033 0.0088711077740502 -0.0128177451180209 0.07202832 0.6877926 -0.7223249 148 148 148
0.024130423493153 0.00777857643326763 -0.0134164557863503 0.0828203 0.7263681 -0.6822977 228 228 228
0.0270803424568653 0.00739093298847249 -0.0131741708712876 0.133664 0.730157 -0.6700782 212 212 212
0.027006832621109 0.0064625417247155 -0.0145544243298458 0.1120683 0.7302219 -0.673956 230 230 230
0.023562099138752 0.00624208458796471 -0.0160126542181904 0.05284398 0.7526255 -0.6563249 226 226 226
0.0231496665647404 0.00509289592601903 -0.0168397398278417 0.06311265 0.7630851 -0.6432091 229 229 229
0.0176919025111846 0.00539429790243595 -0.0170847209494737 0.09510226 0.7533197 -0.6507418 70 70 70
0.0183141023968449 0.00465460162908804 -0.0175802756591885 0.06740721 0.7518711 -0.6558552 11 11 11
0.0182259563657472 0.00425947885824507 -0.0181112853950959 0.08242036 0.772162 -0.6300578 35 35 35
0.018265170949411 0.00406258383523994 -0.0178445597560857 0.08263344 0.7701716 -0.6324614 26 26 26
0.0215177556363031 0.0052169935738211 -0.0177265359183695 0.06030326 0.7534621 -0.6547201 220 220 220
0.0236078782115685 0.00436746831053036 -0.0177067816422929 0.06566221 0.7540497 -0.653527 181 181 181
0.026400729403083 0.00358230560753303 -0.0181803026496348 0.2179974 0.6915157 -0.6886821 28 28 28
0.0275138633204217 0.00348137241105251 -0.017945391317397 0.2248828 0.6934048 -0.6845564 38 38 38
0.0261659333656352 0.00206660687091031 -0.0196037665438531 0.2285196 0.6364142 -0.7367195 66 66 66
0.024066196895379 -4.48407649209503E-05 -0.0220169624145092 0.1975654 0.6173048 -0.7615134 107 107 107
0.0304409023952954 0.00376617892182862 -0.0167302697555221 0.2099342 0.6811093 -0.7014398 36 36 36
0.0310697659184678 0.00377246306494161 -0.016486861272843 0.1975262 0.6797324 -0.706362 43 43 43
0.0298735904119405 0.00240090521405212 -0.0179596386129947 0.2279693 0.6361234 -0.7371411 26 26 26
0.0327820522977333 0.00238786996003704 -0.016885512709349 0.2116634 0.6373657 -0.7409208 24 24 24
0.036897936223145 0.00272324877973928 -0.0160915057028147 0.2754859 0.6572936 -0.7014788 144 144 144
0.0369386860498442 0.00133831273037077 -0.0172381966859676 0.2646863 0.5652196 -0.7813245 140 140 140
0.0376604890126897 0.00113991374804256 -0.017285683908513 0.2931775 0.5440233 -0.7861842 52 52 52
0.0399842719604102 -0.000703709849995793 -0.0171353583422199 0.349118 0.4706571 -0.8103077 14 14 14
0.0395050901363576 -0.00179290236034713 -0.0178216920142495 0.3813305 0.4389278 -0.8135905 35 35 35
0.0405804890627728 -0.00321144162487186 -0.0181218109234018 0.379561 0.3651755 -0.8500473 60 60 60
0.029680015005177 -0.000201750628999964 -0.0195607959416908 0.285333 0.5541096 -0.7820151 31 31 31
0.0321323593334535 0.00071282537275108 -0.0180383584782826 0.2106157 0.5552337 -0.8045847 41 41 41
0.032135404840254 -0.00138501506259536 -0.0197137455722985 0.2403269 0.5184949 -0.8206132 43 43 43
0.028025893462388 0.00051084271336399 -0.0204421549891766 0.2942192 0.5784779 -0.760788 76 76 76
0.0282888576583313 -0.00195387745902242 -0.0216065009254126 0.3366019 0.5193434 -0.7854818 246 246 246
0.0303144360476164 -0.00277758206968493 -0.0212586053034801 0.3136803 0.5062198 -0.8033344 243 243 243
0.033495909191394 -0.00335313600046372 -0.0205426042748073 0.2546133 0.4575023 -0.8519763 180 180 180
0.0320550713248169 -0.00434102299991079 -0.0216199422370107 0.3125075 0.4507359 -0.8361676 243 243 243
0.04102796842847 -0.00479011599069623 -0.0183422138959581 0.3768758 0.3578862 -0.8543314 88 88 88
0.0353762720279693 -0.00394526023912012 -0.0208775769084614 0.3046663 0.3910398 -0.8684851 241 241 241
0.0386674603203754 -0.0072125348051959 -0.0203421585589423 0.3700711 0.3598977 -0.8564584 62 62 62
0.0452519063244865 0.0192287793394843 0.00642429177540682 0.5172023 0.708536 -0.4800818 15 15 15
0.0485475431413795 0.0162981687672292 0.00551504469743924 0.6306697 0.6562382 -0.4142548 36 36 36
0.0521643977992832 0.0129025902469315 0.00551627270876032 0.874559 0.3990174 -0.2755569 104 104 104
0.0458456296552137 0.0175819140804057 0.00213305050703405 0.4178164 0.6806996 -0.6017287 42 42 42
0.0521906985899045 0.0104241425811382 0.00415585917098238 0.928704 0.2336821 -0.2879263 81 81 81
0.0514593634275209 0.0116898078262828 0.00192560045621426 0.8559448 0.3280574 -0.3996711 158 158 158
