ply
format ascii 1.0
comment File exported by Rhinoceros Version 7.0
element vertex 467
property float x
property float y
property float z
property float nx
property float ny
property float nz
property uchar red
property uchar green
property uchar blue
end_header
-0.0473772282922507 -0.0277172372423472 0.0090008585606684 -0.9515487 0.2626666 0.1598792 146 156 146
-0.0413677644021524 -0.0351882289764953 0.00780126559515598 0.2747533 -0.8689048 0.4117221 126 132 119
-0.0451620567486366 -0.0345694808333937 0.0107324621587714 -0.2486447 -0.6628223 0.7062877 97 106 96
-0.0453004153910859 -0.0337189976744304 0.012133463121296 -0.4359013 -0.3821355 0.8148389 151 151 142
-0.0412201744361704 -0.0342154017027662 0.0112423068697544 0.444894 -0.7113554 0.5440983 144 151 137
-0.0372340514145448 -0.0307278832557722 0.0104300476859597 0.4138994 -0.7517374 0.5133987 120 122 102
-0.0375578443323628 -0.0316099128679518 0.0120411614421463 0.3515834 -0.819388 0.4527609 107 109 77
-0.0455352228014108 -0.025978414698035 0.00988469008830239 -0.9148073 0.3560593 0.1906555 164 158 164
-0.0458590661622962 -0.0286009654665865 0.0122582752547287 -0.7472092 -0.04250488 0.6632283 143 136 151
-0.0459228790186097 -0.0321402510637202 0.0127969856623074 -0.3622468 -0.4123129 0.8359278 168 166 181
-0.0456940168249045 -0.0280508837945835 0.0144893056603272 -0.6277266 -0.2313283 0.7432675 161 161 153
-0.0471738467558347 -0.0284805072030971 0.0131530556449931 -0.8025834 -0.0008130146 0.5965394 136 132 126
-0.0468624299394769 -0.0285195407665956 0.0135297886263199 -0.6806485 -0.1292309 0.721122 148 145 137
-0.0413472447229442 -0.0290543263732945 0.0157162541508031 -0.1302364 -0.461134 0.8777209 123 128 109
-0.0418003094824262 -0.0272998642884007 0.0160662811818793 -0.2127075 -0.519715 0.8274369 136 140 137
-0.0395470225587016 -0.0299369698319825 0.0143574559391457 -0.004626773 -0.5896919 0.807615 126 127 108
-0.0388340155666862 -0.0307317583367362 0.0134721754865464 0.04156519 -0.5848721 0.8100598 161 170 164
-0.0366926706366113 -0.0284544668094663 0.0154577842315822 0.04871425 -0.6452241 0.7624387 111 116 109
-0.0400489936953559 -0.0267378694790268 0.0169243320149793 -0.153494 -0.5713356 0.8062352 145 146 132
-0.0372581651945192 -0.0281095031860932 0.0158684625571086 0.005521218 -0.597716 0.8016889 132 130 135
-0.0380795513694285 -0.0258789542442027 0.0176713398745386 -0.1775991 -0.6057773 0.7755594 156 156 157
-0.0376140388438475 -0.0264890023551988 0.0169980058221827 -0.03341853 -0.6084505 0.7928879 168 171 170
-0.0391950236478738 -0.0260604276389489 0.0199668570290056 -0.2371655 -0.5349123 0.8109385 137 144 127
-0.027348589725799 -0.0374773565863614 0.0074877825254257 0.2244911 -0.785588 0.5765893 135 140 112
-0.0337243441001964 -0.0325096880964516 0.00717831747378844 0.3378237 -0.6936123 0.6362211 136 134 124
-0.0293547742356099 -0.0317191684182463 0.00676849495934112 0.1280926 -0.6627832 0.7377741 111 115 97
-0.034846452446051 -0.0289365181688035 0.00913632332386366 0.3614118 -0.7888651 0.4970647 106 108 90
-0.0317315362540536 -0.0291626313611983 0.00971427614537407 0.2436439 -0.8651172 0.4384175 129 133 120
-0.0288405461515022 -0.0296173966994707 0.00763288993756861 0.236909 -0.59718 0.7663225 124 119 116
-0.0352653800707612 -0.0313347466576264 0.0151634114594524 0.2661404 -0.7414329 0.6159924 145 144 122
-0.0351838047246646 -0.0297842432097931 0.0164940042788342 0.2308679 -0.6370537 0.7354336 184 185 188
-0.0352965212990741 -0.0267625847739557 0.0164373816203303 0.3733517 -0.6415786 0.6700638 128 133 127
-0.0286631886987474 -0.0279493966547539 0.0149670454537002 0.310847 -0.7494358 0.5845684 136 135 114
-0.0232423106580992 -0.0277518404727768 0.0070737458920655 0.2021524 -0.6704239 0.713909 112 115 98
-0.0253551380711525 -0.0283661051447643 0.00891021979158879 0.3191506 -0.7361795 0.5968105 118 122 102
-0.0245742899742887 -0.0262628199829896 0.0101537105304291 0.2544325 -0.7335784 0.6301799 121 124 100
-0.0194458306166034 -0.0269617350616682 0.00781476687612959 0.1467014 -0.724667 0.6733027 144 147 134
-0.0168664124117135 -0.0247290018465108 0.00918754822610457 0.165738 -0.8505094 0.499164 133 136 123
-0.017035028356124 -0.0255576841226418 0.00933853445530169 0.104521 -0.8658791 0.4892124 138 131 117
-0.0178291012965641 -0.0269164768456706 0.0144631499806133 -0.07602505 -0.925074 0.3720997 130 130 119
-0.0285648535373051 -0.0273518918994293 0.0220996230508824 0.1954467 -0.4555644 0.8684824 136 137 119
-0.0249799459804456 -0.0263703519482301 0.0198076939741574 0.3089938 -0.8976529 0.3142325 126 129 119
0.0323585961432464 -0.00199912195209817 0.0202692780588155 0.2636333 -0.06701738 0.9622921 139 139 115
0.0364791502670572 -0.0376341309459024 -0.00800090469227988 -0.3431388 -0.6078464 0.7160856 129 128 118
0.0259357919889351 0.0269906658476089 0.00925470914344551 0.3782069 0.9230521 0.07024516 97 102 45
0.0489390006536432 -0.00910439414433639 -0.0154400015945536 0.8858832 -0.4240034 0.1882343 118 125 92
0.004986363395864 -0.0375258115484123 -0.010320576625238 0.1838712 -0.6662205 0.722732 164 169 160
-0.0343500438039075 -0.0093061126161581 0.0285981368553295 -0.516336 0.1425431 0.8444398 177 179 181
-0.0141777464309487 -0.0124090531079388 0.0257802170434877 0.06801301 -0.6899269 0.7206768 121 123 118
-0.0370402988220544 -0.00757254242382333 0.0207057139552981 -0.8975831 0.4163336 0.1449514 163 162 160
-0.00595028270535658 -0.0315118748492 -0.00270006294215508 0.1186481 -0.7281812 0.6750369 144 145 138
-0.0418536730543762 -0.01664340667108 -0.00274945346186195 -0.9262378 0.3750672 -0.03752639 171 170 160
0.0200128231534122 -0.0331018995155493 -0.00684291728851405 -0.1236709 -0.5972169 0.7924882 134 134 138
-0.0206979858913554 0.0312957056465 0.0134083221867613 -0.9181953 0.3389445 0.2050221 155 150 153
0.0127304454217532 -0.0373701151628344 -0.00558373903899834 -0.07542419 -0.6745313 0.7343832 160 162 156
0.00283277135026139 0.0397280716864498 -0.00247689393087736 0.4107611 0.9098772 0.05829977 72 78 38
-0.00725333641698089 -0.0219229850324303 0.00628133901709538 0.324402 -0.8205162 0.4706554 103 109 105
-0.00348968325845922 0.020739529906121 0.0293936791356542 0.1935347 0.08400805 0.9774901 151 149 153
0.048830079251954 -0.0214510080183581 0.00730232872457243 0.5878007 -0.66179 0.4653218 183 186 189
0.0454157474979286 -0.0282312182611698 -0.00095955100924483 0.6586856 -0.6434258 0.3900468 167 172 145
0.0252822173673311 0.0280467492181372 0.0128616969840331 0.3467396 0.9379348 -0.007066668 75 86 52
0.0225824779776065 -0.0457948462986961 -0.00990448767390706 -0.1367997 -0.4806708 0.8661648 150 149 133
-0.0385724868829815 -0.013209128014279 0.025845374670381 -0.8392109 -0.07925154 0.5380002 178 182 183
0.0138749286652742 0.0349040615765525 -0.00794929301164543 0.4632836 0.8852891 0.0403931 111 116 89
0.025891521347037 0.0232786125272916 0.023593387909626 0.2489819 0.1684425 0.9537479 204 207 209
-0.00114347652994051 -0.0249674854863164 0.00230346753083299 0.1417791 -0.7363852 0.6615403 129 126 116
0.00290306642852944 -0.0240962648981419 0.00291187443146718 0.08024875 -0.7897556 0.6081498 134 136 128
-0.00813867347323272 0.040702890192402 0.0292320564993795 0.4510397 0.7311568 0.511833 128 129 36
0.0195802263173237 0.0325790944952983 -0.0129456915213691 0.414336 0.9093028 -0.03865464 74 82 41
-0.0252360518424863 0.0183097812452591 0.0192665933737865 -0.9255483 0.3740575 0.05866287 143 142 126
-0.0102198739908279 -0.0177422537084136 0.0178730010706846 0.3193383 -0.728765 0.605743 139 137 132
-0.0353981328541768 -0.00533460275299813 0.00419819494545304 -0.9061415 0.4195296 -0.0538758 146 143 140
0.0381727301416372 -0.0297888577339824 -0.00122796330662328 -0.352843 -0.5454454 0.7602573 178 175 175
-0.041467055660467 -0.01688790430739 -0.0121562525931583 -0.9625414 0.2660168 -0.05243248 157 151 128
0.0242224933919222 -0.0440471039977786 -0.0164968443388979 -0.09793063 -0.5448009 0.8328274 115 117 87
-0.0057315636904951 -0.0133988876919457 0.0216111072315598 0.1399638 -0.7621472 0.6320933 167 170 162
-0.00573150007851586 -0.00815727737639327 0.0273776216927535 0.1240389 -0.3236917 0.9379968 152 153 146
0.0490406999050768 -0.0213035963139978 0.00567210263436824 0.6690909 -0.6424341 0.3736251 121 124 92
0.000626283119532056 0.00404696423043482 0.0277161708494971 0.2631121 -0.1822793 0.9473892 178 179 166
0.0340795276402193 0.023404605611445 0.0217581159164745 0.475645 0.4684676 0.7445132 176 176 175
0.0183375821603691 -0.026049073837936 -0.00176528544121801 -0.01869906 -0.7203257 0.6933839 154 151 147
0.0157514171010609 0.031748812024765 0.0205055230608811 0.422115 0.8581992 0.2920841 133 130 125
0.00424161385433863 -0.0409591677773862 -0.0128911001100658 0.1168751 -0.5913748 0.7978823 80 96 39
-0.0259953613669595 0.0193087272872129 -0.00568000374841054 -0.9006888 0.4286802 -0.07066147 115 109 80
0.0246918058797583 -0.0160455831329999 0.0124560108861707 0.06987953 -0.798371 0.5980976 137 134 125
-0.0357703961494638 -0.0132797683434306 0.0271220173621357 -0.4322425 -0.3435784 0.8337387 143 137 137
0.0544637566510027 0.0149982633496387 -0.0128871090615712 0.4211522 0.8953939 -0.1445702 77 80 16
0.0358819549146456 -0.0218616553638121 0.00509217526161326 -0.1793377 -0.7660049 0.6173123 181 174 175
0.010987805071726 -0.0158875453567251 0.0210438337324489 0.1881839 -0.7494524 0.6347503 127 127 118
-0.0236286366254055 0.0256228504839768 0.00619623871258057 -0.9110919 0.4081177 0.05789216 154 161 135
-0.0268606789147621 -0.0218598554472668 0.020762800716691 0.2755183 -0.6071524 0.745289 132 138 93
0.029886152444637 -0.0220720073145338 0.00423193816642603 -0.04149886 -0.8465554 0.5306805 153 151 135
0.0309081140249083 -0.0460800729617062 -0.0175865480685502 -0.04802091 -0.682656 0.7291603 118 114 100
0.0457985327681121 -0.0276064846213726 -0.0175860370818 0.9556519 -0.2911856 0.04404909 136 136 112
0.0266190699985291 -0.0448358942004599 -0.0148668923876135 -0.03411986 -0.5248629 0.8505027 160 160 154
0.0250851408805479 -0.0445068869724523 -0.0155037161470712 -0.03411986 -0.5248629 0.8505027 129 129 97
0.0287707281383809 -0.0432949595249092 -0.0140183392896808 -0.07466735 -0.5723678 0.8165904 141 145 144
-0.0109058118836602 -0.0396892385746792 -0.0119933257898375 0.1329285 -0.7835444 0.6069499 107 111 73
-0.0119557261655754 -0.0389442427790849 -0.0100576096403966 0.1592079 -0.8079304 0.5673636 144 142 132
-0.0112368004026648 -0.0395707833503181 -0.00945167761224691 0.1146603 -0.8527132 0.5096403 194 196 188
-0.011233725258708 -0.0375379353231424 -0.00857622079900494 0.2143532 -0.7933189 0.5698226 170 171 160
-0.0136384983358799 -0.0372988639715517 -0.00636370400545655 0.1120867 -0.8261855 0.5521359 133 130 109
-0.00606705600359536 -0.0385230006156719 -0.00993862785777377 0.1880294 -0.7394437 0.6464271 213 212 211
-0.00576880177837724 -0.0356072586070884 -0.00800098417489298 0.1577574 -0.7090428 0.6872925 131 131 126
-0.00804198722155469 -0.0372463025437352 -0.00727726232588183 0.2864967 -0.7560697 0.5884541 141 137 138
0.000998771106062391 -0.0375043428072542 -0.0119327541413214 0.1857951 -0.6167046 0.7649546 131 134 125
0.00444153854146312 -0.0372615536136378 -0.0127854272081362 0.1500219 -0.6831076 0.7147429 209 209 208
0.00133052080005891 -0.034846420831292 -0.00856026033702406 0.1161041 -0.7383251 0.6643764 138 134 131
-0.00188192515387398 -0.0345682346013076 -0.00684039582221313 0.248868 -0.6809125 0.6887836 159 154 156
-0.00023409841297628 -0.0345457619626617 -0.00696766304109725 0.2605065 -0.6947885 0.670377 148 143 145
0.00641887782753403 -0.0340211611352695 -0.00755115392095579 0.1106438 -0.7356873 0.6682232 155 153 131
0.00523851156528288 -0.0331168471452834 -0.0136677754343368 0.1389294 -0.7135792 0.6866611 131 135 108
-0.00284692948988008 -0.0338577879104529 -0.0070944856305632 0.2191446 -0.6407502 0.735809 145 143 135
-0.00240242284437753 -0.0336139883645018 -0.00594095379436194 0.1917329 -0.6429374 0.7415322 138 136 124
-0.000712301612779909 -0.0334218177439117 -0.00662162819191026 0.254595 -0.6648439 0.7022563 117 119 107
0.000788610303514403 -0.0327864581098851 -0.00531190552749278 0.2038541 -0.667632 0.7160384 107 112 101
0.00317894489610104 -0.0332500510159196 -0.00860264788107895 0.1729166 -0.7640009 0.6216128 135 144 121
0.00502115221384414 -0.0334473255296986 -0.00824846511182636 0.1481951 -0.7363094 0.6602171 182 180 175
0.00315756057509597 -0.0338124550906039 -0.00711834271820899 0.107541 -0.6927993 0.7130666 128 134 124
0.00676781163136453 -0.0327920409432984 -0.00649428628822635 0.1237039 -0.6776664 0.7248901 171 176 152
0.00787530697631378 -0.030250611824099 -0.00501020660411744 0.06849924 -0.7423992 0.6664467 154 152 135
-0.0113332005987561 -0.0374008839067694 -0.00351035940220873 0.2080526 -0.7149112 0.6675448 165 164 154
-0.0102700792241199 -0.0381678905820918 -0.00197419512792002 0.1555199 -0.6786762 0.7177828 160 162 167
-0.00393829906846177 -0.0374601309608675 -0.00481634098629413 0.2707933 -0.6821272 0.6792449 163 169 179
-0.00987022574813778 -0.0334271463934105 -0.00471499941615949 0.3184279 -0.6300378 0.7082768 119 123 113
-0.00780524607504529 -0.0334972602292363 -0.00464140372236305 0.259419 -0.5874742 0.7665349 136 141 129
-0.00776627868600865 -0.0324179495057735 -0.00340955642884383 0.2690519 -0.6794013 0.6826603 143 146 125
-0.00736276088429033 -0.0309328250850184 -0.0022177791951396 0.2351881 -0.7497358 0.6185327 150 144 148
-0.00452734571527835 -0.0297991962638152 -0.00234221099344289 0.1593923 -0.7674543 0.6209735 106 119 93
-0.00636470985065629 -0.0297402141891444 -0.00100714134058855 0.2240134 -0.7608462 0.6090411 148 152 131
-0.0126807475489514 -0.0316517185635335 0.00261315527190115 0.3140128 -0.7915614 0.524239 135 137 127
-0.0132056184765841 -0.0295816526032326 0.00213128294733628 0.3167871 -0.7912821 0.52299 175 176 170
-0.0114283314759522 -0.0273282020698929 0.00498298797532776 0.3648939 -0.747047 0.5556737 156 156 163
-0.0115237173794978 -0.0267575390677897 0.00579571012260682 0.3710711 -0.7359442 0.5662971 158 161 154
0.0236421494129431 0.00110743527593282 0.0212716901214725 0.2907398 -0.112435 0.950173 222 223 225
-0.00854751539784804 -0.0284755910189296 0.00101606200306831 0.3451191 -0.7302636 0.5895828 117 118 112
-0.00557888247484328 -0.0256068766474209 0.00326259746751945 0.1637993 -0.7338603 0.6592562 126 126 121
-0.00469251310873919 -0.0250495180082111 0.00264916117251984 0.1593037 -0.7338004 0.6604236 116 116 104
-0.00354629339965484 -0.0314481683229343 -0.00430324950248212 0.1638239 -0.6477079 0.7440673 126 129 117
-0.00210850339568247 -0.0313144264369809 -0.00489346095143123 0.1906707 -0.6666535 0.7205677 151 146 143
-0.0016905739360662 -0.029471281590752 -0.00323398139770081 0.1869594 -0.7312621 0.655974 150 153 143
0.00172536334337736 -0.0304353527729222 -0.00419359128216013 0.1329854 -0.7419444 0.6571403 144 140 128
-0.00169263774156247 -0.0279661387890873 -0.000130434584876715 0.1568971 -0.770918 0.6173077 170 171 173
0.0046736132408991 -0.0269095038653284 -0.000804987686464365 0.1006604 -0.7752951 0.6235262 144 141 133
-0.00195340452424886 -0.0266341643229686 0.000773640820960875 0.1650532 -0.7639578 0.6237996 191 196 191
-0.00171736917417231 -0.0253491731237879 0.00260683937049655 0.1583813 -0.749769 0.6424654 128 127 107
0.0013537476785801 -0.0238015213299329 0.00334628625855454 0.0895571 -0.8227887 0.5612472 92 101 78
0.00556608012454318 -0.0261189408319769 0.000510659428537175 0.1614932 -0.7644298 0.624153 134 135 121
0.0026034919435125 -0.0238013075413817 0.0053508136519963 0.03870439 -0.8215941 0.5687575 139 136 142
0.0059630793390566 -0.0239681510165543 0.0037376781553235 0.1764485 -0.8221853 0.5411813 130 126 125
0.0170929735907108 -0.0405964774382443 -0.0147959093314486 -0.101676 -0.5222785 0.8466919 161 163 143
0.0145148951862344 -0.0392528774450318 -0.0138749684374144 -0.07458692 -0.5471518 0.8337036 146 137 135
0.00904883281552005 -0.0371201564090545 -0.0153860014891096 0.08060201 -0.5571758 0.8264735 160 153 149
0.0122317690921185 -0.0363151687289645 -0.0133640048352569 -0.0223185 -0.6204724 0.7839106 139 134 115
0.0140230894401099 -0.0375495091118558 -0.0128680665944729 -0.1098124 -0.6145679 0.7811834 86 89 50
0.0150516625596657 -0.0366019088805783 -0.0126945312255445 -0.06940819 -0.593182 0.8020709 190 186 189
0.0186187525146464 -0.0376115487181321 -0.011036885101775 -0.2298578 -0.636973 0.7358198 113 114 98
0.0130093689071451 -0.0357012787165727 -0.0118434809264597 -0.03970356 -0.7213793 0.6914012 106 102 78
0.0180740303609983 -0.0356651319348701 -0.0117149246380774 -0.1693895 -0.6477776 0.7427593 96 97 77
0.011858981024355 -0.0357773989321902 -0.00988690528950231 -0.01543555 -0.7393057 0.6731929 89 100 64
0.0111923105632334 -0.0344407003119988 -0.00978691109267743 0.01657187 -0.7969564 0.6038095 145 151 137
0.0114393279200447 -0.0336857881800129 -0.00951334561518219 0.07068603 -0.7574005 0.6491132 137 140 127
0.0141399299605558 -0.0344237120767615 -0.00970471866470846 0.009888377 -0.7354681 0.6774871 153 153 145
0.0209311765254663 -0.043090936362073 -0.0139399908012629 -0.1048461 -0.4815611 0.8701185 178 174 173
0.02427474217232 -0.0428224678959417 -0.0144034705689969 -0.1045559 -0.4344582 0.8946028 147 149 137
0.0200757401225775 -0.0387799795412077 -0.0118166588082056 -0.1785442 -0.5489379 0.8165717 170 168 159
0.0225937449999927 -0.0408823442229782 -0.0132732855699408 -0.08067868 -0.4833646 0.8716935 174 172 179
0.0245063312202818 -0.0415665026158119 -0.01370725914025 -0.03371385 -0.4774756 0.8779979 180 181 177
0.0250109606856077 -0.0387088394608016 -0.0116408781131658 -0.01155067 -0.5517751 0.833913 115 127 89
0.0292263054023865 -0.0390054528268727 -0.0118435236442102 -0.1268715 -0.5903113 0.7971424 193 188 194
0.0280660135943123 -0.0375300316603526 -0.0105690787180331 -0.1352762 -0.5501137 0.8240602 167 160 155
0.0209365188316986 -0.0367060670254298 -0.0108762001851936 -0.1643554 -0.6643515 0.7291258 125 131 102
0.0196655201718583 -0.0343470409476108 -0.00875784883997538 -0.2153559 -0.6612878 0.7185543 126 128 101
0.0190215853091633 -0.0334393138997963 -0.00862840189565717 -0.1142289 -0.5975534 0.7936509 121 116 103
0.0210187549282845 -0.0367620301748085 -0.00757863214537768 -0.1278127 -0.6902417 0.712201 137 140 124
0.0250117814985109 -0.0367539044742657 -0.0110249428548855 -0.01224789 -0.563825 0.8258035 148 146 133
0.0257510322333934 -0.037749201702839 -0.0109450705137015 -0.01795841 -0.5759403 0.8172945 103 106 75
0.0260313524942872 -0.03598898155708 -0.00982764185122287 -0.01464073 -0.6154968 0.7880034 139 133 115
0.028504528299248 -0.0353099339725206 -0.00903459714278315 -0.1505124 -0.5917992 0.7919089 144 143 133
0.0285151515488806 -0.0334411950267129 -0.00784270265881387 -0.1510376 -0.6147785 0.7741027 157 159 151
0.00850629866083086 -0.0315054416166112 -0.00641453145453458 0.0642349 -0.7267099 0.6839346 160 170 162
0.0523407012068728 -0.0122009139056988 -0.000142166140511157 0.9497861 -0.3089228 -0.04972912 77 83 55
0.0133374187270281 -0.0323547580794538 -0.00716400564841874 0.07684535 -0.650243 0.7558299 133 130 121
0.0153733094915749 -0.0330065547206889 -0.00775019109619296 0.0073612 -0.6922465 0.7216236 145 145 147
0.0140701100315681 -0.0311449454397594 -0.00624615699608 -0.01462157 -0.6851354 0.728269 155 153 157
0.0174539746528553 -0.0301005243370305 -0.00606576625963173 -0.03517781 -0.6775093 0.7346725 104 110 80
0.0244517468287822 -0.0297948577624605 -0.00527120577357693 -0.07128114 -0.7082362 0.7023677 127 129 120
0.0277964714617713 -0.0321939597313493 -0.00688654426205959 -0.1213784 -0.6911225 0.7124724 130 131 126
0.0092636442057914 -0.0286100491910245 -0.00446068799409788 0.1128424 -0.7382604 0.66501 206 204 203
0.0109587764064534 -0.0303348783215691 -9.68369363634203E-05 0.1708029 -0.7491921 0.6399512 125 126 108
0.0135699714076722 -0.0279968966240522 -0.00341645474628993 0.1462609 -0.7234992 0.674653 124 122 120
0.00741426152819025 -0.0279393474273365 -0.00143484532380889 0.1508004 -0.7741957 0.6147196 160 164 159
0.00744419007186048 -0.0266220363328585 -0.000967398972502032 0.1413989 -0.7367173 0.6612518 177 178 172
0.0122890723297335 -0.0269119522252886 -0.0017433529114203 0.1446025 -0.7272488 0.6709689 128 130 107
0.00759574098006954 -0.0242037741566337 0.00154504845312564 0.179889 -0.7368672 0.6516646 144 147 132
0.00984121140629557 -0.0247188587334445 0.00104330782325479 0.1324655 -0.7449992 0.6537806 112 116 99
0.0105580472336479 -0.0230073554053722 0.00236247743501772 0.1432663 -0.8068652 0.5730998 125 127 102
0.0130701354179137 -0.0234524900111919 0.00417126344302837 0.02822212 -0.8355006 0.5487643 122 123 107
0.021750689597736 -0.0285847387223116 -0.00439400246587024 -0.07828007 -0.7069311 0.7029372 118 122 100
0.0252777161181139 -0.0307870443784279 -0.00515063282776612 -0.07026085 -0.665312 0.7432519 111 115 118
0.026040595846673 -0.0258024338013065 -0.000919131981063526 -0.1024868 -0.7470695 0.656798 117 119 108
0.0280562290443389 -0.0242497290822991 0.000247649491807334 -0.07203441 -0.7821163 0.6189549 143 139 139
0.0217721977090919 -0.0237036958274442 0.00149692402182677 -0.01132334 -0.8613504 0.5078852 125 134 112
0.0205165589506717 -0.0236926826374559 0.00461639372143052 -0.05198729 -0.8454683 0.5314891 102 107 87
0.0230046831593949 -0.0227858492206039 0.00295056664637283 -0.03886158 -0.8825859 0.4685422 113 112 107
0.0246612449681916 -0.0254481219078061 0.000170122808254181 -0.06273267 -0.7474454 0.6613547 111 113 97
0.0289786470195121 -0.0247010568649652 0.00106800305572929 -0.04769999 -0.8012645 0.5964058 125 123 109
0.0238277283560835 -0.0232677714105306 0.000471197646248755 -0.1230601 -0.7907406 0.5996544 190 189 190
0.0256690149902368 -0.0234296661450736 0.00174828009860639 -0.1286299 -0.8102915 0.571736 109 113 105
0.0268425310375038 -0.0223459816367659 0.0046661528101522 -0.1671256 -0.849288 0.5007783 122 123 114
-0.0124239865695124 -0.0255533584727488 0.00838447769608519 0.1738446 -0.9097046 0.3771149 134 142 133
-0.0102912573894609 -0.0288095062338961 0.011640808274702 0.1236455 -0.8456925 0.5191494 145 139 132
-0.0104206458171083 -0.0266172804056788 0.0126959312859425 0.1293627 -0.801232 0.5842026 138 139 126
-0.0130558726335313 -0.0256408493604837 0.0211532693859372 0.2840044 -0.643177 0.7111012 142 144 132
0.0337001079433725 -0.0462858470851915 -0.0161207548240015 0.03937778 -0.7114878 0.7015942 107 112 64
0.0306147211250969 -0.0456715723675761 -0.014651320086176 -0.05562067 -0.6386896 0.7674516 170 171 165
0.0321646524454351 -0.0442123380255719 -0.0149045540205345 -0.03441129 -0.6393689 0.7681297 129 131 119
0.0359931176160597 -0.0453775835147253 -0.0160880193140896 0.04236985 -0.7929634 0.6077942 147 145 126
0.0365773583752806 -0.0428164173768968 -0.0140182461912903 -0.02294329 -0.7454299 0.6661891 149 148 137
0.0514026787576747 0.0175368941511473 0.00257367735864722 0.478895 0.8757209 0.06142 90 93 58
0.0314955869573248 -0.042148205844094 -0.0133678108567088 -0.07152207 -0.5726731 0.8166579 130 129 125
0.030625788025205 -0.0389252994146332 -0.0114696840952613 -0.1037182 -0.5911008 0.7999015 156 158 147
0.0322985504984521 -0.0394552209452828 -0.0117320423218785 -0.2059685 -0.6046913 0.7693669 159 161 157
0.035500281749451 -0.0425519910296459 -0.0118532755549118 -0.1179216 -0.7070862 0.6972256 222 219 223
0.0326928127663417 -0.0391647194550809 -0.0107794720430453 -0.2273401 -0.6063567 0.7620026 170 169 169
0.0324410725143327 -0.0374796975802333 -0.00994366914038519 -0.261433 -0.5904756 0.7635387 158 160 152
0.0304410511818836 -0.0384247660139261 -0.00649790958222468 -0.2176387 -0.5764132 0.7876428 155 153 156
0.0365478640246586 -0.0407955281946817 -0.0100696330533553 -0.2877081 -0.6635472 0.6906006 134 136 128
0.0392344897545287 -0.0415600967144087 -0.0114904945631341 0.3816572 -0.7805917 0.4949893 216 216 217
0.0356880745407293 -0.039059347687586 -0.0100170242012227 -0.3200881 -0.6205876 0.7158315 165 170 149
0.0314977955765401 -0.0377157047648677 -0.0110055675686072 -0.1836054 -0.6129601 0.7684848 209 209 201
0.0302908886688154 -0.0361037855980197 -0.00959723074073687 -0.1694025 -0.5704438 0.803677 172 171 170
0.032890980487619 -0.032957495392109 -0.00721145570512888 -0.2843885 -0.6050336 0.7436784 145 145 126
0.0368752575728641 -0.0352187897362138 -0.00603074501456707 -0.3905891 -0.6058955 0.6930591 179 177 166
0.0419599135887303 -0.0403074837669818 -0.0114799353608624 0.6130829 -0.7018965 0.3625889 162 166 160
0.0431724275302892 -0.0364308139714729 -0.00815063629929358 0.7312357 -0.6431791 0.2271892 152 153 142
0.0436286971826441 -0.0351400991931123 -0.0114107476836252 0.9349194 -0.3208247 0.1516482 89 94 38
0.0434941377744296 -0.0349017025880761 -0.0075842852115372 0.8368208 -0.5136747 0.1893916 109 123 77
0.0424016811695385 -0.0258544696909804 -0.0159458930985324 0.9587325 -0.2676572 0.09587267 113 109 98
0.0468653277185069 -0.0257659091095687 -0.0157146182656405 0.9613132 -0.2723188 -0.04146467 132 130 114
0.0475797609933657 -0.0233917584203012 -0.0154616858232257 0.9360503 -0.3517758 0.007978362 89 94 62
0.0489177830447269 -0.0217768374107846 -0.016462302612714 0.8835145 -0.4674917 0.02921646 115 115 81
0.0481708251751416 -0.0219435499015973 -0.0157621728007947 0.8931457 -0.4431713 0.07674652 110 110 84
0.0404439442259055 -0.0295117004147016 -0.010560227692115 0.8197064 -0.3419574 0.4595068 211 200 184
0.0449879244929576 -0.030322007185599 -0.00890019502876777 0.9386604 -0.3447244 0.009041355 92 96 66
0.0465963242853995 -0.0285449968547575 -0.00961703547994669 0.9452232 -0.3264229 0.001089126 115 115 84
0.0459264937945152 -0.0237636481850223 -0.0112573467017806 0.9609549 -0.2757945 0.02242841 109 107 87
0.0467438105147941 -0.0252185340985239 -0.00802050118336184 0.964008 -0.2633694 -0.03640071 110 113 82
0.0472843205218518 -0.0259144937132058 -0.00754071497072734 0.960771 -0.2730008 -0.0488838 78 87 71
0.0376513771235345 -0.0345367163140992 -0.00532276333626797 -0.3423223 -0.6003172 0.7227964 148 146 135
0.035293548811411 -0.0333104267598732 -0.00441101082166262 -0.3990742 -0.6167255 0.6785201 160 157 158
0.0384216041499155 -0.0331172771497348 -0.00418523950407734 -0.345022 -0.6194706 0.7051355 173 176 183
0.036888441389 -0.0353445877951271 -0.00129719476766937 -0.3776553 -0.5967144 0.7080313 179 175 175
0.0410871605353202 -0.0358391326705185 -0.00617869888731976 -0.02146365 -0.6663678 0.7453142 163 163 153
0.0433774196098995 -0.0343180101435074 -0.00584881008343158 0.6897351 -0.652914 0.3129998 70 73 45
0.0442145784013308 -0.0339429419738537 -0.00414402732406194 0.6570283 -0.6112031 0.4412987 92 102 72
0.0435152107553505 -0.034789262457433 -0.00290810224814536 0.3847175 -0.6762455 0.6282392 155 155 134
0.0424209433781904 -0.0334515783245912 -0.00215399550148709 0.2248398 -0.6172938 0.75392 172 172 167
0.0433973092018551 -0.0343129032579512 -0.00323380057172107 0.3325679 -0.673939 0.6597005 190 191 187
0.0409303497688169 -0.0325522582127565 -0.000373860149545657 -0.08984622 -0.6089733 0.7880858 151 153 141
0.0305403101648367 -0.0301981035619682 -0.00453895395382226 -0.1741501 -0.6667148 0.7246813 164 167 147
0.031745673484298 -0.0290069954510153 -0.00363374718884268 -0.159567 -0.6231921 0.7656174 145 145 147
0.0342797908516674 -0.0293452023693911 -0.00246547819796716 -0.2319465 -0.5781188 0.7822912 165 164 158
0.0298235358041787 -0.0286655909125189 -0.00254528758821398 -0.09848193 -0.6459736 0.7569805 167 165 160
0.0297683754653706 -0.0272528339066078 -0.00183697102684421 -0.07010335 -0.6745749 0.7348703 129 126 122
0.0370593947355746 -0.0294356885814182 -0.00127460223225767 -0.3450264 -0.5577049 0.7549318 160 161 156
0.0298805984540604 -0.0264424762941768 -0.000808030513059221 -0.07126968 -0.6834251 0.7265334 160 170 162
0.0379462968127771 -0.0266840099328579 0.00159343132930345 -0.3107662 -0.6285607 0.7129768 151 150 144
0.0304558669711927 -0.0247623480583923 -8.64411746018257E-05 -0.1054516 -0.7668631 0.6330885 152 145 145
0.0339674528186931 -0.0255164492212867 0.000401253235176424 -0.1543898 -0.7414643 0.6529889 131 131 127
0.0330728591296903 -0.0244370436724706 0.000585126191311125 -0.1553552 -0.7745062 0.6131924 111 112 94
0.0328659278987589 -0.0231278029332751 0.00367376588550444 -0.1173407 -0.7976989 0.5915299 135 138 130
0.0328386641791396 -0.0218883540018626 0.00516935333312579 -0.05491792 -0.8129 0.5798083 140 145 136
0.0373565685199133 -0.0261880074531989 0.00102313663751286 -0.3354166 -0.6273584 0.7027924 143 146 137
0.0346425962319135 -0.025250653278498 0.00167814202990513 -0.2178909 -0.7326791 0.6447517 121 121 129
0.0364061218299774 -0.0252530405584644 0.00184726929546397 -0.3244958 -0.6942111 0.6424745 89 102 66
0.0373710934939753 -0.0248044210018513 0.00277921700807687 -0.2374392 -0.6958648 0.6777867 155 154 149
0.037542975304286 -0.0234302930430087 0.00303037287079383 -0.2148814 -0.7071457 0.6736252 141 141 132
0.0455408449291752 -0.0301932706647271 -0.00526615998658325 0.9103681 -0.3886012 0.142194 125 127 100
0.0458549632752903 -0.0297925977716293 -0.00384734192861669 0.9056746 -0.4092345 0.1108183 109 118 93
0.0469568723168459 -0.0244599233842067 -0.00380153570895464 0.9647162 -0.2625937 -0.01916205 146 144 128
0.0477265143365224 -0.0225045285211019 -0.00333392341014827 0.946501 -0.318048 -0.0546014 118 116 101
0.0420124549749237 -0.0313272517962602 -6.47469369040587E-05 -0.1083305 -0.5829385 0.8052622 178 178 178
0.0406926022668435 -0.0300962918163495 0.00030606007890599 -0.1957889 -0.5256438 0.8278679 131 129 116
0.0444632390670403 -0.026748237628606 0.0036111186361501 0.1698469 -0.7189813 0.6739569 199 196 186
0.0457843214003633 -0.028176114869197 0.00199101525015499 0.318599 -0.6760628 0.6644048 157 156 152
0.0434124490301231 -0.0211221737485814 0.000419522434252195 0.4101691 -0.9031293 0.1269601 97 102 83
0.0410084814002503 -0.0257857503007445 0.00295674555969644 -0.212076 -0.6375084 0.74068 188 188 184
0.0455404317891284 -0.0250594181860834 0.00440588568964223 0.2366424 -0.6745992 0.6992255 163 164 159
0.0478747005128057 -0.0236960429671914 0.00207169475886715 0.8749779 -0.4574637 0.1585577 113 114 92
0.0482923116583789 -0.02161397428039 0.000665631639441111 0.9050456 -0.4233582 -0.04074832 112 111 68
0.0481920191563936 -0.0233394562300878 0.00353196902347536 0.8090421 -0.5765055 0.1144217 111 112 92
0.0492121754972146 -0.0220600404952558 0.00405868539067261 0.7711685 -0.6130231 0.1717608 133 134 117
0.0376451781850167 -0.0277836947580229 0.00516968165884901 -0.2277297 -0.61849 0.75207 130 133 115
0.0364774676946036 -0.0215493885247835 0.00612956838705442 -0.1430809 -0.7358655 0.6618382 136 144 134
0.0395208216890266 -0.023072006220885 0.00573440392094399 -0.1697168 -0.6993354 0.6943531 124 133 115
0.0436914489549969 -0.0243061213920637 0.00524756808917265 0.03222068 -0.6802551 0.732267 129 132 112
0.0458003342971149 -0.0225521131470067 0.00744700076917792 0.1670572 -0.7338204 0.6584827 144 141 146
0.0468614468081874 -0.0248061642044024 0.00575159778550688 0.435053 -0.6613703 0.6109977 132 135 124
0.0465032455648364 -0.0216846682741878 0.00863046392855576 0.2307094 -0.6953808 0.6806017 121 128 110
0.0467390054617731 0.00218113357037097 0.0133376147297217 0.4709731 -0.05047357 0.8807024 166 166 181
-0.0111099668828194 0.031375702450085 0.0304006811736812 0.1358465 -0.04733892 0.9895983 138 140 135
0.0591932248767344 0.00341774301750009 -0.0192291206007718 0.9508585 -0.2963402 -0.08972523 131 131 92
0.0476673824929104 0.0138507336539802 0.0142637333570779 0.5394457 -0.09170309 0.8370119 153 164 154
-0.017607843198941 0.0185635853546184 0.0309764812773904 0.01676043 0.01216346 0.9997855 172 172 175
-0.0318268073100072 0.0068902429530634 -0.0104474097107964 -0.9392463 0.3353859 -0.0730252 121 115 90
0.0441850185540622 0.0202039595591552 -0.0188561021028864 0.488817 0.8720926 -0.02263735 122 119 102
0.0410469047393771 -0.00484034032063974 0.0159956002465685 0.3584957 -0.09024353 0.9291592 203 205 208
-0.0218253764707403 0.0297945421005383 -0.00628727658867345 -0.9356369 0.3192932 -0.1504509 151 158 147
-0.0206751850888245 0.0255270140267415 0.0270619749250117 -0.8709092 0.4437603 0.2111727 122 123 117
0.0525413003739414 0.00148267541022284 0.010466899837821 0.5013424 -0.0234747 0.8649305 122 134 101
0.0338873913590352 -0.00187559761499356 0.0180900712396522 0.3376568 -0.08369585 0.9375409 199 199 201
-0.0363447209409502 -0.00541645057591988 0.00391986306662045 -0.9054593 0.4236009 -0.02656419 131 131 105
0.00298277813774539 0.0104004609023375 0.0276746706276917 0.2656081 -0.01814533 0.9639103 131 133 129
0.0356554307120014 0.0236062918950808 -0.00412968779495171 0.3826521 0.9232661 0.034016 106 101 84
-0.0180191417343618 0.0023882064638886 0.0294947755963356 0.0870693 -0.1109722 0.9900021 178 185 157
0.0416144053291803 -0.00214102283168938 0.0149900738046982 0.3879718 -0.1073005 0.915404 159 163 158
-0.0329232142607092 0.00225014874984242 0.000996394470463791 -0.9396551 0.3335319 0.07618938 138 131 119
-0.0273473096555716 -0.00392325508512414 0.0296732811194378 0.03191148 -0.1013161 0.9943423 181 180 179
0.00565463077431261 -0.00141435294380698 0.0244867719265398 0.2083391 -0.07521082 0.9751606 92 106 83
0.0284005048679419 0.0163053238788217 0.0221196470562483 0.2739007 -0.1652015 0.9474634 195 203 204
-0.0267134441405485 0.0176264371726564 -0.0141154596237003 -0.908141 0.4176223 0.02952129 150 151 140
0.0573231855889806 -0.00266011662919974 -0.0117744982805985 0.9134291 -0.4063553 -0.02285993 205 190 173
0.0173756481283807 0.0316320544716485 0.00797313652807313 0.4508226 0.8840689 0.123212 110 109 90
-0.0250187835380009 -0.0147741785830156 0.0249581486580058 0.279242 -0.7719718 0.5710372 121 128 108
-0.00544597994881801 0.0431509730714109 0.0019251985681375 0.3455965 0.92743 0.142957 98 103 83
-0.0299800942808592 -0.0210731754105569 0.0194085515200072 0.2098722 -0.8074656 0.5513193 160 161 164
-0.0422056891641418 -0.0195777166700601 0.019166379599122 -0.8479555 0.00425521 0.5300503 149 150 135
-0.0272405078497324 0.0162212420654061 -0.0146299767069626 -0.8954035 0.4450206 0.01446206 157 153 149
-0.00819538681980059 0.0461999617398914 -0.00599486216702733 0.2901939 0.9568527 0.01484706 119 124 102
-0.0366108008586297 -0.0180056960781825 0.0231861014808715 -0.2573806 -0.5210972 0.8137647 116 126 107
-0.0437380281981408 -0.0214541261667341 0.0183776537734872 -0.8376815 0.08687747 0.5392049 162 160 156
0.0388612744201784 0.0185945968458061 0.0185759960003093 0.3463739 0.1145941 0.931071 130 135 114
-0.0182507661233302 0.040470979292921 -0.00983194144419142 -0.9516882 0.2944054 -0.08726388 149 146 140
0.0136731594001434 0.0304061261957275 0.0257921332600475 0.4585117 0.3469011 0.818185 109 114 96
-0.00678126321415751 -0.00863878856766354 0.0255321733384502 0.1726149 -0.4874063 0.8559434 146 144 137
-0.0303871383591059 -0.0126470623170628 0.0292754140404138 -0.01133186 -0.4900355 0.8716288 164 167 166
-0.0403921310782691 -0.0177572874222098 0.0208251493051267 -0.7906182 -0.03232487 0.6114556 147 143 134
0.0403234689683816 0.0224511128627909 -0.00428391054547494 0.3762371 0.9265211 0.002087194 90 94 53
0.00491596586100052 0.00792622410470967 0.0265327269078617 0.296474 -0.1143508 0.9481704 162 167 163
-0.00225610853846892 0.0305414681082439 0.0292341643371944 0.1355009 -0.1140809 0.9841875 143 141 145
0.0442331966655063 0.019917628275982 0.0048009564739161 0.4192144 0.9032676 0.09147094 87 92 56
0.0193280671379015 0.0301356531212386 0.0105901230633788 0.449674 0.8875883 0.09990201 147 147 138
-0.0355712029812352 -0.00261379049911892 0.0143597087615902 -0.921432 0.3821115 0.07038437 147 147 144
0.0140845272559476 0.0343527569730864 -0.00576314327322924 0.4295937 0.9004598 0.06797992 132 133 107
-0.0364289739140906 -0.0149667956976636 0.0264881041682761 -0.4204913 -0.477476 0.7714944 160 159 163
-0.0107752170928015 -0.0193034523712156 0.0170401437507081 0.28417 -0.7131684 0.6408107 150 154 136
-0.0394082863557152 -0.0122859840327094 -0.00778364032529727 -0.9436586 0.32948 0.03084294 117 118 100
-0.0279530528009451 0.0131005710685833 0.00854716085533924 -0.9225206 0.3849514 -0.02771408 127 138 114
-0.0170478931598943 0.0446793394534047 -0.00797880912990401 -0.8218831 0.5695058 0.01308645 157 152 143
0.00826269406042135 -0.0102021583775864 0.0214983721148329 0.06207526 -0.702231 0.7092378 182 183 181
0.00218658756950885 0.0223547077877908 0.0282747830444125 0.1492587 0.03442211 0.9881988 142 142 130
-0.0394601116853404 -0.0134468882859611 0.019665586551276 -0.9085497 0.3716788 0.1907675 135 145 133
-0.00401261107068129 0.0389051125749675 0.0274860786840381 0.3390405 0.7812688 0.5240903 139 134 122
-0.0226554965511889 0.0272388600422739 0.00549085124820781 -0.9169851 0.3881623 0.09202346 151 142 147
-0.0263571369707152 0.0173701298332735 -0.00877292958584502 -0.8730437 0.4876279 0.003707774 151 148 139
0.0488896912496164 -0.0193528692559389 -0.00892873451818865 0.8999252 -0.4310429 -0.06585319 103 103 68
0.0396758571172573 -0.0136317310262323 0.0139237025827272 0.2223469 -0.308957 0.9247202 129 129 124
-0.0420970335426645 -0.0178849949239328 0.00500131409570725 -0.8937041 0.4486216 -0.005618451 176 168 169
0.0491229293201936 -0.0187325071404093 -0.00505739165201752 0.9025437 -0.429415 -0.03189934 128 119 107
0.045648429445218 0.0183140237733053 0.0165071908404487 0.5966406 0.3477939 0.7232284 158 160 155
-0.0225969271929514 0.0310376783438553 0.00350230191090811 -0.9320679 0.362283 0.0006624558 107 108 87
-0.0205176411893233 0.0339860175971987 0.0141274406414263 -0.8608223 0.4435829 0.249438 173 176 159
-0.0314426511097579 0.0086831183527567 0.0110767166990709 -0.9092262 0.4161233 0.01221297 156 147 146
0.0357321028030309 0.023984551918989 0.0141014666117639 0.4345183 0.8926493 0.1198792 149 145 124
0.0122371379367034 0.0340154942192782 0.00411383895588374 0.4132279 0.9064692 0.08692645 133 141 125
0.0558232404844601 0.00759796724220352 -0.00598360342045451 0.9905857 0.1256234 -0.05439476 125 122 102
-0.00208794392260536 -0.00364658093168091 0.0266905468977295 0.1845847 -0.09401439 0.9783096 208 208 212
-0.0363837124401329 -0.0246145088935413 0.0221676326805187 0.005325599 -0.5112835 0.8593956 124 126 112
-0.0245853854589688 0.018939862045072 -0.00671330388222324 -0.8986425 0.4366737 -0.0419242 143 138 133
-0.0346338559799886 -0.00512207174496848 0.0274659709048355 -0.8282159 0.3543123 0.4341903 204 204 199
0.0487891583773681 0.000393836052094643 0.0127170097929839 0.4663592 -0.01199751 0.8845141 220 222 227
0.0403645359914431 -0.0106589204712388 0.0136306966137799 0.2458911 -0.1821626 0.9520264 143 140 135
-0.0141330617312601 0.0426005373210119 0.0124212320580999 -0.4213945 0.8644546 0.2741259 81 86 55
-0.00433998708218497 -0.00759226962700887 0.0275589662516246 0.1368127 -0.2277518 0.9640598 156 170 171
0.0197472371243053 -0.00647935604198857 0.021337099117046 0.2855671 -0.2103952 0.9349787 125 133 119
0.0480631155142763 0.0183004927890781 0.00984220991984469 0.4686619 0.8508241 0.2376012 70 75 36
0.0522934809692659 0.0120141079232945 0.0118177931615636 0.6087344 0.06199906 0.7909479 101 107 100
-0.0210101877289883 -0.0176540711380098 0.0178234164301014 0.007077306 -0.8459733 0.5331783 109 113 86
0.00665824787001257 -0.00248592972952444 0.0246861922274 0.1855907 -0.06435106 0.9805177 141 142 137
0.0162558738416825 0.033667049861402 -0.00436013168584831 0.4023306 0.9127607 0.07069713 66 68 23
-0.04600141565741 -0.0235879512251347 0.00450888899952601 -0.8950498 0.4355741 -0.09571359 186 183 174
-0.0172801823948143 0.0396046441413964 0.0125835978957957 -0.9054845 0.4093157 0.1120643 145 141 133
0.0235941119113898 -0.0116276068202652 0.019004836170943 0.1230947 -0.5767314 0.8076068 176 176 170
0.0268471888239932 0.0284331393105605 0.0002708643097874 0.4975412 0.8638161 0.07921239 115 119 92
-0.0339646680494825 -0.0149415359314329 0.0255253468263318 -0.2179721 -0.6054428 0.7654588 134 135 147
0.0273875776778412 -0.011578643034084 0.0180516211404467 0.1848013 -0.4611463 0.8678667 139 143 127
-0.0137523650883833 0.0421715926354428 0.03087762422431 -0.2626553 0.3777843 0.8878577 181 183 167
-0.0399018335408441 -0.0228147188057777 0.0188817170061557 -0.2659621 -0.4637958 0.8450785 119 130 111
0.00505090092828087 0.0381677078467014 -0.00573891216688954 0.4002068 0.9114805 0.09506679 84 89 60
-0.0324560528658495 0.00558018109036607 0.0016201098775312 -0.9452609 0.324269 0.03648826 178 176 167
-0.0155131342813537 0.0465513332397963 -0.000866262754458169 -0.5145767 0.8496393 0.1154291 165 162 160
0.0431649695047134 -0.00341710608045975 0.0146048450908365 0.3695505 -0.07376853 0.9262779 205 204 205
-0.0163684283285364 0.0409792124217985 0.0195042615969487 -0.8059918 0.5298735 0.2638396 137 132 119
-0.00782043689061651 0.0235091552819029 0.0295147415782973 0.2478987 0.06623054 0.9665194 194 201 205
-0.00780862875378463 0.0407987771033503 0.0253248533698338 0.2798789 0.9428092 0.1810485 114 125 81
0.0232144215011925 -0.00688430462102418 0.0204215025240695 0.2259571 -0.1639201 0.9602466 159 158 154
-0.00922572596813076 0.0195929182146416 0.0296134890513247 0.1346837 0.02062647 0.990674 202 205 207
0.0312221338142582 0.0265406457384065 -0.00560027412616571 0.4403981 0.8941709 0.08067115 134 134 101
0.026771122568136 0.0233664242856926 0.0228874951975095 0.2878013 0.1867513 0.9393053 174 177 167
-0.00884717809703628 -0.00203275893097787 0.0281411432485357 0.1547827 -0.1815552 0.9711231 133 138 133
0.0598881104424893 0.0119842276965063 -0.020319381377289 0.5631112 0.5670904 -0.6010942 108 106 86
-0.0242678019997065 0.0241695564409857 -0.00737936160025582 -0.9387035 0.3371402 -0.07191871 122 134 122
0.00679455430208065 -0.000975596087131381 0.0246422071527411 0.2058768 -0.07627001 0.9756011 147 148 141
-0.0397435773631791 -0.0117022188244827 0.0169382943936073 -0.9069675 0.4117657 0.08865111 115 122 106
-0.0297387680884924 0.0113446849410755 -0.0122968184064032 -0.9180494 0.3919071 -0.05995168 137 143 132
-0.0157889974110363 0.0393778835510387 0.00988036934838016 -0.8473518 0.4983903 0.1833086 143 147 150
-0.00167660460420271 0.0429800335634767 -0.00850933317077668 0.3810934 0.916584 0.1210028 84 92 63
-0.0168067186409644 0.0379822349091538 0.0181108639877413 -0.9361711 0.3331422 0.1122499 152 148 134
-0.0444219046311025 -0.0233357494471309 0.00470464618687111 -0.8892227 0.4530483 -0.06348374 170 162 160
-0.0112177569330816 0.0447317765087214 -0.00988447703595108 0.04533953 0.9964774 -0.07054798 124 128 102
0.0533049180764626 0.00454220906320491 0.00946714183947922 0.4951366 -0.1240547 0.8599129 113 115 89
-0.0420711550146868 -0.0170051416866537 0.0132804100423255 -0.9262983 0.3767019 0.008196857 164 157 162
-0.0114265663955215 -0.023474459710325 0.0114438759286652 0.2177799 -0.8006769 0.5581114 112 114 95
0.0420237283270783 -0.0136096814376496 0.0139070631113321 0.1998321 -0.2548709 0.9461014 152 152 155
-0.0114161709882943 -0.0133320385744683 0.0226805826538893 0.1917927 -0.7802584 0.5953255 112 114 101
-0.0422651681583373 -0.0178144549991969 0.00796612477476716 -0.8830974 0.4686239 -0.02303806 154 156 150
-0.0371837726004329 -0.00690557253746593 -0.00333835177531261 -0.9143013 0.3750233 0.1530054 138 138 129
-0.0108482478602621 -0.0118685534858903 0.0262041459868276 0.2618679 -0.6953635 0.6692494 142 140 132
0.0503697849863214 -0.0133320658557575 -0.00419867543379432 0.9349998 -0.3484867 -0.06582189 48 58 0
0.00342485908055767 0.0251610959585492 0.0274410606359493 0.1645916 -0.02686394 0.9859959 163 158 158
-0.0119231812393876 0.0275435954638311 0.0294920693956782 0.1207259 -0.008878434 0.9926462 217 211 221
0.0332015486768882 -0.0107022579163732 0.0172214796912912 0.3019716 -0.2954227 0.9063877 135 138 130
-0.0168763271015917 0.0397914610173993 0.0154943177800857 -0.9032056 0.4254458 0.05670626 129 135 123
-0.042219982495513 -0.0173515851812371 0.0179471963358923 -0.939119 0.245568 0.2403162 167 169 159
-0.0368081494552999 -0.00390779583222456 -0.00321529155406697 -0.8967401 0.4254423 0.121885 145 141 135
0.0277589842438879 -0.00866680320333824 0.0188582301458457 0.2431971 -0.2413792 0.9394633 110 117 104
-0.00449588782739152 -0.00621294823759144 0.027575718161872 0.1224714 -0.185462 0.9749895 166 167 167
0.0231381394504657 0.00355523878667252 0.0220117845644828 0.2720754 -0.1591875 0.9490176 215 213 221
0.0499079733729861 0.0180324610193623 -0.00676277122500196 0.4925038 0.8700092 0.02289276 92 100 47
0.0491660212001606 -0.00671649339904434 0.011508179368904 0.4722123 -0.04287153 0.8804417 94 112 77
0.0451324743751638 -0.00892679554302211 0.0139463115008248 0.3346742 -0.1204467 0.9346046 186 191 192
-0.0123652533227505 -0.00848861239618337 0.0279878555694451 0.2080101 -0.2152335 0.9541522 157 157 143
-0.0105864287851851 0.0456054033101199 -0.0121039602266845 0.03757179 0.999174 -0.0154833 94 96 71
0.0519459639190343 -0.0159612652335075 -0.0191524979288588 0.9309734 -0.358651 0.0682494 81 89 53
0.0128334622386765 0.00406988008563458 0.0232880983559173 0.2027341 -0.09383576 0.9747275 193 193 189
-0.0105600319339831 0.0397358764829543 0.0308729250761188 0.1277128 0.2035873 0.9706913 127 131 126
-0.0264695945256501 0.015872663227435 0.00119633063915875 -0.9364907 0.3477916 -0.04501377 114 116 99
-0.0199557593053836 0.029791911942796 -0.014181329027033 -0.9301212 0.3611758 -0.06653196 133 134 126
0.0115162698248319 0.0290465391816009 0.0259996013665909 0.2736922 0.141172 0.9514006 163 160 153
0.0504547106779287 -0.0172911074263522 -0.00371921295052319 0.9125662 -0.4071611 -0.03798412 100 101 81
-0.0322301246731247 -0.0104727497185026 0.0295164253031333 -0.09930959 -0.2233284 0.9696711 151 155 138
-0.0173499912397421 0.032725242524983 0.0307296439608392 -0.5617457 0.1082489 0.8201975 135 133 93
0.0197374619264399 0.0307619690292131 0.00219495311965778 0.4287787 0.8938875 0.1308206 78 84 53
-0.0195473529912955 -0.0178834897073503 0.0192796691298082 0.02986578 -0.8464707 0.5315971 112 114 83
-0.0111259596036823 0.0425450610422256 0.0142290100995369 0.1857633 0.9751508 0.1207182 110 116 90
0.0588699883154158 0.011867293427488 0.00306994101588026 0.760141 0.6181579 0.2001661 95 100 72
-0.000527219804148382 0.0389454246024569 0.0177297544787853 0.3413612 0.9349586 0.09656575 142 140 125
0.0608141216139695 0.0117291827242542 -0.00380110138975986 0.7056382 0.6604888 0.2565722 73 73 58
-0.0139665180056432 0.0250168046655247 0.0301547285320872 0.1007361 0.09642425 0.9902295 194 200 204
-0.0341777802222192 -0.00415546720928783 0.0288552201761786 -0.7143447 0.2473242 0.6546314 181 182 172
0.00959151289896543 0.0271057645678295 0.0267753845888095 0.2045317 -0.03334955 0.9782917 155 158 150
0.0162832587385278 0.0315803638558534 0.0226305841944306 0.4656319 0.782953 0.4125186 115 117 92
-0.0023057163866429 -0.020994986753699 0.00789733786373487 0.08150043 -0.8219024 0.5637678 125 125 116
0.00222836360262124 0.0228349359102604 0.027166216947556 0.1621257 0.005446014 0.9867551 129 131 115
0.0261070520936362 0.030180973178923 -0.0142780681180231 0.4160593 0.9091406 0.01892337 77 86 66
0.0499391960563784 -0.00451176866392078 0.0108684449374787 0.5117593 -0.02647323 0.8587209 90 106 71
0.0196289048511191 0.000956563965497481 0.0223846930492166 0.2614619 -0.07595075 0.962221 214 213 222
-0.0108794457928436 0.0215352367680961 0.0297998102301821 0.1387177 -0.0477469 0.9891803 230 231 234
0.0294278327797015 -0.00478400822707192 0.0191783510433554 0.2114279 -0.1653569 0.9633044 164 158 159
-0.0331774763633437 7.53814927384466E-05 0.00631849891973763 -0.9163152 0.3845818 -0.1116393 150 143 133
-0.0249364670870094 0.00260539000082538 0.030178728595125 0.02997469 -0.1179896 0.9925624 201 201 208
-0.0331501175780331 0.00545654823222952 0.0099518880900335 -0.9246646 0.3739605 -0.0717554 156 151 132
-0.00743106010711192 0.0342151898102501 0.0306058848567279 0.1387969 -0.04601663 0.9892512 94 103 78
-0.0350830065816818 -0.002163535499347 -0.0116213840219215 -0.8780685 0.4783562 -0.01307998 130 125 118
-0.0191567872365244 0.0109074210161216 0.0297148920211788 0.07452235 -0.08393891 0.9936804 193 200 198
0.0166668510858741 -0.0142437938986533 0.0153524334320122 -0.01477032 -0.8586075 0.5124208 128 136 126
