ply
format ascii 1.0
comment File exported by Rhinoceros Version 7.0
element vertex 470
property float x
property float y
property float z
property float nx
property float ny
property float nz
property uchar red
property uchar green
property uchar blue
end_header
0.0503219075398587 -0.023475870652135 -0.0224865991097767 0.1054026 -0.8621646 -0.4955427 24 24 24
0.0539835400777005 -0.0195526929330188 -0.0305945891362507 0.1618139 -0.908667 -0.3848902 14 14 14
0.0571003861622952 -0.0183757396172839 -0.0309215504151661 0.7463815 -0.5443443 -0.3828889 51 51 51
0.0559452481465481 -0.0219937415551501 -0.0284586268884022 0.5079628 -0.7743213 -0.3773598 55 55 55
0.0571440167622708 -0.0200103373956042 -0.0265623945218403 0.9153801 -0.3751104 -0.14619 81 81 81
0.0565991110997341 -0.0224296899270373 -0.0241212862950642 0.7348803 -0.5691596 -0.3687929 57 57 57
0.056817025681033 -0.0177653880547839 -0.0249277371388753 0.9511626 -0.2385271 -0.1959452 52 52 52
0.0229683823781155 -0.00473152117245967 0.0272511225718181 0.01485401 -0.5152789 0.8568938 139 139 139
0.0574272580342434 -0.0164576621484118 -0.0298099535924275 0.9413137 -0.2360328 -0.241282 100 100 100
0.0572675175862454 -0.0110087247323352 -0.0301150995713551 0.9929358 -0.07433004 -0.0924854 102 102 102
0.057238430519595 -0.00849495844357784 -0.0282842535001118 0.9986085 -0.04526667 -0.02705546 90 90 90
0.0572529740529202 -0.0163268895577746 -0.0255379992944081 0.982165 -0.1532138 -0.1089835 89 89 89
0.0574999757008694 -0.0101660342645007 -0.0246661621552784 0.9983609 -0.04902695 -0.02952565 78 78 78
0.0573401160435818 -0.00590859369748409 -0.0244918185693104 0.9990228 -0.03813802 -0.02233506 70 70 70
0.057623476524844 -0.00887273268216426 -0.0210262853127797 0.9993801 -0.02814358 -0.02115054 86 86 86
0.057623476524844 -0.00588665918820674 -0.0221596676331837 0.9992651 -0.03262452 -0.020123 64 64 64
0.0576016612248562 -0.00651882605069454 -0.0208737272244771 0.9994983 -0.02915231 -0.01238044 118 118 118
0.057776064415469 -0.00490592436307247 -0.0255816000920613 0.9989254 -0.03307946 -0.03246323 92 92 92
0.000598759193911391 -0.0349112601708728 -0.0146692413312275 -0.04984502 -0.9644808 -0.2594074 71 71 71
0.00219711734820827 -0.0342429728936511 -0.016122283361562 0.04506839 -0.9459741 -0.3210947 83 83 83
-0.00152996108959691 -0.0331095309686023 -0.0192172545415242 -0.0956229 -0.9532053 -0.2868027 69 69 69
-0.000505595664487046 -0.033589109940465 -0.0184326189977009 -0.01730877 -0.9550475 -0.2959469 39 39 39
0.00904092266131862 -0.033393010659154 -0.0145529824715931 0.122343 -0.8924218 -0.4342988 60 60 60
-0.00181332157085912 -0.0343301148843127 -0.0136375743371327 -0.1253227 -0.9534122 -0.2744073 63 63 63
-0.000418453673825425 -0.0348095746468859 -0.0132016557675679 -0.05604147 -0.9661951 -0.2516472 54 54 54
0.00455102397967799 -0.0338506551217395 -0.0135503727418263 0.06954272 -0.9306837 -0.359154 39 39 39
0.00616392566730006 -0.0354635568093615 -0.0130272823792775 0.06080839 -0.9413657 -0.331863 73 73 73
0.00420233680774196 -0.0346352906655627 -0.0113708096963246 0.01942074 -0.9519916 -0.3055076 84 84 84
0.00433310939837916 -0.0359430165719348 -0.0101938563805897 -0.01503662 -0.950328 -0.3108867 57 57 57
0.0126372285084866 -0.0317364783715564 -0.0185416060906727 0.1542031 -0.9492844 -0.2740084 60 60 60
0.0129205889897488 -0.0313223452996569 -0.0181710738164265 0.1698801 -0.9383314 -0.3011228 31 31 31
0.00882300808001979 -0.0331967921685534 -0.015642763994344 0.1180117 -0.9137452 -0.388771 49 49 49
0.0115256018834256 -0.0325429292153674 -0.0158171373826344 0.1370707 -0.9247018 -0.3551595 72 72 72
0.0113076873021267 -0.0327608437966662 -0.0148581284505208 0.1319694 -0.9221701 -0.3635745 67 67 67
0.0127752728657864 -0.0325429292153674 -0.0147128123265584 0.1651471 -0.9257142 -0.3402641 48 48 48
0.0165277428822659 -0.0302543492745715 -0.0185633915883381 0.1918499 -0.9381718 -0.2881445 83 83 83
0.0140975423054837 -0.032630071206029 -0.014988901041158 0.1762471 -0.929032 -0.3253251 55 55 55
0.0145116753773831 -0.0318454356622058 -0.0156209784966786 0.1726348 -0.9309099 -0.3218759 94 94 94
0.0154052682118557 -0.0311043115090686 -0.015076072834142 0.2002349 -0.9312351 -0.3044787 52 52 52
0.0190233893590115 -0.0314094872903186 -0.0143350380879719 0.1550105 -0.9360434 -0.3159026 43 43 43
0.00298175289203151 -0.0366405101250964 -0.00849378289998365 -0.0750966 -0.942985 -0.3242527 63 63 63
-0.000418453673825425 -0.0362045617532092 -0.00744760217488599 -0.1376803 -0.939321 -0.3141976 68 68 68
0.000976533432497817 -0.0359866471719104 -0.00871175708592725 -0.1094024 -0.9485101 -0.2972537 65 65 65
0.000191897888674575 -0.036422476334508 -0.00727322878659559 -0.1174207 -0.9427887 -0.3120285 63 63 63
0.00206634475757106 -0.037032827897008 -0.00374233903706861 -0.1329651 -0.9530032 -0.2722225 45 45 45
0.00659975482989772 -0.0362481923531848 -0.00648859324277234 -0.01252483 -0.9252552 -0.3791383 57 57 57
0.00687584354449733 -0.0380499215554553 -0.00470134796918226 -0.01460701 -0.9256818 -0.3780209 74 74 74
0.000671357651247817 -0.0377520175408679 -0.000560166261800055 -0.1848753 -0.9692037 -0.1626817 67 67 67
0.00306889488269313 -0.0382097812127429 -0.0034807938557942 -0.1182848 -0.9462087 -0.3011609 58 58 58
0.0127025551991604 -0.0357977004479724 -0.00769460382283521 0.198364 -0.8935727 -0.4027152 63 63 63
0.0132256455617092 -0.0374251456689196 -0.00422182860196424 0.1559718 -0.8714817 -0.464965 36 36 36
0.0154488988118313 -0.0347078891228991 -0.00871175708592725 0.2097777 -0.8914578 -0.4016171 53 53 53
0.0170907683568142 -0.0341122003030139 -0.00863909902394605 0.200252 -0.9039001 -0.3779731 57 57 57
0.0179770894246243 -0.0371199698876696 -0.00374233903706861 0.2341987 -0.8485432 -0.4744739 31 31 31
0.0164514489369534 -0.0335018487405139 -0.00906047406018567 0.191765 -0.9044344 -0.3810834 34 34 34
0.0113948292927883 -0.0388636441659289 -0.000255020282872442 0.06419581 -0.9021045 -0.4267158 61 61 61
0.0148821778493069 -0.0378174634408313 -0.00278333010495496 0.1684284 -0.8462055 -0.5055375 37 37 37
0.0164514489369534 -0.0379482360314685 -0.00230381073773694 0.2067829 -0.8185539 -0.5359201 65 65 65
0.0165168948369168 -0.0371852965783435 -0.00269612850964857 0.2147849 -0.8386053 -0.5006083 47 47 47
0.0172578997807644 -0.0384276957940417 -0.000625552557118658 0.2054116 -0.7976063 -0.5671246 56 56 56
0.0192413039403103 -0.0374251456689196 -0.000952484033711676 0.2089845 -0.8282534 -0.5199247 64 64 64
0.0195899911122464 -0.0306684823464709 -0.019653173111089 0.08355074 -0.9586925 -0.2718969 31 31 31
0.0201567120747708 -0.029491529030736 -0.0180838722211201 0.08452119 -0.9701862 -0.2271453 22 22 22
0.0227503485875271 -0.0291210265588122 -0.0179094988328297 0.04769558 -0.9719063 -0.2304849 38 38 38
0.0209195323186062 -0.0295786710213977 -0.0171030777913411 0.07568466 -0.9586518 -0.2743331 30 30 30
0.0268697447972439 -0.0297094436120349 -0.019827516697057 0.0467421 -0.956062 -0.2894144 50 50 50
0.025692791481509 -0.0302107186745959 -0.0187377649766285 0.0520915 -0.9524036 -0.3003562 67 67 67
0.0265863843159817 -0.0304831119012194 -0.0168633181077321 0.04083119 -0.9420594 -0.3329519 71 71 71
0.0256491608815335 -0.0294478984307605 -0.0155991631966908 0.01233198 -0.945255 -0.3260994 54 54 54
0.0204182572560452 -0.0303633065652209 -0.0142914372903187 0.07691382 -0.9380873 -0.337752 47 47 47
0.024232477684512 -0.0311044307183581 -0.012591393612035 0.03172219 -0.9307795 -0.3642021 47 47 47
0.0248790688710354 -0.0325574727486926 -0.0108186620694478 0.04868982 -0.9269769 -0.3719451 30 30 30
0.00292071773578151 0.0189210323858899 0.0356729608553569 0.01102431 0.8197767 0.5725771 73 73 73
0.0262595124440335 -0.0318890662621814 -0.0140517074090321 0.01595237 -0.9544073 -0.2980808 55 55 55
0.0265210576253079 -0.032281384034093 -0.0116759556752522 0.01390496 -0.9373434 -0.3481292 39 39 39
0.0264774270253323 -0.0327608437966662 -0.00927841844380689 0.04094208 -0.9340832 -0.3547003 47 47 47
0.0294853158192776 -0.032630071206029 -0.0104771870595295 0.06839481 -0.9254904 -0.3725449 54 54 54
0.0318827338414334 -0.0296223016213732 -0.0192172545415242 0.09811921 -0.929978 -0.3542789 43 43 43
0.0305750079350613 -0.029491529030736 -0.0184326189977009 0.0335997 -0.957976 -0.2848738 40 40 40
0.0325365967946194 -0.0292734952401477 -0.0187377649766285 0.07961257 -0.9309707 -0.3563079 81 81 81
0.0327400870518826 -0.0302761645745593 -0.0168633181077321 4.229703E-05 -0.9505624 -0.3105337 48 48 48
-0.0604218535227634 0.0242784170675916 0.0243958812731426 -0.289712 0.7669929 0.5725285 39 39 39
0.0385958857731961 -0.0302761645745593 -0.0176915544492085 0.0748622 -0.9042552 -0.4203787 90 90 90
0.0387048430638455 -0.0289901347588855 -0.0182146746140797 0.107849 -0.9066956 -0.4077643 61 61 61
0.0412984795766018 -0.0297530742120105 -0.0167761463147481 0.1946192 -0.8809603 -0.4313147 72 72 72
0.0415600247578762 -0.0341993422936755 -0.00993231119931531 0.04419428 -0.8032749 -0.5939665 67 67 67
0.0329725451665066 -0.0311261268090564 -0.0136157590371449 -0.05358285 -0.9318668 -0.358822 70 70 70
0.0320571370320462 -0.0311479421090441 -0.0130708831769307 -0.01928979 -0.9272745 -0.3738849 56 56 56
0.0311562724309109 -0.0322232099007922 -0.0103536862355549 -0.03548144 -0.9287841 -0.368919 64 64 64
0.0329290337758206 -0.0309300275277453 -0.0113708096963246 -0.04732803 -0.9276415 -0.3704609 30 30 30
0.041581840057864 -0.0310826154183703 -0.0123734194260914 0.2040435 -0.8318101 -0.516196 59 59 59
0.0372445292668484 -0.0321506114434558 -0.011458011291631 -0.1130897 -0.8619872 -0.4941547 67 67 67
0.0382252640919827 -0.0332621188592273 -0.0103900152665455 -0.08147217 -0.8700866 -0.4861189 49 49 49
0.0206579871373318 -0.0356596560906726 -0.00398209872067762 0.1536531 -0.8587196 -0.4888675 56 56 56
0.0217259831624173 -0.0341122003030139 -0.00457057537854505 0.1015995 -0.8885672 -0.4473543 61 61 61
0.0228157944874905 -0.0356814713906604 -0.00522443833173108 0.1204338 -0.8866943 -0.4463956 52 52 52
0.0287441916661404 -0.0356814713906604 -0.00539881172002149 -0.05997657 -0.9057095 -0.4196345 47 47 47
0.0250607438283108 -0.0330659003686267 -0.00653216423810316 0.03972573 -0.9226531 -0.3835794 35 35 35
0.0295288272099636 -0.0335454793404895 -0.00770914735616041 -0.008175804 -0.9214275 -0.3884642 66 66 66
0.0244831748204373 -0.0369347186517077 -0.000843496940739874 0.1161944 -0.8696219 -0.4798507 60 60 60
0.0195464797215603 -0.036073789162572 -0.0035679656487782 0.174029 -0.8529227 -0.4921756 53 53 53
0.022586912651553 -0.0361500831078845 -0.00251087727368665 0.1747355 -0.8684614 -0.4639421 50 50 50
0.0214644379811428 -0.0345480294656115 -0.0033935922604878 0.1136606 -0.8782225 -0.4645498 9 9 9
0.0218131251530789 -0.0376648755502063 0.000268070079676386 0.1683191 -0.8783404 -0.4474224 72 72 72
0.0239056058125637 -0.0382097812127429 0.00109630642115283 0.08465193 -0.8806161 -0.4662074 45 45 45
0.0288749642567776 -0.0379482360314685 0.00135785160242724 -0.009647266 -0.8980175 -0.4398541 27 27 27
0.0349195904927395 -0.0337924809884387 -0.00663387956441236 -0.1586356 -0.8871945 -0.4332675 47 47 47
0.0314687199788235 -0.0344827027749377 -0.00622704806149793 -0.07506868 -0.8724522 -0.4828994 62 62 62
0.0358931727605007 -0.036378964943822 -0.00465774717152906 -0.06654903 -0.9531711 -0.2950189 69 69 69
0.0385086245732449 -0.0342429728936511 -0.00722962798894239 -0.2161037 -0.8859277 -0.4104038 43 43 43
0.0418215699391506 -0.0357904286813098 -0.0073167997819264 0.02690892 -0.8922147 -0.4508092 52 52 52
0.0370047993855618 -0.0364879222344714 -0.00463596167386365 -0.1389204 -0.9428797 -0.3027854 81 81 81
0.041429252167239 -0.03684388117307 -0.00475946249783826 -0.05156096 -0.977303 -0.2054759 92 92 92
0.0385958857731961 -0.0349403472375232 -0.00526803912938428 -0.1800837 -0.9319496 -0.314706 69 69 69
0.0397728390889309 -0.0358122439812976 -0.00439620199025464 -0.09429264 -0.978806 -0.1817904 69 69 69
0.0334084935383938 -0.0330442042779284 -0.00690269651234937 -0.1459099 -0.8596578 -0.4895903 54 54 54
0.0312943167882107 -0.0369455666970568 -0.00245639862836194 -0.08760101 -0.9279739 -0.3622023 28 28 28
0.0306622691350125 -0.0350712390374499 -0.00291410269559217 -0.05706485 -0.9083673 -0.4142614 51 51 51
0.0331033177571438 -0.0363498778771716 -0.00010970415891004 0.03307895 -0.9560395 -0.2913661 49 49 49
0.0385086245732449 -0.0367930980157214 -0.00191149296582532 -0.05666572 -0.9686338 -0.2419451 83 83 83
0.0411677069859646 -0.0366622062157946 -0.00197687926114393 -0.07107802 -0.9847156 -0.1590063 77 77 77
-0.00268509910534398 -0.0374251456689196 0.00615289626299548 -0.07457228 -0.9776198 0.1967193 176 176 176
0.00143417789508327 -0.0379699321221667 0.00833245930849719 -0.07311416 -0.7818217 0.6192004 173 173 173
0.00226244403888209 -0.0387110562753039 0.00796195683657336 -0.07193577 -0.7911753 0.6073442 168 168 168
0.00193557216693385 -0.0376430602502185 0.00855043349444079 -0.06644512 -0.7286357 0.6816707 175 175 175
0.000932902832522231 -0.0363935084771472 0.00929146824061083 -0.02730153 -0.6413146 0.7667922 131 131 131
0.00264749004413112 -0.0369310231637316 0.00891369400202441 -0.03174356 -0.6799966 0.7325278 111 111 111
0.0028655238347195 -0.0346498341988879 0.0102069061773937 0.01360369 -0.501485 0.8650593 119 119 119
-0.00233641193340794 -0.0337633939217883 0.0110787135142009 0.002724953 -0.532684 0.8463098 159 159 159
0.00112912132312282 -0.0338506551217395 0.0106864255446117 0.01761212 -0.5086516 0.8607923 137 137 137
0.00680527164508327 -0.0382097812127429 0.00796505627810168 -0.06785155 -0.6705833 0.7387247 134 134 134
0.00699207260180934 -0.0371199698876696 0.00850683269678759 -0.02758322 -0.582965 0.8120289 154 154 154
0.00655624343921168 -0.0358557553719836 0.00949489889322924 0.01800935 -0.5097175 0.8601533 189 189 189
0.00551006271411403 -0.0342429728936511 0.0104902666586559 0.00974038 -0.5055227 0.8627583 158 158 158
-0.00190046356152074 -0.0313223452996569 0.0130403321760814 0.02530093 -0.5129115 0.8580686 152 152 152
0.00281605197955592 -0.0326824040841418 0.0114623290079753 0.02850906 -0.4962486 0.8677123 102 102 102
0.00885781719256862 -0.0326824040841418 0.0113577228563945 0.02589229 -0.5092298 0.860241 110 110 110
0.00489971115161403 -0.0302978606652575 0.0127569716948192 0.00698946 -0.5012519 0.8652732 104 104 104
0.0123974986272 -0.0383696408700305 0.00799825606524157 -0.009590866 -0.5934054 0.8048466 104 104 104
0.0117436356740139 -0.0372507424783068 0.00859403429209399 0.01539128 -0.5165518 0.8561176 118 118 118
0.0154924102025173 -0.0384931416940051 0.00767859635531115 0.02343045 -0.4945933 0.8688087 92 92 92
0.0168524689870022 -0.0363266320657092 0.00889915046869921 0.01431545 -0.4914266 0.8708013 99 99 99
0.0146641440587185 -0.0344027133416491 0.0101487916487377 0.03944931 -0.4847202 0.8737792 124 124 124
0.0192086405949734 -0.034488186402257 0.00979277310549426 0.01050357 -0.492287 0.8703696 77 77 77
0.00912806465198024 -0.033589109940465 0.0109043699282329 0.0218592 -0.5101901 0.8597839 172 172 172
0.0113076873021267 -0.0321832747887927 0.0116236191767375 0.03820045 -0.4998457 0.8652716 70 70 70
0.0135308213429592 -0.0299273581933337 0.0126480144041698 0.04110756 -0.5080371 0.8603536 244 244 244
0.0150129504399441 -0.0324338527154284 0.0111659151095073 0.03896242 -0.4980777 0.8662567 133 133 133
0.0194592185216091 -0.0317582936715441 0.0114129167574565 -0.009149024 -0.5054898 0.8627841 201 201 201
0.0193066306309841 -0.0309300275277453 0.0118633788603466 -0.004545165 -0.5125154 0.858666 238 238 238
-0.00129023120831029 -0.028881177468236 0.0137595814245861 0.03527533 -0.5008486 0.8648158 225 225 225
0.00084576084186061 -0.0284453483056384 0.0138685685175579 0.02922029 -0.4984824 0.8664072 137 137 137
0.00705751850177272 -0.0284453483056384 0.01377048907458 0.01122359 -0.4987362 0.8666812 69 69 69
0.0104503340916775 -0.0288957210015612 0.0136215668696086 0.01502604 -0.501402 0.8650839 192 192 192
0.0126154132084988 -0.0283417554330188 0.0137541574019115 0.03142299 -0.5186061 0.8544356 240 240 240
-0.00125291870068089 -0.0264088960122424 0.0151763242262523 0.03284232 -0.4904453 0.8708529 227 227 227
-0.00261977241467015 -0.0256336780022937 0.0155468266981761 0.02994326 -0.4907906 0.8707629 236 236 236
0.00326070262958034 -0.0258995147179919 0.0153157990950267 0.01299517 -0.507004 0.8618458 124 124 124
-0.00285950229595677 -0.0242169948052722 0.0166148227232616 0.03072493 -0.5030565 0.8637072 224 224 224
-0.00144281909893529 -0.0227783770989733 0.017203299381129 0.02250275 -0.5027834 0.8641195 179 179 179
0.00699207260180934 -0.0266144128274279 0.0147404056566875 0.007250102 -0.5017321 0.8649927 108 108 108
0.00572797729541286 -0.0242605061959582 0.0159609597700756 0.01460157 -0.5158061 0.8565809 112 112 112
0.000932902832522231 -0.0214706511926013 0.0180533510225933 0.01356544 -0.5121161 0.8588091 153 153 153
0.00771865322162135 -0.0220373721551257 0.0175447743910472 0.0193316 -0.5162271 0.8562335 218 218 218
-0.00046196506451146 -0.0199013801049548 0.0187943857687633 0.01250997 -0.504759 0.8631696 112 112 112
0.000932902832522231 -0.0172859282922107 0.0203636866587322 0.005129302 -0.5202728 0.8539847 175 175 175
0.00535747482348903 -0.0184919686745959 0.0198260527628581 0.0185784 -0.506739 0.8618993 124 124 124
0.00699207260180934 -0.0165158362817126 0.0209884923475902 0.02482752 -0.507527 0.8612781 128 128 128
0.00943324043323024 -0.0273555369805651 0.0143916588801067 0.01558768 -0.5037426 0.8637131 205 205 205
0.00934609844256862 -0.024587497277196 0.0159173589724224 0.01233741 -0.506862 0.8619389 211 211 211
0.0119615502553128 -0.0242169948052722 0.0161789041536968 0.01168688 -0.5043727 0.863407 248 248 248
0.01209232284595 -0.023170694870885 0.016789196111552 0.01989519 -0.5033462 0.8638558 245 245 245
0.0151873536305569 -0.0261640401315051 0.0150164943712871 0.02062616 -0.5187885 0.8546538 110 110 110
0.017497629662051 -0.0232579560708361 0.0166148227232616 0.01633031 -0.497575 0.8672672 96 96 96
0.0143154568867825 -0.0218629689645129 0.0174866598623912 0.01517482 -0.4938057 0.8694398 74 74 74
0.0149693198399685 -0.020380839867528 0.0183584671991985 0.01369272 -0.4915561 0.8707382 93 93 93
0.0168329186635159 -0.0204354377221423 0.0182603877562206 0.005772261 -0.4944396 0.8691928 152 152 152
0.0105230517583035 -0.0197706075143176 0.0187508147734325 0.04257715 -0.5028402 0.8633301 253 253 253
0.0108136840062283 -0.0190294833611804 0.0192303043383281 0.04511012 -0.5064659 0.8610792 241 241 241
0.00956401302386745 -0.0173730702828723 0.0201893132704418 0.04671545 -0.5066705 0.8608732 231 231 231
0.0100871033864163 -0.0174167008828479 0.0201893132704418 0.04514524 -0.5063345 0.8611546 231 231 231
0.0300519175725125 -0.0382969232034045 0.0026656073111217 0.02488427 -0.9572915 -0.2880518 41 41 41
0.0253178782658718 -0.0360911937188464 0.00896888790308642 0.04190744 -0.6026338 0.7969167 157 157 157
0.0294525332646511 -0.0351148696374255 0.00943314848124194 0.03805393 -0.5739738 0.8179889 71 71 71
0.0250062651829861 -0.0307446570824939 0.0120704453962963 0.02769561 -0.5032774 0.863681 241 241 241
0.0234551139073513 -0.0306684823464709 0.0121685248392742 0.02257163 -0.5081788 0.8609558 240 240 240
0.0204908557133816 -0.0288231225442248 0.013345478155009 0.003387659 -0.5156257 0.8568072 184 184 184
0.0225542493062161 -0.0285433383416491 0.0134762507456462 0.02432079 -0.5088574 0.8605072 194 194 194
0.027294845123782 -0.0322159381341296 0.0111550074595134 0.01898178 -0.5026744 0.8642674 132 132 132
0.0280903287129544 -0.0298838468026477 0.0123428684252422 0.01891349 -0.4981784 0.8668683 235 235 235
0.0299647755818508 -0.0297965856026965 0.0126044136065166 0.03114853 -0.4994934 0.8657575 96 96 96
0.0315863795476101 -0.0381400437783557 0.00728627858339953 0.1294731 -0.8379145 0.5302227 72 72 72
0.0336482234196804 -0.036378964943822 0.00811451492487597 0.1265036 -0.7387029 0.6620535 83 83 83
0.0329028077321194 -0.0341906400155383 0.00986689148127246 0.0993914 -0.5010285 0.8597045 99 99 99
0.0384142108159207 -0.0341702552270251 0.00908079562365222 0.2897435 -0.5221505 0.8021269 63 63 63
0.0312870450215481 -0.033051476044591 0.0106863957422893 0.07430873 -0.5097893 0.857084 106 106 106
0.033190578957095 -0.0321506114434558 0.0110787135142009 0.1224981 -0.4986226 0.8581198 100 100 100
0.0314032740788601 -0.0299709887933093 0.0125608426111858 0.05282911 -0.5044529 0.8618215 108 108 108
0.0342367596821926 -0.0302108378838855 0.0119505804556529 0.131644 -0.5141889 0.8475138 94 94 94
0.0371936269002102 -0.0326082559060412 0.00966200051485705 0.2420951 -0.4715751 0.8479428 46 46 46
0.0374624438481472 -0.0287504048775988 0.0122556966322582 0.2027407 -0.5517105 0.809019 65 65 65
0.0194157071309231 -0.0260041804742175 0.0152198952215831 0.01831775 -0.5175938 0.8554304 181 181 181
0.0249663300709866 -0.0267597289513903 0.0143044870871227 0.03988795 -0.5060973 0.8615535 229 229 229
0.0231790251927517 -0.0243041367959338 0.0158592444437664 0.04412309 -0.511999 0.857852 98 98 98
0.0211047835545681 -0.0241623969506579 0.0160699468630474 0.02474555 -0.5070699 0.8615496 123 123 123
0.0267913050847195 -0.0267364831399279 0.0141998511332195 0.03286342 -0.5043356 0.8628821 236 236 236
0.0277125544743679 -0.0259170384835559 0.0147694629210155 0.01361203 -0.5127357 0.8584386 233 233 233
0.0309673257069729 -0.0267888160180407 0.0141882580298107 0.02271639 -0.517179 0.8555757 105 105 105
0.0283809609608792 -0.0264546723794299 0.0143916588801067 0.01514186 -0.5109044 0.8595042 165 165 165
0.0283518738942288 -0.0258515925835925 0.0148929637449901 0.01353622 -0.5109493 0.8595043 208 208 208
0.0275062031941555 -0.0242168755959826 0.0156906825083415 0.01280849 -0.5221236 0.8527737 241 241 241
0.0217259831624173 -0.0223860593270617 0.0172251146811168 0.01917744 -0.5081118 0.8610776 125 125 125
0.0246466107564114 -0.0198142381142932 0.0186200421827953 0.01922787 -0.5162269 0.856236 95 95 95
0.0207814879613064 -0.0186372847985583 0.0193175059336345 0.0009893248 -0.5043972 0.8634712 109 109 109
0.0225687928395413 -0.0189714284371691 0.0191140752810161 0.01078157 -0.509161 0.8606037 99 99 99
0.0272795863347195 -0.0182449670266467 0.0194918495196025 0.01563607 -0.516991 0.855848 195 195 195
0.029289097328677 -0.0168934913110095 0.0202111285704296 0.01572328 -0.50793 0.8612549 241 241 241
0.0322968669133328 -0.0263964982461291 0.0144570451754253 0.02462704 -0.5188463 0.8545128 88 88 88
0.0336700387196682 -0.0233450980614978 0.0161789041536968 0.04431515 -0.5201768 0.8529081 148 148 148
0.0387992568211697 -0.0260623546075183 0.0138685685175579 0.1721627 -0.5910373 0.7880577 67 67 67
0.0406882472233914 -0.0235630126427966 0.0154814404028575 0.1400476 -0.5757554 0.8055385 60 60 60
0.0370483107762478 -0.020686015648778 0.0177263897436779 0.06491746 -0.5346122 0.8426005 105 105 105
0.0392932601170681 -0.0221245141457873 0.0164404493349712 0.08937457 -0.5616214 0.8225531 36 36 36
0.0392497487263821 -0.0216886849831897 0.016876367904536 0.08156316 -0.5421463 0.8363162 100 100 100
0.0328417725758694 -0.0170243831109362 0.0201457124727886 0.02571639 -0.5077957 0.8610936 112 112 112
0.0366604037480496 -0.016649469895299 0.0202241819876354 0.04868353 -0.5075859 0.8602246 172 172 172
-0.000799804191098374 -0.0126542897652941 0.023425964691035 0.0175197 -0.5152027 0.8568893 245 245 245
0.000889391441836196 -0.0139729829263049 0.0226740222948711 0.01424671 -0.5203073 0.8538603 144 144 144
0.0107191510396145 -0.0161416383218127 0.0210502427595775 0.04389037 -0.5093789 0.8594224 242 242 242
0.00886651947070582 -0.0140492768716174 0.022292582370631 0.03239046 -0.5086474 0.8603655 103 103 103
0.0109091706471585 -0.0147265048455554 0.021932987548701 0.03931587 -0.5133493 0.8572787 225 225 225
0.016495079536929 -0.0161961169671374 0.020799605228297 0.02038563 -0.4998515 0.8658712 147 147 147
0.0172360844807766 -0.0145395846795398 0.021780399658076 0.01965485 -0.5018457 0.8647338 145 145 145
0.0152526803212307 -0.0141037555169421 0.021780399658076 0.03416781 -0.5053762 0.8622224 220 220 220
0.0189797587590359 -0.0141908975076037 0.0217586141604106 0.007637716 -0.4906609 0.8713171 175 175 175
0.0187182135777615 -0.0131010861825305 0.0223253053206127 0.01596203 -0.5005102 0.8655835 235 235 235
0.0189797587590359 -0.0107835383843737 0.0235967021959941 0.02742384 -0.5144055 0.8571085 244 244 244
0.0197643943028591 -0.0157601685952502 0.0209303778189342 -0.007750211 -0.486403 0.8737002 138 138 138
0.0208687491612576 -0.0159200282525378 0.0208431762236278 -0.00393628 -0.4895274 0.8719791 138 138 138
0.024733752747073 -0.0151717515420275 0.021300880290858 -0.004314405 -0.4972006 0.8676249 101 101 101
0.0212683386998318 -0.0129703135918933 0.0223253053206127 -0.00539753 -0.490144 0.8716248 234 234 234
0.020636171837344 -0.0119241328667956 0.0229501110094707 0.000820692 -0.5010102 0.865441 244 244 244
0.0224234767155789 -0.0136242957543689 0.0221073311346691 -0.008533761 -0.4855088 0.8741901 227 227 227
0.0271749205784939 -0.0161961169671374 0.0206252318400066 0.01281649 -0.502556 0.8644497 138 138 138
0.0270877785878323 -0.0148883910607653 0.021453468181483 0.01430884 -0.4965282 0.8679026 145 145 145
0.0328417725758694 -0.0158037991952258 0.0207560044306438 0.02854159 -0.4982339 0.8665728 84 84 84
0.0332995362477444 -0.0142563434075671 0.0217585843580883 0.0279933 -0.4966015 0.8675271 151 151 151
0.0347985930638455 -0.0148012490701037 0.0213565808314006 0.04196933 -0.5039141 0.8627335 147 147 147
0.0339315839009426 -0.0134498925637561 0.0221945327299755 0.03395689 -0.4960947 0.8676042 141 141 141
0.0347162194447659 -0.0116190762948352 0.0229791682737987 0.02820066 -0.5037963 0.8633621 136 136 136
0.0381599374013089 -0.0164576621484118 0.020320085861079 0.03395901 -0.5107992 0.8590291 180 180 180
0.0409388251500271 -0.0142781587075549 0.0211810153502147 0.02218524 -0.5060479 0.86222 90 90 90
0.0364453501897 -0.011836990876134 0.0228193384188335 0.03517869 -0.5078893 0.8607037 93 93 93
0.0391407914357327 -0.0128395410012561 0.0221509319323223 0.03148524 -0.5047947 0.8626651 101 101 101
0.0409497924046658 -0.0124472232293444 0.0224342626112621 0.0124727 -0.5061988 0.8623267 119 119 119
0.0388900942998074 -0.0107799621056872 0.0234150570410411 0.03328156 -0.5170867 0.8552857 102 102 102
0.032580227394595 -0.0106018634270983 0.0237638038176219 0.02300485 -0.4996015 0.8659499 246 246 246
0.041368217010989 -0.0106426330041247 0.0234935563582103 0.01894279 -0.5123064 0.8585938 122 122 122
0.0434126563267849 -0.0279658885430651 -0.0185197907906849 0.225919 -0.8793514 -0.4191679 32 32 32
0.0507796712117337 -0.028685078186925 -0.0142914372903187 0.06575553 -0.8873612 -0.456362 50 50 50
0.0425626940922879 -0.0295786710213977 -0.0147709268552144 0.2261081 -0.8663561 -0.4453113 39 39 39
0.0450910039143704 -0.0302435012292224 -0.0127439517003377 0.2045935 -0.847127 -0.4904257 59 59 59
0.0429463095860623 -0.032874211831029 -0.00995844783604932 0.1994739 -0.7497577 -0.6309307 58 58 58
0.0472268767552517 -0.0318018050622302 -0.0094527918320973 0.2376887 -0.766516 -0.5966216 32 32 32
0.0491667695241116 -0.0298837275933581 -0.0119811016541798 0.09452097 -0.884274 -0.4573022 27 27 27
0.0529809899525784 -0.0299491734933215 -0.0122644323331196 0.08487949 -0.887773 -0.4523875 59 59 59
0.048810810585513 -0.0311479421090441 -0.0100921410542805 0.1631135 -0.8144702 -0.5568054 52 52 52
0.0541143126683377 -0.0295350404214221 -0.015076072834142 0.05237519 -0.9037954 -0.4247478 54 54 54
0.0553567118840359 -0.0281401725243884 -0.0148581284505208 0.5692724 -0.7432091 -0.351524 50 50 50
0.0550298400120877 -0.029186353249486 -0.0125913638097127 0.1952944 -0.8785928 -0.4358151 72 72 72
0.0531880564885281 -0.0307119937371569 -0.0100412684899647 0.1107428 -0.8901282 -0.4420496 64 64 64
0.0538963980870388 -0.0309300275277453 -0.0094091910344441 0.214124 -0.8779989 -0.428099 67 67 67
0.0545938916402005 -0.0307119937371569 -0.0106297749501545 0.2950797 -0.8570728 -0.42232 94 94 94
0.0560323901372097 -0.0296223016213732 -0.0108477193337758 0.6347334 -0.6947188 -0.3383478 65 65 65
0.0488834090428494 -0.0272247643899279 -0.0177787560445149 0.1035288 -0.8987984 -0.4259616 30 30 30
0.0507723994450711 -0.0265272708367663 -0.0182727891427357 0.04633854 -0.8882273 -0.4570612 48 48 48
0.0529809899525784 -0.0265709014367419 -0.0179530996304829 0.1276464 -0.9023476 -0.4116736 45 45 45
0.0481424040990017 -0.0271375031899768 -0.0169505197030385 0.1166312 -0.9104744 -0.396779 21 21 21
0.0529373593526028 -0.0265709014367419 -0.0165146011334736 0.2857165 -0.8750113 -0.3907957 46 46 46
0.0566862530903958 -0.0268759580087023 -0.0148581284505208 0.7556919 -0.5749499 -0.3136275 48 48 48
0.0581683821873806 -0.0234322400521594 -0.0155119914037068 0.9244534 -0.3402812 -0.172031 116 116 116
0.057470888634219 -0.0229091496896106 -0.0152940470200856 0.9352236 -0.3170574 -0.1575796 66 66 66
0.0572093434529446 -0.019378289742406 -0.020219864271291 0.978195 -0.1561061 -0.1369873 91 91 91
0.0582991547780178 -0.0171115251015979 -0.0171248632890065 0.9978821 -0.02937039 -0.05804133 84 84 84
0.0576016612248562 -0.0254592748116809 -0.0104118007642109 0.9291055 -0.3527479 -0.1110487 72 72 72
0.0575580306248806 -0.0170680137109118 -0.00997588219464612 0.9991046 -0.0306826 -0.02913129 90 90 90
0.058429927368655 -0.0191603751611071 -0.0147273558598836 0.9993491 -0.02259172 -0.02812395 85 85 85
0.0425408787923001 -0.0353764148186999 -0.00783989014447523 0.1076354 -0.8274481 -0.5511301 63 63 63
0.0445460982518338 -0.0344827027749377 -0.00799247803510023 0.178662 -0.7896445 -0.5869765 77 77 77
0.0442627377705715 -0.036073789162572 -0.0075783747655232 0.1591995 -0.8609249 -0.483181 72 72 72
0.0436525054173611 -0.0358122439812976 -0.00668475212872816 0.1087571 -0.9098607 -0.4004065 40 40 40
0.0428242392735623 -0.0362700076531726 -0.00441798748792005 -0.02108716 -0.9717646 -0.2350081 68 68 68
0.0498859591679714 -0.0337198825311023 -0.00620523276151014 0.254916 -0.8132796 -0.5230623 45 45 45
0.0473577685551785 -0.0354635568093615 -0.00461414637387586 0.2553968 -0.8835569 -0.3925553 69 69 69
0.048621863861575 -0.0349839778374987 -0.00454151811421705 0.2513702 -0.8700671 -0.4240239 47 47 47
0.0480116315083645 -0.0335018487405139 -0.00753477396787 0.2947396 -0.7712448 -0.5641897 43 43 43
0.0508886285023831 -0.0330369325112658 -0.00683731021703077 0.2123642 -0.8175342 -0.5352936 71 71 71
0.0520219512181423 -0.0331095309686023 -0.00522443833173108 0.3029073 -0.8749707 -0.3777214 73 73 73
0.0511938042836331 -0.0333275647591906 -0.00496289315045667 0.2834727 -0.8510246 -0.4420411 38 38 38
0.0437831587987088 -0.0374686570596057 -0.000778110645421271 0.007260236 -0.9920429 -0.125691 103 103 103
0.0470525927739285 -0.0375994296502429 0.00100913462816882 0.1650678 -0.9675895 0.1911103 49 49 49
0.0489923663334988 -0.0368147941064196 -0.000767202995427374 0.272 -0.9328693 -0.2361587 85 85 85
0.0512082286076687 -0.0368002505730944 -0.000763596914418463 0.4424389 -0.8939701 -0.0711708 108 108 108
0.0476193137364529 -0.036378964943822 -0.0036115664464314 0.2426734 -0.9125125 -0.329288 41 41 41
0.0484910912709378 -0.0355070682000476 -0.00173711957753492 0.2362101 -0.9243362 -0.2996788 56 56 56
0.0476193137364529 -0.0365097375344592 0.00188094196497607 0.1990088 -0.8913873 0.4072151 106 106 106
0.0531335778432034 -0.0340903850030261 -0.00396028342068983 0.3929188 -0.8645725 -0.3132558 95 95 95
0.0549862094121121 -0.0317364783715564 -0.00871172728360486 0.2574125 -0.8555529 -0.4491861 67 67 67
0.0544194884495877 -0.0314531178902941 -0.00866815628827405 0.2574125 -0.8555529 -0.4491861 52 52 52
0.057776064415469 -0.0286632628869372 -0.00609627547086072 0.9160045 -0.3485158 -0.1986769 99 99 99
0.0564901538090847 -0.0318564029168444 -0.00472313346684766 0.6576682 -0.7199889 -0.2215592 112 112 112
0.0576452918248318 -0.0284453483056384 -0.00378591003239942 0.9249548 -0.3550269 -0.1357003 103 103 103
0.0575580306248806 -0.0300146193932849 -0.00217303814709974 0.9038333 -0.4181287 -0.09085047 125 125 125
0.0568606562810086 -0.0308427663277941 9.36966913859805E-05 0.8732436 -0.48445 0.05247668 144 144 144
0.0574128337102078 -0.0301017613839465 0.00122707901179003 0.9023507 -0.4281202 0.04976254 90 90 90
0.0577978797154568 -0.0184193702172595 -0.00866815628827405 0.999605 -0.0232184 -0.01583582 79 79 79
0.0580956645207547 -0.0197706075143176 -0.00442525925458265 0.9991525 -0.02372665 -0.03363367 94 94 94
0.058124751587405 -0.0219937415551501 -0.00413465680898023 0.9996017 -0.0134604 -0.02480482 87 87 87
0.0578777499394558 -0.016777381462987 -0.00637233438313795 0.9993387 -0.03219635 -0.01689965 83 83 83
0.0580811209874295 -0.0238681884240466 -0.000124247692235235 0.9986038 -0.03450812 -0.03999719 106 106 106
0.0583427853779934 -0.0238681884240466 0.00183737096964526 0.9977333 -0.02397564 -0.06287652 74 74 74
0.057819575806155 -0.0170897098016101 -0.00406927051366163 0.9980267 -0.05088969 -0.03678381 72 72 72
0.058124751587405 -0.0180705638360339 -0.00234741153539014 0.9984686 -0.04736423 -0.02858497 93 93 93
0.0577324338154934 -0.0202936978768664 -0.000255020282872442 0.9989041 -0.02370864 -0.04035506 70 70 70
0.0582555241780423 -0.0214706511926013 0.00179377017199206 0.9975601 -0.01704361 -0.06770068 98 98 98
0.0577978797154568 -0.0171769710015612 -0.000625552557118658 0.997868 -0.05157633 -0.0399918 100 100 100
0.0585897870259426 -0.0165738912057238 0.00113990721880602 0.9965485 -0.04382974 -0.070499 107 107 107
0.0575145192341946 -0.0124037118386584 -0.01629662694753 0.9986394 -0.01022613 -0.05113501 56 56 56
0.057819575806155 -0.0095265956353503 -0.0183890182000477 0.9987842 -0.02154828 -0.0443375 97 97 97
0.0577324338154934 -0.00804458574765499 -0.0185633915883381 0.9984818 -0.01952245 -0.05150792 94 94 94
0.0580376095967434 -0.00673685984128292 -0.0180403012257893 0.998063 -0.03109569 -0.05388179 65 65 65
0.0579503483967923 -0.0103839488457995 -0.01495984377683 0.9990862 -0.02834347 -0.03199111 75 75 75
0.0580376095967434 -0.00782655195706661 -0.0169940906983693 0.9982317 -0.01216896 -0.05818364 83 83 83
0.058124751587405 -0.00608287767880733 -0.016536386631139 0.9979073 -0.02180148 -0.06087445 91 91 91
0.0579503483967923 -0.015280708832677 -0.0135068017464955 0.9994428 -0.03096424 -0.01246 77 77 77
0.0576452918248318 -0.015280708832677 -0.0130708831769307 0.9997827 -0.02026016 -0.004897108 91 91 91
0.0581029362874173 -0.0132754893731433 -0.0127875524979909 0.9993609 -0.02484283 -0.02570397 72 72 72
0.0580811209874295 -0.0144960732888537 -0.0117631274682362 0.9999748 -0.005882823 -0.00397908 61 61 61
0.0581901974873684 -0.0131229014825183 -0.0103246289712269 0.9990996 -0.02596293 -0.0335541 84 84 84
0.057928652306094 -0.0105074496697741 -0.0120682734471638 0.9990315 -0.01634381 -0.0408522 96 96 96
0.0582120127873562 -0.0102677197884875 -0.0117631274682362 0.9990439 -0.01721953 -0.04018255 86 86 86
0.0574272580342434 -0.00917790846341426 -0.0106733459454854 0.9996708 -0.008496284 -0.02421054 123 123 123
0.0583427853779934 -0.00970099882596309 -0.00993231119931531 0.9994532 -0.01536837 -0.02927685 95 95 95
0.0582991547780178 -0.0040341468285876 -0.0186069923859913 0.998899 -0.02759668 -0.0379375 109 109 109
0.0575145192341946 -0.00163660959714229 -0.0176479834538777 0.997694 -0.03301568 -0.05930138 62 62 62
0.0579939789967678 -0.000503286881383014 -0.0152068454247792 0.998886 -0.03424194 -0.03246992 97 97 97
0.058124751587405 0.000107064681116986 -0.0198275464993794 0.9994397 -0.02235714 -0.02490927 89 89 89
0.0578850217061184 0.00331105275637333 -0.0185633915883381 0.9991249 -0.0132498 -0.03967105 91 91 91
0.0582991547780178 0.00498928113466923 -0.0180838722211201 0.998513 -0.009090857 -0.0537497 97 97 97
0.0584008403020047 0.00177802129275029 -0.016093226097234 0.9971387 -0.02595733 -0.07099704 98 98 98
0.0580376095967434 0.00557769818789189 -0.0166671592217763 0.9971207 0.007538772 -0.07545456 77 77 77
0.05797216369678 -0.00451360659116085 -0.0124823767167409 0.999885 -0.01496113 -0.002480606 88 88 88
0.058124751587405 -0.000982746643956256 -0.0142478364926655 0.9988727 -0.04617503 -0.01100695 107 107 107
0.0576888032155178 -0.00473164038174922 -0.0104554015618641 0.9990595 -0.008448534 -0.04252977 49 49 49
0.0578632064061306 -0.00106988863461788 -0.0102810281735737 0.9986807 -0.04776544 -0.01884863 66 66 66
0.058429927368655 -0.00324951128476436 -0.0134196001511891 0.9998943 -0.01134578 -0.009094136 92 92 92
0.0588004298405789 -0.000721201462681842 -0.0123516041261036 0.9983329 -0.05673122 -0.01062685 85 85 85
0.0583427853779934 0.00211228414065068 -0.0141606646996815 0.998705 -0.03935098 -0.0322467 70 70 70
0.0580376095967434 0.000194206671778607 -0.00971433701337171 0.9986436 -0.05036231 -0.01321125 49 49 49
0.0579939789967678 0.000281348662440228 -0.00927841844380689 0.9986436 -0.05036231 -0.01321125 36 36 36
0.0591274209218167 0.00311483426577275 -0.0131144839745839 0.9981731 -0.04527115 -0.04001403 72 72 72
0.0579068370061062 -0.0118806214761096 -0.00888610067189527 0.9994459 -0.02796251 -0.01805537 123 123 123
0.0580811209874295 -0.01279602961057 -0.00675013842404676 0.999217 -0.0240123 -0.0314443 119 119 119
0.0583427853779934 -0.0161524863671618 -0.00644499244511915 0.9990532 -0.03440753 -0.02662547 90 90 90
0.0583427853779934 -0.00621376947873409 -0.00892970146954847 0.9988297 -0.02842632 -0.03913187 99 99 99
0.0579068370061062 -0.00599573568814571 -0.00744760217488599 0.998212 -0.03754795 -0.04650846 35 35 35
0.0584879822926663 -0.0063154550027209 -0.00685185375035596 0.9978913 -0.04815087 -0.0435246 82 82 82
0.0579939789967678 -0.00621376947873409 -0.00531161012471509 0.9990289 -0.03498904 -0.02677588 62 62 62
0.0586478419499539 -0.00756500677579219 -0.00570392789662671 0.9976366 -0.05111086 -0.04592402 106 106 106
0.0583209700780056 -0.0163705201577502 -0.000908883236058478 0.9975416 -0.05353431 -0.04521939 87 87 87
0.0582120127873562 -0.0150627942513781 0.000442443467966791 0.9981791 -0.03579377 -0.04855106 109 109 109
0.0586914725499295 -0.0125779958199816 -0.00108325662434888 0.9988983 -0.01422847 -0.0447179 76 76 76
0.0589966483311795 -0.0122729392480212 0.000921933032862421 0.9991211 -0.02454453 -0.03397911 91 91 91
0.0579939789967678 -0.0100061746072131 0.00087836203753161 0.9989714 -0.003294442 -0.0452252 111 111 111
0.0579503483967923 -0.0080009551476794 0.00135785160242724 0.9991663 0.006504636 -0.04030434 49 49 49
0.0584952540593289 -0.00649701075070674 -0.00169351877988172 0.9999805 -0.006083205 -0.00139873 91 91 91
0.058429927368655 -0.00455723719113643 -0.00845018210233045 0.9989038 -0.01868896 -0.04291739 102 102 102
0.05858251525928 -0.000263557000096393 -0.00709888520062757 0.999361 -0.02419116 -0.02631121 65 65 65
0.0586478419499539 -0.00547264532559688 -0.00644499244511915 0.9985343 -0.03019541 -0.04491549 58 58 58
0.0585170693593167 -0.00301705317014034 -0.00470134796918226 0.9997137 0.005730828 -0.02323166 77 77 77
0.0584735579686306 0.000891700224940228 -0.00818863692105604 0.9986927 -0.04553057 -0.02323477 97 97 97
0.0585606999592923 -0.00455723719113643 -0.00182432117284131 0.9997928 -0.02019392 -0.002584713 62 62 62
0.0583862967686795 0.00176347775942509 -0.00239101233304334 0.9990241 -0.04404746 -0.003276856 77 77 77
0.0586043305592678 0.00211228414065068 -0.0013448018056233 0.9984674 -0.04879541 -0.02611303 59 59 59
0.0585280366139553 0.00562132878786747 -0.00260895671666456 0.9984334 -0.04932746 -0.02641243 75 75 75
0.0586914725499295 0.00124038739687626 0.00100913462816882 0.9970701 -0.04188059 -0.06400916 92 92 92
0.0587931580739163 0.00343455358034794 0.00119802174746203 0.9978824 -0.03298655 -0.05605836 90 90 90
0.0438704199986599 -0.0368584247063952 0.00310149607836413 0.1715685 -0.905302 0.3885776 86 86 86
0.0443063683705471 -0.0360519738625842 0.00386437592684435 0.2501347 -0.840553 0.480524 119 119 119
0.0526758141713284 -0.0334147067498523 0.00253483472048449 0.4366442 -0.8010847 0.409396 137 137 137
0.052719444771304 -0.0326953978967028 0.00286176619707751 0.3927727 -0.7679107 0.5060067 135 135 135
0.0501693196492337 -0.0330223889779406 0.00488874135195422 0.300142 -0.6776131 0.6713831 134 134 134
0.0511938042836331 -0.0306902976464587 0.00552081880747485 0.1894193 -0.7326416 0.6537252 80 80 80
0.0450037427144192 -0.0307229609917956 0.00797283468424487 0.2721928 -0.5813511 0.7667738 60 60 60
0.0430094905095242 -0.028881177468236 0.00989088235079455 0.2670307 -0.5849124 0.7658799 37 37 37
0.0485782332615994 -0.0282709451150256 0.00807091412722277 0.1620216 -0.6515402 0.7411103 39 39 39
0.0555529303746365 -0.032281384034093 0.00270917830645251 0.6060396 -0.7397318 0.2924258 165 165 165
0.0556182570653103 -0.0313876719903308 0.00377717433153796 0.6215181 -0.7319677 0.2791746 110 110 110
0.056817025681033 -0.0311915727090197 0.00353741464792895 0.7229895 -0.6593716 0.2061923 118 118 118
0.0538092560963772 -0.02883766607755 0.00737345037638354 0.2490998 -0.7164081 0.6516969 64 64 64
0.0552913851933621 -0.0290992112588244 0.00746065197168994 0.2315444 -0.7657548 0.6000056 89 89 89
0.0566209263997219 -0.0289248080682116 0.00719910679041552 0.6380738 -0.5736504 0.513602 66 66 66
0.0435216136174343 -0.0265709014367419 0.0119069498556774 0.2150326 -0.6525775 0.7265698 50 50 50
0.0450473733143948 -0.0267016740273791 0.0105556231516521 0.1961071 -0.6581988 0.7268537 39 39 39
0.0520655818181179 -0.0279222579430896 0.00889915046869921 0.07961612 -0.6987718 0.7109002 58 58 58
0.0512809462742947 -0.0260259957742053 0.0108389538305919 0.03683397 -0.7276604 0.684948 65 65 65
0.0583427853779934 -0.0229091496896106 0.00336307106196093 0.9967644 -0.06520452 -0.04700215 101 101 101
0.0577324338154934 -0.0221681447457629 0.00340664205729174 0.9969058 -0.02751021 -0.07363467 137 137 137
0.0582337088780545 -0.0202065558862048 0.00364640174090075 0.9963127 -0.03229468 -0.07948618 100 100 100
0.0589530177312039 -0.0243477673959094 0.0108607691305797 0.8693903 -0.358919 0.3396139 101 101 101
0.0590110726552151 -0.0191167445611315 0.0112676304358165 0.9827816 -0.1715384 0.06866529 105 105 105
0.0584735579686306 -0.0178090186547595 0.0103812795656841 0.9997242 -0.02305425 0.004470034 111 111 111
0.049123138924136 -0.0232361407708483 0.0135416370409648 0.0764503 -0.7038255 0.7062472 74 74 74
0.0441319651799343 -0.0192475171517688 0.0178789776343029 0.08999684 -0.5865071 0.8049286 42 42 42
0.0446550555424832 -0.0179833026360827 0.0188815873640697 0.05671795 -0.5809036 0.8119939 78 78 78
0.0485782332615994 -0.0224296899270373 0.0151763242262523 0.06419215 -0.6785374 0.7317557 72 72 72
0.0492539115147732 -0.0210784526299792 0.0154596549051921 0.05668763 -0.6608204 0.7484002 69 69 69
0.0531117625432156 -0.0219501109551745 0.0151545089262645 0.04337731 -0.7034196 0.70945 81 81 81
0.052719444771304 -0.0205116124581652 0.0161789041536968 0.03567963 -0.6836008 0.7289835 56 56 56
0.0514117188649319 -0.0192475171517688 0.0170943420904796 -0.002165369 -0.6420761 0.7666378 83 83 83
0.0435652442174099 -0.0180705638360339 0.0189251583594005 0.04432543 -0.5530602 0.8319614 103 103 103
0.0572964854436062 -0.0225168319176989 0.0142173152941387 0.7283425 -0.5826748 0.3605653 53 53 53
0.0534023947911404 -0.0164867492150622 0.0194482785242717 0.01055594 -0.5905439 0.8069365 64 64 64
0.0570349402623318 -0.0193564744424182 0.0173994582670848 0.2696275 -0.6533251 0.7074372 102 102 102
0.058735103149905 -0.0189859719704943 0.0130839329737346 0.965408 -0.2574836 0.04110568 121 121 121
0.0594324774937771 -0.0199013801049548 0.0164404493349712 0.8222854 -0.4834944 0.3001331 109 109 109
0.0548205084996365 -0.0163529963921862 0.0197621267813365 0.04542215 -0.5873892 0.8080289 107 107 107
0.0586043305592678 -0.0146268458794909 0.00279637990175891 0.9990318 -0.02116599 -0.03856826 98 98 98
0.0583862967686795 -0.0125126691293078 0.00765681085764575 0.9993247 -0.03266834 -0.01681677 60 60 60
0.0582991547780178 -0.0061846824120837 0.00333401379763293 0.9980836 -0.02097931 -0.05821493 78 78 78
0.0586623854832791 -0.00627182440274532 0.00500500021158862 0.9964676 -0.04969043 -0.06769953 64 64 64
0.0586187548833035 -0.00852404551022823 0.00776579795061755 0.9973783 -0.05886891 -0.04208194 91 91 91
0.0589966483311795 -0.0148012490701037 0.00750422296702075 0.9998484 0.009770411 -0.01441336 71 71 71
0.0585606999592923 -0.0166755767297107 0.0107299965399425 0.9994784 -0.001538413 -0.03225795 103 103 103
0.0587567992406033 -0.0121639819573718 0.0115364473837535 0.9984159 -0.02628584 -0.04974741 90 90 90
0.0585170693593167 -0.00874196009152706 0.00942227063357043 0.9988959 -0.03949803 -0.02543164 52 52 52
0.0583862967686795 -0.00882922129147823 0.0109043699282329 0.9983426 -0.03766692 -0.04351107 50 50 50
0.0593453355031155 -0.00673685984128292 0.0104684513586681 0.9971268 -0.07021809 -0.02841803 100 100 100
0.0585170693593167 -0.0064753146600085 0.012865958787791 0.9980306 -0.04876739 -0.03945412 45 45 45
0.0588440604405545 -0.00255213694089229 0.00321051297365832 0.9957646 -0.0390408 -0.0832384 109 109 109
0.0586478419499539 -0.000634059472020221 0.00360283074556994 0.9961889 -0.0373984 -0.07879708 104 104 104
0.0586043305592678 -0.00394700483792598 0.00523748812853503 0.9964327 -0.03060119 -0.07864747 85 85 85
0.0592145629124783 -0.000634059472020221 0.00570246396242785 0.9977756 -0.01718103 -0.0644097 79 79 79
0.0588658757405423 0.00573028607851689 0.00434386549173998 0.9986247 -0.04078606 -0.03294076 67 67 67
0.0586914725499295 0.00233019872194951 0.00528108892618823 0.9991614 -0.006479532 -0.04043076 42 42 42
0.0588875718312405 0.00195969625002568 0.00748243746935534 0.9996799 0.008206615 -0.02393365 92 92 92
0.0590401597218655 0.00337637944704716 0.00754782376467394 0.999779 -0.002015882 -0.02092354 72 72 72
0.0586696572499417 -0.00501500086301143 0.0115364473837535 0.9985132 -0.05067084 -0.02009911 91 91 91
0.0590692467885159 -0.000822886986668658 0.0118343215960185 0.9999765 -0.004404854 -0.005246974 72 72 72
0.0585170693593167 0.00228656812197392 0.0102940779703777 0.9993344 0.01748561 -0.03201616 51 51 51
0.0589093871312283 0.00365962071901982 0.0130621474760692 0.9978926 -0.03469648 -0.05483267 90 90 90
0.0472393937306546 -0.0151624532174426 0.0207622331160228 0.03263861 -0.538588 0.8419368 130 130 130
0.0496462292866848 -0.015934571785863 0.019993154384486 0.0219915 -0.5643935 0.825213 96 96 96
0.0493483252720974 -0.0146850200127917 0.0210538786429088 0.01409496 -0.5417904 0.8403955 114 114 114
0.0519784398274563 -0.0151063056420642 0.0204944592493694 0.01768299 -0.5714135 0.8204718 156 156 156
0.0492320962147854 -0.0118806214761096 0.0227611940878551 0.006660306 -0.515056 0.8571306 86 86 86
0.0529373593526028 -0.0125125499200183 0.0221727174299877 0.009306746 -0.5264234 0.8501716 108 108 108
0.0512155003743313 -0.0119024367760974 0.0226086359995525 0.008202913 -0.5164723 0.8562646 112 112 112
0.0424319215016506 -0.00943945364468868 0.0241997223871868 0.02583515 -0.5148919 0.8568658 112 112 112
0.0479243703084133 -0.0113139005135852 0.0224996489065807 0.005054778 -0.5150623 0.8571379 53 53 53
0.048854321976199 -0.0109797568749743 0.0231099408644359 0.001670819 -0.5090621 0.8607282 70 70 70
0.0511647172169827 -0.0102531762551623 0.0236330312269847 0.008426224 -0.506722 0.8620683 112 112 112
0.0590183444218777 -0.0102677197884875 0.0141301435011547 0.9981076 -0.01974461 -0.05823649 70 70 70
0.0590401597218655 -0.00943945364468868 0.0136941951292675 0.998428 -0.02963128 -0.04757564 88 88 88
0.0589530177312039 -0.0102240891885119 0.0160045605677288 0.9985127 -0.04303189 0.03347413 100 100 100
0.0548263497548245 -0.0152952523660022 0.0203636866587322 0.02852118 -0.5455368 0.8376015 122 122 122
0.0576452918248318 -0.0165012927483874 0.0197533947008769 0.2877927 -0.5266668 0.7998734 135 135 135
0.0567080683903836 -0.0140492768716174 0.021213708497874 0.2475339 -0.4914563 0.8349836 156 156 156
0.0547028489308499 -0.0119894595574694 0.0226086359995525 0.05624435 -0.5183457 0.8533196 137 137 137
0.0568024821477078 -0.013028487725194 0.0217876714247386 0.3387511 -0.5193329 0.7845643 133 133 133
