ply
format ascii 1.0
comment File exported by Rhinoceros Version 7.0
element vertex 475
property float x
property float y
property float z
property float nx
property float ny
property float nz
property uchar red
property uchar green
property uchar blue
end_header
-0.00174937838366152 0.0427647430710292 0.0293309517711977 -0.2019551 0.1555261 0.9669673 19 19 19
-0.0449084542467659 -0.0338091327022783 -0.0207466259081615 -0.4965507 -0.4496164 0.742484 62 62 62
0.0142839487179431 0.00980732598729128 0.0232828113471876 -0.1388352 -0.2782856 0.9504114 93 93 93
0.0305413495131046 -0.000418540548162261 0.0122292463442611 0.7790366 -0.5501056 -0.3008087 59 59 59
-0.00201429819746446 0.0280169249707682 0.0245807624953162 -0.285941 -0.3751632 0.8817541 31 31 31
-0.03355898292582 -0.0177874309936576 -0.0106266562198057 -0.2354415 -0.5458217 0.804143 232 232 232
-0.0195178496322974 -0.0285773639825255 -0.0121089145987976 -0.5943066 -0.616203 0.516811 226 226 226
-0.0325243655044507 -0.00380167906849027 0.00223324097460254 -0.65235 -0.5169493 0.5542589 197 197 197
0.00434253082954994 0.00682931361926542 0.0213500883216137 -0.1713321 -0.3227564 0.9308457 214 214 214
-0.0353596300067012 -0.0375156443916551 -0.0193792357556372 -0.2519673 -0.5235184 0.8139048 81 81 81
0.0370898511195725 0.0142540369003887 0.00758801926474628 0.8094326 -0.3784573 -0.4489866 58 58 58
-0.00207086432674375 -0.00219140972341392 0.0162832927926101 -0.2663724 -0.400103 0.8769056 75 75 75
0.0157417176883969 -0.0101757569899923 0.0173375181900594 -0.1038042 -0.521011 0.8472144 22 22 22
-0.0365605927946877 -0.00930230955618017 -0.00765672586697608 -0.6367346 -0.3534569 0.6853009 86 86 86
0.0365456145480501 0.0298788863592172 0.0162318642824016 0.562216 0.6860455 0.461795 89 89 89
-0.00789513419296206 -0.0322131888865662 -0.00463969213723353 -0.4820113 -0.6182242 0.6208574 215 215 215
0.0137065716919436 0.0221369793088557 0.0278957669723026 -0.104581 -0.312304 0.9442081 210 210 210
0.0100988174063517 0.0339230156908996 0.0306222062012169 0.1147298 -0.02484301 0.993086 149 149 149
-0.0303332295111414 -0.0183707612039103 -0.0110690708122487 -0.2845366 -0.6161909 0.734403 96 96 96
-0.0367487605195498 -0.0275060014534909 -0.0174769618149541 -0.1988391 -0.06221421 0.9780554 82 82 82
-0.000475733456343885 -0.0248169594570198 -0.0207548655272886 0.7756276 -0.431356 -0.460797 52 52 52
0.0079652033071782 0.0378459004270963 0.030171165147538 0.2302304 0.368432 0.9006952 84 84 84
0.0142779474886936 0.00116237579734868 0.0212859001722932 -0.1867075 -0.276058 0.9428321 232 232 232
-0.0353890614939001 -0.050101951033376 -0.0295013878844488 -0.6425231 -0.6161651 0.4555268 73 73 73
0.00824873015993166 0.0178126438419808 0.0255383373584032 -0.1396316 -0.2535642 0.9571877 68 68 68
-0.0280256925786264 0.0104868410509567 0.0111954775631891 -0.4292921 -0.1431424 0.8917502 39 39 39
0.0212581017404196 -0.00394251595533479 -0.00274233889744557 0.7709036 -0.3900157 -0.5035826 43 43 43
0.0359470400233346 0.0295543488490329 0.0181837130766357 0.5589522 0.6689181 0.4900215 65 65 65
0.0433662961623495 0.0194320986752161 0.0223483203541094 0.7144833 0.5901317 0.3758432 92 92 92
-0.0200195351862575 0.0182561011608384 0.016236689391548 -0.3272255 -0.1561835 0.9319497 37 37 37
-0.0194452374769485 -0.047442782885089 -0.0188196137549038 0.04630986 -0.4603404 0.8865337 61 61 61
-0.0194395701367998 0.0094801446392605 0.0144221356449224 -0.3026213 -0.1632845 0.93902 240 240 240
0.0115697050208872 0.0120032654434725 0.0239062932211163 -0.06103025 -0.3218811 0.944811 223 223 223
0.037976801406129 0.00341614138641466 0.0253442784291242 -0.4055388 -0.2342644 0.8835488 21 21 21
0.0226526561802536 0.0364576530874272 0.0215502603074956 0.4183157 0.7233149 0.5493883 87 87 87
0.0103828797831187 -0.0121086013177591 -0.0128294291954336 0.7749205 -0.4876776 -0.4020807 71 71 71
-0.0388564046781874 -0.00603027958882296 -0.00889744899967748 -0.6573072 -0.3488428 0.6680239 60 60 60
-0.0160594890118726 0.00636648212457458 0.0145457083587001 -0.2645382 -0.2301196 0.9365172 233 233 233
0.0335221231951821 0.0203677543819152 0.0277112604624021 0.05779099 0.04538376 0.9972966 181 181 181
0.00368554575053315 -0.0293031671303094 -0.00977005279307103 0.7517321 -0.4654689 -0.467159 108 108 108
0.0266292251938691 0.0320544669723957 0.0227235569420366 0.4173365 0.6691492 0.6148736 90 90 90
0.0222382173443489 -6.28605762975631E-05 0.0218431865823636 0.09432831 -0.3547207 0.9302018 231 231 231
-0.0155397038314047 -0.0293809418884934 -0.00905723612553821 -0.4376463 -0.6271979 0.6442736 73 73 73
0.0180612066845836 0.0144774363278659 0.0255362955292079 -0.2046787 -0.2799834 0.9379317 160 160 160
-0.031276062893387 -0.0551118586254495 -0.0291932042018341 -0.253294 -0.9392793 0.2315096 66 66 66
-0.0237062725136266 -0.00577562971302603 0.00758463980903351 -0.3702103 -0.4455937 0.8151016 215 215 215
-0.0136344270395301 0.0266210968578584 0.00825422642837631 -0.5381453 0.6480086 -0.5389661 6 6 6
-0.0427792922479306 -0.0414865322606155 -0.027539124976117 -0.4606132 -0.6214558 0.6337414 58 58 58
-0.0139259765340949 -0.0119588752267996 0.00848610838120128 -0.4058726 -0.4550992 0.7925605 246 246 246
-0.024746343164177 -0.0237856387481075 -0.0126448499975073 -0.5536636 -0.6288381 0.5459114 95 95 95
0.0115949522403178 -0.0167996186447492 -0.00589903485718007 0.7694674 -0.3968093 -0.5004621 77 77 77
-0.0359022800153768 -0.0440610495626461 -0.0250956514793272 -0.6188338 -0.4175715 0.6653411 92 92 92
-0.035711457758631 -0.0117705189286961 -0.0079159573277256 -0.518557 -0.4880147 0.7020971 236 236 236
-0.00322170577146164 -0.000559267457848067 0.0166220054560978 -0.305113 -0.3914231 0.8681555 73 73 73
0.0166364478785543 0.0426829817539043 0.0166163649589237 0.416985 0.8154927 0.4013666 117 117 117
-0.0338586052503329 -0.0140825074232416 -0.00845651205526776 -0.359654 -0.5612534 0.7454151 238 238 238
0.0062927541212745 0.0106276223167172 0.023126707657076 -0.1579778 -0.3417237 0.9264275 219 219 219
-0.0447448947876072 -0.0358163553639395 -0.0216591630111288 -0.5194255 -0.6137052 0.5946118 40 40 40
-0.0140607850186885 -0.0373360624584147 -0.033078681005508 0.6978299 -0.4482413 -0.5586709 118 118 118
0.044079969903791 0.0170487560094812 0.0244198541188452 0.702315 0.6074115 0.3712209 97 97 97
0.0221066425977852 0.0365827454495224 0.0201259479808142 0.4409163 0.7093295 0.5499495 72 72 72
-0.0168314751848504 -0.0421857470807632 -0.0310676796028387 0.4730786 -0.5348966 -0.7000588 65 65 65
0.0327926135915617 -0.000812993312536703 0.01335019079295 0.7996353 -0.5841559 -0.1390877 66 66 66
0.0103689857692419 -0.00390950693735781 0.0186219720309675 -0.2179783 -0.3028045 0.9277903 109 109 109
-0.0310304311945129 -0.0335588583744859 -0.017549334379708 -0.03421493 -0.238585 0.9705187 76 76 76
-0.025831401559834 -0.0122475020609807 0.00124976445387293 -0.6286779 -0.5548397 0.544901 213 213 213
0.0297365780863244 0.0311513876826415 0.0204543499700218 0.4471341 0.6385935 0.6263142 92 92 92
-0.00304248563378495 -0.0289327438633591 -0.0223346186370622 0.7997833 -0.3896229 -0.4566624 79 79 79
-0.00822226218351307 0.00884540728224259 0.0180698685885261 -0.3815948 -0.1547058 0.9112911 169 169 169
0.00232922079594999 0.00614134366920949 0.0211764182822737 -0.2122107 -0.2787351 0.9366288 190 190 190
0.0126737979251073 -0.016103861898018 -0.00518306374652594 0.7650764 -0.4031562 -0.5021187 60 60 60
0.00265964311086497 -0.0345675445544411 -0.00178452006447954 -0.03135395 -0.8500875 0.5257074 47 47 47
-0.00509871330228151 -0.000343941832966932 0.0167700295066444 -0.3361546 -0.3288333 0.8825354 61 61 61
-0.013691421781755 0.026146046912553 0.0197318562258165 -0.3344174 -0.1932025 0.9224087 33 33 33
-0.0283719450437916 -0.0104972441738895 -0.00104699901037902 -0.6961543 -0.5481694 0.463551 242 242 242
0.0163333424218397 0.0167304270074371 0.0257819460078334 -0.1575327 -0.3036591 0.9396673 104 104 104
-0.023533249311082 0.0178212030259435 0.0150504782248394 -0.4632038 0.03627152 0.8855092 52 52 52
-0.0350017028857712 -0.0513447136285292 -0.0310847996396447 -0.5990216 -0.7132263 0.3639798 40 40 40
0.0133867436064046 0.0434421702546306 0.0166922066253252 0.355215 0.8819183 0.309907 94 94 94
0.0258965699063816 -0.0016024411875275 0.00191200232855449 0.7951935 -0.3606237 -0.4874606 44 44 44
0.00995544677596127 -0.00242926999276349 0.0189852736659888 -0.2177698 -0.2998593 0.9287953 220 220 220
-0.0306898666121995 -0.0197843615715347 -0.0119300844406214 -0.2349366 -0.6470317 0.7253653 161 161 161
0.0182786335960925 0.0426554103818946 0.0130978617954321 0.3591184 0.828182 0.430289 82 82 82
-0.00771138327690712 -0.0393964226040195 -0.012308540749468 -0.3009536 -0.7597555 0.5763666 36 36 36
-0.0213083811729264 -0.0421416468086999 -0.0179735752898542 -0.02360337 -0.09178974 0.9954987 60 60 60
0.0342686369325622 0.0197291807881488 0.000332321922534962 0.7586811 -0.3608919 -0.5423653 31 31 31
-0.0111348273660501 0.0297114576281547 0.0100468219951281 -0.6887331 0.602881 -0.4027173 18 18 18
0.00970034071409298 0.0400654192954564 0.0261218092263777 0.4829228 0.6680791 0.5660882 84 84 84
0.00447686903941635 0.0455525504738898 0.0206696306469594 0.258055 0.9439004 0.2060574 82 82 82
-0.0109915918572563 0.0373287346603399 0.0236817885160728 -0.8503096 0.2425058 0.467081 49 49 49
0.0194994340344081 0.0181681344406028 0.0268145739410644 -0.1485233 -0.2686501 0.9517184 242 242 242
-0.0336400773536805 -0.0299468138807673 -0.0167224196274541 -0.1041171 -0.1357821 0.9852527 89 89 89
0.0175822866950015 -0.00453638058014216 -0.0077680141839887 0.813143 -0.4097055 -0.4134488 76 76 76
0.00669943846849286 -0.0141776506817779 0.0128306022802184 -0.1493445 -0.5159582 0.8434947 189 189 189
-0.0325633903918741 -0.00636097451277973 -0.000916617751960891 -0.6099996 -0.5791013 0.5408716 196 196 196
-0.00841491956030183 0.00532024218137073 0.0165705310567008 -0.3456142 -0.2737705 0.8975525 225 225 225
-0.00200263839419357 0.0424288511060968 0.0287809524136302 -0.2019551 0.1555261 0.9669673 30 30 30
0.027546239459411 0.0337188235374091 0.0209997499460053 0.4037781 0.6777662 0.6144885 108 108 108
0.0191458690581703 -0.0135673089762591 0.00529696652320655 0.7969214 -0.5402288 -0.270313 89 89 89
0.00825211683732796 0.0453773074614467 0.0219007679138193 0.3298596 0.9094017 0.2533399 121 121 121
0.00166331096983896 -0.024913211389364 -0.0179340741362669 0.7864673 -0.4334074 -0.4400309 82 82 82
0.027039122929327 0.0253143378407497 0.0295032354235817 0.1697364 0.1571715 0.9728755 195 195 195
-0.00686841828687212 0.0272240513649313 0.0226543386068143 -0.3351915 -0.3008896 0.8928114 224 224 224
-0.0132022046997617 -0.0397492539058946 -0.0289779626198033 0.7202871 -0.4305768 -0.5438658 49 49 49
0.0145488083548684 -0.0114716699052519 -0.00753489939327923 0.7705634 -0.4666184 -0.4341651 79 79 79
-0.00793739986709108 0.034124670077381 0.0244978431710247 -0.4693688 -0.1774448 0.8649892 26 26 26
-0.012171192778661 -0.0412180122638786 -0.015802863513344 -0.3513063 -0.5967973 0.7213992 63 63 63
0.0237991890022351 0.00319279449382837 0.0229579982115274 0.1249874 -0.3199397 0.9391575 239 239 239
-0.0335139164547189 0.00461394979401164 0.00676520463700048 -0.5011894 -0.3174389 0.8050104 40 40 40
0.00928845412781465 -0.0165707090553708 -0.0092012902675625 0.7994502 -0.4205944 -0.4289287 92 92 92
0.0335483322402439 0.0118237568692805 0.00395193871047178 0.7563388 -0.3644305 -0.5432697 67 67 67
-0.0014059407506819 0.0144180198462105 0.0216353640832979 -0.4362727 -0.1777221 0.882089 88 88 88
-0.00945650178741131 -0.0382681625262828 -0.0126039300256494 -0.5025514 -0.5747537 0.645833 110 110 110
-0.0175482538870932 -0.0286723787428029 -0.0096393610134905 -0.4490775 -0.640949 0.6225061 30 30 30
0.00094610384372551 0.0457112719804551 0.0236272273395647 0.2261931 0.9195322 0.3213989 128 128 128
-0.0131997066653358 -0.0333243654803854 -0.0115569713765593 -0.4976269 -0.5310157 0.6858497 81 81 81
-0.0239667351515456 -0.0187209987581136 -0.00363222084763182 -0.5876943 -0.6325673 0.5044541 47 47 47
-0.0294441945628039 -0.0150475344165002 -0.00796918899469201 -0.5079746 -0.6032699 0.6148392 95 95 95
0.0426875712159447 0.0141291551847813 0.0184151391868831 0.9217237 -0.1372008 -0.3627689 56 56 56
0.00252417312145825 -0.0236607343063409 0.00680256636298082 -0.1838274 -0.5393236 0.8217892 217 217 217
-0.0276170481232438 0.00781796940849389 0.0110053202916057 -0.4155264 -0.2285536 0.8803983 53 53 53
-0.00204884653938109 0.0325749001523414 0.026647744539261 -0.3673255 -0.3150074 0.8751242 221 221 221
0.0184168687781656 0.0401874790619365 0.0184031534151122 0.4850912 0.7037186 0.5191017 100 100 100
0.0338926459509961 0.0303314638171737 0.0195085572786803 0.5404968 0.6442614 0.5411012 71 71 71
-0.00261462128746359 0.0455127166610099 0.0286755709601976 -0.0267873 0.5066664 0.8617259 105 105 105
0.0266760319630217 0.00602990592568964 0.0227932259959915 0.07618599 -0.3806323 0.9215827 233 233 233
-0.0168276986284832 -0.0372745565049877 -0.0166391526307906 -0.4569713 -0.4546145 0.7645279 40 40 40
-0.0220505387344372 0.0160495914246406 0.0151520096274574 -0.3013294 -0.267276 0.9152945 40 40 40
-0.000173881547694599 0.00399458598138502 0.0195765021608654 -0.2345999 -0.2930601 0.926865 59 59 59
-0.0357882662064273 0.00160504636025793 0.00372278544426269 -0.6247414 -0.4200283 0.6582357 43 43 43
0.00276742491685145 -0.0318981682810584 0.00110520647758228 -0.1366303 -0.6339114 0.7612414 72 72 72
0.0206308324693429 0.0351428071424156 0.0227798925179979 0.4434429 0.7030317 0.555972 134 134 134
0.0132412538463824 0.031659861938802 0.0305495972867871 0.102309 -0.0221745 0.9945055 169 169 169
0.0301170103240467 0.0322062007281743 0.0206036577736658 0.4397064 0.6449494 0.6250588 78 78 78
-0.0132923642651104 -0.0255524151473809 -0.00269618381858217 -0.5444638 -0.5806099 0.6053523 208 208 208
-0.0037372279639194 -0.037897947515614 -0.00777623822982559 -0.2802345 -0.7620313 0.5837611 69 69 69
0.0252400815538034 0.0185627805677069 0.0277495436379539 -0.005372836 -0.2834103 0.9589837 54 54 54
0.017023830637239 0.0243477175177238 0.0287437655640579 -0.06558058 -0.3077346 0.9492095 94 94 94
-0.0187877031738202 -0.0012934934665898 0.0108130260769775 -0.2634421 -0.3839431 0.8849779 53 53 53
0.0024736147986224 0.0208154738850028 0.0252488070307496 -0.3332117 -0.07635375 0.9397553 24 24 24
0.0160034750192408 -0.004827747731732 -0.0116067351307028 0.8205653 -0.4187305 -0.3890209 40 40 40
0.00471851264824164 -0.0291145555204821 0.00317197055690283 -0.1024338 -0.5957801 0.7965885 88 88 88
-0.0209422487127546 0.023921631958755 0.0163334701820754 -0.6119289 -0.002821179 0.7909077 83 83 83
0.00772140123762499 -0.0117124886419318 0.0143376692878888 -0.1687145 -0.4786746 0.8616299 209 209 209
-0.00154908164327905 0.0369291863963066 0.0279587112097767 -0.424494 -0.1992456 0.8832361 80 80 80
-0.00999604506639029 0.0158614301183599 0.0181597809022458 -0.2791654 -0.19599 0.940029 225 225 225
0.0284919645094566 -0.0025888267521974 0.00940057500843527 0.8027666 -0.3713358 -0.4665572 81 81 81
0.00164227190535193 -0.0129404556186732 0.0127622982447908 -0.2244888 -0.4440701 0.8674137 226 226 226
0.00589906103070037 -0.00987222586624514 0.0151252161137478 -0.1921151 -0.4237174 0.8851866 175 175 175
0.00225741749210462 0.0416340997894762 0.0296896404514077 0.09397292 0.4160436 0.904476 82 82 82
-0.0198073112911197 0.0112321626656622 -0.00393015070345681 -0.5218447 0.6957529 -0.4935645 7 7 7
-0.0188629841912991 -0.0485542169600162 -0.0198096643839627 0.1242838 -0.6923378 0.7107897 67 67 67
-0.0200717159410662 0.0191693392043581 0.0167627812599303 -0.3526688 -0.1610583 0.9217836 18 18 18
-0.00605114289462794 -0.027522493875018 -0.0269065073289363 0.783102 -0.3867014 -0.4870455 68 68 68
0.0100448137819247 -0.00970608886646063 -0.0177509749888758 0.788544 -0.4686804 -0.3981671 64 64 64
-0.000693440888330343 -0.0304833862381417 0.000668401391460793 -0.3230653 -0.5959748 0.7351482 55 55 55
-0.0368537747785362 -0.0110433313244485 -0.00836554049386967 -0.6064366 -0.3422858 0.7176874 59 59 59
0.000772504418905751 -0.0262034512980653 0.00449985231208666 -0.229462 -0.5436538 0.8073336 224 224 224
0.0272880734629446 0.00332529246325297 0.00182134577303816 0.8077613 -0.3664243 -0.4617954 52 52 52
-0.0258805914160205 0.0196083057582654 0.0144569607390095 -0.722586 0.5234671 0.4514993 54 54 54
-0.0278392576836217 0.0126862632516944 0.0117193588169768 -0.4379713 -0.1680059 0.8831507 35 35 35
0.0282820590358601 0.0206998743667641 0.0282818730154028 0.1069602 -0.2006424 0.9738081 95 95 95
0.0364964110544577 0.0120910756195687 0.0276140341662093 -0.5135071 -0.2517156 0.8203351 35 35 35
0.0149302951859789 -0.00639395022161793 -0.0126531776367784 0.8041425 -0.4348892 -0.4052483 61 61 61
-0.00202058242349867 -0.0158320162347156 0.0099944965168226 -0.2531883 -0.4391724 0.861988 136 136 136
-0.0384661721685626 -0.0433576914603435 -0.0272226003651069 -0.5506126 -0.5085698 0.6619536 76 76 76
-0.0266419785333505 -0.0197068775851321 -0.00847058519664401 -0.6371621 -0.5896925 0.4962733 140 140 140
0.0120441129271165 0.0442861452128096 0.0160222233998796 0.3878029 0.8867004 0.2517367 93 93 93
-0.0399794248521617 -0.0211162399396889 -0.0156014411547276 -0.2926029 -0.5183322 0.8035641 28 28 28
-0.0260701724749035 -0.0506101733665294 -0.0307343732801934 0.4010448 -0.8463324 -0.3505488 88 88 88
-0.0396274833594665 -0.0122893578463892 -0.0109176063643487 -0.5318908 -0.2591128 0.8061965 48 48 48
0.0157481893028866 -0.00723053584485811 -0.0103776873049227 0.8117576 -0.4132077 -0.4126851 84 84 84
-0.0328590436057117 -0.0492677473582943 -0.0248982574565991 -0.6265147 -0.5493733 0.5528727 65 65 65
-0.00410388385292482 -0.0281350878171027 0.00119522572014713 -0.4231978 -0.5323568 0.7331438 35 35 35
0.0199298626919351 0.0159909263994886 0.0263542698884321 -0.1667848 -0.2481485 0.9542564 238 238 238
-0.0385046924174839 0.00112909065436284 -0.000580052186235136 -0.6796569 -0.5267891 0.5104504 72 72 72
-0.0391843876888545 -0.0456979700214331 -0.0286375764226964 -0.5377766 -0.530628 0.6551567 61 61 61
0.00914016010278473 -0.0296994412940912 0.00342991418062788 -0.09408941 -0.6090662 0.7875186 51 51 51
-0.010086702201638 -0.0385873001899539 -0.0244376533554053 0.7742073 -0.4346246 -0.4601136 67 67 67
-0.0249500438822365 -0.0521800329451088 -0.0222014041754276 0.1131976 -0.854759 0.5065306 61 61 61
0.0389815905767317 0.0196698926168262 0.0270813350813517 0.4614426 0.5615066 0.6868632 109 109 109
0.0261748496848253 0.0161273499733341 0.0265979327045716 0.04791003 -0.3084094 0.9500465 57 57 57
0.00644421241860149 -0.0168018624075335 -0.0174831559517444 0.8157604 -0.4352138 -0.3809514 59 59 59
-0.0131032197676313 -0.0150057325965971 0.0075701840854297 -0.4393125 -0.4969926 0.7483334 242 242 242
0.0115335596606343 -0.012594290252719 -0.0109836611730252 0.7587273 -0.500582 -0.416834 94 94 94
0.00318164870396931 -0.0153114482464065 0.0119902578768168 -0.1578057 -0.4918493 0.8562602 32 32 32
-0.0271755237981375 -0.0484966303720056 -0.0200498481428264 -0.2643352 -0.4462601 0.854973 96 96 96
0.00248025699465959 -0.0170491858027935 0.0103599970100318 -0.1527414 -0.5006448 0.8520709 32 32 32
0.0113667937858293 0.0434238726285814 0.0206955002537142 0.4723418 0.7828364 0.4050436 124 124 124
-0.0174767815251347 -0.0416607578477717 -0.0317070575336722 0.4773991 -0.5109506 -0.7148563 105 105 105
-0.0211242661672548 -0.0500450279145424 -0.0249928587652822 0.1840546 -0.982694 0.02089037 82 82 82
0.0308568509993692 0.0344870672939204 0.0151217575188803 0.539618 0.6858969 0.488219 90 90 90
0.0102264688201612 -0.0140594239631009 -0.0119386013322448 0.7722179 -0.4898153 -0.4046732 79 79 79
0.0355192371831028 0.0333262354158281 0.0123509006498268 0.6335338 0.6685876 0.3893912 50 50 50
0.042047301529391 0.0260857258433393 0.015140961977441 0.8160535 0.515834 0.2607145 76 76 76
0.0085000540394482 0.00100926722877581 0.0198936128539156 -0.1785771 -0.3453355 0.9213325 230 230 230
-0.00397329494274024 -0.0209210518428546 0.00671946722595607 -0.3109812 -0.5863861 0.7479585 233 233 233
-0.0363976775117671 0.00381454910055612 0.00425695793818315 -0.6114718 -0.3879632 0.6896281 37 37 37
0.0198374155301058 0.0388204134820789 0.0186198461524443 0.4457588 0.7233652 0.5272967 60 60 60
-0.0445007116682845 -0.0375634677267289 -0.0243511432442418 -0.5107955 -0.7022372 0.4959343 69 69 69
-0.00428418249386864 -0.0180729447516623 0.00842676146941979 -0.2536803 -0.5171583 0.8174312 230 230 230
0.0247068333408635 -0.0115320055337251 0.0155001833510089 0.3560647 -0.6168589 0.7019281 41 41 41
-0.0153229014694416 -0.000642019408934047 0.0123481617857222 -0.3172249 -0.357906 0.8782207 74 74 74
-0.0226475162761788 -0.0515523936740216 -0.0231899931946478 0.2699013 -0.946834 0.1750965 70 70 70
0.0404830186285192 0.018499556159058 0.0258340634851546 0.4526441 0.6285447 0.632491 107 107 107
0.0179596994725055 0.015209772319561 0.0249710644585041 -0.1957392 -0.2753968 0.9411922 205 205 205
0.0406459841236382 0.0239325929617058 0.00820192224046262 0.9451459 -0.1320685 -0.2987592 33 33 33
0.0260391751059554 0.0386897075650205 0.0148582393648157 0.4267814 0.6930753 0.5809512 83 83 83
-0.0299428919753235 0.00374778512595153 0.0080850073699763 -0.4550003 -0.3104736 0.8346142 26 26 26
-0.00140133701253964 0.0327264656539694 0.0270719254672336 -0.3582302 -0.3082002 0.8812966 227 227 227
0.0162610982235449 -0.0196648667668662 0.00322503272282515 0.7665381 -0.5664177 -0.302639 70 70 70
0.0246053058405464 0.00226059128218936 -0.00150611915396281 0.8055506 -0.3004896 -0.5106802 56 56 56
0.0118574635644211 -0.0122183757076113 0.0147661560128814 -0.1238621 -0.5433359 0.8303278 59 59 59
-0.00960327274800843 0.0103303605147327 0.0170095627884242 -0.3306473 -0.1669248 0.9288749 173 173 173
-0.0200719823469062 -0.0274673560641496 -0.0100488845890757 -0.5579206 -0.6400875 0.5282163 229 229 229
-0.0198700981089956 -0.015645362392261 0.00225975459986905 -0.3779667 -0.5612903 0.7362706 195 195 195
-0.0155041213753067 -0.0338588552591204 -0.012944023501344 -0.5066791 -0.5318292 0.6785529 91 91 91
0.00427140671047699 -0.0176622132900375 -0.020918642431688 0.7935781 -0.431047 -0.4294558 99 99 99
0.0251794044540441 -0.00550149931252619 0.00655061420351327 0.7976969 -0.3991053 -0.4521003 72 72 72
-0.0175550504015294 -0.00595030570501587 0.00930070770639485 -0.3273194 -0.3533368 0.8763647 158 158 158
0.0356693743608383 0.0162219973362676 0.0272373218482783 -0.3329027 -0.06714552 0.9405676 76 76 76
-0.0204492962428375 -0.0182099178045527 0.000300918169010567 -0.4270882 -0.6329276 0.6457541 243 243 243
-0.0101417926458098 0.0064528218826172 0.0163320844160016 -0.3171605 -0.2110696 0.9245858 225 225 225
0.0451154768031086 0.0133937921770444 0.0284091086780241 0.6029285 0.260797 0.7539643 87 87 87
-0.0214011274690034 -0.0254216734277759 -0.00872293362428583 -0.5577685 -0.6542162 0.5107793 237 237 237
0.036014516268283 0.0267542050371083 0.0207455225292221 0.5309243 0.6680561 0.521364 96 96 96
0.0105700708329377 -0.0177971228478402 0.0114878797282582 -0.1010235 -0.4947629 0.8631361 197 197 197
-0.00785817995505322 0.00156173319521824 0.0155170507668415 -0.3384471 -0.3143922 0.886911 103 103 103
0.0417215335067622 0.0197098404711971 0.0124946680421418 0.9355341 -0.2452425 -0.2542285 49 49 49
0.0357811834103767 0.00376326127694582 0.0143711686890265 0.7541669 -0.3767096 -0.5378868 86 86 86
-0.0292963571678646 -0.0310524895393407 -0.0170562881209265 -0.05125156 -0.2513485 0.9665388 99 99 99
-0.0191859524143521 -0.0196147104875495 -0.000543847167087774 -0.3870698 -0.6896816 0.6119773 240 240 240
0.0126649365826257 -0.00490997965041795 0.0187093259966448 -0.2085091 -0.3204544 0.9240308 74 74 74
0.0409259460314551 0.0241728738988713 0.0189534284366547 0.6559543 0.5662022 0.4991382 86 86 86
0.00316834191205606 -0.0319243069600004 -0.00850208066480984 0.7325265 -0.5687947 -0.3740019 93 93 93
-0.00966007512880962 0.0302729782401481 0.0225390342186311 -0.3722248 -0.2606727 0.8907853 73 73 73
-0.00808760498443473 0.035820821439106 0.0243630147615501 -0.4944067 -0.1390644 0.8580345 50 50 50
-0.0326069999964833 0.000976557620817609 -0.00441882179570208 -0.6692907 0.5252799 -0.5254817 22 22 22
-0.0326154283768374 -0.0149169553661324 -0.00875575287988462 -0.3319323 -0.5856689 0.739468 225 225 225
-0.011926987493073 -0.0255688813282127 -0.0021557209925222 -0.4984069 -0.5670744 0.655757 129 129 129
-0.00407067182374066 -0.00588924122370305 0.0139069391688613 -0.2517005 -0.4100028 0.8766667 51 51 51
-0.00951797991620218 0.0118356003745683 0.0174528338470955 -0.3185743 -0.1407888 0.9373841 228 228 228
-0.0252640479017372 0.0139786142961831 0.00539685986128818 -0.7095103 0.6340454 -0.307541 29 29 29
0.0418260680955167 0.0190340165210641 0.0233707080986318 0.6092339 0.6442936 0.4622985 105 105 105
-0.0219568923190439 -0.0345287516762307 -0.0178794774457872 -0.2012203 -0.254043 0.9460299 177 177 177
0.0285350181021049 0.00433860242948869 0.00220319238832761 0.7936929 -0.3923393 -0.4648887 57 57 57
-0.0137332834739881 -0.00389877382153192 0.0117738248760655 -0.3363239 -0.3313666 0.8815228 58 58 58
0.0311479536751182 0.000111494878563656 0.0214826063319841 -0.3585815 -0.3052055 0.8821955 23 23 23
-0.0437948396261199 -0.0381833382990688 -0.0253824472636793 -0.5102947 -0.6992174 0.5006938 57 57 57
0.0246947416072674 0.03262070596627 0.0223054434427115 0.4417073 0.6825005 0.5823123 102 102 102
0.00594960470015549 0.0180439066707561 0.0252298529027424 -0.208513 -0.1973973 0.9578918 70 70 70
-0.0160487101502103 0.00823849419805556 0.0151855955572306 -0.2589552 -0.1737145 0.9501398 91 91 91
-0.00541920402477691 -0.0398171132490857 -0.0101102891398294 -0.1960466 -0.8179914 0.5407919 56 56 56
0.0329446488354534 0.00468221261456248 0.0235325821773283 -0.3917423 -0.2596294 0.8826837 40 40 40
-0.0464694423085712 -0.0317334368181741 -0.0202725721131399 -0.4848585 -0.361132 0.7965525 57 57 57
-0.0350997210625357 -0.00599442889228952 -0.00240510955714612 -0.6608518 -0.5350338 0.5263209 234 234 234
0.020495981263061 0.0192576182668771 0.0271604319594775 -0.1357004 -0.2662868 0.9542938 163 163 163
-0.0288166527764484 -0.0508188818123834 -0.0337395692616207 0.3138492 -0.7926739 -0.5226535 68 68 68
-0.0149030796793999 0.0209571252232894 0.0179784635486781 -0.2512218 -0.2258004 0.9412236 105 105 105
-0.0263429928512493 0.00959280179492383 0.0117176127058537 -0.399734 -0.2263424 0.8882465 83 83 83
-0.00582215147177845 -0.0230027641688153 0.00358888118356687 -0.3664171 -0.579702 0.7277941 98 98 98
0.039995968334916 0.0163338201496999 0.0114750435192795 0.8346595 -0.359404 -0.4173397 48 48 48
-0.0391100617971349 -0.004121913143603 -0.00658277004723939 -0.716256 -0.4396284 0.5419448 43 43 43
-0.0377643883223397 -0.0220444011132064 -0.015464118828711 -0.2504488 -0.5484818 0.7977738 61 61 61
-0.00195354346084375 0.0226319660405963 0.0222601450622795 -0.3841336 -0.2227472 0.896005 20 20 20
-0.0261997155400366 0.00396012079197283 -0.00753998921332127 -0.6572865 0.6483889 -0.3841435 12 12 12
-0.0353826494905092 -0.0523908609450048 -0.0348002421985353 -0.4783832 -0.8737047 0.08825845 84 84 84
-0.0345792565542964 -0.0532545543654677 -0.0330191907512541 -0.4416637 -0.884573 0.1498792 80 80 80
-0.0273065402183144 -0.0500367823335641 -0.0327117859325719 0.406441 -0.75503 -0.5145244 68 68 68
-0.0275686702710081 -0.0444874642349147 -0.0360500370639941 0.3749142 -0.5915648 -0.713786 86 86 86
-0.0330801084901293 -0.054131239604523 -0.0296077484238955 -0.5810525 -0.719667 0.3800755 76 76 76
-0.0340503958405471 -0.0529738300850935 -0.0304236694358238 -0.5829092 -0.7235153 0.369787 31 31 31
-0.0347166252700006 -0.0514953712277355 -0.0296861914711172 -0.6534107 -0.6243836 0.4280182 63 63 63
-0.0348573544320683 -0.0515298201410457 -0.0319989983307473 -0.5525727 -0.7897154 0.2664826 70 70 70
-0.0368979864056809 -0.049880229700473 -0.0308120874687028 -0.661525 -0.6126277 0.4325181 64 64 64
-0.0354536707139483 -0.0497944971968742 -0.0300823500425682 -0.6435379 -0.6317964 0.4320791 72 72 72
-0.0326033046629433 -0.0518731602849674 -0.0273246989852161 -0.6022459 -0.6173854 0.5060979 61 61 61
-0.0395576831077915 -0.047194854604413 -0.0308434058590507 -0.557456 -0.5632298 0.6099304 82 82 82
-0.0409773417395987 -0.045454963665057 -0.0302756694531243 -0.5353088 -0.5535938 0.6379485 100 100 100
-0.0383902452393263 -0.0462761977235135 -0.0277346815961259 -0.6016607 -0.5027252 0.6207026 46 46 46
-0.0367989344959021 -0.0472541005971199 -0.0272515873428268 -0.6307122 -0.5102442 0.584682 81 81 81
-0.0368659558990418 -0.0454850827287576 -0.0267807830011911 -0.5946443 -0.4829766 0.6427532 83 83 83
-0.0368560799069901 -0.0442433865240495 -0.0269558160578118 -0.6049485 -0.4587138 0.6508602 67 67 67
-0.0350660311446997 -0.0463090470030356 -0.025188547602349 -0.6524435 -0.4255855 0.6270522 39 39 39
-0.032634243752538 -0.0474869897712018 -0.0232420347565 -0.6219348 -0.4408236 0.6472029 64 64 64
-0.0342920486492413 -0.0456794152896964 -0.0232914442625516 -0.6655957 -0.401706 0.628979 76 76 76
-0.0338288327386604 -0.0438958240253839 -0.0222747818541974 -0.6414594 -0.4076377 0.6498933 64 64 64
-0.0314956378738969 -0.0520001997774078 -0.0268949754431628 -0.5689716 -0.6291124 0.529612 39 39 39
-0.0258122147172655 -0.0508288827578987 -0.030469944602022 0.3207654 -0.8621507 -0.3921807 90 90 90
-0.0245622635533755 -0.0501338339581843 -0.0295334671221198 0.4153776 -0.8410003 -0.3466698 80 80 80
-0.0248623569789186 -0.0498179074389737 -0.0268989722375506 0.2458218 -0.9525318 -0.1795966 58 58 58
-0.0233062095966994 -0.0497360944682284 -0.0283888693050712 0.3609605 -0.8471966 -0.3898275 81 81 81
-0.0210092523797552 -0.0495972708752321 -0.0265588267695805 0.3021356 -0.9257266 -0.2274738 84 84 84
-0.0224932724429521 -0.0462017497358662 -0.0311878131577046 0.4231267 -0.5772566 -0.6983829 60 60 60
-0.026742702843312 -0.0538984313199393 -0.0262234279100146 0.2383662 -0.9525501 0.1892876 61 61 61
-0.0279525876626043 -0.0526443547170887 -0.0240560787594702 -0.1071612 -0.8200792 0.5621268 76 76 76
-0.0306699071583116 -0.0513151450591052 -0.0246568144097234 -0.5269496 -0.6143319 0.5872993 81 81 81
-0.0297703504658151 -0.0498640847815399 -0.0221529356856886 -0.4823416 -0.5552242 0.677549 88 88 88
-0.0292015300642405 -0.0493182825742671 -0.0211310224338476 -0.4137038 -0.4713838 0.7788751 64 64 64
-0.0274691400888396 -0.0496779505810085 -0.0208496642364633 -0.2514654 -0.5936106 0.7644551 68 68 68
-0.0236155566099869 -0.0516013351997422 -0.0248173096988803 0.2766551 -0.9598808 0.04572421 59 59 59
-0.02270094981629 -0.0498425663325235 -0.0256252573833381 0.2645603 -0.9630137 -0.05111238 76 76 76
-0.0211037978049169 -0.0501564835102 -0.0230093846003964 0.2341094 -0.9427191 0.2376415 87 87 87
-0.0219912820716206 -0.0504514055000316 -0.0204076672233462 0.1276814 -0.7829413 0.6088517 44 44 44
-0.0306154746025258 -0.0479946633047081 -0.0211258323844124 -0.4641913 -0.4335957 0.7723478 45 45 45
-0.0231257417042534 -0.0501257754263855 -0.0203682802636203 0.07692627 -0.7281346 0.6811038 56 56 56
-0.0304515521213511 -0.0455701211243627 -0.0205613962929145 -0.4825189 -0.3782189 0.7900164 83 83 83
-0.0270322783225505 -0.0441199321778862 -0.0189510194263012 -0.1797349 -0.2304368 0.9563442 102 102 102
-0.0234509488611883 -0.0472538612600626 -0.0191879129120781 -0.02620953 -0.4194889 0.907382 71 71 71
-0.0254734531986154 -0.0459485249492919 -0.0190957045951752 -0.1618198 -0.2510413 0.9543546 38 38 38
-0.0222266986877995 -0.0491264768090083 -0.0192940210465493 0.05247725 -0.6363756 0.7695922 45 45 45
-0.0214020267618666 -0.0484289837538079 -0.0191048475275458 0.01232606 -0.5514202 0.8341365 89 89 89
-0.0251754079403153 -0.0432224385297821 -0.0186588902105527 -0.1382398 -0.1649431 0.9765672 78 78 78
-0.0230727603574343 -0.0453824497449657 -0.0183320052476741 -0.09632999 -0.2309015 0.9681968 70 70 70
-0.0225320323913634 -0.0442928955836173 -0.0181235722641133 -0.07481652 -0.1857325 0.9797479 71 71 71
-0.00055618791239409 0.0113685511575363 0.0213737576019414 -0.3419682 -0.2297023 0.9112051 192 192 192
0.033501112284581 0.0277464854677687 0.0226313689733553 0.5036471 0.6697639 0.5456702 77 77 77
0.033750949977704 0.00202213606899937 0.0132011734802246 0.7543851 -0.3742762 -0.5392777 79 79 79
-0.0197323002365226 -0.0495208695651768 -0.0289378139105445 0.4111244 -0.7609924 -0.5018638 93 93 93
-0.0187965050066414 -0.051052538422669 -0.0272301848680542 0.3903239 -0.8813128 -0.2663362 108 108 108
-0.0198721811551179 -0.0446277493331828 -0.0316665893600117 0.3963039 -0.529939 -0.7497386 54 54 54
-0.0152552271113962 -0.0450286226410235 -0.0283315650549603 0.6285623 -0.5184862 -0.5797254 94 94 94
-0.0186875072561468 -0.0497726711857611 -0.0246076729945169 0.3420446 -0.937526 -0.06364363 133 133 133
-0.0173767968432976 -0.0500533769806006 -0.0259848639510324 0.4472801 -0.861851 -0.2390676 101 101 101
-0.0197116476054546 -0.0495183222939075 -0.0223544686126115 0.1519653 -0.9367806 0.3151961 77 77 77
-0.0195178884366971 -0.0492478809706733 -0.0209031698043509 0.141721 -0.8459968 0.5140084 67 67 67
-0.0147219074651312 -0.0492571961473567 -0.0227388296042478 0.4751876 -0.8587735 0.1915852 50 50 50
-0.0138053139196677 -0.0490533451144815 -0.0208137533829353 0.5287523 -0.8006536 0.2817353 76 76 76
-0.0135836264540292 -0.0435231280488835 -0.0264701805956314 0.7653362 -0.4373482 -0.4722151 104 104 104
-0.0137223880635982 -0.0465754036828809 -0.0226916898044242 0.7586832 -0.6501975 0.04053399 76 76 76
-0.0120374403750212 -0.045138918908822 -0.0217459329860646 0.8399151 -0.5427134 0.002191022 53 53 53
-0.0157531795780068 -0.0474549742598964 -0.0186375269888188 0.2572822 -0.6080291 0.7510702 41 41 41
-0.0175379904291497 -0.0452898103597386 -0.0182077855650689 0.02471434 -0.3319459 0.9429746 67 67 67
-0.0150157544259364 -0.0455132746078284 -0.0183552216323129 0.1916833 -0.4855007 0.8529634 48 48 48
-0.0153559340505094 -0.0436299886853577 -0.0184746098914872 0.0593896 -0.3942585 0.9170786 61 61 61
-0.0130660262563902 -0.0481995072933594 -0.0197460057969542 0.5130285 -0.7438149 0.4284171 55 55 55
-0.0130196110907637 -0.0449656194111092 -0.0181554840142379 0.2522562 -0.5481489 0.7974331 48 48 48
-0.0114341168518153 -0.0437340697430233 -0.016848697348369 0.07081801 -0.6539065 0.7532536 55 55 55
0.0143972091085613 0.0417485225080543 0.0207762531975251 0.4485806 0.7346058 0.5090479 86 86 86
0.0110290731579745 -0.0233684085073156 -0.00399384963275029 0.7876742 -0.3102103 -0.5322958 101 101 101
0.0344042511428491 0.0301965138801781 0.0185214373292599 0.5250013 0.6600196 0.5373526 78 78 78
-0.013760738855733 -0.0211252175798131 0.000734862579877649 -0.4373167 -0.6365623 0.63525 59 59 59
0.0199474568853413 -0.0157262301552952 0.00577938730023908 0.7889017 -0.5724105 -0.223563 83 83 83
-0.011064163018168 -0.0249551755332031 -6.99163505471501E-05 -0.4579114 -0.5937348 0.6616616 96 96 96
-0.00106709746069278 -0.0356155707135375 -0.0044673030211031 -0.1677393 -0.739141 0.6523297 79 79 79
-0.0216468034150035 -0.0133268875798018 0.00336959574285817 -0.3396687 -0.5701137 0.7480612 240 240 240
0.0366935759342817 0.0228667340665034 0.00125209035218071 0.7936364 -0.3432776 -0.5022964 37 37 37
0.0431743568778153 0.0105074813407398 0.0302003314042275 0.02916404 -0.09716268 0.9948412 14 14 14
0.00140975574681912 0.0220613692341203 0.0241049193568879 -0.3761238 -0.09765993 0.9214084 55 55 55
0.00959234765597472 0.0155504991124868 0.0247421119076695 -0.07067211 -0.3088939 0.9484672 223 223 223
0.000936869418767472 0.0443012783696768 0.0273706714261059 0.3190993 0.6283862 0.7094409 106 106 106
0.0075891971922708 0.0253041400471623 0.0269106270315074 -0.3285055 -0.1984275 0.9234233 231 231 231
-0.0255498898299416 -0.0372895282675449 -0.0179427473830485 -0.06455611 -0.1020679 0.9926805 87 87 87
0.000247599214624472 -0.0136674550335021 0.0121723795846148 -0.2384259 -0.4218599 0.8747499 177 177 177
0.0350954853473961 0.00533552597908105 0.0134520840098509 0.7687771 -0.385333 -0.5103922 71 71 71
0.00393257624379384 -0.0293505951193207 -0.00876394032292516 0.7518138 -0.4653578 -0.4671382 122 122 122
-0.0223534104066188 -0.0274349914596232 -0.0150663540247029 -0.4864839 -0.550526 0.6784206 59 59 59
-0.0289077467735384 -0.0249275293459075 -0.0152238546014927 -0.2176359 -0.3983331 0.8910474 82 82 82
-0.0242078925945193 0.006443996897884 -0.00678169279677104 -0.5231683 0.6827949 -0.5099863 25 25 25
-0.010232182861746 -0.0323754448118565 -0.0298641583170594 0.7834429 -0.4091287 -0.4677938 46 46 46
-0.0177392628371829 0.0178746858075991 0.003320100130557 -0.500129 0.7118805 -0.4930488 14 14 14
-0.0293115491435465 0.000278603149921341 0.00737529412103222 -0.4986307 -0.3463074 0.7946311 43 43 43
-0.00648080194182121 0.0209998857550016 0.0204113336490158 -0.3048855 -0.276691 0.9113106 36 36 36
-0.020886380040801 -0.0274497894950962 -0.0110124947239851 -0.62407 -0.6246659 0.4693924 236 236 236
-0.011695276234291 0.0286226184724803 0.0096855306392119 -0.6722403 0.6211901 -0.4027603 15 15 15
-0.0361604306885677 -0.0422785906275636 -0.0239586938640531 -0.5716884 -0.5322518 0.6244041 86 86 86
-0.0279165354239232 0.00408627914802429 0.00937278036109279 -0.4264519 -0.2623086 0.8656402 26 26 26
-0.00191844670337193 -0.0386348614082768 -0.0104994208609708 0.3949074 -0.9185266 -0.0188962 97 97 97
-0.0233688236213556 -0.0239477483706811 -0.00992260660670941 -0.6240141 -0.6382415 0.4508372 217 217 217
0.000624369409649717 -0.0271960583379538 0.0037670812717992 -0.2305769 -0.5474433 0.8044502 168 168 168
-0.0223539244341966 -0.00647146555771494 0.00755782113174747 -0.3324467 -0.4508046 0.8284047 217 217 217
0.00953638510732313 -0.0283522707794266 0.00457462525460683 -0.1076627 -0.6028302 0.7905722 31 31 31
-0.0227521248235925 -0.0274371505977637 -0.0146361750673772 -0.4864839 -0.550526 0.6784206 52 52 52
0.0422550075947714 0.026842500339457 0.0112887799261479 0.9606151 0.26809 -0.07311901 67 67 67
0.0237622129070409 0.0180828087117881 0.0274863878713816 -0.05349948 -0.2699442 0.9613885 46 46 46
0.034254987589811 0.0319326239271855 0.0163128741075279 0.5809634 0.6837642 0.4415292 88 88 88
-0.02204824225299 0.0201558356042579 0.0159097924017113 -0.5257899 0.0868918 0.8461648 48 48 48
0.0383512916012685 0.0249047243675167 0.0205757275319552 0.5520306 0.618246 0.5594946 92 92 92
0.0387261018782654 0.0211223713831046 0.0235521943894185 0.5964226 0.6348557 0.4911601 112 112 112
0.0376202012267184 0.0119914125516412 0.0282947682537544 -0.4508331 -0.1943156 0.8712009 19 19 19
0.0378899492157236 0.0145086436519712 0.00951888478385671 0.8298596 -0.3722327 -0.4156631 63 63 63
-0.0199677681215507 0.00205589208900436 0.0122917510306157 -0.2970622 -0.3415534 0.8916812 62 62 62
0.0427155548978897 0.00794014242695407 0.0289335290834563 -0.1673564 -0.2741102 0.9470245 157 157 157
0.0240507793186349 0.0382223297485866 0.0167166650034614 0.4097903 0.7004967 0.5842741 86 86 86
-0.00389833435293108 0.0318574343941707 0.0257025144624226 -0.363252 -0.3060536 0.8799881 224 224 224
-0.0131113607445497 -0.027571153677685 -0.00482729948491761 -0.5671337 -0.626906 0.5341799 192 192 192
0.0178727566333428 0.00847890294214038 0.0239180021088071 -0.2360582 -0.260825 0.9360806 47 47 47
-0.0264726142333869 0.0015705950923206 -0.00960264589717358 -0.6606613 0.6368389 -0.3974453 22 22 22
0.00563372770521164 0.036311392138203 0.0317224467316679 -0.1561659 0.035002 0.9871105 108 108 108
0.00431067975804789 -0.0278220107178808 0.00414134934057753 -0.114453 -0.575233 0.8099429 157 157 157
-0.0234919964348621 0.0100882907224171 -0.00228796493526534 -0.5208203 0.6967217 -0.4932799 12 12 12
-0.0200677491945052 0.0162239311981696 0.0156900650868483 -0.2741984 -0.2571212 0.9266627 32 32 32
0.0303339733716745 -0.00377324500016152 0.0117331091231635 0.7745033 -0.6261011 -0.09023374 56 56 56
0.0177594843149098 0.0253717013424601 0.029063758298547 -0.024566 -0.2535193 0.9670184 75 75 75
0.0149338972829374 -0.0172927856203926 -0.00162379435438104 0.7906121 -0.3971352 -0.4660645 85 85 85
0.00489828998883812 -0.0328288485919164 4.24237426742691E-05 -0.06426091 -0.7086523 0.7026254 51 51 51
-0.0363482504468498 -0.0330628361638776 -0.0176462367649175 -0.1140236 -0.2601296 0.9588176 61 61 61
-0.0392038477614305 -0.0417493367460431 -0.0262863511771704 -0.4672824 -0.6203228 0.6299577 58 58 58
-0.0291289218872333 -0.0419649803317559 -0.0188201117284851 -0.2628037 -0.2035417 0.9431357 87 87 87
0.0361442533330285 0.00168654621012587 0.0240573172864197 -0.414984 -0.2526964 0.8740325 22 22 22
-0.0347082161248573 -0.000796475952232978 0.00230093433241241 -0.6428246 -0.4895693 0.5891505 54 54 54
0.0319433956586779 0.0146548034084213 0.0257382669542429 -0.157288 -0.2723422 0.9492577 34 34 34
-0.000861017421392329 -0.0277054026084147 -0.0180255843182598 0.8022038 -0.4133846 -0.4307925 93 93 93
-0.0380723926522681 0.00143381853720692 -0.000354581786412456 -0.7090094 -0.4898142 0.5073339 78 78 78
0.0101488865023227 -0.0177648512239388 -0.00832171691619465 0.7975736 -0.3804024 -0.4681562 101 101 101
-0.0228135661300959 -0.0426622674845343 -0.0334015368708976 0.4325013 -0.5088403 -0.744328 71 71 71
0.0328258561775354 0.0126021782215362 0.00261492570523336 0.7490282 -0.3611679 -0.5554408 53 53 53
-0.0116394889277789 -0.0206535706186406 0.00323069774315254 -0.3910257 -0.6641154 0.6372202 34 34 34
-0.0436841127003555 -0.0407649707784916 -0.0283340741727353 -0.4520185 -0.6633231 0.5963906 97 97 97
-0.0434289974873083 -0.0392952628693843 -0.0269874588089603 -0.4553145 -0.6992918 0.5510713 64 64 64
-0.0453040764583164 -0.0371120279557591 -0.0265988924675084 -0.5112966 -0.6994503 0.4993445 110 110 110
-0.0433821225968116 -0.0391717164978693 -0.0252133763239101 -0.4705172 -0.7083594 0.5261564 65 65 65
-0.0443878243509421 -0.0388829166746318 -0.0250233328257928 -0.510914 -0.6931224 0.5084763 47 47 47
-0.0472358550500482 -0.034246050329501 -0.0243700866670312 -0.555624 -0.587317 0.5885072 70 70 70
-0.0450360007500166 -0.0360598126869731 -0.0226147835732006 -0.5479393 -0.6400266 0.5386357 41 41 41
-0.0461341880365973 -0.0344935554245129 -0.0221535200785068 -0.5666164 -0.5623552 0.6022478 64 64 64
-0.0437318560595088 -0.0352681490911633 -0.0204070487164761 -0.4625076 -0.496383 0.7346364 85 85 85
-0.0459258395066358 -0.0313408403151425 -0.0201977076207716 -0.4283314 -0.3107994 0.8484904 41 41 41
-0.0463511353031003 -0.0300144625368133 -0.0195227464388315 -0.3735834 -0.2502271 0.8932087 68 68 68
-0.0433013141530791 -0.0301154903473286 -0.0188831257925617 -0.3468342 -0.1444825 0.9267313 68 68 68
-0.0483007256524677 -0.0281381169130004 -0.0205025282069934 -0.35215 -0.18593 0.9172897 57 57 57
-0.0448790211422634 -0.0282823708577102 -0.0189494223120079 -0.3223622 -0.1129445 0.9398543 65 65 65
-0.047509836087551 -0.0238684498782109 -0.0197108333761438 -0.3062409 -0.2123019 0.9279787 60 60 60
-0.0468995697892511 -0.0252631657255769 -0.0196204235111791 -0.3016415 -0.1544939 0.9408209 46 46 46
-0.0454057409796214 -0.0257610318496391 -0.0193049620171395 -0.299218 -0.1519715 0.9420049 69 69 69
-0.0435520995290659 -0.0241595932786729 -0.0185429136436592 -0.290625 -0.2666449 0.9189329 64 64 64
-0.0437182353561045 -0.0214949744411528 -0.0170871355984844 -0.2767019 -0.4374768 0.8555993 54 54 54
-0.040881274356293 -0.0431410591075476 -0.0275400980058563 -0.4623515 -0.5880526 0.6636454 90 90 90
0.0220811331436681 0.042015218273727 0.012481912385852 0.3836409 0.7503921 0.5382669 85 85 85
-0.0408061016975672 -0.0421974024897229 -0.0272808840683212 -0.4493222 -0.6113611 0.6514194 54 54 54
-0.0410599652351551 -0.0402705643124595 -0.0259398258507052 -0.4414698 -0.685861 0.5785319 54 54 54
-0.0417827117335481 -0.0382895852788916 -0.0228360497903982 -0.4083436 -0.7390699 0.535753 69 69 69
-0.039579751750106 -0.0393078166662293 -0.0228627217860294 -0.3923349 -0.7228366 0.5688414 66 66 66
-0.0373323546650259 -0.0403061708981727 -0.0226336515071209 -0.4166 -0.6498918 0.6356769 48 48 48
-0.0374047946382201 -0.0390929391871504 -0.0215369620165389 -0.3735933 -0.6778987 0.6331519 45 45 45
-0.0371777419883492 -0.0425768697103746 -0.025936490984528 -0.5357807 -0.5359455 0.652458 50 50 50
-0.0365581905785337 -0.0431466584504725 -0.0250142752916002 -0.589397 -0.4720456 0.6555791 73 73 73
-0.0347562185702137 -0.0415672004490633 -0.0216248581321921 -0.5524152 -0.4957978 0.670091 55 55 55
-0.0332422464222142 -0.039242226456347 -0.0194572593094807 -0.3857934 -0.4505054 0.8051139 52 52 52
-0.0376435210148331 -0.0354371135860281 -0.0183503556819513 -0.1603118 -0.4209759 0.8927931 75 75 75
-0.0412695011565929 -0.033910132658783 -0.0185406099392665 -0.3000808 -0.314903 0.9004375 52 52 52
-0.0426926569058761 -0.034546396214733 -0.0189649139614489 -0.3952913 -0.3914651 0.8309632 44 44 44
-0.0397055542963169 -0.034077296783497 -0.018298439407808 -0.2269081 -0.3160329 0.9212143 66 66 66
-0.0362812563564328 -0.0360212567002067 -0.0190523032155157 -0.1830664 -0.4790526 0.8584843 86 86 86
-0.0336169320125101 -0.0356643973500737 -0.0182187751139599 -0.1480624 -0.331044 0.9319267 66 66 66
-0.0359514835230499 -0.0341294583723284 -0.0178845915438143 -0.1168099 -0.34317 0.9319816 42 42 42
-0.034689108625281 -0.0347172197011192 -0.0177160659540564 -0.1128093 -0.338386 0.934221 59 59 59
-0.0318705456440918 -0.0413777929895149 -0.0192062359315995 -0.3956098 -0.3241329 0.85932 47 47 47
-0.0309354713907974 -0.0377504634426533 -0.0185458695800748 -0.1527704 -0.2458643 0.9571896 73 73 73
-0.0270557024481133 -0.0402754318511289 -0.018358153879497 -0.1393375 -0.1408636 0.9801747 77 77 77
-0.0231222096107224 -0.0419829344859903 -0.0181663484957507 -0.06292289 -0.1142329 0.9914593 51 51 51
-0.0213334616325604 -0.0433323975475273 -0.018167670089187 -0.04940412 -0.1282056 0.9905163 71 71 71
-0.0231312356141116 -0.0403285659402191 -0.0176584173000441 -0.05765637 -0.04580773 0.997285 25 25 25
-0.0218228931747988 -0.039847325688662 -0.0177247123711196 -0.03644709 -0.07171579 0.996759 101 101 101
-0.0313156800924519 -0.0358190011174393 -0.0181773362722577 -0.1016354 -0.2500315 0.9628886 64 64 64
-0.0275749283554689 -0.0363644886987697 -0.0181427514181591 -0.05377194 -0.1352787 0.9893474 65 65 65
-0.0271447434073977 -0.0337712317779686 -0.0179298308203228 -0.02573322 -0.210229 0.9773135 63 63 63
-0.0294988946441799 -0.0339044227605501 -0.0179208931580045 -0.01220267 -0.2178681 0.975902 102 102 102
-0.0280631468750054 -0.0348411654347049 -0.0176641156996279 -0.03758629 -0.1678617 0.9850938 94 94 94
-0.020859813006187 -0.037610547212608 -0.018159447081183 -0.1230884 -0.1496228 0.9810516 80 80 80
-0.0240293557530618 -0.0338066603574858 -0.017310811728713 -0.1234253 -0.2708443 0.9546777 125 125 125
-0.0266052551472313 -0.0335975765052468 -0.0175725201357874 -0.03793076 -0.2182975 0.9751449 28 28 28
-0.0259752239838833 -0.0336194941268944 -0.0174108998380552 -0.03510049 -0.2120976 0.9766179 30 30 30
-0.0415060369570317 -0.0314089864753115 -0.01833555217868 -0.2909577 -0.1600198 0.9432588 49 49 49
-0.0416599866813132 -0.0296654673085599 -0.0183634194060795 -0.2635149 -0.05001894 0.9633577 41 41 41
-0.0392822382737417 -0.0320090806319715 -0.017575504137004 -0.189871 -0.1624093 0.9682831 49 49 49
-0.040402188776322 -0.0304071391624221 -0.0178686150150457 -0.2158405 -0.08166736 0.9730074 34 34 34
-0.0399659453241825 -0.0290548274734315 -0.0179876010771081 -0.2211039 -0.03479412 0.9746294 83 83 83
-0.038448705924782 -0.0276167520323616 -0.0174802370697321 -0.1900532 -0.07581902 0.9788418 52 52 52
-0.0355523098829691 -0.0273111928744147 -0.0168121333772328 -0.1737119 -0.1523979 0.9729332 62 62 62
-0.0410780884669286 -0.0237115368612391 -0.0180256888107065 -0.2271928 -0.3359877 0.9140545 57 57 57
-0.0386235518601326 -0.0258075007026393 -0.017584413792867 -0.1727182 -0.2199089 0.9601086 56 56 56
-0.0389247662448176 -0.0250435500536106 -0.0179126847858195 -0.1966357 -0.2524839 0.9474103 76 76 76
-0.0410881865937318 -0.0220527675540534 -0.0169837266360744 -0.2593545 -0.4567445 0.8509523 41 41 41
-0.0355769628694467 -0.0256312724163201 -0.0172343822535301 -0.2211885 -0.2592724 0.9401348 43 43 43
