ply
format ascii 1.0
comment File exported by Rhinoceros Version 7.0
element vertex 478
property float x
property float y
property float z
property float nx
property float ny
property float nz
property uchar red
property uchar green
property uchar blue
end_header
0.0380537242737646 -0.0254691382390499 0.082478505776142 0.6899655 -0.4942171 0.5288639 139 139 139
-0.020971086517251 -0.196602656458044 -0.0538223113558541 0.8247712 -0.5255147 0.2087744 164 164 164
-0.137548711791909 0.000661895658349954 -0.0582059647581826 -0.7291691 -0.5337695 -0.4282552 162 162 162
0.0704185695496435 0.00737868347344395 0.0615115586974372 0.9636595 -0.2095034 0.1657366 113 113 113
0.0851726264801855 0.0479094246881961 0.0301427666403998 0.9839087 -0.1554884 -0.08801775 136 136 136
-0.0877249508055811 0.147281036760187 0.102812898562168 -0.3894224 -0.3358705 0.857637 48 48 48
0.0279879302826758 -0.12469358644309 -0.0378531839392434 0.9284347 -0.3483869 0.1289789 134 134 134
-0.0341286926421289 0.10515545406518 0.118470055268024 -0.5927828 -0.3854564 0.7071294 122 122 122
-0.0876176624449854 0.0771535495775699 0.0762831393935431 -0.4470388 -0.4175265 0.7910929 30 30 30
0.061452123626792 -0.0488030453664303 -0.0686399962446939 0.8737115 -0.3807353 -0.3027684 120 120 120
0.0106806487885351 0.185250864412165 0.0735381368853797 0.3098732 0.7613884 0.5694438 62 62 62
0.0238842696991797 -0.133627845857763 -0.0128446545145761 0.7388387 -0.5393978 0.4039398 155 155 155
0.0155112476197119 -0.020776583765173 0.0955900375106086 -0.4592264 -0.5142397 0.7243402 227 227 227
-0.106748130813516 0.141047344590998 0.0925997022845496 -0.394532 -0.3238643 0.8599165 79 79 79
-0.0107119350585108 0.153790817643976 0.115349364683842 0.2393207 0.5290518 0.8141436 72 72 72
0.0860719413605566 0.0833220342653751 0.0876541260936011 0.9900826 -0.1028252 0.0957255 110 110 110
-0.153880622878945 0.0462532500284671 -0.00879618783214198 -0.8170213 -0.4346789 0.3788542 53 53 53
0.0373789996949072 -0.124319388483191 -0.0681201394341241 0.7111058 -0.5058948 0.4882613 98 98 98
-0.0387752323302393 0.134767637636042 0.129450005696033 -0.4897921 -0.2489237 0.8355481 41 41 41
0.0731558532563086 0.000293836976861916 -0.000170173837925058 0.9976466 0.06493696 -0.02200932 110 110 110
0.0886137218323584 0.0576993683832645 0.00779796879074468 0.9610605 -0.2761266 -0.01080733 88 88 88
0.083967182144248 0.0389383892076969 0.0352769915320624 0.9885705 -0.1450724 -0.04101763 103 103 103
-0.0862527160796289 0.0301973680513858 0.0508268002726783 -0.5367983 -0.4558766 0.7099466 86 86 86
-0.0867588787230615 0.0453677038210392 0.0600969020583381 -0.4852657 -0.4688918 0.7380093 129 129 129
0.0571889610138769 0.0874035219210147 0.145944488451694 0.8389109 -0.2480446 0.4844609 104 104 104
0.035845491394126 -0.15228296718421 -0.0985756989262353 0.9456479 0.0548282 -0.3205369 180 180 180
-0.00178673554984377 -0.11103917560401 0.038497370884632 0.5966061 -0.7031217 0.3868864 43 43 43
0.0340628356781836 -0.146440281484747 -0.098736720874096 0.9635792 -0.03105493 -0.265614 114 114 114
-0.111141708389199 -0.0254691382390499 -0.0724676426193963 -0.7365551 -0.4628561 -0.4932047 71 71 71
0.080934020980918 0.0174538949984073 0.0438537124850501 0.9899728 -0.137493 -0.03239718 136 136 136
0.0422863693085547 -0.135629071806097 -0.113780486180569 0.8677846 -0.4786187 0.133694 61 61 61
0.086382600769126 0.0852428535479068 0.0912195567347754 0.986368 -0.08023643 0.1436674 118 118 118
0.0428614349213476 -0.0428592105847836 0.0656175140597571 0.5526865 -0.4277441 0.715243 238 238 238
0.0199644298401709 -0.140767886255407 -0.0202331270716439 0.7303306 -0.6383665 0.243116 104 104 104
-0.113809850707925 -0.0456195016843319 -0.0514891918442498 -0.7788674 -0.454693 -0.4319951 165 165 165
0.00337335775765135 0.0233656028765201 0.105757248804783 -0.5239832 -0.3724639 0.7659715 168 168 168
0.0250918598023291 -0.0507145663243771 0.0737950031020392 0.4017119 -0.4466871 0.7994362 94 94 94
0.000789377197348617 -0.160004272077704 -0.0324276115439187 0.7871703 -0.6034186 0.1274715 83 83 83
0.0287492008057471 -0.126566006754065 -0.0444273527405511 0.9016559 -0.3933645 0.1796692 124 124 124
0.0528306693879004 -0.0862238546353817 0.000174862549518484 0.8767514 -0.4738435 0.08233617 126 126 126
0.0979068012085791 0.0872900346773624 0.00824881832382574 0.9618943 -0.2732005 0.01098712 84 84 84
-0.0960519580992822 0.175896392251825 0.102398854897236 0.4843998 0.582294 0.6529093 42 42 42
0.0457827777710791 -0.122739865396643 -0.10556085665443 0.8893993 -0.400377 0.220606 105 105 105
-0.0147297649535303 -0.160748018835211 -0.0156969900868188 0.2118938 -0.600934 0.7707006 103 103 103
0.0714564056244726 0.0391819337862491 0.104239058897709 0.7356982 -0.5254667 0.4273557 114 114 114
0.071008893951499 0.108038530732965 0.133713168308948 0.4768417 0.4351725 0.763706 159 159 159
-0.0984902649077539 0.118941769983149 0.08678002397797 -0.3882912 -0.3087795 0.8682656 53 53 53
0.0809859962311621 -0.0364092131597042 -0.0182180877468835 0.9753317 -0.1111353 -0.1907276 104 104 104
0.0352627963868017 0.0856798748034 0.165886295244907 -0.5342009 -0.323016 0.7812106 107 107 107
0.051280471786582 0.139667258645868 0.11698256175301 0.1993481 0.05561546 0.9783493 120 120 120
-0.0434983043822412 0.0361320833223819 0.0811443452098121 -0.4211116 -0.3710953 0.8276191 91 91 91
-0.0148062973174219 0.12151812114892 0.142515552447056 -0.5934511 -0.1327181 0.7938524 115 115 115
-0.0586724548491602 -0.00630791387381557 0.047414732382511 -0.5885893 -0.5145364 0.6235502 44 44 44
-0.00400665093985841 -0.18819023570838 -0.0860392328045617 0.7300278 -0.4942643 0.471977 231 231 231
-0.0969260006102686 0.174976334955072 0.103932363198017 0.4618071 0.5335695 0.7085463 31 31 31
-0.0906117229613428 0.0693594674128055 0.0714487258651008 -0.424043 -0.4152069 0.8048545 66 66 66
0.0138089389649267 0.0449651340502262 0.126781714365696 -0.6150724 -0.4870974 0.6200178 65 65 65
0.0921408862915869 0.0967211584108829 0.0497840170123328 0.9736389 -0.2041017 0.1018326 92 92 92
-0.0475621490630274 0.171341882135248 0.0985343877532233 -0.2330352 0.4572608 0.8582582 84 84 84
0.0993330211487646 0.109201774980402 0.0261153403975715 0.9547642 -0.236918 0.1797083 81 81 81
-0.0442037849578027 -0.175584747408056 -0.0442663456938516 -0.7755363 -0.3591468 0.5191888 214 214 214
0.0212044448700781 0.17877183952508 0.0776939515330543 0.2739916 0.8625361 0.425394 88 88 88
-0.0934756069335108 0.087336049463129 0.0783150319316138 -0.4267247 -0.322357 0.8449805 139 139 139
-0.0441577701720361 -0.20166976651969 -0.0825888242266427 -0.4834554 -0.8274605 -0.2856222 108 108 108
0.0172855586853857 -0.182446136091375 -0.111703666641499 0.6095791 -0.6192369 0.4949334 131 131 131
-0.0763960151824121 0.125302062417841 0.10055862109444 -0.5359953 -0.3202763 0.7811096 128 128 128
0.0565111369934912 -0.0780348916989804 -0.0841806109688531 0.9008935 -0.3304599 0.281402 135 135 135
-0.0877249508055811 0.0998955825823307 0.0847327832438697 -0.4355212 -0.2882768 0.8527707 185 185 185
0.081574890121543 -0.01760221919837 -0.0244840260288964 0.9120779 0.390829 0.1239622 84 84 84
0.0943643779602881 0.102241859819269 0.0453981582381476 0.9499311 -0.2706802 0.1560867 97 97 97
-0.0205340652617578 -0.0797785063725949 0.0400385383822669 -0.6349989 -0.3329298 0.6970898 112 112 112
0.0130212039795752 -0.114466561887884 0.0121362630583991 0.4022322 -0.6967017 0.5939831 113 113 113
-0.142862346664346 0.0749835828798771 0.0307454590060462 -0.7899107 -0.2697326 0.5507136 45 45 45
-0.0376251011046533 0.18390141525445 0.0830305639960517 -0.1552243 0.7055021 0.6914999 26 26 26
-0.103182819381631 -0.0237209340077877 -0.08672932048061 -0.7068414 -0.4241343 -0.5661142 140 140 140
-0.00785949517813966 -0.0191664238912106 0.0736454848506202 -0.7153221 -0.2847841 0.6381319 90 90 90
-0.0630200176390772 -0.0908198495847226 -0.0100843336127053 -0.6596875 -0.3235754 0.6783152 131 131 131
-0.031828430190957 -0.184578790281439 -0.0355943169138681 -0.6686119 -0.4188617 0.6144209 41 41 41
0.0844042033997412 0.0395870665567875 0.0501689140059699 0.9925607 -0.09108425 0.08078929 126 126 126
0.0916838378754492 0.0895842174547672 0.0476401571490516 0.9919241 -0.08074299 0.09781156 121 121 121
0.0337292880860205 0.101597772027826 0.163355988667225 0.0906424 0.6214703 0.7781764 98 98 98
0.0347645015564795 -0.156658126924658 -0.123993682458187 0.7587692 -0.3613847 0.5419137 75 75 75
-0.0336685447844629 -0.199323489282751 -0.046244564249302 -0.6648786 -0.3194684 0.6751862 193 193 193
-0.1103134422454 0.0203982452410221 0.0289742473819007 -0.4845478 -0.4191784 0.7677909 134 134 134
0.049608919128501 -0.0926216979962826 -0.00593617816188441 0.8822009 -0.4581242 0.1088291 117 117 117
-0.106242206588662 0.0716482261675357 0.0643293980815162 -0.4598665 -0.4402936 0.7711448 171 171 171
0.0508432121125098 -0.0882204910260678 0.00505144636413946 0.7408072 -0.5853822 0.3294424 116 116 116
0.0405380458680029 0.0261489013689518 0.118362707302784 0.5761501 -0.4744121 0.6655706 90 90 90
0.0795967311707373 -0.032691969488287 -0.0344671930811654 0.9677597 -0.1348824 -0.2127154 26 26 26
-0.123402145400918 -0.0445153852445126 -0.033478068902279 -0.7422426 -0.466467 0.4811284 174 174 174
-0.109577444091714 -0.0271713276845456 -0.00631189604022608 -0.5684301 -0.5006495 0.6528685 48 48 48
0.0529596538391943 -0.0829183598500729 0.0117222193934668 0.7289003 -0.6771481 0.1008702 91 91 91
-0.017313745513833 -0.134455933187628 -0.142717870666767 -0.5689048 0.002507191 -0.8223996 39 39 39
0.0470862121430273 0.103100643541193 0.154139590666508 0.3831001 0.8596781 0.3379169 141 141 141
0.0756056041565771 -0.0362228890401364 0.00422332923195257 0.9502632 -0.1142875 0.2897209 239 239 239
0.0774805278626318 0.0214180211084842 -0.00999231894233332 0.9131128 -0.4049959 0.04694006 105 105 105
0.0843658180085058 0.0735651115435123 0.099638533995365 0.9779032 -0.09352346 0.1869724 101 101 101
0.0311660499420996 -0.156485929105902 -0.0922828193447839 0.4804287 -0.7505271 0.4537592 149 149 149
-0.0166926651152735 -0.0717965503674984 0.0472153846480597 -0.5803621 -0.2603762 0.7716113 59 59 59
-0.0799498825225 -0.179817213628912 -0.0767921533129464 -0.7007126 -0.6712444 -0.2417285 70 70 70
0.0471782417145605 -0.0466776629430294 0.0594911400534858 0.5727279 -0.3453111 0.7434669 207 207 207
-0.0793059139403467 -0.0497139831525326 -0.09326207895496 -0.6577299 -0.4309019 -0.6178308 130 130 130
-0.0666544704589014 -0.139148487661505 -0.102417158677364 -0.7475559 0.1200255 -0.6532642 113 113 113
0.00515982817085936 -0.192891969297552 -0.11240951974609 -0.07853012 -0.7980244 -0.5974865 107 107 107
-0.0200662880095606 -0.205181552980566 -0.0802118803999673 0.7110209 -0.6748781 0.1974557 105 105 105
0.00509092520149901 -0.172157301519537 -0.148215519978787 -0.02332278 -0.9499529 -0.3115213 85 85 85
-0.044295814529336 0.0418597320574283 0.0833986226775397 -0.3738185 -0.3767831 0.8475224 68 68 68
0.0749730796662207 0.00402031936821934 -0.0240469749710809 0.9565588 0.2803312 0.08006041 142 142 142
0.0574834079590674 -0.0705697675687313 -0.0947802539608728 0.9890589 -0.04155211 -0.1415487 43 43 43
-0.118180540100015 0.118297682191706 0.0342188600756873 -0.4195459 0.594049 -0.6863578 27 27 27
0.0512344570008154 -0.0918779512387753 -0.0555606659195672 0.9468729 -0.2991712 -0.1180182 95 95 95
0.067926618560874 0.00549249448952671 0.0761911098220099 0.9193822 -0.3379295 0.2013457 103 103 103
-0.123869922653115 -0.00827850303473476 -0.0721916135094415 -0.7023868 -0.5132822 -0.4931471 111 111 111
-0.145477083221353 0.0676303962725162 0.0241436783530463 -0.7847573 -0.2693826 0.5582015 75 75 75
0.0745360584107275 -0.0617213984471798 -0.0188253547690164 0.5705897 -0.8201662 0.04189108 106 106 106
0.0862674445954199 0.0531540373819828 0.068538886711811 0.9888625 -0.1479802 0.01589842 133 133 133
0.0435590476837988 -0.100043906782293 -0.0294832762024652 0.7199273 -0.6894682 0.07961325 108 108 108
0.0948705406037207 0.137942061807489 0.0914771680094947 0.8547077 -0.2880996 0.4318256 106 106 106
0.0155493945923681 -0.149031951044226 -0.0340684827111016 0.4295369 -0.8972485 0.1021919 191 191 191
-0.0140242843779688 0.0689799050348758 0.115740400955891 -0.6547626 -0.3492029 0.6703307 148 148 148
0.051616165145957 0.0827630619066715 0.154026103422855 0.8070211 -0.4572158 0.3737255 90 90 90
0.0738229484406348 -0.0408809324246884 -0.0447493966362725 0.890653 -0.3875137 -0.2378455 105 105 105
-0.0745213298949365 -0.0625955005628109 -0.08869605024078 -0.7405845 -0.4075871 -0.5342352 159 159 159
-0.103274848953164 0.176586494829035 0.105941248343204 0.09562489 0.4321351 0.8967247 31 31 31
-0.00721552659598634 -0.171996309373999 -0.0382702972433816 0.7601334 -0.624688 0.1787792 84 84 84
0.0806088180390234 -0.0126336356145382 -0.0272903468153726 0.9080096 0.3800661 0.1762617 55 55 55
-0.0928621559294824 0.0658055404680729 0.0680941466548194 -0.4643671 -0.4324603 0.7728786 33 33 33
0.0985278816071387 0.133847461129999 0.0676187698104133 0.831542 -0.5338098 0.1535741 77 77 77
0.00919172476204588 -0.142586304758215 -0.00990867872455226 0.5126854 -0.7212912 0.4657173 128 128 128
0.0138320655670996 0.131800280000544 0.12422840039513 -0.1534408 0.5373879 0.8292588 151 151 151
-0.0647681026610498 -0.0235369344693661 0.0329766992785682 -0.4917464 -0.3785882 0.7841278 121 121 121
0.0597223968354101 -0.0608472963315487 -0.0719615842840921 0.9794396 -0.06914179 -0.1895191 125 125 125
-0.0666544704589014 -0.0900147100430966 -0.101589056446339 -0.810269 -0.006368349 -0.5860236 30 30 30
0.0553977222290869 -0.0785708566648007 -0.0520297463677178 0.8390112 -0.1962419 -0.5074932 214 214 214
-0.0563032894286279 -0.197943343732977 -0.0729737009547006 -0.54852 -0.8361138 -0.006286324 103 103 103
0.0465187759247656 -0.103218271349096 -0.0711334820530664 0.968111 0.1841899 -0.1698093 196 196 196
0.0754101009217139 -0.061042799566412 -0.0200675006649743 0.540433 -0.8412124 0.01714209 100 100 100
0.0352244109955664 -0.0428362031919003 0.0717362586714972 0.5804117 -0.4226762 0.6960366 187 187 187
0.0940654010620947 0.0755011896151065 0.00377480428001775 0.9387088 -0.344584 0.009358262 84 84 84
0.0786974162903662 -0.00055928430380825 0.0318767551638831 0.9381225 0.186857 -0.291566 131 131 131
0.0808272094574805 0.0242282012957096 0.026535940573429 0.9809712 -0.1879445 -0.04870635 152 152 152
-0.0520248680266504 -0.170938148115301 -0.112400325729633 -0.457916 -0.6444773 -0.6123413 79 79 79
-0.0954077510985498 0.173596129800653 0.10377900044701 0.4491746 0.5973777 0.6643659 16 16 16
-0.0125797062071924 0.0156044820803165 0.0898577694155921 -0.4879708 -0.4477686 0.7492582 152 152 152
-0.0487058429869776 0.0895968536394596 0.102063668177341 -0.4378507 -0.4269077 0.7912248 183 183 183
-0.0952008037718897 -0.0902102132779599 -0.0605982418797265 -0.8825668 -0.1351345 -0.4503493 29 29 29
-0.0160715847167139 -0.178690089796209 -0.0354103024742852 0.5547699 -0.6065255 0.5695236 144 144 144
-0.0311613350066309 -0.074441864107275 0.0323786262728919 -0.6580706 -0.3608857 0.6608363 82 82 82
0.00709221075447752 0.144566760446405 0.115142327950214 0.1869119 0.5403452 0.8204212 104 104 104
-0.00335099984732912 0.191446290399408 0.0726333681800116 0.12096 0.9214377 0.3692172 27 27 27
-0.0451698570403223 -0.146279289339209 -0.0274973686478387 -0.6789314 -0.3513694 0.6446641 100 100 100
0.0065400333252783 0.0289552072542667 0.110587817833637 -0.5947506 -0.4096991 0.691678 117 117 117
-0.0123679905089502 -0.139884545419836 0.00555748979828252 -0.5478135 -0.5120001 0.6616315 201 201 201
0.0645069808808203 -0.0432272096616269 -0.0686031903765451 0.9162145 -0.3170139 -0.2450573 143 143 143
-0.0449629097136621 -0.0891176005345822 0.00700665752670659 -0.6980122 -0.4000729 0.5939029 155 155 155
0.0257167548981543 -0.140206589315558 -0.0520642574570428 0.9542372 -0.2430063 0.1742969 107 107 107
-0.130509880081094 0.185051546480036 0.0887812499263038 -0.9897559 0.1224249 -0.07345346 8 8 8
-0.15135028649894 0.0695319632547855 0.0148965839602698 -0.9039942 -0.04691173 0.4249632 14 14 14
0.0268745155182715 -0.0639296909314633 0.0623971347071876 0.3166465 -0.5721022 0.7565937 91 91 91
-0.0599837570342188 0.164027080919123 0.104423088238453 0.5102894 0.6968392 0.5040038 105 105 105
-0.148697402969277 0.0117185572641849 -0.037564891173626 -0.8855878 -0.3741812 0.2751774 83 83 83
0.0409719676819678 0.141668424989557 0.119769168303226 0.6109163 0.1701155 0.7732024 126 126 126
0.0944103927460547 0.103806004907465 0.052252960608219 0.9767846 -0.150788 0.1521672 121 121 121
0.0865721435395117 0.0514576295870304 0.0460997347094764 0.9751227 -0.2187795 0.03565341 90 90 90
-0.0990076332244043 -0.0447684069615841 -0.072479146315838 -0.7186709 -0.4913865 -0.4919872 140 140 140
0.0554163188782568 -0.0906771560651303 -0.0999604638359796 0.9481505 -0.2338936 0.2151845 50 50 50
-0.0708868770751123 -0.140597595785284 -0.046520608260418 -0.5100189 -0.4361303 0.741398 95 95 95
-0.0209481983336572 -0.0360043784123898 0.0572445515849341 -0.2435238 -0.2615717 0.9339574 111 111 111
-0.135432508483804 0.0947888950365543 0.0522989753939856 -0.6721703 -0.3874561 0.6309238 94 94 94
0.0707635612336035 0.150593505288935 0.108011496470188 0.4726758 0.4363374 0.7656287 148 148 148
-0.0408454208525781 0.155408726121759 0.105741900608753 0.1030542 0.7890405 0.605636 98 98 98
0.0778023929444189 0.0932017425554752 0.12036396305344 0.5056852 -0.547354 0.6668479 110 110 110
0.0027861327973242 -0.109686627004767 0.0299403492667426 0.6132266 -0.7570832 0.22534 84 84 84
0.0343043536988135 -0.112442388151312 -0.0298436458847772 0.8524513 -0.5188366 0.06430576 142 142 142
0.0959055156556006 0.0812001089113712 0.00202083329937353 0.9455187 -0.3132895 -0.08856666 28 28 28
-0.0572233467253809 -0.0716125508290768 0.00753573815605535 -0.7206413 -0.4028705 0.5642441 228 228 228
0.0179264278260107 -0.170225097749853 -0.160636971487785 -0.2114264 -0.9010253 -0.378751 82 82 82
0.00175568769844725 0.191078172113275 0.0710231785037269 0.2981804 0.8274102 0.4759 35 35 35
0.0501303405609961 -0.0932350893956662 -0.00978531201102839 0.8524883 -0.5199717 0.05378876 129 129 129
-0.0170300274047022 -0.17214198312583 -0.0239396270058404 0.6022564 -0.6724581 0.4302178 73 73 73
0.0282547206726904 -0.14871759614768 -0.0787243719837915 0.6125394 -0.6320462 0.4746716 184 184 184
-0.153052595153726 0.03650014200387 -0.0171691652081262 -0.7940872 -0.4562126 0.4016162 46 46 46
-0.147899892822183 0.00581453838524815 -0.0458305205843698 -0.8659528 -0.4744861 -0.158078 152 152 152
0.088429662689292 0.0756323198336124 0.0656957451560248 0.984385 -0.1196306 0.1291305 138 138 138
0.021051618560874 -0.174197985742712 -0.129869225218083 0.7053184 -0.1181733 -0.6989714 174 174 174
0.0523500175324316 -0.10466743907752 -0.102635669305111 0.943378 -0.3060352 0.1279856 64 64 64
0.085678550705039 0.103203282739496 0.103871000216221 0.9780107 -0.09711275 0.1845647 134 134 134
0.0473928184357519 -0.116686358068609 -0.100116881325031 0.8344572 -0.4813023 0.2683828 113 113 113
-0.130371835723794 0.161358700181818 0.0689069155909766 -0.6478367 0.4685839 -0.6006137 13 13 13
0.0857009620514746 0.0494879941004276 0.0141777519442786 0.9564565 -0.2892684 0.03891894 129 129 129
0.0370554656830664 -0.142115845297003 -0.110201257064129 0.8266758 -0.5334092 0.179114 124 124 124
0.0804764957276221 0.0216231206911564 0.0299058381774177 0.9866088 -0.1576916 -0.04167055 144 144 144
0.0765142173615332 0.000155852224206887 -0.0466586228153955 0.95507 0.1387747 -0.2618832 90 90 90
0.0823724002686377 0.041468665983057 0.0817884330012549 0.9533694 -0.2223787 0.2040454 157 157 157
-0.0132422714385156 -0.0331673761350155 0.0602732423999061 -0.5576406 -0.2743835 0.7834224 93 93 93
0.0823800296631689 0.0334407547968387 -0.014086800410534 0.9379691 -0.3441749 0.04192426 65 65 65
-0.0726504593047266 -0.174817993257666 -0.0660575654051553 -0.4441033 -0.3677045 0.8170469 142 142 142
-0.077327754989541 -0.12286253175559 -0.0837389703533898 -0.7735966 0.06242961 -0.6305956 57 57 57
-0.0690007476958399 0.127422080423212 0.10577256719849 -0.4719217 -0.338927 0.8138909 43 43 43
-0.0872648029479151 -0.128383173559332 -0.0696382995388757 -0.8670466 -0.008091864 -0.4981613 16 16 16
-0.0189929275664453 -0.0233069201451779 0.060119879648899 -0.2378726 -0.3416181 0.909238 85 85 85
0.0169067115631933 -0.132224633310461 -0.00665693242766963 0.5320256 -0.4683485 0.7054065 117 117 117
0.0823340148774023 0.0317155579584598 0.0661466244914283 0.9837287 -0.1718325 0.05245454 128 128 128
0.00272175978096678 -0.168591870878363 -0.151734928383614 -0.245084 -0.779866 -0.5759711 77 77 77
-0.0438816814574365 -0.186810030553961 -0.106373610689427 -0.2473317 -0.7340456 -0.6324587 42 42 42
-0.0774657993468408 0.18508218326745 0.0855302039839972 -0.0307966 0.8419899 0.5386136 26 26 26
-0.0428235798033838 -0.140839173410559 -0.0219192232630502 -0.6683211 -0.4308279 0.606411 101 101 101
0.0264603824463721 -0.116651846979284 -0.159279810979153 0.5027383 0.4633781 -0.7297499 90 90 90
-0.0230412750395899 -0.207696511362219 -0.0790924157641183 0.6229928 -0.7755152 0.1022555 89 89 89
0.0512227744904394 0.101160750772333 0.154396427080845 0.5131609 0.766256 0.386675 163 163 163
-0.00698545266715334 0.0820454219835758 0.130784166262363 -0.72003 -0.3370397 0.6065979 49 49 49
0.0906510085907812 0.0654243687647342 0.00994772951385869 0.9759498 -0.2140775 0.04114307 84 84 84
0.0755891532746191 0.145676002885675 0.105491412089085 0.6180226 0.1420049 0.7732287 154 154 154
0.103118631347739 0.127091274644709 0.0376035396315803 0.9167685 -0.3437103 0.203467 91 91 91
-0.00348904420462892 -0.182520045850897 -0.117794456674839 -0.2427917 -0.5220684 -0.8176165 47 47 47
0.0770432681885596 -0.00173033675971035 0.0216363791682471 0.9630499 0.2676703 -0.02979087 137 137 137
0.0678653449860449 -0.0305757661801815 0.0367491666533698 0.8736021 -0.1872593 0.4491696 100 100 100
-0.11024453927604 -0.028574480627203 -0.00776106376865016 -0.5800658 -0.5021431 0.641386 126 126 126
0.0610680312958594 0.0774487117784977 0.135614735291218 0.8641068 -0.1927939 0.4649194 119 119 119
0.0458171100464697 -0.098571731660986 -0.0740203138134728 0.9260486 -0.3469839 0.148446 159 159 159
0.066715213760459 -0.0505881448728085 0.0262599114634742 0.7379465 -0.4065736 0.5386399 124 124 124
0.0944761962738867 0.120052442933893 0.0677896563269843 0.9649155 -0.1876304 0.1836651 131 131 131
0.0197283954468603 -0.0423838039380551 0.0803162578799476 0.4625384 -0.402454 0.789993 131 131 131
0.0109014243927832 -0.151652707670355 -0.0378715868733178 0.4577016 -0.8782889 0.1382671 169 169 169
-0.0175206928404932 -0.101424052332068 0.0327466849543799 -0.7098653 -0.3298546 0.622324 204 204 204
-0.00876429368583009 0.176586494829035 0.0916949335791816 -0.01656464 0.7591221 0.6507375 62 62 62
-0.0321502952727442 -0.111867262933874 0.0088238839366187 -0.7583767 -0.3763675 0.532177 84 84 84
-0.0805251865538721 -0.151293887708807 -0.0584590013764154 -0.4465559 -0.4221743 0.7888959 85 85 85
0.0263683528748389 -0.128475203130865 -0.0304647262833367 0.9383224 -0.3450381 0.02235461 119 119 119
-0.0789072780760889 -0.080798282240057 -0.0183959778092156 -0.4114013 -0.49687 0.7641133 107 107 107
0.0549838275757666 0.163440452005243 0.0977637891032447 0.4549581 0.7478875 0.4834019 117 117 117
-0.0305555133971338 -0.124442054842138 -0.135541031851555 -0.5217994 -0.01586075 -0.8529208 62 62 62
0.0752031535950537 0.0531655410784244 0.109794211790775 0.8261362 -0.1715443 0.5367228 97 97 97
-0.0532207756194238 0.00783877172646519 0.0626962010123481 -0.6260945 -0.391771 0.6741818 34 34 34
-0.0346346168669824 -0.0612153550130368 0.0360590640761603 -0.6169159 -0.3995571 0.6780626 56 56 56
0.0249652595368262 0.027690098668909 0.129058969423984 0.0943585 -0.5628712 0.8211409 112 112 112
-0.124299314514077 0.0354419807451725 0.0265819553591956 -0.5650378 -0.4822611 0.669445 73 73 73
0.021445962890708 -0.178851141546392 -0.113090398504521 0.679682 -0.6161057 0.398053 119 119 119
-0.0677585868987207 -0.146141304586554 -0.0477167393706094 -0.472597 -0.4788897 0.7398086 79 79 79
0.0890695781556006 0.147674188997126 0.0939045671679725 0.4899136 0.1785888 0.8532823 166 166 166
-0.124207284942544 0.175252423669672 0.0972232345797767 -0.4116122 -0.3717834 0.8320772 62 62 62
-0.0851717262419824 -0.106139554594183 -0.0373885359308969 -0.5798291 -0.3660095 0.7278979 218 218 218
-0.00834253121939943 -0.189892425153875 -0.112584340169216 -0.1983984 -0.4960798 -0.8453064 51 51 51
0.0749962062683935 0.00475637712655064 0.0234075907923926 0.9675795 -0.2054608 -0.146887 113 113 113
-0.0954077510985498 -0.055096640203619 -0.0684191759369622 -0.7242891 -0.4078507 -0.5559345 184 184 184
0.0290734500733252 -0.052759542081976 0.0701766733386268 0.4949322 -0.4108889 0.7656451 121 121 121
0.046932908996665 0.0890382389086246 0.173017126724934 0.5959284 -0.1724333 0.7843061 139 139 139
0.0530516834107275 0.185833559419489 0.0393254582144965 0.4154627 0.8043401 0.424768 59 59 59
-0.142816331878579 0.0455401996630191 0.0122282628276099 -0.7926218 -0.3584366 0.493228 144 144 144
0.101985904678428 0.127192125703669 0.0459042314746131 0.9548814 -0.2822536 0.09238211 77 77 77
-0.138330963149941 -0.00242961845221523 -0.0535594250700723 -0.739602 -0.4909552 -0.4603823 121 121 121
-0.0128281383666162 -0.132201625917578 0.0117912415721168 -0.6040079 -0.5998334 0.5247613 22 22 22
-0.0346756248625879 -0.178309275720739 -0.0339355792544137 -0.586196 -0.5103872 0.6291893 114 114 114
0.0107609958496924 -0.112591876600409 0.0161157373645057 0.3958809 -0.7466388 0.534611 95 95 95
0.00118825148018553 0.0752366642015934 0.135921430990909 -0.6147306 -0.3762754 0.6931977 83 83 83
0.0728645057526465 0.0136047462481022 0.0704557720877875 0.7135847 -0.6991557 -0.04447632 141 141 141
0.0630116195526953 0.164073095704889 0.0879531625964393 0.4388172 0.8462064 0.3022816 82 82 82
-0.0946486263426904 0.172031984712458 0.106355321810459 0.3678951 0.5027453 0.7822406 34 34 34
-0.0339906482848291 -0.110404326532507 -0.133323575153137 -0.5759888 -0.02409306 -0.8171025 34 34 34
-0.0286386280211572 0.0815547565477848 0.110219759152149 -0.6322984 -0.3710888 0.6800675 166 166 166
-0.0994563369902735 -0.0868403454762936 -0.0398498203299295 -0.5677081 -0.4312081 0.7012611 77 77 77
-0.0194068222197656 -0.0625955005628109 0.0476984504916419 -0.5334104 -0.2928114 0.7935583 50 50 50
0.0590231151429053 0.147741184617853 0.112055373594974 0.4121201 0.08207846 0.907425 134 134 134
0.0573761195984717 0.128257856752253 0.120041919157719 0.2886014 0.6986713 0.6546508 131 131 131
0.0536036224213476 -0.0794104476911068 0.0206702474810828 0.7099007 -0.6114169 0.349586 148 148 148
-0.00735357095328615 0.0308874706285953 0.102490854666447 -0.5706574 -0.4057263 0.7139581 113 113 113
-0.0535888939055567 -0.135376050089026 -0.0294526096127282 -0.6450497 -0.3886893 0.6578993 186 186 186
-0.0820892124327783 0.103000865365839 0.0892872933604468 -0.4600779 -0.3016535 0.8350649 152 152 152
-0.134029415145791 0.0301743606585025 0.0132634166934241 -0.7007734 -0.4833445 0.5246854 128 128 128
-0.0531442432555322 -0.152367367361212 -0.0395124431393395 -0.6443645 -0.3868356 0.6596609 130 130 130
-0.0856087474974756 0.154963956262445 0.106677335903858 -0.3917885 -0.3241718 0.8610542 60 60 60
0.0907883376923437 0.0754911760347843 0.0481308821894874 0.9901647 -0.1345406 0.03837617 131 131 131
0.0259773464051123 -0.172793759916449 -0.121885101094032 0.8903171 -0.4392218 -0.1200821 71 71 71
0.0828478069153662 0.153093085672235 0.0974916044928779 0.4936316 0.609853 0.6200057 114 114 114
0.0133292407837744 0.161779389764643 0.108234954283451 -0.006562759 0.6581034 0.752899 106 106 106
-0.0485742359313135 -0.0915328999501706 0.00169305245659246 -0.641758 -0.3858479 0.6627731 145 145 145
0.012520763382041 -0.0313578387242794 0.0868950311400641 -0.5380992 -0.3478889 0.7677386 152 152 152
-0.117812421813882 0.0532920817392826 0.0430978957869758 -0.5679458 -0.4554954 0.6855373 96 96 96
0.00850674818428709 -0.155905916307592 -0.0500055130265008 0.675074 -0.7278979 0.1201653 105 105 105
0.0434825153199072 -0.130346073721075 -0.106135922267223 0.9097068 -0.3699552 0.1885914 69 69 69
-0.1107275753173 0.1421744684237 0.0911275271632422 -0.3968695 -0.3577078 0.8453045 78 78 78
-0.0370729236754541 -0.204292072866583 -0.0522712792895089 -0.60707 -0.4003457 0.6864324 131 131 131
0.0669913024750586 0.164280162240839 0.0837896589495887 0.4171922 0.8666137 0.2737357 108 108 108
0.0932450027314062 0.102977977182245 0.055465680763935 0.9707085 -0.1333973 0.1998252 124 124 124
-0.0727424888762598 -0.0639909645062924 -0.0903023954174768 -0.7696825 -0.3615506 -0.5261843 135 135 135
-0.0289299755248194 -0.128383233163977 0.00229111056110753 -0.6466242 -0.4531945 0.6135893 75 75 75
-0.00417902757254884 -0.169005944345617 -0.0455544914744149 0.7754544 -0.6165607 0.1361008 175 175 175
0.0767366618958349 0.0496308068293094 0.105504197285389 0.8443302 -0.3274168 0.4241517 113 113 113
0.0443105430451269 0.133295402910089 0.123791349337315 0.5321202 0.635861 0.5590428 118 118 118
0.0310885639038916 -0.162942423437262 -0.128170969679142 0.5621514 -0.8121719 -0.1560849 97 97 97
-0.0557971267851953 0.182935223962641 0.0838586811282386 0.2017351 0.7814366 0.5904742 48 48 48
-0.110428598419106 0.0375352362650394 0.0396704797007789 -0.5760051 -0.4433579 0.6867692 184 184 184
0.0414523811188574 -0.108451380346441 -0.0541574980757485 0.8336061 -0.5016676 0.2311504 109 109 109
-0.138284948364175 0.120689974214411 0.0599818650939216 -0.9635147 0.0324325 0.2656832 104 104 104
0.0849609107819433 0.134933219339228 0.10377900044701 0.3272543 0.6529112 0.6830898 131 131 131
0.0599431724396582 0.0546630481737613 0.12654249112389 0.5134431 -0.3392841 0.7882021 160 160 160
0.0248963565674658 -0.142368867014074 -0.162960241331841 -0.5685703 -0.1536841 -0.8081516 36 36 36
0.0906150073853369 0.10523222484765 0.0721963171221961 0.9893277 -0.1109769 0.09441849 88 88 88
0.0410442085114355 -0.111867262933874 -0.0580679651043664 0.8303748 -0.4613948 0.3123982 81 81 81
-0.0251114635619287 -0.181427433107519 -0.0299586679480325 0.06556002 -0.5405825 0.8387327 166 166 166
-0.109171178832925 0.107670412446833 0.0780543212153663 -0.3987695 -0.2778945 0.8739322 43 43 43
0.0864872665253515 0.0632241229074955 0.0701337281920661 0.9971485 -0.06889279 0.03080235 127 127 127
0.0769974918213721 -0.0152559419614315 -0.0109584357283364 0.9621792 0.224261 0.1546551 233 233 233
0.00350377272041991 0.124462471391535 0.132900429175114 0.3066918 0.7442228 0.5933571 116 116 116
-0.117045667663491 0.0808033803957462 0.0605492715098609 -0.5532563 -0.3780596 0.7422792 144 144 144
0.081804964050376 0.0275750617044925 0.0544765714862098 0.9846603 -0.1740484 -0.01230161 132 132 132
0.088199588760459 0.0634132484453678 0.0255238239028205 0.9621052 -0.2164614 0.1658256 164 164 164
-0.140370395675576 -0.00455202064337734 -0.0343138452313195 -0.8769944 -0.4696577 0.1015009 74 74 74
-0.0485282211455469 -0.176734878633642 -0.0494649436018716 -0.583895 -0.3589265 0.7281747 168 168 168
-0.0466192035826807 -0.17051263055625 -0.118058982088352 -0.446806 -0.6457776 -0.619141 80 80 80
-0.02817085076896 -0.142253830049658 -0.135380017354275 -0.5404366 0.06438638 -0.8389176 54 54 54
-0.0370269088896875 0.15270970859704 0.111369920180057 0.01641452 0.9629639 0.2691304 51 51 51
-0.03240349580375 -0.193756832693243 -0.103268253400112 -0.2300371 -0.7052238 -0.6706283 79 79 79
0.075241538986289 -0.00853915414633755 -0.00200271864154444 0.9321634 0.3566323 -0.0623289 131 131 131
0.0504522056427832 0.039812491323328 0.121744108603214 0.3800468 -0.6920537 0.6136987 181 181 181
0.0848412246552344 0.0472596148508548 0.0699938062884559 0.9922821 -0.1213549 0.02548097 101 101 101
0.0663931102600928 -0.0151179572087765 0.0671587113597144 0.7451766 -0.4019138 0.532144 137 137 137
0.066485139831626 -0.0399148603421688 -0.0784483428738366 0.9401807 -0.3332162 0.07090325 74 74 74
0.0461048812714453 0.0137734273928165 0.108287525580143 0.2382435 -0.6156366 0.7511535 128 128 128
-0.153439071670449 0.0193033079164981 -0.0399970438025247 -0.7925023 -0.5429134 0.277822 95 95 95
0.0298418731537695 -0.098709716413641 0.0199341897227515 0.5915199 -0.7009079 0.3985377 97 97 97
-0.0141852169188623 -0.130154385183477 0.0128493432261695 -0.5989024 -0.6448814 0.4748093 57 57 57
-0.11454608728019 0.1726760725039 0.100328606770252 -0.4656388 -0.3011984 0.8321418 43 43 43
-0.0312917499693994 0.0272070626276493 0.0842420582034339 -0.4346127 -0.3229132 0.8407371 87 87 87
-0.0450318126830225 -0.208375050638342 -0.0642326797983895 -0.7396712 -0.6676888 0.08413193 32 32 32
0.000329467758261703 0.00944893160042759 0.0967401687361945 -0.6515906 -0.4046925 0.6416023 178 178 178
-0.0217070846709375 -0.205580248449469 -0.0921579476139794 -0.2448057 -0.9034513 -0.3519176 106 106 106
0.0523614616242285 -0.0913488408071041 -0.0122465815088998 0.8386513 -0.5406018 0.06643513 139 139 139
-0.037091520324624 -0.202599122141027 -0.0845854606173287 -0.1937862 -0.7691607 -0.6089653 107 107 107
0.0816111297455664 0.0515208701151371 0.0959975246646155 0.9427072 -0.2409919 0.2307077 127 127 127
0.0366277427521582 -0.108263506506109 -0.0223371114275704 0.8002521 -0.5992748 -0.02159645 145 145 145
0.0388359756317969 0.0902803997057438 0.171314907477116 -0.3726759 -0.08554778 0.9240099 113 113 113
0.0295889110413428 -0.031840934370184 0.0843647245623816 0.4199731 -0.7303285 0.5387419 91 91 91
-0.0764076976927881 0.183303342248774 0.0883211914756049 -0.01719548 0.8679562 0.496343 20 20 20
0.045031282409751 -0.122954561327124 -0.0938448037646066 0.9321688 -0.3344348 -0.1386167 110 110 110
-0.066240337387002 -0.18834663829627 -0.0758168276093255 -0.6111966 -0.7019244 -0.3657059 57 57 57
0.0762843818512793 -0.00738902292075161 -0.0150069173119317 0.9458253 0.2614457 0.1925111 247 247 247
0.0817992420044775 0.0996655086534977 0.121968400881504 0.8707772 -0.2957053 0.3928171 100 100 100
-0.102768686309731 -0.0919469734174252 -0.0479774351856957 -0.9588304 -0.1494248 -0.241488 18 18 18
-0.0708639888915186 -0.0492309471112728 0.00758172313949956 -0.6064892 -0.5204945 0.601046 34 34 34
-0.104447868362344 -0.00428368053259853 0.0164837960459937 -0.6540316 -0.4139823 0.6331361 69 69 69
0.0630807609406348 -0.0747777362805844 -0.0241803850672494 0.8015839 -0.595296 0.05555032 67 67 67
0.0635235042420264 0.163359985734796 0.0902189139582862 0.4113354 0.8535574 0.3197544 122 122 122
0.0550298423615332 0.18279729881463 0.0439259831168403 0.478731 0.7417626 0.469686 55 55 55
-0.092992570892251 0.0388923744219303 0.0519769314982642 -0.4388593 -0.4511612 0.7770818 93 93 93
-0.0153124599608545 0.0371212224024295 0.0982468549468268 -0.6799849 -0.3686476 0.6338134 218 218 218
-0.0693688659819727 -0.126726998899603 -0.0969425167582284 -0.8456455 0.05558641 -0.5308425 26 26 26
-0.127335575118936 0.139460192109919 0.0525289897181739 -0.7435547 0.1513266 -0.6513268 23 23 23
-0.0583427219542627 -0.196409835432196 -0.0737404551050912 -0.5813814 -0.8113958 -0.06027027 91 91 91
0.0489723415222998 0.11084483661828 0.141564768955921 -0.07822124 0.6173952 0.7827545 107 107 107
0.0539257259217139 -0.0352913280469418 0.0633632663943519 0.5131295 -0.4716255 0.7171244 172 172 172
0.0772809715119238 -0.0120815773946286 0.00802646319649114 0.980693 0.1459632 0.1301387 128 128 128
-0.10449388314811 -0.0163140436154843 0.00751273076317205 -0.6589511 -0.498989 0.562844 39 39 39
-0.0867772369536524 0.183376894380426 0.0879807595469703 -0.001656452 0.8575522 0.5143942 24 24 24
0.0574526519623633 -0.0420770784360409 0.0559027318217505 0.7825056 -0.4213312 0.4584376 122 122 122
-0.0592935352477197 -0.180599345777655 -0.100208895995403 -0.6304929 -0.6004403 -0.4918843 53 53 53
-0.0622148780974512 -0.177332951639319 -0.0611503150007974 -0.513238 -0.3761886 0.7714071 141 141 141
-0.132709053054727 0.0434377650278568 0.0237020377375831 -0.6234997 -0.4394622 0.6466228 90 90 90
-0.0366130142363672 0.105140195276117 0.1164305035331 -0.5621104 -0.3948411 0.7267272 103 103 103
0.0799417228546973 0.0272070030230045 0.0704020981051673 0.8636024 -0.4343488 0.2559921 211 211 211
0.0369496078339453 0.178104744340754 0.0704710904814948 0.2587812 0.7662066 0.5881835 52 52 52
0.0764684409943457 -0.000350191209936179 -0.0480847831509362 0.9436917 0.1571525 -0.2911169 64 64 64
-0.0270438461455469 -0.159390821073675 -0.0182272966645013 -0.3954182 -0.551195 0.7347302 171 171 171
0.0471169681397314 -0.0443620224935055 0.060487938330387 0.5348143 -0.4610275 0.7081153 241 241 241
-0.0892432003172998 -0.136043085668707 -0.0553076293013345 -0.6336623 -0.3948609 0.6652495 139 139 139
-0.0131271152648096 -0.134823932264471 0.00863985459587469 -0.6015353 -0.5746525 0.5549142 48 48 48
0.0524074764099951 -0.100043906782293 -0.0965744729779016 0.9361068 -0.2591862 0.2377532 78 78 78
-0.109807518020547 -0.00430668792548183 0.011078131602024 -0.6499682 -0.4463753 0.6150532 24 24 24
-0.0459981231841211 -0.10570253333869 -0.00460969169356928 -0.6068281 -0.4162366 0.6771313 178 178 178
0.019614908203208 -0.175327076528692 -0.103806513144756 0.5914196 -0.6368355 0.4946346 168 168 168
-0.112153795257485 0.0501637319582462 0.0458582166888465 -0.5958409 -0.4259516 0.6808369 190 190 190
-0.0967765121611719 0.117699609186029 0.0872055415370215 -0.4033782 -0.295543 0.865991 90 90 90
-0.0628512172850733 -0.0128636499387265 0.039432806179737 -0.5087202 -0.479174 0.7152594 166 166 166
-0.0153124599608545 -0.112373306368017 -0.144834118678356 -0.5014099 -0.1104772 -0.8581275 29 29 29
0.0207967490998144 -0.14216436347785 -0.0281746711275827 0.8500179 -0.4967274 0.1753039 119 119 119
-0.0589409141692285 0.139099822427607 0.116001111672138 -0.5403203 -0.2870649 0.790979 49 49 49
0.0144071311798926 -0.149683727834845 -0.0294986094973336 0.4792848 -0.8692822 0.1209735 99 99 99
-0.0286908416899805 -0.199139489744329 -0.0978074099562417 -0.2191858 -0.8217634 -0.5259872 56 56 56
-0.0159335403594141 -0.168522908304358 -0.143177929117466 -0.5294626 -0.4646392 -0.7097744 74 74 74
-0.0357387333068018 -0.177194907282019 -0.122337485446716 -0.5404345 -0.5022117 -0.6750659 62 62 62
-0.0402014522704248 -0.179771198843145 -0.117138880088116 -0.5169798 -0.5225458 -0.6779954 64 64 64
-0.0473320751341944 -0.164727463338995 -0.12252150733688 -0.5853901 -0.2475355 -0.7720392 77 77 77
-0.0541870861205225 -0.166751696680212 -0.116678821637417 -0.5429091 -0.5087951 -0.6681147 97 97 97
-0.0520706443938379 -0.166797711465979 -0.118933084203983 -0.4949546 -0.4372915 -0.7508636 122 122 122
-0.0387292175444727 -0.170570149038458 -0.123778986527706 -0.506135 -0.5628051 -0.6535119 85 85 85
-0.0408761768492822 -0.170462801073217 -0.122230137481476 -0.5445275 -0.5546997 -0.6291248 57 57 57
-0.0457680492552881 -0.165187491987371 -0.123671638562466 -0.5701158 -0.3803471 -0.7282198 76 76 76
-0.0408914356383447 -0.167165770147467 -0.125603864683891 -0.51159 -0.5314103 -0.6751879 47 47 47
-0.0448019771727686 -0.174342586610937 -0.116025539829517 -0.5694459 -0.4619002 -0.679985 87 87 87
-0.04314568330375 -0.173468484495306 -0.118427025868679 -0.5670335 -0.4679044 -0.6778927 103 103 103
-0.0246515541228418 -0.180507316206121 -0.127812127365852 -0.3521166 -0.8374175 -0.4180261 41 41 41
-0.0135028629454736 -0.179801895235205 -0.133562798394943 0.3016859 -0.9161884 -0.2637885 130 130 130
-0.0228572158965235 -0.177608980749273 -0.131400550498749 -0.4511121 -0.5512758 -0.7018496 44 44 44
-0.0192344455870752 -0.181093885515356 -0.127685609056736 0.1509098 -0.9882169 -0.02556417 77 77 77
-0.0145039825591211 -0.178759111974859 -0.130230697586323 0.4173227 -0.9078509 -0.04060291 73 73 73
0.0766830177155371 0.00780807533440586 0.00724436085007085 0.8469862 -0.5293523 0.04899454 135 135 135
-0.0317364006194238 -0.166475667570257 -0.133562798394943 -0.5319635 -0.3253033 -0.7817881 46 46 46
-0.0283780365141992 -0.167947842691565 -0.134298885955597 -0.4796662 -0.5752293 -0.6625946 107 107 107
-0.0283434658202295 -0.170616163824225 -0.131630572273518 -0.4546008 -0.6155052 -0.6438101 49 49 49
-0.0301721363219385 -0.17034013471427 -0.130480441047932 -0.4683834 -0.5992944 -0.6492019 37 37 37
-0.0323803692015772 -0.169926061247015 -0.129744353487278 -0.4823595 -0.5983918 -0.6397316 60 60 60
-0.0199129848631983 -0.174342586610937 -0.134574922516132 -0.4179365 -0.459308 -0.7838145 114 114 114
-0.014837053314126 -0.172717048738623 -0.138408700718666 -0.4255826 -0.6327893 -0.6468827 60 60 60
-0.0208330421599512 -0.168902470682287 -0.138427871062542 -0.4193851 -0.6101714 -0.6721659 113 113 113
-0.0348878173979883 -0.176389827345037 -0.123533624007488 -0.5433593 -0.4523981 -0.7071751 53 53 53
-0.031598356262124 -0.183129622553015 -0.116494807197834 -0.1093487 -0.8967461 -0.4288231 60 60 60
-0.0270438461455469 -0.183819665525579 -0.115666704966808 -0.03434844 -0.8667152 -0.4976193 121 121 121
-0.032518413558877 -0.181703462217474 -0.117859634353901 -0.1312214 -0.8906366 -0.4353704 89 89 89
-0.0214541225585108 -0.181864454363012 -0.122107463671948 0.1658293 -0.9857333 -0.02882019 89 89 89
-0.0124984054717188 -0.17820705375495 -0.125887567891861 0.4361544 -0.8472521 0.3032049 60 60 60
-0.0160024433287744 -0.17751695117774 -0.120313244654919 0.5263202 -0.8452058 -0.09281322 26 26 26
-0.013196256652749 -0.178713097189093 -0.118150996758724 0.03368492 -0.6568134 -0.7533004 58 58 58
-0.0121841697844629 -0.175492717836523 -0.123901667787815 0.4740405 -0.8374631 0.2719212 68 68 68
-0.0366130142363672 -0.213677181814337 -0.0751819636366616 -0.4628371 -0.8018299 -0.3779557 24 24 24
-0.0386832027587061 -0.213125123594427 -0.0704664166710626 -0.591616 -0.766914 -0.2486633 42 42 42
-0.0374257831725244 -0.214950039003515 -0.0683884944460641 -0.6025445 -0.7473993 -0.2798829 59 59 59
-0.0303409366759424 -0.215670778368139 -0.0738938029549371 0.5374303 -0.7896058 -0.2961272 183 183 183
-0.0325644283446436 -0.217725648496771 -0.0699833508274804 0.04164948 -0.9145663 -0.4022856 172 172 172
-0.0300801067504053 -0.215103342149878 -0.0703053947232019 0.7139029 -0.6984136 -0.05060735 92 92 92
-0.0284929542693262 -0.212803079698706 -0.0718235697291146 0.7857081 -0.618229 0.02134768 94 94 94
-0.0604284076842432 -0.168070509050512 -0.111510890319134 -0.5349647 -0.4438104 -0.7189194 171 171 171
-0.0608577995452051 -0.172778381918097 -0.104809435798908 -0.3388658 -0.6604066 -0.6700994 64 64 64
-0.0624678402098779 -0.169834031675482 -0.109179946377064 -0.5106561 -0.548765 -0.6618816 96 96 96
-0.0602596073302393 -0.18073733053031 -0.0992887790940057 -0.6398214 -0.6195466 -0.4547424 35 35 35
-0.0602596073302393 -0.182497038458014 -0.0959993924639474 -0.7130768 -0.6456711 -0.2731854 87 87 87
-0.0603516369017725 -0.183589651201391 -0.0923419769547235 -0.7061329 -0.6596099 -0.2574705 98 98 98
-0.0644002227934961 -0.176587655161047 -0.0978626187584649 -0.645915 -0.684148 -0.338726 73 73 73
-0.0702705650481348 -0.174130990121985 -0.0938877489111672 -0.5590684 -0.6992877 -0.4454651 30 30 30
-0.0748434333953027 -0.169466032598639 -0.092111947729374 -0.7603248 -0.1772355 -0.624895 15 15 15
-0.0642621784361963 -0.173928513143683 -0.103153231336857 -0.4670486 -0.632813 -0.6175867 79 79 79
-0.0677125721129541 -0.169327988241339 -0.10278518755653 -0.7051763 -0.3048132 -0.6401682 100 100 100
-0.0696447162779932 -0.168637945268774 -0.100438925220753 -0.8326266 -0.1962166 -0.5179112 159 159 159
-0.0589807300719385 -0.188687040422583 -0.0860944416067849 -0.6553489 -0.5614685 -0.5052435 52 52 52
-0.0607564716490869 -0.194916202638769 -0.0744734730265389 -0.6210349 -0.7699174 -0.146775 81 81 81
-0.0619159011992578 -0.192054643247747 -0.0781723137638818 -0.6856146 -0.6388388 -0.3490238 88 88 88
-0.0655272274169092 -0.189363374326849 -0.0740088250181924 -0.6200734 -0.7350242 -0.2743146 65 65 65
-0.0666198997649317 -0.18985791406455 -0.0703513946078073 -0.6347007 -0.7653359 0.1068456 84 84 84
-0.062927988067544 -0.192392005537176 -0.0684651758215676 -0.6581424 -0.6199932 0.4271498 215 215 215
0.0885677070465918 0.0638536075609684 0.0261218969084968 0.9672414 -0.2052359 0.1494064 134 134 134
-0.0831704406890039 -0.165233506773138 -0.0762170727989923 -0.9368608 -0.008761287 -0.3495927 119 119 119
-0.0845506458434229 -0.168530537698889 -0.0724829759142648 -0.9876446 -0.1505312 0.04357331 148 148 148
-0.0744524269255762 -0.177263929460669 -0.086062240197445 -0.3606085 -0.7872573 -0.5001874 56 56 56
-0.0766101150664453 -0.177820636842871 -0.083729761435772 -0.3386936 -0.8115633 -0.4760795 55 55 55
-0.0729573040160303 -0.179242148016119 -0.0837849702379952 -0.3399208 -0.8234463 -0.4543016 60 60 60
-0.073095109954751 -0.180553330991888 -0.0807946201107751 -0.3235527 -0.8512868 -0.4130672 54 54 54
-0.0588450699004297 -0.186959578607702 -0.0877874370358239 -0.680292 -0.5899757 -0.4348925 69 69 69
-0.0670225887450342 -0.180001272771978 -0.0877721037409555 -0.4670902 -0.7635456 -0.4458979 45 45 45
-0.0638940601500635 -0.179725243662024 -0.09192791838863 -0.6452729 -0.6810894 -0.3460349 108 108 108
-0.0676665573271875 -0.182623579118872 -0.0820597584984551 -0.5003124 -0.7384136 -0.4521425 56 56 56
-0.0643542080077295 -0.18483181199851 -0.0833249117872964 -0.615364 -0.6181753 -0.4890669 114 114 114
-0.0703118114623194 -0.181726469610357 -0.0814616854927789 -0.3950579 -0.8162498 -0.4215038 89 89 89
0.0545391769257422 -0.075967743013525 -0.072084265544201 0.9100127 -0.3885025 0.1447158 96 96 96
-0.0763616829070215 -0.166475667570257 -0.0898806925556909 -0.8604888 0.07842433 -0.5033972 50 50 50
-0.0789609222563867 -0.168384923551703 -0.0858092035792123 -0.8992854 0.07003634 -0.4317182 43 43 43
-0.0768907337340479 -0.18243957958045 -0.0744458760760079 -0.5010353 -0.8452022 -0.1860024 177 177 177
-0.0713930397185449 -0.184532775495672 -0.0747909124634515 -0.4907748 -0.7678632 -0.4117356 26 26 26
-0.0799501209410791 -0.178713097189093 -0.0798055108330499 -0.6946218 -0.639364 -0.3297184 52 52 52
-0.0762696533354883 -0.181611432645941 -0.0773442115328561 -0.3628766 -0.8587099 -0.3618535 47 47 47
-0.0781557827147608 -0.181887461755896 -0.0733417447350274 -0.5598397 -0.8271844 -0.04843064 217 217 217
-0.0652742653044824 -0.187454118345404 -0.0790004010937463 -0.6530802 -0.6349595 -0.4126897 52 52 52
-0.06955268670646 -0.187408103559637 -0.0726516570589791 -0.6049185 -0.7832645 -0.1434233 38 38 38
-0.082020309463418 -0.169143988702917 -0.0787703867695581 -0.9271713 -0.0467617 -0.3717078 84 84 84
-0.0769136219176416 -0.175055636976385 -0.068327146365429 -0.4237415 -0.3645295 0.8291932 133 133 133
-0.0501385002287988 -0.188987626646185 -0.099948200180317 -0.3819058 -0.7649043 -0.518719 65 65 65
-0.0489423542174463 -0.189662351225042 -0.0992427792094003 -0.3764203 -0.7553388 -0.5364428 57 57 57
-0.054923084274209 -0.188243879888678 -0.0958230372212182 -0.6841311 -0.6456305 -0.3393019 59 59 59
0.0679757327881689 0.00590650835213657 0.0744919602133979 0.9083967 -0.3456621 0.2352298 111 111 111
-0.049019124999917 -0.193220152471685 -0.0943355437062036 -0.4422791 -0.702571 -0.5574793 80 80 80
-0.0448096065672998 -0.189915432546759 -0.102302136614109 -0.2989373 -0.7647232 -0.5708194 51 51 51
0.060581180557334 -0.0620434423429013 -0.0521025832436334 0.8146234 -0.442794 -0.374596 118 118 118
-0.041443613067544 -0.19387186965766 -0.099311786486889 -0.2974198 -0.6981569 -0.6512437 57 57 57
-0.0371649532469873 -0.193066789720678 -0.102106618478085 -0.302294 -0.6992882 -0.6477764 51 51 51
-0.044295814529336 -0.197851314161444 -0.0935534413597833 -0.2571983 -0.8849108 -0.3883064 80 80 80
-0.0347037582549219 -0.199174000833654 -0.0943432029030572 -0.3012189 -0.8976382 -0.3217341 89 89 89
-0.0268368988188867 -0.18846620521369 -0.110192063047672 -0.09097642 -0.6506369 -0.7539197 57 57 57
-0.0243141918334131 -0.195137037847662 -0.104318710758473 -0.2653067 -0.6563084 -0.7063084 95 95 95
-0.105758932128823 0.102931843187189 0.0779239658572425 -0.3956913 -0.2378381 0.8870521 58 58 58
-0.0296201973113184 -0.189432336900854 -0.108857902481342 -0.1921649 -0.6894401 -0.6983874 90 90 90
