ply
format ascii 1.0
comment File exported by Rhinoceros Version 7.0
element vertex 469
property float x
property float y
property float z
property float nx
property float ny
property float nz
property uchar red
property uchar green
property uchar blue
end_header
0.0473983703978892 0.0054309342984078 0.0264004581831381 0.2538136 0.5818623 0.7726673 20 20 20
-0.0272974402796912 0.024966232724059 -0.00531470682423768 0.3747857 0.927038 0.01167333 21 21 21
0.0383534812778268 -0.000407934075992378 0.0343275643130563 0.03102808 -0.7534432 0.6567805 54 54 54
-0.0494528663110501 -0.0166323491116542 -0.0166798736649865 -0.109735 -0.989772 -0.09115719 72 72 72
0.0640748701909023 0.00190558849330058 -0.00771212252956449 0.4661958 -0.8824978 0.06212259 86 86 86
0.0255772525561284 -0.0107337294064738 -0.0064595818332332 0.4771573 -0.8781871 0.0332912 77 77 77
0.0256083600260507 -0.0121901049076443 -0.0225552012010893 0.3751865 -0.7388374 -0.5597807 79 79 79
-0.00959985206363267 0.0153272530463109 -0.0238289624612868 -0.00442427 0.3393412 -0.940653 50 50 50
0.0166622187385727 0.00209366590851001 -0.023448533711827 0.2449627 -0.002448221 -0.9695294 126 126 126
0.0229964197457265 0.0151259847369629 -0.01047005354467 0.3455053 0.9229113 -0.1698846 47 47 47
0.0109169007042508 -0.0150849567344082 -0.00215778805208094 0.1877855 -0.9756275 -0.1135237 117 117 117
0.0531595837492307 0.00939586784281077 0.00276921741297814 0.1226861 0.9673678 -0.2216928 45 45 45
-0.00538033626008916 -0.01338110427199 0.0198472601468719 0.2287953 -0.9110134 0.3430848 76 76 76
-0.0392631888944612 -0.0165821225971536 -0.0197903387242076 0.07890985 -0.9847039 -0.1553429 92 92 92
0.0670750562525919 0.00425702003981487 0.00432958079293783 0.7528471 -0.6563279 0.04954831 85 85 85
-0.0383247980123775 -0.0165728948730013 0.0202599383774442 -0.08742261 -0.9563553 0.2788222 66 66 66
0.0686369340538253 0.00400043760279667 -0.00494265923646225 0.4483509 -0.8922654 0.05332772 94 94 94
-0.0369316450860949 -0.0159572221190711 -0.0115052665942909 0.07155828 -0.9944713 0.07685162 26 26 26
0.0371445786510666 -0.00357240182686214 0.0293947611436932 0.06344766 -0.9033219 0.4242451 104 104 104
-0.0156912892223933 -0.0125449443456638 0.0287444545726406 0.2470595 -0.9056564 0.3445984 61 61 61
0.0542420160364048 -0.00399627869025765 -0.0177920736454146 0.1937963 -0.9400096 -0.2807578 114 114 114
0.0643027828438146 -3.79913131485221E-05 -0.0187244521052151 0.4687813 -0.8627992 -0.1892662 92 92 92
0.0188762433454278 0.0182672315188199 0.00330634856027928 0.189431 0.9748142 -0.1176998 49 49 49
0.0548217083133196 -0.000834416338172383 0.00199968451282678 0.05676885 -0.9838951 0.1694926 123 123 123
0.0361395566630132 -0.00522336476115126 -0.0116924589956347 0.3519779 -0.9332201 -0.07219293 157 157 157
0.0293535339200712 0.00149750534966353 -0.0217758155947512 0.04413166 0.07609914 -0.9961231 117 117 117
0.0318507678638418 0.0157208466791212 0.0173461595269847 0.3492379 0.934987 0.06190468 29 29 29
0.0448723164495969 -0.00373580932609907 0.000237135208826345 0.3558942 -0.9176572 -0.1767613 112 112 112
-0.00854872889029212 -0.0157164032632395 0.010356400291785 0.2401405 -0.9675336 0.07881094 114 114 114
-0.000330882761748308 0.0165717543488535 0.0132415961823606 0.05415533 0.9984862 0.009624894 26 26 26
0.0438386639781286 -0.00378505017792952 -0.0119959399127551 0.1042656 -0.9900013 0.09500653 68 68 68
-0.0405695750288949 -0.0173761021652921 0.0179518136950941 -0.1257415 -0.9589786 0.2540651 54 54 54
0.0116402505693037 -0.0139069819172428 0.00917095461475131 0.2300367 -0.950147 0.2104847 33 33 33
-0.029844751265792 0.00626834734885473 -0.0246655302551311 -0.2045579 0.0131245 -0.9787665 30 30 30
-0.00152804422112696 -0.00375064570524386 -0.0254544338211689 0.02095392 0.004355408 -0.9997709 111 111 111
0.0078219778289933 -0.00735446965167608 -0.0244230912935146 -0.002639625 -0.002474389 -0.9999934 60 60 60
-0.00984991723917483 0.0198105155241235 -0.0128334886762243 0.206699 0.9781319 -0.02309687 35 35 35
0.0234609416098079 -0.0067797338504072 0.0264371142030608 0.2299187 -0.9362831 0.26554 33 33 33
-0.0185496136607161 -0.0165040474072229 0.0134276372202708 0.1543363 -0.9880098 0.004128321 93 93 93
-0.054979903789949 -0.0020411158867748 0.0117651335071442 -0.9787596 0.05715844 0.1968822 56 56 56
0.0167820098629996 -0.00491987235701075 -0.0237372754741759 0.1331835 0.09208892 -0.9868038 102 102 102
-0.00920569417825479 0.0107072959269026 -0.0239013910526321 0.06971335 0.1026171 -0.9922751 58 58 58
0.000907766003944932 -0.00878462465022034 -0.024976911414536 0.05865096 -0.07621735 -0.9953647 193 193 193
-0.0424751307295598 -0.0165832437145741 -0.007504918787056 0.03335163 -0.985526 0.166211 42 42 42
-0.0544614876868403 -0.00136078711218834 0.0134320149630787 -0.982393 0.05863995 0.1773848 46 46 46
0.0127890411204458 -0.0127495459906866 0.0156027384407667 0.02268208 -0.9600047 0.2790634 127 127 127
-0.0346829505286995 0.0297138083498005 -0.0100562804127916 0.4493162 0.8892875 -0.0853385 54 54 54
0.00511750445617964 -0.00918696022288623 -0.0240713597096952 0.06063581 -0.04697821 -0.9970539 63 63 63
-0.00923598544743531 -0.00356806742582605 -0.0243512345078755 -0.02891728 -0.05754413 -0.9979241 145 145 145
0.0182465475171476 -0.0112067952429895 0.0194773073210596 0.2694542 -0.8968366 0.3508256 111 111 111
0.0571135075693264 0.00138868862405839 0.0234678134467461 0.6763279 -0.6871629 0.2653068 59 59 59
-0.0339383327702897 -0.0150139202770678 -0.00248839193050104 -0.08205345 -0.9934093 -0.0800328 108 108 108
-0.0572245646563088 -0.00552212236523042 -0.008046156033438 -0.9967446 -0.08053026 0.003876672 77 77 77
0.0277258336921312 0.00322804108108099 -0.0213170929640867 0.06616276 0.113919 -0.9912845 129 129 129
0.0476069967957949 0.00991759152479288 0.00143796575675442 0.003092794 0.8744861 -0.4850408 25 25 25
-0.0321035000717185 0.0283165841314941 -0.00836063085317046 0.4619264 0.886692 -0.02003026 55 55 55
-0.00959004657910656 -0.0158467790537733 -0.0105679925984023 0.008603009 -0.9985931 0.0523239 133 133 133
0.000402586808574745 0.0200046181009095 -0.0177791645823895 -0.07282633 0.9806359 -0.1817951 64 64 64
-0.0564714741264665 0.0152051011733214 -0.000656783511070735 -0.946712 0.03765689 0.3198723 42 42 42
-0.00602132128855637 0.0187858735704651 -0.00541373895983982 0.1587796 0.9786959 0.1301665 31 31 31
0.0278216659550113 -0.00976332228100585 -0.00058851686149336 0.3908755 -0.9164849 -0.08527495 105 105 105
-0.0311598302357061 -0.0165233764614723 -0.0152521266494187 0.0001549174 -0.9999799 -0.006347029 89 89 89
-0.0540020619133098 -0.0159777058356914 -0.015119746412498 -0.3137314 -0.9411015 -0.1260976 95 95 95
0.00512533406428972 -0.00648476400417697 -0.0245515097412045 0.08786546 0.04450624 -0.9951376 85 85 85
-0.0243484586624477 -0.017784714449121 0.00940605762754815 0.108151 -0.9852728 -0.1324423 71 71 71
0.0254930983169771 -0.00526573116935758 0.0284145220424312 0.2323904 -0.9273651 0.2932383 88 88 88
0.0438361505596027 0.00673222876113955 -0.0165676527123876 0.1136634 0.8929761 -0.4355161 34 34 34
0.0444535237198577 -0.00533781341093675 0.0172420732697824 0.3285535 -0.9443322 -0.01700864 112 112 112
0.056366516392796 -0.000444151477724919 0.00672124904858989 -0.02124794 -0.9902793 0.1374606 106 106 106
0.0544090805673979 0.00500760194325389 -0.0192512561292199 0.1265733 0.7872202 -0.6035425 80 80 80
0.0562410209880072 0.00761586715022933 -0.00552369619792142 0.03323577 0.9770322 -0.2104836 47 47 47
-0.0146413372411062 0.00691296706985001 -0.024412867998091 0.005868971 -0.01931248 -0.9997963 72 72 72
-0.00760276505289659 0.0179791327733865 -0.00214410054799358 0.265653 0.9582273 0.1059667 25 25 25
-0.0557703376293206 0.0358163705652292 -0.0129674919399131 -0.5448735 0.4655965 -0.6973757 105 105 105
0.0220575803292941 -0.0131178912523127 -0.0210312666501885 0.1867052 -0.967881 -0.1683673 51 51 51
-0.0259831908875285 0.00811427793155395 -0.0248084594470295 -0.01096095 0.09984544 -0.9949426 90 90 90
0.016566416951786 -0.0137930394737935 -0.00248611076948163 0.2256493 -0.9740212 -0.01910793 115 115 115
0.0329715676356594 -0.00177419425748226 0.0343086343934157 0.1129418 -0.9019514 0.4168066 115 115 115
0.0605386249549872 0.0015937477225807 0.017757194670194 0.4313645 -0.8526469 0.2948186 80 80 80
0.048677354327581 -0.00290854497226678 0.0209585085622572 0.4494661 -0.8901427 0.07500812 95 95 95
-0.0234780782870732 0.0225177991539207 -0.012677779327897 0.3489964 0.9112775 -0.2185743 44 44 44
-0.0307086026583244 -0.0151796948904892 -0.0073120338960479 -0.0440839 -0.9952361 0.08695805 100 100 100
0.0161521487059949 -0.013455837757324 0.0115881349042897 0.1810959 -0.9731492 0.1420734 88 88 88
-0.0416865047344307 -0.0158728776570956 0.00348262855637554 -0.1181129 -0.9650977 -0.2337431 108 108 108
-0.00968371491840614 -0.008482660264717 -0.0248513646777724 -0.01105649 -0.07393771 -0.9972016 31 31 31
0.0220714724728672 0.00515843972803509 -0.0220815340015969 0.1035529 0.04520126 -0.9935963 32 32 32
-0.0541342262932293 0.0358168674653321 -0.0146522057147997 -0.2796977 0.5058609 -0.816011 79 79 79
0.044649120623572 -0.00467843669708801 0.0110201468379645 0.4434429 -0.8918042 -0.08968621 34 34 34
-0.0188373003586468 -0.016756531431152 0.0115135861743439 0.1124909 -0.9932898 0.02685383 74 74 74
0.000384385008457389 0.0165714697011121 -0.0248410537822945 -0.1341783 0.2645359 -0.9549958 108 108 108
0.0333076730737891 0.0163546930390508 0.00911415127221454 0.09132463 0.9578469 -0.272377 64 64 64
0.0402909120513008 0.0118604044214685 0.00291878630432013 0.110324 0.7898524 -0.6032925 50 50 50
0.0518428799693851 0.00942519331201264 0.00422389337344581 0.2086987 0.9520923 -0.2235285 61 61 61
0.00708444492054039 0.0202928558390736 -0.0113624221250235 0.1022208 0.9947381 -0.006855682 85 85 85
-0.0154752584695579 -0.0157898646578272 0.0210458544221795 0.2171265 -0.9438848 0.2488725 36 36 36
-0.0326782432427258 -0.0150227448565918 -0.00362139830814162 -0.07379673 -0.9967377 -0.03268063 104 104 104
0.00927581267786992 0.0144029593450345 -0.0250814351627843 0.2279713 0.3017472 -0.9257309 135 135 135
0.00859831953429591 0.00409897995565434 -0.0250351627536775 0.1362013 -0.1095461 -0.984606 83 83 83
-0.0383216843468686 0.00639850573621681 -0.0217192192796814 -0.2913646 0.07120249 -0.9539585 58 58 58
0.0333925801884444 0.0101678701282584 -0.00974171190405143 0.4373607 0.8837605 -0.1663819 9 9 9
0.00550612645393977 0.0210659150872661 -0.0157962121359542 0.0572109 0.9891572 -0.1352588 40 40 40
-0.0199712926022648 -0.0167757331973866 0.0209846876642326 0.1479911 -0.9637884 0.2218343 91 91 91
-0.0500729751156949 0.0058363496992051 -0.0191103523597226 -0.0776364 0.01071692 -0.9969242 37 37 37
-0.0579005405299948 0.0248271051700257 -0.00449796101586858 -0.9895931 -0.05271906 0.1338884 45 45 45
0.0655258272416823 0.00347938359581579 0.0139194151302749 0.539266 -0.8168119 0.2049647 125 125 125
0.0374746764360062 0.0133447592468563 0.0150574491886189 0.3559333 0.906073 0.2287862 32 32 32
-0.0292605998313289 0.00795298451969217 -0.0245923399640686 -0.1804002 0.06820275 -0.9812258 54 54 54
0.0646313628722535 0.00198479684227792 0.000554184007649339 0.498791 -0.8662682 -0.02805116 57 57 57
-0.00743731553649207 -0.01622843876223 -0.00866297483281214 -0.04585583 -0.9977148 0.04962288 85 85 85
0.0616107734817614 0.000118744197342258 0.00372289074700133 0.3837661 -0.9233932 -0.008275717 71 71 71
0.00621138706623525 -0.0102185633780765 0.019325856534763 0.04911248 -0.9140594 0.4025958 53 53 53
-0.0139842772131888 0.0201761493196728 -0.0183233983659011 0.09330742 0.9368404 -0.3370813 56 56 56
0.00778088748063865 -0.016061196240071 0.0012973159342114 0.1040237 -0.9913369 -0.08018807 118 118 118
-0.0429230968269874 0.0159817391206338 -0.0205759190592491 -0.1340773 -0.03053578 -0.9905003 44 44 44
-0.00126940738687398 0.0191782750251481 -0.0147825841379325 -0.09103261 0.9957455 0.01427939 68 68 68
-0.00609894753249474 -0.0163438884702449 -0.018164202259985 0.1396434 -0.977257 0.1595884 87 87 87
0.0310773493949102 -0.00773918015858088 0.0193766429613897 0.09599651 -0.9520242 0.2905762 88 88 88
0.0304685160875354 0.00936030666146137 -0.0186086474068763 0.4619976 0.6259151 -0.628322 100 100 100
-0.0568625290191174 0.00245381753126384 0.00128071581482198 -0.967845 0.02484539 0.2503174 68 68 68
0.0612056165468792 -0.00138513273827079 -0.0131911473249121 0.5400396 -0.8357344 0.09952484 69 69 69
-0.0391038845025734 -0.0177160497057269 0.0175203738711954 -0.1002019 -0.9645262 0.2442312 39 39 39
0.0663357872832869 0.00304248771960203 -0.00600933300689072 0.4468145 -0.8940625 0.03176724 67 67 67
-0.0256065869527412 -0.0175565044874653 0.00799610680239521 0.08585682 -0.9824761 -0.1654366 92 92 92
-0.0102176460706079 0.00204158919491282 -0.0247355698601092 -0.04033178 -0.0086878 -0.9991485 93 93 93
0.0160358737821574 0.00343090079051667 -0.0231669127140195 0.2909866 0.002935501 -0.9567226 115 115 115
0.005831514189646 -0.0158410774480027 -0.0192524576162651 0.07985455 -0.9936603 -0.07913579 124 124 124
0.0247168323084469 0.0146133909975668 -0.010897482467049 0.3888381 0.9059016 -0.1677715 23 23 23
0.0285772752929927 -0.0104011572896334 -0.0144414313362517 0.4692395 -0.8823218 0.03636792 101 101 101
0.0175022176289965 0.00440084050422929 -0.0225281808921675 0.2845628 0.01604338 -0.9585232 107 107 107
-0.0566425170189109 0.00217694805772273 0.000854743917887146 -0.9752436 -0.009877157 0.2209126 77 77 77
-0.0381760540282998 -0.0159652598765891 -0.00828314804219182 0.1559657 -0.9765047 0.1487051 47 47 47
-0.0317295551937233 0.025075285523589 -0.0191590090896758 0.3364048 0.6635219 -0.6682593 93 93 93
-0.037964576721913 -0.0147862037726529 -0.00424910732686751 0.07708015 -0.9860758 0.1473541 70 70 70
0.0381581086709529 -0.00650448160577755 0.0136299151682744 0.2088666 -0.9774745 0.03030469 124 124 124
-0.0473094078070722 -0.014359063040791 -0.0222129517867092 -0.2811218 -0.4166593 -0.8645031 90 90 90
-0.00449892226138005 -0.0145562594889885 0.0136210746538893 0.1670566 -0.9807932 0.1006813 124 124 124
-0.0569021990818832 -0.0103406961548571 -0.0133973450762996 -0.9790092 -0.1762969 0.1022757 56 56 56
-0.0518673152269582 -0.0154226107555042 0.00454769791013471 -0.2387874 -0.9663193 0.09595611 131 131 131
0.0293251032731259 -0.00802276641346356 -0.00639106494791303 0.4559006 -0.8893566 0.03463496 80 80 80
-0.0113899701364339 0.0200256731032455 -0.0153523250272257 0.1263709 0.986782 -0.1014479 68 68 68
-0.0575113309777129 0.000693248453504713 -0.0092810719211312 -0.9904717 -0.1312667 0.04165302 68 68 68
0.0361492630437963 -0.00459083516775194 0.0271087774999663 0.1070556 -0.9055009 0.4106181 70 70 70
0.042120218592485 0.0063241278455175 -0.0187547928811007 0.1126795 0.6621549 -0.740847 73 73 73
0.0345860427792124 0.0111018681969544 -0.001139435224285 0.4013567 0.8894096 -0.2187771 48 48 48
0.0279418715416953 -0.00418838138544686 0.0304956370090816 0.1896625 -0.9284938 0.3192607 88 88 88
-0.0130464808234344 -0.00234437977907676 -0.0245958438795131 -0.02615497 -0.07099762 -0.9971335 154 154 154
0.00384911488685646 0.0167497517493416 -0.0246485489294125 -0.05079786 0.3674757 -0.9286448 84 84 84
0.0116524149987233 -0.0148347582137567 -0.00460894489321001 0.1737213 -0.9827175 -0.06393129 113 113 113
-0.0384748823149265 -0.0161599594380304 -0.0136578981908003 0.07083289 -0.9968078 0.03683575 108 108 108
-0.0161624310929672 0.0212631637065372 -0.00746403918502209 0.3340993 0.940861 -0.05619776 29 29 29
0.00794408020243098 -0.0142215917526312 -0.0241294429849928 0.06274703 -0.4954912 -0.8663436 68 68 68
-0.00660627084961163 -0.0118201228627779 0.0233792678931413 0.3039203 -0.8797488 0.3656153 62 62 62
0.00482282564106395 -0.015947518924935 -0.0216833618139183 0.03711708 -0.9439994 -0.327853 65 65 65
0.0190451169385447 -0.0104747308234092 -0.0234086353616963 0.2971185 -0.2796941 -0.9129577 66 66 66
0.0157178675772217 -0.0140295400131938 -0.00483897280784745 0.1977633 -0.9789259 -0.05092771 110 110 110
-0.0312836648334761 -0.016400144142749 -0.0166508490098319 -0.02178935 -0.9905365 -0.1355089 104 104 104
-0.038455016411612 0.0269439331143981 -0.0198402862035842 -0.04981185 0.5319871 -0.8452861 65 65 65
0.058445048318378 -0.000243344798069867 0.00855638497373407 0.03438045 -0.9931668 0.1115244 81 81 81
-0.0404244733923561 -0.0110914922877081 -0.022956261490144 -0.0225403 0.04370807 -0.99879 60 60 60
0.0013242551186885 0.00740782352708602 -0.0249112202312229 -0.08024381 0.1436744 -0.9863664 147 147 147
-0.0567127081203345 0.0318337331728167 -0.0116833562073461 -0.7890292 0.2401829 -0.5654601 44 44 44
-0.02682181653008 -0.0158349444398207 -0.00144902096740668 -0.03900059 -0.9880682 -0.148997 108 108 108
0.0672255536952953 0.002954554289335 -0.0197633779266755 0.4996334 -0.8639205 0.06330738 108 108 108
0.0145740712304261 0.0138782707830494 -0.0221089583117696 0.449339 0.4678824 -0.7610391 93 93 93
-0.0176057644857728 -0.0169350861627533 0.0191000283470142 0.1855028 -0.9704897 0.1540726 75 75 75
-0.0247389899214162 -0.000661069951775506 -0.0245397346032647 -0.09117182 -0.1062656 -0.9901491 137 137 137
-0.0385466985905781 -0.0158563607296847 -0.0220212562380549 0.1008152 -0.7873994 -0.6081434 107 107 107
0.0419797372744803 0.0105844039883343 0.00215798933901074 0.08959225 0.8331915 -0.5456786 45 45 45
-0.034440813483701 -0.016168460071651 -0.0118011241523021 0.01511932 -0.9932364 0.1151208 97 97 97
0.02355060581983 0.00458379727545499 -0.0218054507030312 0.1251552 0.05443449 -0.9906427 67 67 67
0.0422984645419469 0.00753892337382656 -0.011799667739805 0.1072284 0.9884074 -0.1074846 45 45 45
0.00463674259428482 -0.0163493219215762 0.00295492382643042 -0.02745949 -0.9995713 -0.01015802 162 162 162
0.00934973548702656 0.019407446821021 -0.0179264953542377 0.2983886 0.9154522 -0.2700212 64 64 64
-0.0535270950140995 0.0232835328753114 -0.0176209322147209 -0.09569686 0.284018 -0.9540314 44 44 44
0.0148932401672209 0.0190818515450388 -0.00743684744638345 0.3313292 0.9396197 -0.08564959 31 31 31
0.0685616118368081 0.0032173111624505 -0.00914296731790537 0.468053 -0.8836542 -0.009037957 79 79 79
-0.00676362245120465 -0.0157347508376653 0.00654115045358977 0.1131628 -0.9801365 0.1628699 42 42 42
0.0351121846691784 -0.00555211327555205 -0.0144081918852241 0.5145924 -0.853181 -0.08530402 86 86 86
-0.00334686119786309 0.00610230297690162 -0.0249508213906786 -0.05684445 0.1589894 -0.9856425 72 72 72
0.0280797013591007 -0.00890254434080329 -0.00608520859181111 0.4928173 -0.869514 0.03280864 90 90 90
-0.0413395579006568 0.00779957999972702 -0.0205659842510993 -0.2642319 0.09405313 -0.9598622 40 40 40
-0.0338038532525941 -0.00919291786349175 -0.0230596792960164 -0.1077335 -0.05865081 -0.9924483 47 47 47
-0.0198821786451366 -0.0166980908501582 -0.000317509512869629 -0.03828726 -0.993306 -0.1089827 105 105 105
-0.00946768810254173 -0.0156557672816349 -0.0141236762298847 0.03916644 -0.9975101 0.05864891 74 74 74
-0.0177694933505985 -0.0169135614091367 0.00350309871507998 0.0105772 -0.9974848 -0.07008695 100 100 100
0.0462568751472037 0.00870935106882476 0.000480967657805531 -0.007501011 0.8913575 -0.4532388 57 57 57
0.00418493990474067 -0.0091426636518166 0.0238840437094035 0.1417986 -0.9465717 0.2896466 43 43 43
-0.0502032724354653 -0.0151307955288278 0.00544356593390311 -0.07445634 -0.9951552 0.06420597 127 127 127
-0.00744960243407322 -0.00784586294993384 -0.0244434052836728 -0.04155577 -0.04771504 -0.9979962 134 134 134
-0.0200199581017271 0.0225654392622414 -0.000112406373970086 0.3260149 0.9448228 0.0320005 16 16 16
0.0182769452521868 -0.0134139859475499 0.00168403711275217 0.3192633 -0.9455537 0.06323947 95 95 95
-0.0248320877604972 0.0157796622979074 -0.0229736758516514 -0.05723292 0.3238807 -0.9443652 63 63 63
-0.0394557582128731 -0.0124323228862242 -0.0228868574881934 0.01114673 -0.2286978 -0.9734337 52 52 52
-0.0283422603191869 -0.0160181682135911 -0.0120216486846248 -0.03563161 -0.9906161 0.1319477 72 72 72
0.0340852962726841 -0.00696475401180097 0.000410088552539489 0.2858472 -0.9512449 -0.1158644 111 111 111
-0.0013375864424644 -0.0135462791849834 0.0154756809607042 0.2136107 -0.9614864 0.1729576 77 77 77
0.0634932256082842 0.00117971653106896 -0.010474612096201 0.5361158 -0.8383105 0.09907278 77 77 77
-0.00748401548413902 -0.0109343848462617 0.0274658983973755 0.2930963 -0.9007878 0.3204308 87 87 87
-0.00862496699161608 0.0130610575154304 -0.0238067238896433 0.05440115 0.1066606 -0.9928061 55 55 55
0.0262598713943637 -0.000996650514166975 -0.0217446390054287 0.1086776 0.06994983 -0.9916129 87 87 87
0.0288356902448677 0.0128455378940793 -0.00970880748031239 0.447232 0.8708138 -0.2041245 44 44 44
0.000264717397961967 -0.0152954675094383 0.00339611477676177 -0.02923059 -0.9995363 0.008531064 130 130 130
-0.0144185605671242 -0.0163237196604764 -0.0163200528075979 -0.007648827 -0.9985475 0.05333278 97 97 97
-0.0499413588033506 -0.0161442446793194 -0.0153198116243389 -0.08310995 -0.9965277 0.005019176 115 115 115
0.0631960347573706 0.0034227849884374 0.0156149024014978 0.4664975 -0.8675659 0.1723644 86 86 86
-0.0572273802936716 -0.00616561056789333 -0.00958601737472525 -0.9961897 -0.08695104 0.006759242 65 65 65
0.0315765303145115 0.0160193193786555 0.0159644265289262 0.3308463 0.9434944 0.01895057 30 30 30
0.0446896343652768 0.0117770922462259 0.00358903755596623 0.1168914 0.8207889 -0.5591439 50 50 50
0.0652631687664708 0.00824496304913991 0.0012566345694443 0.6728458 0.7363921 0.07074644 91 91 91
-0.0290566012162853 -0.0165947965789155 0.00239174993435626 -0.07590515 -0.9719435 -0.2226304 96 96 96
-0.0286377527872008 -0.0115906912139996 -0.023621516265074 -0.1215815 -0.3403575 -0.9324026 58 58 58
0.0427648047046377 -0.00579956117347469 0.0121065489348747 0.3097923 -0.9501018 -0.03654122 122 122 122
0.0151699862469102 0.00802715033760237 -0.0233193574301642 0.3378637 0.06933395 -0.9386378 93 93 93
-0.0443854141422966 -0.0165310123229656 -0.0113162433095653 -0.03523787 -0.9993442 0.008330218 89 89 89
0.0308626209814268 -0.00786198829431428 -0.00909348802211246 0.4946206 -0.8634945 0.09862938 56 56 56
0.000263674516414292 -0.0155724971834079 -0.00552336385581348 0.01582921 -0.9988472 -0.04531858 136 136 136
0.0258541677876365 -0.00949165096725224 0.00985871713909897 0.2175197 -0.9722196 0.08645342 70 70 70
-0.0585418223880474 0.0123087307303762 -0.00816481587354706 -0.9827873 0.1494671 0.1085765 31 31 31
0.0205248807093398 0.0158571079154044 -0.00301958568709376 0.3128572 0.9480491 -0.0576482 47 47 47
0.0452839829064843 -0.00464967679482098 0.0230736665092874 0.3049178 -0.9234853 0.232809 78 78 78
0.00356393100912589 -0.0154300156501355 -0.0101441393881305 0.002847469 -0.999407 0.03431489 96 96 96
0.0188712040625399 0.0175420584356447 -0.00411449563391436 0.3465974 0.9362177 -0.05802237 28 28 28
-0.0532500675575043 0.0197883671207515 -0.0185193969561538 -0.139891 0.2562467 -0.9564351 34 34 34
-0.0414445950771236 -0.0165965095920391 -0.0124661695175787 0.05306574 -0.9985908 0.0007460159 121 121 121
-0.0571658527338375 0.0213057554585561 -0.00511635212724709 -0.9836792 -0.0749235 0.1635898 50 50 50
0.0576861232453281 0.00148571532813402 0.0216914411832635 0.6135063 -0.7347549 0.2893876 50 50 50
0.0153782128442375 -0.00833965857760055 0.0263995960928702 0.1129638 -0.9158426 0.38532 19 19 19
0.0119048665082609 0.0142643336309007 -0.0243718437933759 0.4239161 0.4049309 -0.8101396 101 101 101
-0.0116360671242042 0.00725674354260586 -0.0246431669568157 0.01144199 0.04804004 -0.9987799 107 107 107
0.0112756934984845 0.0199645794074472 -0.0114277753126112 0.2838977 0.9553734 -0.08163178 65 65 65
0.0410199993215168 0.00809790468987059 -0.00579064135076218 0.189586 0.9765997 -0.101539 20 20 20
0.0242946238178544 -0.00960576550194681 0.0124725045741065 0.3390046 -0.9377573 0.07541324 76 76 76
3.21145326428462E-05 0.0120083393009003 -0.0238060136795584 -0.1041885 0.04294571 -0.9936299 146 146 146
-0.0465061458040152 -0.0152244713535299 -0.0226455225145268 -0.2287027 -0.5262012 -0.8190283 111 111 111
-0.00143519978250473 -0.0155669836008001 0.00521016554185899 0.00989231 -0.9976603 0.06764726 75 75 75
-0.0378495499072663 -0.0161274992923635 -0.0204391904045079 0.17809 -0.8715945 -0.4567351 89 89 89
0.00947592776278527 0.020185513013786 -0.0123004540878091 0.2236994 0.971207 -0.08194801 50 50 50
0.0406640034584919 -0.00441828091217045 -0.00978068681274119 0.1958458 -0.9800823 0.03291101 58 58 58
-0.0279585367109002 0.00219586834881946 -0.0245924583636528 -0.1701317 -0.1167478 -0.9784811 56 56 56
-0.006846671352843 -0.0152914449026451 0.00947050636766406 0.1957823 -0.9720694 0.1294229 101 101 101
-0.0490962153104408 -0.0154077407545024 0.0181807360378115 -0.3617773 -0.814161 0.4541576 124 124 124
0.04866637854039 -0.00341444255264989 0.0162869417467935 0.5146638 -0.8513615 -0.1015124 125 125 125
-0.00145150750656553 -0.0158795610993074 -0.000645753494190326 0.02281253 -0.9978819 0.06091921 75 75 75
-0.00255267654015034 -0.0158247484357628 -0.0180651475471066 0.09858222 -0.9934874 0.0571347 69 69 69
-0.0464120467774073 -0.0165488767071309 -0.00826960821305028 -0.09048112 -0.9939657 0.06201035 62 62 62
0.0514440418422817 -0.00371957198680839 -0.0183508904031743 0.1428881 -0.9210799 -0.3622084 111 111 111
0.0354450637526936 -0.00740586711912394 0.012174380028484 0.2358187 -0.9713006 0.03105924 86 86 86
-0.0190128674930324 -0.015423100735982 -0.0219418517129118 -0.08344445 -0.8046759 -0.5878211 59 59 59
0.00877015408255799 0.0195449215353842 -0.00580901242884763 0.04524484 0.9839504 0.1726108 40 40 40
0.00120453229139927 -0.0157712566387775 -0.0234107275905578 -0.08020104 -0.7689043 -0.6343138 92 92 92
-0.0476961365900137 -0.0164253380756376 -0.0190080425022561 -0.1439801 -0.9138744 -0.3796094 98 98 98
0.0115135037689739 -0.00764394430059445 -0.0248887278816595 0.06916258 0.02861719 -0.9971949 91 91 91
0.0376944229129653 -0.00509960037293022 -0.006036584039186 0.3300879 -0.9376507 -0.108872 159 159 159
-0.0167097895128531 -0.0160916213556641 -0.00444312601840474 -0.003824716 -0.9906081 -0.1366784 81 81 81
-0.00332976802259943 -0.0160866262401467 0.00327043099707341 0.1140325 -0.9917147 0.05914798 66 66 66
-0.0484888115603916 0.011162022806215 -0.0194126407671104 0.01491698 -0.1250539 -0.9920378 105 105 105
-0.0268576554450229 -0.0180930944581987 0.00933704225358339 0.07364956 -0.9846087 -0.1584978 81 81 81
0.0525225468233007 -0.00344272055934725 -0.020019372324237 0.1071685 -0.7617002 -0.6390054 63 63 63
-0.0127358315653281 -0.016531427852835 0.0138341459326641 0.132344 -0.9858573 0.1028126 110 110 110
0.0126975464763648 -0.0144928501489718 -0.0215565334430377 0.2002801 -0.917613 -0.3433283 79 79 79
-0.0518314850596457 -0.0162630145158178 -0.0093777215888608 -0.09079455 -0.9923143 0.08407472 77 77 77
0.0683338811487505 0.00376128750897253 -0.00706652253346379 0.4695568 -0.8827127 0.01829434 117 117 117
-0.0105642226904301 0.0186951002611409 0.00972501158572531 0.3197146 0.9471344 -0.02681349 21 21 21
-0.0434141102359116 0.000418780004623143 -0.0210974596439735 -0.1507652 0.1105674 -0.9823669 32 32 32
0.0472864543013466 0.00280231498625039 -0.020672328075074 0.03513037 0.1950243 -0.9801691 120 120 120
-0.0481298590038575 0.0169642288672092 -0.0199618587121068 -0.1061589 0.03320565 -0.9937946 19 19 19
-0.0205461911069239 -0.0149416264239794 -0.0229641990828957 -0.03272899 -0.6356718 -0.7712653 103 103 103
0.0319281407976683 -0.00731416517877403 -0.00499425991456243 0.3726653 -0.925316 -0.07007648 103 103 103
-0.00684412152296598 1.14265022290727E-05 -0.024646326497382 -0.04729254 -0.07666848 -0.9959344 26 26 26
0.0415332417995784 -0.00396903017268313 0.0278656938055969 0.1161886 -0.9288662 0.3517211 62 62 62
0.00785541276916646 -0.0149978889380824 -0.0198374693182657 0.1387546 -0.9857579 -0.09501822 46 46 46
-0.0430607418552629 -0.0159307927747028 -0.021857807269997 -0.09124212 -0.6950133 -0.7131839 79 79 79
-0.0552814844420606 0.0166239920974707 -0.000925409003297017 -0.9591707 0.02807745 0.2814306 46 46 46
-0.0404706533951044 -0.0155696189050558 0.00230683470410881 -0.0788684 -0.9678961 -0.2386566 111 111 111
0.0336447293093051 -0.00645344754538746 -0.0142700420991671 0.5648003 -0.8237783 -0.048887 42 42 42
0.047242401804556 -0.00318587032062334 -0.0129603412420733 0.08998877 -0.9888149 0.1189412 120 120 120
0.0138048920320645 0.0164899292035139 0.0157123302805628 -0.1414713 0.9856932 0.09162279 30 30 30
0.038773194731575 -0.00440946431182287 -0.0212362321593965 0.000813112 -0.7217634 -0.6921394 16 16 16
0.0589475169918525 0.000223152495651302 0.0125658860180162 0.2206822 -0.9662103 0.1331801 78 78 78
0.011159612018648 -0.0155313429187647 0.000305646057787434 0.1939742 -0.9772657 -0.08559142 104 104 104
-0.036632330223149 0.00460447859231961 -0.0226347867533895 -0.2834369 0.02950102 -0.958537 46 46 46
-0.000697282253630527 -0.0153428420868356 -0.0219945769564882 0.02281659 -0.8916653 -0.4521198 69 69 69
0.0250093719327596 -0.0104037613825254 -0.0228723714512228 0.2585136 -0.3514499 -0.8998076 97 97 97
0.0507093168371032 0.00822851767456401 -0.00233184395464309 -0.01931337 0.9612381 -0.2750425 45 45 45
0.0088783941164412 0.0208330195096087 -0.00879961935558798 0.1509603 0.9867568 0.05934633 31 31 31
0.0273937534901868 -0.00875328723711255 0.0168937934832556 0.01970913 -0.9713793 0.2367146 86 86 86
0.0132118154521487 -0.0142246968518491 -0.0172545274591476 0.2490295 -0.968494 0.001922743 85 85 85
0.00662560092875997 -0.0025529294875668 -0.0240036469501485 0.05848085 -0.01196969 -0.9982167 86 86 86
-0.0541433655704535 -0.00980635747410652 0.0141013009016387 -0.944262 -0.2960994 0.1438558 87 87 87
-0.00782493227951297 0.016853527588943 0.00818739423894294 0.2890626 0.9564537 -0.04048577 24 24 24
-0.0215917073902693 -0.016872794613112 0.00362662345421721 -0.008833402 -0.9955375 -0.09395219 95 95 95
0.011636035709908 0.0169477346396454 -0.0205937810632571 0.4846924 0.6990269 -0.5257705 100 100 100
-0.0586598992523268 0.0206755141408668 -0.0134011147241127 -0.9912938 0.1316322 -0.003094782 34 34 34
0.0132892495178196 0.00251042846836613 -0.0239705192819444 0.2552598 -0.08610848 -0.9630305 105 105 105
0.0120283881581813 -0.014458346599264 -0.0197587812115232 0.2503906 -0.961035 -0.1171162 91 91 91
0.0505448306888752 0.0107900522569351 0.00240233995767652 0.1281346 0.9285997 -0.3482587 44 44 44
-0.0113051350988277 -0.0128532626448812 -0.0234357612095416 -0.07681648 -0.2811769 -0.9565766 85 85 85
-0.0588902595385663 0.0174969974637544 -0.0172139577465296 -0.8248838 0.1392353 -0.5478871 68 68 68
0.0466625045707709 -0.00330287675843999 0.0256501024760137 0.3378586 -0.9068413 0.2519733 83 83 83
-0.0412772958490899 -0.0167535958858276 0.00917530053935184 -0.1681192 -0.9675804 -0.1884782 91 91 91
-0.00777553946325571 -0.00155737378988308 -0.0246266307762913 -0.05605832 -0.08029132 -0.9951938 82 82 82
-0.0560314320913162 0.0241153205168128 -0.0171390240982335 -0.5128698 0.3827609 -0.7684131 40 40 40
0.030144503690126 0.00689241263311047 -0.020565756071697 0.194719 0.3313847 -0.923184 110 110 110
-0.00696551488130592 0.019855462118896 -0.0131393018751224 0.1027775 0.9939359 0.03909315 44 44 44
-0.00764558692818817 -0.0140023344346061 0.019709818820968 0.276031 -0.9111294 0.3060232 119 119 119
-0.042362213182496 -0.0176002031735334 0.0139956940106052 -0.1531617 -0.9870121 -0.04846119 80 80 80
0.00371827386276102 -0.0013586553527547 -0.023907587143878 0.09930597 -0.0765518 -0.9921079 98 98 98
-0.0451646594503478 -0.0155392042424902 -0.00396920229678249 0.0635445 -0.9801039 0.1880382 74 74 74
0.0207944403927627 0.0149674167092766 -0.0152643606264928 0.3040066 0.9170235 -0.2581623 73 73 73
0.0589870923033835 0.00718921962451691 -0.00734795153132345 0.5886948 0.8057043 -0.0654145 31 31 31
-0.0158540142543416 -0.0168152738566558 0.00421799747713075 0.01374331 -0.9973152 -0.07192715 99 99 99
-0.00653862722356402 0.0178373624556414 -0.00147457128341794 0.2191696 0.9704219 0.1012233 25 25 25
0.0632286914933824 -0.000475997851367982 -0.0151153329014239 0.5402002 -0.8348175 0.1061299 80 80 80
-0.0237138649963657 0.0247587475989686 -0.00310917987417553 0.2874706 0.9562154 -0.05488837 35 35 35
0.0172921534399317 -0.0119502373783662 0.0176324542963297 0.2044927 -0.9399039 0.2734291 123 123 123
0.0388387302490548 -0.00443821415618229 -0.0191246368706184 0.07446078 -0.9608623 -0.2668317 111 111 111
-0.00423989660334956 -0.0117951947819257 0.0217093566164847 0.1804025 -0.8962318 0.4052449 89 89 89
-0.0438079268674593 0.00728913376229445 -0.0202248385455988 -0.2317873 0.1088686 -0.9666552 40 40 40
-0.0348640122709069 -0.0150888124480273 -0.0214791533628602 0.08740326 -0.743973 -0.6624688 185 185 185
0.0529951353374849 8.12212631395859E-05 -0.0203408768503265 0.07694505 -0.1925765 -0.9782606 50 50 50
-0.0412593051173386 -0.0181778729492159 0.0128568854582 -0.1534456 -0.981967 -0.1104322 71 71 71
0.0109253415533349 0.0025281761387268 -0.0246774750694392 0.1638095 -0.1275744 -0.9782082 81 81 81
0.0251157921267848 0.0160161354948658 -0.000839804847528713 0.3020162 0.9490426 -0.09002425 33 33 33
0.0446367150125138 -0.00317142312792673 -0.00780506255572472 0.1409157 -0.9861601 0.08735605 121 121 121
0.0540969481250899 0.000109172611410857 0.0247587146103376 0.5272133 -0.8148009 0.2411341 95 95 95
0.0658185334284038 0.000929006689596612 -0.0197380153902606 0.4459446 -0.8806203 -0.160129 87 87 87
-0.016266089483097 -0.0166660891223034 0.011803052623051 0.06040743 -0.9950822 0.07850075 74 74 74
-0.0278613237783961 -0.0154694565545939 -0.00712080347076066 -0.05633656 -0.9953054 0.07869875 110 110 110
0.0596590093862651 0.00736538037472445 0.00171036085318449 0.6642876 0.7473371 -0.01446264 42 42 42
-0.0231837687835355 -0.00957561855687317 -0.0240918180383571 -0.07725457 -0.09525568 -0.9924505 100 100 100
0.0667623862845099 0.00538761620113215 -0.0098894124418793 0.3303396 0.9438568 -0.003182744 30 30 30
-0.00289941164868301 -0.0160219159164583 -0.00353464940351805 -0.01302608 -0.9996161 -0.02445075 115 115 115
-0.0171982774909931 -0.0173950089914376 0.00720485214145877 0.02617289 -0.9995382 -0.01543531 129 129 129
0.0677107293097634 0.00384059892523525 -0.0136246055147368 0.510401 -0.857756 0.06120009 95 95 95
-0.0518196269715159 -0.0159952429793424 0.00148012550926374 -0.170162 -0.9852213 0.01959202 95 95 95
0.0506658004075052 -0.0028659217996061 -0.0096409823905686 0.07650677 -0.9775061 0.1965415 111 111 111
0.0135574520184338 -0.0140848102442162 -0.00943875058138804 0.2311187 -0.9726188 -0.024428 88 88 88
-0.00887283988427701 -0.0120397757032329 -0.0235173170278317 -0.02928527 -0.2055425 -0.9782099 39 39 39
-0.0486340464641409 0.0258900439379768 -0.0169657056915763 -0.1319733 0.2964829 -0.9458758 51 51 51
-0.0445293735527811 -0.0166212226729239 -0.0190551097739433 -0.07026402 -0.9704008 -0.2310524 94 94 94
-0.0368604125969811 0.0296718350279845 -0.0147503463347557 0.4266912 0.8369101 -0.3428061 65 65 65
-0.0388405458975344 -0.00155656233787083 -0.0222800264875387 -0.2078966 0.07135218 -0.9755449 117 117 117
-0.0489359933273514 -0.0166491533706608 -0.0111413901606794 -0.03860516 -0.9975417 0.05848323 79 79 79
0.0426859383333655 -0.00537450844519083 0.006663573113389 0.4012095 -0.9158244 -0.01722459 107 107 107
-0.0282382653684046 -0.0175631639071556 0.0199099429372244 0.02950401 -0.9659913 0.2568859 80 80 80
-0.033894168470015 -0.00396307857625566 -0.0235907195802773 -0.1517732 0.01116893 -0.9883522 108 108 108
0.0469385509957981 0.00787218189107519 -0.0114449720697711 0.07913552 0.9943783 -0.07035179 55 55 55
-0.0520244280525125 0.00965934857018236 -0.0200013989926971 -0.03066421 -0.1527688 -0.9877861 69 69 69
0.0358084589046508 -0.00259900246490941 0.0307968561995018 0.08555438 -0.9028649 0.4213259 64 64 64
0.0642540299450792 0.00755996167563011 -0.00103851155962781 0.6119687 0.7853913 -0.09303149 97 97 97
0.0408355451945517 -0.00505245889934192 0.0250391019697584 0.1204096 -0.9540389 0.2744291 164 164 164
0.0184867715843333 -0.00948941751243892 -0.0235784170097273 0.1967014 -0.1310735 -0.9716626 81 81 81
-0.040099340493132 0.0264600346352486 -0.0200008191514786 -0.1682049 0.3095345 -0.9358929 30 30 30
-0.0303077793033005 -0.0183766695747314 0.00988456771608986 -0.002646823 -0.9886145 -0.1504474 109 109 109
-0.0154049493599649 0.0206292290349166 0.00609980360185464 0.3891665 0.9182788 0.07289385 30 30 30
0.0330391791182278 -0.00652205418175567 -0.00883499289395789 0.4426747 -0.8964763 0.01922188 92 92 92
-0.0405323628738212 -0.0176911503872963 0.0167404955256216 -0.1290047 -0.9718239 0.1972719 63 63 63
-0.0483780943042261 0.00916179548706908 -0.0193638837211205 -0.02076324 -0.08332504 -0.9963061 85 85 85
-0.0315040202673106 -0.0184476747001567 0.0107037109722547 -0.02299464 -0.9927755 -0.1177626 82 82 82
-0.0543040773067918 0.0284623686329455 -0.016460676987875 -0.3561611 0.2898197 -0.8883433 45 45 45
-0.0206816604053082 0.0106543823576333 -0.0243879625667079 -0.0166245 0.09907833 -0.9949408 60 60 60
-0.0192281782927832 -0.0153018121561781 -0.00838875932173982 -0.01251784 -0.9992985 0.03529822 92 92 92
-0.0492646467523583 -0.0153918522645269 0.00668850630507462 -0.0756889 -0.9942021 -0.07637713 107 107 107
0.0653770624910722 0.00279847604231764 -0.00216661722364903 0.5100449 -0.8598838 -0.02130841 79 79 79
-0.00111875217147683 0.00497541141223312 -0.0254110354059056 -0.03406252 0.07705576 -0.9964448 47 47 47
-0.0390853349786539 -0.0161076803804983 0.00355136054466315 -0.06804284 -0.9573011 -0.2809712 130 130 130
-0.01065253309805 -0.0142296979635099 0.0227181880056148 0.2944613 -0.9007527 0.3192759 124 124 124
-0.0569569381613784 0.0172746138458428 -0.00475995708213423 -0.9810838 0.02421063 0.1920639 45 45 45
0.00602864871042308 -0.0154125629506761 -0.00516557939254508 0.1311252 -0.9896436 -0.05840945 80 80 80
-0.0560144265030358 -0.0147969808623682 -0.00866731212415289 -0.7389404 -0.6735746 0.01626008 153 153 153
-0.0101306940113949 -0.0159591421590657 0.00921409343961638 0.2180666 -0.9745716 0.05154775 80 80 80
-0.0550437943646817 -0.00741313495425322 0.00765150216085525 -0.9818803 -0.09952177 0.1612654 59 59 59
-0.0259764861800748 -0.002613517194475 -0.0242254319833118 -0.1201691 -0.05223268 -0.9913784 120 120 120
-0.0563429027018978 0.0147312336370988 -0.00355785429951444 -0.95353 0.0914963 0.2870695 38 38 38
0.0458620584367417 -0.00284293023139992 -0.00305011505059377 0.2607251 -0.9623904 -0.07633521 119 119 119
-0.0262434049839717 -0.00856960252010364 -0.0240472317201965 -0.1166386 -0.08273672 -0.9897223 73 73 73
-0.044234723343499 -0.0165399034688276 0.00852748272571718 -0.1468846 -0.9701081 -0.1931714 108 108 108
-0.0289315278016012 -0.00552975274699219 -0.0239372115934018 -0.116119 -0.03032609 -0.9927722 85 85 85
-0.00478622314926147 -0.0160977758639467 0.00157244091561864 0.08855351 -0.9960436 -0.007438095 135 135 135
0.0443836328538861 0.0102110278678784 0.00203724109872788 0.07579999 0.8503754 -0.520688 65 65 65
-0.0370686759663971 -0.0144978264339011 -0.0227792938678066 0.05552741 -0.4820796 -0.874366 139 139 139
-0.0327292286536952 -0.0188248693419419 0.0108267228251298 -0.03511734 -0.989141 -0.142712 55 55 55
-0.0216207458409705 -0.00786147108771695 -0.0247010830653416 -0.02078681 -0.02744026 -0.9994073 169 169 169
0.0492082685348582 -0.00162002412768691 0.0264898931978769 0.3752166 -0.8970625 0.2334339 92 92 92
-0.0120620145289349 0.00636693437216751 -0.024898277663389 -0.01226086 0.03274667 -0.9993885 128 128 128
-0.0454365552977228 0.0152861501436166 -0.0204759106571047 -0.1073889 -0.07953748 -0.9910305 107 107 107
0.0338438534064001 -0.00661841750442549 0.0236542950095882 0.1412437 -0.943769 0.298915 95 95 95
0.0234837774147375 -0.0120755312921146 -0.00777693927001272 0.3490993 -0.9355918 -0.05289314 66 66 66
0.00795814065775602 0.0157721697058173 0.0143089987738014 -0.01953818 0.9953132 0.09470946 27 27 27
-0.0248735485033937 -0.0175657996036478 0.0179564228198466 0.08214171 -0.9750804 0.206085 79 79 79
-0.033516806065883 -0.0158021905807901 0.00260436997995855 -0.09952515 -0.9632674 -0.2494207 102 102 102
0.0573859970963027 -0.000470896122283015 0.00546389740836256 0.005315942 -0.9920893 0.1254214 71 71 71
-0.0562955836570875 -0.00134869748526922 0.00545366500870775 -0.9819794 0.04659723 0.1831532 51 51 51
-0.0289453594711354 -0.00741864925208202 -0.0237307988024888 -0.1134526 -0.03736136 -0.9928407 59 59 59
0.0427782283591462 -0.00459335783057435 -0.0194361349079813 -0.08709803 -0.9068857 -0.4122768 43 43 43
-0.053024024259968 -0.0143459622766364 0.012909735306699 -0.6898074 -0.7213853 0.06139259 150 150 150
0.0660634070594778 0.00287071995422616 -0.00097422854640089 0.6400635 -0.7679489 0.02394134 72 72 72
-0.0555089401479243 -0.00899606329878599 -0.0210656201254699 -0.272031 -0.06181531 -0.960301 85 85 85
0.0304307122262951 -0.00706292795259178 -0.0220020738125352 0.3659447 -0.2846682 -0.8860296 103 103 103
0.0255428960822586 -0.00960515834461595 0.00819922120835898 0.2675217 -0.957792 0.1051984 111 111 111
-0.033026709003083 0.0282926223583861 -0.00422136923305211 0.4298846 0.8974605 0.09881265 56 56 56
0.0113643207383799 0.0183195919332768 -0.0183096585093691 0.3911431 0.8606171 -0.3261063 77 77 77
-0.0424084453093589 -0.00410490460253476 -0.021410195641389 -0.1335437 0.1092168 -0.9850065 137 137 137
0.0455185845516618 -0.00122633006435957 -0.021196431709825 0.08291461 -0.1319183 -0.9877868 38 38 38
-0.00623676411011076 0.0193084008343472 -0.0127124545626521 0.06056779 0.9954716 0.07326537 46 46 46
-0.0228658465419916 -0.0146698209254317 -0.0231701565921018 -0.09324947 -0.6522311 -0.7522627 94 94 94
-0.0151999088309055 0.0107525698336359 -0.0244946273865516 -0.009372124 0.08538123 -0.9963043 129 129 129
0.0317806747820549 0.0137761406263359 0.00446282728121589 0.2672835 0.9060418 -0.3280971 51 51 51
0.0299902881052866 -0.00934133827952532 0.0112817441681993 0.1931671 -0.9806028 -0.0332353 102 102 102
0.0227837975901285 -0.0111489109618561 0.0059405324977862 0.3412645 -0.9353674 0.09287862 77 77 77
-0.00249237992277773 0.0109433546488786 -0.0241667074177153 -0.06066188 0.09749509 -0.9933856 119 119 119
0.0355632907834605 -0.00509121793377898 -0.0190958638174926 0.4030202 -0.8774016 -0.2602711 99 99 99
0.0526358519265351 0.000158452142529963 0.00973489343861328 0.2495028 -0.9677554 0.03461035 92 92 92
0.0468728244710198 0.0131753364333584 0.00715600994315607 0.2856188 0.8517778 -0.4391999 62 62 62
-0.0279671958729539 -0.0177023682748383 0.00660597561027149 0.03661353 -0.9797366 -0.1969154 116 116 116
-0.0348498514834816 -0.0148357355057593 -0.00389469716358998 -0.005304507 -0.9998521 0.01635696 104 104 104
-0.00852320583863664 -0.0162724087967729 0.00306855732749106 0.07433376 -0.9968633 0.02716672 101 101 101
0.0408807124668172 0.00787752495470406 -0.011209059137896 0.1315018 0.9885628 -0.07382978 49 49 49
0.0352470501351092 0.00561186159169269 -0.0204420756505496 0.1695129 0.5363232 -0.8268148 81 81 81
0.00351651025641952 -0.0164605455338667 0.00429381064076734 -0.1085739 -0.9940878 -0.001069459 138 138 138
0.048935137606203 0.00534661140893999 0.0249146879721576 0.3301349 0.5815353 0.7435238 29 29 29
-0.00608017356592572 0.0165664953163509 0.00189001743273315 0.2205157 0.9721448 0.07941788 19 19 19
0.0597152151788732 -0.000123699218330886 -0.00282920155112704 0.3923296 -0.9194903 -0.02479966 78 78 78
0.0241150929315151 -0.0098918086658335 0.0102159294595791 0.3566232 -0.9309576 0.07834494 70 70 70
0.0056393343419382 -0.0149906312101269 0.0102352844353614 0.02412419 -0.9392529 0.3423772 55 55 55
0.0286050225132221 0.0152609332707443 0.00270003890933807 0.3101047 0.9376641 -0.1569112 61 61 61
-0.00646589530783714 -0.0142500430025736 0.0180727516786771 0.2343456 -0.93846 0.2537222 86 86 86
-0.0534786615262598 -0.0128820930672529 -0.0196988482788154 -0.3367502 -0.4137208 -0.8458336 83 83 83
0.0351888021339536 -0.00675736072693578 0.00129254057709988 0.2513599 -0.9605528 -0.1189813 157 157 157
-0.0574247130951175 -0.00958191946599674 -0.018652302922149 -0.7367076 -0.1928547 -0.6481273 84 84 84
-0.056287037926118 0.0180861610255199 -0.00139710269326937 -0.9709859 -0.02836066 0.2374491 41 41 41
-0.0544061298261705 0.0145813548585243 0.000270800250670111 -0.9405169 0.04126961 0.3372311 37 37 37
0.0400290416045926 -0.0036385776853729 -0.0179593676894241 -0.04773545 -0.9632533 -0.2643187 102 102 102
-0.00694918082767659 -0.0141270833647689 -0.0233584120678185 0.02977004 -0.4459192 -0.894578 50 50 50
0.0564584320800275 0.00428628680310417 -0.0204730603791674 -0.01512853 0.4096578 -0.9121138 109 109 109
0.0161354828394267 0.0177734986388172 -0.0109949368304547 0.3806824 0.9054635 -0.1876615 65 65 65
-0.0202665189115254 -0.016128067814327 -0.0125381881828536 0.02663436 -0.9829438 0.1819676 119 119 119
-0.018217973860982 -0.0165241255901927 -0.0194546814715804 0.01089716 -0.9663353 -0.2570552 60 60 60
0.0289389831768603 -0.00903724740460432 0.00987223040556323 0.1692963 -0.9854823 0.01278459 89 89 89
-0.0479336556998924 -0.0168904823726408 0.0165543750504816 -0.2896216 -0.9389375 0.1857839 127 127 127
-0.0129943144592506 -0.00566944468065333 -0.0247545242948405 -0.02362653 -0.02201186 -0.9994785 153 153 153
-0.0167631751997491 -0.0164089945503647 -0.0028288837527925 0.009582224 -0.9891449 -0.1466309 105 105 105
0.0572616029695964 -0.000851251246066997 0.00461152382002999 0.02511871 -0.9936303 0.1098535 76 76 76
0.0521811430196468 -0.000272137162719011 0.0128814355894298 0.3438065 -0.9333034 -0.1036428 120 120 120
-0.0122935273457802 -0.0164694834625336 0.0150630408940813 0.1624178 -0.9793357 0.1205075 85 85 85
0.0322615205950522 0.00591693775311941 -0.0210719130404153 0.06091793 0.3587916 -0.9314277 148 148 148
0.000261112836866584 -0.0125173846586126 0.0192174845728415 0.2611403 -0.9011133 0.3461221 110 110 110
-0.0294842964024747 -0.0153885452764233 -0.00691803683155329 -0.04602749 -0.9981044 0.04085469 102 102 102
0.00187472282586643 0.013164058698051 -0.0243178166890104 -0.1032347 0.03310009 -0.9941061 174 174 174
0.0466547874572539 -0.00334061938031871 -0.0100494976494926 0.1074189 -0.9883014 0.1082659 100 100 100
-0.0567748116504048 0.0161906963318668 -0.0050266342471183 -0.9798393 0.08204341 0.1821644 38 38 38
-0.0111040314574925 -0.0157653691763011 -0.00717752783155173 0.006320572 -0.9988342 0.04785727 115 115 115
0.00254825050091501 -0.000761757644293759 -0.0247535833913002 0.1214831 -0.1161252 -0.9857773 153 153 153
0.0199187708097648 -0.011992492535116 0.0112569618281176 0.3611609 -0.9283162 0.08827165 88 88 88
0.0164691975694319 0.0163857487745382 -0.0168287631850827 0.4310805 0.8292837 -0.3556096 29 29 29
0.0280825021991536 0.00802735644803265 -0.0204156355053566 0.2782969 0.2995912 -0.9125766 119 119 119
-0.044697234208555 -0.016707644127395 -0.00773804432404618 -0.03781215 -0.9904017 0.1329458 92 92 92
0.051318572684763 0.00686988015255507 -0.0132600816554612 0.1468743 0.9802074 -0.1327454 39 39 39
0.0663465322423945 0.00466851364428678 0.00857584276677276 0.6287746 -0.766398 0.1314406 85 85 85
0.0556778644834959 0.00983079854896229 0.00719249151706597 0.2405997 0.9669234 0.08468139 41 41 41
-0.0204352758838851 -0.0157416333057285 -0.0108896124088172 0.03422985 -0.9826345 0.1823669 77 77 77
-0.00395052106891092 -0.0164607569532609 -0.0196107998396952 0.1737341 -0.9830678 -0.05825903 77 77 77
0.0212936988032167 -0.0116640203740546 -0.0128647675440898 0.2283786 -0.9732761 -0.02401986 107 107 107
-0.0222732795408029 -0.0172311178886488 0.0101810102256635 0.1279705 -0.990374 -0.05275241 88 88 88
0.047290954069817 -0.00401073306049349 0.0209589486095735 0.3930231 -0.9145239 0.09580617 68 68 68
0.0332494816740363 0.00384844923205274 -0.0211481831608075 0.02222342 0.1682391 -0.9854957 95 95 95
0.064239896402695 0.00197619363628165 -0.00634855576305843 0.4350796 -0.8989043 0.05173865 83 83 83
0.00483589117697525 0.0163500085195023 -0.0245158953907889 0.008418335 0.3343576 -0.9424087 126 126 126
-0.0121385272726146 -0.0168856478228741 0.00549573046772683 0.1206069 -0.9925169 0.01908385 124 124 124
