ply
format ascii 1.0
comment File exported by Rhinoceros Version 7.0
element vertex 468
property float x
property float y
property float z
property float nx
property float ny
property float nz
property uchar red
property uchar green
property uchar blue
end_header
-0.0281148674164986 -0.0032887596612734 -0.0399779016380638 0.006562848 0.1343073 -0.990918 98 98 98
0.0526754547138983 0.0450888632660809 0.028450106703383 0.866779 0.4824555 0.1262171 60 60 60
-0.00272037124410263 -0.0322014715854615 -0.0391612859871061 0.03676048 -0.08936969 -0.9953199 136 136 136
0.045588474914533 -0.0561170672784257 -0.0330029521027674 0.3198144 -0.1305561 -0.9384422 172 172 172
0.028098063014701 0.0554994015319097 -0.0355671555229881 0.1107729 0.1086353 -0.9878905 144 144 144
0.0149860501790373 -0.0826541102082676 0.0307294920031285 -0.04672041 -0.9964146 0.070535 101 101 101
0.0072526289821484 0.00388779234460124 -0.0387311830685255 0.4335113 0.004389945 -0.9011374 161 161 161
-0.0111965409008548 -0.0644469885387728 -0.0289146147420278 -0.06476147 -0.8838122 -0.4633377 152 152 152
-0.00605697203623157 -0.0816382847103045 0.011735834433046 -0.03243178 -0.99874 0.03829606 130 130 130
-0.0584129397916628 0.00100161466934501 -0.0396755810223997 -0.1961222 0.05939906 -0.9787787 183 183 183
0.0585204033965048 0.0785290879770084 -0.0108147206160265 0.92102 0.3781448 -0.09342664 133 133 133
-0.0268411057973585 0.00297871688988116 -0.0393760381131126 0.07448111 0.05518905 -0.9956941 76 76 76
-0.051158340245252 0.0123572820864872 -0.0393625336353763 -0.1462649 0.1172315 -0.9822746 146 146 146
-0.0493696418231635 0.0433505194239898 -0.0394599195267512 -0.1268918 0.1538816 -0.9799076 137 137 137
0.00329632122920076 -0.0172948844343332 -0.0397505110513419 -0.0004115248 0.02742459 -0.9996238 165 165 165
-0.0616193644675498 0.0476201054297611 0.000981807451209266 -0.9197876 0.2155567 -0.3279118 22 22 22
0.0124331193966789 0.0353063582187061 -0.0364898626142952 0.02502258 0.04487729 -0.9986791 153 153 153
0.0531749719009014 0.0620836475617148 -0.0276510299489935 0.4231494 0.3146637 -0.8496655 170 170 170
0.00151483392333818 0.112060493305823 -0.00898732428748672 0.470809 0.8601654 -0.1960979 77 77 77
-0.0240106279370917 -0.0179260940088311 -0.0403967156053552 0.08074508 -0.07938506 -0.9935684 139 139 139
-0.0283506834423797 0.10422206240586 -0.0304922529466896 0.1763638 0.5074458 -0.8434421 82 82 82
-0.015605291536668 -0.0809253981077553 0.00440256017665328 -0.1028793 -0.9934278 -0.05017165 123 123 123
-0.057535958393756 -0.0205420577845064 -0.0356432311371395 -0.749998 -0.1612175 -0.641492 164 164 164
0.026403693954701 -0.0723815669999468 -0.0187871731472394 -0.007923841 -0.896753 -0.4424604 59 59 59
-0.00433632842637266 0.0115521679206223 -0.0394940279741388 -0.05190227 -0.04553737 -0.9976134 188 188 188
0.0207653234216356 0.0924318257480812 -0.0321816263359846 0.2399132 0.5430391 -0.804705 163 163 163
0.0155770474819614 -0.0104305172617105 -0.0396099783374207 -0.05634262 0.2104513 -0.9759794 189 189 189
0.0523581668421769 0.0603111651717929 -0.0283283354660189 0.4120318 0.2714625 -0.8697919 171 171 171
0.0300958375421132 -0.0325673044178916 -0.036847491396707 0.07654257 0.0006137972 -0.9970661 140 140 140
-0.0818489207440085 -0.0517801477238002 -0.00102668652079393 -0.9401343 0.2221916 -0.2584149 179 179 179
-0.0402631850623587 0.110143126400051 -0.0217004785935302 -0.2023547 0.9436187 -0.2619855 27 27 27
-0.0468773571441252 0.101445723402003 -0.0310033211744868 -0.1615057 0.07416657 -0.9840809 155 155 155
0.0666199256872164 -0.0389958818926928 0.00641850124672813 0.9984022 -0.0557809 -0.009032439 120 120 120
0.00977643116936378 0.0583495888331715 -0.0361561464506073 -0.07263374 -0.0904754 -0.9932465 119 119 119
0.0376331346388459 -0.082455515382531 0.0489989524822328 -0.1430288 -0.964394 0.2224569 87 87 87
-0.0334817840803296 0.106772599157902 -0.0305055789521293 0.2143981 0.5152395 -0.8297962 71 71 71
-0.0322015524119861 -0.0641517663799358 -0.027695816134605 0.1027988 -0.9206759 -0.3765478 131 131 131
-0.0745519807220472 -0.0657008564755188 -0.0301516172883094 -0.8497577 0.2813391 -0.4458252 78 78 78
0.0621427262087351 -0.0314957011738208 -0.0206477289082335 0.8886775 -0.1737637 -0.4243329 110 110 110
0.01022356393733 0.0390298665448752 -0.0365716978537652 0.09082614 0.2001483 -0.9755467 113 113 113
-0.0204605204236716 -0.0043473448023903 -0.0405811684906411 -0.01475866 0.1107828 -0.9937351 188 188 188
-0.0653337880905682 0.00431156543624112 -0.0332653249089957 -0.9620131 -0.1319231 -0.2390127 106 106 106
0.0281231933365631 -0.0497004323355703 -0.037334930330896 0.1817158 -0.1711754 -0.968338 144 144 144
0.0106496134051128 -0.0505620974394612 -0.038846702862348 0.1374414 -0.08576833 -0.9867896 169 169 169
-0.0564119665756624 0.114688046078181 -0.0110656707062821 -0.1928935 0.8892777 -0.4147015 32 32 32
-0.0580022638747759 -0.0794415604748369 -0.0211878805752651 -0.1189967 -0.9889062 -0.08890611 122 122 122
0.0449384381672835 0.0933075778475494 -0.00226366607906567 0.5412756 0.6838807 -0.4892115 95 95 95
0.0141178719372927 -0.083929207919021 0.0129646784793038 0.04632026 -0.9977624 0.04821521 137 137 137
-0.0651370391406743 0.0156572870106724 -0.00198983859993271 -0.9619171 0.05746178 -0.2672332 37 37 37
0.0324478174649312 -0.00353885985959779 -0.0386018443072909 -0.007569759 0.04865326 -0.998787 125 125 125
0.0398597368223186 -0.0838434715517022 0.0260435577080085 -0.0396685 -0.9956581 -0.08420994 94 94 94
0.0631401376008061 0.0186690672382877 -0.00389448853588406 0.9897239 0.0434528 0.1362296 101 101 101
0.0567335790416905 -0.0753756088900925 -0.0165368483513793 0.1805092 -0.5542742 -0.8125248 144 144 144
-0.00699108018453209 0.108536429586968 -0.0166709046039688 0.1219388 0.7531533 -0.6464449 91 91 91
-0.0137696966547538 0.0856308597588342 -0.0399420746319047 0.08466194 0.07447343 -0.9936227 196 196 196
-0.0603804083544133 -0.0571099480935875 -0.0361958865217317 0.08844671 -0.1144808 -0.9894803 129 129 129
-0.0565591882577996 0.110759189253986 -0.017322004167616 -0.5175936 0.7156938 -0.468913 84 84 84
0.00947406060249412 -0.0485481605723219 -0.0390789985385394 0.09383963 -0.06182513 -0.9936658 169 169 169
0.0184698514469521 0.102786331923979 0.00744329662076509 0.1738648 0.9838412 -0.04274791 58 58 58
0.0560491078197969 0.0447633008397308 -0.0278508059713356 0.6342651 -0.009484999 -0.7730575 158 158 158
0.0585314656254776 -0.0500638981972406 0.0482596794615143 0.9696882 0.1878806 0.156223 28 28 28
0.0487783447920727 -0.00434578124948248 0.0442447436538905 0.7611176 0.1466526 0.6318172 39 39 39
0.0618367320862538 0.0284709968491801 -0.00628205143398272 0.9797751 0.1205682 0.1596997 96 96 96
-0.0133577441908441 0.00392310539768737 -0.039305776122325 -0.05759336 0.09848738 -0.9934703 81 81 81
-0.0157880991312531 0.105597366833222 -0.0257255073461924 0.1794637 0.8274322 -0.5321172 84 84 84
-0.07723317852777 -0.0436790302926473 -0.00922760755475177 -0.8772978 0.3081706 -0.3679393 116 116 116
-0.0688991356462201 -0.0292048169500723 -0.0195017766614514 -0.7783633 0.2190825 -0.588348 82 82 82
0.0307195053388263 -0.0839995949110552 0.0333870543876736 -0.07807381 -0.9935849 0.08181424 61 61 61
-0.0576758553936076 0.0726726042261117 -0.0137544798996462 -0.9212386 -0.1142191 -0.3718514 37 37 37
-0.0394557454598354 -0.0236304671672514 -0.0392019999663758 -0.2347607 -0.0867093 -0.9681782 128 128 128
-0.0770436886448613 -0.0331845940014746 0.00854849130213894 -0.7585688 0.4596894 -0.4617999 52 52 52
-0.0631156540848288 0.0403881509903385 -0.00140217577756596 -0.9695362 0.1593594 -0.1860217 42 42 42
0.0650944274862209 -0.00883727091113662 0.00299306856163481 0.9966432 0.06205674 0.05339708 137 137 137
0.0242915242672193 0.0348317237597489 -0.0373289292632152 0.04671583 -0.0387422 -0.9981567 137 137 137
0.00165291040047366 -0.0203706060072006 -0.0395842148514714 -0.1296873 0.02698724 -0.9911876 121 121 121
-0.000141863260223918 -0.0402949124182777 -0.0395997224981721 -0.1126061 0.06939839 -0.9912133 163 163 163
0.0655205454529137 -0.0346102606359096 0.0273257861605244 0.995027 0.09830888 0.01602097 111 111 111
0.0492506891672724 -0.0842844899104411 -0.00846893178036784 -0.1165691 -0.7767404 -0.6189394 106 106 106
-0.010162996463329 -0.0380488517435047 -0.0390890238712045 0.03553129 -0.1402223 -0.9894823 172 172 172
-0.0643167713600779 0.0864335242548484 -0.000818058647406361 -0.8796869 -0.1282149 -0.4579432 34 34 34
0.0518855913220766 0.0455959436384348 0.0307214030470949 0.8910063 0.3664358 0.2680162 31 31 31
-0.0571695978516091 0.0473878564473282 -0.0362467473518157 -0.7116151 0.06959121 -0.6991144 157 157 157
0.00317291210602599 0.0303076720974369 -0.0370922768564404 0.01779829 -0.06971765 -0.997408 142 142 142
-0.0445344150622722 0.0665152749405433 -0.040386885828132 -0.08259644 -0.124411 -0.988787 173 173 173
-0.0383596346646784 0.0867624698234519 -0.0374623077850422 -0.4144996 0.7472607 -0.5194146 88 88 88
0.0577378946523175 0.0373222903184978 -0.0266432888896287 0.7489305 0.09073612 -0.656407 157 157 157
-0.0236905804415821 -0.0801445697890142 0.0111066388304476 -0.1171554 -0.9916325 -0.05421915 123 123 123
0.0139838202155924 -0.0762496154872028 -0.0109998630828054 -0.0417584 -0.8276003 -0.5597624 91 91 91
0.0637749497613527 -0.00170084666697035 0.00812653080199571 0.9779989 0.1599316 0.1339405 90 90 90
0.0468867216999937 -0.029421337000195 -0.0345246142341013 0.282807 -0.1246719 -0.95104 148 148 148
-0.0150614528884474 0.0461205023855338 -0.0375831574553189 0.08811775 -0.163266 -0.982639 113 113 113
-0.0227237665062971 0.00721599233561077 -0.0391897601670751 0.0450255 -0.02975918 -0.9985425 85 85 85
-0.0566168758415215 0.0578401285891541 -0.0357162019478854 -0.846166 0.2315689 -0.479978 99 99 99
-0.0290651695389452 -0.0787336624356969 -0.00528579356546754 -0.07346002 -0.7936425 -0.6039332 117 117 117
0.00965496818465983 0.0322379961196086 -0.0372215375678584 0.1438086 0.001541207 -0.9896043 104 104 104
-0.079338961199046 -0.0766919629268823 -0.0123832741426316 -0.3023662 -0.9529921 0.01951086 102 102 102
0.0421887948186872 0.0547917748238251 -0.0328562162723022 0.208048 0.1911323 -0.9592625 153 153 153
-0.0298191709882301 -0.0414644681255896 -0.0391447818822943 0.09970287 0.01148814 -0.994951 102 102 102
-0.0733731426992286 -0.0252888498218153 0.00646624770357215 -0.9800681 0.09824839 -0.1726668 35 35 35
0.0111435773069202 -0.0356802644667973 -0.0390151300108977 0.0952029 0.06555109 -0.9932973 148 148 148
-0.0192761817011569 -0.0602283219527195 -0.0341624336074763 0.001874098 -0.5599316 -0.8285367 131 131 131
0.0598591482174329 -0.0595555251262487 -0.0234181276047863 0.727854 -0.1912549 -0.6585212 146 146 146
-0.0354895671873767 0.112416987351279 -0.0188351944087198 -0.1484027 0.952924 -0.2644099 37 37 37
0.00873379788964224 0.106914799970076 0.0145282976528701 0.4941932 0.8641244 0.09519564 31 31 31
-0.0670784790441137 -0.0184999440110194 -0.0152682549962469 -0.9591878 0.2424504 -0.1455216 45 45 45
0.0638602879596744 0.0041982480631948 -0.00443737844930689 0.9901479 0.1381929 0.02258031 136 136 136
-0.00096891027057211 0.112427413273847 -0.0111335041221615 0.2337384 0.8685459 -0.437029 70 70 70
0.0656893126468074 -0.0745106668015147 0.00826388760437649 0.9932745 0.04500546 -0.1066781 106 106 106
-0.00593373427783872 0.0226006776583554 -0.0389897878694987 -0.09570401 0.1131105 -0.9889625 169 169 169
0.0593440704958308 -0.0665050887270928 -0.0208129751838426 0.5833004 -0.3823058 -0.716661 167 167 167
0.0340124490892397 -0.0656049734273561 -0.030856539393547 0.01338711 -0.5116591 -0.8590842 186 186 186
0.0443082226446454 0.0787577263569887 -0.0222867125763533 0.5430835 0.7477058 -0.3820946 74 74 74
-0.0386635601956984 0.0726124034263607 -0.0410615721376279 -0.03618817 -0.02388958 -0.9990594 160 160 160
-0.0407090578886709 -0.0100804842432622 -0.0391154862683765 -0.08970254 -0.06034056 -0.9941391 179 179 179
-0.0721372049864097 -0.0610976825401348 -0.0323642452509377 -0.7958878 0.2726316 -0.5405873 58 58 58
-0.0541321319760182 -0.0774760315878025 -0.0282059090309023 0.02699232 -0.7130861 -0.7005566 163 163 163
0.0624705363917326 0.0387642093545493 -0.0135001189543798 0.9941816 0.1047106 0.02527019 156 156 156
0.00132926840184888 -0.0824139636604706 0.0181087818906991 -0.1382671 -0.9900085 -0.02766701 118 118 118
0.0276601706766604 -0.0201690552577307 -0.0390715678543392 0.1786231 -0.1689016 -0.9693121 151 151 151
-0.0714346736518667 -0.0328667520355428 -0.0182936508324929 -0.7526101 0.3376902 -0.5652816 73 73 73
0.0523420627617264 0.0666738866630454 -0.026125776659558 0.2990884 0.208944 -0.9310685 182 182 182
-0.0830689110598919 -0.0632638281951345 -0.00517409491508269 -0.9714582 0.1090338 -0.2106671 35 35 35
-0.0744225855116447 -0.0772387128823444 -0.00512210651853087 -0.2381679 -0.9700423 -0.04789426 78 78 78
0.0587513732940468 0.0163956523443431 -0.0269463235136933 0.7448904 0.02977336 -0.6665222 119 119 119
0.0413689692071446 -0.00333841865490103 -0.0380076512644497 0.1956106 -0.08076185 -0.9773505 107 107 107
-0.0161878929340502 -0.011513153965468 -0.0404378224950054 0.08093316 -0.1246834 -0.9888902 150 150 150
0.0230641372144267 0.0980999483174918 -0.0185164498705511 0.5411835 0.7554814 -0.3692808 95 95 95
0.0607360967976893 0.0316648906629826 0.0078727156491166 0.9938872 0.02060156 0.1084612 78 78 78
0.0628795204708696 -0.0350397826733622 0.0381354322467519 0.8972183 0.06211527 0.4371967 45 45 45
0.0583278704796597 0.0661840717883793 -0.0217050522946431 0.8232432 0.1187724 -0.555125 158 158 158
-0.00898562930664903 0.106082706491009 -0.0209038760575016 0.1760644 0.8473428 -0.5010105 80 80 80
-0.0792087377535715 -0.0502532942043197 -0.00888444117494466 -0.9478657 0.2411634 -0.2083044 195 195 195
0.0624708922894817 -0.0700614591034319 -0.016477488089698 0.8330942 -0.3087717 -0.4589271 165 165 165
-0.0852445252933123 -0.0535130732244591 0.0135172471844299 -0.991324 -0.09721708 -0.08846242 57 57 57
0.0116806200295212 -0.0808986674299319 0.0414058341992245 -0.1161757 -0.9658396 0.2316402 83 83 83
0.0638666905205909 -0.00761930869416161 0.0291210452772141 0.9808247 0.0918211 0.1719064 197 197 197
0.00796904122621633 -0.0379711150040258 -0.040152399508893 0.07266809 0.06944986 -0.9949352 196 196 196
0.00446063971206945 -0.038719345520462 -0.0406259481300606 -0.07061087 0.04606618 -0.9964397 185 185 185
-0.0627387279729508 0.0243516290998511 -0.0283470754238468 -0.9651635 0.2359278 -0.1131257 134 134 134
-0.0296766441565772 -0.023720347830122 -0.040405763383203 0.08446579 -0.1058716 -0.9907859 127 127 127
-0.050488801706905 0.052442014597355 -0.0392694515475337 -0.1096301 0.07400914 -0.9912133 148 148 148
-0.0236567374843282 -0.0769042982517598 0.037943291802882 -0.1297389 -0.9684504 0.2127712 80 80 80
-0.0338118416263931 0.00264528018902954 -0.0399905808468754 0.0130909 0.1085275 -0.9940072 104 104 104
0.0647601699432587 -0.0115534116113181 -0.0214002708148004 0.8854834 0.02543081 -0.4639745 157 157 157
-0.00969788857037424 -0.0665079918524316 -0.0250390173564943 -0.05060857 -0.9078854 -0.4161524 132 132 132
0.0310072675067414 -0.0812137403418933 -0.00522125739127655 -0.09131464 -0.7523811 -0.6523682 86 86 86
0.0196139257385401 -0.0216359286350745 -0.0389552588702433 0.01707001 0.001005669 -0.9998538 116 116 116
0.00675704657277798 0.108385382424824 0.01129451463928 0.5104342 0.8562247 0.07960021 52 52 52
0.0627273840964619 -0.086447527031265 0.0215559747005642 0.3850766 -0.9176215 0.09842169 101 101 101
-0.0444308854540396 0.0925922355759001 -0.0321259851943319 -0.07372119 0.06494424 -0.995162 152 152 152
-0.0474199395204491 -0.0767656901467417 0.019639089806521 -0.06435461 -0.9976321 0.0242596 98 98 98
0.0622057474351019 0.0400123763357731 -0.0163834004399177 0.9900959 0.1103481 -0.08679534 185 185 185
0.0192420032118767 -0.0840036703486378 0.000868161131109629 -0.06948569 -0.9829035 -0.1705061 132 132 132
-0.0275358561613408 -0.0198884127702201 -0.0405435327583655 0.08367679 -0.09375992 -0.9920722 133 133 133
-0.0588250628027818 0.0505539316172023 -0.00652859169408815 -0.945011 0.1262893 -0.3016708 47 47 47
-0.0606795439011156 -0.0206490081029818 -0.0299093727613131 -0.8639373 -0.09802169 -0.4939677 95 95 95
0.0640177671881692 -0.00048156254751075 0.00596164921343681 0.9810399 0.1472195 0.1260444 107 107 107
0.00620201821313415 -0.0833648662413773 0.0102304260437811 -0.1360474 -0.9905946 -0.01460916 126 126 126
0.0596458707634433 0.00734214494780994 -0.027876927102867 0.7814728 0.1001621 -0.6158472 153 153 153
0.0114780552372373 0.0993734236553141 -0.0273874514224048 0.08413934 0.7266883 -0.6817952 93 93 93
-0.0407435645053393 0.0777154103591586 -0.0408371255031472 -0.03235061 0.1110161 -0.9932919 205 205 205
0.0180482790800061 0.103972265104913 -0.00958580345741758 0.3032942 0.9521075 -0.03878039 48 48 48
0.0561136872681791 -0.077659055049861 0.0553642428157793 0.9842879 -0.1664837 0.05882699 39 39 39
0.0635274340792131 -0.00385503631351303 -0.0233436855354731 0.8746758 0.05701666 -0.4813434 184 184 184
-0.0270088481717905 -0.0662267960034133 -0.0210480747263017 0.0009228757 -0.9153105 -0.4027479 86 86 86
-0.0333084254576743 0.0854696599181635 -0.0408534912837394 -0.1589561 0.3361333 -0.9283035 187 187 187
-0.00817906423874248 -0.0697911603752555 -0.0173764744769172 -0.1011034 -0.8629306 -0.4951049 104 104 104
-0.0207799426804587 0.11162191730257 -0.00496660067417531 -0.09161573 0.9754478 -0.2002701 24 24 24
-0.0164644549864144 0.0453743103539839 -0.0380794329602127 0.1040499 -0.1756867 -0.978932 118 118 118
-0.000554967264441153 0.0217613542385173 -0.0385782141791214 0.05816516 0.1632462 -0.9848693 202 202 202
-0.0217097218443389 -0.073617888695575 -0.0108454813090198 -0.006115203 -0.7858083 -0.61844 117 117 117
-0.0741180900947618 -0.0361196075458989 -0.0157578760675964 -0.9173965 0.2235806 -0.3292343 159 159 159
-0.00816925862357554 -0.0816742890042754 0.00858853100772133 -0.01977804 -0.9997252 0.01258026 121 121 121
0.0285511872682691 0.103318230742576 0.0193788965620115 0.01827717 0.9898623 -0.1408498 34 34 34
0.0498347969981698 0.00233892157830806 -0.0348669346196331 0.2949542 0.03603035 -0.9548318 129 129 129
-0.0153156619164458 0.0547398913983592 -0.0391042755840126 0.1410808 -0.08916655 -0.9859744 177 177 177
0.0425713586761254 -0.0774335399983137 -0.0122976436755753 -0.07164259 -0.7641617 -0.6410337 180 180 180
0.0418627926362993 -0.0854646734463886 -0.00507823607489105 -0.2740329 -0.8321125 -0.4821771 76 76 76
-0.0630604015284222 0.00198411551900013 -0.0110959821201502 -0.9430268 0.1503072 -0.2968302 62 62 62
0.0662311777675613 -0.0464036095601066 0.0057516156518809 0.9961724 -0.08109728 -0.03261597 88 88 88
-0.0641500094233405 0.0292980186013549 0.00500446280067518 -0.9586831 0.1189321 -0.2584218 41 41 41
-0.0593229034995586 0.0955693983424153 -0.0143680190672616 -0.9377925 -0.2201945 -0.2684392 48 48 48
-0.0335235526383753 -0.0156862920209522 -0.0402395523732112 -0.1367429 0.006512724 -0.9905851 172 172 172
0.047346884643086 -0.0839818984331429 0.0469155785890573 -0.1518012 -0.9840866 0.09235799 99 99 99
-0.0214181267962683 -0.0141957808606208 -0.0402376962233488 0.08926032 -0.09155442 -0.9917915 200 200 200
0.0250922675503045 0.0879919469161565 -0.0325507139691904 0.2702061 0.2179857 -0.9378011 163 163 163
0.052937069599837 0.0112777282761782 -0.0335299995477516 0.5209488 0.1914324 -0.8318449 141 141 141
0.0607700164023237 0.0432400795038597 -0.00290765980469596 0.983623 0.1724915 0.05227289 126 126 126
0.0109100025890743 0.105801009454797 0.0137417504553161 0.4861038 0.8671064 0.1087643 25 25 25
-0.0125958060919813 -0.0508040420124207 -0.037938949164202 -0.07312679 -0.2511699 -0.9651768 90 90 90
-0.0724506370917233 -0.0607626107903869 -0.0309221110920084 -0.8388006 0.2615129 -0.4775192 60 60 60
-0.0615191765585057 -0.00684747505837069 -0.0364810077715707 -0.8301352 -0.3689238 -0.4180559 117 117 117
0.0119416859517529 -0.0823477846072636 -0.0038559839329978 -0.03345329 -0.8306012 -0.5558619 115 115 115
-0.02364047354614 -0.066581694932905 -0.0225325921664555 -0.1030828 -0.9308558 -0.3505444 67 67 67
-0.0643592500957544 -0.00430776600198435 -0.0105806782619238 -0.9080245 0.2526772 -0.3341343 74 74 74
-0.0664085358979905 -0.0589177769843565 -0.03666067667884 -0.1989636 -0.1353292 -0.9706181 193 193 193
0.0603578682378081 0.054108507237663 -0.0190023874987313 0.9714194 0.1682871 -0.1674033 162 162 162
-0.0256362996880015 0.0569799758967575 -0.0392737284514872 -0.008006467 -0.1137193 -0.9934807 151 151 151
-0.0200552078414304 -0.0792127088161407 0.0275893706130285 -0.1234122 -0.9803835 0.1536807 126 126 126
0.0284975074085181 0.0892870656805917 -0.0254565112092426 0.5632871 0.7396739 -0.3682255 103 103 103
-0.0634291024985747 0.0880905953045685 -0.0028688786344763 -0.8551266 -0.07079458 -0.5135627 81 81 81
-0.0598437272286088 0.0698534838786886 -0.00688955325188667 -0.9769332 -0.08243901 -0.1969909 36 36 36
-0.0398417306495604 -0.0191665214007355 -0.0394885119796003 -0.1514575 -0.03840327 -0.9877174 151 151 151
-0.0486083117067975 -0.0706616520812029 -0.0313583191806166 0.2615182 -0.4824761 -0.8359576 113 113 113
0.0567343569368646 -0.0864795972202139 0.0115874041627073 -0.2205176 -0.9742805 0.04636315 69 69 69
0.0626647962711462 -0.00302899684266711 0.0142643809287616 0.9914685 0.1287791 0.0201539 83 83 83
-0.0760824080439328 -0.0299638383942658 0.0109655576744118 -0.7381453 0.4131983 -0.5332999 55 55 55
-0.0171818267468025 0.0990269763769367 -0.0362473933464582 0.1744755 0.7808397 -0.599873 71 71 71
0.0329780642618411 0.0939936839651065 -0.0128734303223066 0.411334 0.7499306 -0.5180815 108 108 108
0.0600564870951015 -0.0866098654158189 0.00620638440751792 0.05996283 -0.9968672 -0.05157708 140 140 140
-0.00427460474661245 0.0961657575913271 -0.0323873175882088 0.1896766 0.769752 -0.6095119 103 103 103
0.0583998301938489 0.0358366867465931 0.019108836970587 0.9284272 0.1635256 0.3335901 42 42 42
0.0655687195294576 -0.014420118748681 -0.00760502193455875 0.9927943 0.09831292 0.06851291 129 129 129
0.0499775936795737 -0.0235715288532201 -0.0345758412276094 0.3087275 -0.1418123 -0.9405193 148 148 148
-0.0463523747570345 0.00475261134712457 -0.0405022230407606 -0.01486031 -0.01733237 -0.9997393 202 202 202
0.040008041741848 0.00303202200077624 -0.0381927339675195 0.2194822 0.08283311 -0.9720937 129 129 129
0.00899317779643383 -0.0621234155879058 -0.0351048948896353 -0.07226462 -0.5436402 -0.8362017 158 158 158
0.0576407010201003 0.0712551913290109 -0.0051431111283049 0.971476 0.1481543 0.1851613 66 66 66
0.0224504154719138 -0.0773490480617147 -0.00952759954227292 -0.0009071958 -0.8312669 -0.5558727 123 123 123
0.0636103424303096 0.00777264893634166 -0.00658373466872064 0.9979029 0.06468488 0.002393698 153 153 153
-0.0773516332994522 -0.0526296236606085 -0.0208396240747858 -0.8974535 0.07952787 -0.4338807 81 81 81
-0.0607615224539466 0.0974126683996146 -0.0117511263408935 -0.8874581 -0.3389398 -0.3123108 77 77 77
0.01246160401982 -0.0499245203109855 -0.0389829185336444 0.1730789 -0.06988607 -0.9824254 168 168 168
-0.0657696085062129 0.101699020854689 -0.00632790250740661 -0.7915335 -0.5440921 -0.2782778 39 39 39
0.0545297605058188 -0.0802825758656163 -0.012894004367976 0.09244335 -0.7306384 -0.6764775 75 75 75
0.038666755530997 -0.0843634004475922 0.0359864308386264 0.01936606 -0.995163 0.09630988 81 81 81
-0.0310432212893521 -0.03351342512191 -0.0395092983676769 0.04861559 -0.04394874 -0.9978502 174 174 174
0.0656855626246866 -0.0624469519680069 0.0221150440205391 0.998037 0.0064063 0.06229777 82 82 82
-0.0210663158646236 -0.0807380698541316 0.0181562473286866 -0.1177745 -0.9916131 0.05322184 125 125 125
-0.0708905777396618 -0.0530416342140594 -0.0298017653018625 -0.8133447 0.29353 -0.5023052 39 39 39
-0.00546272201165365 -0.0730911859761825 -0.0136731361131419 -0.01868711 -0.801775 -0.5973338 124 124 124
0.0554536123382761 -0.0424655640961458 0.0513802322070304 0.9523495 0.1569358 0.261537 22 22 22
0.0266821162506847 0.0533197581263973 -0.0356442212075762 0.09060507 0.05146453 -0.9945562 164 164 164
0.0438555592328993 0.015116038642629 -0.036106618613752 0.3797581 0.09916347 -0.9197556 128 128 128
0.0550871947965188 -0.0860089268584878 0.0239799560977518 -0.04537802 -0.9986072 -0.02691566 109 109 109
0.00675250586515164 0.108162336471714 0.00799204840646286 0.5122687 0.8580964 0.03537337 36 36 36
-0.0206151603389353 -0.0765955708666031 -0.0074920717957245 -0.03049476 -0.7477062 -0.6633291 126 126 126
0.021885133942301 -0.0124864414059327 -0.0401404213233311 0.02388624 0.1194844 -0.9925487 158 158 158
0.0640911159735684 -0.00866375989470969 0.0294560339277322 0.9566779 0.04930022 0.2869439 163 163 163
0.0573199769633659 0.0384941055096575 -0.0266295323440602 0.7278392 0.1034239 -0.6779039 143 143 143
-0.0756791939481407 -0.077753495629844 0.0109133702807396 -0.04952634 -0.9887943 0.1408294 88 88 88
-0.0286175730956528 -0.0799366253191287 0.00161002395387672 -0.09665184 -0.9917517 0.08418407 134 134 134
0.0658903382676175 -0.0352202349025144 0.00819800212523042 0.9978605 -0.01068857 0.06449993 112 112 112
0.0214395246479384 0.0715586667624521 -0.034390079815748 0.2294839 0.3084275 -0.923152 164 164 164
0.0642591409154232 -0.00803370112430501 0.0275663765738099 0.9950624 0.09885318 -0.008876863 214 214 214
0.0570907791854314 -0.069485449572553 0.0522817083107587 0.9986898 -0.0423175 -0.02877297 50 50 50
0.0658028435806419 -0.0370408968630478 0.0261968087875244 0.9978013 0.06439094 0.0156947 193 193 193
-0.0393163628162543 0.0182949297716009 -0.0387411915344184 0.07831918 -0.006409975 -0.9969077 125 125 125
0.00186489273854873 -0.0801634413297136 -0.00414774660781159 -0.06439907 -0.7774003 -0.6257009 133 133 133
-0.00835060379352681 -0.0811352989650913 0.0274600176191026 -0.1173562 -0.984971 0.1267267 105 105 105
0.0138295837345233 -0.0794670392274714 -0.00696720903054598 -0.05466537 -0.7547258 -0.6537589 113 113 113
-0.0641347202027411 -0.0547910208169486 -0.0372269929995933 -0.01777408 -0.0357906 -0.9992012 153 153 153
-0.0422150131251078 0.109804556104251 -0.0210864577316525 -0.1246162 0.9506097 -0.2842745 29 29 29
-0.0350965682643545 -0.0765425272278069 0.0307825017372939 -0.1289125 -0.9773794 0.1676638 102 102 102
0.0567144830259911 -0.0811391360902167 -0.0101312073267506 0.28987 -0.7421132 -0.6043537 107 107 107
-0.0285479505420296 -0.0490083490691775 -0.037666810564801 -0.0249292 -0.2773219 -0.9604536 119 119 119
0.0410125766551781 -0.0835808951958861 0.042941289052298 -0.06353599 -0.9972493 0.03816995 102 102 102
0.0639588991883788 -0.0407582163237501 -0.0165445951125194 0.9574497 -0.00503415 -0.2885565 171 171 171
0.0394447534180271 -0.0409555714319065 -0.0353436884935726 0.1557124 0.09689969 -0.9830382 164 164 164
-0.0347418423776764 -0.0118407982918047 -0.0401939943044054 -0.1306581 0.01423111 -0.9913253 189 189 189
-0.0398318002149511 -0.0280285854313604 -0.0387340451256975 -0.2453196 0.0005793666 -0.9694421 152 152 152
0.0636382003880018 0.0128773623983698 -0.0117992823990851 0.9996946 -0.00113957 0.02468376 149 149 149
-0.0507050187330251 -0.0249890686765917 -0.0382706095508838 -0.1245024 -0.06780782 -0.9898996 91 91 91
-0.04799389463447 -0.078009020847958 -0.00111747376081733 0.08111992 -0.9741006 0.2110631 97 97 97
0.0600006578689878 0.0555309077140556 -0.00179581814258953 0.9948046 0.03276506 0.0963864 105 105 105
-0.0256800282653851 -0.0233575770161984 -0.0398570833535337 0.06368601 -0.1083339 -0.9920725 128 128 128
-0.0622345705110225 -0.0783375712178176 -0.000411094795632838 -0.05842572 -0.9860979 0.1555546 79 79 79
0.0468807473397681 0.012425713714225 -0.0347609274743365 0.3234775 0.1237553 -0.9381081 99 99 99
-0.0523613827842757 -0.0338055947260643 -0.0374111327521595 0.02078503 -0.08830468 -0.9958766 178 178 178
-0.0330132630529669 0.108938602099123 -0.0257228246620832 0.2580878 0.7930309 -0.5518085 99 99 99
0.0188066704280594 0.0479358458995787 -0.0362674184915865 -0.1318705 0.003278079 -0.9912615 163 163 163
-0.0561130078440111 0.0053602865292115 -0.0394057249802845 -0.1493384 0.02872418 -0.9883689 161 161 161
-0.0652848200682987 -0.0464985934416988 -0.0342194671141125 -0.7914888 0.2354249 -0.5640218 90 90 90
0.0579883708061106 -0.0455556176116163 0.0445139017153766 0.9211453 0.15193 0.3583414 25 25 25
0.0475539905881197 -0.0179540720808626 -0.035437224811388 0.2943096 -0.04471165 -0.9546637 144 144 144
-0.0420949749663384 -0.0706718677206037 -0.0218431012007768 0.76969 -0.608339 -0.1936519 111 111 111
0.0599153687808784 0.0339092488009936 0.0152186468719862 0.9755324 0.09953529 0.1960339 36 36 36
0.0421907524753817 -0.0707565967046699 -0.025262578584157 0.0647297 -0.8995239 -0.4320495 140 140 140
-0.0510059599072301 -0.0738878624212989 -0.0306595748404493 0.2516628 -0.464458 -0.8490846 166 166 166
0.0667315315349164 -0.0454986922163769 0.0145140675398561 0.9995286 0.006077106 0.03009267 174 174 174
-0.00913958892591449 0.104355225193418 -0.0238329880586622 0.1614042 0.8747277 -0.4569465 98 98 98
0.0107818332767571 0.00147453198928771 -0.0363992569571072 0.3662892 0.0855583 -0.9265592 120 120 120
-0.0825806828606961 -0.046330982200437 0.00806378381709466 -0.9045652 0.2436526 -0.3498503 72 72 72
-0.0102790120770702 -0.0677628850038359 -0.0224804672787774 -0.01529008 -0.9246551 -0.3804984 105 105 105
0.0597869557702326 0.0459216172753925 -0.000914278631169191 0.9860836 0.1414595 0.08734076 119 119 119
0.0629542017358484 0.000522087752097722 0.00923653091347421 0.9785979 0.1445731 0.1464401 91 91 91
0.0650893525874121 -0.0741490845403041 0.00578578301212032 0.9913254 0.05186737 -0.1207626 93 93 93
0.0179393971498985 0.102880133335677 0.00342658152914674 0.2248477 0.9732922 0.04632305 56 56 56
0.0551166440530997 0.0680589848325415 0.00719547008334032 0.9024649 0.04502979 0.4284033 46 46 46
0.0558233480262285 -0.0262391806102908 -0.0303226733983223 0.5651468 -0.2073088 -0.7985187 150 150 150
-0.0341915356488136 0.0518060916492482 -0.0390820176911463 -0.2879665 0.01728226 -0.9574845 107 107 107
-0.0491499555139292 -0.0762255284712021 0.0266010370648025 -0.1605577 -0.9833884 0.08466747 97 97 97
0.00669411717537693 -0.0822155373360032 0.035430891701049 -0.09946639 -0.9698488 0.2224855 92 92 92
-0.0278500378799937 -0.0549086145081461 -0.0368963415355148 0.09185912 -0.3679594 -0.9252933 144 144 144
0.0667446217170649 -0.0496656637600299 0.0124371247363889 0.9942865 -0.06456333 -0.08500553 130 130 130
0.0391268990879041 0.101639744106452 0.0139569235596766 0.3039442 0.9366408 -0.1741321 54 54 54
-0.0189668996043881 0.0221537951766713 -0.0393893569912153 0.05103865 0.06966523 -0.9962639 189 189 189
0.0423179979898567 -0.0684110795601363 -0.0286463298719659 0.1248049 -0.710485 -0.6925567 141 141 141
0.0641788673349857 -0.0359185049145834 -0.0152978908041377 0.9493276 0.01085864 -0.3141004 110 110 110
0.0228474184616116 -0.0387102996611606 -0.0378682462723369 0.2036962 0.02823512 -0.9786269 173 173 173
0.013816264942911 -0.071017515882017 -0.021023429909886 -0.1286996 -0.9078979 -0.398946 82 82 82
-0.0087957386225308 0.0146148432886861 -0.0389840142415989 -0.1560322 0.03515248 -0.9871263 134 134 134
0.0476111737358864 0.0892200258477693 -0.00655062146956395 0.567042 0.7152065 -0.4085866 69 69 69
0.0536113006579226 0.0310872362082562 -0.0313138779939247 0.5953583 0.0504868 -0.8018726 147 147 147
0.0302515818283524 0.0642492385919509 -0.0342854884032031 0.2893811 0.1690258 -0.9421724 149 149 149
-0.0622522438844042 -0.0331191833713695 -0.0304354466786111 -0.8337864 0.3756894 -0.4045462 90 90 90
0.0452369528212606 0.0904764675448075 -0.00888304745291668 0.539724 0.6928861 -0.4781286 114 114 114
0.06504513163057 -0.0405764300254059 -0.0127225838906357 0.9622267 -0.05205775 -0.2672259 160 160 160
-0.0041487802780229 0.0567810835002789 -0.0386312021945915 0.1756089 -0.15254 -0.9725704 162 162 162
-0.0514219481470253 -0.0796926100043613 -0.0138263654209851 0.0500474 -0.9981636 0.03412719 112 112 112
0.0502985473513671 -0.0281836304068879 -0.0333258764468418 0.4440551 -0.2072386 -0.8717037 167 167 167
0.0354314501531996 0.100787476536182 0.00442567562685306 0.1587269 0.9788995 -0.1286917 24 24 24
0.0611879680797038 0.0379241175173828 -0.00377376743661254 0.9999064 -0.01190123 0.006751987 110 110 110
-0.0782225804031005 -0.0646833243274774 -0.0234473940470591 -0.9083059 0.1451529 -0.392315 43 43 43
-0.0760261035759533 -0.0394167361139997 -0.00951917226937235 -0.9192637 0.1656393 -0.3570965 106 106 106
-0.0799530966207698 -0.0472033332854345 -0.00403994084809137 -0.9530703 0.1590203 -0.257623 141 141 141
0.0317955718204801 0.0250371168304335 -0.0369877272930296 -0.0319551 0.02447784 -0.9991895 148 148 148
-0.0535300775023724 -0.0798927403975787 -0.0202356268695093 -0.05447235 -0.9973404 -0.04842354 126 126 126
0.0661836342131643 -0.0665844528873012 0.0127425197832579 0.9928803 -0.082532 -0.08589081 83 83 83
0.0231889458820089 -0.0805933703906865 -0.00494743934036621 -0.009840343 -0.7622911 -0.6471596 133 133 133
0.0495768749728049 0.0494981700019348 0.0315662450398049 0.8909226 0.4277125 0.1527052 39 39 39
-0.0147960475420481 -0.0655074201448074 -0.0269864323743992 -0.0396316 -0.9076629 -0.4178245 95 95 95
0.0634885824708205 -0.00315051330133831 0.00935087122344522 0.980394 0.1334611 0.1449681 81 81 81
-0.0421111342376785 -0.00688138207755307 -0.0396202888273566 -0.02563859 -0.1261183 -0.9916838 133 133 133
0.0551134501387871 0.0227996950802334 -0.0304901719165659 0.5669155 0.008237452 -0.8237348 127 127 127
-0.0778098575072286 -0.0747774747133569 -0.0302505512731224 -0.8198938 -0.2785334 -0.5001932 90 90 90
-0.0633467546878075 0.00534752388181325 -0.00768488400758008 -0.9486877 0.1230029 -0.2913106 56 56 56
-0.0446371333528139 0.053474860952875 -0.0381969893757321 0.1845969 0.1214963 -0.9752756 136 136 136
0.0074820560894171 0.0368514468645986 -0.0371617195870556 0.2274444 0.1361242 -0.9642299 137 137 137
-0.0575750416848466 -0.0792988309715101 -0.00802393758620643 -0.003376732 -0.9910094 0.1337494 103 103 103
-0.0655912888903685 -0.0353457907000183 -0.0265908676111862 -0.7458524 0.3575389 -0.5620232 73 73 73
-0.0559868575340459 -0.0753964245867063 0.0238243101879229 -0.1015387 -0.9877289 0.1186654 73 73 73
0.0641421977825134 -0.0142948527177038 0.0288437896456758 0.9602426 -0.008760367 0.2790295 101 101 101
-0.0641548095267455 -0.0159430165334604 -0.0254570657716651 -0.8155037 -0.1744985 -0.5518188 114 114 114
-0.002905518372188 0.115285282450977 0.00806912220734238 0.3857302 0.9222654 -0.02527323 29 29 29
-0.0265247112509908 -0.0635242894624497 -0.0315136658061189 -0.004667233 -0.8515111 -0.5243157 162 162 162
0.000978246791220272 0.0429296631507212 -0.0375113800924331 0.1902399 0.1128222 -0.9752333 92 92 92
0.0232380173495694 0.101794869512115 -0.0120055176138525 0.3929056 0.8235326 -0.4091689 69 69 69
-0.0185704548715697 -0.0692012783623319 -0.018155596261222 -0.08416323 -0.8772893 -0.4725251 75 75 75
-0.0205902986246458 0.000446542814337647 -0.0395324422889062 -0.03036992 0.2201395 -0.9749956 100 100 100
-0.0819974524382099 -0.0710920435689413 -0.00835116990954562 -0.9658496 -0.1245809 -0.2271872 26 26 26
0.029388624178297 0.0944099576535391 -0.0164064252909683 0.5310768 0.7350655 -0.4214689 67 67 67
-0.0321887351662 0.113608296247652 0.00283414722330214 0.09731065 0.9810044 -0.1678125 27 27 27
-0.0837170706579826 -0.0681966637979674 0.0188795807028161 -0.9782344 -0.1011064 -0.1812044 66 66 66
-0.0404181314645733 0.104460936817254 -0.0310444151907229 -0.0113023 0.1486639 -0.9888232 173 173 173
-0.0520889883890567 0.0852060912834889 -0.0277665168480169 -0.8582986 0.3157306 -0.4045216 48 48 48
0.053916895498725 -0.0294527643150948 -0.0302114991331496 0.5547896 -0.2010945 -0.8073224 145 145 145
0.056562536365762 -0.0857674122299465 0.0346624341250306 0.1476929 -0.978767 0.1421335 57 57 57
0.0204540409501548 -0.0108145464958997 -0.0401563355475159 -0.007585256 0.2421923 -0.9701986 124 124 124
0.0472905560323889 -0.0843510975221902 -0.00845079615525329 -0.1920118 -0.7504841 -0.6323805 139 139 139
-0.0553546760333763 -0.0800236744275946 -0.0156938719513495 -0.03229102 -0.9991041 -0.02735317 147 147 147
0.0589081584777631 0.0559475803681022 0.00351377358808816 0.947468 0.19031 0.2570728 61 61 61
0.0669027441153474 -0.0275898468890607 0.00247260322062737 0.996419 0.06029575 0.05927674 178 178 178
0.013783285744239 0.00352182865597728 -0.0357503971668782 0.1025364 0.07801496 -0.9916652 128 128 128
-0.0252612286588354 0.0844382375027917 -0.0404378791545875 0.0508525 0.1335787 -0.9897327 163 163 163
0.0394618132860232 0.0830242154624403 -0.022877173723913 0.5609224 0.6981231 -0.444961 100 100 100
-0.059307940315541 0.0482042281875876 -0.0286159794759804 -0.938888 0.09679981 -0.330332 113 113 113
0.0454474754530794 -0.0765520384327945 -0.014821192061296 -0.1015058 -0.7579411 -0.6443772 81 81 81
0.0376959452214032 -0.0534643947032514 -0.0350089980150806 0.1070406 -0.1876955 -0.9763773 149 149 149
-0.0645558238919532 0.0158173457420918 -0.0336212790753062 -0.7662934 0.2218769 -0.6029636 118 118 118
0.0584191191501824 0.0757533777880914 -0.0121185344127523 0.9459215 0.3165092 -0.07109436 149 149 149
0.0400573530555031 0.100455093978026 0.00816099964189837 0.3529302 0.9180202 -0.1807739 41 41 41
0.0409988260999521 -0.0516995516396102 -0.0349981152992185 0.199186 -0.1346725 -0.9706638 160 160 160
-0.00263425393175831 -0.0798489463550196 -0.00455719571139079 0.03449934 -0.7283391 -0.6843479 129 129 129
0.059813249545051 0.0652510483734805 -0.00629752534984482 0.9690635 0.1748977 0.1741454 102 102 102
0.0470443385050183 0.0147029547228503 -0.0346534261103634 0.3583269 0.1097744 -0.92712 144 144 144
-0.0467744149838842 -0.0758485482598863 -0.0265126932983324 0.7125176 -0.5129002 -0.4788028 155 155 155
0.0461626295030357 0.0822011307018633 0.0174614396583606 0.8499746 0.09978402 0.5172875 45 45 45
-0.0425633100591432 -0.0775155948663557 0.0228971163058116 -0.1271943 -0.9911309 0.03848588 96 96 96
-0.051989343651532 -0.0762589844091934 0.0205934027697532 -0.1327771 -0.9881127 0.07748193 81 81 81
0.0630480127829744 0.0112108521739229 -0.00134162712343258 0.9861998 0.05696591 0.1554505 100 100 100
-0.0109700035346121 0.113361127121613 -0.0117417583415944 -0.01379861 0.9415955 -0.3364633 71 71 71
0.0503075633754597 -0.0367942671430188 -0.0322711128294141 0.3990646 0.000663168 -0.9169226 155 155 155
0.0585380483127942 -0.0556850922101828 0.0452138946154909 0.98641 -0.0435313 0.1584305 64 64 64
0.0615620642444532 -0.0668493758477997 -0.0195177372628918 0.734238 -0.2923011 -0.6127436 199 199 199
0.0179854056122544 0.0766997330710575 -0.0340953779482238 0.2483995 0.1986791 -0.9480634 190 190 190
0.0600924390876725 0.0433917723622199 0.00433063768786535 0.9829952 0.1696772 0.07021416 92 92 92
0.060962572591666 -0.072835830262739 0.0353801972678829 0.914184 0.03506348 0.4037798 39 39 39
-0.00973887829527387 0.0376344960628878 -0.0367022811450264 0.03046582 0.0509128 -0.9982383 150 150 150
-0.00958966248316351 0.0277548646574255 -0.0379057681614031 -0.04122569 0.04456705 -0.9981554 92 92 92
-0.06256458980442 0.0668939969800939 0.00467598860385587 -0.9630528 0.002860264 -0.2692975 16 16 16
-0.0340626653940483 -0.0591029016205127 -0.0349884633767423 0.1369475 -0.5141946 -0.8466695 107 107 107
0.0343590660166928 -0.0837355899620837 0.0232226014785094 0.006353417 -0.9992546 -0.03807659 115 115 115
0.0120618135238897 -0.0823887324072292 0.034379331785698 -0.05922683 -0.9876096 0.145325 82 82 82
0.0322239679351939 0.00112118024909158 -0.0383000825440856 -0.1828807 0.03602687 -0.9824748 110 110 110
0.0646613985214688 -0.0739504045672157 0.00737972446779153 0.9896047 0.03610625 -0.1392082 86 86 86
0.0548442457066933 0.086418683979913 -0.00531242839968191 0.5373775 0.6981655 -0.4730648 109 109 109
0.0588124959274849 -0.0441871608015918 -0.0257563663834542 0.7628289 -0.004245983 -0.6465864 139 139 139
0.00224209488934068 0.0766052628118161 -0.0373446964504672 0.2236742 -0.1176886 -0.9675326 184 184 184
0.0375255454378309 -0.0834125147645564 0.0401981891143063 0.01117817 -0.9947509 0.1017138 92 92 92
0.0652438369598851 -0.0253470125951534 0.0202623190170741 0.9990235 0.03176178 0.03071292 173 173 173
-0.042866460321771 -0.0271018008047357 -0.0381915337509206 -0.1030217 -0.07485559 -0.9918584 101 101 101
0.0276994670654833 0.0202150229707296 -0.0374936741034632 -0.01921868 0.1313389 -0.9911512 136 136 136
0.00567615987964487 -0.0754327960790155 -0.0117937678723734 -0.1193841 -0.8103771 -0.5736169 123 123 123
0.0387663072967723 0.100775142640392 0.00729286639797136 0.2781705 0.9415098 -0.1902119 55 55 55
-0.0423805276364178 0.0749252493908774 -0.0408919475019868 -0.0484543 0.03323305 -0.9982724 175 175 175
0.0556528764543192 0.0294826539318083 0.0287546774373164 0.878678 0.2949918 0.3753729 33 33 33
-0.0436010542282057 0.00783761049008946 -0.0399688851913956 0.05787138 0.01290205 -0.9982406 127 127 127
-0.00283394924615399 -0.0211762949577872 -0.0387884699343138 -0.1407742 0.1694876 -0.9754264 136 136 136
-0.060235837085215 0.0840554697411737 -0.00732891650769382 -0.9018458 0.01999854 -0.4315951 55 55 55
0.040693578408411 0.100904473882629 0.0126509683488501 0.3954175 0.8991487 -0.1875543 70 70 70
-0.0624835114272959 -0.0535807259106877 -0.0367524503442052 0.06477342 -0.01887614 -0.9977214 135 135 135
-0.0351580725126741 -0.0624753579287656 -0.0324982234387918 0.1669591 -0.7264172 -0.6666653 132 132 132
-0.0686563981500035 -0.00931538745382721 -0.000844524009602332 -0.9421179 0.2018684 -0.2676995 39 39 39
0.0540091542197212 -0.0391868523517018 -0.0304149472845279 0.5754307 0.03767113 -0.8169825 137 137 137
-0.0150942139838803 0.0260449769942006 -0.0387711739334816 0.1212674 0.02026521 -0.992413 142 142 142
0.0632396714003298 -0.0395672987197722 -0.018867464178124 0.9442357 0.01665527 -0.3288489 172 172 172
-0.0471933753187366 -0.0762077764459335 -0.0265005555573719 0.6459307 -0.5488609 -0.5305895 154 154 154
-0.0628192277764756 0.021032121465854 -0.0364698293477598 -0.657194 0.1562874 -0.73734 175 175 175
0.0227416505798521 0.103073342380792 0.0129018400655316 0.05149501 0.9939882 -0.09662172 63 63 63
-0.0337540948774406 0.113733280625416 -0.00323074287528291 0.2913445 0.9537503 0.07401898 47 47 47
0.0121459592655877 -0.0677816800550886 -0.0285767252187158 -0.1178862 -0.9341044 -0.3369746 121 121 121
0.0598570946577373 -0.0503675285770639 -0.0246805214937933 0.7807974 0.02180645 -0.6244036 138 138 138
0.0151143298051535 -0.0125832654012152 -0.0396468249897712 -0.1537852 -0.02383159 -0.9878169 182 182 182
-0.0384966662823718 0.0307222831435106 -0.0390597141736561 0.1904639 -0.0447725 -0.9806727 160 160 160
0.0648075505176928 -0.0140416732192672 0.0206516589156879 0.9959025 0.08882474 -0.01698458 159 159 159
0.0366973350100213 0.0566049452920077 -0.0337905661981319 0.2428833 0.198828 -0.9494604 136 136 136
-0.064004879813679 0.0327626413269706 0.00563390220424456 -0.9679266 -0.04228169 -0.2476498 51 51 51
0.0620130236601453 -0.0392244137072919 -0.0215831026178629 0.8826296 -0.01385093 -0.4698651 146 146 146
0.0549378514594774 0.0230406039943842 0.0363963288083627 0.8512873 0.3574561 0.3841029 40 40 40
0.034546033802811 -0.0856371782137302 0.00258467677486005 0.004305409 -0.9969638 -0.07774741 110 110 110
-0.0662402939929025 0.00676120964384674 -0.0319406816366622 -0.9989901 -0.02921016 -0.03413972 54 54 54
0.0582159532067794 0.0448133210613222 -0.025594358814541 0.7240828 0.007896489 -0.6896678 186 186 186
0.0152534474816179 0.103682800158019 0.00843575620916154 0.3605707 0.9327085 -0.006605948 54 54 54
0.0600225659292621 -0.0477584205944568 -0.0242659747485332 0.818754 0.04939923 -0.5720154 147 147 147
0.0460559372096641 0.0913545921004182 -0.00502438146983686 0.5401742 0.7677038 -0.3447356 71 71 71
0.0295246506083195 0.0989382362175837 -0.0105521299123472 0.4871377 0.7388502 -0.4656148 104 104 104
-0.0731515886906964 -0.0211819540897502 0.00896324265396053 -0.9869383 0.06647626 -0.1467436 51 51 51
0.060398303232966 -0.0417137045015534 -0.0236155170622663 0.7849843 -0.05496191 -0.6170728 125 125 125
0.00488734420983628 0.0076770098592156 -0.0401829209495544 0.2854097 -0.04229862 -0.9574717 133 133 133
-0.0416305685771072 9.70483315771986E-05 -0.0407996393799045 0.0007074539 0.007719209 -0.99997 177 177 177
-0.0168715184465471 -0.0183703042748065 -0.0395521166290874 0.0856171 -0.08752208 -0.9924765 116 116 116
0.00937033319783964 0.107017971170388 0.0105912803666562 0.4695117 0.8791289 0.08180001 64 64 64
0.0363999080568962 -0.0428854712481692 -0.0361234999319281 0.1634682 0.04857456 -0.985352 178 178 178
-0.028272602068784 -0.0183758587283098 -0.0408973855709275 0.06612673 -0.0808144 -0.9945332 164 164 164
-0.0157220945454397 0.110458066721434 -0.0161588405034268 0.1638125 0.7916747 -0.5885716 92 92 92
0.020223831283861 -0.080584939768422 0.0452703792604361 -0.07945494 -0.9424211 0.324853 69 69 69
0.0562006460853248 -0.0849605414682666 -0.00735547256723948 0.1708022 -0.7626275 -0.6238797 106 106 106
-0.00322712502395506 -0.0737007730821999 -0.0126158458080471 -0.02770432 -0.8157066 -0.5778021 129 129 129
-0.0092555745758709 0.111409405923504 -0.0144455635421142 0.09462892 0.7910377 -0.6044044 85 85 85
0.0169430717117733 0.0147010220378201 -0.0363512133010956 0.03329415 -0.08534685 -0.9957949 139 139 139
0.0356079935296494 0.0877987084756511 -0.0195694693160502 0.5343511 0.6659028 -0.5206172 126 126 126
0.0553640913761329 -0.0540545988715679 -0.0287102424126231 0.5794047 -0.07943676 -0.8111597 157 157 157
0.0281236992408402 -0.0825352372002552 0.0424609235070686 -0.2384366 -0.9522609 0.1906491 94 94 94
0.038377281343001 -0.0840804772275185 0.0218241609601297 0.03938699 -0.9981734 -0.04580924 100 100 100
0.0165754169413144 -0.0749479819656143 -0.0137272837030651 -0.04483987 -0.8679777 -0.4945745 79 79 79
-0.00392396931009964 0.111130267683152 -0.0140295088897848 0.09060084 0.7799811 -0.6192099 78 78 78
0.0634655408814981 0.0123602510660008 -0.0173373014551846 0.9844386 0.07520704 -0.1588225 168 168 168
0.0659298592705975 -0.0277840271744307 -0.0105061436163657 0.9842097 -0.09285187 -0.150698 113 113 113
-0.082210998154455 -0.0626047506632137 0.00865038092906525 -0.9970296 -0.07470897 -0.01872325 93 93 93
0.0265087509361721 -0.0462687724130928 -0.0377018049019827 0.08688908 -0.0223053 -0.9959683 149 149 149
0.0112128902226143 0.0726692781267289 -0.0355872466174238 0.08788218 0.1955618 -0.9767458 220 220 220
0.0453678976854661 -0.0234869821516122 -0.0352696618379424 0.1574538 -0.1424653 -0.977196 140 140 140
-0.0202268246056572 0.0269524068541527 -0.0386682260416712 -0.04305119 0.05863659 -0.9973507 99 99 99
-0.041887612604329 0.0379358689935416 -0.0401962246120787 0.02987671 0.03860704 -0.9988077 147 147 147
0.0289720790004453 -0.0379189705152332 -0.037213901239631 0.1254847 0.03593353 -0.9914446 200 200 200
-0.0718298013410616 -0.0394601920654492 -0.0228580295904844 -0.6539612 0.3600752 -0.6653425 70 70 70
-0.0306552826724196 0.111903479595034 -0.00372936465774207 0.1952506 0.9806522 -0.01408732 39 39 39
-0.00507953731763955 -0.0761065747446539 -0.00867126671475096 -0.0557295 -0.8151721 -0.5765316 120 120 120
0.00250958710853322 -0.0361540430390672 -0.0396052864372772 -0.08711237 0.08078455 -0.9929175 170 170 170
-0.0284985068264576 0.0941689674584969 -0.0339922416406767 -0.4613205 0.6169873 -0.6375815 103 103 103
0.0642192060281985 8.78817820633149E-05 -0.0195949834760776 0.9707288 0.1445907 -0.191779 150 150 150
-0.0649452162878532 -0.0664077706577408 -0.0343064134826831 0.02913502 -0.368583 -0.9291382 148 148 148
-0.00556924077663679 -0.0650782477792913 -0.02885214652521 -0.1226477 -0.8851662 -0.4488189 126 126 126
-0.058169413652339 0.0633097235877564 -0.0261344616155501 -0.9108348 0.2430696 -0.3336123 103 103 103
-0.0122064009132892 -0.0230932257631087 -0.0391189057132925 0.1264473 0.05069021 -0.9906774 152 152 152
0.0338819437584017 0.0569261666491194 -0.0341843795563392 0.2618596 0.2021121 -0.9437056 146 146 146
-0.0456542651716321 -0.0728079384111786 -0.026874630949466 0.6949076 -0.5546461 -0.4576802 108 108 108
