ply
format ascii 1.0
comment File exported by Rhinoceros Version 7.0
element vertex 478
property float x
property float y
property float z
property float nx
property float ny
property float nz
property uchar red
property uchar green
property uchar blue
end_header
0.0520256618110202 -0.0205875135220415 -0.0198498227802485 -0.3522451 0.8301057 0.4322591 96 96 96
0.0530712596953438 -0.0213285229637512 -0.019667233750926 -0.02066292 0.7247776 0.688673 92 92 92
0.0494309307828906 -0.0204087702529916 -0.0234483310718948 -0.09051213 0.2578959 0.9619237 97 97 97
0.0508050394110482 -0.0203418641788169 -0.0224609871645666 0.0283059 0.06103471 0.9977342 60 60 60
0.048949784309789 -0.0243008198378116 -0.01972961564463 -0.7271504 0.1742302 0.6640002 77 77 77
0.0520993107201515 -0.0240909130947546 -0.0196014558245502 -0.01678698 0.5433013 0.8393699 81 81 81
0.0465348742821163 -0.0249453146875269 -0.0156935729015239 -0.02384755 -0.0996746 0.9947343 105 105 105
0.0432144105122589 -0.0265645986862457 -0.0205878078424016 -0.03895443 -0.01507133 0.9991273 146 146 146
0.0483008785768577 -0.0283033777375397 -0.0173768823605115 -0.1169407 0.1848843 0.975778 96 96 96
0.049619426629044 -0.0235819733336935 -0.0171992667833457 -0.01182927 0.3709854 0.9285634 102 102 102
0.0515482119249682 -0.0250077003264104 -0.0166608887455963 0.088541 0.3827885 0.9195833 98 98 98
0.0496820824210382 -0.0262308648703762 -0.0196260096607709 0.1753551 0.175037 0.9688202 78 78 78
0.0346751364294802 -0.0281767958320891 -0.00931167654269266 0.4140104 0.7139675 0.5646643 132 132 132
0.0356402233073492 -0.0336515269479367 -0.00612418056900849 0.3294772 0.755113 0.5667884 124 124 124
0.0357287479136175 -0.036593469327624 -0.00315252449773401 0.8807486 0.3885706 0.2707299 40 40 40
0.0367539577189673 -0.0303215978338642 -0.0138300395664033 0.2426721 0.9277411 0.2835607 151 151 151
0.0328368251364608 -0.032685976931319 -0.0155348341640314 -0.0986897 -0.4406184 0.8922532 219 219 219
0.0349185655798507 -0.0376003222847185 -0.00861557628771165 0.5026764 0.7867905 0.3581579 85 85 85
0.0526404335981963 -0.0249569903660971 -0.00912960647701183 -0.256351 -0.9583163 -0.126151 39 39 39
0.0534922279875925 -0.0288249356463437 -0.00664036795700854 -0.3091843 -0.9385161 -0.1535991 42 42 42
0.0535555237119911 -0.0261682457414736 -0.0108502333035127 -0.3363764 -0.9387805 0.07444441 58 58 58
0.050525079822747 -0.0292648821925536 -0.00822885285923863 -0.2766018 -0.8873448 -0.3689318 106 106 106
0.0528214151580448 -0.0285709882263561 -0.00837029460040087 -0.3273664 -0.9309529 -0.1617342 48 48 48
0.0542002307611977 -0.0307342686852454 -0.00970531372721531 -0.3227684 -0.9460359 -0.02892487 59 59 59
0.0455955562699595 -0.0337954240610085 -0.0030820247756633 0.1441341 -0.7838328 0.6040128 111 111 111
0.045484684535777 -0.0351960422716902 -0.00596453583077469 0.3410439 -0.6145142 0.7113799 101 101 101
0.0531463155139662 -0.0308653903500273 -0.00342111340561893 -0.2879356 -0.9344339 -0.2095862 36 36 36
0.0536393082472451 -0.033627869067101 -0.00309513319123003 -0.2305485 -0.9395118 -0.253308 32 32 32
0.0453817368575362 -0.0328652520636235 -0.0162724842721391 0.2545951 -0.1232972 0.9591554 103 103 103
0.0480008958992075 -0.0302592448186019 -0.016662973696736 0.1869034 -0.01297095 0.9822927 110 110 110
0.0507814547161143 -0.0295617293139294 -0.0164986885286562 0.1101499 0.1905597 0.9754763 114 114 114
0.0378715798170883 -0.0284680891298592 -0.0234908666298819 0.08765145 0.1055225 0.9905464 215 215 215
0.0365209950799048 -0.0303848945982337 -0.0212919585070164 -0.1848472 0.3953446 0.8997412 193 193 193
0.0347269057635351 -0.0331776712584755 -0.0195420416577581 0.1224987 -0.09998441 0.9874194 189 189 189
0.0336320989124166 -0.0326511073735221 -0.0229816234913034 -0.1537756 0.1587691 0.9752669 210 210 210
0.032032006334777 -0.0339082797995978 -0.0234355861706402 -0.3226295 -0.1835001 0.9285677 209 209 209
0.0393974130450359 -0.0315639841630029 -0.0195041325111816 0.2574942 0.2640156 0.929512 107 107 107
0.0384129672487994 -0.0308012246025728 -0.0222990375051049 0.09228539 -0.001995526 0.9957306 204 204 204
0.0385134804491762 -0.0326551121718934 -0.0218632493233719 0.3051041 0.4048653 0.8619719 110 110 110
0.0430027356335247 -0.0334307874083271 -0.0223314152695278 -0.1305007 -0.01241127 0.9913705 86 86 86
0.050494839360256 -0.0242817466788232 -0.0217600803015269 -0.1390596 -0.1759685 0.9745243 61 61 61
0.0429037923864399 -0.0273418017571034 -0.0218921343934499 0.135585 -0.1443056 0.9802003 175 175 175
0.047862493242798 -0.0263864060315167 -0.0219987468889384 0.186793 0.1670752 0.9680879 77 77 77
0.0428400171897299 -0.0297739701380091 -0.0194008831004939 -0.07973253 -0.356598 0.9308494 94 94 94
0.0452911300089298 -0.0293055999712128 -0.0196418100572821 -0.06887132 -0.4817346 0.8736066 84 84 84
0.0447090265046879 -0.0303915917819484 -0.0192784771543872 0.04651145 -0.4732243 0.8797133 92 92 92
0.0449710100655303 -0.0302974390257507 -0.0194799670712264 -0.0776931 -0.5398372 0.8381763 113 113 113
0.0465885896712117 -0.0315495910868553 -0.0195415137567525 0.4475681 0.06739861 0.8917063 76 76 76
0.0460215528787822 -0.0288317506485942 -0.0194636472451219 0.3118521 -0.4107553 0.8567545 78 78 78
0.0439361749371474 -0.0298985805007783 -0.0228523020375104 -0.2408433 -0.08414035 0.96691 46 46 46
0.0502165224543651 -0.0287210869671055 -0.0191188164173325 0.215601 0.1409783 0.9662512 89 89 89
0.051296369974591 -0.028783598050828 -0.0205603818161803 0.6831107 0.09938226 0.7235212 86 86 86
0.0503556135779069 -0.0305578972797476 -0.0188635092897551 0.09812894 0.1477271 0.9841481 75 75 75
0.0501649941462614 -0.0303074348746581 -0.0194825477352529 -0.1790247 0.2755413 0.9444719 80 80 80
0.0539396116020532 -0.0263532139996741 -0.0233291836943758 0.2482834 -0.1803296 0.9517545 92 92 92
0.0367391783395636 -0.034921811664046 -0.0192392616847126 -0.07211939 0.294533 0.9529161 96 96 96
0.0365617416683648 -0.0369941173145067 -0.0161252986322505 0.7958992 -0.556173 0.2391989 91 91 91
0.0336300831428069 -0.0360883481586514 -0.019610339166212 0.04480811 -0.4740371 0.879364 73 73 73
0.033518123595331 -0.0394528605914808 -0.019212800366125 0.4639947 -0.04666711 0.8846079 85 85 85
0.0377220837831942 -0.0372132598246162 -0.0195700719878793 -0.3190461 -0.07838061 0.9444925 84 84 84
0.0356630995198481 -0.0395179887543449 -0.0193198098296357 -0.7044488 -0.6154226 0.3535632 74 74 74
0.0399578430623839 -0.0610666925064505 0.00603286028145519 0.9985658 0.05303686 0.007310692 52 52 52
0.0385951247487555 -0.0344514443495911 -0.0173393580919788 0.5655024 0.01267753 0.8246492 99 99 99
0.0404966342570912 -0.0341763774105408 -0.0194430103729504 -0.02646229 -0.1657534 0.9858121 74 74 74
0.0423922240240961 -0.0344273510659499 -0.0194565793692687 -0.3562438 0.8426766 0.4037158 88 88 88
0.0380268604632621 -0.0361550914217381 -0.0176699062988211 0.1251643 -0.6368578 0.7607536 100 100 100
0.0420343638773053 -0.0358414702567289 -0.0154392542278285 0.3085803 -0.1470734 0.9397594 104 104 104
0.0394846453414543 -0.0364168993856939 -0.0195109761779444 -0.2417923 -0.1082276 0.9642735 96 96 96
0.0394914210472446 -0.037489667360685 -0.0192224142611492 -0.1902115 0.4675581 0.8632549 101 101 101
0.0407235592748447 -0.0386511210704961 -0.0196937665231858 0.1882642 0.5919471 0.7836806 116 116 116
0.0371670707298459 -0.0379266528433411 -0.0142118549238175 0.5155317 0.7413986 0.4295989 120 120 120
0.0379316101555187 -0.0398912204254773 -0.0172941999496632 -0.0114068 0.05563127 0.9983862 106 106 106
0.0354837666371979 -0.0440959885482515 -0.0172984114838355 0.1438271 0.05416724 0.9881192 105 105 105
0.0415907795040458 -0.0403719039947541 -0.0154317779173909 -0.2781066 0.1427286 0.949887 93 93 93
0.0400812296087449 -0.040765264197286 -0.0194011889315233 0.2618197 -0.4243229 0.8668336 89 89 89
0.0442293872002784 -0.0411428726262049 -0.0168006863537098 -0.000631841 0.1400056 0.9901505 110 110 110
0.0418677829501934 -0.0399975500463849 -0.019487062943603 0.7628512 0.3368176 0.5519166 101 101 101
0.0287850130889085 -0.0577922903877655 -0.00191218864944187 0.980984 0.1840419 -0.06163573 97 97 97
0.0412029848400266 -0.0420606249770294 -0.0159767767149388 -0.1000198 0.1530607 0.9831421 104 104 104
0.0414059556869855 -0.043213671607325 -0.0159264042219392 0.06106958 -0.01001258 0.9980833 108 108 108
0.0424846749363008 -0.0417002683515477 -0.0169744447382321 -0.04611299 -0.1191375 0.9918064 106 106 106
0.0439526575735456 -0.0431134978936243 -0.0173871903137692 -0.1517725 0.007305314 0.9883885 107 107 107
0.0363338327085834 -0.0375412521624978 -0.0216582192192603 -0.2220324 -0.04274424 0.9741019 61 61 61
0.0358962935576503 -0.0394033792198538 -0.0231951900893288 -0.05002648 0.4498732 0.8916902 94 94 94
0.0395786043838282 -0.0381300266157891 -0.0214267896682636 -0.4024841 -0.01770563 0.9152557 78 78 78
0.041418240708097 -0.0365070360456041 -0.0218576897312925 0.186195 0.1705174 0.9676028 73 73 73
0.0425587326196508 -0.0369526756141152 -0.0227647071621975 0.07575469 0.2053139 0.9757599 107 107 107
0.0419366498260692 -0.038992100692371 -0.0214503401861807 -0.07472334 0.1011814 0.9920579 77 77 77
0.0409459667433882 -0.0388871042170551 -0.0228681761063183 0.1659414 -0.03411436 0.9855454 94 94 94
0.0352750664913877 -0.0416206783189264 -0.0191796574747989 0.1165813 0.51363 0.8500547 107 107 107
0.0354806855856691 -0.0474165352804403 -0.0193864755547153 -0.0919686 0.2212747 0.9708652 83 83 83
0.0371680492455091 -0.0454011071519775 -0.019235117019161 0.049681 0.2324018 0.9713502 66 66 66
0.0367296312076286 -0.0442801681582203 -0.023024735629728 -0.08531431 -0.8185734 0.5680309 66 66 66
0.0345682232518842 -0.0470159367277074 -0.0216768602778169 0.004293048 -0.008275796 0.9999565 67 67 67
0.0387504775578553 -0.0471795748415744 -0.0210046809619924 -0.02231825 -0.01474204 0.9996422 112 112 112
0.0426131755253221 -0.04366442387405 -0.0191742945998144 -0.2089198 -0.05557568 0.9763523 84 84 84
0.044886581983566 -0.0455652290999597 -0.0193459452952844 -0.2097802 0.06371696 0.9756702 92 92 92
0.04462195251944 -0.045092016509656 -0.0191024806114231 -0.4542218 0.1491889 0.8783082 103 103 103
0.0410068153774075 -0.0458098275752663 -0.0216634037426784 -0.184092 -0.1759282 0.9670364 79 79 79
0.047861350769927 -0.0323284556991714 -0.0174535575340093 0.1143713 0.05428958 0.9919536 96 96 96
0.048387925971751 -0.0329297879267658 -0.0195677651170842 0.1872163 0.4198245 0.8880864 103 103 103
0.0458142135639148 -0.0372854969416501 -0.0174514241440493 -0.03843512 0.2029051 0.9784438 105 105 105
0.0473463238484548 -0.0346472108606646 -0.0165376163900605 0.02519991 0.221205 0.9749017 107 107 107
0.0475148853234184 -0.0362962194648864 -0.0172848225614685 -0.110831 0.1615387 0.9806231 110 110 110
0.0477330072953259 -0.0351023258542025 -0.0194869203293677 0.2493165 0.9203987 0.3011768 88 88 88
0.0515190682056033 -0.0319135399410511 -0.0195692887770855 0.2249061 -0.07459582 0.9715208 80 80 80
0.0504386382500353 -0.0338300324639522 -0.0163679628841963 -0.1256139 0.1061374 0.9863853 125 125 125
0.0548752718054342 -0.0352801070579181 -0.0176919951624889 -0.004249726 0.1047885 0.9944854 95 95 95
0.0510150036699746 -0.0345358343368636 -0.0194537782298518 0.07767096 0.08569191 0.9932895 88 88 88
0.0512621885790014 -0.0366281543531439 -0.0194379739503771 0.02211017 -0.05961058 0.9979768 84 84 84
0.0533367168528325 -0.0341356500947496 -0.0194173220706066 0.02524195 -0.4536786 0.8908078 77 77 77
0.0449593188246831 -0.0372042178910612 -0.0160505136935389 -0.05079652 0.2619884 0.9637333 104 104 104
0.0469419286508297 -0.0398947085049999 -0.016261315531906 -0.08539427 0.2702887 0.9589848 103 103 103
0.0495241554928634 -0.0391103202116718 -0.0192767364586847 -0.07469114 0.05536602 0.9956685 97 97 97
0.0533553692197983 -0.0360551306615078 -0.0160258700749109 0.02965909 -0.103676 0.9941688 96 96 96
0.055875381935061 -0.0373235742315252 -0.0176240161334517 -0.003017019 0.6027697 0.7979096 87 87 87
0.0560661103409787 -0.0378106651256096 -0.0194757793530927 -0.08726478 0.7648431 0.6382788 118 118 118
0.0563148054730731 -0.0408028391015942 -0.0169541233484555 -0.03739211 0.7542005 0.6555787 94 94 94
0.0476373839639959 -0.0358704899164644 -0.0228840920564037 -0.05487133 -0.4264107 0.9028638 98 98 98
0.0484096536356109 -0.0355005770618504 -0.0234325751178185 -0.04144665 -0.04183879 0.9982643 102 102 102
0.0451437703098434 -0.0398295884766378 -0.0222468609674984 -0.1552428 -0.04436513 0.9868796 88 88 88
0.0549817519546887 -0.033619157566074 -0.0229950923211136 -0.2297129 -0.5157428 0.8253735 118 118 118
0.0461941275771327 -0.0418789070225833 -0.0192222068090657 0.08082566 0.1807533 0.9802017 80 80 80
0.049335441614073 -0.040439068128105 -0.0193130818488564 0.06209019 -0.06944537 0.9956516 73 73 73
0.0492140977378546 -0.0448761182696653 -0.0191199228995042 -0.07967338 -0.07962259 0.993636 87 87 87
0.0495751032057741 -0.0407340968674883 -0.022997105840524 -0.248347 -0.236223 0.9394267 85 85 85
0.0466276568151036 -0.0447899140846548 -0.0229627160010712 -0.02693114 -0.6964342 0.7171152 90 90 90
0.0472422797467855 -0.0449667558089788 -0.0225393781083358 0.3699518 -0.6998301 0.6110429 78 78 78
0.0538332773463726 -0.0403801838151283 -0.0194207123326285 -0.05605001 0.2293094 0.9717385 86 86 86
0.0516315256539857 -0.0434043437788629 -0.0193912748687547 -0.08898808 0.1443756 0.9855135 76 76 76
0.0526046065091863 -0.0441612849111337 -0.0188492331442442 -0.2466698 0.254596 0.9350588 85 85 85
0.0548407965611561 -0.0437336730921454 -0.0193452253279011 -0.3056262 0.4847045 0.8195451 98 98 98
0.0545682533214 -0.0413882564701566 -0.0195145151361861 0.1180899 0.6230426 0.7732223 106 106 106
0.0557272731754348 -0.0412533176691627 -0.0220792294423567 -0.03017595 0.4069901 0.9129339 70 70 70
0.0526257090159947 -0.0447735718075011 -0.0195367038404856 -0.1557725 0.09217353 0.9834831 86 86 86
0.0542569566033186 -0.0446329517970445 -0.0204594936147768 -0.2821844 0.5308273 0.799121 75 75 75
0.0111932747997094 -0.0467807419631709 0.00107946550476631 0.1804083 -0.2049841 0.961995 30 30 30
0.0105882157897967 -0.0444779353529199 -0.00367643495833406 -0.00428607 -0.3417769 0.9397714 41 41 41
0.0181126749630633 -0.0420638217661975 -0.00321661291756897 -0.0147019 -0.8078961 -0.5891415 119 119 119
0.0188954731739801 -0.043667578419113 -0.00236276741127714 0.3995305 -0.9085299 -0.1222649 23 23 23
0.0209393908349857 -0.045891235814072 0.0017937693027657 0.9428051 0.08219653 0.3230517 62 62 62
0.0184318321148824 -0.047712000693005 -0.00182873869968622 0.1922873 -0.9693946 0.1526423 118 118 118
0.0184196340747633 -0.0491537090930152 -0.00118382997405828 -0.0179333 -0.9914141 0.1295243 47 47 47
0.0104785056998413 -0.0466497940556689 -0.00555039949361416 -0.1228438 0.8637803 0.4886645 66 66 66
0.0192990652769931 -0.0477418894113153 -0.00305927564321637 0.1554513 -0.9386283 -0.3079153 31 31 31
0.0111018371887692 -0.051993531983173 -0.000499671580370925 0.9576622 0.2653946 -0.111574 69 69 69
0.0138538492783244 -0.0522701024763264 -0.00060008768736064 0.9744671 0.2034134 -0.09506253 61 61 61
0.0158189140456715 -0.0533807692084469 -0.00307926762549046 0.9795889 0.1660689 -0.1132547 34 34 34
0.0123871760015568 -0.0529605602946126 -0.00411524065538904 0.9580092 0.2553911 -0.1303599 29 29 29
0.0114449026947046 -0.0519848440365445 -0.00594225450741304 0.9558309 0.274523 -0.1049969 54 54 54
0.01391691335825 -0.05314919303176 -0.00626804812863813 0.980944 0.1737948 -0.08685786 57 57 57
0.0147786472265561 -0.0534517311564244 -0.00476840114695395 0.9825481 0.1746139 -0.06410256 34 34 34
0.0204170253752964 -0.0549532547073086 -0.0044730263360237 0.9903308 0.1326434 -0.04062735 56 56 56
0.021751917522685 -0.0422805246832307 -0.00200544925857318 0.3024319 -0.9382002 -0.1682713 29 29 29
0.0221998039517746 -0.0425619341317807 0.0014727071443526 0.2478277 -0.9331371 -0.2604547 58 58 58
0.0252529276029689 -0.0431549240814733 -0.00417893640159264 0.5855007 0.08322553 0.8063885 31 31 31
0.0317963402904182 -0.0443661238898287 -0.000797065476925901 0.05544927 0.9829263 0.1754457 87 87 87
0.0277024381883748 -0.0466540747886177 -0.0016864945153815 0.8758234 0.2696343 0.4002884 53 53 53
0.0331346880908885 -0.0462919224820002 0.00225620601981361 -0.07519185 -0.5003306 0.8625634 68 68 68
0.0234382922167571 -0.0430866644511405 -0.00702686649442855 0.3749273 0.2797332 0.8838432 97 97 97
0.0258862664296968 -0.0472086114330903 -0.00645532458054179 0.2198464 0.1320985 0.9665493 93 93 93
0.0306636083278491 -0.0476550087958392 -0.00797408655219786 0.9590604 0.2831986 -0.001273783 72 72 72
0.0288943048504435 -0.0501477701322122 -0.00059877793576002 -0.3409752 0.8265328 0.4478608 60 60 60
0.0333833416809832 -0.0495861471349044 -0.00192333541013875 0.6661048 0.5672275 0.4843111 57 57 57
0.0341097683136611 -0.0477798782461758 -0.00492019174230149 0.5396654 0.3352364 0.772255 96 96 96
0.0122148839289369 -0.0515269283575974 0.0055275031923101 0.9881405 0.1448422 -0.05098058 65 65 65
0.0140733317261936 -0.0521553005042887 0.00527324213338409 0.9899123 0.1140368 -0.08407826 83 83 83
0.0164001354230441 -0.0530986823311808 0.00603354849054208 0.979848 0.1758872 -0.09466559 55 55 55
0.015320896377935 -0.052759437328757 0.00534286188425151 0.9854842 0.124149 -0.115792 58 58 58
0.017496397106844 -0.0538604150723754 0.0035376347859413 0.9619304 0.2183759 -0.1643226 41 41 41
0.0190988213581531 -0.0539605488180313 0.0069902428222775 0.9705801 0.215715 -0.1069642 134 134 134
0.0235571651009885 -0.0552738222454519 0.00706052476421579 0.9884145 0.1103379 0.1042221 60 60 60
0.0232656876648147 -0.0547651988584532 0.00594266466210555 0.9977878 -0.05331688 -0.03970956 68 68 68
0.0178962039298458 -0.0535571529169436 0.00431314823016329 0.960627 0.2148962 -0.176112 37 37 37
0.0210483251226716 -0.054904327741915 0.00166069333598223 0.9847643 0.1409421 -0.1018554 79 79 79
0.0207981678047218 -0.0544838167939961 0.0038758323826365 0.9824953 0.01075217 -0.1859768 69 69 69
0.0182013510872518 -0.0542798879705593 0.000107356361249505 0.9754921 0.2014553 -0.08849233 62 62 62
0.0246217971689766 -0.0506063538633252 0.00499462556216565 -0.5332471 0.6772081 0.5069879 70 70 70
0.0254804032861908 -0.0503423593740311 0.00506199584019082 -0.4501259 0.7290696 0.5156009 63 63 63
0.0258175291555489 -0.0507786812977622 0.00578476364392597 -0.2885532 0.8601909 0.4204863 50 50 50
0.0252145397664705 -0.052608139148578 0.00661962148601888 0.8930205 0.3209637 0.3154311 57 57 57
0.0240117433263369 -0.0551429257833855 0.00422912057992395 0.905503 0.1344563 -0.4024747 51 51 51
0.0294067422129718 -0.0498423531451855 0.00580951629053839 0.04598313 -0.09547455 0.9943692 52 52 52
0.0323036996846746 -0.0495752854717715 0.00432853189791019 -0.09920619 0.5993303 0.7943307 39 39 39
0.0347869979449142 -0.0506136671602255 0.00502048631955859 0.9771535 -0.09407558 -0.19058 57 57 57
0.0346324844343815 -0.052606686244018 0.0070780149194038 0.3984267 -0.9090409 -0.1220688 65 65 65
0.0247810916420645 -0.0558038333869841 0.0097058089402132 0.9624152 0.2439674 0.1193189 62 62 62
0.0253762573737357 -0.0556308426706902 0.00753292298201477 0.9356431 0.3467228 0.06599455 48 48 48
0.0279044582957142 -0.0569665762475842 0.00751421653775564 0.9275911 0.3714012 -0.04044645 59 59 59
0.0282372164184339 -0.0565513735222374 0.00974721499017439 0.9723514 0.2333083 0.009998116 50 50 50
0.0301362467330775 -0.0565618370159628 0.00967164136172075 0.9811054 0.1920617 -0.02333221 65 65 65
0.0300068103868623 -0.0578460483394938 0.00974939530297161 0.9766764 0.2139102 0.01859155 53 53 53
0.0304313642984082 -0.0581645882953263 0.00868737686415613 0.9682233 0.2455573 -0.04738421 39 39 39
0.028238672805994 -0.0568788644102842 0.00658441144228117 0.9328516 0.3384602 -0.1234202 61 61 61
0.0295594776985628 -0.0578109684896602 0.005987425215953 0.9542648 0.2854953 -0.08871882 55 55 55
0.0281044678669244 -0.0572175149363814 0.00358243595898944 0.9467077 0.3207479 -0.02941471 84 84 84
0.0315915104889772 -0.0582973301855463 0.0100520335245432 0.9642408 0.2649301 -0.007192113 56 56 56
0.032562664369882 -0.0575642989842398 0.00880857621542588 0.9419972 0.3267471 0.07666551 48 48 48
0.0356961173701202 -0.0598690139803222 0.0062781444223558 0.9846639 0.1743239 0.006940703 53 53 53
0.0242843350395938 -0.0556989064133551 -0.000570588263446498 0.9888108 0.09394728 -0.1158753 58 58 58
0.0252450958062669 -0.0559946522335286 -0.000360552751904525 0.9901035 0.1025926 -0.09575877 94 94 94
0.025459406294293 -0.0564596508662278 0.000807531545034962 0.9882652 0.1293339 -0.08126871 54 54 54
0.02710206365154 -0.0568059604514297 0.000295870927096042 0.9599287 0.2775181 -0.03899496 82 82 82
0.0274192284169912 -0.0566894423701703 0.00178274905557074 0.9554319 0.2946355 0.01843682 69 69 69
0.0268662626273013 -0.0557220623902424 -0.00160896787462395 0.9938467 0.08098124 -0.07557055 29 29 29
0.0293041897290414 -0.056502463726031 -0.00238579874461572 0.9698563 0.1191388 -0.2125672 51 51 51
0.0282658366252533 -0.0576418520183215 -0.0010128345405237 0.9838684 0.1780636 -0.01721217 57 57 57
0.0295173042270755 -0.0567964882456033 -0.00107449727799933 0.9815595 0.1910033 -0.007666265 74 74 74
0.028874646721335 -0.0578446387278313 -0.000902077378210131 0.9765232 0.2154124 0.000140562 66 66 66
0.0282381470849351 -0.0573629643946099 0.00253221989619601 0.9537421 0.300426 -0.01095951 54 54 54
0.0308414352746886 -0.0585185209390564 0.00335767614045737 0.9733812 0.2275198 -0.02763532 79 79 79
0.0340486474110619 -0.0593505741382807 0.00223013287675838 0.9906507 0.1320011 0.03445034 66 66 66
0.0360201076856344 -0.059863118082744 0.00423600461675327 0.9858639 0.1522137 0.07002445 60 60 60
0.0322273872459302 -0.0590430451009696 -0.000142654689890692 0.9774237 0.2097986 0.0250513 63 63 63
0.0363658987982471 -0.0590945419612567 3.12928044481076E-05 0.891916 0.4521706 0.005243008 63 63 63
0.0364499922999761 -0.0600488016379408 0.000654894292105163 0.9831617 0.1804275 -0.02896537 51 51 51
0.0340425254051329 -0.0592685310444225 -5.89196853020835E-05 0.9633892 0.2521601 0.09108564 40 40 40
0.013545048386139 -0.0507317768870177 -0.014899328851431 0.7185282 0.354964 0.5980952 120 120 120
0.012916286277151 -0.0534496968627149 -0.0123321030007344 0.9789672 0.179629 0.09673017 72 72 72
0.014287187034449 -0.0542866795323753 -0.0111854832061742 0.9759814 0.1975623 0.09181168 57 57 57
0.0132270561467425 -0.0527600007651228 -0.00786194074980706 0.9804438 0.1822885 -0.0741678 70 70 70
0.0162453113971734 -0.0542157416352385 -0.00611660939980371 0.9829879 0.1683989 -0.07332472 65 65 65
0.0200124688625365 -0.0547150868298889 -0.00685703996492032 0.9828788 0.1648636 -0.08227514 74 74 74
0.0219415977842925 -0.0560285366115425 -0.00571237650376358 0.9862934 0.1425231 -0.08314123 48 48 48
0.0216398025423634 -0.055594956450997 -0.00681334156536123 0.9835584 0.1507301 -0.09946511 39 39 39
0.0196231050395326 -0.0546503026222978 -0.00970961313724666 0.9804985 0.193842 0.03237243 32 32 32
0.0228591843620383 -0.0565690410618083 -0.0103064883643737 0.989235 0.1462644 -0.004559353 46 46 46
0.0128078435435977 -0.0508797568691064 -0.0164477104182712 0.6713456 0.2294362 0.7047369 135 135 135
0.0157236426657821 -0.0516141197588009 -0.0154426020883125 0.8376549 0.06989896 0.5417088 125 125 125
0.0138424759938924 -0.0549242513300319 -0.0165705022766547 0.8952079 0.09853051 0.43462 25 25 25
0.0175217658667444 -0.0513603825208218 -0.0171858512503346 0.4189747 -0.1875058 0.8884266 121 121 121
0.0215611056088347 -0.0490825147502787 -0.0165673989964998 0.379134 -0.1436647 0.9141214 109 109 109
0.0215003552541935 -0.0514428214081624 -0.0150476239163357 0.4735862 -0.1715437 0.8638801 96 96 96
0.0200434784403156 -0.052521279933784 -0.0159807445189434 0.3883668 -0.01567872 0.9213715 124 124 124
0.0210243421709688 -0.0528110931380343 -0.016583060641027 0.2176765 -0.01659116 0.97588 108 108 108
0.0213614132556612 -0.05246212717597 -0.0160306022944836 0.2476826 0.02570192 0.9685003 114 114 114
0.0170053093934097 -0.0517555329689092 -0.0191163737017017 0.7768381 0.01947162 0.6293993 78 78 78
0.0177682791650973 -0.0541806716177384 -0.0189003661155471 0.7689453 0.01286695 0.6391851 97 97 97
0.0218683493786926 -0.0525738582825026 -0.0185489629512376 0.02427868 -0.02618702 0.9993622 47 47 47
0.018258274030047 -0.0558336928398251 -0.0185478239421739 0.7635361 0.181593 0.6197069 74 74 74
0.0169855157418426 -0.0552407318374146 -0.0136420599621856 0.9609667 0.1714631 0.2171254 41 41 41
0.0177939955072233 -0.0552460412667322 -0.0136352944582094 0.9490889 0.2419971 0.2016625 57 57 57
0.0204469072200248 -0.0557486665525697 -0.01434473464699 0.9508243 0.2207209 0.2172913 69 69 69
0.0259245510417561 -0.0487980225885205 -0.015222272259778 -0.04628406 0.1459947 0.9882021 126 126 126
0.0279936132713745 -0.0524817871289762 -0.00647439608886213 0.4105927 0.5480052 -0.7287688 48 48 48
0.0267012583331403 -0.0571836309534171 -0.00792734546345109 0.9606361 0.1998215 -0.1930018 55 55 55
0.0266677293969113 -0.0576315553775444 -0.0102557244174298 0.9759589 0.2175149 -0.01383545 27 27 27
0.0237832817640937 -0.0514060191118748 -0.0191112065953822 0.6054749 0.1755937 0.7762519 106 106 106
0.0273138298361399 -0.0502641798258472 -0.0190500484974124 0.1319185 -0.3919483 0.9104801 96 96 96
0.0275683720257511 -0.0530144225647822 -0.0189306338642897 0.2860518 0.02753106 0.9578186 97 97 97
0.0243425864857996 -0.0544083777935964 -0.0190008457595127 0.3008541 -0.04125404 0.9527774 97 97 97
0.0263876491978612 -0.0550513878608565 -0.0190544291650249 0.2433976 0.0613353 0.9679853 87 87 87
0.0306963221193992 -0.0493445707538798 -0.0174461225525212 -0.1621999 -0.1225511 0.9791182 104 104 104
0.0335431650449514 -0.0478530221424147 -0.0168244865816213 -0.08538914 0.1049574 0.990804 98 98 98
0.0302855804491533 -0.0517722977348367 -0.0163481042694996 0.01930722 -0.2076058 0.978022 123 123 123
0.0312238572304571 -0.049381522332004 -0.0189427053395506 -0.1686048 -0.06602082 0.9834702 81 81 81
0.0293032568258698 -0.0510523874671389 -0.0190625351097181 -0.1287093 -0.4819161 0.8667126 90 90 90
0.0303502084436296 -0.0520173333197058 -0.0190641621711852 -0.05484749 -0.1414828 0.9884201 96 96 96
0.0319083597273639 -0.0523575175244613 -0.0189802006789957 0.1664345 -0.08506217 0.9823767 92 92 92
0.0323716704498187 -0.0539589305541941 -0.0190274106283879 0.3643424 -0.07725325 0.9280552 85 85 85
0.0331103977781508 -0.0516408491265437 -0.0168790432661579 -0.04848959 0.1051894 0.9932693 114 114 114
0.0265567804541924 -0.0546552139754377 -0.015543656882914 0.4334884 0.3775643 0.8182499 109 109 109
0.0272877371577041 -0.0562547839828071 -0.0162527625429639 0.5864959 0.4889567 0.645712 107 107 107
0.0296181443314862 -0.0592610738991082 -0.0133269970149935 0.9719327 0.2349251 -0.01252946 56 56 56
0.0327244540894418 -0.056259164025092 -0.01703321709516 0.1867062 0.03060211 0.9819391 84 84 84
0.0265544766631585 -0.0566847672364128 -0.00502797930060239 0.9751626 0.2076156 -0.07715997 49 49 49
0.0269295475242779 -0.0570387560093057 -0.00622260565325694 0.9702902 0.197604 -0.1396054 53 53 53
0.0292181914568781 -0.0580604764425869 -0.00462607576443416 0.9550765 0.2874804 -0.07199965 74 74 74
0.0313323466479105 -0.0587073793332036 -0.00248393816104361 0.967404 0.1986151 -0.1571036 41 41 41
0.0332909850034511 -0.0586951670684155 -0.00400709720979325 0.9743016 0.1219886 -0.1893549 62 62 62
0.0306696501668029 -0.0587239659718644 -0.00734651771255765 0.9730078 0.18348 -0.1399674 33 33 33
0.0333248770733028 -0.0593192922545587 -0.00775443257718728 0.9852373 0.08498418 -0.1486106 75 75 75
0.033489791399433 -0.0594339562614155 -0.00622633894758412 0.984894 0.1040291 -0.1384259 48 48 48
0.0360445876801943 -0.0598013096930639 -0.0031640433883276 0.9907644 0.1355481 -0.003548456 66 66 66
0.0328823659108357 -0.0595477077190296 -0.0101618940483655 0.9856811 0.109955 -0.1278388 42 42 42
0.0345223265128705 -0.0597625621986226 -0.00835841395847298 0.9832002 0.06795968 -0.1694073 70 70 70
0.034661507945591 -0.0599191250443163 -0.00929230578013557 0.9827828 0.05577512 -0.176145 65 65 65
0.035228782112543 -0.0596149470121781 -0.00847797096786579 0.9857948 0.04665013 -0.1613456 63 63 63
0.0311818597262179 -0.0599309990866725 -0.0126490096270802 0.9728205 0.2119939 -0.09316108 62 62 62
0.0335572333584497 -0.0610220651678715 -0.0126433386498389 0.9955406 0.06735498 -0.06604718 45 45 45
0.035428889575789 -0.0609635100340362 -0.0124618137011468 0.9995117 0.006440121 0.03057604 52 52 52
0.035815265476318 -0.0613184993819074 -0.0141602391511982 0.998366 0.05309916 0.02111508 62 62 62
0.04440651290775 -0.0388702719240117 -0.00263791086356499 0.8801793 -0.4683659 -0.07692688 51 51 51
0.0411583054546076 -0.0418152784869472 -0.00296337381006806 0.7587975 -0.6430703 -0.1033776 63 63 63
0.0448507778665534 -0.0414468180287384 -0.002809271111164 0.6696795 -0.3167082 0.671733 92 92 92
0.0359564015130518 -0.0435597658382685 -0.00578774074498739 0.3863845 -0.477632 0.789034 91 91 91
0.0362057695799105 -0.0463465353639922 -0.0086873547363609 0.6916057 0.6611231 0.290857 24 24 24
0.0449097522086583 -0.0415454910099935 -0.00443912678975963 0.7545824 -0.5746699 0.3167964 63 63 63
0.0406826921286056 -0.0432604574755027 -0.00852193316561881 0.02546142 -0.8913157 0.4526677 93 93 93
0.0359571633354918 -0.0504471139493354 -0.0018774308819543 0.4073401 0.602534 0.6863139 89 89 89
0.0438247237661671 -0.0488351178622577 -0.00102123792042397 0.1425259 -0.9017625 0.4080572 83 83 83
0.0430423324522864 -0.0483114975033148 -0.00472335614634667 -0.04927759 -0.7414591 0.6691862 92 92 92
0.0428979224165669 -0.0509272747664762 -0.00567824499149161 0.4528847 -0.01804336 0.8913865 93 93 93
0.0463627469313421 -0.0407282661835422 -0.0035681527286599 0.8747686 -0.3043073 0.3770636 73 73 73
0.0517785199399363 -0.0389064845346991 -0.00104784827027884 -0.2643566 -0.833711 0.4848109 27 27 27
0.0553254316596115 -0.0369329688941209 0.000318438535742094 -0.3723051 -0.9172121 -0.1418127 29 29 29
0.0517742114243722 -0.0434737483340726 -0.000877453124208116 -0.621403 -0.4911599 -0.6104263 49 49 49
0.0507375936371433 -0.0459503575107509 -0.000778347895811382 -0.5752609 -0.6857852 -0.4458403 45 45 45
0.0543844155562385 -0.0414563114319104 0.00257991862517926 -0.03041083 -0.997609 -0.06205972 45 45 45
0.0538664070976995 -0.0436769614113415 0.0039284962400162 -0.1890608 -0.9388552 -0.2877618 43 43 43
0.0529459746622984 -0.0416591781794808 -0.00182631207537001 -0.3032281 -0.9483356 0.0933395 55 55 55
0.0554235203399693 -0.0421182503528605 -0.00839155863117458 -0.5781299 -0.7035861 -0.4131978 50 50 50
0.0559988408351255 -0.0410736269237217 -0.00845750837907444 -0.5602892 -0.7987905 -0.2191114 45 45 45
0.0545367745564871 -0.0436054589720649 -0.00278450817738976 -0.3754478 -0.8702268 -0.3189737 38 38 38
0.0559163650186438 -0.0435630002787464 -0.00442213762913593 -0.4553378 -0.7903029 -0.4099863 51 51 51
0.0559474233819708 -0.045961178914282 -0.00127082556777394 -0.515089 -0.824162 -0.2354577 33 33 33
0.0562355253840019 -0.0463789035253803 -0.00340297376527335 -0.3621198 -0.6707581 -0.6472656 29 29 29
0.0575077258477867 -0.0450698085988632 -0.00543442474488179 -0.3168067 -0.9091765 -0.2702437 26 26 26
0.0413723534723314 -0.0529555163707467 0.00509577016837334 0.1292798 0.9853305 0.1114026 41 41 41
0.0424073690232458 -0.0491199682689951 0.00494658922621993 0.6624935 0.2763733 -0.6962185 59 59 59
0.0433573826434783 -0.0529978126185611 0.00602869548685048 0.08125973 0.627125 0.7746683 60 60 60
0.0357543325148866 -0.052626754639856 0.000616277457457792 0.07990886 0.9512707 0.2978232 95 95 95
0.0367208793264722 -0.0587482359840485 0.00184290059352141 0.9392872 0.3326822 0.08403598 44 44 44
0.0398602476906027 -0.0606868690790876 0.00181081674710268 0.991658 0.1283671 -0.01167726 42 42 42
0.039267041289001 -0.060824332556594 0.00327066667623496 0.9918415 0.1272292 -0.007945936 42 42 42
0.039123316546221 -0.0608743571593209 0.00296259584253009 0.99057 0.136777 0.007947815 44 44 44
0.0408016422639965 -0.0611996065342673 0.00316909083344161 0.9979448 0.05440764 -0.03385399 41 41 41
0.0420361627648862 -0.0615843209065319 2.01193329915916E-05 0.9998574 0.01206524 -0.01181234 42 42 42
0.0459176428633803 -0.0597193315195907 0.00341461587736827 0.9975715 -0.06621964 -0.02158788 40 40 40
0.0480163564402976 -0.0467515847632853 0.00322040194082998 0.8228676 -0.249542 -0.5105073 60 60 60
0.0548004116965237 -0.0448014308214775 0.00324964616572151 -0.4511811 -0.8863539 0.1039829 58 58 58
0.0559258965749001 -0.0491260769450308 0.00368361359819688 -0.2734046 -0.9559954 -0.1064082 35 35 35
0.0562117922952377 -0.0503694418144065 0.00215545810723725 -0.1833671 -0.9662195 -0.1810973 41 41 41
0.0585249769007099 -0.0488134549753518 0.00422948667755974 -0.2533211 -0.9604841 0.11532 54 54 54
0.0566544337098882 -0.0545659646809582 0.00490328356789427 -0.2208563 -0.9650505 -0.1410675 59 59 59
0.0565183564235971 -0.0492015690554477 -0.00256451602012478 -0.3469065 -0.933374 -0.09202647 44 44 44
0.0567979341640521 -0.0508217311516845 -0.00266557914197796 -0.2646971 -0.9633974 -0.04243563 80 80 80
0.0573786316438649 -0.0528949701114025 -0.00323809789622331 -0.2740043 -0.9610213 -0.03687444 78 78 78
0.0570625384234031 -0.0560878670087308 -0.000909789667554173 -0.1094222 -0.9936058 -0.02782662 38 38 38
0.0569953390551146 -0.0578796579644496 0.000541803759158799 0.101173 -0.9932446 -0.05682562 14 14 14
0.0361299766218344 -0.0475758634010901 -0.010304577237293 0.9407973 0.2438116 -0.2354917 36 36 36
0.0380239120249906 -0.0465379802720245 -0.0151055132967964 -0.2264766 0.528964 0.8178664 93 93 93
0.0426268521987831 -0.0484225545791004 -0.00785465907220062 0.1526101 0.9824018 -0.1076882 82 82 82
0.042785837026009 -0.0497944370855403 -0.0117728691503476 0.9279896 0.2751149 0.2512907 72 72 72
0.0428806191891811 -0.053866900776034 -0.00883315503982507 0.2725232 0.9556102 0.1119831 83 83 83
0.0350635163229922 -0.047694538273054 -0.0174109648099675 0.1252045 0.1059297 0.9864597 102 102 102
0.0399466612264381 -0.050075869483879 -0.0165878543253866 0.1234817 0.05881687 0.9906023 85 85 85
0.039445605656582 -0.0490325870720092 -0.0190791290303443 -0.0290376 0.0612683 0.9976988 91 91 91
0.0379388271736822 -0.0495485550205936 -0.0192606218260556 0.2316549 0.4576506 0.8584241 70 70 70
0.0397864505930619 -0.0508452871171725 -0.0190603499757616 0.2424128 0.2992027 0.9228834 85 85 85
0.0361046159160412 -0.052551405276458 -0.017319375946723 0.07806348 -0.1205553 0.9896325 94 94 94
0.0372109705405572 -0.0524432753111694 -0.0192163094278568 0.4281586 -0.02345442 0.9033992 92 92 92
0.0408387297058799 -0.0475701316827837 -0.0158682374655501 0.1025982 -0.4111992 0.9057532 96 96 96
0.0431112275134868 -0.0491759022929568 -0.0159437690453168 0.4454904 0.4443041 0.7772594 95 95 95
0.0424166979032814 -0.04661712862852 -0.019166249245673 0.550198 -0.2371414 0.8006535 55 55 55
0.0435999908958309 -0.0479770181666543 -0.0200137340355004 -0.03144745 -0.2947759 0.9550488 90 90 90
0.0422404801406273 -0.0518700285779923 -0.0191980039164514 0.03468852 -0.05014439 0.9981394 96 96 96
0.0452685124997469 -0.0509952357071048 -0.0192313943363007 0.2263709 -0.07848302 0.9708741 108 108 108
0.0441406654346324 -0.0521062876484586 -0.0189924771035288 0.2073825 0.1038921 0.9727275 61 61 61
0.037063207195448 -0.055155453904314 -0.0149792815836136 -0.05048634 -0.1048064 0.9932103 89 89 89
0.0390297254963614 -0.0550185675184296 -0.0165584447236027 -0.07744443 0.2137669 0.9738101 71 71 71
0.0402922390045457 -0.0547110148272694 -0.0164880734066733 0.02420544 0.2117716 0.9770194 102 102 102
0.0369775318249383 -0.0566940396726494 -0.0156471854202738 0.1431625 0.08093273 0.9863845 119 119 119
0.0445589730816152 -0.0562235460400382 -0.0151104883368484 0.301279 -0.1846654 0.9354836 91 91 91
0.046340993733492 -0.044313814243468 -0.0161133750687454 0.01890428 0.01368077 0.9997277 124 124 124
0.0564488857173091 -0.0421058529343503 -0.0103735373610653 -0.08366282 -0.9808232 0.1760295 53 53 53
0.0501365913711456 -0.0455630528940603 -0.0156376021549755 0.1418429 -0.1237331 0.9821256 83 83 83
0.0510187149408599 -0.0485934964526649 -0.0164611533805003 0.05126194 -0.2658545 0.9626492 90 90 90
0.0468668714586871 -0.0473567271361484 -0.0191855331757831 -0.1863947 0.02090921 0.9822524 78 78 78
0.0491180538975555 -0.0466415539408505 -0.019139056850028 0.08264523 -0.4686084 0.8795317 81 81 81
0.0461508099487007 -0.0472312176824008 -0.0215335558454983 -0.6140864 -0.105583 0.7821445 72 72 72
0.0467632540589147 -0.0491048984084725 -0.0186184018307862 0.006188225 0.1455117 0.9893372 45 45 45
0.0466555960743789 -0.0502401672430117 -0.0192564749162378 0.441252 -0.1932338 0.8763318 79 79 79
0.0516884225864902 -0.0498784195878517 -0.0173632563744496 0.09203731 0.1188746 0.9886344 94 94 94
0.0492812994715111 -0.0509820519463386 -0.0191689764227864 0.3122385 -0.4736789 0.8234898 81 81 81
0.0510467176954803 -0.0484226700665586 -0.0190468471198597 -0.0754434 0.1847883 0.9798784 53 53 53
0.0520009234711862 -0.0436931098958775 -0.0168974963270256 0.08726025 0.07044721 0.9936915 87 87 87
0.0569372226031089 -0.0453647492347065 -0.0201009888239737 0.04122355 0.790692 0.6108246 94 94 94
0.0561735280153313 -0.0441415904776361 -0.0194963303194306 0.04663034 0.7051256 0.7075475 106 106 106
0.0562037732582796 -0.045348728183453 -0.0192075118773335 0.1197128 0.7063932 0.6976227 63 63 63
0.0555997712024798 -0.0462644112239154 -0.0193301902816062 0.03754023 0.4692539 0.882265 69 69 69
0.0571589141915931 -0.0468340218175327 -0.0189858047060904 0.00427735 0.6907004 0.7231284 97 97 97
0.0537977228196238 -0.0491927010118076 -0.0174586774243494 0.04111063 0.4301563 0.9018179 85 85 85
0.0538236876195897 -0.0497205909021823 -0.0191203899050049 -0.05514691 0.4033338 0.9133896 91 91 91
0.0488060986832728 -0.0533516669397056 -0.0165810296866038 0.03374755 -0.1447169 0.9888974 75 75 75
0.0493498071189111 -0.0541371397771089 -0.0172180932449907 -0.0002889486 -0.2324825 0.9726005 78 78 78
0.0505846985643814 -0.0526035315047457 -0.015563287558796 0.1043549 0.1272255 0.986369 92 92 92
0.0487725729720587 -0.0555575690547039 -0.0155887767081524 0.01390916 0.0006105146 0.9999031 95 95 95
0.0387714730984106 -0.0546562618322792 -0.00800022346709797 -0.2922066 0.7537197 0.5886611 51 51 51
0.038678676147281 -0.0605951755425924 -0.00187956049154561 0.9907319 0.1356263 -0.007467391 51 51 51
0.0412730588610568 -0.0611361177671623 -0.00240634097354131 0.9972258 0.07429115 0.004635942 68 68 68
0.0424292649786524 -0.0614450059567855 -0.00137327969056747 0.9998993 0.001431403 0.01411584 63 63 63
0.0378471507462257 -0.060395331747976 -0.00446252453271237 0.9922757 0.1230714 0.01557054 81 81 81
0.0390796682017762 -0.0606588480067363 -0.00622590435869655 0.9924192 0.111682 -0.05129605 42 42 42
0.0434478191086363 -0.0613641090319661 -0.00102075499737644 0.9983993 -0.05155385 -0.02326274 62 62 62
0.0478360365598203 -0.0602326264510129 -0.00165632429106763 0.9935651 0.07191332 -0.08750273 53 53 53
0.0440928934777733 -0.0615806880515484 -0.00568756017862415 0.9996071 -0.02796487 0.001900123 75 75 75
0.0483103266538849 -0.0620047559631971 -0.0053301252887403 0.9819763 0.1809941 -0.05443941 73 73 73
0.0462669619460794 -0.0617470572091008 -0.00326472433519065 0.9992221 0.03833365 -0.0092605 63 63 63
0.0423376245137164 -0.0611792712439017 -0.00929535803515247 0.9992541 -0.01284213 -0.03641881 41 41 41
0.0371619182773339 -0.061268846544045 -0.0111981714617282 0.9903855 -0.00221208 -0.1383171 44 44 44
0.0374766597298832 -0.0615652803532272 -0.0118717860813245 0.9955645 -0.02832536 -0.08971656 72 72 72
0.0393815865495251 -0.0614536097667515 -0.0125663050354102 0.9990858 -0.04238274 -0.005598657 36 36 36
0.0419460176077155 -0.0608657192871913 -0.0117509581138318 0.990456 -0.1294039 0.04745023 46 46 46
0.0439097672050155 -0.0614155957343774 -0.0104060570777396 0.9949573 -0.07313017 0.06864298 44 44 44
0.0446465576120507 -0.0614349880949741 -0.0112153652628595 0.9958612 -0.04830442 0.07698816 14 14 14
0.0462026539207141 -0.0613941362001058 -0.0119144219630432 0.9974298 0.04045299 0.05913779 68 68 68
0.0417183305678337 -0.0612707613621875 -0.006936428180673 0.9991193 0.03921392 0.01493134 52 52 52
0.0445370876859197 -0.0617975733524254 -0.007783270482421 0.9988122 0.03992554 0.02793016 36 36 36
0.0475196211399977 -0.0616212311090194 -0.00712806160026402 0.994525 0.1027223 -0.01918598 74 74 74
0.0458560696912305 -0.061283233131268 -0.00826976389307774 0.9931937 0.07363402 0.0902452 86 86 86
0.0575016104848678 -0.0526937496746875 -0.00711866479941825 -0.2159679 -0.9723396 -0.08895816 32 32 32
0.0508500751859211 -0.0632595897903414 -0.00383067206354101 0.966944 0.2538966 -0.02357706 69 69 69
0.0504666017869884 -0.0632088155638364 -0.00536351034784752 0.9684662 0.2463415 -0.03727048 63 63 63
0.0515576402874911 -0.0641197559037909 -0.00736073938299125 0.9906785 0.0774675 0.1120489 50 50 50
0.0527176137993126 -0.0629409865762502 -0.00771074322618731 0.9914362 -0.01173419 0.1300634 93 93 93
0.0551627806707915 -0.0637086625959213 -0.00674687106640062 0.9534373 -0.2247307 0.2011305 32 32 32
0.0495287626545824 -0.0627078012396414 -0.00958209117528727 0.9848517 0.1613883 0.06341065 62 62 62
0.0515161045096684 -0.0621563014218893 -0.0112171731526062 0.9974674 0.06644162 0.025382 63 63 63
0.052248583838381 -0.0638546817620154 -0.0095045576130785 0.9936371 -0.02204129 0.1104517 63 63 63
0.0543831029524364 -0.0631834111052421 -0.0113236434041223 0.9352457 -0.331248 0.1248608 67 67 67
0.053435822917502 -0.0642254530890856 -0.00858231149934968 0.9539027 -0.2499671 0.1660904 60 60 60
0.0536193389361697 -0.0641387691265145 -0.00976813363696144 0.9637225 -0.1972348 0.1798263 60 60 60
0.0579112398826742 -0.0610041875015646 -0.00991817693225616 0.4857128 -0.8736314 -0.02917478 51 51 51
0.0559903156782502 -0.0628927981101954 -0.00903346131462315 0.8613737 -0.4531473 0.2295494 45 45 45
0.0451911308901332 0.0576892768900654 0.0213566466385083 -0.9740196 -0.2264521 -0.002298798 93 93 93
0.0414747423188468 0.0572249342231252 0.0243170557830568 -0.8790977 0.1717875 -0.444608 102 102 102
0.0471543614038725 0.057337876354155 0.0243303835149569 -0.5723149 -0.3160527 -0.7566811 92 92 92
0.0425137818361461 0.054979520642507 0.023771556020837 -0.3391353 0.2427707 -0.9088727 76 76 76
0.0474468585829708 0.0529907211203606 0.023133921754812 -0.1505667 -0.543559 -0.8257563 31 31 31
0.047574673993229 0.057924025313379 0.0243369343982508 -0.7843498 -0.5842887 -0.2083319 91 91 91
0.0423313591573806 0.0569427414726631 0.0199596801663895 -0.9766601 0.2125639 -0.03084879 90 90 90
0.0421580203119518 0.0552054224257486 0.0170013161876142 -0.9790471 0.2034077 0.009591922 81 81 81
0.0487303223045874 0.0570595709151172 0.0180288061101687 -0.7856525 -0.6185145 0.01378172 80 80 80
0.0499891878537382 0.0559946521497945 0.016709443996565 -0.7267983 -0.6864518 0.02341181 86 86 86
0.0431499758729557 0.0558244038539759 0.0201428331916059 -0.9980453 0.06172822 0.009753672 94 94 94
0.0493188132617122 0.0525215237266261 0.0197810692042836 -0.251247 -0.9576082 -0.1409309 17 17 17
0.0449306072068769 0.0479857508446682 0.019671741271319 0.2181123 -0.8954262 -0.3881223 26 26 26
0.0481885365772416 0.0463078398180405 0.019573812355628 -0.1229601 -0.9903634 0.06372692 41 41 41
0.0459238230802119 0.0455572694539512 0.0254594213253768 0.0008763018 -0.1172559 0.9931014 35 35 35
0.0483651485689516 0.0439907611149744 0.0220406323314891 -0.1260752 -0.977669 0.1681319 17 17 17
0.0485799001575089 0.0419553685905609 0.0235493374132199 -0.06470279 -0.9945312 0.08198394 29 29 29
0.048408365331392 0.0559615534313707 0.0139391363327749 -0.9243237 -0.3573131 -0.1339889 72 72 72
0.0476631931329152 0.0571052897818098 0.0117797093066841 -0.9961227 0.08717831 -0.01181169 91 91 91
0.0473182147018902 0.0562214744927609 0.0132132237558459 -0.9899671 -0.07570831 -0.1193035 82 82 82
0.0499963873696152 0.0564385344121092 0.00986202296916938 -0.9924695 0.110763 -0.05230389 73 73 73
0.0483430092608585 0.0561047727511419 0.00762175650847563 -0.9863075 0.1648498 -0.004697949 63 63 63
0.0474504279538142 0.0468430872366685 0.0136558093455158 -0.05580467 -0.9868722 0.1515556 38 38 38
0.045919384947354 0.054501242337899 0.00772582540956521 -0.951428 0.2541304 0.1737888 92 92 92
0.0445044431911956 0.0474768926838938 0.00973195142680311 -0.08807251 -0.9864917 -0.1381208 26 26 26
0.0475057925323863 0.0475329162013871 0.0117714992523211 0.08516471 -0.979862 0.1806029 20 20 20
0.0475096793247636 0.0467797820458753 0.00714347590198092 -0.01645915 -0.9958807 -0.0891668 32 32 32
0.0471368991394374 0.0442670010348587 0.0106439535794228 -0.2072264 -0.9727105 0.1043622 34 34 34
0.0469632451280055 0.0450539670801127 0.00808410910300913 -0.1654986 -0.9836619 -0.07084741 21 21 21
0.0436188618272435 0.0453543680446413 0.0192430196011926 0.02529837 -0.9141459 -0.4045952 19 19 19
0.0483588911290502 0.0442633602074387 0.020402028742612 -0.0687122 -0.9969416 -0.03722975 24 24 24
0.0468848622724884 0.0436960603646654 0.0180415002201349 -0.2022183 -0.9643995 -0.1704154 23 23 23
0.0459055899776037 0.0459333740357732 0.0152916362717058 -0.1540152 -0.9791085 0.1327621 25 25 25
0.047320632621827 0.0413983428657745 0.0176477532198712 -0.1270393 -0.9906009 0.05070411 18 18 18
0.0475031971732629 0.0384193864530902 0.0182177191559877 -0.07189301 -0.9942685 -0.07913002 14 14 14
0.047884651173526 0.0365491750630047 0.0206226153663206 -0.2058713 -0.9613004 0.1830809 36 36 36
0.0480529124226245 0.0419683957690227 0.0147642364615244 -0.0576333 -0.9846246 0.1649025 26 26 26
0.0450920799877281 0.0390521923001306 0.0117657963638825 0.07926178 -0.9760718 0.202488 18 18 18
0.0472480878949173 0.0364327289978601 0.0157853465875547 -0.1174364 -0.9930761 -0.002918545 15 15 15
0.0478580684796917 0.0388174744693424 0.0152189755572264 -0.121801 -0.9923827 -0.01846908 25 25 25
0.0478241082807482 0.0354444546210559 0.0126321473285119 -0.05311061 -0.9984782 0.01485015 28 28 28
0.0487254846517955 0.036455865222349 0.024781015405254 -0.1023816 -0.9659577 0.2375789 26 26 26
0.048799510258954 0.034590230581985 0.0257954643347699 -0.04192716 -0.9251322 0.377323 27 27 27
0.0472224958973362 0.0360077800756886 0.0214457350026967 -0.1420673 -0.9559753 0.2567647 32 32 32
0.0489786502311695 0.0309224198875622 0.0254854547896307 -0.1701476 -0.9140123 -0.3682816 27 27 27
0.0475757898507827 0.029805823340243 0.0238234662453465 -0.1650173 -0.9235123 -0.3462577 19 19 19
0.0491760198370501 0.0296406934898401 0.0254031684611365 -0.1748607 -0.959557 -0.2206222 18 18 18
0.0485215416275644 0.0300406735368763 0.0198726735234439 -0.287029 -0.9536519 0.09034615 22 22 22
0.0477694195227432 0.0332014430830994 0.0173775669611878 -0.1818118 -0.9828171 0.03186076 40 40 40
0.0471488751244706 0.0305989750361646 0.0179097836990044 -0.3389363 -0.9406021 0.01974709 14 14 14
0.0482981579613426 0.0295143387899801 0.0225754196668398 -0.1045533 -0.9807609 0.1648534 26 26 26
0.0489644712354314 0.026410033236677 0.0198415450033547 -0.2745031 -0.9603912 0.04792508 23 23 23
0.0489276802190917 0.0248075321473811 0.019597868273432 -0.2566685 -0.9626474 0.08620465 21 21 21
0.0470230793649857 0.0246909307820402 0.02608520275768 -0.2895256 -0.9382479 0.189383 20 20 20
0.0492886758370699 0.0221404394384357 0.0222058655292069 -0.2602866 -0.9566145 -0.1309184 13 13 13
0.0492974783238451 0.0200100938334673 0.0227188735754556 -0.1992482 -0.9682922 -0.1506999 23 23 23
0.0495399569172803 0.0184774017642446 0.0248567902858224 -0.1854528 -0.9623064 -0.1989314 20 20 20
0.0485450818784292 0.0173919007163281 0.0249442899578579 -0.2341214 -0.9557781 -0.1779759 15 15 15
0.0493513767008498 0.0163282875155362 0.0250391282141883 -0.2094533 -0.9613695 -0.1786 10 10 10
0.0558973425986571 -0.0558627060545269 0.0271104601923265 -0.03234826 -0.6182693 -0.7853003 62 62 62
0.047487019292398 0.0522475893191501 0.00151534714616208 -0.3364813 -0.9416901 -0.0003585355 25 25 25
0.0443961480562733 0.0439509383404852 0.00211531839006113 -0.1023043 -0.9936671 0.04647135 17 17 17
0.0471531399486491 0.0472218637442368 -0.00357979503715669 0.07881332 -0.9957448 0.04775662 9 9 9
