ply
format ascii 1.0
comment File exported by Rhinoceros Version 7.0
element vertex 472
property float x
property float y
property float z
property float nx
property float ny
property float nz
property uchar red
property uchar green
property uchar blue
end_header
-0.022718792148023 0.0248287105412931 -0.0108496626266653 -0.007599454 0.9680651 0.2505837 157 157 157
0.0301413970812269 0.0261908852906675 -0.0109883477338964 -0.01986902 0.9633582 0.2674811 80 80 80
-0.0101813425497106 -0.0107586002497225 0.0159428338161295 0.08462121 -0.210881 0.9738421 228 228 228
-0.00863687444487131 0.0204312586636991 0.00840013424070535 -0.02814327 0.9649612 0.2608788 164 164 164
0.0450106902792164 -0.00439401628060632 0.00141394833238778 0.4567561 -0.1911424 0.8688143 231 231 231
-0.0516483740136913 0.0130182885976285 0.01956900159033 -0.5751771 0.06543485 0.8154076 80 80 80
-0.018766771368771 0.0192711436601133 0.010983339940626 -0.0142921 0.9642473 0.2646185 125 125 125
-0.033266603313475 0.00668320892767615 -0.0109208305725271 -0.8050017 -0.01858058 -0.5929815 74 74 74
-0.051276318095713 0.0173541688771696 0.0108168939700907 -0.6468035 0.6529408 -0.3940984 74 74 74
-0.0253988982365421 -0.00721143843217187 0.0187476495853251 0.07011073 -0.1358187 0.9882498 71 71 71
-0.00677442720168746 0.00465936301665015 0.0191377917877024 0.2403923 -0.2001865 0.9498089 220 220 220
-0.00368549052634753 -0.0202883100657015 0.0152290383926219 0.1162665 -0.1319972 0.9844078 21 21 21
0.00637626711270296 -0.0157131767420321 0.0138069013706034 0.36502 -0.1069978 0.9248307 60 60 60
0.037878882773132 -0.0280689811853915 -0.00598774155465903 0.01853487 -0.9653081 -0.260455 79 79 79
0.00628087360403024 -0.0114481067804842 0.0141305247894114 0.4219834 -0.02675729 0.9062086 239 239 239
0.0240543733163782 0.0135887944550962 0.0119043807140177 0.2006606 -0.08515052 0.9759532 85 85 85
0.0340177087857433 0.0104971611352415 0.00996341506155191 0.2079825 -0.2514666 0.9452555 57 57 57
0.0580818882956215 0.0243099117131681 -0.00264731844751181 0.2201047 0.8019203 0.5554078 106 106 106
-0.016063950322657 -0.0144047653822451 0.016910127793867 0.07921151 -0.1113812 0.9906158 54 54 54
0.0152569605781742 0.0106300496907682 0.0143585423579997 0.2260294 -0.2457774 0.942605 238 238 238
-0.0372731381283096 -0.00329696299119286 -0.000648715103548192 -0.9898788 -0.1206607 -0.07470607 44 44 44
-0.0374457531795791 -0.0246784901766329 0.0134968082061594 -0.9317393 -0.05444685 0.3590227 53 53 53
0.0445337227358528 0.0238037490697355 -0.000853248442094945 -0.02074918 0.9633409 0.2674766 87 87 87
0.00290121329473787 0.000328549131915046 0.0149594763866251 0.3266553 -0.05574833 0.943498 23 23 23
-0.0390871309862427 0.00271136401610084 0.0207382957092112 -0.09528746 -0.04617038 0.9943785 65 65 65
0.0445564358308026 0.0159918451161832 0.00823151270063577 0.5428693 0.001305618 0.8398162 69 69 69
0.00789802305391514 -0.0252656555323153 0.010006240998823 0.4128481 -0.4456847 0.7943057 74 74 74
-0.0360486650095276 -0.0129701113848238 -0.00473076900331321 -0.9948097 0.01590346 -0.1005017 42 42 42
-0.035437944643288 -0.0135967648176699 0.0181465367427653 -0.321704 -0.2759384 0.9057398 62 62 62
0.0586837797238537 0.0065859639497251 -0.00365004738656821 0.5481454 -0.1651642 0.819913 64 64 64
0.0122134496270724 0.0239749634118528 -0.00429721971837821 -0.02159906 0.9625865 0.2701125 89 89 89
-0.00972708716997422 -0.0116039133219271 0.0164777557006663 0.07378743 -0.2074555 0.9754577 238 238 238
-0.0148147487268738 -0.0145099973825961 0.0161247769943064 0.05973106 -0.1117094 0.9919441 60 60 60
-0.0283061334119133 -0.0313774860052615 0.014662436639387 0.008809292 -0.5415202 0.8406416 52 52 52
-0.0537898645923427 0.0131003939958066 0.0149604002586192 -0.7606436 -0.2758709 -0.5876364 67 67 67
0.0500075003876396 -0.0259680962709933 -0.00440756281701865 0.6689498 -0.7379967 0.08869603 15 15 15
-0.0358524539695076 -0.0105874753145724 -0.00658173164216819 -0.9928138 -0.05601331 -0.1057505 44 44 44
0.0220707922055432 0.0218383157105894 0.00470256010206399 -0.007542467 0.9649805 0.2622132 89 89 89
-0.0373117470369629 0.00148848532156654 -0.00612942179529014 -0.9470077 -0.01549952 -0.3208369 64 64 64
-0.00568421401092328 0.0229208254666776 -0.00176034172860923 -0.007626625 0.9654073 0.2606349 58 58 58
0.0567986189200588 0.0264936172814817 -0.0104886968979055 -0.02100279 0.9659011 0.2580581 103 103 103
-0.0285786868260197 -0.00544079305215173 0.0194318513027018 0.06044308 -0.118684 0.9910907 44 44 44
-0.0385268808529667 -0.0165381646303683 0.0161560694328135 -0.8847835 -0.2827447 0.3704235 30 30 30
0.0384542724861809 0.0236410879941434 -0.0012844880470449 -0.01479279 0.9689048 0.2469912 104 104 104
0.0147799930348107 -0.0235743141321688 0.00750913420828042 0.3656955 -0.231369 0.9015183 42 42 42
0.0462598956002899 -0.00340624810738854 0.00163834491880593 0.4692453 -0.2343943 0.8513919 215 215 215
-0.00743309810766495 -0.0334133422522097 0.0114301065555399 0.1266759 -0.8799093 0.4579441 116 116 116
-0.0370732651279262 -0.0284595108179598 0.00178337792070565 -0.9950337 -0.07748038 -0.06248699 50 50 50
-0.0157913969085506 0.0236397766919584 -0.00406313737718406 -0.009455843 0.9654515 0.2604111 115 115 115
-0.0377046794817737 -0.00661536218209557 0.00929271379621682 -0.9519388 -0.1614893 -0.260257 48 48 48
-0.0376082764194301 -0.0108636236338168 0.00532882610471902 -0.9961928 -0.009801678 -0.08662533 68 68 68
-0.0127705990523986 -0.0235603070406466 0.0160181442848032 0.09387555 -0.1421234 0.9853874 198 198 198
0.0208140189572283 0.0238055968137235 -0.0020273109325582 -0.01391887 0.9678819 0.2510198 107 107 107
-0.0155869827792934 -0.0307298815397768 0.000912583862859584 -0.002632246 -0.96996 -0.2432501 97 97 97
-0.0164046430216125 -0.00144054652734094 0.0196855584731883 0.0734796 -0.1554123 0.9851131 223 223 223
-0.0163592168317131 -0.0321625387815981 0.0144904176345652 0.1621141 -0.6101502 0.7755229 56 56 56
-0.0135246630013875 0.0225029969068021 -0.000105523074548863 -0.0182427 0.9584836 0.2845636 96 96 96
-0.0257850171253971 -0.0287718093542605 0.0156961599937266 0.01592082 -0.2661447 0.9638016 62 62 62
0.0599556944145867 0.0111441993566007 -0.00323196550695243 0.4962217 -0.2400242 0.8343575 57 57 57
0.0304972312226006 -0.0230956888346224 0.00458463231237588 0.2582943 -0.2401387 0.9357443 41 41 41
0.0148027051984378 0.0143831753583402 0.01600374976309 0.228725 -0.03218062 0.972959 72 72 72
-0.0384587415681175 0.000950344786211921 0.00613110462339578 -0.9350435 -0.2457559 -0.2555342 60 60 60
0.0165175196527549 0.0211251759381742 0.00770773688467202 -0.02443405 0.9609288 0.2757151 114 114 114
-0.0388448604569725 0.00728411315397925 -0.000270255411546849 -0.9262281 -0.2292321 -0.299256 59 59 59
0.0226764666660734 -0.0273959851412325 -0.00885867377607169 0.02130272 -0.9621592 -0.2716541 97 97 97
-0.0308045403287701 -0.0345992064623385 0.0136988381496256 -0.05241445 -0.7376157 0.6731833 77 77 77
-0.0509961911664299 -0.00467973114533715 0.0193713227859324 -0.2678833 -0.1129444 0.9568083 99 99 99
0.00390057538627171 -0.029381505265668 -0.000250719989221715 0.01567467 -0.9649283 -0.2620451 87 87 87
0.0338587208463856 0.015041478857562 0.0111946086040324 0.1098396 -0.05956959 0.9921626 230 230 230
0.0147118546812841 0.0247690164895505 -0.00647241672365012 -0.01847363 0.9649104 0.2619286 107 107 107
0.010600842237384 0.0205412292333097 0.00911288658292947 -0.02346921 0.9651167 0.2607661 113 113 113
-0.0346202844009689 0.020048894867465 0.00761445561559854 0.0003610968 0.9634246 0.2679792 86 86 86
0.00285578780333035 0.0219932281823606 0.00254433551939187 -0.02085321 0.9628125 0.2693644 91 91 91
-0.00886400166907824 -0.0277413642553835 0.0143947521797007 0.102117 -0.2427756 0.9646928 65 65 65
-0.0112109885738186 -0.0209709322599917 0.0155210713496989 0.1164466 -0.08517253 0.9895382 191 191 191
0.0262045158817478 0.0143500947804899 0.0121484021297282 0.1437156 -0.04923447 0.9883935 78 78 78
0.00919265083959781 -0.0209355569033175 0.0115255633941477 0.4264085 -0.2567595 0.8673236 229 229 229
0.0199812172724911 -0.0109357154516726 0.0077555100074595 0.3353522 -0.2459683 0.9094166 38 38 38
0.0200720677896448 0.0255374097676725 -0.00896213253824057 -0.008615906 0.9675975 0.2523507 78 78 78
-0.0127554566786579 -0.0205457127241641 0.0157596985450572 0.09114954 -0.0540428 0.9943697 233 233 233
-0.0372492888198189 -0.0091007864622622 0.00323276916654763 -0.9949619 -0.01480467 -0.09915516 65 65 65
0.0482359050585934 0.0119171821923704 0.00453918377073464 0.4574501 -0.207791 0.8646168 59 59 59
-0.0364827321098141 -0.00693683983369164 -0.00778069397298636 -0.9857787 -0.07943694 -0.1480881 27 27 27
-0.00681985292592562 -0.00424366356416039 0.017099849378187 0.2146471 -0.1515489 0.9648625 204 204 204
-0.00705833669760741 0.0249388897271604 -0.00866878827897849 -0.01335127 0.9658904 0.2586069 107 107 107
0.0577752671017357 -0.00811099173112206 -0.00263898869840445 0.4186703 -0.01442107 0.9080238 42 42 42
-0.0393218280003361 -0.00324150086922936 0.0109978238693064 -0.8237097 -0.245699 -0.511013 90 90 90
-0.0220374086127571 0.0220878207536191 0.00109309652956185 -0.02174682 0.962151 0.2716478 144 144 144
0.0122588748856493 0.0134089672418088 0.015243581925947 0.1749572 -0.119538 0.9772925 56 56 56
0.0198903667553373 0.0260725104661436 -0.0116074909815008 -0.006237562 0.9713719 0.2374817 66 66 66
-0.0248537932709745 -0.0329007721094637 0.00891124406965432 -0.008120098 -0.9780755 -0.2080921 97 97 97
0.06345346260807 -0.00104793073220544 -0.00585403343526664 0.2895362 0.09286302 0.9526517 66 66 66
-0.00713783159860886 -0.0316273486761599 0.00486376086385903 0.03677642 -0.9647076 -0.2607429 132 132 132
-0.0367382497713856 -0.0188744580893069 -0.000745840872209691 -0.9985319 0.01102038 -0.05303446 45 45 45
-0.0427060307190708 0.0195871674867124 0.00782608190687356 -0.1978537 0.9610775 0.1928315 122 122 122
0.0168619963153311 0.00733212469534583 0.0127832810035532 0.2927201 -0.2377415 0.9261717 232 232 232
-0.00423059688889898 -0.0248277402071505 0.0145207862010783 0.118126 -0.1392539 0.9831859 56 56 56
-0.000142298005609879 -0.0298578953890353 -0.000139646733682774 0.02474691 -0.9686227 -0.2473008 118 118 118
-0.00809176761665858 0.0205178940148801 0.00745310584219155 -0.02754055 0.9661909 0.2563527 129 129 129
0.00853398039928161 0.0233600818963499 -0.00184548696367087 -0.01724186 0.962723 0.2699393 79 79 79
-0.035658582411795 0.0116237187238187 -0.0100257029184515 -0.8113771 -0.2612712 -0.522881 86 86 86
-0.0361193263159088 -0.00881173373742394 -0.00503077408162894 -0.991468 -0.0759142 -0.105963 51 51 51
-0.0568788008020214 0.0169271313996763 0.0156400124183482 -0.3887025 0.8097866 0.4394952 83 83 83
-0.0375002616272262 -0.00271522165818505 0.00305617550523934 -0.9903299 -0.1272217 -0.05532922 40 40 40
-0.0373068818078331 -0.031135461345151 0.00912689367445169 -0.985272 -0.163489 -0.05010322 70 70 70
-0.0340751775727562 0.00392539142088599 -0.0107124527343923 -0.8456157 0.1114186 -0.5220343 108 108 108
-0.0360284739361099 -0.0250889575628787 -0.00862296720830741 -0.9674796 -0.02332305 -0.2518714 52 52 52
0.014938981905491 0.0213080429883451 0.00640263358267007 -0.02535733 0.9617252 0.2728398 109 109 109
0.0124065081401774 -0.0225835955290347 0.00932442346723733 0.3994398 -0.2977675 0.8670538 86 86 86
-0.0290480845794968 0.0174974286408872 0.0176334301582163 -0.01817493 0.9655742 0.2594921 62 62 62
-0.0530403399095825 0.00913877128081031 0.0185304502597636 -0.7783755 -0.0104257 0.6277124 67 67 67
0.0113049388675996 -0.0226326799540072 0.00996815363081155 0.4137653 -0.3185717 0.8528249 109 109 109
0.0307016453518578 0.0237058782430143 -0.00158830782262626 -0.0074789 0.9647655 0.263005 125 125 125
0.0461917563154408 -0.0274003958849459 -0.00479244490949454 0.2917342 -0.9505148 -0.1068305 67 67 67
0.0529147355630108 0.00694526074843116 0.00130722621591745 0.5329673 -0.1948087 0.8234048 55 55 55
0.0137124924733349 -0.0213250136522799 0.00866710344465432 0.4228418 -0.2160914 0.8800621 99 99 99
-0.0448750996218017 0.00708771584944434 0.0113887111297434 -0.7689282 -0.5026981 -0.3950241 59 59 59
0.0104872786252805 0.00301680801825233 0.0136915067783183 0.2154811 -0.1980298 0.9562176 42 42 42
-0.0401622013376049 0.00288803218321509 0.00890567103536782 -0.8049303 -0.4081683 -0.4306806 58 58 58
0.0543456381931015 -0.00880622030778222 -0.00157170792905631 0.3435832 0.1484701 0.9273118 53 53 53
0.00285578780333035 -0.0284911310820132 -0.00452937980977836 0.0297198 -0.9724819 -0.231075 120 120 120
0.00471823516292953 -0.0271963691858798 -0.0110850711712057 0.03234524 -0.9576561 -0.2860918 100 100 100
-0.00314038369813479 -0.02362175942941 0.0143434623828715 0.1298285 -0.1491235 0.9802585 40 40 40
-0.0406618819759182 -0.00464554788155846 0.0136682609668559 -0.7970796 -0.2969247 -0.5258326 73 73 73
0.0414902127160736 -0.010718665137723 0.00322683850439248 0.4382201 -0.0883761 0.8945126 184 184 184
0.0108506834878632 0.0160944843144865 0.0164708415618723 0.2252842 0.2090923 0.9515921 66 66 66
-0.035957816355019 -0.0172126507906466 -0.00686528583852591 -0.9936081 0.03153675 -0.1083897 47 47 47
-0.0311906554923347 0.0189521694035978 0.0116770485988444 -0.01439146 0.9664549 0.2564329 78 78 78
0.0450561164691158 0.00557605265097327 0.00442429581793008 0.3870884 -0.2013209 0.8997958 241 241 241
0.0489778562261768 0.0261766397805662 -0.00931619902936759 -0.02099282 0.963754 0.2659652 73 73 73
0.0650433606280991 0.0115695977063627 -0.00599467059461417 0.4032505 -0.1501099 0.9026937 48 48 48
-0.00273155380980588 0.00665868161635108 0.0183510104766673 0.3651801 -0.1705091 0.9151886 248 248 248
-0.025141488127499 -0.0289854324011355 -0.00621571441976371 0.008735284 -0.9618186 -0.2735482 77 77 77
0.0218436649813362 -0.0241517639307528 0.00557147661359964 0.1538684 -0.0660419 0.9858818 57 57 57
-0.040593742691069 -0.00852733017487817 0.0156866232505625 -0.9699771 -0.1231401 -0.2097163 80 80 80
-0.0261029967294029 -0.0315699494032412 0.00343849459798989 0.01533635 -0.9659401 -0.258311 93 93 93
-0.0366417237744621 -0.00499620200677209 -0.00603323479978385 -0.983088 -0.0857737 -0.161805 42 42 42
-0.0270001509414009 0.00320280431227393 0.0205428520789927 0.05132273 -0.1157929 0.9919466 58 58 58
0.00221983022513323 0.0209438884110899 0.00588124195249734 -0.001557238 0.9673789 0.2533291 138 138 138
0.00676238460457408 -0.00562446476502709 0.0138532737842387 0.4061257 0.02586233 0.9134512 131 131 131
-0.0374139541015915 0.0223556542249174 -0.000506826246660375 0.004486977 0.9664685 0.2567462 79 79 79
-0.0358013504371933 -0.0149308359770327 -0.00827878018705192 -0.9895354 0.02271903 -0.1424906 44 44 44
0.0157112159579106 0.0259430491776914 -0.012348153198641 -0.002477966 0.9710932 0.2386879 137 137 137
-0.036013334356337 -0.00484620691819482 -0.00706142982332053 -0.9803879 -0.0754995 -0.182042 32 32 32
0.0528011700882622 -0.00819232226891808 -0.00144637426225486 0.2760648 0.1654598 0.94679 51 51 51
0.0186638763918587 -0.0292637562899142 -0.00238297184793296 -0.01207249 -0.9772069 -0.2119457 121 121 121
0.0552314377202698 -0.0152614331392794 -0.00113593837110343 0.6365857 -0.247601 0.7303783 22 22 22
0.0366978167369076 -0.0163133061079531 0.00441903570802865 0.3030381 -0.1822878 0.9353818 120 120 120
-0.042251776270657 0.00878302095846839 0.00528743067892251 -0.7311561 -0.5067427 -0.4567523 84 84 84
-0.0339161896333984 0.0196450733991117 0.00933702984960733 -0.005642138 0.9636666 0.2670487 119 119 119
-0.0310013809428505 0.00295431254820533 0.0209010759940928 0.05846796 -0.1064193 0.9926009 64 64 64
-0.0364373059199146 -0.0192044592051058 -0.00495714744417014 -0.9965546 -0.001845407 -0.08291911 69 69 69
0.00228796857865982 0.00272680161909766 0.0151407043090647 0.3369875 -0.09992125 0.9361919 75 75 75
-0.0291237936542324 -0.0331083154825716 0.0115494946590251 0.05744208 -0.9504816 0.3054262 124 124 124
0.00571759713804804 -0.000608078256085443 0.0138959507098979 0.2894102 -0.0748669 0.9542729 38 38 38
-0.0247175165639213 0.0257327937932462 -0.0129401167282278 -0.01820882 0.9682733 0.2492294 74 74 74
-0.0390849665925793 0.0171367907376737 -0.00666511854020896 -0.8215579 -0.3578548 -0.4438273 75 75 75
0.0346990941836544 0.0223928475232572 0.00353959897669015 -0.00871164 0.9611622 0.2758465 99 99 99
-0.0378909253702453 -0.00286462070031457 0.0202645579925364 0.02160628 -0.1696457 0.9852682 45 45 45
0.000735929170534841 0.0179326915593595 0.0177542487731761 0.1163381 0.6604016 0.7418457 127 127 127
-0.0375313044712833 0.00298170088247962 -0.00472513636438193 -0.9548026 -0.03555358 -0.2951065 68 68 68
-0.00632017182195104 0.0180783057065458 0.0161380688300913 0.005279191 0.9430164 0.3327045 86 86 86
-0.0355742194876961 -0.0179196810869723 0.0169546524635142 -0.476077 -0.3011271 0.8262404 91 91 91
0.0445564358308026 -0.0232339120058566 0.00268099406870065 0.2027493 -0.1419962 0.9688807 83 83 83
0.0187547269090124 0.0191977703423948 0.0134170869937724 0.1480762 0.7574018 0.635937 129 129 129
0.000970627803528809 -0.00472038151307397 0.0157428602329081 0.2385298 0.03391159 0.9705429 86 86 86
0.0414447865261742 -0.018308005347684 0.00279243985326944 0.1905077 0.06920657 0.9792432 220 220 220
0.0448744154348084 -0.0207565939573794 0.00212918916853128 0.1997212 0.009956104 0.9798022 64 64 64
0.00412770307613992 0.0236550354810209 -0.00277175804464164 -0.02269409 0.9635479 0.2665715 82 82 82
0.0479406385495373 -0.0170967197565585 0.00111540356786904 0.2522873 0.09795633 0.9626815 55 55 55
0.0202537706865975 -0.0228795027880221 0.00598504344137368 0.1976671 -0.07013465 0.977757 40 40 40
0.0654976076259323 0.0250348532052488 -0.00539755126325431 0.4797367 0.5882793 0.6509839 49 49 49
-0.0416612432525448 -0.00940494896455102 0.0185157875171488 -0.5380761 -0.5397175 0.6474404 55 55 55
0.0543002157284924 -0.0169286346582919 -0.00286198457567038 0.766695 -0.4247914 0.4813846 45 45 45
0.0209124411269137 -0.0029747402815371 0.00949560800703225 0.2669968 -0.1596401 0.9503829 52 52 52
0.0170739820971199 -0.0132710552362948 0.00786276856573281 0.3958002 -0.217812 0.8921323 121 121 121
-0.0423426286504558 0.0227736914010496 -0.00331974824754538 -0.7894508 0.5775958 -0.2077273 60 60 60
-0.0381634787843517 -0.0113148009924441 0.012951455508787 -0.9352199 -0.136834 -0.3265581 69 69 69
0.0418763278796383 -0.00434856773896508 0.00409714082391915 0.3959171 -0.1633704 0.9036369 18 18 18
0.0438750541581818 0.0252500557752103 -0.00651747783510032 -0.02404566 0.9649767 0.2612311 79 79 79
0.032473240680904 -0.0270300126223116 0.00359231928499398 0.261618 -0.4449427 0.856494 41 41 41
0.00903366196891748 0.0183328473420591 0.0165420989147013 0.1337004 0.4866745 0.8632914 117 117 117
0.0527330345287033 0.0168385290952177 0.00309685567529855 0.4685386 -0.03316326 0.8828204 50 50 50
0.0324959537758537 -0.0282268738894015 -0.00454769333688559 0.005624415 -0.9829512 -0.1837805 101 101 101
0.00776174634686195 -0.0281270063070803 -0.00400798817960563 0.04101064 -0.962974 -0.2664568 99 99 99
0.050840303935022 0.00288880704359717 0.00136981109293161 0.4981673 -0.2479085 0.8308855 79 79 79
0.0290663248672196 0.0108848893495054 0.0109946648231333 0.1407791 -0.2191091 0.9654908 216 216 216
-0.00968166191139735 0.00551421283201881 0.0202029863944834 0.1198326 -0.1764579 0.9769866 206 206 206
-0.0363918797300152 -0.00802179338021569 0.000900126492101527 -0.9927998 -0.0755735 -0.09293675 34 34 34
0.0294751549883791 -0.0289860284475832 0.00229885378988443 0.1760076 -0.7528102 0.6342698 37 37 37
0.0242057933284947 -0.0299076056627779 0.0010586003413981 0.04347618 -0.9779646 0.2041934 104 104 104
-0.0141787904501847 -0.030344388499692 -0.00107423266259971 0.01433671 -0.9712544 -0.2376118 85 85 85
0.0143030245601245 0.0236816489549131 -0.00212544998018088 -0.02497889 0.9652652 0.2600752 106 106 106
-0.00904570456603087 0.0242398166509122 -0.00661531885949912 -0.002657375 0.9671371 0.2542415 80 80 80
-0.0439325192199043 0.0229013645501585 -0.000915624702852391 -0.7401832 0.6104297 -0.2819654 105 105 105
0.0448289892449089 0.0209629916997404 0.00880446234853921 0.2532432 0.628877 0.7351065 124 124 124
0.00539961799970352 0.0119263911099882 0.0166113893142527 0.1647522 -0.1482546 0.9751294 71 71 71
-0.0354228013382248 -0.0189706003813296 -0.0112336655506307 -0.9711364 -0.03622325 -0.2357583 76 76 76
-0.0196298559383444 -0.0131559884695559 0.0166751960864848 0.1323358 -0.1791873 0.9748739 235 235 235
0.0209351542218634 0.0218666577191801 0.00484897891195474 -0.008665752 0.9644303 0.264195 109 109 109
-0.027738315351396 -0.0345918154863863 0.0137490550628489 0.04252332 -0.9258266 0.3755488 122 122 122
0.0441248944773384 0.0258909249158353 -0.00893197258798423 -0.01545115 0.9685482 0.2483459 83 83 83
0.0327457940950104 -0.00167017342133813 0.00674226084860025 0.2122089 -0.2320181 0.9492813 62 62 62
-0.0368089706824116 -0.0129159009604006 -0.000582911575716161 -0.9928112 0.0007823684 -0.1196886 54 54 54
-0.041638530157595 0.0175061607213468 0.0153187135806864 -0.009386352 0.9694952 0.2449307 150 150 150
0.0386056906356522 0.0260097765775175 -0.0104278256544286 -0.02294871 0.9639142 0.265222 63 63 63
0.022536405064077 -0.0290076649336367 -0.00263110598413291 -0.001704665 -0.9752747 -0.2209895 101 101 101
0.0371066487207123 0.0255445325227232 -0.00863463481752219 -0.01311244 0.9659469 0.2584079 95 95 95
-0.0393218280003361 0.0069957756848783 0.00102261403711496 -0.9031656 -0.3249352 -0.2805513 75 75 75
-0.0378909253702453 0.00697315572218604 -0.00430832108346763 -0.9352772 -0.05553456 -0.3495317 60 60 60
-0.0375615873561195 -0.017351589217618 0.00957667032392678 -0.9954703 -0.05391729 -0.0783057 58 58 58
-0.0211516128108791 0.0174942993970365 0.0176817993274516 -0.02503559 0.9380985 0.3454625 81 81 81
0.0103207190333911 0.00444219349341102 0.0135641018501109 0.1971258 -0.2293172 0.9531816 49 49 49
-0.00282240502545155 0.0217479252667875 0.00227240422876535 -0.0168491 0.9640728 0.2651032 118 118 118
0.0697221836819359 0.0176279330106229 -0.00759384831277671 0.6005948 -0.03649397 0.7987203 63 63 63
0.0068532355873891 0.0246979677529783 -0.00699070891229453 -0.01700404 0.9619255 0.2727822 88 88 88
0.0343811145796486 0.0260221445413084 -0.00985472699491324 -0.009136525 0.9652184 0.261285 97 97 97
0.0203900473936506 0.0132624590249509 0.0131296137920207 0.2880074 -0.1621746 0.9437962 37 37 37
-0.00709240634003199 0.00115040777640052 0.0188734153858012 0.2062588 -0.2356212 0.9497052 110 110 110
-0.0380726264045528 -0.0133295571951418 0.0188464442840403 -0.3783298 -0.374667 0.846458 39 39 39
0.00935164064160072 -0.0172769344000369 0.0111313382736033 0.4511196 -0.1209921 0.884224 36 36 36
-0.0133611311391882 0.00229961512999244 0.0195668260207957 0.06802125 -0.1650189 0.983942 67 67 67
0.06795059207818 0.00723332999663062 -0.00692791541902366 0.2821825 -0.04023397 0.9585167 34 34 34
0.0462598956002899 -0.0289545869974642 -0.00265430709211173 0.3288052 -0.9443904 0.003747737 97 97 97
-0.041343263648539 0.00590527890639014 0.00624444285543618 -0.74974 -0.5181571 -0.4115861 73 73 73
-0.0125434708968691 0.0192779087872953 0.0115880886665171 -0.02956192 0.9620844 0.2711451 104 104 104
-0.0292600703612856 0.0162521385999174 0.0220121959796732 0.0674319 0.651293 0.7558243 172 172 172
0.00630812922483765 0.0260973059983701 -0.0104612489589864 -0.02399236 0.9656465 0.2587494 103 103 103
-0.00953630015262879 0.0250629567952604 -0.00864186188070121 -0.009659297 0.9686627 0.248192 127 127 127
-0.0182216645405582 0.00618390081839271 0.0202893237224406 0.01798349 -0.1568871 0.9874528 112 112 112
-0.0104993212223939 0.0238909804673643 -0.00410004755346122 -0.004929598 0.9657845 0.259299 84 84 84
0.0109869601949164 -0.0310847377924471 0.00548212925108132 0.2281346 -0.8133243 0.5352178 153 153 153
-0.0339843289182476 0.00188932655768104 0.0204074005237406 0.05754609 -0.09493176 0.9938191 45 45 45
-0.0296689004824451 -0.0204707300810366 0.0169909516921824 0.004186935 -0.1831986 0.983067 109 109 109
-0.0411615626142315 0.0217936718316526 0.00128004649789987 -0.1878482 0.9588779 0.2127587 56 56 56
-0.0381634787843517 0.0176386022420377 0.0167776266685313 -0.01381876 0.9649147 0.2621995 73 73 73
-0.0271137126908592 0.0234562241883726 -0.00468292137471976 -0.02540676 0.9622105 0.2711189 92 92 92
-0.0317130492255977 -0.00186436535401635 0.0193166653266734 0.07771483 -0.1230476 0.9893532 39 39 39
-0.049860551320105 -0.000924221291974114 0.0205438951602763 -0.4615824 -0.1135425 0.879801 109 109 109
-0.0010735216272018 -0.0283305263666659 -0.00671925445882621 0.01041127 -0.9636343 -0.2670219 94 94 94
-0.0418202349171928 -0.00100766779465966 0.0134824434867686 -0.777554 -0.281037 -0.5625193 81 81 81
-0.0459766679630569 0.0166451716275663 0.00464475849779306 -0.8728251 -0.009285293 -0.4879447 57 57 57
0.0258865381403872 0.0219654226155729 0.00417052904279885 -0.007194163 0.9661614 0.2578378 114 114 114
0.00832199461749279 -0.0310365474371462 0.00343536535413919 0.1413404 -0.9854606 0.09428841 105 105 105
-0.0497924157605461 0.0066007459016294 0.0203306893459147 -0.6466586 -0.06703525 0.7598283 96 96 96
0.00444568174882316 0.00319466827826209 0.0143429855457133 0.2724761 -0.1365649 0.9524215 25 25 25
0.0629537782444664 -0.00483544827981286 -0.00500967403737845 0.386534 -0.2333595 0.8922639 44 44 44
-0.0332575173304371 -0.00947471620126061 0.0193678955188578 0.05474303 -0.1914652 0.9799716 70 70 70
0.0210714309289166 -0.00851093889756493 0.009164891635496 0.3196776 -0.1847062 0.9293492 34 34 34
0.0160291946305939 0.0226810359807462 0.00142679313333688 -0.02441796 0.9663255 0.2561618 111 111 111
-0.0208109201119236 -0.0332991397528201 0.00913407603414712 -0.009034049 -0.9861469 -0.1656278 120 120 120
-0.0170860246942333 -0.0300523853449374 -0.00271873971311393 0.01362579 -0.962473 -0.2710351 85 85 85
-0.0432208546624473 0.0173786961884946 -0.000863351429384374 -0.8544993 -0.1817445 -0.4866208 58 58 58
-0.0410479971394829 0.00942150591330237 0.00160022774847207 -0.813046 -0.3775463 -0.4431872 67 67 67
-0.00532081007966317 -0.0297694420961886 -0.00275010665742698 0.02398887 -0.965204 -0.2603955 109 109 109
0.0347445203735539 0.0177592420430631 0.0118729988685435 0.1544564 0.08520207 0.984319 62 62 62
0.0270676023139664 -0.000427625194027947 0.00883876482160745 0.1838693 -0.2670181 0.9459881 30 30 30
-0.0294190601632885 0.0203435802312345 0.00696539083631692 -0.003518533 0.9680012 0.2509209 87 87 87
0.0293388782813259 0.0212323450894804 0.00756364265592752 -0.01327581 0.9676788 0.2518361 102 102 102
-0.0502466702089599 0.011483528599307 0.0200234274020976 -0.6517796 -0.04625764 0.7569964 49 49 49
0.0326246625556656 0.0235298955293149 -0.000597350800912999 -0.005302576 0.9672023 0.2539519 104 104 104
0.00436618708065235 0.00294850109533973 0.0149027625671214 0.2857994 -0.1145978 0.9514127 42 42 42
0.0154386634751269 -0.00590344430489831 0.0102804223647898 0.2684505 -0.1424881 0.9526969 57 57 57
-0.0312587947771839 -0.0136493659166842 0.0186265329471415 0.05740366 -0.197666 0.9785872 40 40 40
-0.0371811495349697 -0.0108013665823489 0.00311835805090127 -0.9936551 -0.01899748 -0.1108539 61 61 61
0.0519759400560566 -0.0212600743917971 -0.00483285685865226 0.8444784 -0.4706281 0.2556666 29 29 29
-0.0562882677839092 0.0167087101788969 0.0163189093223399 -0.5167492 0.7187313 0.4651834 66 66 66
0.0597285671903797 0.0259275519700498 -0.00840347310392203 -0.01552869 0.9638991 0.2658147 92 92 92
-0.0383111083135895 -0.0128250038771182 0.0134797910800761 -0.9549031 -0.1625192 -0.2484907 54 54 54
-0.0154052798823408 0.0231295013280363 -0.00201688011972251 -0.006389775 0.9641531 0.2652698 89 89 89
0.0599102682246872 -0.00279893638177209 -0.00407712956754508 0.314685 0.07577807 0.9461665 81 81 81
-0.0370505520329765 -0.00678279162926965 -0.00233378311483207 -0.9893238 -0.1221495 -0.07948565 45 45 45
-0.0360511907563499 -0.0227016723303347 -0.0086556752571279 -0.96999 -0.009653297 -0.2429533 65 65 65
0.00335546879088961 0.019840964064166 0.0105299870124644 -0.0009085333 0.9671008 0.254392 136 136 136
-0.00586591644221462 -0.0327690458445101 0.0126700023761576 0.1017222 -0.8234521 0.5581928 63 63 63
0.00839770415788972 0.00408852933363624 0.0137187461009806 0.2087403 -0.1884527 0.9596422 25 25 25
0.0489778562261768 0.0237624132485837 -0.00111065110055747 -0.01768956 0.9661862 0.2572378 108 108 108
0.0639985657109925 0.0260132634492368 -0.00851873358575644 0.1373401 0.9238017 0.3573907 106 106 106
-0.00200474524879373 0.000550457224413825 0.0161896566501444 0.337803 -0.1357778 0.9313718 109 109 109
0.0360845706238457 0.0203242385240049 0.0110235730758494 0.164905 0.5595869 0.8122 110 110 110
-0.0359376252816013 0.00121823786215491 -0.00828162630883994 -0.9226095 0.07727684 -0.3779153 69 69 69
0.0664061239733406 0.0261522018762083 -0.00966850718347373 0.383514 0.7866545 0.4838302 139 139 139
-0.0178128344193987 -0.00935353995843224 0.0173994521251505 0.0968018 -0.2544149 0.9622383 232 232 232
-0.00609304413208283 0.0178005182595701 0.0184375564208811 -0.02322729 0.8842824 0.4663746 113 113 113
0.0395596257223793 0.0212287688107938 0.00739990869672952 0.05457313 0.9060029 0.4197385 111 111 111
-0.0212651745603374 -0.0302686906008273 -0.00223524173585715 0.01218575 -0.9673788 -0.253041 73 73 73
-0.0205383666978172 -0.0300007677225619 0.0148090938678568 0.06943586 -0.3685893 0.9269955 61 61 61
-0.00141421316200412 0.0256958687158079 -0.0109566231617147 -0.03282403 0.9606277 0.2758932 64 64 64
0.0188228643312164 -0.0271816766409426 0.00619157353552041 0.1729289 -0.3106287 0.9346686 58 58 58
-0.00763751223692215 -0.0284762001184969 -0.00791960259763541 0.0181475 -0.9560227 -0.2927307 94 94 94
-0.0339389027283481 0.01850310800986 0.0134405116191691 -0.02895532 0.961718 0.272507 87 87 87
-0.0128160243109754 0.0180529737325162 0.0155463139167613 -0.01280467 0.9670066 0.2544294 90 90 90
0.0547544701769062 0.0236895763726682 -0.000302576030176305 0.1375895 0.9048939 0.4027854 103 103 103
-0.00709240634003199 0.0199755215497465 0.0100481728664225 -0.02749801 0.9638218 0.2651253 128 128 128
0.0251597284152218 -0.0301121091990023 0.000924400483686305 0.1992706 -0.9658272 0.1657376 115 115 115
-0.00205017074020124 0.0220008873792142 0.00231734613092599 -0.0179567 0.9637739 0.2661154 62 62 62
0.0267647660150238 -0.0206687665133028 0.00579857031019387 0.07111279 -0.1239659 0.989735 59 59 59
-0.0172223014012865 -0.0311132586149722 0.0146441678157633 0.09172988 -0.5171884 0.8509417 50 50 50
-0.0510643341765694 -0.0025826311258822 0.0193196157565897 -0.4192843 -0.1351059 0.8977455 96 96 96
0.0183913229777523 0.0221818172784299 0.0036869714608973 -0.02751395 0.9624004 0.2702377 113 113 113
0.0170285577698656 0.00957787869887061 0.0134865562072581 0.3042085 -0.2265723 0.9252687 225 225 225
-0.0206746434048704 -0.0131064272074252 0.0167328933826273 0.132139 -0.1810829 0.9745503 245 245 245
0.0263180813564964 0.000874289259478522 0.00931467810781655 0.1557049 -0.2527586 0.9549184 55 55 55
0.0148708435519644 -0.0277686035780459 -0.00841376980630698 -0.009574004 -0.9639089 -0.2660603 114 114 114
-0.0365395129845432 -0.0273450231699496 -0.00441554983941855 -0.9935517 -0.01209849 -0.1127325 54 54 54
-0.00738010119655646 0.017809965595767 0.0177106479755229 -0.01798575 0.8803323 0.4740164 133 133 133
0.0230815100296446 0.00929317711310096 0.0109566072574442 0.2098982 -0.1995187 0.9571494 49 49 49
0.0480087778343865 0.0257059120984525 -0.00816557606546225 -0.01184699 0.9651352 0.2614838 93 93 93
0.0504617548360535 0.0249295914025754 -0.00443754395334067 -0.02668772 0.9650497 0.2607042 78 78 78
0.0519835135712334 0.00189868448691077 -0.000127278769891881 0.5243223 -0.2423385 0.8163077 36 36 36
-0.0383451798186592 0.00415033935026832 0.00143072703989205 -0.963139 -0.2240103 -0.1489385 59 59 59
-0.00152020605289853 -0.0306355273870974 0.00313682058962045 0.04123275 -0.9681014 -0.2471425 100 100 100
-0.0438643836603454 0.00925762294249244 0.00683980384977517 -0.745286 -0.4947512 -0.4469564 73 73 73
-0.0369824127481274 -0.0304172551779299 0.00429568389566598 -0.9950954 -0.06361616 -0.07575104 50 50 50
-0.0149964497611812 -0.0188679015783816 0.0162317077270335 0.06896353 -0.05389105 0.9961625 52 52 52
0.0662925547733017 0.0247351312489957 -0.00527135332910361 0.4797367 0.5882793 0.6509839 54 54 54
-0.0370505520329765 0.0248079979272336 -0.0106412698873693 -0.3716074 0.9038646 -0.2119832 108 108 108
-0.0339389027283481 0.0223763966412992 -0.000715233887117528 -0.01564443 0.9673966 0.2527828 65 65 65
0.0664742595328995 0.00766099332289405 -0.00667250951616111 0.3092853 -0.05933227 0.9491166 59 59 59
0.0201174939795443 0.0247109317632169 -0.00522676905481162 -0.005844063 0.9691858 0.2462613 102 102 102
0.0162411813437053 0.00498906610922523 0.0126281003108805 0.2711366 -0.273407 0.9228941 222 222 222
0.0166651519759604 -0.0298117613939791 -0.00150161286680045 0.001136083 -0.9828903 -0.1841884 118 118 118
-0.0307136879489712 0.00899238227324195 0.0213753501525706 0.03240232 -0.09897373 0.9945624 108 108 108
0.0165970145537563 0.0188435995431394 0.0156867424598521 0.2159446 0.4989309 0.8393068 134 134 134
0.0681777155770966 -0.00591360689683251 -0.00766422649709525 0.3187909 -0.2324896 0.9188694 104 104 104
0.00176557478718915 -0.0299861645845919 -0.00198931297151389 0.04941953 -0.9739797 -0.2211817 117 117 117
0.0546409047021576 0.014966377005145 0.00160629252107797 0.5257404 -0.1712882 0.8332211 49 49 49
-0.023415317125707 -0.0263383007196932 0.0153725961795634 0.01590506 -0.1716262 0.9850338 65 65 65
-0.0181762383506588 0.00224334834532447 0.0198831478706187 0.0329284 -0.1193075 0.9923112 230 230 230
0.0507040253653237 0.00426558493094154 0.00151645342024026 0.4602683 -0.2339772 0.8563923 81 81 81
-0.008546022996395 -0.0244340515284091 0.0152431646934336 0.1167935 -0.1439046 0.9826753 14 14 14
-0.00911384291955746 0.0195575141759367 0.0111157814613169 -0.02762381 0.9617525 0.2725237 116 116 116
0.0331546260788151 -0.0218540048746615 0.00402220288427529 0.2471285 -0.2078068 0.9464375 79 79 79
-0.0448410318420223 0.0206904792638273 -0.000590540970247411 -0.8793291 0.1508912 -0.451677 111 111 111
-0.0161320896075062 -0.0338052427916079 0.0125348786464518 0.1403164 -0.8660693 0.4798285 125 125 125
-0.0060021931492678 -0.0325820660738497 0.00674944320829568 0.08044399 -0.9735084 -0.2140329 126 126 126
0.00452139105638944 0.0224821054788084 0.00126098791273294 -0.02306784 0.9637032 0.2659775 98 98 98
0.0577298446371266 4.73344178647528E-05 -0.0035715927728826 0.4081254 -0.01359381 0.9128246 81 81 81
0.0556856921686836 -0.0135312295107394 -0.000959091390054845 0.6113153 -0.1323037 0.7802496 77 77 77
0.0488945736362644 0.0225654625745267 0.003363631164152 0.1761089 0.8551719 0.4875107 113 113 113
0.0489854260160633 -0.0250874078421145 -0.00155969759313407 0.7363833 -0.4582256 0.4977639 50 50 50
-0.0365281582997135 -0.00098376633210473 -0.00841984948007407 -0.9549533 0.02822326 -0.2954111 54 54 54
-0.0128614495695523 -0.0334357834009676 0.0115565578094309 0.01770429 -0.9237155 0.3826697 105 105 105
-0.0428877317533783 0.00473914383368201 0.0210767010799235 -0.03752728 -0.03782525 0.9985794 47 47 47
-0.0368972414360336 -0.0149089014677554 0.0014713178029841 -0.9924154 -0.0318692 -0.1187262 53 53 53
-0.0362707444653801 -0.0207473254351168 -0.00520942410318198 -0.9975218 0.03261507 -0.06234211 42 42 42
0.0502649142219731 0.0263729476781339 -0.01072765191881 -0.0176513 0.9648854 0.2620777 93 93 93
-0.00115680165597714 0.023353406176135 -0.00254260798780265 -0.01793991 0.9616292 0.2737654 134 134 134
0.0457374981417366 0.0046716117711515 0.00455728868158517 0.380395 -0.1866705 0.905789 230 230 230
0.00694408657020413 0.0184377813191862 0.0158593575111216 0.06622518 0.7632445 0.6427069 118 118 118
-0.0400259227679066 0.00621206401304908 0.00470041433485208 -0.8051676 -0.4672915 -0.3651627 62 62 62
0.0693587816133209 0.0179371619077177 -0.00786519845811667 0.6001598 -0.03494616 0.7991164 73 73 73
0.0291571772470184 0.00871426700071998 0.0102666238895243 0.1316785 -0.1874462 0.9734088 225 225 225
0.000448234081179729 -0.0291908896116763 0.0126367131820506 0.3235105 -0.4893858 0.809841 87 87 87
-0.0491791733727745 0.0181863391252012 0.0126828471771067 -0.2792221 0.9493943 -0.1438245 63 63 63
-0.0309408151731781 -0.015940628066495 0.0175671497932261 0.009208869 -0.1999105 0.9797709 58 58 58
-0.0125434708968691 -0.00649651052041345 0.0183961311927622 0.1226603 -0.2343454 0.9643841 240 240 240
0.00251509626852804 0.024601318821475 -0.00708942910520377 -0.02939039 0.9623846 0.2700965 94 94 94
-0.0153447122500233 0.0186057472081632 0.013719699775297 -0.02800599 0.9671724 0.2525732 126 126 126
-0.0202658132837108 -0.00144054652734094 0.0196855584731883 0.05044552 -0.1463394 0.9879474 170 170 170
-0.000641978993169138 -0.0167344427256136 0.0152403930774516 0.1248253 -0.141544 0.9820305 182 182 182
-0.049883268140345 0.00846517919020362 0.0203029433837718 -0.6354608 -0.05977467 0.7698159 87 87 87
-0.0255806029961399 -0.0321933245806246 0.0153984347930735 0.09691106 -0.600698 0.7935806 65 65 65
0.0484630322828003 -0.0279762959627657 -0.00228480299798789 0.5705546 -0.8188155 0.06331411 96 96 96
0.0595468661560722 -0.0094207441954165 -0.0095920344242269 0.621279 -0.4191505 0.6620614 48 48 48
-0.0358921990917019 -0.0250169253496676 -0.00645697912065329 -0.9921066 -0.004928183 -0.1253008 40 40 40
-0.0367325724289707 -0.0207580840734988 0.00123452345045266 -0.9981396 0.03518455 -0.04979385 42 42 42
0.0377426042034336 0.00893891690687842 0.00900160471113381 0.2967224 -0.2862014 0.9110678 86 86 86
-0.00681985292592562 -0.0316257989553957 0.0136723140827006 0.1702197 -0.6639544 0.7281414 78 78 78
-0.0386858725176147 -0.0148892021326571 0.0157801727405375 -0.9397711 -0.2574116 0.2248768 54 54 54
-0.0501558215544514 -0.00511821271462731 0.0193912903419322 -0.2722243 -0.1407824 0.9518793 117 117 117
-0.0485205010698131 0.0171912991853208 0.00717221895368753 -0.8612946 0.09908895 -0.4983504 110 110 110
0.0464643097295471 0.0164062464089841 0.00700019994886575 0.5418996 -0.04038566 0.8394724 22 22 22
0.000425521277268312 0.0197715246530027 0.0111048142066782 0.00203862 0.9669979 0.2547763 117 117 117
-0.00133244723090447 0.0237743937821836 -0.004362158978861 -0.02393069 0.9667891 0.2544525 127 127 127
0.050280053801746 0.0223478758187742 0.00495617786558328 0.3270887 0.7105812 0.6229665 97 97 97
-0.0418126614020161 0.00504408119635291 0.00876664320142923 -0.7156287 -0.5426804 -0.4397425 69 69 69
-0.0373571732268623 -0.018659076705411 0.0111754457107371 -0.9981033 -0.05414424 -0.02929437 38 38 38
-0.0375456878171257 -0.020855269446805 0.0150044480911082 -0.9488243 -0.145768 0.2801501 46 46 46
0.00385514966203355 0.0135295176358671 0.0173202077499217 0.1919695 0.02690714 0.981032 48 48 48
-0.0249900699780277 -0.012844822421506 0.0179538647285288 0.1213241 -0.2027044 0.9716951 80 80 80
0.0445791489257523 0.0229822480531187 0.00165969828279672 -0.02873952 0.9597964 0.279222 98 98 98
0.0226840383186051 -0.0033898866323977 0.00880204836042581 0.2631953 -0.2045612 0.9428059 67 67 67
-0.008546022996395 0.00156302092985816 0.0193055788627451 0.1793526 -0.230252 0.9564605 58 58 58
0.030837922058911 0.000942000135943366 0.00865792432935891 0.1926282 -0.2914125 0.9370022 44 44 44
-0.0373836712167553 -0.0230082786230593 0.00915928879888711 -0.998483 0.0006135102 -0.05505728 65 65 65
-0.0368279659376434 -0.0161952591089755 0.00335035422952829 -0.9949495 -0.03396052 -0.09445797 34 34 34
-0.00868229970344818 0.0236485683770628 -0.0036537130722219 -0.008598884 0.9633535 0.2680971 76 76 76
0.0288846238329121 -0.0286812102942019 -0.00254049202291312 0.06432019 -0.9870747 -0.1467867 87 87 87
-0.00573872478687681 -0.00517969490571313 0.0168226877799815 0.1982476 -0.1356075 0.9707258 207 207 207
0.01743738602838 -0.0119974231867342 0.00877400437505899 0.3719291 -0.207918 0.9046761 36 36 36
0.0237061126901814 -0.0103475964216738 0.00756641427190957 0.2236395 -0.1629597 0.9609524 43 43 43
-0.0507463508472732 0.0141640090795011 0.0207278648963755 -0.4008019 0.1332415 0.906424 82 82 82
-0.0311225162074856 0.0239791357369871 -0.00643330117551627 -0.02844063 0.9635521 0.2660047 81 81 81
-0.0275338993594936 0.00496185658888526 0.0204963902583903 0.0532994 -0.1154247 0.9918852 48 48 48
0.0187774418666073 0.00253272889570899 0.0105389575115031 0.2669283 -0.2179088 0.9387572 91 91 91
-0.0380019650981716 -0.00101443292184167 0.00508075157316384 -0.97847 -0.1381902 -0.153297 52 52 52
0.0649070820584007 0.0134497070165128 -0.00500831803170981 0.4391941 -0.1532332 0.8852277 55 55 55
-0.0372152173147491 -0.0172452843336611 0.00509761968763528 -0.9944561 -0.04587424 -0.09461824 46 46 46
0.0269313256069132 -0.0291367685942202 0.00406632522257028 0.2306612 -0.5852009 0.7773901 54 54 54
0.0135307905077048 0.0216178381295652 0.00557684103162942 -0.03006322 0.9618816 0.2718086 117 117 117
0.0172783980890223 0.0166498505921812 0.0156397143951243 0.3381087 0.1848024 0.9227841 44 44 44
0.0287029209359594 0.00596780417875953 0.0103008369556254 0.1279327 -0.1810611 0.9751154 91 91 91
-0.0144059186057142 0.0243710660787076 -0.00753810306875052 -0.009395359 0.9693311 0.245579 164 164 164
-0.0373685316369823 -0.0232627904562502 0.0110592464557475 -0.9974691 -0.01483482 0.06953658 47 47 47
0.0510522878541657 0.0143113815637083 0.00336577693136392 0.4824116 -0.1528758 0.8625011 22 22 22
0.0334498888625809 0.0256730699391813 -0.0088075478920156 -0.01580594 0.9668886 0.2547088 95 95 95
0.0650887793674179 0.0179109954686613 -0.00441173514215293 0.5890722 -0.139955 0.7958684 67 67 67
-0.0370164805279068 -0.028191319718793 -0.000430860126894139 -0.9959484 -0.05370821 -0.07212651 113 113 113
-0.022718792148023 0.0238662147374601 -0.00524628957597556 -0.02215752 0.9649644 0.2614435 150 150 150
0.000569368851049698 0.0207597994657011 0.00746887127073464 0.0004319809 0.9685444 0.2488403 100 100 100
-0.0076829384268216 0.0212587797494382 0.00383295813711343 -0.0221789 0.9676349 0.2513776 76 76 76
0.020730738229961 0.0151989543290586 0.0135224978080576 0.2691874 0.02493048 0.9627651 48 48 48
-0.0256941647455982 0.0218868636937589 0.00112261572988687 -0.02232112 0.9611768 0.2750289 61 61 61
-0.0104084707052401 -0.0311763203291445 0.00416090289266763 0.0174922 -0.9588181 -0.2834817 125 125 125
0.0475090971960732 -0.0275979554800539 -0.00110844572870078 0.5541768 -0.7123578 0.430621 29 29 29
-0.0330985293910793 0.0246003055425138 -0.00873708030072989 -0.1392042 0.9720092 0.1892626 103 103 103
0.0470094165577599 -0.0267704343943148 0.0010285596004313 0.5460559 -0.4755344 0.6897028 29 29 29
-0.0373079621420196 -0.0289333975462466 0.0154119054427928 -0.8953666 -0.03148952 0.4442151 96 96 96
0.00321919208383643 -0.0036684191374331 0.015146724378187 0.3190622 0.002582655 0.9477302 44 44 44
-0.0419337966666511 0.0161742353291959 -0.00197986563531699 -0.7798716 -0.3807643 -0.4968086 79 79 79
0.0187547269090124 -0.0198696172384768 0.00662564436109719 0.3269799 -0.1067644 0.9389811 31 31 31
-0.0217345723138145 0.0208156490178556 0.00519513288648782 -0.01397372 0.9671679 0.2537537 108 108 108
-0.00988607697197712 0.0218904101701231 0.00303169289739785 -0.01946888 0.9643497 0.2639138 99 99 99
0.0123800101502844 0.0264403605313749 -0.0122707118639165 -0.003531835 0.9671506 0.2541795 105 105 105
-0.037270109467297 -0.00487308861298852 0.00127450326593576 -0.9909272 -0.1174083 -0.0654116 41 41 41
0.00776174634686195 -0.00237148167176537 0.0133544723144358 0.298577 -0.09676313 0.9494676 95 95 95
-0.0412297018990806 -0.000363609805539178 0.0115089933029002 -0.7824539 -0.2829728 -0.5547001 77 77 77
0.0416037744655319 -0.00619768263383202 0.00367090800913034 0.4164018 -0.135723 0.8989933 79 79 79
-0.0385268808529667 -0.0104470169691592 0.0134535352340525 -0.9271342 -0.1576689 -0.3399451 90 90 90
-0.0454164215550712 0.0190159165711851 0.00161317685754953 -0.8984225 0.1054414 -0.4262853 67 67 67
-0.0297143266723446 -0.0136889135984927 0.017379812394697 0.06219569 -0.1811602 0.9814849 25 25 25
-0.0446290479228786 0.0168734276147336 0.00179814497144876 -0.8252835 -0.2424436 -0.5100276 68 68 68
0.032124978192062 -0.0171282506136446 0.00557919541509805 0.215995 -0.1855052 0.9586104 232 232 232
-0.0335170918331436 0.00514737604574866 -0.0109801371940786 -0.8387465 0.0386401 -0.5431494 71 71 71
-0.0178431173042349 -0.0292118704466372 -0.004450791085642 0.03466082 -0.9574012 -0.2866733 79 79 79
-0.0354833708331875 -0.00275116325898461 0.0202684024921244 0.05885592 -0.1090022 0.9922976 29 29 29
0.0325792363657662 -0.0291794455198794 -0.00236799618093314 0.1297929 -0.9914594 -0.01272888 99 99 99
0.0197995143755385 -0.0281966543345004 -0.00839186509935202 0.008912256 -0.9596786 -0.2809582 112 112 112
-0.017858258746653 0.0174032831044645 0.0175514439693278 -0.025948 0.9428841 0.3321088 150 150 150
0.00644440546622955 0.0201020026059598 0.0100706438175028 -0.01989257 0.9624361 0.2707784 136 136 136
0.0192998337372252 -0.0077631092218905 0.00936289826543985 0.3159724 -0.1743141 0.9326178 44 44 44
-0.0172677275911859 -0.0137291467337161 0.016687593852598 0.0817 -0.1410431 0.9866266 38 38 38
-0.0446820401773743 0.00718853710608192 0.0102240065685099 -0.7697682 -0.5051581 -0.3902208 49 49 49
0.0304290919377514 -0.0156677580027133 0.00629528561742959 0.06590398 -0.142099 0.9876561 171 171 171
0.0298839851095387 0.0254998290391416 -0.00865884920446219 -0.01573469 0.9642423 0.2645547 108 108 108
0.0205717502906033 -0.0304497397093325 0.00163114765794931 0.03132307 -0.9940726 0.1041078 107 107 107
0.0428302666916557 -0.0114764487890749 0.00198302367838082 0.390218 -0.03473582 0.920067 223 223 223
-0.036346457265406 -0.0250961399225741 -0.00545974871007743 -0.992748 -0.01088865 -0.1197204 49 49 49
-0.0491564565525345 0.0164452278466672 0.00880136290701089 -0.8520815 -0.03513085 -0.5222289 57 57 57
-0.0403211892769626 -0.00901978375001244 0.0150609234920329 -0.9228838 -0.2100503 -0.322745 77 77 77
-0.0356045060978226 -0.00744651915116601 -0.0113401641496831 -0.9878218 -0.05295718 -0.1463 43 43 43
0.0461463301255413 0.0254001998753995 -0.0059851636537725 -0.02046698 0.9668037 0.2546993 63 63 63
0.0127812686189123 0.0242846989484281 -0.00512298246709647 -0.02073189 0.9623657 0.2709657 99 99 99
0.00921536393454754 0.0140331768842191 0.0161373833766764 0.1937637 -0.009882993 0.9809985 24 24 24
-0.0245812398568682 0.0199021780343503 0.00899126330526528 -0.008361183 0.9638076 0.2664677 83 83 83
-0.0550314963982395 0.0165596985669584 0.0175864915004557 -0.4977341 0.6407323 0.5845706 99 99 99
-0.0187213451788715 -0.0309463358072787 0.00488681296022592 0.02008665 -0.9583306 -0.2849543 91 91 91
0.0233881330861756 0.0201084399075956 0.0109526435485667 0.0987048 0.7128651 0.6943204 132 132 132
0.0363646975531288 0.0234603369088621 -0.000511847937982701 -0.009801364 0.9671447 0.2540374 92 92 92
0.0284757937117525 -0.0263575232176333 -0.00901136597482505 0.02201847 -0.9549485 -0.2959536 112 112 112
0.00208355363449537 0.0248924875112028 -0.00790224274484458 -0.03051779 0.962114 0.2709343 122 122 122
-0.00641102280476607 -0.0112238741068392 0.0159907261482066 0.08808072 -0.1349185 0.986934 211 211 211
-0.0380726264045528 -0.00307505489869409 0.0204391996017283 0.02160628 -0.1696457 0.9852682 84 84 84
-0.0361102403328709 -0.012568167462781 -0.00292819043485465 -0.9972855 0.01588801 -0.07189694 33 33 33
-0.0279427294806532 0.0106502556653471 0.0214087585559672 0.0600781 0.04677227 0.9970973 79 79 79
-0.0368991338835052 0.00304154394583411 -0.00671540995923819 -0.9198111 -0.008929495 -0.39226 82 82 82
-0.0277610284463457 -0.0341688609270602 0.0149496714225596 -0.04458167 -0.7659141 0.6413953 77 77 77
-0.0318493277952961 0.0175522351117582 0.0174474338641947 -0.02611361 0.9657568 0.2581313 68 68 68
0.0185503127797552 0.0150694930406065 0.0145271340957469 0.3152647 0.1014051 0.9435704 39 39 39
0.0169831315799662 0.0195971214623899 0.012362472211439 0.0533374 0.8911316 0.4505992 96 96 96
-0.0367325724289707 -0.0227971589712649 -0.00214799543706717 -0.9951963 0.04327792 -0.08781452 43 43 43
