ply
format ascii 1.0
comment File exported by Rhinoceros Version 7.0
element vertex 467
property float x
property float y
property float z
property float nx
property float ny
property float nz
property uchar red
property uchar green
property uchar blue
end_header
-0.0122292806980467 0.0469752577861322 -0.00508700567658962 0.2393951 0.9706753 -0.02189655 212 212 212
0.024902586476474 0.0420070757256865 -0.0139049568656788 -0.01541013 0.989332 -0.1448611 101 101 101
-0.00894640931299406 -0.0387952535654845 -0.0226257349403182 0.07214019 0.04542005 -0.9963598 98 98 98
-0.0052477151946726 -0.0379307396468331 -0.0226325274049792 0.06660948 -0.04564954 -0.9967343 126 126 126
-0.00288281925406519 -0.0494084027444404 -0.00708826948376026 0.08110233 -0.9906625 0.1095909 72 72 72
-0.0275449429188115 0.0546716426391947 0.0273191372643294 -0.01868712 0.9946418 -0.101678 36 36 36
0.0169901332623192 -0.00582071796032513 -0.0229507482605835 0.1311523 -0.04124698 -0.9905038 115 115 115
-0.0331038619062204 0.0535847142601946 0.0145417727508429 0.0310969 0.995478 -0.08975756 174 174 174
0.0583044079190856 0.0398338688793669 -0.0247578391465295 -0.08861056 0.8494092 -0.5202425 77 77 77
-0.0398289554301582 0.0434409202572035 -0.00286898626062293 -0.9545985 0.1804656 -0.2370103 157 157 157
0.015322451179353 0.0302818328930814 -0.025097798945539 0.1414855 -0.03869542 -0.9891838 183 183 183
0.0336783983566879 -0.0262168375178635 -0.0204724256458565 0.121412 -0.002983292 -0.9925977 59 59 59
0.0695306884062915 0.0394550809881855 -0.0175348455983305 0.749977 0.6614301 -0.006688253 162 162 162
-0.0494518093199972 -0.0311940716744632 0.00859929848716237 -0.990858 0.0965401 0.09423662 63 63 63
-0.00145991834325487 0.0444306954028733 -0.00457809929333197 0.2138554 0.9750059 -0.0602438 95 95 95
-0.0400153173657961 0.0438623860817426 -0.00620498630691299 -0.9321713 0.2598781 -0.2520316 146 146 146
0.0267023559418936 0.0303026098660839 -0.0240748178157836 -0.01491692 -0.01224877 -0.9998137 127 127 127
-0.0474234026276267 -0.0455407193457662 -0.00141609449704511 -0.3054375 -0.9506933 -0.05376028 37 37 37
0.0261732661633259 -0.00450107184913362 -0.0219961915745798 0.05269053 -0.09178019 -0.9943843 93 93 93
0.00503559742512355 0.0442367290630508 -0.000269565163689561 0.06361255 0.9915399 -0.1131463 190 190 190
0.00801890592777965 0.0372341084648344 -0.0260421546217105 0.09858691 0.1833252 -0.9780964 115 115 115
-0.0014955039970686 -0.0385096231639788 -0.0220464600207437 0.05433627 -0.05067789 -0.9972358 120 120 120
-0.0075744928138638 0.0152299224355403 -0.0257689028438551 0.1695115 0.02056758 -0.9853136 202 202 202
-0.036314354655449 0.0548841086688008 0.0281130893897494 0.04535188 0.9897398 -0.1354933 49 49 49
0.0556317217289343 0.0323870725641384 -0.0251787198064028 0.0194632 -0.06557482 -0.9976578 82 82 82
-0.0380056095688117 0.0550314981245894 0.0299111223272054 0.0180777 0.9907225 -0.1346927 38 38 38
-0.0457198276876133 0.0305523133539312 0.0307502090035451 -0.9824257 0.1562838 -0.102054 128 128 128
0.0616389693001347 0.0428470595281147 -0.0151099018778404 -0.08584105 0.9951138 -0.04878239 96 96 96
0.0445558202685223 0.00366204345376997 -0.0214273588072589 0.02112938 -0.03797077 -0.9990554 121 121 121
0.00275460762844909 -0.0123419406918415 -0.0239043143794995 0.09353672 -0.00503154 -0.9956031 85 85 85
-0.0232851803085732 0.0473406848553422 -0.0240923888932321 0.0346098 0.9627272 -0.2682509 124 124 124
-0.0465510927315776 0.0255353677317833 0.0352158826531747 -0.9839092 0.1022891 0.1464912 142 142 142
-0.0451026912819357 0.0343442744122568 0.029939324294925 -0.9786202 0.1773952 -0.1040839 89 89 89
-0.0419931197869677 0.0353357881841334 -0.000590371086284291 -0.9363989 0.1680269 -0.3080975 130 130 130
0.00959844501419049 -0.0445300072469996 0.013835325330153 0.1775903 -0.9664866 0.1853786 40 40 40
0.0431442580879939 0.0257064747049816 -0.0239458434542976 0.006766841 -0.2327338 -0.972517 106 106 106
-0.0113313872620411 -0.0498412793625043 -0.00478296891189364 0.06063983 -0.9871422 0.1478954 97 97 97
-0.0439423210738057 0.000670607941361423 -0.00938662251482358 -0.9563856 0.1284992 -0.2623254 110 110 110
0.0288032007766859 0.0424900014694525 -0.0115653922988877 0.02657016 0.9864045 -0.1621736 139 139 139
0.0640062389509475 -0.0228674374097944 -0.0185808818428776 0.06969069 -0.09279358 -0.9932435 123 123 123
0.0162561302109102 -0.00792595581438649 -0.0225670212434007 0.1135099 -0.02571832 -0.9932039 81 81 81
-0.0294439402691293 -0.0468913999799911 -0.0082600700435394 -0.181572 -0.9706699 -0.15758 229 229 229
0.0261484109202877 -0.0361342766532542 -0.0210914099471773 0.1446782 0.1360967 -0.9800744 103 103 103
0.0311139491620105 0.0425227074460102 -0.00948778373214634 -0.01792688 0.9657466 -0.2588668 188 188 188
-0.0360070535107585 0.0122361200973242 -0.0255829136933647 -0.31784 0.102472 -0.9425907 33 33 33
-0.0374657402273371 0.0505835034641022 -0.00861438938956041 -0.2141572 0.9717899 -0.09879823 185 185 185
-0.0125588684038428 0.0457698641816837 -0.026221183532783 0.1343852 0.8221908 -0.5531211 83 83 83
-0.0441222904321089 0.022735990417849 0.0167012554341564 -0.9929766 0.08642491 -0.08079699 69 69 69
-0.0501974554135228 -0.0206228269999018 0.0189088493223647 -0.93651 0.1314253 -0.3250792 50 50 50
0.0443408666415375 0.0439017326332862 -0.00745089963014459 0.04456636 0.9885086 -0.1444456 79 79 79
-0.00900491907410061 0.00856183079574713 -0.0257240701766345 0.08712789 -0.06282102 -0.9942144 56 56 56
-0.0171984626748843 -0.0413774481536533 0.024659152733225 -0.2081064 -0.6783166 0.7046831 34 34 34
0.0295230256458857 -0.00738872428601822 -0.021809930357535 0.05866593 -0.1326701 -0.9894226 52 52 52
-0.0426974864334905 0.0241291137923869 -0.00892619436731043 -0.9554519 0.190124 -0.2257532 85 85 85
-0.0109220982289042 -0.0172105456866014 -0.0244600518220977 -0.00778949 -0.1203989 -0.992695 233 233 233
-0.0111531317090759 -0.0497461908801311 -0.0234612469157374 -0.05456357 -0.4348839 -0.8988319 190 190 190
0.0478308205905472 0.0393009328886966 -0.0228721735293031 0.009988798 0.9191328 -0.3938212 121 121 121
-0.0274844050202376 0.0190144268092776 -0.0270816176251909 -0.06782127 -0.1375561 -0.9881693 238 238 238
-0.0444497043255314 -0.00690607876462268 -0.0105549841617394 -0.9640734 0.0617337 -0.2583631 96 96 96
0.0698468956142209 -0.0391453091396425 -0.0158432478199465 0.5762725 -0.2759779 -0.7692504 54 54 54
0.0524277914477072 -0.0243929731659625 -0.0187153558145508 0.08771067 -0.1126857 -0.9897519 142 142 142
0.0538884250266028 -0.0304064131250354 -0.0177670017533903 0.07707914 -0.09047028 -0.9929119 219 219 219
0.0358522086101234 0.00994666224889951 -0.022423071888465 0.05397793 -0.09716907 -0.9938031 228 228 228
-0.0445879301899039 0.0228632005555895 0.020659646246284 -0.9826445 0.1155857 -0.1450851 148 148 148
-0.00307405060540733 0.0365791908098909 -0.0277181141949374 0.1294686 0.008026387 -0.991551 119 119 119
-0.0464951987243215 -0.00826029605433076 -0.00533812330033404 -0.9706708 0.07405373 -0.228723 91 91 91
0.0595191857053142 -0.0525496242317864 -0.0144397742540406 0.1721559 -0.8020474 -0.571911 77 77 77
-0.0119454510011051 -0.0470566943849893 0.00886195872085335 0.07703217 -0.9608367 0.2661934 74 74 74
0.00241247352671203 -0.00370932638189791 -0.0241663318579837 0.07030126 -0.05827041 -0.9958224 241 241 241
0.06779583414152 0.0282888811950572 -0.0249572163516618 0.3650609 -0.2195549 -0.9047244 90 90 90
0.0102555327329195 0.0424117845550191 -0.0131113720839392 0.1008084 0.990971 -0.08839706 148 148 148
0.0690909829474369 0.0407738133077051 -0.0149993987763239 0.7133661 0.6998672 0.03598282 172 172 172
-0.0417275791540738 0.0460378404546724 0.0180610763205254 -0.9884048 0.151837 0.001239819 134 134 134
0.0111554594327971 -0.0449761325469067 0.0126618285109517 0.1553216 -0.9636354 0.2174444 66 66 66
-0.0181660388806956 -0.0194453646258312 -0.0231027622772444 -0.04467073 -0.02812064 -0.9986059 81 81 81
-0.0272513598420429 0.0443168861068788 -0.0265650507854715 -0.2510846 0.5285245 -0.8109367 199 199 199
0.035800209686092 -0.00469936987950392 -0.0208531449710257 0.1029897 -0.0730034 -0.9919998 213 213 213
0.0421622460739392 0.0266882201992722 -0.0241697767666455 -0.006384433 -0.2289086 -0.973427 130 130 130
-0.0141577444573908 0.050613455273538 0.0185736892844063 0.2505679 0.9535294 -0.1673246 106 106 106
0.0665958464890969 -0.00909287721043861 -0.0192817421388342 0.05787383 -0.1283756 -0.9900355 77 77 77
0.0363937650372718 0.0442830310007065 -0.00444436266790851 0.0264502 0.9981434 -0.0548657 180 180 180
-0.000285361745729851 0.0093823024550399 -0.0248670265616774 0.06087254 -0.02585375 -0.9978107 93 93 93
-0.0143417476962361 0.0030141990221848 -0.0258057278470565 0.009165947 -0.02216284 -0.9997123 151 151 151
0.00680833437228967 -0.0501721507977404 -0.0127071350439082 -0.01267325 -0.9938302 0.110186 95 95 95
0.0207259254943612 -0.0411540313424748 -0.022823409310442 0.03291095 0.1040299 -0.9940295 67 67 67
-0.0245722255052006 0.0221856184811176 -0.0271904444222597 0.04945729 -0.07269345 -0.9961273 236 236 236
0.0219217436393948 0.041627875199554 -0.0159186473610142 -0.004189602 0.9939651 -0.1096167 85 85 85
-0.0278835526998955 -0.0381548529055937 -0.0236454787050902 0.04573837 -0.02809813 -0.9985582 74 74 74
0.0375737194364116 -0.0490007224922042 -0.0061661662745153 0.02785464 -0.9611213 0.274718 117 117 117
-0.0418739139510224 0.0149327061026556 -0.0125782588580413 -0.9439294 0.1242743 -0.3058648 105 105 105
0.0351601919767991 0.041182561133037 -0.0148770481008959 -0.01729202 0.9928684 -0.1179548 69 69 69
-0.0104860538057558 0.0068055273347627 -0.0254228595280515 0.04958912 -0.07388513 -0.9960331 59 59 59
0.035567440104441 -0.0351876408033052 -0.0199822998353137 0.09829327 0.04858802 -0.9939706 70 70 70
0.021235355311926 0.0434748606616162 -0.00453214522137582 0.02829468 0.993297 -0.112073 99 99 99
0.0494547056258062 -0.0159736135915576 -0.0195865942830732 0.04930966 -0.06265984 -0.9968161 110 110 110
0.0136531151620431 0.00256460681824144 -0.0233862884650186 0.1470506 -0.03550437 -0.9884915 240 240 240
-0.0489186626835397 -0.014526007216358 0.00649691243464109 -0.9987929 -0.04682797 0.01482443 66 66 66
-0.0453190268125228 0.0030808468672463 0.0109107096487616 -0.9648864 0.2555715 -0.06064151 93 93 93
0.0665224517085822 0.0417381501369243 -0.018861876440173 0.3712496 0.8991877 -0.2315929 78 78 78
-0.0154071751467533 -0.0507035508684135 -0.00705633494496408 -0.08373326 -0.9918344 0.09619373 156 156 156
0.0716680123321579 -0.00771803842217311 -0.0193563957673027 0.2540653 -0.1382719 -0.9572521 118 118 118
0.00626684317888915 -0.0279773363259554 -0.0218773000073631 0.06264765 -0.07225973 -0.9954164 196 196 196
0.0588904752518904 0.0352240297018305 -0.0254485832086474 -0.01652671 0.08235394 -0.9964661 115 115 115
-0.0208360464397153 -0.0234517459672332 -0.0231749228979848 0.07197811 -0.02273831 -0.997147 181 181 181
0.0581590417540525 0.0421873673880035 -0.0174027742668532 -0.1285663 0.9772831 -0.168489 134 134 134
-0.0446985160825666 0.00819130001163737 0.0136309629169215 -0.9782951 0.075624 -0.1929239 165 165 165
0.0716623787176616 -0.0332300845336018 -0.0163799241383113 0.7271986 -0.1615683 -0.6671416 60 60 60
-0.0269006193493778 0.0383448136943605 -0.0275137121126054 0.007483406 0.0683933 -0.9976304 127 127 127
-0.0461266682235456 -0.0168025357454247 -0.00882384496908697 -0.9328825 0.1707406 -0.31714 95 95 95
0.0623857814941914 -0.0256827597272513 -0.0180597345323381 0.03392862 -0.1396374 -0.9896213 53 53 53
0.0653022581193161 -0.0308727227708634 -0.017412951571094 -0.007949888 -0.120713 -0.9926556 74 74 74
0.0673121029800459 -0.029257316173112 -0.0177767940032916 0.06587554 -0.1036307 -0.9924319 130 130 130
0.0144676762712425 -0.0476333578161929 -0.023407066420442 0.01791984 -0.2072434 -0.9781253 148 148 148
0.0581233811508886 0.0397318387020018 -0.0257478818811993 -0.0428283 0.8159719 -0.5765029 115 115 115
-0.0142278155051836 0.0489000414015377 0.00979649292688853 0.2052889 0.9585629 -0.1975187 106 106 106
-0.0397361000220622 0.0535889683472477 0.0165566946875697 -0.360596 0.932717 -0.003097428 61 61 61
-0.0419333700438171 0.0226662942501201 -0.0116579426813368 -0.9503061 0.1264479 -0.2844807 93 93 93
-0.0375043775890292 0.0198514718589835 -0.0246374237351282 -0.6381414 0.07115082 -0.7666245 168 168 168
-0.0142913692041867 -0.0395775553563664 -0.023167323785759 0.06382377 0.06566656 -0.9957984 137 137 137
-0.0440153974190348 0.0314047683186423 0.0147421001730472 -0.9864395 0.1409708 0.08404931 98 98 98
0.060607516973016 -0.0380701548933926 -0.01688574348117 0.07300033 -0.09874421 -0.9924316 87 87 87
0.0426982103183813 0.0393112435628218 -0.0267342826788066 0.03640623 0.7398903 -0.6717417 154 154 154
0.027294583199666 0.00237823438055651 -0.0220635497364612 0.06274828 -0.01124109 -0.9979661 84 84 84
-0.0416083432508575 0.04192006427216 0.00357170423568945 -0.9747521 0.1760603 -0.1373362 99 99 99
-0.0156082187872627 0.0491315933206453 0.0108031238880963 0.2307254 0.9492347 -0.2138206 84 84 84
-0.0368364219559137 -0.0448338494836262 -0.0201458235071314 -0.1215022 -0.9649395 -0.2326564 43 43 43
-0.0383024897576417 0.00756863622633119 -0.0260885236242696 -0.2034061 0.003722655 -0.9790874 66 66 66
-0.027122442100513 -0.0111294203760794 -0.0233485865932215 0.1181055 -0.01069479 -0.9929435 60 60 60
0.011234682931983 0.0439919420516408 2.57616752014633E-05 -0.01653323 0.993096 -0.1161334 37 37 37
0.0335782569178597 0.000158712894527957 -0.0217994593226107 0.1091804 -0.06340966 -0.9919974 74 74 74
0.045653878135786 0.012925897647974 -0.0214374518183289 0.02652829 -0.06387646 -0.9976051 58 58 58
-0.0374085639831224 0.0287682829762121 -0.0254198321461587 -0.7560282 0.0613374 -0.6516587 205 205 205
-0.0368597815128265 -0.0462986930433356 0.0035384634616471 -0.1128959 -0.9934614 0.01699695 72 72 72
0.0048780712282176 -0.044998456356955 0.0155508806702082 0.1069041 -0.9865373 0.1237562 126 126 126
-0.0462362626000991 0.00690389165362371 0.0168486131793308 -0.9561362 0.1382727 -0.2582329 107 107 107
-0.0416286989308304 0.0446068647143871 0.00130766057086573 -0.9675634 0.1712137 -0.1857605 120 120 120
-0.00265922441417993 0.0460819686938791 0.0115365969138352 0.2236991 0.9681804 -0.1121847 108 108 108
-0.0249816088802188 -0.0463156455843079 -0.0126366109927682 -0.2927095 -0.9409021 -0.1703653 138 138 138
-0.0470258063419277 -0.0269507058077787 -0.00913947036417884 -0.8660191 -0.1336824 -0.481809 112 112 112
0.0606544627209403 0.0422006518742533 -0.0201373092708171 -0.06090945 0.9509851 -0.3031789 129 129 129
0.0302914436579398 0.0453681846400278 -0.000853475239839585 -0.0702337 0.9909775 -0.1141524 176 176 176
-0.0227747143569005 0.0444843093830314 -0.0277599912689949 -0.0660283 0.4236412 -0.9034204 161 161 161
0.0719598518677008 -0.02813817471026 -0.0163630317954091 0.5790655 -0.108954 -0.8079679 126 126 126
0.0213026089466555 0.0412990431009741 -0.0175002667955428 0.01403563 0.9941354 -0.1072275 78 78 78
0.0281057304465286 0.0266149405449787 -0.0236890954755152 -0.003068624 -0.06613781 -0.9978058 92 92 92
0.0450571204701165 -0.0461569587487818 -0.0187841316843871 0.2194585 -0.001308227 -0.975621 136 136 136
-0.0159179022153073 0.0465721566639297 -0.0244995803561268 0.1196814 0.979675 -0.1609761 72 72 72
-0.0462304102037547 0.00166567398860962 0.00642249099428882 -0.9267403 0.3594716 0.1092362 89 89 89
-0.0489209467440339 -0.0261097615363013 -0.00533308008963909 -0.9328898 -0.002687438 -0.3601519 91 91 91
-0.0361727492511505 -0.035389291863323 0.0231706275592247 -0.2945325 -0.4313383 0.852759 46 46 46
-0.0102277011635162 -0.0496701606326104 -0.001058643449772 0.07087705 -0.9883569 0.1346369 45 45 45
-0.000216331817913085 -0.0027766554137314 -0.0244757882537608 0.05074648 -0.04909332 -0.9975042 245 245 245
-0.0303317423957572 0.0506683612509493 -0.00337531592739668 0.003448913 0.9903259 -0.1387185 145 145 145
-0.0514717291627709 -0.017138087149265 0.0254448032987275 -0.9793467 0.002055441 0.2021777 100 100 100
0.0518578869601531 -0.0491404256661059 -0.0168928558041379 0.2543666 -0.3352169 -0.9071534 18 18 18
-0.00768140586775445 0.0481511636777798 0.0137708863386763 0.2776145 0.9418443 -0.1893658 76 76 76
0.0461637439717708 0.00347447839678106 -0.021330871653184 0.004504151 -0.04422413 -0.9990115 71 71 71
0.037950497199397 -0.00692543090845432 -0.0205671910080781 0.0666448 -0.08252586 -0.9943581 207 207 207
-0.0118031620401793 0.0464829829549676 -0.00215003247296339 0.1927377 0.9790989 -0.06494223 139 139 139
0.0542367258784602 -0.0428642550075458 -0.016738205672231 0.1523585 -0.04458927 -0.9873189 37 37 37
-0.0107752448542945 0.0243640475142557 -0.0262495328223309 0.07760672 -0.07202495 -0.994379 116 116 116
0.0498720774552211 0.0429767684580702 -0.0102324418493405 0.0722368 0.9900983 -0.1203627 57 57 57
0.0344355171264358 -0.0221888657698543 -0.0203862242967695 0.1136934 0.01198374 -0.9934436 121 121 121
-0.0474895295281792 -0.00229450240257867 0.0146696249030484 -0.9756954 0.1635097 -0.1458872 121 121 121
0.0402428875024036 0.0412887154845958 -0.0150138154002274 -0.09309369 0.9727719 -0.2122459 117 117 117
0.0589301368247435 -0.00438454368087537 -0.0206401212873882 0.03004907 -0.0950921 -0.9950148 227 227 227
-0.00467939987849519 -0.0477387877547111 0.0057310696408174 0.087976 -0.9669868 0.2391583 61 61 61
-0.00852019876836452 0.015087850990017 -0.0256790986013463 0.1646375 0.01727654 -0.9862028 224 224 224
0.0220166332033342 0.0149132085866217 -0.023426839684226 0.1100269 -0.08608646 -0.9901935 72 72 72
-0.0105100004463609 0.0495947260293215 0.0166856851346673 0.2455498 0.953334 -0.175669 110 110 110
0.0680403744772923 0.0409741320325561 -0.0196261062299793 0.5024161 0.8298223 -0.2428437 124 124 124
0.0342204996575358 0.0363161253964701 -0.0250457565803959 -0.0896751 0.1855416 -0.978536 156 156 156
-0.0138104063269227 -0.00664044815514764 -0.0251986398372679 -0.05284846 -0.1259127 -0.9906327 33 33 33
0.00428511185841951 -0.00464519352729664 -0.0239054278773885 0.07586519 -0.09352727 -0.9927221 158 158 158
-0.0157401083867164 0.0280853722295411 -0.0271896334430574 0.09213598 -0.05988912 -0.9939438 115 115 115
-0.044250451230297 0.00652564959184709 -0.00690030012464668 -0.9478507 -0.02777654 -0.317502 112 112 112
-0.00769196495126112 0.046471323387157 1.39526418506952E-05 0.205013 0.9759123 -0.07459765 108 108 108
-0.0404367900203191 0.0396401243433291 -0.00237965419539934 -0.9617947 0.129653 -0.2411245 103 103 103
-0.0447873275778812 0.0271645800201472 0.0259832095380157 -0.9756222 0.1495234 -0.1606366 167 167 167
-0.0413248435707017 0.0378143081969866 -0.000570435871716457 -0.9530867 0.1575541 -0.2584619 130 130 130
0.0554806274402131 -0.00322942168380846 -0.0208647888088029 0.006387033 -0.07204622 -0.9973809 91 91 91
0.0275394504982106 0.0408397554496533 -0.0241433008304111 -0.00271569 0.637935 -0.7700855 178 178 178
0.00465905776203401 0.0426895393474289 -0.015383457410031 0.1214374 0.9913233 -0.05030956 135 135 135
-0.0397302425120688 -0.00551685639085386 0.0381748591017225 -0.2601233 -0.2486198 0.9330188 38 38 38
-0.002690297622362 -0.0447964758349748 0.0196273097204861 -0.05774091 -0.9858507 0.1573669 92 92 92
0.0101839014157507 -0.0108382764250989 -0.0230253019129887 0.04541235 -0.02464889 -0.9986642 101 101 101
0.0144390800021863 -0.0492713100730144 -0.00685684916089138 4.213062E-05 -0.992566 0.1217074 124 124 124
0.00197280763709606 0.0011250328952912 -0.0241877482051767 0.06883879 -0.01427689 -0.9975256 172 172 172
-0.0175813765196994 0.0473146139696188 -0.0190543712547026 0.127005 0.9815308 -0.1430632 85 85 85
-0.03156756283176 0.0544145869311037 0.0287024697341279 -0.03002443 0.996451 -0.07863789 45 45 45
-0.0147334085565063 -0.0487914476214757 0.00309430548607989 0.0384316 -0.9752091 0.2179224 58 58 58
-0.0372942883699794 -0.0302848867516838 -0.0248146139010567 0.09919704 -0.07432867 -0.9922879 65 65 65
0.0133519164632757 0.0440148379451115 -0.00181816656505226 0.01631569 0.9929984 -0.1169953 68 68 68
-0.0140986150173946 -0.0231691791337851 -0.0230663684562447 -0.03192459 -0.0980812 -0.9946662 235 235 235
0.0204837243184791 -0.0509352371409373 -0.0154223167103124 -0.09280468 -0.9942026 0.05429993 85 85 85
0.0543455920020343 0.0397785906817612 -0.02403195642646 -0.06490825 0.9076801 -0.4146127 147 147 147
0.0145945960805015 0.0418305782923039 -0.0169771070658343 0.08204088 0.9918907 -0.097068 114 114 114
-0.0430824590674805 0.0339866833785061 0.018604112490765 -0.9815906 0.1832132 -0.05396951 128 128 128
-0.0378936757246973 0.0502220584766055 -0.002456735860531 -0.3926898 0.9129084 -0.1113232 147 147 147
-0.0221831140925317 0.0470757331518183 -0.0262467940968074 -0.03741018 0.9440587 -0.3276486 107 107 107
0.0156525614205042 0.0440151376265852 -0.000518922217900258 0.03446057 0.991252 -0.1274046 72 72 72
-0.0286079368767799 0.0386959972678522 -0.0280046116440873 -0.08571304 0.1074736 -0.9905063 194 194 194
0.0697231359058039 0.0174013010858638 -0.00857639491703563 0.986658 0.1621277 0.01484876 24 24 24
0.0573566663526158 0.0406772463390002 -0.0219185317844185 -0.1245027 0.9144008 -0.3851886 43 43 43
0.0500734433685899 0.000240440141062948 -0.0209318361597353 0.03732653 -0.08827055 -0.9953969 70 70 70
-0.00491878868754231 0.0468517698350275 0.0126435536597918 0.2468598 0.9566691 -0.1544167 118 118 118
0.0077801470145426 -0.00982073768550884 -0.0229598538124338 0.1029195 -0.03466823 -0.9940854 85 85 85
0.0234646200052687 0.0434261486164416 -0.00355237581600673 0.004594475 0.9929155 -0.1187335 103 103 103
0.00206460261557506 -0.0452527497312563 0.0189996071348057 0.01213702 -0.9885417 0.1504592 111 111 111
-0.0148891816765683 -0.00973282408986131 -0.0244047467740488 -0.1025194 -0.1144757 -0.988122 54 54 54
-0.0354540171280701 -0.0444437203233532 -0.0149342774332296 -0.00352034 -0.9992215 -0.03929415 54 54 54
-0.0443092183493111 -0.0242843557880561 0.0263233230807931 -0.2441431 -0.5594311 0.7921054 29 29 29
-0.0190553694675389 -0.0495714170551664 -0.00179628180693417 -0.1976793 -0.9783474 0.0613125 127 127 127
0.0703750332880922 0.0145435995005463 -0.00848845451808086 0.9873459 0.110725 -0.1135255 49 49 49
0.0210419200122731 0.042424518089176 -0.00928652545974906 -0.002557036 0.9864691 -0.163927 37 37 37
0.0191167742220893 0.0434326071478348 0.000531544004675949 0.0001764701 0.99116 -0.1326715 39 39 39
-0.0254709113824511 0.0525848513361336 0.0134475879524717 0.2122994 0.9638465 -0.1610243 141 141 141
0.0532730916406162 -0.0493627960794272 -0.00264148239872608 -0.09627396 -0.9681758 0.2310128 55 55 55
0.00148697578494422 -0.0479479159670422 0.00243425413896101 0.03129286 -0.9833229 0.1791562 26 26 26
-0.0053568901948341 0.010020491806366 -0.0255270550468605 0.1109048 -0.0249995 -0.9935166 223 223 223
-0.0158559057915634 0.00632475982776115 -0.0254386097549861 -0.028181 -0.08011524 -0.9963872 103 103 103
-0.0196740421803688 -0.0443830496475524 -0.0234892223149777 -0.0874773 -0.1724247 -0.9811307 81 81 81
-0.0367695557891491 0.050527834794017 -0.00944234624994661 -0.0865189 0.9882545 -0.1259661 131 131 131
-0.0327700221202288 -0.0466578565250062 -0.00195612178874896 -0.09701803 -0.9928816 -0.06909117 172 172 172
0.061915479370248 0.0430398150135707 -0.0126182511818358 -0.08661559 0.99593 -0.02492212 86 86 86
0.0550392584434435 0.0198767212053956 -0.0229461080361833 -0.08491387 -0.1628338 -0.9829928 211 211 211
-0.0478831706621711 -0.00554908488605133 0.0151259777201938 -0.9774876 0.1426119 -0.1554986 92 92 92
-0.00524418884004363 0.00166282436742593 -0.0249616264995515 0.07978727 -0.03200664 -0.996298 184 184 184
-0.0449173459437698 -0.02032761343458 -0.0143959251055437 -0.9149264 -0.008132655 -0.4035389 150 150 150
-0.0396222216337047 0.0528554470595397 0.0114792392967051 -0.4689907 0.8758045 -0.1140796 71 71 71
-0.0285506921802073 0.0548684858210535 0.036154822882128 -0.01497688 0.9991021 -0.03963159 123 123 123
-0.0444067992827361 0.0284581317118546 0.00195730616095369 -0.9505551 0.1185484 -0.2870386 159 159 159
-0.0333697384676895 0.0233702970613252 -0.0262963073444872 -0.2212057 -0.0772964 -0.9721591 92 92 92
0.040166026924182 0.0109552760766469 -0.0216999426576801 0.1030435 -0.06170048 -0.9927614 101 101 101
0.0249037223880685 0.0425471632179169 -0.0108739251094536 -0.007370787 0.991044 -0.1333319 116 116 116
0.071238333698732 -0.00963539932068147 -0.0193595499931062 0.2651995 -0.1258412 -0.9559463 126 126 126
0.0267988129688165 0.0430466403609757 -0.00477922271102946 -0.0637495 0.9844537 -0.163667 87 87 87
-0.0261736636630693 0.0547502799848314 0.0274384196306382 0.01132669 0.9934249 -0.1139239 49 49 49
-0.0472568629451606 -0.00453973715592992 0.012440411069314 -0.9837443 0.1714953 0.05325821 99 99 99
0.0414897666205655 -0.0475796552569687 -0.0193404422334008 0.1509915 -0.2250096 -0.9625862 97 97 97
-0.0485773092011449 -0.0296436044306798 -0.00349261353063224 -0.9414274 -0.06634392 -0.330625 75 75 75
-0.0455999971652961 0.00402143108982589 0.00678315173983154 -0.9548194 0.2839625 0.08766522 65 65 65
-0.0383375489001534 0.0340675385698164 -0.0194613317138212 -0.9274155 0.2492649 -0.2788683 137 137 137
-0.0424553842964968 -0.0344543310443708 -0.0173933320099547 -0.9012257 0.1550115 -0.4046771 116 116 116
0.0367081703561732 0.0290729715552205 -0.0245358764510603 -0.05131869 -0.1602317 -0.9857445 128 128 128
-0.0230764732776635 0.0478384598656871 -0.0190591237616455 0.1190859 0.9776473 -0.1732752 109 109 109
0.0583946997961151 -0.0445045455905193 -0.0164262859130792 0.1203709 -0.08112224 -0.9894089 116 116 116
0.00215069261222223 0.0447544453946163 0.0044813609168102 0.09688867 0.9882527 -0.1181911 120 120 120
-0.0194348736376431 -0.047591932382941 -0.0191177042180064 -0.4704937 -0.7254575 -0.5023416 103 103 103
0.0053085609151392 -0.023871632037737 -0.0227759206899481 0.05008111 -0.1246394 -0.9909374 208 208 208
-0.0317864374985379 0.0538529403499406 0.0196046364781887 4.488817E-06 0.9969351 -0.07823357 77 77 77
-0.0162826969660897 0.0500464872706536 0.0144408965608402 0.2264646 0.9501664 -0.2142372 99 99 99
-0.00376436295181765 -0.0423172637281013 -0.022051676591721 0.113933 0.01954049 -0.9932963 89 89 89
0.0394605712938293 0.0440862787526437 -0.00625412410566564 -0.01591902 0.9925575 -0.1207323 141 141 141
-0.0487348521868258 -0.0447550946787936 -0.00733384954658323 -0.622253 -0.7562068 -0.2023672 174 174 174
-0.0427278104187863 0.0165820611402445 -0.00980612715157972 -0.9477698 0.1079098 -0.3001465 155 155 155
-0.0417828465529067 0.0195775410018126 -0.0143081367630794 -0.946435 0.07555866 -0.3139295 111 111 111
-0.0281775589286439 0.0486701730164218 -0.0173109101163086 0.04770016 0.9818839 -0.1833815 132 132 132
-0.0294508917683854 -0.026393954462816 0.0301772728765076 -0.2670896 -0.4288914 0.8629689 14 14 14
0.0438360712816329 -0.0336277303259245 -0.0193699093877455 0.167494 0.0250772 -0.9855541 84 84 84
-0.0459206072940307 0.0264053566524227 0.0368761543254651 -0.9755088 0.1192174 0.1848508 112 112 112
-0.0484054376931787 -0.0144679318262899 0.00117953900519932 -0.9923174 0.03932027 -0.1173031 107 107 107
-0.050305274874671 -0.0337858582923798 0.0169634565009185 -0.9807612 -0.1950664 0.007513682 113 113 113
-0.0243104702537392 -0.0475707182978014 -0.000631605477831698 -0.3065236 -0.9508024 -0.04492129 148 148 148
-0.0193213919359804 0.0467044853285945 -0.0254762329298758 0.071283 0.9662701 -0.2474686 74 74 74
0.045101116666694 0.0441243277146712 -0.00419097994115183 0.06290111 0.9980193 0.0009685651 30 30 30
0.0110592824620969 0.0432010356496033 -0.0047235168913588 0.01129025 0.9944175 -0.1049111 72 72 72
-0.0268856607234101 0.0527438844714441 0.0115271106729397 0.1526532 0.9735175 -0.1701781 129 129 129
0.00710999785030142 -0.0295080583413516 -0.02188648075044 0.07313304 -0.03721031 -0.9966278 168 168 168
-0.0275827128320176 0.0491343575276653 -0.0149006043522141 0.07268332 0.986009 -0.1500114 144 144 144
-0.0389155450963023 0.0243081162641672 -0.0205792041910588 -0.9070004 0.06008041 -0.416822 105 105 105
-0.0290540507967295 0.0539430082561905 0.0205419087222534 0.0214102 0.9944119 -0.1033756 173 173 173
-0.0020427592398104 -0.0443624386681938 0.022810893714455 -0.03828386 -0.9817212 0.1864345 100 100 100
-0.047692409786402 0.0134793667853998 0.0283311463692932 -0.9810134 0.1383172 -0.1359451 168 168 168
0.0455160785657381 0.0231942773917817 -0.0234336131496691 0.003907531 -0.2275937 -0.9737483 140 140 140
-0.0266462926175318 0.0485254326132598 -0.0178354497547732 0.07920431 0.9773935 -0.196032 104 104 104
0.0151862626497239 0.0424631496064749 -0.0114385735739228 0.05303965 0.9875893 -0.1478316 91 91 91
-0.000843151170361656 0.0064256968602534 -0.0244926870388285 0.07194598 -0.04895581 -0.9962063 212 212 212
0.00198175397438749 0.0438693906993146 -0.00619250291138673 0.1274262 0.9907674 -0.04628696 97 97 97
0.0105042953950755 -0.044586577018443 0.0157965159209323 0.1743952 -0.9647954 0.1968662 69 69 69
0.0518715024342801 0.00832668221623334 -0.0217714161203398 -0.04365229 -0.06064936 -0.9972042 59 59 59
-0.0270115187552406 0.0072265674057157 -0.0253325202492824 0.003450858 -0.1082339 -0.9941195 187 187 187
0.0451165517983291 0.00596868332467793 -0.0212479424151999 0.01037791 -0.02079997 -0.9997298 78 78 78
0.0679020921577974 -0.0372813488950698 -0.0165320282173066 0.2739972 -0.2360774 -0.9323052 52 52 52
-0.00914971653884217 -0.0200844992881015 -0.02371318470935 0.04125015 -0.1534756 -0.9872911 208 208 208
0.0332897199086529 -0.0193493583946647 -0.0201810844428932 0.08611023 0.02788925 -0.9958952 72 72 72
0.00939662447225176 0.00792700909893251 -0.0242321216893883 0.05131865 -0.09383251 -0.9942645 115 115 115
-0.00313909833073678 -0.0467923616786734 0.00898980756362669 0.0142866 -0.9735643 0.2279661 66 66 66
0.029526935809382 0.041447778674335 -0.0194702308327984 0.0523503 0.9905384 -0.1268585 139 139 139
0.0158450352064144 0.0425535108632731 -0.00981434192026537 0.05605724 0.9855219 -0.160013 80 80 80
0.0330691923533575 -0.00142742555466224 -0.021754723710228 0.1162609 -0.07183402 -0.9906176 44 44 44
-0.0238871944903639 0.0499076173617543 -0.00733905364230125 0.1540787 0.9796891 -0.1283317 117 117 117
-0.0368018530400514 0.0223754934667293 -0.0253806383643128 -0.6086654 -0.0913955 -0.7881455 149 149 149
0.0141354119829482 0.00128327675554085 -0.0231471348022014 0.1494949 -0.000462049 -0.9887624 242 242 242
-0.00226153643073967 0.0116977159466083 -0.025064144642496 0.0789047 0.01743785 -0.9967296 100 100 100
0.00170814878205 0.0435267562804773 -0.012299331891909 0.147661 0.9863759 -0.07251811 123 123 123
-0.0108494666499126 0.0466313489092252 -0.0160299324892614 0.2147831 0.9754689 -0.04825523 158 158 158
-0.00154648066812235 -0.0276513298605738 -0.022439268102592 0.03335522 -0.01988728 -0.9992457 103 103 103
-0.0372451944771389 0.00158848195442718 -0.0254232687019368 0.07388835 -0.05513097 -0.9957415 52 52 52
0.00190036742924449 0.00510399091356106 -0.0242768457549021 0.06861126 -0.04628321 -0.9965693 72 72 72
-0.0503050812159712 -0.0382452839665088 0.00212348877252364 -0.9990668 0.008930904 0.04225922 48 48 48
0.0612201631971545 0.0184763633284522 -0.0232093319966137 0.03347928 -0.1568815 -0.9870498 112 112 112
0.0120285297458633 0.01340993667306 -0.0245431329978955 0.022408 -0.03348764 -0.9991879 102 102 102
-0.0495664542005118 -0.0452215741566355 0.000215026302495119 -0.5882618 -0.8071418 -0.04969999 89 89 89
0.0597487807724747 0.0428357792469167 -0.00791129019272566 -0.06744859 0.9958533 -0.06104781 69 69 69
0.0376708733379648 0.0445612242849194 -0.00332675435553104 0.0392053 0.9991941 -0.008612887 155 155 155
0.0610693095405417 0.0190372221490835 -0.0235036580595738 0.0259236 -0.1532234 -0.9878515 113 113 113
0.0253361072383579 -0.0431234764775277 -0.0231191881357728 0.1192762 0.07507474 -0.9900187 110 110 110
0.0692022686100413 -0.0415787132577674 -0.0155908397726965 0.4310684 -0.2057348 -0.8785518 113 113 113
-0.0422919974129607 0.0470410844492346 0.0126270745148959 -0.9619265 0.2361252 -0.1376315 121 121 121
-0.0419952158195371 0.01308177430338 -0.0136518650121282 -0.9439904 0.1680556 -0.2839709 123 123 123
0.00322468348667948 0.0441584473700638 0.00118011821573635 0.08896899 0.9895609 -0.1133745 167 167 167
-0.0250772620801467 -0.00151866689822056 -0.0247498457291349 -0.0672617 -0.1025492 -0.9924513 23 23 23
0.0521328416038864 -0.0517192402512943 -0.0131210814292311 -0.02397714 -0.9582326 -0.2849832 144 144 144
-0.0485616681101864 -0.0158525789410469 0.00492046045820579 -0.9986476 -0.04832961 -0.01916297 80 80 80
-0.0345883921344534 0.0382831242932149 -0.0252268788360605 -0.7062743 0.3674622 -0.6051018 156 156 156
-0.0369829752599444 -0.0456076803692369 0.00986051297050863 -0.0799793 -0.9966831 0.01503856 82 82 82
0.053123740981681 0.0388943319285804 -0.0248563960760979 -0.07843635 0.8224387 -0.5634202 103 103 103
0.0688950462939111 0.00960726265433842 -0.0214704649242171 0.1347058 -0.07644384 -0.9879326 79 79 79
-0.0444783498276021 0.0156152060915933 0.00193369708490471 -0.9931996 0.1004124 0.05892304 118 118 118
-0.011827484444968 0.0409667951406445 -0.0282337509840643 -0.115033 0.2503509 -0.961297 192 192 192
0.0132600133819469 -0.013466463922271 -0.0227715403794283 0.02375281 -0.02346795 -0.9994424 126 126 126
0.0552125345140101 -0.0507887823142603 -0.0162981533939109 0.165462 -0.4704121 -0.8667957 35 35 35
-0.0338441131596927 -0.0449176806794025 -0.0124122100977474 -0.05899141 -0.9877276 -0.1446174 43 43 43
0.0126423123509546 0.0420213194369763 -0.0169006492448667 0.1157994 0.9896577 -0.08466447 123 123 123
-0.0146095534722461 0.0497959298238715 0.0133371954374787 0.2177705 0.9526003 -0.2124352 109 109 109
-0.0284019891297811 -0.0445500294111629 -0.0170801747682779 -0.1479535 -0.9804248 -0.1299111 89 89 89
0.0159391629705866 0.00204205696160797 -0.0229386764178701 0.1289991 -0.02506935 -0.9913278 229 229 229
-0.0330256046738299 -0.0395236486125243 0.0216268785247749 -0.1758871 -0.5116873 0.8409755 47 47 47
0.0246673603333068 -0.0457088010455169 -0.0230047596376701 0.1001289 -0.007766422 -0.9949442 106 106 106
0.0466313792640933 -0.00124401154814069 -0.0213247657768137 0.04998189 -0.07794847 -0.9957037 82 82 82
0.0461926415885909 0.0352444204024376 -0.0265298981981604 0.03712805 0.1262342 -0.9913054 163 163 163
-0.0501142351188273 0.00367846803576977 0.0302460206387437 -0.9848406 0.1518946 -0.08376835 139 139 139
0.00072043013499351 -0.0428663446153101 -0.0219568569348942 -0.005381291 0.02493637 -0.9996746 57 57 57
0.0159511718081848 0.0415769609290857 -0.0184557504353954 0.07352734 0.9939036 -0.08215393 155 155 155
-0.0436591967528921 0.0261353684507315 -0.00221810788001184 -0.9650971 0.1727244 -0.1968601 151 151 151
-0.051374532645367 -0.00902313928425413 0.0311193690959243 -0.9678071 -0.1926696 0.1619499 108 108 108
-0.0182750328813089 0.0459173839152476 -0.0274210041650084 0.02908298 0.9292449 -0.3683179 120 120 120
0.0278389086772667 0.0435897545842354 -0.00226678847072045 -0.1168512 0.9766466 -0.1802975 96 96 96
-0.048813843905628 -0.0299779388168693 -0.00430495190074953 -0.9274347 -0.06701849 -0.3679311 105 105 105
0.064486906900634 0.0397871691303788 -0.0248857869693126 0.155147 0.6435602 -0.7495063 105 105 105
-0.0420329440236931 0.0470401623249284 0.0162989162824262 -0.9695044 0.2439492 -0.02345162 125 125 125
0.0630929034993915 -0.00189166037693922 -0.0204291044914356 0.05146069 -0.05553116 -0.9971299 156 156 156
0.0148003868083497 0.0441038813639181 0.00185172650212106 0.03519012 0.9914262 -0.1258405 45 45 45
-0.00659719058196279 -0.0479590820729221 -0.0225916440183553 0.1474977 -0.2123987 -0.9659872 108 108 108
-0.0411548271200533 0.0433848798455929 0.00597739638438657 -0.9784765 0.1748438 -0.109606 148 148 148
-0.0482939153277123 -0.0214036107296975 0.00659821576790798 -0.9944953 0.0534371 0.09013084 88 88 88
0.0388856179047896 -0.0361495350200922 -0.0197673651695557 0.1209303 0.04658751 -0.9915672 74 74 74
0.0710286733412137 -0.02696791974186 -0.0174311964472843 0.4689241 -0.09402685 -0.8782193 120 120 120
0.0313252542613005 0.0142895969082488 -0.0230654547290415 0.04738249 -0.08627681 -0.9951438 115 115 115
0.0222453109944598 -0.0473645535164757 0.000888863086470154 0.04203865 -0.9495923 0.310656 120 120 120
0.00767414714655174 0.0425373579367416 -0.0191376430301351 0.1279781 0.9895179 -0.06690188 141 141 141
-0.0498833775122983 0.00519117921950718 0.0293640181731979 -0.9823745 0.1547645 -0.1048247 154 154 154
0.0598421910046613 -0.0338471418810566 -0.0171102994159733 0.07875883 -0.0806748 -0.993624 51 51 51
0.002713412634609 0.011993522606051 -0.0244679277486443 0.04390055 0.01646362 -0.9989002 72 72 72
-0.0405728204062578 0.0165993465804177 -0.0178463257383622 -0.9432247 0.1327355 -0.3044807 81 81 81
0.0074896850333146 -0.0450047102593512 0.0163495240950861 0.1288758 -0.9821507 0.1370071 128 128 128
0.00249801282743478 0.0163888467138826 -0.0247839310636824 0.02582107 -0.04517835 -0.9986452 248 248 248
-0.0436818249685964 0.0355262014973414 0.026276528405563 -0.9701278 0.1616641 -0.1808781 152 152 152
-0.0487532097741329 -0.011793295036264 0.00755914079161921 -0.9997661 -0.005102039 0.02102031 90 90 90
-0.00866531478801369 0.00764300076961777 -0.0255307185040085 0.08676834 -0.07216624 -0.9936112 76 76 76
-0.0167542447623872 0.0492308632768457 0.00861705624824563 0.2315066 0.9541495 -0.1897456 75 75 75
-0.0136167927132921 -0.020650874075947 -0.0235011977470749 -0.05593206 -0.1367282 -0.9890283 235 235 235
0.0131079373840466 0.0427337037633853 -0.00993745075032951 0.05925635 0.9876764 -0.1448583 133 133 133
-0.044099058732341 0.00771012579890051 -0.00867496054522399 -0.9430997 0.01050306 -0.3323442 88 88 88
0.0420807903016808 0.0442210639547427 -0.00320395712751076 0.0342406 0.9974078 0.06328691 83 83 83
0.0310952896683223 0.0428331304905638 -0.0104918636683297 0.008359993 0.9693498 -0.2455425 200 200 200
0.0131963352808269 -0.0164288442590192 -0.0226319005266979 0.05855032 -0.07002863 -0.9958252 64 64 64
0.0725684835135017 -0.0228595336613973 -0.0152195789027624 0.5632568 -0.1223409 -0.8171747 39 39 39
0.0322081806446504 -0.000619670838165165 -0.0214774420174421 0.09835972 -0.05750443 -0.9934881 53 53 53
-0.0207606155932286 0.0547906215906626 0.0327023852787228 0.1318167 0.9900967 -0.04830025 167 167 167
-0.0255100650998025 0.00940251248129154 -0.0255755104351072 -0.03328742 -0.1167519 -0.9926031 157 157 157
0.0675500837379054 0.00538988415464958 -0.0212391735891307 0.01200391 -0.1175033 -0.993 70 70 70
0.0564534698675958 0.0420025331791796 -0.0149001886999534 -0.07754532 0.9943027 -0.07313521 95 95 95
0.062909550294191 0.00515034387933855 -0.0209195726034742 0.01909813 -0.1329159 -0.9909433 236 236 236
-0.0196707309462105 0.0490284546084254 -0.000897824179420692 0.2886321 0.9563225 -0.04624762 111 111 111
0.0692078461995414 0.022671057640016 -0.0100057816232527 0.9887292 0.1496684 -0.003733677 18 18 18
-0.0320950432616976 0.0422345044795103 -0.0246489863082164 -0.6154506 0.4835662 -0.622402 173 173 173
0.0690233778388709 -0.0161769844560136 -0.0185072631636467 0.118604 -0.1196689 -0.985704 77 77 77
-0.0430915413864418 0.0323760601303444 0.00160155627564668 -0.9379001 0.2017729 -0.2821899 162 162 162
0.0362896000229421 -0.0281285981033093 -0.0202488361719011 0.1599928 0.004612524 -0.9871074 101 101 101
0.0707070537195195 -0.000210403469243392 -0.0203079591663766 0.05413011 -0.1338767 -0.9895186 135 135 135
-0.00298089329757723 -0.0482712630083582 0.00163595701625127 0.08727393 -0.9765458 0.1968288 90 90 90
0.0108871089360117 -0.000276282653307369 -0.0237923294979108 0.1099374 -0.006956217 -0.9939142 81 81 81
-0.0445377674552384 -0.0450234211296239 0.00885886715323547 -0.1896771 -0.9736466 0.1266291 105 105 105
-0.0356203401771681 -0.0461702743124774 0.0133727342335397 -0.09102618 -0.9829106 0.1600034 95 95 95
-0.0169976700214474 0.0505839395252612 0.01342953403008 0.2268362 0.9506333 -0.2117585 95 95 95
0.0035611846839454 0.0447526740476345 0.00572302364137783 0.1005389 0.9904976 -0.09384279 154 154 154
-0.0311889805811627 0.0533718938561103 0.015155974029626 0.04471493 0.9934152 -0.1054831 61 61 61
-0.0432575504382327 0.0221230818174298 -0.0059661378872819 -0.9650409 0.2014461 -0.1676767 132 132 132
0.0150318447902606 -0.0228135727571992 -0.0221489713164068 0.08453369 -0.08514331 -0.9927762 91 91 91
0.0458659007719772 -0.0250287973697214 -0.0191768314205796 0.06621621 -0.1009241 -0.9926881 145 145 145
-0.0402499622809225 0.0526330249607418 0.00976745068244303 -0.6351817 0.7600197 -0.1375292 86 86 86
-0.0159269358360014 -0.0505827186841643 -0.01263517168079 -0.2421784 -0.9700351 -0.01953065 177 177 177
-0.00847253280852606 -0.0178055005623141 -0.0240866052514319 0.05257352 -0.1188517 -0.9915192 243 243 243
0.0643544615692782 -0.0445226229426046 -0.0157128993599194 0.1305011 -0.1547496 -0.9792967 78 78 78
-0.0416758882966435 0.0487624989951896 0.0156870195078282 -0.9378684 0.3436069 -0.04834471 150 150 150
-0.037697851219699 0.052798420482991 0.01131816970337 -0.04094521 0.9907678 -0.1292383 70 70 70
0.0284130196139927 -0.00349757090804603 -0.0218180706133816 0.08053721 -0.07403021 -0.9939986 76 76 76
-0.0237603173829091 0.0147702338171012 -0.0262908433467511 -0.007489502 -0.1410599 -0.9899727 118 118 118
0.00370374271096979 0.0431200710032407 -0.0260511962462976 0.1443683 0.9258217 -0.3493021 135 135 135
-0.0231226071483502 0.050483697402889 -0.0013025457936586 0.236478 0.9674646 -0.08994633 123 123 123
0.0435998115858528 0.0400019232386266 -0.0222392857700798 0.0489179 0.9618971 -0.269 187 187 187
0.0141606699166634 0.02491789536357 -0.0253312002175608 0.1177949 -0.06046251 -0.9911956 83 83 83
0.0250075921844746 0.00967443901802878 -0.0228250334509412 0.0772571 -0.1085204 -0.9910876 96 96 96
-0.00306638815123167 0.0451012703304297 -0.0078508188568836 0.2101038 0.9760016 -0.05724846 124 124 124
-0.0278526329608299 0.021311913531229 -0.0273443444239014 -0.09453266 -0.1090768 -0.9895281 237 237 237
-0.021034309330195 0.0308131789381985 -0.0277982628227437 0.07544129 0.02117597 -0.9969254 132 132 132
0.00944785055863229 0.0431015701520654 -0.00870167692788251 0.07772624 0.9902626 -0.1154927 103 103 103
0.0363154258651961 0.0413614016663046 -0.0128482512306776 -0.05825516 0.9767063 -0.2065215 133 133 133
-0.0369194660869679 -0.0145518953036743 0.035978032029736 -0.2115208 -0.4982686 0.8408254 32 32 32
-0.0467596336606824 -0.0260365577976214 -0.00928052123490711 -0.8714739 -0.114186 -0.4769641 94 94 94
-0.0240782003330838 0.0528114564842168 0.0152401333610815 0.2207842 0.9623247 -0.1586992 90 90 90
0.0140318430127844 -0.0122073503474922 -0.0229245817269763 0.0603311 -0.007526572 -0.9981501 178 178 178
0.00844467105545377 -0.0459456356447874 -0.0231407932469722 -0.08453769 -0.04461128 -0.9954211 120 120 120
0.00546319768947784 0.0051251296749788 -0.0242872136481893 0.06254277 -0.03894629 -0.9972821 60 60 60
0.0490959974778605 0.0409978532777069 -0.0194910992770897 -0.04454211 0.9455641 -0.3223733 114 114 114
-0.0137819150868981 0.0280283229615084 -0.0268362758097491 0.09659539 -0.06159392 -0.9934161 108 108 108
-0.00498877570715128 0.00845382003392392 -0.0251669792718572 0.1001773 -0.03384938 -0.9943936 236 236 236
0.0564550117753427 0.0415134175350003 -0.0193011016951119 -0.1526904 0.9542596 -0.2570492 48 48 48
-0.0260941953942429 -0.0346642300235469 0.0260887323233031 -0.1990344 -0.5813013 0.7889703 41 41 41
-0.0446287871794941 0.0309653899920184 0.0266087445132364 -0.9770013 0.1473562 -0.1541253 152 152 152
-0.0464835028738385 0.00623026528503923 -0.0044617110126168 -0.9757119 -0.01615133 -0.2184614 115 115 115
0.0597678728232475 -0.00909881879115026 -0.0197252906197931 0.02783641 -0.1130306 -0.9932015 214 214 214
-0.047579657895878 -0.00751483624911287 0.013179116493152 -0.9825736 0.1842003 -0.0248859 124 124 124
-0.0476529585475716 0.0171569229962381 0.0287680001720295 -0.9772479 0.1847742 -0.1041397 123 123 123
0.0684646562255893 0.0222532820452783 -0.0204052458056882 0.8856554 0.2348498 -0.4005746 26 26 26
0.0344642783430791 -0.0452783397304255 -0.0208116284761816 0.1885175 -0.06385514 -0.9799917 123 123 123
-0.0150831682288685 -0.0447655100008926 0.0198620834527213 0.03831762 -0.9395592 0.3402356 62 62 62
0.0371776432402071 0.0192735268043602 -0.0227862645968354 0.06355745 -0.1232974 -0.9903324 99 99 99
-0.00503035753774289 0.0450797591829832 -0.0108450424751431 0.227977 0.9734285 -0.02152666 132 132 132
0.0174338947363914 -0.0148626570090793 -0.0226323266705809 0.1441139 -0.03216296 -0.9890383 104 104 104
-0.0479415618325601 -0.00114371448616812 0.0190800730516944 -0.9688843 0.147261 -0.1989407 129 129 129
0.0509126711514103 0.0429777169927772 -0.00657759489968551 0.09174157 0.9920313 -0.08635565 56 56 56
-0.0395781054042675 -0.0455650326232755 -0.00383163185223809 -0.04319334 -0.9962537 -0.07491896 112 112 112
-0.046442000141127 0.00805850947816089 -0.00300094990828512 -0.9914691 -0.007906635 -0.1301022 107 107 107
0.070501599776661 0.00897511291947906 -0.0213422253707191 0.1288118 -0.06535165 -0.9895133 88 88 88
-0.0420933407313319 0.043128662776031 0.0188434540137116 -0.9959635 0.08885159 -0.01273043 130 130 130
-0.0492679271446337 -0.044988813091118 0.00478387637347852 -0.524527 -0.8431583 0.1181334 126 126 126
-0.0476755963156021 0.0145406591181234 0.0278288852930033 -0.9806916 0.146269 -0.1298052 153 153 153
-0.0320477106739628 0.0534218016938492 0.0180536100836698 0.02081224 0.9961509 -0.08514827 57 57 57
-0.00639739389739058 0.0444512675622195 -0.0261903319625611 0.1491346 0.9279842 -0.3414736 94 94 94
-0.0200728131052291 0.0492142621275566 -0.00179186511090265 0.2719438 0.9615939 -0.03719878 166 166 166
-0.0277871081182196 0.050203528750588 -0.00619921146594038 0.07571574 0.9896491 -0.1219091 162 162 162
0.00614117381778495 0.0423418002399931 -0.0264321207112736 0.1720142 0.8046032 -0.5683528 129 129 129
0.0104911487559523 -0.0195907815467291 -0.0226781784280329 0.09345264 -0.07563616 -0.9927466 48 48 48
-0.0469711524096179 0.020812577350467 0.0311926313631501 -0.9867214 0.1517425 -0.05792348 111 111 111
0.0298187353630804 0.0417167264329041 -0.0131006572572164 0.05260289 0.9871239 -0.1510608 85 85 85
0.00643196484610159 -0.0476642492272985 0.00410539946300909 0.02293267 -0.9731438 0.2290531 31 31 31
-0.0430363965805168 -0.00775958544410393 -0.015146708895083 -0.9559055 0.06528512 -0.2863259 139 139 139
-0.0448258104400207 0.0184652880049896 0.0144306038356456 -0.9914773 0.1029351 -0.07985695 118 118 118
-0.0166852317063634 -0.0491617452334769 0.00261220091148684 -0.02931572 -0.9858389 0.165113 96 96 96
-0.0468335910462366 0.0218583539221455 0.0352811962437144 -0.9851863 0.1240908 0.1183617 137 137 137
0.0575620642421003 0.0131950725940442 -0.0224731900938749 -0.05899996 -0.1126308 -0.9918837 236 236 236
-0.0499182374113534 -0.0295495180842533 -0.00127003411121426 -0.9690609 -0.02660453 -0.2453838 72 72 72
-0.028437392568389 -0.0445879105609528 -0.0130191181999215 -0.1776168 -0.9685026 -0.1745134 100 100 100
0.0385962180118918 -0.0316615004184133 -0.0199343780374246 0.1267377 0.02396538 -0.9916467 43 43 43
0.046069458669101 0.0271837142297915 -0.0245262338024805 0.01105858 -0.2302269 -0.9730741 86 86 86
-0.0241442438757439 0.0526515720896175 0.0159466157257805 0.207098 0.9691953 -0.1333074 81 81 81
0.0235658080853131 -0.0303357111605018 -0.0214833907307507 0.07875203 0.04022131 -0.9960825 235 235 235
-0.0453966664595264 0.00709750463353109 -0.000442417392584299 -0.9978808 -0.009608339 0.06435542 103 103 103
0.0257555954365172 0.04417477429419 0.00158319371332877 -0.08415766 0.9805908 -0.1770853 60 60 60
0.0387255015076502 -0.0476742345340686 -0.00021328735770626 -0.02326699 -0.9777093 0.20867 81 81 81
-0.0155056563445554 -0.0345470611199661 -0.0228555007395316 0.0309667 0.06433998 -0.9974474 33 33 33
0.0639135503730152 0.00697903341154871 -0.0212424768388493 0.01087815 -0.1335201 -0.9909864 129 129 129
-0.0489801937298915 -0.013588110737637 0.00752088623164299 -0.9985917 -0.05184073 0.01127253 79 79 79
0.0652760132663436 -0.0146950285647862 -0.0189657172290433 0.07237656 -0.1036297 -0.9919791 110 110 110
