ply
format ascii 1.0
comment File exported by Rhinoceros Version 7.0
element vertex 466
property float x
property float y
property float z
property float nx
property float ny
property float nz
property uchar red
property uchar green
property uchar blue
end_header
-0.0498577330668883 -0.0430086891451877 -0.0452501321121168 -0.05594847 -0.5326414 0.8444898 172 172 172
-0.0426816548091833 -0.0462415723132712 -0.0490968875880868 -0.06283226 -0.5177784 0.8532043 154 154 154
-0.0434506437832352 -0.0452226236430249 -0.0486565857550662 -0.05700342 -0.5174958 0.853785 210 210 210
-0.046437607866245 -0.0447385202194692 -0.0472629261599561 -0.05246234 -0.5292825 0.8468221 176 176 176
-0.0443755877380063 -0.0438966955837365 -0.0471629079384775 -0.05800936 -0.5178075 0.8535281 221 221 221
-0.0404649204775724 -0.0437102233732574 -0.0474721896344514 -0.06719591 -0.5022172 0.8621268 191 191 191
-0.0454043562276367 -0.0406837551984194 -0.0442878660081386 -0.04670516 -0.5205898 0.8525285 168 168 168
-0.0432367304544781 -0.0398182623347145 -0.0441422452255651 -0.05341131 -0.5050082 0.8614603 205 205 205
-0.0244424074195786 -0.0731944329835119 -0.049217600979959 -0.4421706 -0.5151232 -0.7342569 36 36 36
-0.0203458110949888 -0.0760157327824815 -0.0493146731541154 -0.5004268 -0.5076948 -0.7012981 31 31 31
-0.0315507130530395 -0.0695746181913339 -0.0467662148368059 -0.3298877 -0.6050717 -0.7246119 39 39 39
-0.0322745995303948 -0.0686593920413057 -0.0489897252675631 -0.2917173 -0.6464467 -0.7049877 38 38 38
-0.0275682625013576 -0.0714542443456851 -0.052525951434755 -0.4186526 -0.5848634 -0.6947409 35 35 35
-0.0325041826955474 -0.0686307267512642 -0.0457601152855623 -0.343689 -0.6041232 -0.7189666 44 44 44
-0.033225732959953 -0.0676235623893453 -0.0479281250359243 -0.2614086 -0.6818851 -0.6831532 42 42 42
-0.0275635561202092 -0.071490162207261 -0.045444037646613 -0.3492151 -0.5211304 -0.7787631 36 36 36
-0.0265362355182646 -0.072194397294248 -0.0455321994284315 -0.366592 -0.5177139 -0.7730347 46 46 46
-0.0320706719958155 -0.0692439446126352 -0.0435676827186334 -0.3815845 -0.611097 -0.6935082 50 50 50
-0.0314356226923529 -0.0700285665237725 -0.0421811679543673 -0.3911213 -0.6058019 -0.6928407 44 44 44
-0.0181128647015343 -0.0766598075747562 -0.0501074394290778 -0.5195245 -0.5264145 -0.6730394 20 20 20
-0.0285903861626613 -0.0708096310273958 -0.0542705569317132 -0.436374 -0.7030329 -0.5615358 38 38 38
-0.0246663844587371 -0.0718551807148453 -0.0557657949889275 -0.5361006 -0.5877034 -0.605971 42 42 42
-0.0262387808549227 -0.0720685680208031 -0.0536269836781596 -0.4545117 -0.6033822 -0.6552473 42 42 42
-0.0251699624167228 -0.0729244739286914 -0.0529869441313581 -0.4635778 -0.5492231 -0.6953054 47 47 47
-0.0274562441556494 -0.068742144892082 -0.0567245080846837 -0.4503046 -0.7366736 -0.5045174 39 39 39
-0.022490210202863 -0.071945341632689 -0.0575269285139901 -0.602461 -0.5750557 -0.5534905 36 36 36
-0.0264334770618286 -0.0703580948267108 -0.0566495231773521 -0.4777688 -0.7085579 -0.5193097 10 10 10
-0.015858612809946 -0.0765715126505726 -0.0537369065295707 -0.5751112 -0.5713431 -0.5855034 47 47 47
-0.0185603189900267 -0.0762286702566835 -0.0528832400741704 -0.5722584 -0.5501435 -0.6081632 41 41 41
-0.019666101467084 -0.0745932607443689 -0.0542246592682616 -0.5678262 -0.5384052 -0.6226501 27 27 27
-0.0220796100986576 -0.0730441242363586 -0.0566959562938903 -0.604534 -0.5742406 -0.5520747 40 40 40
-0.0188817462582507 -0.0737259142947919 -0.057233949168456 -0.6083667 -0.5648311 -0.5575443 43 43 43
-0.0185150496688511 -0.0730558720326149 -0.0589640622057306 -0.6103643 -0.5722659 -0.5476927 43 43 43
-0.0153839093754855 -0.0760301168402948 -0.0559556144791226 -0.5678021 -0.5889255 -0.5751239 35 35 35
-0.0225084419668824 -0.0730284248274944 -0.0558186262944888 -0.5704961 -0.5564716 -0.6040475 42 42 42
-0.0255749552304634 -0.0690291373221676 -0.0595562095991657 -0.5207584 -0.735065 -0.4341545 24 24 24
-0.0252802668180201 -0.0687913914919012 -0.0620311746290619 -0.5536012 -0.7765036 -0.3009448 39 39 39
-0.0272033637459232 -0.0680330489853711 -0.0599014690299153 -0.4791241 -0.799866 -0.3614615 35 35 35
-0.0166989340690407 -0.0726950775563588 -0.0616065027269573 -0.6325821 -0.6238723 -0.4589369 33 33 33
-0.0301270330960155 -0.067960718037118 -0.0547344364029221 -0.3946224 -0.7831193 -0.4806218 36 36 36
-0.0325047778766074 -0.0678415679356024 -0.052115540129068 -0.3286791 -0.7821481 -0.5293528 34 34 34
-0.033127229864133 -0.0658652359474514 -0.0529035426326331 -0.3266153 -0.7977245 -0.5069103 52 52 52
-0.0292567669720114 -0.066764617862574 -0.0572071752577064 -0.4024026 -0.8054108 -0.4351846 28 28 28
-0.0157014695531443 -0.077121968905034 -0.053085968494911 -0.5647077 -0.5844217 -0.5827147 54 54 54
-0.0406780156999127 -0.0648779641052288 -0.040096809494135 -0.6389917 -0.5370914 -0.5506563 46 46 46
-0.041351688563863 -0.0646088951674475 -0.0399559994984466 -0.6544901 -0.515849 -0.552759 29 29 29
-0.0367574083605655 -0.0670469846034263 -0.0400460109327716 -0.4970656 -0.6274335 -0.5993771 46 46 46
-0.0407012388164349 -0.0651368243629329 -0.0379747349659759 -0.6436639 -0.5293807 -0.5526778 42 42 42
-0.039394031717213 -0.065617978643252 -0.03940288830079 -0.5794691 -0.5732904 -0.5792699 36 36 36
-0.0446586604055765 -0.0639611849164845 -0.0371233199930513 -0.6829184 -0.4736452 -0.5561318 13 13 13
-0.0430598090225365 -0.0645917384879631 -0.0394239663805105 -0.6709653 -0.4988971 -0.5485502 35 35 35
-0.0377067213852209 -0.0657665471510973 -0.0420192508362782 -0.497515 -0.6235236 -0.6030731 51 51 51
-0.0383011226862351 -0.064259570678374 -0.0446880105343962 -0.4876737 -0.6251646 -0.6093797 34 34 34
-0.0404007163056601 -0.064128074182018 -0.0426087808524382 -0.6010813 -0.5605785 -0.5696078 35 35 35
-0.0382890852893643 -0.0638198409624202 -0.0454576660976572 -0.4769883 -0.6211435 -0.6218222 42 42 42
-0.0248003770842611 -0.0650970898308678 -0.0659980226903882 -0.3060023 -0.9099989 0.2797581 132 132 132
-0.0276416481476978 -0.0637673870532056 -0.0648268749865742 -0.3852242 -0.8985583 0.2102268 104 104 104
-0.026060991555986 -0.0632081111050684 -0.064352549291497 -0.2570812 -0.8509609 0.4580118 75 75 75
-0.0255342970773897 -0.0634882052608612 -0.0647780319393976 -0.3220603 -0.8314897 0.4526609 121 121 121
-0.0311952749890954 -0.0574755102313038 -0.0590479374161382 -0.05914928 -0.5750468 0.8159795 86 86 86
-0.0211139809248317 -0.0660868255027087 -0.0673069783280454 -0.2083983 -0.6659184 0.716326 105 105 105
-0.0188536647785753 -0.0663698487475703 -0.0680869109756149 -0.3497825 -0.6364197 0.6874752 113 113 113
-0.0229278352556159 -0.06495244657612 -0.0660687052543922 -0.2228173 -0.7812263 0.5831277 96 96 96
-0.0221590784605445 -0.0633484814931287 -0.0651929057918316 -0.1625753 -0.5735981 0.8028415 115 115 115
-0.023801066143073 -0.0623358855504856 -0.0640360483749795 -0.09321649 -0.5988494 0.7954182 96 96 96
-0.0113944418715168 -0.0650726898928473 -0.0681515902191759 -0.4821654 -0.393388 0.7827914 149 149 149
-0.0126404680578571 -0.0623919379568671 -0.0660354236514349 -0.09293986 -0.5156408 0.8517492 117 117 117
-0.0106625044589022 -0.0623777443342004 -0.0660736508341688 -0.1673608 -0.4073901 0.8977882 101 101 101
-0.00929972453870542 -0.0623693161587249 -0.0665812719093723 -0.2904775 -0.3797052 0.8783204 85 85 85
-0.0157574546566464 -0.061194846346089 -0.0644131959889147 -0.06219172 -0.5270868 0.8475327 133 133 133
-0.0159878075624036 -0.0607431379755008 -0.0639916116180935 -0.06167408 -0.5178578 0.8532407 119 119 119
-0.0175995738716126 -0.0588945501472742 -0.0626799099541048 -0.05517512 -0.5226982 0.8507305 121 121 121
-0.0167307857776171 -0.0571203922405232 -0.0612198677513843 -0.04364548 -0.513583 0.8569292 153 153 153
-0.0135227623255889 -0.0602025874549108 -0.0638749947907875 -0.04683964 -0.5330794 0.8447676 149 149 149
-0.0125366653988954 -0.0593545233243225 -0.0635638609123732 -0.05525916 -0.5074286 0.8599201 150 150 150
-0.0121269429465167 -0.0567150410992427 -0.0617766748028428 -0.03506649 -0.5170503 0.8552364 201 201 201
-0.0129049972941546 -0.0562438786555102 -0.0612778712546775 -0.03157349 -0.5208851 0.8530427 200 200 200
-0.0224694142909279 -0.0595881862788674 -0.0619499587319972 -0.05889726 -0.5154787 0.8548759 78 78 78
-0.0231695845552813 -0.0563773249573449 -0.0596767142057434 -0.04451057 -0.5135335 0.8569143 95 95 95
-0.0284621481719283 -0.0557552368236711 -0.0581881427411488 -0.04542807 -0.5117566 0.8579286 100 100 100
-0.0282892202610165 -0.0535921693021046 -0.0564488997448114 -0.02367809 -0.5064261 0.8619582 126 126 126
-0.0289432682683706 -0.0533178097398341 -0.0557769893407846 -0.02533015 -0.5023068 0.8643184 125 125 125
-0.0263806767582699 -0.0543780670004588 -0.0576019442046978 -0.02854554 -0.5181106 0.8548371 127 127 127
-0.0241560200318118 -0.0521129802104148 -0.0561638739815624 -0.03311114 -0.5196193 0.8537561 114 114 114
-0.0188687098756342 -0.0541463897761831 -0.0586265992091875 -0.044086 -0.5063317 0.8612111 138 138 138
-0.0225443474928428 -0.0501434039169966 -0.055053980312062 -0.05055298 -0.5205079 0.852359 124 124 124
-0.0207505447041689 -0.0489878470639988 -0.0543517407525324 -0.06634618 -0.5243674 0.8489034 90 90 90
-0.01840854720992 -0.0486119165735734 -0.054657590177614 -0.06134859 -0.525527 0.8485622 216 216 216
-0.00608975986531624 -0.0645706573826175 -0.061592222318554 -0.7406579 0.2920706 0.6050791 38 38 38
-0.00159174729525091 -0.0651511448926394 -0.0560755799667311 -0.7564459 0.3771021 0.5344002 38 38 38
-0.00141505906826911 -0.0671976437067068 -0.056490364443898 -0.7685321 0.3621762 0.5274341 58 58 58
-0.00622267170975865 -0.0599748313384236 -0.0638001493204401 -0.5447482 -0.05425191 0.836843 60 60 60
0.0537213211339527 0.0655273361755397 0.0240764466621482 0.4527883 0.4303466 0.7808871 86 86 86
-0.00715142899332433 -0.0599889937835294 -0.0651327881850999 -0.3160653 -0.2310659 0.9201691 91 91 91
-0.00651519319343263 -0.0589325953331385 -0.0639843699533868 -0.3307765 -0.2846146 0.8997675 131 131 131
-0.0054225785840889 -0.0602217901074045 -0.0620381395852042 -0.6610041 0.1101982 0.7422466 51 51 51
-0.00912359148309339 -0.0548157937563596 -0.0604891748805008 -0.07595605 -0.4407025 0.8944339 143 143 143
-0.00749530915919827 -0.0549625705957906 -0.060972040927902 -0.1221089 -0.4229045 0.8979093 148 148 148
-0.0020874590507729 -0.05837897844912 -0.0573182457894425 -0.7349465 0.2626903 0.6251779 44 44 44
-0.0142621727675043 -0.0501587756588415 -0.056281459670019 -0.05850778 -0.5192915 0.8525921 101 101 101
-0.00970405082380843 -0.0515215462425598 -0.0579281119407358 -0.06354839 -0.5067554 0.8597445 104 104 104
-0.0126178438638092 -0.0489270163473052 -0.0556687137712583 -0.0638326 -0.5140288 0.8553945 78 78 78
-0.0120433993562803 -0.0474139590378178 -0.0547437952755813 -0.06021196 -0.5051191 0.8609467 107 107 107
-0.0134019363787092 -0.045753999717111 -0.0532030526265198 -0.0564972 -0.5009941 0.8636047 104 104 104
-0.00346274329166629 -0.0528301584095925 -0.0595498106721818 -0.3778242 -0.1367163 0.9157279 56 56 56
-0.00826134498051045 -0.0490683171112178 -0.0564131763732711 -0.0672223 -0.5050103 0.8604916 100 100 100
-0.0103075590934694 -0.0475875211234504 -0.05505989986686 -0.0560677 -0.5055885 0.860951 100 100 100
-0.0128485689773159 -0.0437767440725543 -0.0518256424166025 -0.05448256 -0.5024594 0.8628825 104 104 104
-0.00586918520875912 -0.0498047267574 -0.0570879306792019 -0.1255863 -0.4779549 0.8693602 106 106 106
-0.00350562978370927 -0.0474301685103975 -0.0558406657035123 -0.1115581 -0.4543562 0.8838072 94 94 94
-0.00506225239494107 -0.0475562229801114 -0.0557862308224877 -0.1029913 -0.4648001 0.8794053 135 135 135
-0.0020044904447043 -0.0458398217919198 -0.0549655140383853 -0.1288173 -0.4702933 0.873058 95 95 95
-0.00618900077558848 -0.0453838319163289 -0.0539418921120988 -0.05504952 -0.4942145 0.8675953 96 96 96
-0.00505642148861973 -0.0428016555286299 -0.051820426383292 -0.05528994 -0.5016492 0.8633024 75 75 75
-0.00791274020896582 -0.041825467297574 -0.0508782019402369 -0.05132836 -0.5006997 0.8640979 79 79 79
-0.034158767844779 -0.0499072263474851 -0.052835232786799 -0.07174779 -0.5035579 0.8609772 87 87 87
-0.0293928259430793 -0.0497974439015632 -0.0530214668242733 -0.04462205 -0.5214345 0.8521238 93 93 93
-0.0283126972728622 -0.0486359739832494 -0.0527273148884556 -0.0456962 -0.5254923 0.8495703 133 133 133
-0.0344052751751911 -0.0477868955389209 -0.051181258977454 -0.07867412 -0.4971072 0.8641151 133 133 133
-0.0329521490350033 -0.0476660232719508 -0.0511000268982182 -0.06998514 -0.5052977 0.8601025 163 163 163
-0.0332980679589943 -0.0462059227813962 -0.0499764045281669 -0.08885927 -0.5035062 0.85941 180 180 180
-0.0308098758599629 -0.0461144221376977 -0.0505682576498288 -0.06998535 -0.5201474 0.8512042 101 101 101
-0.0312723986962933 -0.0424049241349249 -0.0475864349326942 -0.05623678 -0.5183849 0.8532963 92 92 92
-0.0246740839590482 -0.0487341317432619 -0.0534660715007927 -0.04631289 -0.5342279 0.8440709 146 146 146
-0.0260809594480795 -0.0466492390984383 -0.0519248787149022 -0.05193759 -0.5367978 0.8421109 197 197 197
-0.0280529452802876 -0.0444993151434625 -0.0494650714250054 -0.06355059 -0.5323795 0.8441169 67 67 67
-0.0224886660306969 -0.0453640773493811 -0.0513545696087626 -0.04581682 -0.5284845 0.8477057 147 147 147
-0.027037283482005 -0.041538536591897 -0.0476479090748506 -0.0532684 -0.5071601 0.8602041 143 143 143
-0.0367799190604483 -0.0416768682377868 -0.0462506537460438 -0.06357819 -0.4883618 0.8703221 172 172 172
-0.0370265247179917 -0.0403076860288809 -0.0450764101055521 -0.05647131 -0.4864419 0.871886 127 127 127
-0.0337608610497639 -0.0404873898119151 -0.0461171491058334 -0.05385221 -0.5028487 0.8626953 127 127 127
-0.0418219003404232 -0.0397188300843103 -0.0443275180578747 -0.05656762 -0.4958268 0.8665771 222 222 222
-0.0398832753064204 -0.0389508580813309 -0.0439804421721586 -0.05544269 -0.4923024 0.8686567 163 163 163
-0.0364128319425303 -0.0367142933745559 -0.0424958789558991 -0.0569189 -0.4928535 0.8682486 115 115 115
-0.0362660509267276 -0.0354658927508678 -0.0415203235796328 -0.05900197 -0.4949952 0.8668901 108 108 108
-0.034215888208355 -0.0385120988784786 -0.0439395507743857 -0.05461045 -0.5065794 0.8604621 73 73 73
-0.0312771127125702 -0.0373333459667935 -0.0438461643731796 -0.04556052 -0.5134998 0.8568793 129 129 129
-0.034814632489403 -0.0344007193880154 -0.0410396406530292 -0.06005358 -0.5066022 0.8600859 145 145 145
-0.0343209294591924 -0.0345595716698273 -0.0410342375206431 -0.05423507 -0.5157437 0.8550245 140 140 140
-0.034376468483273 -0.0334275543782085 -0.0402819097735575 -0.0647618 -0.5115527 0.8568079 136 136 136
-0.0296138373436987 -0.0379903710123142 -0.0449020355076219 -0.04902935 -0.511784 0.8577139 106 106 106
-0.0280790103026494 -0.037191579284833 -0.0441095363756689 -0.05092363 -0.5065375 0.8607128 99 99 99
-0.0263195283749331 -0.0392931081805998 -0.0460703446243602 -0.05507692 -0.5054972 0.8610686 101 101 101
-0.0288918205201818 -0.0360687621698439 -0.0431828494979226 -0.05636716 -0.5180816 0.8534718 99 99 99
-0.0309921452989221 -0.0336441145253736 -0.0410831176723782 -0.05905882 -0.512605 0.856591 120 120 120
-0.0302371636476075 -0.0343229201323907 -0.0416933712605604 -0.04585604 -0.5176139 0.8543846 125 125 125
-0.0183920300958391 -0.0451005196633953 -0.0521918963686826 -0.05249541 -0.5198877 0.8526201 142 142 142
-0.0197016020787295 -0.0447622677586605 -0.0515444986550156 -0.05775837 -0.5180858 0.8533763 162 162 162
-0.0185991376584469 -0.0429060861893975 -0.050118063277955 -0.02953684 -0.4996785 0.8657072 158 158 158
-0.0174850920019489 -0.042360831104697 -0.050107594116715 -0.02970225 -0.5041013 0.8631336 139 139 139
-0.0165892968979637 -0.0409815470874573 -0.0490072462610633 -0.007112082 -0.4961496 0.8682079 128 128 128
-0.022662335262249 -0.0400947141392409 -0.0471582129781741 -0.02819605 -0.4877631 0.8725206 95 95 95
-0.0211303134802678 -0.039487561655591 -0.0467835058237269 -0.02680578 -0.4901142 0.871246 105 105 105
-0.023088735417248 -0.0381386768188143 -0.0454541579091848 -0.0448853 -0.4986523 0.8656392 109 109 109
-0.0176502971569139 -0.0388024023833444 -0.0468114110914065 -0.0136757 -0.5051339 0.8629326 70 70 70
-0.0190280579215814 -0.0383650495899852 -0.0460835570606427 -0.02733916 -0.5013781 0.8647963 65 65 65
-0.0192731574069738 -0.0370536812888842 -0.0450391248138886 -0.0553903 -0.5031 0.8624513 77 77 77
-0.0252488352342373 -0.0379894719299605 -0.0450327884115039 -0.05053885 -0.4884054 0.8711521 123 123 123
-0.0271105444455753 -0.0349302483372773 -0.0423832484769244 -0.05281012 -0.5094818 0.8588594 95 95 95
-0.0243057557701172 -0.0353903252409633 -0.0437000148307519 -0.06840421 -0.5050951 0.8603486 109 109 109
-0.0249832283433085 -0.033878970489764 -0.0422471351271348 -0.05805553 -0.5113248 0.8574243 156 156 156
-0.0299244111131185 -0.030741377374097 -0.0390635125875494 -0.06399645 -0.5154869 0.8545044 154 154 154
-0.0255978166405431 -0.0325138697828349 -0.0410096914438894 -0.0546845 -0.5178704 0.8537095 161 161 161
-0.0261113855293855 -0.0314994480658426 -0.0401597401585622 -0.05711654 -0.5176645 0.8536751 193 193 193
-0.0243959264906377 -0.0311573202587121 -0.0400420033305532 -0.05266488 -0.5161085 0.8549026 198 198 198
-0.0249041027490469 -0.0281263442166753 -0.0381237035899731 -0.05268004 -0.5089476 0.859184 144 144 144
-0.013664521124618 -0.0422395566146776 -0.0504128212470811 -0.04111316 -0.4912151 0.8700675 98 98 98
-0.0103515100897891 -0.04214938466786 -0.0508484493509399 -0.04529288 -0.4897414 0.8706905 99 99 99
-0.0102858823284881 -0.0411797657659603 -0.0499022020360497 -0.04102178 -0.4986249 0.8658466 105 105 105
-0.01018064366641 -0.0406596067948404 -0.0498453795717144 -0.04539036 -0.4999122 0.8648859 91 91 91
-0.0112247690515592 -0.0377230899470606 -0.0471787123461864 -0.02932943 -0.5084062 0.8606178 124 124 124
-0.00932789314453286 -0.0381607693117114 -0.0475104811351767 -0.03226926 -0.5129219 0.8578286 110 110 110
-0.00916765505746131 -0.0376703807909116 -0.047283962533697 -0.03309373 -0.5141875 0.8570392 110 110 110
-0.0167506833449638 -0.0379051092041671 -0.0461129758920402 -0.02617866 -0.506016 0.8621267 55 55 55
-0.013220182855167 -0.0383201704312199 -0.0471611329240071 -0.0201906 -0.4966013 0.8677439 94 94 94
-0.0146967489556054 -0.0377168997995889 -0.0463448287784494 -0.02788641 -0.4946502 0.8686447 67 67 67
-0.0178022222358685 -0.0353515682607148 -0.0442400858701295 -0.07368311 -0.5134966 0.8549222 133 133 133
-0.0152702891417946 -0.0350831782071148 -0.0444265065954922 -0.06922735 -0.5228711 0.849596 195 195 195
-0.0139907045670418 -0.0350262096261429 -0.0446306061894339 -0.07020666 -0.5231372 0.8493518 201 201 201
-0.0122354798107325 -0.0322405180380825 -0.0431011809196457 -0.06721701 -0.519596 0.851764 185 185 185
-0.0216842854868147 -0.0315523761517864 -0.0410835180883723 -0.06179406 -0.5161824 0.8542466 208 208 208
-0.0190606886204985 -0.0327067972449131 -0.042263686225516 -0.07582334 -0.5166779 0.8528157 194 194 194
-0.0198560435613548 -0.0319964563977244 -0.041683107207995 -0.06190338 -0.511917 0.8568016 210 210 210
-0.0197868128426264 -0.0295639193238599 -0.0397119158059461 -0.05673594 -0.5109056 0.8577625 119 119 119
-0.0235202334085898 -0.0285076996255655 -0.0383073125213533 -0.04768445 -0.5118926 0.857725 121 121 121
-0.0210094015123037 -0.0267706747904615 -0.0372512020739645 -0.04501726 -0.5071198 0.8606991 97 97 97
-0.0183242552457394 -0.0283611388758278 -0.0392176379447242 -0.05190446 -0.4969415 0.8662304 107 107 107
-0.016229931438053 -0.0280651360450233 -0.0391135333661209 -0.03489286 -0.4905309 0.8707249 68 68 68
-0.0187689302837648 -0.0249767947938313 -0.0363775630386556 -0.04835084 -0.4957994 0.86709 154 154 154
-0.0640676149917407 -0.0521640915417636 -0.0389066929301189 0.4791832 -0.7222475 -0.4987403 58 58 58
-0.0625758850541227 -0.0487950087967131 -0.0383934691047203 0.6811574 -0.6255569 -0.3803988 56 56 56
-0.0625822798777778 -0.0463330871676395 -0.0383720857590864 0.6527131 -0.6484327 -0.3917914 53 53 53
-0.0642315743403614 -0.0477003453796327 -0.0439021872752604 0.5994759 -0.7870249 -0.1456727 67 67 67
-0.0634655765236922 -0.0449773999156018 -0.0440005250002199 0.4988488 -0.7962228 0.3423143 58 58 58
-0.0632291805353429 -0.0461645649419347 -0.0411235887796611 0.629824 -0.7543927 -0.1849684 32 32 32
-0.0618107688809419 -0.0526267286994673 -0.0319711758988193 0.6501328 -0.6884261 -0.3215538 37 37 37
-0.061789182606784 -0.0515111438895732 -0.0331956244586747 0.6599501 -0.6852276 -0.3081054 48 48 48
-0.0618713908165653 -0.0520289590068792 -0.0309345558501584 0.6419305 -0.6840876 -0.3463371 54 54 54
-0.0624099914458838 -0.0522697176936873 -0.0357828414380447 0.6562261 -0.6851864 -0.3160489 52 52 52
-0.0615830923274596 -0.0491371578617152 -0.0353787410806651 0.6580108 -0.6683213 -0.3469416 42 42 42
-0.0605902468446384 -0.0482560875520937 -0.0294004701221377 0.6456355 -0.6789823 -0.3494821 57 57 57
-0.0612370073381272 -0.0475904681146921 -0.0327782026226416 0.6322739 -0.702537 -0.3266061 56 56 56
-0.0608352177310492 -0.0472502339804439 -0.031713600279538 0.6347769 -0.6989312 -0.3294745 59 59 59
-0.0606004292009628 -0.0517579893721367 -0.0277621999610197 0.6550941 -0.6480099 -0.3885033 45 45 45
-0.0604622846164955 -0.0500822323167458 -0.0272414875856866 0.6650918 -0.6425036 -0.3805814 58 58 58
-0.0599508504592041 -0.0483992082798193 -0.0277427478833313 0.6772065 -0.6428366 -0.3579839 53 53 53
-0.0586025946262394 -0.0457015429496597 -0.0241482442352586 0.6319253 -0.646474 -0.4274831 48 48 48
-0.0594563118057163 -0.0457829421666172 -0.0251752912188924 0.6506557 -0.632708 -0.4199139 52 52 52
-0.0601694706929408 -0.0474990639191955 -0.029165677517367 0.6581647 -0.6675779 -0.3480791 49 49 49
-0.0601175120691426 -0.0455684673858086 -0.0286497104447143 0.6602712 -0.6687319 -0.341818 53 53 53
-0.0595886609368641 -0.045056308296024 -0.0264706922256254 0.6581419 -0.6618568 -0.3588799 50 50 50
-0.0584152342108095 -0.0448765644883844 -0.0243971233464244 0.6320229 -0.657821 -0.4096566 53 53 53
-0.0616660296592579 -0.0474452796350722 -0.0350562444199803 0.6382042 -0.684252 -0.352838 71 71 71
-0.0618057085975554 -0.0458296598805426 -0.0361815154673029 0.6509794 -0.6590529 -0.3766631 59 59 59
-0.0612095226223675 -0.0428102186772537 -0.0366842255109207 0.68031 -0.6748374 -0.2859594 40 40 40
-0.0605359678379371 -0.0443343320845966 -0.0316629908011936 0.6616665 -0.6715842 -0.3334247 54 54 54
-0.0606474665858854 -0.0435360096892021 -0.0330581241876777 0.6452315 -0.6762509 -0.355473 51 51 51
-0.0603146833685031 -0.0416653616066518 -0.0305341826995711 0.6444996 -0.6751889 -0.3588039 54 54 54
-0.0611470981725741 -0.0435995784913512 -0.0352259328109989 0.6693748 -0.6544734 -0.3515707 48 48 48
-0.0616595888109188 -0.0425470550196358 -0.0353624489372583 0.6669587 -0.6555907 -0.3540719 60 60 60
-0.0614618692016635 -0.0422702878866403 -0.0379528656282893 0.6857728 -0.7105519 -0.1575809 45 45 45
-0.0608653913278374 -0.0413750079254234 -0.0344832977720622 0.6447159 -0.6771671 -0.3546634 49 49 49
-0.0600609153368583 -0.0405331307233541 -0.0314816686514098 0.6357214 -0.6793822 -0.3664671 57 57 57
-0.0601115116775213 -0.0414331572308682 -0.0330218702878143 0.6409975 -0.6812842 -0.3535166 48 48 48
-0.0598020389504659 -0.0445697223996333 -0.0293777381351613 0.6399721 -0.6905698 -0.3369705 56 56 56
-0.0591237736329795 -0.0418622835867808 -0.0261878420793746 0.6498461 -0.6764666 -0.3465444 63 63 63
-0.0594801095107904 -0.0421610063906013 -0.0302026736559874 0.6434659 -0.6774352 -0.3564171 53 53 53
-0.059608264525532 -0.0401026262809938 -0.0286183198662802 0.6395751 -0.685868 -0.3471725 60 60 60
-0.0585460790705072 -0.0405522441471837 -0.0270224057150385 0.6527514 -0.673864 -0.3461545 59 59 59
-0.0595822616301138 -0.0398768032429202 -0.0305821268874407 0.6453295 -0.6680968 -0.3704003 57 57 57
-0.0584800447287033 -0.0418526983886123 -0.0245699985747341 0.6664286 -0.653049 -0.3597222 66 66 66
-0.0585222875991791 -0.0420111874014115 -0.0226303811622325 0.6737864 -0.6467267 -0.3574303 72 72 72
-0.0582976784075551 -0.0407744908293388 -0.0237456579084516 0.6687343 -0.65324 -0.3550663 68 68 68
-0.0591115901270238 -0.0371356637350184 -0.0304752678102416 0.6351368 -0.6598181 -0.4015487 56 56 56
-0.0576236474374658 -0.0373475747010825 -0.0239629129274058 0.6597787 -0.6602407 -0.3588514 69 69 69
-0.0584991594823245 -0.034519633036737 -0.0268810569565038 0.6489916 -0.645798 -0.4021876 61 61 61
-0.0574185017992703 -0.0359388808111774 -0.0248285840815197 0.639469 -0.6459221 -0.4169702 68 68 68
-0.062862469572321 -0.0441996975119523 -0.0443174118577676 0.3740308 -0.7818776 0.4987668 61 61 61
-0.06148457797243 -0.0435608903271452 -0.0438369168305251 0.3205947 -0.7860101 0.5285897 120 120 120
-0.0584244000080987 -0.0438213793698259 -0.0448941464876226 -0.01974729 -0.5751461 0.8178124 225 225 225
-0.0572621562011353 -0.041875254489236 -0.0433543264333464 -0.03432931 -0.5559216 0.8305256 217 217 217
-0.0568109127011525 -0.0395272775490516 -0.0419547990245189 -0.0189979 -0.5219517 0.8527634 189 189 189
-0.0593929750495388 -0.0390213312011307 -0.0408532083058057 0.3204955 -0.75626 0.5703976 166 166 166
-0.0608931168399565 -0.0372348851356319 -0.0373735507723084 0.5711277 -0.8157967 0.09104289 48 48 48
-0.0587132326547062 -0.0351229260370292 -0.0376949948366399 0.3159917 -0.7525888 0.577719 55 55 55
-0.0540517959893227 -0.041068033930719 -0.0432394546497895 -0.06399655 -0.5103715 0.8575695 206 206 206
-0.0551331959292072 -0.0388076431187998 -0.0414217962290235 -0.05683935 -0.503265 0.8622608 155 155 155
-0.0547464940617628 -0.0377525792798092 -0.0407432474028621 -0.06145401 -0.507844 0.8592542 159 159 159
-0.0564229972047108 -0.0319642310197645 -0.0362596345525297 0.1234843 -0.6908294 0.7123948 154 154 154
-0.0502020345199621 -0.0390697743134119 -0.042269873567132 -0.06121159 -0.5102016 0.8578738 159 159 159
-0.0507148932536876 -0.0384791929550197 -0.041650088991347 -0.06038989 -0.5102131 0.8579252 158 158 158
-0.0477718458767864 -0.0367942975935682 -0.0410615573111869 -0.04429952 -0.5043601 0.8623563 177 177 177
-0.0478505156914046 -0.0349365588869761 -0.039246272097248 -0.06125954 -0.5013201 0.8630906 180 180 180
-0.0522779816858963 -0.0353916198295716 -0.0391012799020197 -0.06214887 -0.5119536 0.8567619 168 168 168
-0.0531848818629448 -0.0342190341997641 -0.038387816006292 -0.06390884 -0.5137019 0.8555852 166 166 166
-0.0536167286582305 -0.0320741298391716 -0.0365733186929936 -0.05470601 -0.5168707 0.8543137 164 164 164
-0.0492974983004744 -0.0329931882791845 -0.0379988596252866 -0.07105909 -0.5035285 0.8610515 163 163 163
-0.0519744647499296 -0.0314967377762099 -0.036459528360428 -0.06418266 -0.5161895 0.8540662 184 184 184
-0.050687544362868 -0.0295973521530903 -0.0352777778121091 -0.04306841 -0.5211129 0.8524004 167 167 167
-0.0594028270987947 -0.0333871585164027 -0.0292994400075595 0.6500304 -0.7012072 -0.2928635 79 79 79
-0.0582246662894232 -0.0321721896791909 -0.0272803612281181 0.6697069 -0.642387 -0.3726012 72 72 72
-0.0564733712690479 -0.0295195235778003 -0.0340137951298026 0.2774546 -0.7907874 0.5455953 93 93 93
-0.0547255829458737 -0.0289521903802694 -0.0337983949062095 0.1201762 -0.6889049 0.7148201 105 105 105
-0.0552925353463194 -0.0274104189023752 -0.0325718548448244 0.2014346 -0.8126798 0.5467867 125 125 125
-0.0538112687811352 -0.0269886015211063 -0.0325329899576071 -0.01423047 -0.541215 0.8407638 81 81 81
-0.0528429560180181 -0.0262433867884502 -0.0321103169085242 0.04462074 -0.5885943 0.8071963 88 88 88
-0.056616912778868 -0.0227656078193452 -0.0270776774692797 0.4911416 -0.8583991 0.1480911 61 61 61
-0.0577545423177703 -0.0480229467065862 -0.0224847147065717 0.6548575 -0.6446987 -0.3943669 27 27 27
-0.057736830214465 -0.0461738572044676 -0.0203167767709681 0.6533793 -0.6464821 -0.3938991 69 69 69
-0.0578496460871736 -0.0457567069599318 -0.0223146547818506 0.661904 -0.6346917 -0.3988101 54 54 54
-0.0573339572338121 -0.0443463224521772 -0.0194466531591928 0.6505866 -0.6243031 -0.432415 75 75 75
-0.0567768373391289 -0.0426994817134143 -0.0188021505724561 0.6545555 -0.6321913 -0.4145977 66 66 66
-0.0572954394453693 -0.0403013308190183 -0.0195912915261812 0.6637005 -0.6506526 -0.368989 60 60 60
-0.056073591895776 -0.0408969901758205 -0.0168296973430607 0.6549531 -0.6488922 -0.3872665 54 54 54
-0.0567320381826857 -0.0388735929202926 -0.0201153350012775 0.6644204 -0.6575217 -0.3552614 61 61 61
-0.0565336927519229 -0.0384191708198027 -0.0174677525440535 0.6474032 -0.6604978 -0.3802785 63 63 63
-0.0560577464530523 -0.0385124697260311 -0.0184265457318241 0.6522681 -0.6618612 -0.3694404 59 59 59
-0.0552172032800642 -0.03932785530062 -0.0152362195085424 0.6452827 -0.6577594 -0.3885392 64 64 64
-0.0544628454628704 -0.0358355513919839 -0.0142504604566935 0.6336169 -0.6690933 -0.3883862 32 32 32
-0.05396601323941 -0.0342299143129552 -0.0118122316731306 0.6380662 -0.6721479 -0.3756176 53 53 53
-0.0534968899833212 -0.0329610205178839 -0.0106758784871678 0.6498823 -0.6551007 -0.385352 56 56 56
-0.0566868709759194 -0.03773982435913 -0.0213854978582397 0.6649602 -0.6700127 -0.3300166 79 79 79
-0.0572688320439925 -0.0361443595788109 -0.0215835474220424 0.6294166 -0.6759734 -0.3832684 81 81 81
-0.0566321034944499 -0.0375574233935203 -0.0188720331818978 0.6374129 -0.6714382 -0.3779889 62 62 62
-0.057296131779399 -0.0364354472310942 -0.0235929653453265 0.6476275 -0.6561674 -0.387328 66 66 66
-0.05709896004113 -0.0348145344135258 -0.0235109945073801 0.650645 -0.6472826 -0.3970973 66 66 66
-0.0561017504325636 -0.0317018104110052 -0.0216877713013942 0.6544735 -0.6604384 -0.3680836 54 54 54
-0.055270654292185 -0.0330024775585089 -0.0156853031605423 0.6471685 -0.6683458 -0.3667244 57 57 57
-0.0552546574955306 -0.0302036922798654 -0.0190292768498116 0.6493071 -0.6713023 -0.3574263 62 62 62
-0.0552605141601714 -0.0343745629419772 -0.0161587148596483 0.6487483 -0.6650174 -0.3699696 53 53 53
-0.0554647749190758 -0.0341551933796258 -0.0149950886344869 0.642213 -0.6731652 -0.3666211 58 58 58
-0.0547872235395945 -0.0349765497605699 -0.0135415646798999 0.6388508 -0.6717421 -0.3750096 41 41 41
-0.0548830730455223 -0.0314483162655241 -0.0168533832918681 0.6531609 -0.6702652 -0.3523143 52 52 52
-0.0571928999482045 -0.0328397723952938 -0.0241535155988791 0.6615122 -0.6425247 -0.3867346 36 36 36
-0.0565551983901558 -0.02912483476044 -0.0222382822956366 0.6562551 -0.6747707 -0.3376591 63 63 63
-0.0558554529322173 -0.0296452082316812 -0.0218742342672131 0.6694744 -0.6622842 -0.3364279 39 39 39
-0.0564993515560634 -0.0301348335323925 -0.020513581595632 0.6565306 -0.6565779 -0.3713125 57 57 57
-0.0567737199430263 -0.0274917579284968 -0.0240421352183498 0.6620928 -0.6692775 -0.3371954 58 58 58
-0.0556648430320443 -0.027027315536585 -0.0222865500358622 0.648415 -0.6749678 -0.3521029 54 54 54
-0.0556671765489405 -0.0253210916468942 -0.0240408942318919 0.6518495 -0.7295275 -0.2070792 41 41 41
-0.0525071385925751 -0.0242070435492157 -0.0302946091861288 0.06954664 -0.6641908 0.7443211 94 94 94
-0.0531934065897626 -0.0306117340524565 -0.0101844327271978 0.6525072 -0.6475647 -0.3935661 65 65 65
-0.0537342717675746 -0.0279764544918679 -0.0104984243642518 0.6463951 -0.6652284 -0.3736905 52 52 52
-0.0527384471932359 -0.0268180501941484 -0.00995343457199932 0.6462334 -0.6672695 -0.3703158 58 58 58
-0.051110895441778 -0.0277928436981625 -0.00685649263433291 0.6490364 -0.6482788 -0.3981034 88 88 88
-0.0518981036491724 -0.027117412173691 -0.00644286651877085 0.6475582 -0.6535142 -0.3919027 70 70 70
-0.0521420784245548 -0.0269439551362838 -0.00868620320791796 0.6522561 -0.6558599 -0.3800128 56 56 56
-0.0522423141014601 -0.0253406946884014 -0.0103794761404251 0.6485123 -0.6752391 -0.3514029 56 56 56
-0.0518643806325909 -0.0253928081905685 -0.00719101182761195 0.6429141 -0.6668947 -0.3767132 60 60 60
-0.0515808937593309 -0.023770731538393 -0.00543073130657917 0.6551784 -0.6608934 -0.3660071 58 58 58
-0.0511880738094752 -0.0224040980705749 -0.0043489338971992 0.6510195 -0.6419533 -0.405055 64 64 64
-0.0553748695232397 -0.0246493605798155 -0.0191064711839232 0.6467924 -0.6657357 -0.3720962 64 64 64
-0.0549594974038849 -0.0228426925949159 -0.0188080936044195 0.6387179 -0.6665049 -0.3844616 63 63 63
-0.0538238073511912 -0.0253238972820726 -0.0142294133086517 0.6466553 -0.6798182 -0.3459542 63 63 63
-0.0523726792490411 -0.0230106648240989 -0.0108216180170666 0.6436208 -0.6875409 -0.3362138 54 54 54
-0.0538391741987576 -0.0230733394105143 -0.0159268711806982 0.6394086 -0.6622918 -0.390546 62 62 62
-0.0529043676341683 -0.021628902922598 -0.0148300153723069 0.6665074 -0.6521003 -0.3612935 67 67 67
-0.052904478948633 -0.021642188566569 -0.0121221231436725 0.6423228 -0.6797895 -0.3539881 56 56 56
-0.0540252963494323 -0.0209321166292769 -0.0179092352005559 0.6523845 -0.6490397 -0.3913336 71 71 71
-0.0544404339361906 -0.0205411500328005 -0.017294071279175 0.6602363 -0.6445273 -0.3855809 60 60 60
-0.0531921326727192 -0.0198733771762203 -0.0157578090938462 0.6646727 -0.6501399 -0.3681417 68 68 68
-0.0537174742781499 -0.0191325970903915 -0.0177217105932315 0.6755916 -0.6388697 -0.3679965 81 81 81
-0.0532004548639629 -0.018473855341802 -0.0161847024043921 0.6663177 -0.6500137 -0.3653805 62 62 62
-0.0527212110024387 -0.0185465117893469 -0.0137795013306834 0.6755429 -0.6446922 -0.3577901 45 45 45
-0.0518990682262124 -0.0175864545748474 -0.0132238188877063 0.6434178 -0.6704882 -0.3694038 66 66 66
-0.0520141871580471 -0.017307118633682 -0.0116245781216109 0.6408457 -0.6806772 -0.3549583 66 66 66
-0.0521462155499273 -0.0159598773694642 -0.0134375520188828 0.6478921 -0.6646287 -0.3721618 48 48 48
-0.0535549534596593 -0.0171089342798878 -0.0184247867562105 0.580385 -0.7973098 -0.1656818 74 74 74
-0.0539066120311622 -0.0160321834277231 -0.0181367699661164 0.5565204 -0.817926 -0.1458838 62 62 62
-0.0527618207026763 -0.0155328411194366 -0.0169152129081992 0.6195909 -0.7414076 -0.2577242 65 65 65
-0.0523164115546106 -0.0159541236053535 -0.0158028716030194 0.6520765 -0.6588473 -0.375122 75 75 75
-0.0516833576116547 -0.0139153626357871 -0.0137387991564631 0.6557966 -0.6544376 -0.3763538 52 52 52
-0.0516480173911309 -0.0219476094756765 -0.00816525409580249 0.6517273 -0.6817483 -0.3323714 48 48 48
-0.0517289086912096 -0.0220492881913299 -0.00741397191306731 0.6572759 -0.6743633 -0.3364857 65 65 65
-0.0504284585410746 -0.0207142047002014 -0.00407892647444641 0.6554452 -0.6648902 -0.3582076 62 62 62
-0.0500093247565769 -0.019156918792459 -0.00509091804202005 0.6658393 -0.6539017 -0.3592639 57 57 57
-0.0518082188573148 -0.0205198458514273 -0.011129044751457 0.6496489 -0.6821818 -0.3355359 54 54 54
-0.0516243312717073 -0.0187192356560313 -0.0113368760512115 0.6387092 -0.6924298 -0.3355465 49 49 49
-0.0504959086365906 -0.0178672657127232 -0.00720523753569818 0.652539 -0.6698472 -0.3542565 58 58 58
-0.0510542477263658 -0.0165726768536252 -0.00666553554353433 0.6489942 -0.6702969 -0.3598731 61 61 61
-0.0497766229523382 -0.0197088016107489 -0.0029993791303411 0.6412082 -0.678224 -0.3589767 62 62 62
-0.0508746648462512 -0.0159972602750933 -0.0103192449784789 0.6409847 -0.6868298 -0.3426418 65 65 65
-0.0518888016362471 -0.0140741918617915 -0.0105909464890829 0.6488979 -0.68274 -0.3358537 52 52 52
-0.049282362082109 -0.0168316578773593 -0.00209903860584054 0.6620249 -0.6557361 -0.3629507 69 69 69
-0.0490869807995509 -0.0182110793902144 -0.000525380865350589 0.6597208 -0.652526 -0.3727978 54 54 54
-0.0491647892436213 -0.016834941600236 0.000971561644272978 0.664291 -0.6532478 -0.3632972 56 56 56
-0.0499250100830309 -0.0154812017055281 -0.00401482436455436 0.6378394 -0.6802816 -0.3610786 59 59 59
-0.049451068992008 -0.0137341038321046 -0.00449082008573864 0.6394994 -0.6749867 -0.3680129 50 50 50
-0.0492740741030322 -0.0138562955206276 -0.00248289979498045 0.668669 -0.6477892 -0.3650354 70 70 70
-0.0484971351376635 -0.0142794424694446 0.000996142519681109 0.6587791 -0.6575773 -0.3655163 77 77 77
-0.0480878451372622 -0.0127397945849912 1.16737944638734E-05 0.6497722 -0.6668639 -0.3648131 60 60 60
-0.0502174344348689 -0.0140743197779438 -0.00791865878233894 0.6556649 -0.6671975 -0.3534842 69 69 69
-0.0494519540539717 -0.011295242794567 -0.00483015899564709 0.6601431 -0.675555 -0.3283848 63 63 63
-0.0505464357383065 -0.0110848447893106 -0.0105297749354475 0.6440551 -0.6775507 -0.3551309 77 77 77
-0.0501726951404518 -0.0111665342078053 -0.00846360642633631 0.6525105 -0.6767292 -0.3409805 69 69 69
-0.0496821159198291 -0.0084948340638471 -0.0082973009945147 0.6637082 -0.6649522 -0.3425348 70 70 70
-0.0486688970050793 -0.010895987112246 -0.00347252356262778 0.6679188 -0.6574131 -0.3488444 60 60 60
-0.0478908601053356 -0.00986803578158701 -0.00192324911583575 0.6470274 -0.6633443 -0.3759387 71 71 71
-0.0493553315387616 -0.00802673368576023 -0.00486339922473228 0.6458148 -0.6671276 -0.3713005 50 50 50
-0.0481685535600618 -0.00834544258311132 -0.000602041284052834 0.6593627 -0.6504418 -0.3770496 52 52 52
-0.0477509467633572 -0.00737858101320144 -0.00195985566102658 0.6391323 -0.6751267 -0.3683935 63 63 63
-0.0478063536674438 -0.00658296752912868 0.00174655569025867 0.6550847 -0.6531451 -0.3798229 56 56 56
-0.0479915373407667 -0.00562601787682127 -0.00362563856479997 0.6534897 -0.6718677 -0.348633 55 55 55
-0.0477963078979435 -0.00551059319134684 -0.00276281106984727 0.6530221 -0.6732482 -0.3468414 49 49 49
-0.0478065954358042 -0.00364369584113899 -0.00174077125048838 0.6711469 -0.6651925 -0.3272319 54 54 54
-0.0479098016697797 -0.031535825778662 -0.0372294991425928 -0.07945462 -0.5017071 0.8613808 132 132 132
-0.043591788938997 -0.0354449445083767 -0.0402296326369221 -0.03809136 -0.4983028 0.8661659 88 88 88
-0.0430042997877891 -0.0352065036812907 -0.0404603460457876 -0.03152026 -0.5015549 0.8645514 85 85 85
-0.0401279711596145 -0.0313193172281823 -0.0378624698218807 -0.0549585 -0.5139216 0.8560749 133 133 133
-0.0394443830514652 -0.0318983488032596 -0.0383083979869548 -0.0544903 -0.5106851 0.8580394 104 104 104
-0.0456138450978676 -0.0315370962277275 -0.0372835866982723 -0.08468945 -0.4986158 0.862676 99 99 99
-0.0497420159990307 -0.028819014550197 -0.0348281565172066 -0.05914043 -0.5198926 0.852182 154 154 154
-0.0477513285031597 -0.0286673809776001 -0.0348945182956742 -0.06923378 -0.5025358 0.8617798 161 161 161
-0.0442806473969632 -0.0305613941615517 -0.0364019944961592 -0.08061767 -0.5058527 0.8588445 121 121 121
-0.0414489114924965 -0.029192920222862 -0.0360391822419279 -0.06943181 -0.507656 0.8587576 145 145 145
-0.0442818747060105 -0.0263630664904169 -0.0334941718498389 -0.06415366 -0.4945291 0.8667902 160 160 160
-0.0375103452805146 -0.0315436863795657 -0.0382384928273343 -0.0647083 -0.5001293 0.8635297 124 124 124
-0.0406187599561143 -0.0276808639176691 -0.0349837874829032 -0.06048699 -0.5009589 0.8633548 138 138 138
-0.0417570779740162 -0.0263798214928537 -0.0339655454096507 -0.07013595 -0.4983187 0.8641524 167 167 167
-0.039021350977352 -0.0251600080595846 -0.0333051502318387 -0.05766167 -0.4992048 0.8645633 136 136 136
-0.0329920607385672 -0.0315896883313114 -0.0389634358260632 -0.05383169 -0.5124242 0.8570435 117 117 117
-0.0351040076962934 -0.0289942674061703 -0.0368231946407684 -0.05581397 -0.5141379 0.8558896 130 130 130
-0.0348089024210423 -0.0282881946651719 -0.0363136108677107 -0.05487854 -0.5115897 0.8574755 120 120 120
-0.0342592483216611 -0.0266714721655745 -0.0350599228826652 -0.05277321 -0.5014195 0.8635934 130 130 130
-0.0371924686929974 -0.0251226390243793 -0.0336282154438186 -0.05777599 -0.4979628 0.8652716 139 139 139
-0.0370680688275868 -0.0229120710025223 -0.0319888948567579 -0.05844306 -0.4945462 0.8671842 159 159 159
-0.0502109659578887 -0.0266430941561162 -0.0331269085916067 -0.02699931 -0.5159882 0.8561701 95 95 95
-0.0465868003066223 -0.0254312280670035 -0.0325521303671586 -0.03775501 -0.5083354 0.8603311 171 171 171
-0.0538129132690681 -0.0202394752015371 -0.0272945507859296 0.212451 -0.803835 0.5556203 199 199 199
-0.0527187547891792 -0.0198643094254214 -0.0270045892442602 0.156265 -0.730901 0.6643531 157 157 157
-0.049394493242072 -0.0227026113823414 -0.0299918414491044 -0.03400854 -0.5139903 0.8571215 151 151 151
-0.0423762457913068 -0.024530073025419 -0.032358809645807 -0.05701871 -0.4932495 0.8680172 155 155 155
-0.0437330704468097 -0.0242647214115792 -0.0319221580708224 -0.06048367 -0.491481 0.8687854 152 152 152
-0.0452617360022098 -0.0229422469774709 -0.0306742223175502 -0.04148168 -0.4922835 0.8694459 143 143 143
-0.0453554768932425 -0.0172156118649403 -0.0263826171257497 -0.05214148 -0.5058734 0.8610304 118 118 118
-0.0439343819633233 -0.0180799385044588 -0.0273298748490088 -0.04681934 -0.5115312 0.8579882 156 156 156
-0.03945868699609 -0.0232213719938732 -0.0315456513440444 -0.0524323 -0.5041113 0.8620456 182 182 182
-0.0398502747796887 -0.0197692024263481 -0.0291786260565041 -0.05312749 -0.5056237 0.8611168 184 184 184
-0.0308618978269664 -0.0294703804604348 -0.0379468747906386 -0.05386208 -0.5128086 0.8568116 161 161 161
-0.0319912542534042 -0.0277453579955538 -0.0363793918522897 -0.04818771 -0.5074648 0.860324 116 116 116
-0.0309846607715154 -0.0277239555394653 -0.0369003843695412 -0.04840655 -0.5101479 0.8587234 130 130 130
-0.0285006072386218 -0.0283668845182157 -0.0372649938589603 -0.05394597 -0.5119092 0.857344 135 135 135
-0.0304947854371465 -0.0257995347333624 -0.0352365618896652 -0.0428749 -0.5108051 0.8586268 120 120 120
-0.0277376938363094 -0.0282191808904324 -0.0372794032626615 -0.05588531 -0.5103729 0.8581353 124 124 124
-0.0295020828529475 -0.0244655046865641 -0.0340996941761672 -0.04233478 -0.5044791 0.8623854 136 136 136
-0.028377573609744 -0.0250100936878441 -0.0349388548385279 -0.03729809 -0.5060936 0.8616717 108 108 108
-0.0282295412166316 -0.0238433973082341 -0.0342233144248352 -0.04368883 -0.5074148 0.8605937 101 101 101
-0.0275949116277818 -0.0240094597424658 -0.0340033211018179 -0.0404038 -0.5064662 0.8613127 111 111 111
-0.0299356576504395 -0.0223392573050123 -0.0324805015857279 -0.04637839 -0.510874 0.8584037 70 70 70
-0.0305837903202621 -0.0212231257771391 -0.0314500407588489 -0.05155288 -0.5059748 0.8610063 95 95 95
-0.0292429660711027 -0.0203688752412161 -0.0308465666321711 -0.05263906 -0.5095506 0.8588291 101 101 101
-0.0367399356238232 -0.018726901743958 -0.028873353110208 -0.05441335 -0.4965484 0.8663018 182 182 182
-0.038450702255223 -0.0165905556432124 -0.0272179851799633 -0.05787079 -0.5027697 0.8624811 185 185 185
-0.0418888556918287 -0.0140005670943597 -0.0244987515288121 -0.05695473 -0.5104475 0.8580207 159 159 159
-0.0367774335378521 -0.012462061092845 -0.0240242734338227 -0.05886531 -0.5086607 0.8589523 182 182 182
-0.0344280065752707 -0.0137871919385517 -0.0252694588030702 -0.06157634 -0.5049834 0.8609298 145 145 145
-0.03480645550483 -0.0122776450833548 -0.0241472183831506 -0.05685762 -0.5006 0.8638095 156 156 156
-0.0235977940300653 -0.024453342185208 -0.0349689284441843 -0.04345306 -0.5050868 0.861974 72 72 72
-0.0193298714522863 -0.0226218887335201 -0.0344387956077132 -0.05844675 -0.5044264 0.8614743 158 158 158
-0.0207948360166936 -0.0223398416827183 -0.0339551716136664 -0.05459728 -0.5094728 0.8587529 151 151 151
-0.0204387052280701 -0.0205809920559847 -0.0327791046170769 -0.05887255 -0.5111009 0.8575022 177 177 177
-0.0227430291201589 -0.0198259999353829 -0.031836141931942 -0.05061945 -0.5163075 0.854906 111 111 111
-0.0256089170269451 -0.0184024687247399 -0.0301500138399902 -0.05342264 -0.5111176 0.8578489 98 98 98
-0.0221999513601565 -0.0196829489826886 -0.0315096990691494 -0.05048999 -0.5138102 0.8564169 116 116 116
-0.0236461458612731 -0.0168253122323272 -0.0293460193845784 -0.04725346 -0.5134085 0.8568423 155 155 155
-0.0303901862425322 -0.0144322182632866 -0.0267487644879273 -0.05714682 -0.5034304 0.8621439 111 111 111
-0.0280596472689818 -0.0160143016969967 -0.0278676464695498 -0.05775328 -0.505657 0.8607994 110 110 110
-0.025301732971355 -0.0144527844811426 -0.0270665861097911 -0.05196271 -0.5124738 0.8571292 109 109 109
-0.0294269856187701 -0.0111353584407816 -0.0238698039211453 -0.05722472 -0.5083928 0.8592218 206 206 206
-0.0511499970377889 -0.0163993860915141 -0.0247321920229366 0.1481949 -0.6604397 0.7361098 99 99 99
-0.052904973195818 -0.0140240302194918 -0.0228007902314765 0.2681788 -0.8772092 0.3982262 191 191 191
-0.0484851936886272 -0.014797996769879 -0.0239719571653951 -0.01621845 -0.5365803 0.8436934 159 159 159
-0.0508638822536334 -0.014800846263024 -0.0238092270059891 0.2247355 -0.7100181 0.6673592 177 177 177
-0.0466559250306502 -0.0149149042228429 -0.0243220600467497 -0.06612906 -0.5101485 0.8575404 147 147 147
-0.052550077328434 -0.0118602234630107 -0.0179560140999654 0.4390391 -0.8976178 0.03907627 50 50 50
-0.0524511825455476 -0.00947011859155711 -0.0172537638217989 0.5192749 -0.853802 0.03709034 56 56 56
-0.0505964400089587 -0.00882810901473441 -0.0192541511361032 0.1913 -0.7418116 0.6427441 191 191 191
-0.0503175847656014 -0.00863913220456114 -0.0190773991331121 0.24461 -0.786341 0.567304 193 193 193
-0.0517794862250973 -0.00824022938924207 -0.0138577493537063 0.6581589 -0.7514474 -0.0464073 40 40 40
-0.0505574647049016 -0.00692951593140201 -0.017476645066669 0.485292 -0.7779535 0.399099 169 169 169
-0.043369890109282 -0.0130530986634874 -0.0234007172938657 -0.0689373 -0.5097297 0.8575682 157 157 157
-0.044315265253883 -0.0117422244908056 -0.0222241406770756 -0.06393671 -0.5065923 0.8598118 156 156 156
-0.0404950649638027 -0.0101665417871482 -0.0218302300556889 -0.06355421 -0.5106763 0.8574209 174 174 174
-0.04388957681065 -0.00752630230558049 -0.0195704040905903 -0.04124044 -0.5083529 0.8601608 187 187 187
-0.0445658848703538 -0.00796000477464864 -0.0195652483281234 -0.04389288 -0.5052475 0.8618575 176 176 176
-0.0475773287874941 -0.0072058198902849 -0.0184809755469025 0.05103555 -0.5861813 0.8085709 172 172 172
-0.046119331116302 -0.00502777093705209 -0.0168895201260296 0.1027029 -0.6022931 0.7916408 158 158 158
-0.0439236135021335 -0.00580427015673246 -0.0179411255629262 -0.03352932 -0.5101311 0.8594429 169 169 169
-0.0410340068520165 -0.00452778074130689 -0.017387036737304 -0.03723872 -0.5027196 0.863647 138 138 138
-0.0404212353603972 -0.0035473915880786 -0.0162810294722287 -0.03065221 -0.5038862 0.8632261 152 152 152
-0.0505527948410744 -0.00985871064090582 -0.0112626361862911 0.6405951 -0.7037981 -0.3070932 61 61 61
-0.0503005013965989 -0.0080267712405786 -0.0108727494580061 0.6435614 -0.71736 -0.2668771 59 59 59
-0.0499342527331073 -0.0068334008445492 -0.0098606932233703 0.6396917 -0.7217128 -0.2644338 61 61 61
-0.0491736212103913 -0.00429936068077064 -0.00669195875994072 0.6420717 -0.6878607 -0.3385137 47 47 47
-0.0492561153701203 -0.00207244416552577 -0.0101969391326068 0.5032344 -0.8624385 -0.05436019 66 66 66
-0.0479524535902032 -0.00381188113127351 -0.00466710828178568 0.6661255 -0.6669862 -0.3337755 59 59 59
-0.0475255557777436 -0.000483658992165292 -0.00391612841486016 0.6490107 -0.6869715 -0.3268871 64 64 64
-0.0483933292996221 -0.00317050029452792 -0.0149324890855347 0.3474488 -0.718589 0.6024194 190 190 190
-0.0483081871139337 0.00133460812901998 -0.00842199069126803 0.41709 -0.9087715 -0.01305189 70 70 70
-0.0449415910528117 0.00145305525837158 -0.0122337168984566 0.1113027 -0.6633658 0.7399713 167 167 167
-0.0458863708506376 0.00630444689391307 -0.00838752401739445 0.2581865 -0.7693245 0.5843624 187 187 187
-0.0350956670725746 -0.00743932688873139 -0.0203604418709803 -0.05883781 -0.5013022 0.8632695 163 163 163
-0.0339211141999414 -0.0087828798989944 -0.0216213617562687 -0.06676125 -0.4975737 0.8648487 153 153 153
-0.0338483532569991 -0.00571532736153824 -0.0194303717065518 -0.05752022 -0.503122 0.8622991 195 195 195
-0.0405675473681382 0.00270906140992655 -0.0116871687000627 -0.05214326 -0.5080307 0.8597592 99 99 99
-0.0433051468748009 0.00337439372453208 -0.0109132557801487 0.02286323 -0.5870056 0.80926 130 130 130
