ply
format ascii 1.0
comment File exported by Rhinoceros Version 7.0
element vertex 471
property float x
property float y
property float z
property float nx
property float ny
property float nz
property uchar red
property uchar green
property uchar blue
end_header
0.0803973800647313 -0.0810767312608038 -0.0433507424625716 -0.09786515 -0.9748473 -0.2002378 145 145 145
-0.122803514329401 0.0656591622650986 -0.0463542784418352 -0.1183588 0.3139159 -0.9420446 215 215 215
0.118360844085725 0.0378092257326597 -0.0296794685845021 0.7801873 0.4966454 -0.3803303 184 184 184
0.0655382526031474 0.00535071077353255 -0.0817906659165877 -0.05509787 0.4249965 -0.9035166 152 152 152
0.150917650043264 -0.0133940211718564 -0.0458816635829273 0.3546562 0.934397 0.03348403 93 93 93
0.0781071906358233 -0.00178272678258395 -0.0874059429199428 -0.02415715 0.54439 -0.8384843 149 149 149
0.00215234228889027 0.00798809845175119 -0.0681410262521949 -0.2189864 0.2141614 -0.9519348 143 143 143
0.148596371075263 -0.0136405978348672 -0.0556670466990659 0.7584378 0.5683973 -0.3188991 108 108 108
0.0868074306680211 -0.0668659287901607 -0.0813804645368238 -0.06482404 -0.8602912 -0.5056648 116 116 116
-0.0962720670758586 -0.0867015681014561 -0.00614326526214928 0.1883877 -0.9341136 -0.3032193 187 187 187
-0.11654459802154 -0.0203571235194987 -0.102953563235394 0.2326565 0.491034 -0.8394978 189 189 189
0.0527700309614523 -0.100113952428283 0.0222682083048088 -0.1525425 -0.9731765 -0.1722156 99 99 99
-0.00715946504209564 -0.0718984649650746 -0.0388133095061708 -0.1243903 -0.7806079 -0.612518 122 122 122
0.0417077552604068 0.138578141774756 0.0555430226905528 -0.3415681 0.9369045 0.07443953 120 120 120
0.0693785888094998 -0.00188434479811572 -0.086235970581693 -0.1349559 0.5701124 -0.8104065 135 135 135
0.086966057539029 0.00212130052627446 -0.086266048828578 -0.01065441 0.5330591 -0.8460109 131 131 131
0.0685736853423693 -0.0347089209893973 -0.101812001551712 0.124204 0.4281397 -0.8951367 233 233 233
0.0071845571974638 -0.0683506840736828 -0.0432939223094574 -0.1714726 -0.9392661 -0.2972816 179 179 179
0.0094672024089606 0.0312339622934854 -0.0631976491636854 -0.2065847 0.4873608 -0.8484116 183 183 183
-0.178985595942883 -0.0311540258558046 -0.0240607137349036 -0.9175407 -0.3187343 0.2377552 110 110 110
-0.125294167591997 -0.0687610091480051 -0.0297220908937023 -0.3936678 -0.8335835 -0.3875103 108 108 108
-0.159624864226894 0.0135999307765192 -0.0649425104776758 -0.858088 0.4073444 0.3126589 104 104 104
-0.141481964799815 0.0436760785119168 -0.0546710440489114 -0.5287735 0.5134942 -0.6758124 137 137 137
0.0698107003834583 -0.00767121658216019 -0.0903622856976007 -0.1523706 0.4488847 -0.8805031 158 158 158
0.050867084286919 -0.0592728162781492 -0.0858644574156575 -0.2095775 -0.7590696 -0.6163526 140 140 140
-0.102019628323067 -0.0946128988056585 0.016742116698167 -0.2204784 -0.9368091 -0.2716209 107 107 107
-0.10016215461334 0.0213213919631986 -0.0731279950355243 -0.09465148 0.5677019 -0.8177748 167 167 167
0.116886529873598 -0.105664042617202 0.0356934259263073 0.04309482 -0.9831598 -0.1775942 79 79 79
-0.169520936825039 -0.0547736245717844 -0.0342766937879147 -0.499065 -0.8503069 -0.1670699 220 220 220
0.111497802329621 -0.0511127985404594 -0.10175170865836 0.128931 -0.7588207 -0.6384104 185 185 185
0.0502004467822266 -0.101858739305435 0.0302628322081411 -0.05596885 -0.9380078 -0.3420657 56 56 56
-0.123270707470748 0.0766778518348776 0.0141903295515022 -0.5247006 0.6820077 0.5094652 68 68 68
0.0215479377277048 -0.0993700944109864 0.00928465704599143 0.1608176 -0.8744531 -0.4576785 138 138 138
-0.165788736526695 -0.046437971923773 -0.0507797723948007 -0.08444175 -0.770148 -0.6322512 127 127 127
-0.0026755654997821 -0.105169214817407 0.0252569660628833 -0.1024444 -0.9500622 -0.2947661 49 49 49
-0.148606587863548 -0.0655596048703684 -0.0125931123807626 -0.06908243 -0.9832543 -0.1686373 88 88 88
-0.0757979227603363 -0.0903248482197816 0.00853042964988843 0.01279856 -0.9712293 -0.2378023 73 73 73
0.0931664675225727 -0.0194953586563599 -0.0957439949413454 -0.01706119 0.477834 -0.8782845 161 161 161
0.161351450619971 -0.0606407323882876 0.0398586758889911 0.9539737 -0.2478418 0.1688448 75 75 75
0.0921729261976889 0.103204645160002 0.0605514406964904 0.8123757 0.565146 -0.1437211 172 172 172
0.0643267776286316 0.093255813212773 -0.0202438707795537 0.1569795 0.5376608 -0.8284192 244 244 244
0.119114339296688 -0.0145755420417742 -0.0889812199503494 0.1937911 0.6891406 -0.6982336 239 239 239
-0.0188489043921636 -0.035051842576905 -0.0990240423809063 -0.03164956 -0.4482953 -0.893325 172 172 172
0.0641463805388947 -0.0462063163019789 -0.100322956251794 -0.04307482 -0.4465432 -0.8937247 232 232 232
-0.0909137140603891 -0.0632340530081273 -0.0491202186840802 -0.163633 -0.727794 -0.6659881 155 155 155
-0.17860587066524 0.0117797060104642 -0.0878611882120317 -0.6523107 0.7425873 0.1518387 89 89 89
-0.178403842373184 -0.000582345558908459 -0.0690484435084688 -0.7416559 0.6467417 0.177965 91 91 91
-0.00134979988988482 -0.0658817592477201 -0.0498663820334869 -0.2121628 -0.9712828 -0.1076875 149 149 149
-0.0683526543142272 -0.0103229218915802 -0.0875254255593872 0.227703 0.6193661 -0.7513567 178 178 178
-0.1219394515663 0.0113481617076053 0.0664922138242437 -0.9361951 0.04793664 0.3481965 83 83 83
0.0646758381951704 0.136922728697919 0.0328714429777126 0.9109075 0.4112316 -0.03370562 141 141 141
-0.0541546144521909 -0.099609003240324 0.0330258845749454 -0.06601617 -0.8984175 -0.4341518 45 45 45
0.0761848766914923 -0.0813001741936329 -0.0374595479354871 -0.09128066 -0.9853612 -0.1439829 164 164 164
-0.196810186712985 -0.0225802429776363 -0.0906953435822554 -0.9326332 -0.3145978 0.1767021 135 135 135
0.152583032338919 -0.103158118420704 0.0438732846172439 0.08955692 -0.9951385 -0.04097411 116 116 116
-0.157100640702371 -0.0636817646840439 0.0108095057257006 -0.9549347 -0.1509318 0.2555765 48 48 48
0.14160069757241 -0.0745438931674209 -0.0363624701808925 0.332082 -0.860763 -0.3857571 93 93 93
-0.0395533269983379 -0.0763070578416584 -0.0288362110096544 0.1540957 -0.7769459 -0.6104175 159 159 159
0.138416046947264 0.0148495466424887 -0.0103117568734774 0.7835987 0.553654 -0.2818517 117 117 117
0.0931154725033259 0.0679717205133796 -0.0297362863819252 0.4661319 0.5595978 -0.6852527 142 142 142
0.0421409244918469 -0.0958717195387122 0.0148278733150009 0.03081034 -0.8781503 -0.4773916 147 147 147
0.137479918587998 -0.0673751702547372 -0.0564621266501547 0.4146171 -0.8421316 -0.3448291 96 96 96
-0.00374768215695021 -0.0429630433863273 -0.0905330352344125 -0.05021052 -0.7846956 -0.6178445 130 130 130
-0.0369261940516425 -0.0099014491309154 -0.0804463484975672 0.03747003 0.4033039 -0.9142986 170 170 170
-0.132667638826109 -0.0676647234039944 -0.0175410681176275 -0.6591253 -0.7036643 -0.2653494 94 94 94
-0.0836214701871145 -0.0813341114318265 -0.0131845076279389 0.08280324 -0.9664948 -0.2429639 75 75 75
0.0438335201202755 -0.00398195052434291 -0.0826056483042791 -0.01137357 0.4268126 -0.9042686 172 172 172
-0.169872746867223 0.00229538596041579 -0.0568505464154645 -0.3814626 0.8954144 0.2296069 129 129 129
0.099939537195799 -0.0795341168963544 -0.0559864286325712 0.008699523 -0.9174701 -0.3977096 139 139 139
-0.0482291913368913 0.0288762569628948 -0.0665576973779813 0.02803448 0.4307073 -0.9020562 196 196 196
-0.0170930887966962 0.0968549849961298 -0.0281243305390783 0.06101415 0.4028439 -0.9132327 198 198 198
0.122603925897425 -0.0171649669575867 -0.0889401778853462 0.1225651 0.6377165 -0.7604573 218 218 218
0.0484365279490468 -0.101919063008733 0.0294268557260261 0.009184065 -0.9405862 -0.3394308 51 51 51
0.167119421421909 -0.085850707245881 -0.00110963820006868 0.3122836 -0.7858471 -0.5337821 94 94 94
-0.0916975783150211 -0.0397819073726885 -0.0865099550355553 0.1532756 -0.8598896 -0.4869256 163 163 163
0.119651165039837 -0.0834733105501052 -0.0393309282810226 0.3381275 -0.8556194 -0.3918996 123 123 123
-0.188343757244608 -0.0220824597421099 -0.0537103040843596 -0.9807326 0.03103684 0.192874 67 67 67
-0.0973215586290967 0.0441772204385804 -0.0594061962228556 -0.09891514 0.5708616 -0.8150661 163 163 163
-0.0580064300238412 -0.0938197323685729 0.0120528636417473 -0.08113789 -0.9734442 -0.214063 79 79 79
0.162639645954569 -0.0490449579925224 -0.0286476622918273 0.9915027 -0.1182598 -0.05419391 79 79 79
0.152691223204196 -0.0845639447834394 -0.0120441344605707 0.3955122 -0.6965646 -0.5986384 201 201 201
0.0997894442787146 -0.0831821885316614 -0.0449020055961228 0.03687404 -0.9597698 -0.2783561 145 145 145
-0.143154343409149 -0.0278869713004785 -0.106882407247684 -0.1654934 -0.7985207 -0.5787716 131 131 131
0.144314230890085 -0.101749349652105 0.0174948827048261 0.4124955 -0.8218981 -0.3928497 40 40 40
0.165674703559207 -0.0334810212885086 -0.0146852944226948 0.9980082 0.04019216 -0.04862357 112 112 112
-0.00400651376367245 -0.0859580161604578 -0.0189757045698195 -0.2206035 -0.7533054 -0.6195685 147 147 147
0.152276960907007 -0.0788747122618809 -0.0177107624157802 0.2876689 -0.7806234 -0.5548636 160 160 160
-0.147363428838526 -0.0128156481318263 0.0201521256324785 -0.7358874 0.5319434 0.4189343 94 94 94
0.136471712483105 -0.0329283182834376 -0.0978292822512728 0.4679064 0.6403785 -0.6090804 210 210 210
0.00964375147926955 0.123653993735484 -0.00370103178323533 -0.2735123 0.4313137 -0.8597438 167 167 167
0.134566547629409 0.0546484408869631 0.0535512711795385 0.6037396 0.7855589 -0.1356308 127 127 127
0.165202766942336 -0.0867647409996903 0.0262303854732224 0.9099399 -0.03370579 0.4133683 59 59 59
-0.147662950238722 -0.0449378108504607 -0.0598382562157335 -0.2347025 -0.9123273 -0.3355198 128 128 128
-0.159406229006045 0.00367712589315972 -0.0444968166498434 -0.8717391 0.4741646 0.1234458 137 137 137
-0.0741033307360186 -0.101217590624011 0.0399286044665383 0.06114832 -0.9466839 -0.3163075 66 66 66
0.108454057194344 0.0695455228732271 0.0272543689728835 0.7548434 0.6019574 -0.2604974 133 133 133
-0.109960062356997 -0.0135412790953459 -0.0978094465650965 0.09026235 0.5178554 -0.8506929 237 237 237
-0.0166425205883121 -0.0963874480070922 0.00928520361587382 -0.1702465 -0.976658 -0.1309779 68 68 68
0.012471060101789 -0.064169645935982 -0.0749294122207046 -0.3311028 -0.1565455 -0.9305184 143 143 143
-0.0141539928785477 -0.0543416806040746 -0.0665604580159378 -0.09524378 -0.5846558 -0.8056713 177 177 177
0.048085919661101 0.0631750431958465 -0.0439784808883431 0.1195672 0.6778551 -0.7254075 150 150 150
-0.00495962824175455 0.125324955228185 -0.00298449639016934 0.3512454 0.5994584 -0.7192193 112 112 112
0.158883992035712 -0.101452671739681 0.0273231415598005 0.1615209 -0.9868681 0.001522725 52 52 52
0.05192434579974 -0.045637803479317 -0.0980603530593753 -0.4693918 -0.3043765 -0.8288705 203 203 203
-0.0445604602618705 0.101929254188648 0.0394061496645044 -0.3696705 0.8523348 0.3699583 46 46 46
0.0391415106078896 -0.0803952778348356 -0.019568961874867 0.1714967 -0.8967115 -0.408041 156 156 156
-0.13892156267711 0.0160613967814653 0.0358572005081808 -0.9995642 0.02611532 0.01376391 118 118 118
-0.0457978985690057 0.111060757131948 0.00856185123225872 -0.3860138 0.819645 0.4232912 76 76 76
-0.130324745492494 0.0187027597140158 -0.077315342224713 0.3033817 0.7115757 -0.6337346 162 162 162
0.153430302449537 -0.0948336440809084 0.00922805423122774 0.3073798 -0.8745809 -0.3750012 111 111 111
0.0351232651429734 -0.0170155080313223 -0.0842104254288342 -0.3032989 0.3775729 -0.8748991 175 175 175
0.0132750413271481 -0.0492127608250086 -0.0885786369223043 -0.1154028 -0.8085939 -0.5769386 126 126 126
0.123569514544158 0.0722684765464636 0.0765965355974808 0.7656553 0.643227 0.005566711 132 132 132
-0.157111482562213 -0.00950478731010351 -0.0031730149319654 -0.5374753 0.7023818 0.4666691 78 78 78
0.0877686310403236 0.0265985465595718 -0.0627514735901955 0.2742983 0.743356 -0.6100674 228 228 228
0.124590681312942 -0.0720685836985664 -0.0602936977539577 0.3762738 -0.8571901 -0.3516294 192 192 192
0.16794628910522 -0.0452359278488659 -0.00862941097526312 0.9876714 0.0792886 -0.1349759 123 123 123
-0.00504689959115012 0.132438094985611 0.0092429769043782 -0.3497901 0.8751577 0.3342842 121 121 121
0.00802491309151687 0.113537134421586 0.0959161300715828 -0.3162972 0.9452087 0.08084936 77 77 77
0.0977125528180474 -0.0991222557410982 0.00338565671768604 0.05534001 -0.9395009 -0.3380468 63 63 63
-0.0831118589686715 -0.0660417100444234 -0.0485659432806431 -0.08836298 -0.7876512 -0.609752 175 175 175
-0.156265256805688 0.00389548315479549 -0.0949227872337359 0.08299408 0.5427958 -0.835754 163 163 163
0.0377766158314032 0.0243194618375373 -0.0745884550618822 -0.2139416 0.5596688 -0.8006246 140 140 140
-0.115238504076934 -0.064039634552622 -0.0455808913637043 -0.3362401 -0.7720001 -0.5394056 237 237 237
0.114366552199817 -0.0842343793133496 -0.0412009245206411 0.06382599 -0.9312809 -0.3586673 95 95 95
0.165952303351359 -0.0627014674621713 -0.0135531392440789 0.9518008 0.1480465 -0.2686214 132 132 132
0.0579008996395443 0.00326553510223637 -0.0810716943644181 -0.1343871 0.3352652 -0.9324899 155 155 155
0.149928398044054 -0.019117095528581 -0.0608532702378301 0.7030038 0.5445579 -0.4574301 143 143 143
0.0819570080776764 0.118205661565418 0.0571290366748022 0.8137212 0.5695804 -0.115914 125 125 125
0.129486506467202 -0.0487674965972372 -0.0931032710142892 0.3186377 -0.856236 -0.4066079 115 115 115
0.0539414669914446 -0.100156864583824 0.0203736972105053 -0.1553519 -0.959186 -0.2362797 62 62 62
-0.15340409564193 0.0268984632799977 -0.0633142935261453 -0.9293296 0.267018 0.2550451 65 65 65
-0.116106044450646 -0.0415113200884559 -0.0849678571362345 -0.1022242 -0.9315787 -0.3488715 118 118 118
0.0546312221399363 -0.0832126142092953 -0.0224491069768972 -0.3797842 -0.8593877 -0.3423694 100 100 100
-0.155557568550638 -0.0526923445220515 0.0180251963196533 -0.8971472 -0.2342126 0.374528 34 34 34
0.0922727758407045 -0.0838240581967422 -0.0394879335605496 -0.1596359 -0.9812065 -0.1083981 115 115 115
-0.0697348794784314 0.000171271835203157 -0.0816345160566094 0.227309 0.3416901 -0.9119092 196 196 196
-0.158158429149577 -0.0683573394588746 -0.00304010623647502 -0.5985284 -0.7847493 -0.1610349 184 184 184
0.0499099112324188 -0.0781146230110167 -0.055287243451212 -0.1520545 -0.9819173 -0.1127735 148 148 148
0.136987260672667 -0.0898633514959369 -0.0135481273595036 0.3569189 -0.7174146 -0.5982684 230 230 230
-0.0265195171081913 0.100838068050438 0.0550410909143295 -0.4609054 0.874932 0.1485269 72 72 72
-0.174404984900696 -0.0244513360918798 -0.0108348822506339 -0.8230572 0.3559375 0.4425894 57 57 57
-0.0276511821842669 -0.088729311711905 0.000906657481824419 -0.1607971 -0.8950503 -0.4159678 57 57 57
-0.0676516993842475 -0.103263622645937 0.0437861977947018 -0.02570369 -0.9186906 -0.3941409 144 144 144
-0.141247101967835 -0.0373796539796173 0.0412523886012425 -0.9614416 0.1891332 0.1996463 63 63 63
-0.159057865603915 -0.0619222064142326 0.00601152706771652 -0.9189305 -0.1896629 0.3458246 53 53 53
-0.145164987307604 0.0307816584644105 -0.0361747152001228 -0.8979384 0.3915972 0.2008934 128 128 128
0.12787966823065 -0.058778540368656 -0.0818644555885574 0.4279764 -0.7209764 -0.5450038 154 154 154
-0.130700424214161 0.047739870447385 -0.0539548492320123 -0.05047608 0.413231 -0.9092262 114 114 114
0.144784295971606 -0.0247867216944474 -0.0821718975313841 0.8024554 0.5812528 -0.1349467 77 77 77
0.0625666126309214 0.0871683993564052 -0.023519855962218 0.07758321 0.55111 -0.8308181 211 211 211
-0.06188078215314 -0.099925108440011 0.03699197862464 0.006924171 -0.9452065 -0.3263995 53 53 53
-0.122735599625964 0.0206057760380032 0.0587017608610144 -0.8686329 0.3198194 0.378408 70 70 70
-0.159339470267754 -0.0527205143411281 0.0086784355296888 -0.9126096 -0.2326067 0.3362111 57 57 57
-0.158428835814412 -0.0512011850627896 0.0112659092531514 -0.9174371 -0.171396 0.3590717 73 73 73
-0.0125931628794178 -0.0633241527947923 -0.0564041416199756 -0.05305013 -0.993514 -0.1005766 63 63 63
-0.140632754671928 0.00288533695617876 0.0186118466442284 -0.9934916 -0.1106632 0.02698218 141 141 141
-0.095572141060972 -0.0359129641277806 -0.095764429308328 0.1606587 -0.8038048 -0.5727884 143 143 143
-0.125389024296589 -0.0470787136067866 -0.0656633639229348 -0.3511892 -0.8831656 -0.3109416 126 126 126
0.0667837481998328 -0.0257650959264785 -0.0942124894691893 -0.05666279 0.7807939 -0.622214 223 223 223
-0.178941886267237 -0.0238114129044326 -0.0237426641655374 -0.7620467 0.6095279 0.2185419 153 153 153
-0.0661628838266823 -0.10115578827365 0.0398181450322986 -0.006205112 -0.9413111 -0.3374832 45 45 45
0.162940307955074 -0.0212670346902627 -0.0381297511861736 0.7774592 0.5844149 -0.2324142 105 105 105
-0.173142367413332 -0.0476466711535997 -0.027769350988114 -0.9188829 -0.2900219 0.2674725 116 116 116
-0.13173525995271 -0.034835172102637 -0.0965357987002931 -0.1595339 -0.9212944 -0.3546344 121 121 121
0.0435425602480786 0.14686706918449 0.0359699610629473 -0.542447 0.7230514 0.4277242 84 84 84
-0.123913519772136 -0.0382029502089095 -0.0913343062877031 -0.1848525 -0.9152776 -0.3579057 83 83 83
-0.104576607761991 -0.0478426251935719 -0.0683194236849382 -0.07771786 -0.8857058 -0.4576955 169 169 169
0.168088967782235 -0.0148027309060799 0.044077358786359 0.9693275 -0.04279866 0.2420175 43 43 43
-0.0429694028575436 0.0865813587321607 -0.0372394169644527 0.2441597 0.4693372 -0.8485922 179 179 179
-0.0234002490087009 0.112331029784317 0.036949975999658 -0.4855058 0.7867729 0.3811463 63 63 63
-0.100200228666917 -0.0949445088422186 0.0171655164065705 -0.1571697 -0.9444336 -0.2886915 124 124 124
-0.0258146352606889 -0.0952678639121339 0.0197414033916406 -0.01103481 -0.9969089 0.07778701 58 58 58
0.119093635125658 0.0141660759704128 -0.0585247164714911 0.7340862 0.6391149 -0.2294554 82 82 82
0.152612887831072 -0.101068972420866 0.021371920440378 0.1470918 -0.9031417 -0.4033597 99 99 99
-0.146525077084687 -0.0592749663380617 -0.0405799806453945 -0.2178748 -0.8924375 -0.3950772 151 151 151
-0.154803737655616 -0.0648797388044033 -0.0157682610384741 -0.0564266 -0.9850655 -0.1626715 60 60 60
0.138921801180333 -0.090568774497061 -0.0113773213627788 0.3907159 -0.7282091 -0.5630742 150 150 150
-0.0236822754057107 0.0972238858250402 0.0883086596317956 -0.5361958 0.8406177 0.07652386 72 72 72
0.0248586663621322 -0.0218898708185543 -0.0857250142059157 0.04521791 0.4262982 -0.9034519 166 166 166
0.0870847225399682 0.0969281601431838 0.0179076066045187 0.7866813 0.5459705 -0.2881819 138 138 138
0.0472055429722253 0.0587649504286059 -0.0480719818316675 -0.08846931 0.7590029 -0.6450486 117 117 117
-0.105794409959162 -0.0855525712462799 -0.00843309378671125 -0.1291528 -0.8594466 -0.4946423 132 132 132
0.0888083611455204 -0.1007143140517 0.0311947563738764 -0.02772563 -0.9659411 -0.2572723 45 45 45
0.0982609165751374 0.0918182869176556 0.0426452252629429 0.8498486 0.5158289 -0.1080649 95 95 95
-0.0718241775218349 0.0892056145833824 0.0395810532792538 -0.4467711 0.8225871 0.3517756 206 206 206
-0.14636757359863 -0.05478152408957 -0.0469226102356486 -0.224311 -0.6722667 -0.7055084 135 135 135
-0.121051679074901 -0.000723949662664869 0.066996026680072 -0.8678527 -0.06591622 0.4924294 181 181 181
0.149144843454643 -0.0690840620457278 -0.041784499936702 0.406045 -0.8105427 -0.4220758 68 68 68
-0.0766845780678329 0.0907968564226468 0.033012809041077 -0.4604742 0.7075895 0.5359856 172 172 172
0.129632069935974 -0.0371240708360593 -0.104440290212014 0.4080896 0.5056483 -0.7601202 242 242 242
0.129297296016199 -0.0680252837918001 -0.0638606170286203 0.4048856 -0.8123564 -0.4196961 112 112 112
0.0236825700665917 -0.09147475994194 -0.00324922576349518 0.2093383 -0.8712751 -0.4439113 156 156 156
0.166783722331608 -0.0917042800662499 0.00586482983021383 0.582956 -0.7205248 -0.3755081 206 206 206
-0.149749734669641 -0.043650952314459 -0.0617743208046482 -0.149472 -0.9464248 -0.2862483 83 83 83
-0.185705728391614 -0.0369764727288808 -0.0662386461134799 -0.4222571 -0.8787549 -0.2224608 93 93 93
0.0213043900986505 -0.0520427401340408 -0.086309413519665 -0.2032425 -0.647601 -0.7343742 163 163 163
0.166570830400289 -0.0284857513913681 -0.0018802195366216 0.9862047 0.05538102 -0.1559913 116 116 116
0.0869928638205808 -0.101715810623874 0.0100523831176194 -0.02360473 -0.9321685 -0.3612545 101 101 101
0.0873341766114977 0.0698244883250322 -0.0305262553868662 0.2256012 0.6659285 -0.711086 126 126 126
0.0160354559484763 -0.0843677226519421 -0.02163017204634 0.02699764 -0.8344277 -0.5504557 94 94 94
-0.0115108422435521 0.119218693232712 0.0315666559200064 -0.3925239 0.8971536 0.2025843 32 32 32
-0.13325143650808 0.0258691201987329 -0.069561075653742 0.3202252 0.6764977 -0.6631792 148 148 148
0.167910563017225 -0.0256697133569562 0.00908354493444402 0.9677987 0.03228103 -0.2496469 83 83 83
0.0169837770351524 -0.0883530049754507 -0.0131927694406495 0.1672487 -0.8466809 -0.505133 151 151 151
-0.122710008009622 0.0252014609104627 0.0611234403111837 -0.9936209 -0.02984771 0.1087505 68 68 68
0.0595925599497233 -0.0912588565533092 -0.0029269682136554 -0.3199728 -0.8495569 -0.4193692 154 154 154
-0.0742256042866192 -0.0496418642188219 -0.0752742023796097 -0.03343776 -0.8739995 -0.484775 75 75 75
0.132661207379301 0.0440874487210374 0.0208892545137801 0.7696821 0.6020241 -0.2125004 117 117 117
0.0397737506129165 -0.0488814894997407 -0.093177342950069 -0.2929109 -0.5692558 -0.7682129 149 149 149
0.123991702742754 -0.0268989344278535 -0.095751142102798 0.3055069 0.7171038 -0.6264404 210 210 210
-0.104631111878194 -0.0171219794990195 -0.0995385512750368 0.09738424 0.5316913 -0.8413208 214 214 214
-0.143669922919605 -0.0354496338727968 -0.0906168698908087 -0.1850528 -0.9245558 -0.3330946 143 143 143
-0.154874543812864 -0.0716649371853135 0.00201196528944625 -0.3541961 -0.8331243 -0.4247929 100 100 100
-0.0817395137499757 -0.0515024532001039 -0.066181278075037 -0.07917944 -0.9007655 -0.427027 73 73 73
-0.0977708728860427 -0.0820867257745116 -0.0189889622067549 -0.0267524 -0.9081274 -0.4178383 206 206 206
-0.105574983758491 -0.0447150780575426 -0.0795442844475691 -0.08295409 -0.9210795 -0.3804357 117 117 117
-0.0611126794354528 -0.0533592027938238 -0.0685815479118868 -0.07631478 -0.9531987 -0.2925549 86 86 86
-0.10231483515379 0.0801869764398538 0.0304182242668666 -0.4877801 0.7942445 0.3622793 176 176 176
0.146695373866836 -0.0489553850928585 -0.0834997814442433 0.08679558 -0.8821286 -0.4629424 149 149 149
-0.0521813390588113 -0.085882163589364 -0.0100262899266304 -0.03559495 -0.9004388 -0.4335239 128 128 128
0.0367728295574228 -0.0823540795075941 -0.0167613609990766 0.3003399 -0.8806821 -0.3663265 127 127 127
-0.149097031322575 -0.0797446438716337 0.0115054156991965 -0.3169747 -0.8074374 -0.497566 91 91 91
0.12928405384381 -0.0464458545731712 -0.100870569763947 0.434984 -0.7993619 -0.414499 195 195 195
-0.114152615914599 -0.096887789343224 0.0224675714433259 -0.04509613 -0.8237721 -0.5651246 84 84 84
-0.127455068374 -0.0763344007946771 -0.00457426054119403 -0.2909488 -0.9224067 -0.2539975 106 106 106
-0.0417465224325766 -0.0395494498999347 -0.0917074697515986 -0.06793687 -0.7957919 -0.6017473 134 134 134
-0.128572014630548 -0.0475955197617658 -0.0614251899313839 -0.3042425 -0.8280224 -0.4709728 97 97 97
0.147299078927503 -0.0123815660223682 -0.0573769518461009 0.789265 0.5269662 -0.315226 84 84 84
-0.140817557313863 0.00552413536687957 0.00636449131558153 -0.9914667 0.001625843 0.1303502 150 150 150
0.164536730195184 -0.0354736465110006 -0.0520228844516135 0.959143 0.1426808 -0.244309 93 93 93
0.121051681617134 -0.0181336448716422 -0.090051644720562 0.1108082 0.5752084 -0.8104671 129 129 129
0.169036670417811 -0.0517389862014247 -0.00131652618059322 0.9886804 0.03654223 -0.1455191 128 128 128
0.159143004117301 -0.0153633373537689 -0.0316158342718897 0.5334966 0.7932929 -0.2933733 99 99 99
0.078153167273975 -0.0759004951740689 -0.0592151753542151 -0.1139681 -0.9732016 -0.1997245 73 73 73
-0.0362308698140161 -0.048887435926023 -0.0740776347500239 0.006220149 -0.9207903 -0.3900085 171 171 171
-0.123322979243997 -0.0654001965429923 -0.0392252841986216 -0.1292287 -0.8469483 -0.515731 175 175 175
0.146298792050836 -0.0617558992024126 -0.0577905373908166 0.2923818 -0.8524393 -0.4334283 87 87 87
0.100439772126943 -0.0214479023735059 -0.0961281423263672 0.06156942 0.5865299 -0.807584 160 160 160
0.129027699054317 0.0440796849455892 0.00829842460162084 0.7644759 0.5685975 -0.3037657 126 126 126
-0.0954245206712501 -0.0315458411952211 -0.0994329110927683 0.1284012 -0.6537319 -0.7457531 189 189 189
0.0540320938977668 0.0938375709997076 -0.0205413969908463 0.06691716 0.401661 -0.9133403 238 238 238
0.0282464339111748 -0.0933995206745811 0.00118017774908688 0.2949384 -0.7781722 -0.5544902 197 197 197
0.113867476294008 -0.0250037426257852 -0.0984304982387168 0.03351476 0.7018169 -0.7115685 225 225 225
-0.14156416065437 0.0344517843738276 0.0293715708904183 -0.9832925 -0.120559 0.1363867 56 56 56
0.0285409156413357 0.0116069131894874 -0.0725640634487191 -0.4926995 -0.1648098 -0.8544501 235 235 235
0.0392483795567617 -0.0990591479009244 0.0197288701357315 0.2114977 -0.8478342 -0.486257 106 106 106
0.087732773539472 0.0486465793054232 -0.0524477781706556 0.4208591 0.6008159 -0.6796307 249 249 249
0.0644573688759862 -0.0809779080048093 -0.0325981635924481 -0.2165452 -0.8515797 -0.4774099 106 106 106
0.167122259523856 -0.0641134540831904 -0.0116705536095094 0.9694366 0.08874708 -0.228728 133 133 133
0.033787152649837 0.0612381685344241 -0.0497144169959699 -0.03430597 0.6444083 -0.7639117 208 208 208
-0.0480437854388152 -0.0857980775481284 -0.0113490845027527 -0.02712665 -0.9221768 -0.385816 117 117 117
-0.139405898162816 -0.0837766337232519 0.020564083947299 0.01468069 -0.8816358 -0.471702 88 88 88
0.148590228797191 0.0370378719155069 0.0429623312094781 0.6514664 0.6399212 -0.4075442 169 169 169
-0.183224693711811 -0.0296196910443827 -0.0360016891546108 -0.8949586 -0.3557437 0.2692502 107 107 107
-0.085380430280646 0.0860103753270243 0.0290103590826093 -0.4029857 0.8068098 0.4320422 155 155 155
0.111911054613437 -0.100757013773071 0.019952205478724 -0.2088203 -0.971822 -0.1093438 86 86 86
0.110944582069042 -0.0115788421437052 -0.0869008443264066 0.2721938 0.6390919 -0.7193553 194 194 194
-0.0959922555563506 -0.0720352315529469 -0.0388662511135971 0.2626273 -0.8235994 -0.5027037 218 218 218
0.0917407060138657 -0.0794779683448583 -0.0559481029243424 -0.03520884 -0.9380135 -0.3448058 183 183 183
-0.00293446970046052 -0.103176948672234 0.0213054832625271 -0.2604333 -0.8997838 -0.3500907 89 89 89
0.141751168465431 -0.085594996164354 -0.0137868539632835 0.3696936 -0.6757758 -0.637694 152 152 152
-0.152401929855003 0.00952131440109016 -0.0346255819545193 -0.8057298 0.4480228 0.3873951 55 55 55
0.162156944853219 -0.0553393994330909 -0.0233762421627974 0.9898229 -0.0381319 -0.1371003 73 73 73
0.161671590534749 -0.0885857157894457 0.000402360079895775 0.1508597 -0.8037968 -0.5754582 93 93 93
-0.15799055515869 -0.0126417056579303 -0.105794351065952 0.05454301 0.4591775 -0.8866686 154 154 154
-0.127614337184268 0.0776626905450082 -0.0176987202914109 -0.7324598 0.6799996 0.03321222 82 82 82
-0.082043670855052 -0.0454339641183267 -0.0801670763405747 -0.00302183 -0.7259434 -0.6877478 168 168 168
-0.029826882162955 0.127551570523887 -0.0105068428470235 0.1101413 0.7556396 -0.6456607 144 144 144
-0.0524470838384667 -0.00518404121448501 -0.0811002865007179 0.06108027 0.3690506 -0.9274001 181 181 181
-0.193948978761719 -0.00752685785094498 -0.0919960275855955 -0.8403044 0.4949113 0.2212495 75 75 75
-0.139150908247856 0.0492475590744126 -0.0520676521421375 -0.5933726 0.6458798 -0.4803625 149 149 149
0.044176767533886 -0.103087506121583 0.0352544899659724 0.03190773 -0.9866322 -0.1598086 43 43 43
-0.00714645379955314 -0.0297473741803314 -0.0950187654568424 0.1785774 0.4900256 -0.8532204 173 173 173
0.0778871215894266 0.121566466132386 0.0490775816798169 0.8171622 0.5763697 0.006621829 115 115 115
-0.133340019494313 -0.0388319723043695 0.0538507882572778 -0.8771378 0.1501206 0.4561722 31 31 31
0.0822362481854122 0.109303502905319 0.0872010085405917 0.6461978 0.7076612 -0.2857343 122 122 122
-0.131767517275229 -0.0172001164221023 -0.105663162723776 0.205344 0.4052481 -0.8908467 212 212 212
0.167915126248293 -0.022509063793578 -0.0299227979598961 0.8812063 0.3831221 -0.2769347 85 85 85
-0.111945132888621 -0.0978985021659572 0.024473675309675 0.0220537 -0.8628007 -0.5050629 60 60 60
0.108802467441178 -0.0786420383449777 -0.0560820656375506 0.1166737 -0.9167898 -0.3819472 175 175 175
0.0557792743216474 0.0274495028002625 -0.0706149326425093 -0.02980356 0.3903375 -0.9201893 204 204 204
0.0392597617088057 0.0317069866747213 -0.0691926625673755 -0.211828 0.4861879 -0.8477914 184 184 184
-0.109262862213355 0.0846216958484304 -0.0393341661122822 0.02298718 0.1364648 -0.9903782 132 132 132
0.105853587275148 0.0900795553565689 0.0643270016799543 0.6304516 0.7167326 -0.2980355 145 145 145
-0.128990488702216 -0.0646955231826846 -0.0383023480135223 -0.2345375 -0.8777469 -0.4177949 208 208 208
-0.087325597601827 0.0793739587620634 0.0446613372445764 -0.3456113 0.8752142 0.3384566 92 92 92
-0.00227096117876524 -0.106044321165958 0.039998278942129 -0.0004551149 -0.9999865 0.005176036 49 49 49
0.056782728992141 -0.084689156586739 -0.0216476676471894 -0.3860248 -0.8620074 -0.3285239 89 89 89
0.140868567267563 -0.0915155128802619 -0.00870053834701223 0.3995454 -0.7901797 -0.4647359 78 78 78
0.0333506009997406 0.111391332482861 -0.0138417740685 -0.2101165 0.5919418 -0.7781104 145 145 145
-0.183221671830544 -0.0348134690901942 -0.0745084728138453 -0.2398742 -0.9379829 -0.2502966 130 130 130
-0.10072051678925 -0.0955386612764855 0.0198149758689562 -0.171933 -0.9191922 -0.3542947 124 124 124
0.118950843542866 -0.0600058434720833 -0.0867747668658454 0.3426313 -0.7683976 -0.5405264 117 117 117
-0.034769592317021 0.0302452981683007 -0.0632660310286157 0.4294758 0.5227988 -0.736364 171 171 171
0.161890638017912 0.0122894634020156 0.0297678058916685 0.6118127 0.5974403 -0.5184113 117 117 117
0.0878829975612088 0.106946341428501 0.106989709212996 0.6592712 0.6910445 0.2963426 59 59 59
-0.103867002009359 -0.078442104621698 -0.0277114739751995 -0.09632125 -0.8687857 -0.4857299 228 228 228
0.119773499177096 -0.0976787296328692 -0.00545734053555699 -0.1849694 -0.9094474 -0.3724135 123 123 123
0.0837629944220053 0.00880696684358084 -0.0811128593224154 -0.1550835 0.6625394 -0.7327965 215 215 215
0.108357668147349 -0.0412106447647217 -0.106481776896358 -0.03435469 -0.1715955 -0.9845683 249 249 249
-0.00918346395896963 -0.0971692953960831 0.00683101107889728 -0.1569894 -0.9705929 -0.1824931 197 197 197
-0.0672480802084796 0.0457512769542957 -0.0553448949931192 -0.06423049 0.5970594 -0.7996215 223 223 223
0.0100462042269718 -0.0879712532114499 -0.0165146619770892 0.127627 -0.7867356 -0.6039524 182 182 182
0.0764742969533385 -0.0654944182116127 -0.0813685668357666 -0.1193956 -0.8420177 -0.5260713 134 134 134
0.109945958194893 -0.0988859441010312 0.00391641678004678 -0.00604045 -0.9880348 -0.1541128 51 51 51
0.123737374152889 -0.101746462581744 0.0143796968799202 -0.1397831 -0.9719802 -0.1889848 72 72 72
0.146750317384718 -0.102122164408478 0.0336589060962859 0.2240176 -0.9564022 -0.1873789 89 89 89
-0.153604529110098 -0.0393136031886603 -0.0768851207322338 -0.1194214 -0.9564669 -0.2662886 145 145 145
-0.0337536778345053 0.041620711536012 -0.0539555491624719 0.2689769 0.5113855 -0.8161717 208 208 208
0.146454355519294 -0.00979170370474969 -0.0388512497102583 0.6505141 0.6951563 -0.3059236 109 109 109
-0.0180689125257465 -0.00267566238372641 -0.0742475157862537 0.2102572 0.4982538 -0.8411511 123 123 123
0.0968834972228856 -0.0599530633215887 -0.0922834235619324 -0.07607492 -0.852658 -0.5169013 136 136 136
-0.0786329495287372 0.0876198569262544 -0.0385296200917789 0.1271517 0.3321374 -0.9346214 207 207 207
-0.0281861244331099 -0.0120698066516476 -0.0815848311394192 0.06714552 0.601642 -0.7959387 121 121 121
0.00637078420709036 0.0719303726594355 -0.0397910769342606 -0.1768779 0.5233669 -0.8335475 116 116 116
-0.119299218927042 -0.0807098834978652 -0.000515906806481475 -0.4121941 -0.8711714 -0.2667516 179 179 179
-0.17750341505557 -0.0380913931088224 -0.0675283642617443 -0.165938 -0.9559616 -0.2420784 117 117 117
-0.0776471399278225 -0.0738624011611375 -0.0362179041939107 0.1534729 -0.9414431 -0.300218 107 107 107
-0.0853777210791624 -0.068379177442958 -0.0427653097414537 -0.2735363 -0.8903338 -0.363983 73 73 73
-0.105652998572051 -0.0733354470254236 -0.0340854590953713 -0.2875826 -0.7962656 -0.5322192 109 109 109
-0.1875613814581 -0.00570232246315805 -0.0764393306043686 -0.572604 0.7345441 0.3641012 87 87 87
0.0662373683520285 -0.0899196381290809 -0.0138784769862413 -0.2329639 -0.939891 -0.2496654 93 93 93
0.162948379929226 -0.0546578592167823 -0.0325334515263885 0.9936188 0.01026564 0.1123223 50 50 50
0.0762862566557798 -0.0402116124476211 -0.104524592038086 -0.02483463 0.05818012 -0.9979972 246 246 246
0.0923178991243354 -0.0705380731287665 -0.0748155380538919 -0.0129853 -0.9350367 -0.354313 244 244 244
0.0574019070841425 0.0233362943027929 -0.0733408830859295 -0.168214 0.5431222 -0.8226314 173 173 173
0.12067008849275 0.0515020218470584 0.00704552078617751 0.4818583 0.874472 -0.05577876 144 144 144
0.0909295112652067 0.091235230809273 0.0216668747420185 0.8860227 0.393592 -0.2450493 76 76 76
0.170179950886013 0.00538157574499176 0.0332933391456911 0.6220638 0.6116104 -0.488845 151 151 151
0.0683166432165199 -0.0800188427184672 -0.0479449204577683 -0.09611747 -0.9946151 0.03875837 136 136 136
-0.114779234589438 0.0615985762963931 0.0434472060847619 -0.7148654 0.5422156 0.4415538 134 134 134
0.153966234676636 -0.000353635086799531 -0.0014286167116315 0.673984 0.6733533 -0.3038765 111 111 111
0.11988575746762 -0.0510936764280163 -0.0983911604623637 0.2943868 -0.833199 -0.468098 165 165 165
-0.179568646941962 -0.0369236839219691 -0.0702671620363781 -0.2021202 -0.937095 -0.2846057 81 81 81
-0.189115832073773 -0.0226135729562499 -0.101419129257958 -0.09761684 -0.8651187 -0.4919761 132 132 132
0.0349664008609967 0.145126689047256 0.0162127956807291 -0.07739034 0.554243 -0.8287494 221 221 221
0.0300021499844787 0.130594488402143 0.0753786818713573 -0.3907647 0.9090464 0.1446987 91 91 91
0.102421539032896 -0.0804906467783876 -0.0520236449353036 0.03060238 -0.9615408 -0.2729521 83 83 83
0.0144365754724549 -0.0869192176275928 -0.0169747260075105 0.1260529 -0.843385 -0.5223144 142 142 142
-0.133723527622298 -0.0413052391638419 -0.0796283475124413 -0.1608313 -0.9052714 -0.3932137 168 168 168
-0.165836595455764 -0.0371741810507793 0.00246042929480458 -0.9333564 -0.1215849 0.3377321 25 25 25
0.131878452655615 -0.027610267581462 -0.0937311347149417 0.2227956 0.7107038 -0.6672798 167 167 167
-0.131223471536695 0.0732826085846726 -0.0203740366214238 -0.8002844 0.5907535 0.1027388 126 126 126
0.146397610114507 -0.0600322727464943 -0.0618334614426152 0.2703921 -0.8953506 -0.3538863 111 111 111
-0.164718335051168 -0.0572288721284089 -0.0143584712886705 -0.9311854 -0.3409664 0.1289796 74 74 74
0.146300229488236 -0.011974476083475 -0.044531110663645 0.5900022 0.8059323 -0.04868724 62 62 62
0.119394200525024 0.0765799875736195 0.075125893674473 0.8055373 0.5894032 -0.06093835 114 114 114
-0.135634020786062 0.0240218478756847 -0.0730580763479312 0.2815287 0.7074974 -0.6482199 191 191 191
-0.165556332480898 -0.0293514124971699 -0.0938996737462079 -0.224606 -0.896444 -0.3820212 99 99 99
-0.125832051499155 0.0494154807145808 -0.0544500641632955 -0.09966245 0.4141366 -0.9047421 148 148 148
-0.0820502228142708 -0.0151148104645311 -0.0935303384031475 0.1265109 0.5581222 -0.8200577 201 201 201
-0.0574337198056929 -0.0761539200362396 -0.0269725993710179 -0.100865 -0.8784429 -0.4670805 235 235 235
0.106354923582088 0.0790540227044985 0.0401809575404674 0.767729 0.5615647 -0.3086053 156 156 156
-0.0756667654895615 -0.0948701642914892 0.0246803699437173 0.01280678 -0.910848 -0.4125432 75 75 75
-0.148172443567756 -0.0709335340047521 -0.000465908834106993 -0.1423048 -0.8521855 -0.5035168 123 123 123
-0.132418150897903 -0.0541492583373391 -0.0545181568876449 -0.1159324 -0.7155231 -0.6889023 160 160 160
-0.136537950937585 -0.0808914043203803 0.0118749934081597 -0.07425705 -0.9105008 -0.4067852 83 83 83
-0.0458021563991378 -0.0464593929580565 -0.0792766459826489 0.00757076 -0.8284928 -0.5599486 143 143 143
0.0523035417283637 -0.07554091914996 -0.0640578316068983 -0.181483 -0.7886848 -0.5874013 200 200 200
-0.087063487878587 -0.0965706399463355 0.0235184683734246 0.2989767 -0.8743007 -0.3823759 53 53 53
-0.0675003055443129 0.0753265102198689 0.0810158752022845 -0.539632 0.7903977 0.289946 65 65 65
-0.0628799567503271 -0.0513992378540939 -0.0742668310161316 -0.06625536 -0.8979331 -0.4351165 151 151 151
0.0784047923401312 -0.0681329320373601 -0.0770554559718428 -0.0936495 -0.8610899 -0.4997539 89 89 89
-0.186397947910725 -0.00707790866141444 -0.0675834937010962 -0.743407 0.6645274 0.07582489 123 123 123
0.0405145954593054 -0.0731685174778783 -0.0643608696604393 -0.1307099 -0.8423501 -0.5228395 201 201 201
0.114513896368228 -0.104442117249947 0.0305224233540798 -0.2072273 -0.9451615 -0.2524413 66 66 66
-0.0273172282310359 -0.0688099914068789 -0.0373732604399986 0.1792539 -0.724883 -0.6651411 116 116 116
0.134624691712082 0.00921168612717937 -0.0340320122010593 0.7536613 0.5446625 -0.3678824 73 73 73
0.110614414145362 -0.0827690912652403 -0.0468412558941868 0.01183429 -0.9583455 -0.2853663 115 115 115
-0.0578531100196225 0.0956895939305102 0.0391846690912996 -0.5526659 0.7236156 0.4134499 143 143 143
0.15241058747351 -0.0611143898221445 -0.0571434286118731 0.1124803 -0.9400535 -0.3219434 122 122 122
0.094054981983275 -0.0829045305413573 -0.0474842771507253 -0.06066744 -0.9656916 -0.252506 116 116 116
-0.123155823803494 -0.0874619088613858 0.0198397295644268 -0.4216855 -0.7176768 -0.5541854 65 65 65
-0.0762457797708751 -0.101059935540124 0.0399726637001784 0.1011739 -0.9273586 -0.3602358 70 70 70
-0.0915198012898339 0.0986206509952502 -0.0353391031718409 0.03578541 0.4774274 -0.8779422 211 211 211
0.124947528130393 -0.0748088594063547 -0.0541804673903856 0.4028289 -0.8415937 -0.3597901 204 204 204
-0.0802339928737008 -0.0187924115197257 -0.0959687798940396 0.1381397 0.6164338 -0.7751946 156 156 156
0.073600191812758 -0.0470763145439549 -0.100167378635742 -0.05429146 -0.5062205 -0.8606935 236 236 236
-0.156474855450984 -0.0623153795148195 -0.0253765401206663 -0.265571 -0.8936022 -0.3618662 137 137 137
0.108361933864968 -0.0782207883939735 -0.0574408085940764 0.1367572 -0.9108467 -0.3894302 123 123 123
0.0295144602671176 -0.0873577407937283 -0.00899879284777869 0.3738289 -0.8461681 -0.3798046 158 158 158
-0.122408816946254 0.0747681059115407 -0.043583883222958 -0.06822911 0.337962 -0.9386834 222 222 222
-0.0122065670922593 -0.105995901979919 0.0354353547766429 -0.2571564 -0.925466 -0.2781786 166 166 166
-0.145602264360492 -0.0420599943645077 -0.0689040512793449 -0.01858564 -0.9666056 -0.2555937 114 114 114
0.00435069195218452 -0.0823907211318108 -0.0227721478914272 -0.08834504 -0.6113003 -0.7864522 219 219 219
0.166851139447838 -0.0259495422973482 -0.0339145105247816 0.9344217 0.2284882 -0.27322 143 143 143
-0.10719301754817 0.0514084502323162 0.0692275948096787 -0.633339 0.6305953 0.4485881 102 102 102
-0.144583229323921 0.030257854636512 0.0021636393648041 -0.9510806 0.08812577 0.2961074 108 108 108
0.00194612024474905 -0.0137389092465685 -0.0809928850646997 0.02718343 0.6322829 -0.7742606 127 127 127
0.0658447769875052 0.0995749122349739 -0.0154373708251774 0.2885562 0.5179527 -0.8052703 239 239 239
-0.131128963604358 -0.00313248043680669 -0.0951893944719422 0.4461277 0.5763985 -0.6846421 158 158 158
-0.189441272804485 -0.0306690251562315 -0.0679252222659543 -0.9903897 -0.05501778 0.1268906 108 108 108
0.0170003010204272 0.074424573043155 -0.0406441612975814 0.06867663 0.2946783 -0.9531255 235 235 235
0.0239032820663092 -0.10352795163639 0.0194782506403557 0.1142044 -0.8839745 -0.4533723 170 170 170
0.08861216292784 0.087977595469299 0.00662455012750687 0.8627467 0.4201632 -0.2813024 184 184 184
0.104024775213166 -0.0797241173902221 -0.0546390451423045 0.03947986 -0.9305967 -0.3639109 156 156 156
-0.15332208678472 0.00541796219280022 -0.0262042777674677 -0.8295952 0.5232216 0.1949641 147 147 147
0.126214392414606 -0.0531361885097711 -0.0908503128443919 0.4183155 -0.7122722 -0.5636315 204 204 204
0.144608218560955 -0.0219542910468538 -0.0743088024528519 0.8333679 0.495393 -0.2451198 136 136 136
0.0291084342878114 -0.100931431274514 0.0171634265718158 0.2986425 -0.8479301 -0.4379809 209 209 209
-0.117159063381979 -0.0627651481071223 -0.044769682815314 -0.276655 -0.7837231 -0.5560936 185 185 185
-0.170699697311631 -0.0329733288095136 -0.00558838748909121 -0.856049 -0.1559123 0.4928199 59 59 59
0.17355512304586 0.00529034445095178 0.0373462169662998 0.6990716 0.5499823 -0.4569665 113 113 113
-0.054231707515783 -0.0168032958496187 -0.0889811965987137 0.2085652 0.4898086 -0.8465152 152 152 152
-0.124460824990303 -0.0189124067663423 -0.105239662138706 0.2169478 0.479388 -0.8503651 202 202 202
-0.0847692165026848 0.0618230936994045 -0.046635254663201 0.05371533 0.4813022 -0.8749073 241 241 241
0.00746207096129448 -0.0697088376355193 -0.0414200981923694 -0.1312967 -0.9034371 -0.4081208 245 245 245
-0.0402451947089451 -0.0509144730457433 -0.0705972387357023 0.09955889 -0.8418595 -0.5304344 165 165 165
0.118237252918783 -0.0972679403171983 -0.00538299024127142 -0.1697023 -0.9092869 -0.3799979 137 137 137
0.12358334059588 0.00931287054042018 -0.0565997854911227 0.6017772 0.7970256 0.05113087 101 101 101
-0.0956922329909871 0.0802347512246296 0.0364114642866774 -0.3029822 0.8347421 0.4597906 78 78 78
-0.12220008468307 0.0451877979917819 -0.0552413981799383 -0.04373753 0.4493665 -0.8922762 184 184 184
0.0459908144509034 -0.077422342430032 -0.0552927967173147 -0.2071529 -0.971401 -0.1160508 111 111 111
0.146632021758057 -0.0751463410573514 -0.031345322254 0.4044359 -0.8086066 -0.4273019 82 82 82
-0.0215655591376698 -0.0243122255453551 -0.0927841186289946 0.0003850135 0.6218414 -0.7831431 154 154 154
0.0277207359629248 -0.0522435953489954 -0.0881906568765169 -0.2155431 -0.5745302 -0.7895924 138 138 138
-0.00485564464406174 -0.0665736001872288 -0.0450395249870466 -0.1809005 -0.8775069 -0.4441359 202 202 202
-0.070419439536241 -0.0495809467982878 -0.0753741659626458 -0.09213625 -0.8362764 -0.5405115 125 125 125
0.165984955206818 -0.0662948709094062 0.026638365894235 0.8758346 -0.09283938 0.4735976 46 46 46
-0.000721516660092014 -0.0586476128586059 -0.0687543285313119 -0.3741245 -0.2015848 -0.9052041 226 226 226
-0.0874997684291308 0.0560417543084801 0.0851257162013966 -0.5257401 0.6757551 0.5166743 119 119 119
-0.116702838735352 -0.101555668272094 0.0337075755898418 0.0002351257 -0.961362 -0.2752871 200 200 200
-0.0532437354027966 0.0977059955559944 0.0418054785357939 -0.326595 0.8639085 0.383403 88 88 88
-0.130618198920198 -0.0553899864322082 -0.0530775981759816 -0.03280218 -0.7418926 -0.6697159 197 197 197
-0.0748160419961583 -0.0706277999923984 -0.0413290524764026 0.1816918 -0.8159144 -0.5488823 245 245 245
0.141299794441496 -0.0542003099032549 -0.0772420822208377 0.3583466 -0.7754387 -0.519887 168 168 168
-0.0709394864078376 0.0723278453050854 -0.0422624709723141 0.0251482 0.3262517 -0.9449484 102 102 102
-0.102811299140901 -0.015653087225716 -0.0984592045520574 0.1492307 0.5630301 -0.8128514 185 185 185
0.0445008837684453 -0.0769144631336292 -0.0476574680495206 -0.1522495 -0.986499 0.06033048 98 98 98
-0.112206717194083 -0.0964674569877214 0.0224689245974813 0.06832584 -0.8053279 -0.5888791 79 79 79
-0.153674053460102 0.0171180136674379 -0.0479845017996065 -0.8511987 0.4659669 0.2415278 157 157 157
-0.0295892788056609 0.115759379494495 0.0124475071654522 -0.3674429 0.8038414 0.4677871 65 65 65
-0.14199139756725 0.0370823588640773 0.0267552684432062 -0.9917794 -0.1163191 0.05332367 76 76 76
0.00653893278489059 0.0863917232638545 -0.0316083386797506 -0.01621681 0.6232303 -0.7818702 123 123 123
-0.138654201915041 -0.0578247489286958 -0.0463399964528394 -0.2598752 -0.8211126 -0.5081722 142 142 142
0.112684854225677 -0.0704348537754247 -0.0724809281803429 0.244981 -0.8425583 -0.4796663 203 203 203
0.129823230354801 -0.102427864133156 0.0116224481562802 -0.1562166 -0.9582135 -0.2396315 114 114 114
-0.113729626677174 -0.0795941856693844 -0.0209908294546195 -0.08052331 -0.9012707 -0.4257078 98 98 98
-0.175494039443051 -0.0370582335246802 -0.0733677430060131 -0.1210934 -0.9358221 -0.3310187 57 57 57
0.0329432604424551 -0.0740569202889217 -0.0314332708466715 -0.06567284 -0.9680784 -0.2418909 112 112 112
0.167698988185235 -0.0511873722207503 -0.00738649765166771 0.9383223 -0.2071326 -0.2768525 148 148 148
0.0422691239819328 -0.0903551376982726 0.00329327984868383 -0.2061822 -0.8443866 -0.4944696 79 79 79
-0.16311725381924 -0.0195044038959645 0.00525299898668499 -0.7574591 0.5448198 0.3597598 116 116 116
-0.0305444471994201 -0.0524527394440649 -0.0680627428023685 0.06966808 -0.8263863 -0.5587773 158 158 158
0.0836004188928374 -0.102791384437066 0.0141660999011455 -0.0248173 -0.9403309 -0.3393552 88 88 88
-0.040903894793539 -0.0595121369681387 -0.0587057965487621 -0.1749216 -0.9171121 -0.3582009 107 107 107
-0.137689421322658 -0.0526765105905628 -0.0543930984550992 -0.2974848 -0.6720013 -0.6781719 77 77 77
-0.129901448248124 0.0739384375386297 -0.00821487733441403 -0.8173053 0.5730286 0.06041805 147 147 147
-0.0441028268466961 -0.0835968123927404 -0.0169577289267206 0.04785764 -0.9357523 -0.3493956 104 104 104
-0.153214863901637 -0.0544642977617702 0.0222105011280086 -0.8151988 -0.276356 0.5089973 54 54 54
0.140152550870573 -0.104609729643028 0.0230396329691575 0.1621186 -0.9793943 -0.1204344 49 49 49
0.00108903086738632 -0.104620247738758 0.0264316954859016 -0.04110903 -0.9952092 -0.08870516 115 115 115
0.0143528570842757 -0.0878709544013944 -0.0160864835096763 0.1551766 -0.8381041 -0.522974 156 156 156
0.0284278502184616 -0.0948896796393827 0.00347324608630933 0.308892 -0.8068818 -0.5035152 184 184 184
-0.0477048109093583 -0.0971227454795073 0.0286027808131092 0.1535376 -0.9418904 -0.2987788 55 55 55
0.0884353402335174 -0.103280993499081 0.0385700971420117 0.007828068 -0.9038084 -0.4278658 116 116 116
0.13803739905826 -0.0896962146718033 -0.0133975953909219 0.3948548 -0.682222 -0.6153559 236 236 236
0.0899347136025441 -0.0785234841342808 -0.0585516463855111 -0.04186349 -0.9071854 -0.4186431 235 235 235
0.00681394658556433 -0.0295726188107878 -0.0920682223421009 0.1520434 0.5239316 -0.8380802 120 120 120
0.0732313792789716 0.0211161690881485 -0.0720789881627725 0.2365915 0.366643 -0.8997763 229 229 229
-0.114579939728368 0.102825480887519 -0.0257240426656374 -0.5133007 0.8271969 0.2286214 107 107 107
-0.0759280569771903 0.0768619748326203 0.0586079012249159 -0.322791 0.8624759 0.3897965 64 64 64
0.0443048270813575 -0.0956084940301302 0.0149292117791557 -0.1584606 -0.8707321 -0.4655276 70 70 70
-0.0438931445363577 0.0292538672422122 -0.0659075425457682 0.1153399 0.4540393 -0.8834846 175 175 175
-0.0683269092533036 0.041958181356562 -0.0586883697621531 -0.1017241 0.5555669 -0.8252258 171 171 171
0.124265287778154 -0.0783945682308078 -0.0461116666507355 0.3834858 -0.8631251 -0.3285631 109 109 109
0.0792874401702699 0.101070843549302 0.00401536723113696 0.9269735 0.3041432 -0.219584 76 76 76
0.141689420158538 -0.0153308876564847 -0.0735846291638149 0.9210606 0.3051861 -0.2418862 115 115 115
-0.0824398450396795 -0.00330049356220075 -0.0851812784588969 0.07778702 0.4545158 -0.8873357 154 154 154
-0.185611979341928 -0.0337067237759168 -0.048445137839908 -0.9409698 -0.2983837 0.1598218 110 110 110
