ply
format ascii 1.0
comment File exported by Rhinoceros Version 7.0
element vertex 475
property float x
property float y
property float z
property float nx
property float ny
property float nz
property uchar red
property uchar green
property uchar blue
end_header
-0.0303683785584363 -0.124428298868922 -0.00454263397417998 -0.2993281 -0.9313197 0.2074762 94 94 94
0.026787230572423 -0.124637391962794 0.0426485090617087 -0.09965076 -0.9695049 0.2238972 138 138 138
0.00431210716696651 -0.124336626925257 0.0352096705798056 -0.1740547 -0.9694597 0.1727802 109 109 109
-0.137921383776942 0.0300535889484608 -0.0307846368189905 -0.983629 -0.001068201 -0.1802021 36 36 36
-0.0160053280976209 -0.120535161890773 0.0233300178412345 -0.3366303 -0.9251215 0.1755853 127 127 127
0.117218563160619 -0.126831319727687 0.0362844913367179 0.06771286 -0.9970906 -0.03500442 52 52 52
-0.0554422644760999 0.122336837849828 0.0307913868788626 0.2228699 0.2148905 0.9508686 181 181 181
-0.136095335879603 0.0528940888263905 -0.0322794766064737 -0.9945979 0.09659772 -0.03799849 79 79 79
-0.087410858073512 -0.0880632666728771 0.0564516036871817 -0.1512402 0.01052383 0.988441 144 144 144
0.062482187351903 0.180446478924962 -0.00506724425517058 -0.0916141 0.9955247 -0.02318296 119 119 119
-0.129516652026454 -0.106886890330104 0.0596643238428977 0.1153511 0.04266349 0.9924082 70 70 70
0.0322694273802844 -0.127600934901027 -0.0369562805529687 0.1770661 -0.9821939 -0.06279059 69 69 69
-0.00356202403573125 -0.0126273898265636 0.0498734860781577 -0.002911525 -0.06314079 0.9980004 124 124 124
-0.134152105250636 0.0335449906208241 0.0220412164095786 -0.9099632 0.1715193 0.3775554 153 153 153
-0.0673119334366712 -0.0564551619670666 0.0527132897738364 -0.1166967 -0.1083784 0.9872366 148 148 148
-0.122820904650966 0.0489432545520985 0.0508814304236319 -0.8062563 0.176314 0.5646806 213 213 213
0.0524620505187121 0.0507055254795277 0.0421286075476554 0.175962 0.121251 0.976901 123 123 123
0.023033568463048 -0.126761105456141 -0.0307569355603311 -0.06462451 -0.9755201 0.2102002 96 96 96
0.140052744946202 -0.0660697487972057 0.0290522723559287 0.7743266 -0.2767974 0.5690355 107 107 107
0.114315578541478 -0.128805902399806 0.0116973965529349 -0.111159 -0.9914686 -0.06807105 113 113 113
0.0987468453261462 -0.124462869562892 -0.0233394951459024 -0.5944809 0.0200023 0.803861 83 83 83
-0.0598202256348523 -0.124526527323512 -0.0558484644528482 -0.3217707 -0.9443966 0.06766656 131 131 131
-0.107767155566493 0.0628953905918324 0.0502314715746787 0.09850128 0.2712137 0.9574658 138 138 138
-0.0679206160691175 -0.105423596300868 0.0597760825518515 -0.1735294 0.2261803 0.958504 177 177 177
0.125880906185826 -0.118356135287074 -0.0429835320349786 0.2760204 -0.6800899 -0.6791837 41 41 41
-0.0110068825867566 0.0497786732532703 0.047230854547396 0.05705431 0.3743803 0.9255183 115 115 115
-0.00138478557137578 -0.0945050982616222 0.0676313488844779 -0.1982156 0.3092776 0.9300849 133 133 133
0.0904473753783313 -0.124611165919093 0.0451057105425742 0.06349169 -0.9955791 -0.06921776 108 108 108
-0.0035698918488416 -0.12012198249319 0.0607238858107474 0.01356541 -0.9998999 0.004022445 125 125 125
0.144141981205663 -0.0820100573680675 0.00578682116307283 0.9817558 -0.1799185 0.06152116 60 60 60
-0.0022041110184583 0.0400385590412342 0.0494206099871543 0.09340868 0.4005901 0.9114836 136 136 136
0.090248415074071 0.0156007738926136 0.045397266662493 0.003628954 -0.1766838 0.984261 123 123 123
-0.0968573598053846 -0.122885015406398 -0.0286227614518259 0.07812073 -0.9834896 0.1632342 120 120 120
-0.138600280680934 0.04916045387766 -0.00598727174960112 -0.9176863 0.2731867 0.2884802 94 94 94
-0.0638469962265882 0.147761914334508 0.031858608043566 0.3073617 -0.02895055 0.9511523 124 124 124
-0.143633892932216 0.00100061615488167 -0.031793907367811 -0.9872649 0.05967053 0.1474705 79 79 79
0.142503211102208 -0.0470384625575817 -0.0385565758582208 0.7081017 -0.3266093 -0.6260337 69 69 69
-0.0594455508377942 0.103668067059728 0.0356525330904868 0.3596134 0.1157593 0.9258931 125 125 125
-0.011990240016261 -0.128196146883754 -0.012889310800657 -0.1932498 -0.9559195 0.2210712 121 121 121
0.0385554524275866 -0.127279427447108 0.011019483125582 -0.1334854 -0.9909922 0.01077685 97 97 97
-0.142697384753505 0.0195510121204578 -0.00641156741343474 -0.9305767 -0.06321853 0.3605973 33 33 33
-0.139021804728785 0.0410314532139027 -0.0331653357382867 -0.9813628 0.1555302 -0.1128606 65 65 65
0.000254103741368361 0.00764820297739144 0.0515435784224417 -0.111841 -0.03120097 0.9932362 131 131 131
0.0325153561446276 -0.123925712504176 0.0652156024340537 -0.05861791 -0.9392644 0.3381513 164 164 164
-0.123710563578883 -0.121703055300502 0.00580899409092928 -0.1497129 -0.9822763 -0.1127799 103 103 103
0.00454313477011592 -0.122421052851466 0.0430309920672324 -0.09030594 -0.9933784 -0.07102287 124 124 124
-0.145296028056422 -0.0457067755840099 -0.054898485624418 -0.9354247 0.01451302 -0.3532279 31 31 31
0.125038096508702 -0.076676514544276 0.0473917572859671 0.3070275 -0.1180004 0.9443569 142 142 142
-0.0968339947846326 -0.119683053889064 -0.0076125115986917 -0.0477031 -0.9853323 0.1638434 158 158 158
-0.139489939608851 0.0159419508793079 0.0298238842848685 -0.8221968 0.5637236 0.07879204 111 111 111
-0.116312435069362 0.135965320668431 0.0315633862379935 -0.9907511 -0.05343721 0.1247268 152 152 152
-0.095639994540492 -0.0727060107372082 0.0588940828207877 0.266651 0.01845885 0.9636164 56 56 56
-0.0634880570557508 -0.0940648583553112 0.0575291364554312 -0.2557102 0.2373329 0.9371688 145 145 145
0.0141839476439563 -0.127588775553492 -0.0602481664057825 0.1564833 -0.9820197 -0.1055944 129 129 129
-0.0912151841309461 -0.123611834444789 -0.0430426151391122 -0.05112537 -0.9935969 0.1007549 92 92 92
-0.0519421605255994 -0.124025967516688 -0.0306806118126962 -0.2311416 -0.9471808 0.2223107 93 93 93
0.0278095694396105 0.0135173531391346 0.0465168505076315 0.2496276 -0.02987532 0.967881 118 118 118
-0.031983783641139 0.0614995690204823 0.0410366504553702 0.04383707 0.4577035 0.8880236 111 111 111
-0.138389637866298 -0.0626746682307995 0.054466292179003 -0.9623021 -0.03482382 0.2697443 65 65 65
-0.00737815181283086 -0.11392274180868 0.0724060385588553 -0.0823945 -0.2282588 0.9701077 153 153 153
-0.0251241234925184 0.0800704689838612 0.0349120645884421 0.16688 0.3855385 0.9074752 143 143 143
0.1196065636489 -0.127457526125697 0.00643666080273653 -0.09603073 -0.9835117 -0.1532408 83 83 83
-0.0777769593384656 -0.116281297602443 0.0558702795866873 -0.4355374 -0.6502436 0.6224872 149 149 149
-0.0670778063919935 0.149821612439367 0.0328790991667655 0.3354662 -0.01953366 0.9418497 118 118 118
-0.134081890979091 0.0523657532551014 0.00113086394108797 -0.8160909 0.4593122 0.3507533 188 188 188
-0.101305654444972 -0.118089821734217 0.00912426403798128 -0.1293914 -0.9894109 0.06575576 123 123 123
-0.130359461703578 0.0080244274952137 0.0578983574274924 -0.4204859 0.3562613 0.8344277 228 228 228
-0.124787500300685 0.119850370488378 -0.0200743229027841 -0.9967116 -0.08045182 -0.009676572 123 123 123
-0.13724248687295 0.0620246859409535 -0.014862731182203 -0.9548796 0.285711 0.08108085 101 101 101
-0.137336066165248 0.0476876231052601 -0.0411690772410486 -0.9610703 0.00783305 -0.2761928 90 90 90
0.139974662861547 -0.0926249293468273 -0.0301827640172098 0.7751642 -0.4730091 0.4187873 124 124 124
0.132857629856786 -0.00456252376058464 0.0298853068713095 0.8926533 -0.2360002 0.3840234 108 108 108
-0.135627081790248 0.0427664252140247 -0.0286854059334848 -0.9618541 0.1684239 -0.2155692 98 98 98
0.100338766178807 0.0428318711139881 0.0445242672327902 0.1812692 -0.01960138 0.9832382 124 124 124
-0.145506790080348 -0.100070860781459 0.0407483427885916 -0.9594645 0.1572876 0.2338556 141 141 141
-0.143259218135158 -0.0869219569347179 -0.0527203083869073 -0.9873028 -0.04394349 -0.15265 87 87 87
0.140302488407811 -0.00127282420614128 0.0162816791895773 0.9745444 0.1585946 0.1584643 94 94 94
-0.029338291087428 -0.0736849574229992 0.058022931135073 0.02114489 0.2555677 0.9665599 104 104 104
-0.0313516167786512 -0.0863198308131969 0.061990067279711 -0.218821 0.2254145 0.9493712 133 133 133
-0.0195365456726941 0.156303975186559 0.0184505432013419 0.1255958 0.2017884 0.971343 142 142 142
0.126115033230504 -0.0879062680385387 0.0475734918478873 0.7448382 -0.2273169 0.6273301 107 107 107
0.133559891781529 -0.120906021990565 0.0141860990885642 0.872482 -0.4213639 0.2474422 120 120 120
-0.00632458011178105 0.0583886834003651 0.0422906427744772 -0.02919274 0.5124792 0.8582033 121 121 121
0.131054827770909 0.0791727038242542 -0.000300034963712448 0.9516478 0.3022147 -0.05507116 170 170 170
0.0554587336394397 0.102822396359655 0.0171814411047843 0.2141354 0.4044279 0.889148 199 199 199
-0.127292564311305 0.0219546290256702 0.052846088922396 -0.7698094 0.2648271 0.580741 129 129 129
0.0405033322188464 0.061676117978307 0.0394882409933951 0.04380821 0.295277 0.9544068 124 124 124
-0.0259669331696424 -0.12509491721609 -0.0148242861863229 -0.1605288 -0.9870139 -0.005830648 79 79 79
-0.0625827817109021 0.134564849934789 0.0318467467192557 0.2500022 0.07527021 0.9653152 146 146 146
0.00481934269400508 0.00767097195169564 0.0526746659640219 -0.06995809 0.01434514 0.9974468 139 139 139
-0.0413718728211316 0.0151233406879627 0.0526671557787802 -0.08707403 -0.1105605 0.9900478 132 132 132
0.0583148690077868 -0.125092652239589 0.0434273033503439 0.1062351 -0.9821921 0.1549606 121 121 121
0.0953052731368151 0.0982031555988514 0.0198567657832053 -0.02765279 0.5776427 0.8158212 137 137 137
-0.115914514460841 -0.106725600161341 0.0581460743311789 0.09429279 1.420059E-05 0.9955445 116 116 116
0.121011325916967 0.112644526562902 0.00299306205548311 0.9975614 0.05648055 0.04100288 110 110 110
-0.00344496051339238 0.125695678792211 0.0202979891661551 0.08932386 0.02228834 0.9957532 172 172 172
-0.118723800578395 0.134796115956517 0.0262778549555686 -0.9493052 -0.1853742 0.2538819 110 110 110
-0.131553461947719 -0.113663461603907 0.0534155218962576 -0.06872775 -0.8769242 0.4756896 203 203 203
-0.0243281630661878 -0.0730763939998424 0.0584312825564292 -0.02245359 0.3321012 0.9429765 145 145 145
-0.152998497882167 -0.0623008278987682 0.00456149867810274 -0.9867905 0.05046831 0.1539398 158 158 158
-0.0190839080002698 -0.120893743433741 0.0375448613528159 -0.1088673 -0.9937459 0.02484061 91 91 91
0.122626730999669 -0.127336409487513 0.00475276998318697 0.01003606 -0.9821707 -0.1877232 97 97 97
0.137118527493199 -0.0147297648570812 -0.0406332314845178 0.9551985 0.2106767 -0.2078731 51 51 51
0.116516301235875 -0.134780314364222 -0.0646194071408365 -0.07042709 -0.9960296 -0.05445304 82 82 82
0.136790701946935 0.0162381859638416 -0.0351115465994928 0.9638306 -0.06418525 -0.2586712 18 18 18
0.122743794522008 -0.0934127835414684 -0.0367885083790872 0.9213386 -0.01988623 -0.3882521 53 53 53
0.110354253849706 0.105318519673558 0.0171969383124259 0.07356646 0.3944205 0.9159806 165 165 165
-0.0940948037293348 -0.12276771346548 -0.0427410305377099 -0.1990824 -0.9797063 0.02327437 77 77 77
-0.147941639819423 -0.106140282549647 0.0192388742331412 -0.9929057 -0.1098929 0.04540785 146 146 146
0.114198515019139 0.0518804522373402 0.0435345917109397 0.1423614 0.09743685 0.9850073 131 131 131
0.143790790638646 -0.0983782080791271 -0.0309286714430902 0.8380095 0.05602714 0.5427716 94 94 94
0.144352624020299 -0.0346985129497326 0.0150620787505057 0.9301021 -0.01226102 0.3670964 109 109 109
-0.0223615674164686 -0.0729245213649548 0.0581297426585105 0.008289877 0.3374409 0.9413102 139 139 139
-0.138061812320033 -0.0239461926601208 0.0536455660227683 -0.9658759 -0.1717212 0.1938957 98 98 98
0.0462579222533313 -0.0550097493312633 0.0578690021399405 0.1897024 0.5520882 0.8119185 126 126 126
-0.118770649829188 0.073485347829076 0.0434677451018241 -0.95583 0.2326522 0.1796163 92 92 92
-0.148878028788844 -0.105669048228053 -0.000706419431791061 -0.9971092 0.02359838 -0.07222506 101 101 101
-0.146973898806849 -0.0963710812709606 0.0308241396311667 -0.951395 0.05725809 0.3026037 143 143 143
0.0703250857207385 -0.0837685135982311 0.0676398425463584 0.1833308 0.08756041 0.979144 175 175 175
0.0166110487792102 0.031920406422826 0.0496938376788046 0.1294736 0.002800229 0.9915789 131 131 131
-0.0914805440094861 0.163812133870336 0.0352851598624137 0.09911189 0.4026716 0.9099628 194 194 194
0.119185158810338 0.132206413350316 -0.0112671703930948 0.8607159 0.3656306 -0.3542349 48 48 48
-0.120667031207362 0.0720339747287952 0.0364041178587821 -0.9325708 0.2258442 0.2816135 120 120 120
-0.136516740718165 0.0446276398517811 -0.0335641951199624 -0.9964211 0.05241124 -0.06631826 96 96 96
0.109305450520238 0.114021989903661 0.0144325940970328 0.002433583 0.01994665 0.9997981 99 99 99
-0.0576195029404554 0.105235311589452 0.0339554696444418 0.2950571 0.09028253 0.9512047 128 128 128
0.080687114796361 -0.127905037798671 -0.0284656734105203 0.06482939 -0.9955733 0.0680512 91 91 91
-0.13881104270486 0.0394819708683216 0.00973473480977083 -0.9318517 0.1785195 0.3158847 191 191 191
-0.0032576827195081 0.0611699553348743 0.0405507533911612 -0.0452451 0.556681 0.8294933 155 155 155
-0.0316559580948743 0.184900137982579 0.0113023965720084 -0.1386636 0.9529647 0.2695009 178 178 178
0.0348252745482531 -0.128195193209437 0.032679662025347 -0.09443492 -0.9909202 0.09570347 140 140 140
0.032608935436925 0.182928893170568 -0.0301648528214548 -0.08544562 0.9718241 -0.2196746 123 123 123
0.0641678067061511 0.0159678192951405 0.0446685104731467 -0.2431119 -0.1616275 0.9564378 125 125 125
0.0582056732985583 -0.126992013850001 0.0552907734278586 -0.004498553 -0.9854179 0.1700922 142 142 142
-0.0712450055268201 0.185440156064244 -0.0230836124058816 0.1079613 0.9631399 -0.2463856 90 90 90
-0.105613401332179 -0.108211305537013 0.0558127909068015 0.1333303 0.1233373 0.9833671 134 134 134
0.145109603008946 -0.0421268014095104 -0.0229134113427255 0.9944956 0.04036999 0.09668858 116 116 116
-0.144968321719447 -0.101510908999232 -0.0203213841553781 -0.9427648 0.09568959 -0.3194341 68 68 68
0.0145586224410144 -0.123636749186305 0.047984883106127 -0.008875641 -0.9998819 -0.01254661 89 89 89
-0.145772149958888 -0.0145446328304089 -0.0344571323033426 -0.9998623 0.009875049 0.01333524 94 94 94
0.0522747727248278 0.0828220578052723 0.0304162948492911 0.00884722 0.5578433 0.8298991 147 147 147
-0.00144331733254521 0.175923916897985 0.0153601913813498 0.1455552 -0.008684237 0.989312 174 174 174
-0.117026498713771 -0.0326720742366589 0.0594725458983328 -0.02440289 -0.03812954 0.9989748 209 209 209
0.000441381535252638 -0.12701359073141 -0.00425986953936552 -0.346309 -0.9283848 0.1348028 150 150 150
-0.0758337287094983 0.18542287071726 -0.0024807006951425 -0.04166488 0.9972528 0.06124527 69 69 69
0.0393515320632067 0.104171487889501 0.0205074398878958 0.2111665 0.4930381 0.8439918 154 154 154
0.0525868626448718 -0.0324286488673962 0.0445333569411185 0.07020866 0.02246076 0.9972794 144 144 144
-0.0261776951935682 0.103669974408361 0.0291101186636832 0.1460243 0.2058418 0.9676291 131 131 131
-0.11312847415475 0.0379444094516956 0.0544584839705374 -0.06629924 0.1627451 0.9844381 182 182 182
-0.0166023282196912 -0.116898324885157 0.0592892318133261 -0.2557431 -0.9553147 0.1482204 94 94 94
-0.147473385730067 -0.0119639901302135 0.0192623882655051 -0.965399 0.2607755 0.0009845139 72 72 72
-0.142182281413356 0.0184439154483997 -0.00912122436724638 -0.9561127 -0.09558873 0.276968 61 61 61
0.121385881504735 0.0936344595768177 -0.0339189470645044 0.9750291 0.2196389 -0.03281857 129 129 129
-0.0371264723923597 -0.126163509287623 -0.0463053733941171 -0.1456567 -0.9866496 -0.07284673 53 53 53
0.121136138043126 -0.0485786465785778 0.0431285946730521 -0.07586659 0.2370444 0.968532 139 139 139
0.0941816063735095 0.113478753171178 0.0135385244254019 -0.0457922 -0.1752909 0.9834511 121 121 121
-0.148784449496547 -0.0275070933482922 0.00866575530804659 -0.9851598 -0.1340191 0.1072335 112 112 112
0.120168516239842 -0.127577927508143 0.0196953564051535 -0.1053348 -0.9550799 0.2769963 112 112 112
0.0206846686217395 -0.125451949038295 -0.0105837733384225 0.04788917 -0.997129 0.05865514 89 89 89
0.129626819691381 -0.0958036450526989 0.0353655069235709 0.8831137 0.08358213 0.4616537 105 105 105
0.0744220705840197 0.125529501042577 0.018866881645098 -0.02942808 -0.2952661 0.9549617 113 113 113
-0.110155156054774 0.00744828899881478 0.0583060830000784 0.06198084 -0.0273715 0.9977019 134 134 134
-0.0815836695816907 -0.118394878306178 0.0130517332915213 -0.09878806 -0.9916981 0.08231556 126 126 126
0.116235324940404 -0.120109584727076 0.0552433579329398 0.4430464 -0.1581878 0.8824322 108 108 108
0.0329367609831897 -0.126578715243129 0.0215509980086234 -0.09671205 -0.9912549 -0.08977973 106 106 106
-0.00587981025246709 0.115598890385839 0.0212903468970206 0.1463238 0.1639711 0.9755526 183 183 183
-0.0450708178666028 0.108215782246801 0.0316179542902854 0.2679642 0.2171588 0.9386358 138 138 138
0.0749840231749621 -0.127532747187403 -0.012337073766813 0.2707252 -0.9617215 -0.04242104 74 74 74
0.0264985056731311 -0.111857679285792 0.0761871784094718 0.07647213 0.1337524 0.9880599 187 187 187
0.0742816420409289 0.182529661259862 -0.00705705591402983 -0.005042315 0.9998211 0.01822936 83 83 83
-0.10074370185403 -0.0155852107188976 0.058322265661135 0.01516914 0.1586512 0.9872181 178 178 178
-0.0955931452896985 -0.121343281664637 -0.0206412822838876 0.1604257 -0.9786351 0.1285962 96 96 96
-0.101773789325038 -0.120345380701808 0.00132362536229158 0.04963114 -0.998244 -0.03233663 119 119 119
-0.147707512774745 -0.115831759371547 0.0265425293806937 -0.7047197 -0.7051879 -0.07797538 221 221 221
0.136814186176976 0.0197703572132313 -0.00104458638392424 0.9774641 0.204151 0.05372508 39 39 39
-0.0540141371872815 0.0461610289432728 0.0490147619608786 -0.05920961 0.2572103 0.9645398 124 124 124
0.106706807217321 -0.128851917185572 -0.0149936527844522 -0.007356717 -0.9809234 0.1942557 78 78 78
-0.0876800326493177 -0.122535136141566 -0.0084166080590341 0.1842564 -0.9824511 -0.02897119 64 64 64
-0.111653497615138 -0.115988996424464 0.0542507617834952 0.05512808 -0.9648712 0.2568743 158 158 158
-0.129805376925746 -0.000630405344752116 0.058996573007479 -0.03450878 0.1049703 0.9938765 183 183 183
-0.130429675975123 0.0741913052417957 -0.0284299702282999 -0.9486182 0.2783996 0.1503903 112 112 112
-0.15290479938058 -0.0577816037318981 0.000381633556261307 -0.9595488 -0.08236834 0.2692242 173 173 173
-0.142556956210414 -0.0876035956523693 0.0453558414343741 -0.9555268 0.1817225 0.2322615 54 54 54
-0.0953590182450208 -0.123037603297023 -0.052655637347326 -0.3037506 -0.9523692 -0.02699037 90 90 90
-0.132958105006495 0.0107110472538197 0.054758474147692 -0.7269889 0.406851 0.5531359 158 158 158
-0.105160763659755 0.145612928471776 0.0404361038569357 0.2960136 0.1222226 0.9473318 97 97 97
0.10630876739951 0.0578047963001453 0.0443448572520163 0.04966953 0.188336 0.9808478 150 150 150
-0.133800914683619 -0.118316200175074 0.0104013233546164 0.02129082 -0.9873494 -0.157124 62 62 62
0.143907854160985 -0.0435914067409313 0.0194090454939749 0.9488223 0.1476213 0.2791849 120 120 120
-0.144429853358546 -0.0702756909511364 -0.0521803946133707 -0.9850986 -0.09909042 -0.1405767 57 57 57
-0.125981500544825 0.0395219059803211 0.0296321361426261 -0.818554 0.2100967 0.5346295 172 172 172
-0.109195282855311 -0.120109107889918 0.0412989704970267 0.03782341 -0.9987078 0.03394178 108 108 108
-0.145389726558009 -0.0839313534877575 -0.0329361409779642 -0.9999542 -0.009487142 0.001252167 74 74 74
-0.14447670260934 -0.0708966521404064 -0.0484362245436761 -0.99441 -0.08173199 -0.06684835 104 104 104
-0.122844269671718 0.0955488415577137 -0.0272886008854959 -0.9528755 0.2749656 0.1281492 116 116 116
-0.0966232327607068 -0.12146988193014 0.0241969673994925 -0.1937946 -0.9808387 0.01997753 86 86 86
0.0866430493208972 -0.12418999949911 0.0576666741732504 0.09793779 -0.9914093 0.08669374 117 117 117
0.112395832142552 -0.0476391581676281 0.0439144521120932 0.08779798 0.2775412 0.9566935 146 146 146
0.104529449543675 -0.123374607958583 0.0418062358263876 -0.07666899 -0.9969316 -0.01578533 142 142 142
-0.00751858035592168 -0.12269857207754 0.055456384933367 -0.1544906 -0.9828856 0.100342 134 134 134
0.120824048123082 -0.104900863566188 -0.0012500733967874 -0.04923377 -0.9984425 -0.02624183 51 51 51
-0.116663625636378 0.0917286606647694 0.0273267476920035 -0.9952479 0.08292698 -0.051036 99 99 99
-0.145413091578761 -0.0333724288127697 -0.0426513106461618 -0.9251198 0.2176804 -0.3110765 69 69 69
-0.0559338835862073 -0.120818403162745 0.0251552312735465 0.02830348 -0.9899529 -0.1385355 96 96 96
0.0753585787627307 -0.127829220690516 0.0300672500494864 -0.3455992 -0.9376637 0.03671428 106 106 106
0.0663451643797961 -0.1251507071636 0.0375380962256339 0.05179712 -0.9979461 0.03769235 93 93 93
-0.141245892443934 0.0477405520298206 -0.0138493628140542 -0.9752814 0.2195927 -0.02460144 75 75 75
-0.0775661973145398 0.184751007161351 0.0116562097433951 -0.02959553 0.9926264 0.1175455 143 143 143
-0.0146825818207654 0.147276017270299 0.0187646000746634 0.1622576 0.1222646 0.9791445 161 161 161
0.112536260685643 0.0951049061634266 0.0227456837061789 0.03363467 0.5949824 0.8030346 162 162 162
0.143018195233068 -0.0818852452419079 -0.00499780484400725 0.9584254 0.2548696 -0.1283055 38 38 38
-0.0109366683152112 -0.024682786860255 0.0500077455405142 0.08766478 0.1966805 0.9765407 125 125 125
-0.145249298014918 -0.109059718050746 -0.020721182310209 -0.9179761 0.1524176 -0.3661812 121 121 121
-0.119402816691676 -0.122408178248194 0.0233027189139273 -0.1210065 -0.9906325 0.06328224 165 165 165
0.117593237957677 0.0767259331562244 0.0337144880656149 0.03527148 0.6323982 0.77384 145 145 145
-0.0279803780701551 -0.105071809687403 0.0684597044352439 -0.2154473 0.1282817 0.9680528 148 148 148
0.0237359495970813 -0.0944414405010021 0.0726291089419272 -0.08511768 0.2262105 0.9703524 236 236 236
0.128503033718785 0.0258745880939686 -0.0257210583325479 -0.283573 0.9530984 -0.1057821 39 39 39
-0.075225046077052 -0.0272348193309582 0.056104168212786 0.1356103 -0.09881964 0.9858217 166 166 166
0.04373724182578 -0.0981871155879772 0.0728435664538291 0.2179161 0.01874397 0.9757875 175 175 175
-0.0530307797577771 -0.12550106326559 -0.0444739908810708 -0.2603747 -0.9629533 -0.07018498 104 104 104
-0.0656263140824231 0.185238692364904 -0.00797535487376189 -0.008963244 0.9883328 0.1520459 108 108 108
0.0619788857314196 0.181983921132299 0.00319929412640596 0.09699249 0.992452 -0.07504358 122 122 122
-0.140637090602199 -0.0360138682506359 0.045473292386904 -0.9593266 0.09315505 0.2664858 149 149 149
0.0767164917800036 -0.125965979494838 0.0474224238757041 0.06393127 -0.9800185 0.1883522 155 155 155
-0.0650175122406873 -0.119241383471278 -0.00280241676531767 -0.0837507 -0.990746 0.1068089 117 117 117
-0.128556778826991 -0.118018892206935 0.0355903356436637 -0.1505561 -0.9645444 0.2167646 121 121 121
-0.0801648406174573 0.0178521605350697 0.0565741508368399 0.1349254 0.03498068 0.9902381 119 119 119
0.0752181502196398 0.120323750577184 0.0172360091570761 -0.06899328 -0.3576445 0.9313057 103 103 103
-0.089396884837428 -0.118201044001368 0.0408980696562674 -0.03199287 -0.9433701 0.3301958 157 157 157
-0.0932519940522107 -0.0102424887798107 0.0569456367854025 0.1116025 0.05711315 0.9921104 169 169 169
-0.0952888039734754 0.1159541340687 0.0416010766390708 0.2554635 0.1388798 0.9567919 121 121 121
-0.123991420665065 0.150026890835973 0.00369004896916414 -0.9881148 0.09052642 0.124234 86 86 86
0.0357461663100329 -0.0881703166148937 0.0720581560496237 0.05752978 0.09122746 0.9941669 213 213 213
-0.137156656184474 0.0097486706592762 0.0174563973311331 -0.928247 0.3026588 0.2162294 105 105 105
-0.127339294352809 0.0295059414722645 0.0465147047404196 -0.9383841 0.3240602 0.1200843 124 124 124
0.0563015433165637 0.180928322873326 -0.00959391900263762 0.08520573 0.9962634 -0.0141117 90 90 90
-0.044930389323512 0.164926859936925 0.0242527573470023 0.2703573 0.3040138 0.9135002 172 172 172
0.0842081995818225 -0.0324720410487926 0.0418481676939871 0.1583465 0.1447739 0.9767123 142 142 142
-0.0495378283646497 -0.124161150851039 -0.0548821539517496 0.05329316 -0.9824951 -0.1785026 67 67 67
-0.0529840497162732 -0.0283085374019421 0.0538959949377921 0.1521083 0.1358347 0.9789852 199 199 199
0.0539603920790759 -0.121338870920924 0.0230997054938223 0.6479435 -0.7501741 0.1319394 32 32 32
-0.0316044596817884 -0.0701259640834606 0.0575967281226065 0.04474515 0.162022 0.9857721 124 124 124
-0.096482804217616 -0.0434388188503063 0.0581935792330649 -0.1365651 -0.3879739 0.9114967 166 166 166
-0.0775528458741102 -0.0161149768016613 0.057592227971926 0.06572561 0.03655512 0.9971679 107 107 107
-0.0308366326477918 0.00574943741342659 0.0524192898634818 0.01528838 -0.1608857 0.9868546 135 135 135
-0.0646898059037122 -0.12386622706869 0.0332557707194235 -0.05155582 -0.9967 -0.06269898 94 94 94
0.0369049998137561 0.0511482687809193 0.0416754334334281 -0.07430245 0.08110627 0.9939321 164 164 164
0.131640145382604 -0.125646737017421 -0.0324930400487039 0.8998692 -0.4055973 0.1603939 92 92 92
-0.0638001469757947 -0.0499002007625378 0.0543500929240134 -0.04180109 -0.09697124 0.994409 184 184 184
0.091512629589757 -0.114401963152674 0.0517349093321707 0.926554 -0.1801858 -0.3301981 158 158 158
-0.0571980981018934 -0.123783495821742 -0.0301586539383981 -0.01244132 -0.9922678 0.1234902 94 94 94
-0.124249031939784 0.0641932221271717 0.0119159071806815 -0.845321 0.5038608 0.177642 130 130 130
-0.149065306582728 -0.0681786803386486 0.0152013748053458 -0.9539509 -0.02978442 0.2984804 150 150 150
-0.0252178219941053 -0.0965752867839611 0.0665449946288016 -0.2205249 0.3042433 0.9267172 125 125 125
-0.0494254140046033 -0.120330717959193 0.0514386444453147 -0.02746757 -0.9659073 0.2574268 166 166 166
0.124897667965612 0.0579371186115467 -0.0348722786542032 0.7867848 0.1685481 -0.5937687 32 32 32
-0.149229219355861 -0.0812994507930553 0.0159088819388297 -0.9807972 0.03281328 0.1922502 141 141 141
0.132623502812108 -0.107865002550868 -0.051629334771261 0.1844142 -0.2022839 0.961807 64 64 64
0.144298026165685 -0.00647309104421501 0.0072449593905356 0.9308386 0.1018377 0.3509537 88 88 88
0.102047869763097 -0.123219516672877 0.0443562715414908 -0.07122497 -0.9877874 -0.138575 68 68 68
0.104350039562902 0.0256441565372669 0.0452831833723929 0.07320347 0.05586725 0.995751 158 158 158
0.143767425617894 -0.0447207955501354 -0.0367492736216638 0.9352045 -0.06740405 -0.3476338 79 79 79
-0.14040308276681 0.00827524384042855 0.0309714823130515 -0.9837583 0.08416559 0.1585425 113 113 113
-0.146209171214381 -0.024040606417445 -0.0442324579592798 -0.9823169 0.1660119 -0.08656588 70 70 70
-0.0815929679062757 0.0137632819034779 0.0569744258288291 0.1665088 -0.01839446 0.9858684 157 157 157
0.129860827526769 0.0733593436100208 -0.000392690384015792 0.9426296 0.3302929 -0.04853902 161 161 161
0.00470227917166621 0.137364718518468 0.018897935665026 -0.01874212 0.07690895 0.9968619 152 152 152
-0.120549967685023 -0.103881743349818 0.0587933211687949 0.1276282 0.05982219 0.9900163 151 151 151
-0.136235764422694 -0.0534805325649059 0.0582394152048972 -0.2816608 -0.01531109 0.9593919 121 121 121
-0.012856414714137 0.180366131863805 0.0155984013441947 -0.05176624 0.2263125 0.9726782 163 163 163
-0.0233448056366834 -0.0566276578090465 0.0570105164412406 -0.01900787 -0.08187005 0.9964617 93 93 93
0.050799796185216 -0.0344250468395031 0.0443832426432517 0.03994739 0.01281994 0.9991195 155 155 155
0.0501208992812243 -0.127580192484645 -0.0392202437754724 0.02158574 -0.9561074 0.2922204 87 87 87
0.121151754460057 -0.114242818751124 -0.0532859415646646 0.6011848 -0.5314612 0.5967627 50 50 50
0.132951209149083 -0.128689196505336 -0.0504711718197915 0.9088532 -0.4133243 -0.05611449 114 114 114
0.0695837231490222 0.162548753819677 0.0173113196257498 0.08581672 0.2982547 0.9506207 156 156 156
0.0693652125212756 -0.128550675310878 -0.044250696980581 -0.09882558 -0.9908056 0.09240068 74 74 74
-0.0710889605667981 0.0276276799061024 0.0565178244475272 -0.03749649 0.1111015 0.9931014 165 165 165
-0.126192143359462 0.0577320786335194 0.0178439467314627 -0.7735966 0.5548282 0.3061275 137 137 137
-0.11708503047494 0.183507654271337 0.0232587604884055 -0.122948 0.7522405 0.647316 222 222 222
-0.103084853091517 -0.100772407450465 0.0541214793089774 0.1756911 0.1362069 0.9749771 116 116 116
-0.0598825720932874 -0.12046947757223 0.0250110774401572 0.09366564 -0.9903938 -0.1017201 88 88 88
-0.0694658068802747 -0.12055173198202 -0.0251912326451394 -0.1796514 -0.9769205 -0.1155498 84 84 84
0.0983019562575427 -0.12734248916128 -0.00692661114893889 -0.1162324 -0.9830149 0.142027 144 144 144
0.131874272427281 -0.0214236048839367 -0.006038919174299 0.7200248 0.6294706 0.2921148 73 73 73
0.0566292496535388 0.182585331998082 -0.025931999170408 0.01142949 0.9654617 0.260294 168 168 168
-0.123593500056544 0.0873707266666615 -0.0186543912526224 -0.7907036 0.5230687 0.318099 125 125 125
-0.0192244557526502 -0.0786541966579235 0.0612199454668906 -0.05005097 0.538983 0.8408283 110 110 110
-0.0826699046280774 0.0971194239475452 0.0407149641875174 0.1792745 0.06884833 0.9813871 121 121 121
-0.0535458830979261 -0.122217324175624 -0.000978842460736984 -0.202788 -0.9752663 0.08793577 101 101 101
-0.147332837977687 -0.0235306290767467 -0.0241710395451639 -0.759863 0.4374792 0.4808536 142 142 142
-0.0121541527893934 -0.128803160586146 -0.0315092802878473 0.03507278 -0.9873928 -0.1543544 125 125 125
-0.146068623462001 -0.0638076333186901 0.00940068057812715 -0.9804671 -0.1331368 0.1447719 111 111 111
-0.139841130175868 -0.057037260927943 0.0512131600741293 -0.9996512 0.01231613 0.02336179 110 110 110
0.144867727360448 -0.105691221155909 -0.0384074003335092 0.8958044 -0.2575082 -0.3622486 99 99 99
-0.155222585597316 -0.0598862437389172 -0.0047499091263864 -0.9578558 -0.212225 0.1935793 147 147 147
0.145827600559911 -0.0442102221629894 -0.0122914166089151 0.9711324 0.1408998 0.1924814 80 80 80
-0.0362213162568006 -0.0821980504176891 0.0606199949149039 -0.2481014 0.2775587 0.9281201 95 95 95
0.0902015658232775 -0.127507594027308 0.0214321165446189 0.04668557 -0.9711419 0.2338887 79 79 79
-0.137991598048488 -0.00246742049672966 0.0569613426093009 -0.6823821 0.361155 0.6355484 201 201 201
0.0707231255385485 0.184033486447545 -0.0207240135308359 -0.131376 0.9912515 -0.01268607 113 113 113
-0.0987537411835584 -0.0126995114467419 0.0575728862646964 0.05528022 0.1788118 0.9823291 67 67 67
-0.0139645842698011 -0.0625794200084484 0.056942596948519 -0.1768536 0.02873075 0.9838178 153 153 153
-0.05754928866891 -0.120494034685878 0.00348074725903535 -0.08907871 -0.986699 0.1359782 99 99 99
0.0522044392439929 0.0837213726856434 0.029771342790499 0.007950149 0.5681896 0.8228593 153 153 153
-0.148152282634059 -0.100740459360865 0.023630931890383 -0.9778898 -0.06170335 0.1998107 176 176 176
-0.149252584376613 -0.0853123931072033 0.0227356403235343 -0.995854 0.07433718 0.05242827 130 130 130
-0.0864626673844251 -0.118289497294215 0.0455962567690756 -0.1397014 -0.9184609 0.3700177 164 164 164
-0.0676959065583143 0.0739637347080433 0.041161164558306 -0.008880146 0.1908161 0.9815856 166 166 166
-0.0429404286530408 0.0404782029010975 0.0500055997733023 -0.0001175158 0.3197164 0.9475133 108 108 108
-0.019364884295741 -0.106174614825038 0.0702161639098074 -0.2863274 0.05534507 0.9565321 188 188 188
-0.0995419530060682 0.00388989170572396 0.057696387088671 -0.05499398 -0.0003940781 0.9984866 101 101 101
0.00904125889273555 0.157288047871801 0.0162949114207175 -0.06207896 0.06256864 0.9961081 149 149 149
0.12131566723319 -0.12556734363058 0.0389858930472281 -0.06434276 -0.9975471 0.02756335 110 110 110
0.0428398342940417 -0.0183209447047985 0.0466239302519705 -0.05556507 0.04462897 0.9974571 129 129 129
0.0757799836012927 -0.128523853220729 0.00370387724675203 0.1264451 -0.9898214 -0.06530942 126 126 126
-0.117295792498866 -0.120555546679286 0.0144717245463278 -0.07278869 -0.996825 -0.03227479 124 124 124
0.0502613278243151 -0.0613243846080578 0.059406831777468 0.0640629 0.5111415 0.8571058 154 154 154
-0.00103359500435918 0.181514355740758 0.0152024774912741 0.1790155 0.5633179 0.8066142 230 230 230
0.000137040219029494 -0.129963782229213 -0.0308506042595956 -0.0414516 -0.9965281 -0.072204 115 115 115
0.130769202313146 0.0658081503727161 0.0271508543852713 0.6798912 0.6294605 0.3762015 102 102 102
0.132717082104405 0.0577937098362171 0.031376168048754 0.9424307 0.3242977 0.08158107 76 76 76
-0.149908116259852 -0.0211457280299938 -0.021486654960737 -0.8472753 0.4215352 0.3231604 58 58 58
0.114783832630834 0.0771715374805653 0.0342152862910178 0.1267871 0.6645502 0.7364089 188 188 188
-0.0554656294968519 0.0981321068622791 0.0360485463503745 0.1434886 0.2939341 0.944994 133 133 133
-0.116523197093287 0.0734796257831776 0.0198360233668234 -0.9880581 0.1178002 -0.09931908 97 97 97
-0.146864703097621 -0.104747560419825 -0.00890131303034758 -0.9872008 0.04683264 -0.152451 76 76 76
-0.105800679126063 -0.120317724146632 0.027365609920397 0.1010469 -0.9590861 -0.264468 137 137 137
-0.0656263140824231 -0.122244265475062 -0.0174380690690134 -0.2401352 -0.964746 0.1077046 124 124 124
0.0548032017561999 0.152951571545812 0.0182354896429923 -0.07323693 0.109458 0.9912897 150 150 150
0.0527054758879748 -0.126086380877284 0.00547547630108858 -0.05312837 -0.9957691 0.07497425 100 100 100
0.101095745167455 0.08746931274912 0.0268098264101889 0.07952086 0.6458521 0.7593099 135 135 135
-0.143789937892238 -0.00182917396047477 -0.0463932157393548 -0.9986454 0.04421184 -0.02743312 77 77 77
-0.0713855532792005 -0.0361274747035778 0.0544749348524954 0.1667517 -0.09476425 0.9814345 150 150 150
-0.0832785872605237 -0.12659683505514 -0.0549427718754861 0.1731049 -0.9848818 -0.006521616 165 165 165
0.121104905209264 0.113565537533971 0.00774653247632051 0.9974204 -0.02055317 0.06877618 110 110 110
-0.013277819552699 0.186460110745641 -0.0144561380978677 0.0198505 0.9954046 -0.09367846 103 103 103
0.0126856060835925 -0.123785283961085 0.0333983152274039 -0.03054459 -0.9989851 0.03310467 117 117 117
0.10275025089713 -0.131759312548426 -0.0492403061028573 -0.1891162 -0.978151 -0.08634591 91 91 91
0.144071766934117 -0.0796846417568005 -0.00481997438631987 0.8927203 0.3378908 -0.2981279 98 98 98
-0.152717521586696 -0.0486194161556042 0.00514198831357027 -0.9286446 0.2027134 0.310687 176 176 176
-0.000354578891077928 -0.121084597506312 0.051058933055773 -0.2048891 -0.9772363 0.05504167 109 109 109
-0.115539839663783 0.182013246617528 -0.0111607462998483 -0.4548693 0.8898652 0.0351252 79 79 79
0.0648514719817248 0.0376283856250965 0.0434664039973166 -0.2023016 0.04441198 0.9783157 136 136 136
-0.147426536479274 -0.0770426062724865 0.0208957939509299 -0.9745704 0.08522169 0.2072433 124 124 124
-0.117163112559596 0.106574151120397 0.0191438942316916 -0.9526297 0.004702871 0.3040963 168 168 168
-0.14592819491891 -0.0349058179042614 0.0232823341254141 -0.9281285 -0.1737084 0.3292457 153 153 153
-0.109780600467006 0.18569335659525 0.00724513820446993 -0.1564396 0.9853309 0.06818785 200 200 200
-0.135673931041041 0.0316377611973011 0.0188703387144949 -0.9349875 0.1440329 0.3241185 95 95 95
-0.149627259173671 -0.0303950575969494 0.00287504485882784 -0.9674897 -0.1371738 0.2124781 114 114 114
-0.145303895869533 -0.115791943468837 0.021584793842211 -0.6569328 -0.752969 0.03843231 218 218 218
0.0506358834120837 -0.0909788874767101 0.0692911892298606 0.2071362 0.08645061 0.9744849 118 118 118
0.0761545391890612 0.110748979649755 0.0135982184771445 -0.01262607 0.04365923 0.9989667 175 175 175
0.10472721775504 0.0959195824482166 0.0213142185572531 -0.06056909 0.5158891 0.8545114 141 141 141
0.00793308933707149 0.0490084620334827 0.0445453672770407 0.1925022 0.3959471 0.8978691 154 154 154
-0.0680143145707044 0.107893678746434 0.0384498088721182 0.1963696 0.1340472 0.971324 125 125 125
0.0450874062392321 -0.108503368296412 0.0724530368212607 0.2653882 -0.01765152 0.96398 129 129 129
-0.106783917346278 -0.0251184968135632 0.0592639892462637 0.03806341 0.01213542 0.9992017 107 107 107
-0.149065306582728 -0.0340278414867199 -0.000689402305707687 -0.9605824 -0.1705402 0.2195394 142 142 142
0.106917450031957 -0.023876336016444 0.0398233681086447 0.1979952 -0.05645902 0.9785756 108 108 108
0.0444552393767443 -0.0831867722652233 0.0709258168105033 0.2873049 0.08104008 0.9544047 151 151 151
0.10827536304923 -0.0212449101589001 0.0396220534209158 0.1281395 -0.1171793 0.9848093 84 84 84
0.0332644673201647 -0.126079943575648 0.0453874020937827 -0.329821 -0.9440146 0.007383851 32 32 32
0.125459501347264 -0.11802282611349 0.0231559722784903 0.1321777 -0.2527023 -0.9584731 146 146 146
-0.129540017047206 -0.0800034073970592 0.0559018998507407 0.01207898 -0.1163348 0.9931366 162 162 162
0.0124397965285388 0.00353429039499398 0.0507691352728751 0.3456148 -0.07386567 0.9354647 138 138 138
-0.073960831561366 -0.120253589548854 -0.0185946972008798 -0.04715025 -0.9829001 0.1780003 84 84 84
0.0167006941649523 0.131694171033117 0.0191280393961814 0.07513294 0.09899909 0.992247 151 151 151
0.124054858288488 0.12523934563181 0.00962786368168855 0.9688034 -0.155125 -0.1932776 77 77 77
-0.123593500056544 -0.118424919047145 -0.0255547315713022 -0.1860855 -0.9592131 0.2127969 115 115 115
-0.115212133326808 0.151407215199681 0.04070101670064 -0.5838671 0.258406 0.7696269 216 216 216
-0.00915735045937627 0.105813953480931 0.0235594063166525 0.3809607 0.1583902 0.9109234 175 175 175
0.105184981426915 0.113591763577672 0.014622941530123 0.002293653 0.1670837 0.98594 90 90 90
-0.149018457331935 -0.0826996831081188 0.0249677150610831 -0.9797326 0.1297884 0.1525745 112 112 112
-0.142322829165736 0.0308291645862782 -0.0220184774037454 -0.9152032 0.2643508 -0.3041741 44 44 44
0.125038096508702 -0.0965999631068981 -0.0371870399352167 0.7733242 -0.2590998 -0.578651 42 42 42
-0.0251709727433118 -0.123883870043544 0.00381629160679842 -0.1026674 -0.9677075 0.2302208 125 125 125
0.106636592945775 -0.121345427431849 -0.00812272735796904 0.869871 -0.4793167 0.1165334 95 95 95
-0.122844269671718 0.0958854885914051 -0.0154378862019632 -0.9712628 -0.02343388 -0.2368532 40 40 40
-0.101200273433009 0.18181118687174 0.0233385413054373 -0.001976961 0.9278136 0.3730387 155 155 155
-0.047973921695033 0.185754630170079 -0.0155093819733713 -0.1600634 0.9869778 0.01595654 91 91 91
0.0825225802275744 0.146252009473058 0.0193636565569785 0.05003484 0.06806821 0.9964252 81 81 81
-0.145085385241786 -0.1096318034313 -0.0413664580222223 -0.9811715 -0.1270783 -0.1454426 84 84 84
0.0683819743010607 -0.0338554648540295 0.0437504201296713 -0.005681039 0.06031879 0.998163 176 176 176
-0.139045169749537 0.0099383326389515 -0.00219444938860869 -0.9646704 0.2625471 0.02191103 69 69 69
-0.055325200953761 -0.0998238591335094 0.0607257335547354 -0.1075191 0.134234 0.9850994 98 98 98
-0.134643724360743 0.00576290806314583 0.0232717244986441 -0.9136471 -0.04801582 -0.4036625 108 108 108
0.0247895212981311 -0.124570873179225 -0.0182173699971292 0.08399975 -0.9941018 -0.06859728 41 41 41
0.0264282914015856 -0.0401146678111828 0.0486351101759818 0.1638876 0.2485823 0.9546453 162 162 162
-0.0234541205552015 0.0784811707355701 0.0358588545683768 0.1104472 0.4038033 0.9081544 131 131 131
0.146131941876134 -0.0480667618892467 0.0156498401526358 0.9105368 0.2746288 0.3090337 122 122 122
0.0700441094252673 0.143485996327611 0.0198656170729544 -0.06229568 -0.03320744 0.9975051 118 118 118
-0.0970602540162 0.0396491022922718 0.0534461884859946 0.0423851 0.2565965 0.9655888 97 97 97
0.0882349701735583 -0.12594154159048 -0.00540663310252165 -0.03607965 -0.9966259 -0.07372316 144 144 144
-0.0122008828308973 -0.0624183682582653 0.0581433325175192 -0.1435908 0.07283068 0.9869536 113 113 113
-0.121439626612941 0.0372910233356678 0.0534968226317313 -0.2577873 0.2526244 0.9325913 172 172 172
0.0086822005126086 -0.129711535372523 0.00663907817639375 0.1421714 -0.9875839 0.06682266 115 115 115
0.0267716141554919 0.00575802048227425 0.0465684979323294 0.1983963 -0.06386422 0.978039 157 157 157
-0.0222211388733777 0.0854481192447865 0.0321024506453421 0.1995718 0.339651 0.9191345 116 116 116
0.0686706992003527 0.0175146790363514 0.0453071146372702 -0.2339492 -0.1306363 0.9634324 136 136 136
0.128421017727574 -0.0698907641551769 0.0463402717474845 0.1254684 -0.0004253828 0.9920976 179 179 179
0.120027968487462 -0.0428537396571911 0.0416742115382102 -0.04690089 0.2970834 0.953699 169 169 169
-0.0591178445008191 -0.123458650507716 -0.0359422118302438 -0.3214375 -0.9431847 -0.08414589 89 89 89
0.06420523842307 0.0257655115940296 0.0438890009287741 -0.2735306 0.03573024 0.9611995 145 145 145
-0.109078219332972 0.17865857800028 0.0293809025648978 -0.01706276 0.7696958 0.6381828 245 245 245
-0.0274652747300062 -0.126529481806544 -0.0305384696360681 -0.3347538 -0.9302427 0.1502944 106 106 106
0.101907441220006 0.186626288495275 -0.0136889965172861 0.1902032 0.9533558 0.2343832 150 150 150
-0.115945628085414 -0.0663734940669811 0.0574986188773062 -0.09846357 0.01488288 0.9950293 118 118 118
0.128362485966405 0.0579968424656117 -0.0295493156548593 0.8697945 0.1491273 -0.4703388 38 38 38
0.0920979472014514 0.00995537956735726 0.0451734512213614 -0.05327078 -0.1185874 0.9915136 132 132 132
-0.144991686740199 -0.0920957593105114 0.0325074940089133 -0.9141868 0.1761399 0.3650168 111 111 111
-0.149767687716762 -0.0661716727397716 -0.0199992508526895 -0.931494 -0.1868366 -0.3121074 92 92 92
0.134730527004918 0.0699006052829945 0.0163756757143881 0.9848579 0.1729195 0.01240636 54 54 54
0.133653590283116 0.052449438176366 -0.00166244813166594 0.9895722 0.1392155 -0.03695681 40 40 40
-0.0216591862824353 -0.110715058245448 0.069804951465502 -0.309379 -0.1540082 0.9383848 179 179 179
-0.11392443458108 0.129664156041356 0.0423268525961783 -0.6056979 -0.01132245 0.7956142 235 235 235
0.0124047489974108 0.113785717091771 0.019708231008425 0.08749463 0.2891217 0.9532855 170 170 170
-0.133379509845057 -0.0186065701625622 0.0606829374197867 -0.04782883 -0.04470905 0.9978545 192 192 192
-0.145600369372645 -0.00971641818502311 0.0455160885218527 -0.9059128 0.3918692 0.1605005 185 185 185
0.0924022885176745 -0.0246787337444103 0.040117189205065 0.07251056 -0.1704563 0.9826937 118 118 118
-0.000822832980433397 -0.129479673304347 -0.041713506066427 0.1334305 -0.9830972 -0.1253643 116 116 116
-0.0237194804337415 -0.126115348734645 -0.0075153858300302 -0.1749723 -0.9829123 0.05716749 133 133 133
0.142549941143712 -0.0643575457713879 0.0277844517592337 0.8369946 -0.1364186 0.5299339 227 227 227
-0.0973841456559095 -0.0499527720592297 0.055443242109194 -0.009133364 -0.04894006 0.99876 123 123 123
0.0898035260054675 0.186633917889806 -0.0270990283127878 -0.1660236 0.9692447 -0.1816613 152 152 152
-0.0691146163132581 -0.120551970400599 0.00935511282719637 0.1115085 -0.9903685 -0.08207397 83 83 83
0.0286757441374865 -0.127463725008754 0.0537639110449698 -0.1430784 -0.9459943 0.2909008 112 112 112
0.121690222820958 0.0876141520359242 0.0272390692595389 0.08365795 0.5856699 0.8062209 141 141 141
-0.0645493773606214 -0.0451523331783092 0.0543205588225272 0.001931541 0.1519198 0.9883909 113 113 113
-0.0736798552658948 -0.0347242621562756 0.0552399306658652 0.1832062 -0.1760816 0.9671767 145 145 145
0.00648159702750117 0.183548304639074 -0.0248992592927072 0.08894871 0.9766724 -0.1954459 111 111 111
-0.0493629483368787 0.183074566922399 0.00901846579350496 0.1900347 0.9809254 -0.04089176 91 91 91
-0.143446495929042 -0.0902958182475841 -0.0233750791188333 -0.9765888 -0.116488 -0.1808447 120 120 120
-0.140964916148463 -0.0057777432582653 0.0510334818724539 -0.8733707 0.4812376 0.07505965 188 188 188
0.00746483524771602 0.0320040913440907 0.0501577406290915 0.001722898 0.03942104 0.9992212 151 151 151
0.112910816273412 0.16399941166422 -0.0137151033516977 0.9265018 -0.02754969 -0.3752804 17 17 17
0.132295677265843 -0.126903918185023 -0.0542031974431131 0.9521107 -0.07667995 -0.295982 117 117 117
-0.137780955233851 -0.0284261969707287 0.0508365183237937 -0.9739585 -0.1042987 0.2013123 106 106 106
-0.0842385796692762 0.117316696248265 0.0394010692004111 0.1769248 0.06059125 0.9823575 120 120 120
-0.109698703685084 -0.108028319277552 0.0567991881731894 0.1362012 0.08531433 0.9870009 107 107 107
-0.141105344691554 -0.0687626866481579 0.045161738908663 -0.9978008 -0.01392202 0.06480628 140 140 140
-0.0399671105530652 -0.121001270212916 0.0602179615858939 -0.082063 -0.8983973 0.4314487 177 177 177
0.0884597988936511 0.179904315076085 0.00913067153729463 0.06465569 0.2911405 0.954493 144 144 144
0.0932450981947985 -0.0615309743068493 0.0487025826338675 0.3155488 0.2759838 0.9078887 216 216 216
0.0350437851759997 -0.125609901346949 -0.0272737295266244 0.0355199 -0.9661853 0.2553904 138 138 138
-0.145497372546473 -0.0263066558025158 0.0332453399065878 -0.7461702 -0.3951474 0.5358064 164 164 164
0.107760259709081 -0.119459894099025 0.0436762719515708 0.181912 -0.6772577 0.7129025 104 104 104
-0.154496839442531 -0.0435784129283703 -0.006656035863981 -0.7357534 0.4343616 0.5196124 146 146 146
0.0359801741454211 -0.0170488623760021 0.0249118357066062 0.1815112 -0.8570172 0.4822606 104 104 104
-0.138202360072413 0.0400604935505116 -0.0406631083127115 -0.9361491 0.3469757 -0.05685653 71 71 71
-0.0350740460541639 -0.118186858095912 0.0668848305109885 -0.3302447 -0.5155739 0.7906466 185 185 185
-0.104255488314906 -0.0519253281734264 0.0567107944849875 0.06804533 -0.05623988 0.9960958 151 151 151
-0.120362689891139 0.0984022351124012 -0.00626002260409331 -0.9944602 -0.02913465 0.1009959 118 118 118
-0.00967245379952519 -0.132102277674464 -0.0284525305863473 -0.009386954 -0.9956081 -0.09314741 106 106 106
0.0799941511962023 0.186245772443029 -0.022517874919996 -0.2041086 0.9649469 0.1649761 137 137 137
-0.0489337948944959 0.0756580563404285 0.0393274276617911 0.07753165 0.374726 0.9238881 128 128 128
-0.000635555186549119 0.0699969263889515 0.0349490790728476 0.1481151 0.4092654 0.9003131 142 142 142
0.0236657353255358 0.0283198090412342 0.0411041825179007 0.3130192 -0.01166101 0.9496752 88 88 88
-0.0976299552109632 -0.118621375956324 0.0331057458285239 -0.07074043 -0.991596 0.1083194 159 159 159
0.118342349133214 -0.108967926897792 0.013117894447222 0.6443672 0.7607945 -0.0773477 106 106 106
0.100736805996617 -0.00840499679067497 0.0431028156641867 0.2118846 -0.06745726 0.9749638 111 111 111
0.139553258022985 -0.0784535674236095 0.020781263625994 0.8611062 -0.1970989 0.4686664 101 101 101
0.0546003075453845 -0.126403596796778 -0.00103478141985869 -0.1684403 -0.9857017 0.004481206 114 114 114
-0.107135107913295 -0.121643927492884 -0.002434924327955 0.04839886 -0.9966857 0.06538543 71 71 71
-0.0167662409928235 -0.120455887713221 0.0289245694044974 -0.3954048 -0.902256 0.1720153 151 151 151
-0.109429409899989 0.129483553967687 0.0424831359747794 -0.005942339 0.04171188 0.999112 171 171 171
-0.0754123238709363 0.183702084622594 0.0212156026724722 0.1236369 0.8468251 0.5173019 109 109 109
-0.142229130664149 0.00537142475626107 -0.0142735690709207 -0.9841865 0.06186695 -0.1659801 122 122 122
0.0282699557158557 -0.124999072947291 0.0425486712817099 -0.1809847 -0.9388409 0.2929546 129 129 129
0.124335715374669 -0.0728138951442516 -0.0462175459500406 0.8179083 -0.04284627 0.573751 35 35 35
-0.147613814273158 -0.0539441374919689 0.00477202228344942 -0.942915 0.01158948 0.3328319 132 132 132
0.122720310291967 -0.0565258530757702 0.0441931336287406 0.07198087 0.1057194 0.9917874 177 177 177
-0.114931157031337 0.0953991146900379 0.0430910437468436 -0.9683677 -0.08671045 0.2339772 195 195 195
-0.0599138049271497 -0.0586893824718273 0.05408893517293 -0.01246725 0.02268679 0.9996649 102 102 102
