ply
format ascii 1.0
comment File exported by Rhinoceros Version 7.0
element vertex 475
property float x
property float y
property float z
property float nx
property float ny
property float nz
property uchar red
property uchar green
property uchar blue
end_header
0.0483171312615145 0.0784888818593122 0.0685433133294861 -0.2527729 0.1474332 0.9562266 116 116 116
0.0490833405589237 0.0791278351971884 0.0691493426232305 -0.2527729 0.1474332 0.9562266 110 110 110
0.0464971934954139 0.0811046352248476 0.0663175475742478 -0.4221576 0.4564527 0.7832202 60 60 60
0.0494975506972262 0.0815977683350287 0.0681051744181793 -0.3872957 0.3722124 0.8434808 60 60 60
-0.00853796034537635 -0.0493535081308745 -0.0490436241527795 -0.5602133 0.4058832 0.7220941 28 28 28
0.0159383562913207 0.0648278259950646 0.016947199562381 0.05065573 -0.749362 0.6602201 191 191 191
-0.0767994082207497 -0.0614484897024306 -0.0346205366882303 -0.4219156 -0.6655886 0.6156128 112 112 112
-0.0391540467574794 -0.0764189943808653 -0.0563108292728893 -0.5821379 -0.1078068 0.8059114 125 125 125
0.0247029185512857 0.0034096175120637 -0.030452780928777 -0.1762408 -0.4611551 0.8696408 103 103 103
0.040248765918907 0.0526204347492277 0.0174971240334625 0.1854837 0.5848237 0.7896689 39 39 39
-0.0459497844192238 -0.0150683065750691 -0.021550417618965 -0.3100526 -0.5542843 0.7724224 107 107 107
-0.026697722763765 0.0264533579655415 0.0319891722139812 0.5948453 -0.8015919 -0.06007848 15 15 15
-0.0310878107763011 -0.0558567329128492 -0.0519179269378754 -0.1865075 -0.5870138 0.7878006 143 143 143
-0.00791240903489121 0.044515039627483 0.0204672184190633 0.6348193 -0.7714611 0.04303755 94 94 94
-0.0122855438044061 -0.0784139355058462 -0.0547919732072698 -0.3253053 -0.160343 0.9319155 36 36 36
0.0591064724428931 0.0232418676854632 0.0213374478648642 0.07874647 0.04432777 0.9959087 89 89 89
0.0410996060879487 0.00720473937532584 -0.0126025642420773 -0.06913407 0.6818784 0.7281911 29 29 29
-0.0534180578090022 -0.0535828540058064 -0.041810930893787 -0.2488151 -0.5930291 0.7657725 35 35 35
0.00344565252601825 0.0184255465225676 -0.0144514211639472 -0.230548 -0.5583742 0.7969102 92 92 92
0.0320276966107222 -0.0186911963399505 -0.0243886464066891 -0.1254592 0.5072684 0.852607 39 39 39
0.0312550802116016 0.0811410825958235 0.0310643948968999 0.3053048 -0.8244582 0.4765057 45 45 45
0.0270722674541264 0.0738987071918701 0.0214849918919925 0.2692995 -0.5453667 0.7937587 175 175 175
-0.0373631670380994 0.0101401392382026 -0.00703585578717369 -0.106636 -0.613517 0.7824485 178 178 178
0.0112395854931209 -0.0283934705510335 -0.0389935783975213 -0.4315252 0.4633863 0.7739891 42 42 42
0.0229410685120426 0.0165946914679092 -0.0206899686168737 -0.06698944 -0.5513756 0.8315632 61 61 61
-0.0368287629201343 0.0115921288800269 -0.00566351928380665 -0.08867828 -0.6114488 0.7862993 128 128 128
0.0264942219072557 -0.0349867034519118 -0.0314103925116531 -0.3784236 0.2010725 0.9035295 53 53 53
-0.00669508977602118 0.0255524183999061 -0.00677065368600799 -0.1798334 -0.5484883 0.8165908 123 123 123
0.0218648785675533 0.0558584328372397 0.00902174062277555 -0.1396033 -0.6061913 0.7829707 149 149 149
-0.0301725776225552 0.026063365497432 0.0178834880752936 0.255904 -0.9657573 0.0427327 94 94 94
0.0193019858799657 -0.0515526815781797 -0.0371817622383784 -0.4957158 0.6274154 0.6005129 55 55 55
0.0400002531404202 0.0814779642021247 0.0492573934655768 0.6005996 0.1312092 0.7887105 77 77 77
0.0445586188206581 0.0300443088044936 0.00951416606312683 0.2684007 0.5400161 0.7977116 59 59 59
-0.0145991409476449 0.0202393185262211 -0.00824514138751464 -0.08979396 -0.6505154 0.7541662 94 94 94
-0.0391030317967975 -0.0654611739691706 -0.0561250489748484 -0.3709508 -0.4252778 0.8255509 108 108 108
-0.0392538171934018 -0.0031591164053375 -0.0148565066538386 -0.2171538 -0.5486743 0.8073418 205 205 205
-0.0385935409369182 -6.96193648799248E-05 0.0170139668960098 -0.3136533 -0.1957517 -0.9291409 5 5 5
0.0463294270536614 0.0305038512811797 0.0109579876324871 0.2698851 0.4867429 0.8308089 59 59 59
-0.0434421444706767 -0.000478769281246016 -0.0117777528647521 -0.180324 -0.592457 0.7851611 143 143 143
-0.0186018175750833 -0.0751234543032564 -0.0532862312990071 -0.3937871 -0.374017 0.8396684 120 120 120
-0.0141529526197208 0.0402766435090667 0.0239467617115435 0.6002603 -0.796402 0.07369895 35 35 35
-0.0240084752231942 -0.0354699067968247 -0.0401505154576255 -0.2991445 -0.6379502 0.7096 132 132 132
0.0354099683372131 -0.0115894303615361 -0.0189788783728885 -0.283931 0.3727126 0.8834413 103 103 103
-0.0373233742082193 0.0165738259117699 0.00653825870696234 0.1756375 -0.9408696 0.2896824 90 90 90
-0.0157305004676618 0.0108957492440898 -0.0153029621075813 -0.1607078 -0.6227193 0.7657634 52 52 52
0.00876991089241841 0.0440151963897986 0.00154924893845632 -0.1498214 -0.629467 0.7624466 126 126 126
0.0168199702759395 0.0432766705013147 -0.000559045462959762 -0.06988493 -0.5191973 0.8517924 113 113 113
-0.0549748592501873 -0.0283181092381206 -0.0258715854736967 -0.2596619 -0.553117 0.7916043 59 59 59
-0.0143971328794434 -0.0548255979780956 -0.0519814616266323 -0.6304084 0.1826935 0.754459 21 21 21
-0.0476903398765447 -0.0787124586897249 -0.0560640211224949 -0.4693709 -0.2096042 0.8577628 124 124 124
0.0211180508327056 0.0665063214879841 0.0177156657147052 -0.02988526 -0.6479568 0.7610906 205 205 205
-0.0419971010922009 -0.0400026986872923 -0.0365125924688305 -0.291326 -0.5947514 0.7492662 166 166 166
-0.012387354155442 -0.0669186426879419 -0.0503833169510656 -0.3799189 -0.1467896 0.9132987 101 101 101
0.0486848410748864 0.0784379509586594 0.0690848395995631 0.7237511 -0.001903495 0.6900585 107 107 107
-0.0542289338594026 -0.00971758026400871 -0.0159964886200977 -0.2055918 -0.6743253 0.7092372 92 92 92
-0.0501853385040967 0.00297827800794359 -0.00289367327593959 0.2345908 -0.9706082 -0.05372855 84 84 84
0.0486015536302129 0.0147203782648524 0.00302320625000257 0.03799067 0.3524303 0.9350666 169 169 169
0.0183114660701942 0.0674729414033827 0.0273728585864317 0.345731 -0.938246 0.01283199 139 139 139
0.0409005083513199 0.041918974195397 0.0147363803989701 0.2598627 0.5951135 0.7604678 19 19 19
-0.0432214637868535 0.0138181493496384 0.0148487137875762 0.1468672 -0.9659182 0.2131479 55 55 55
-0.0119667569702233 0.00593421883841405 -0.0196581676650496 -0.2811706 -0.558528 0.7803779 210 210 210
-0.0110708064127858 0.0420873413183441 0.0239854533235142 0.6603006 -0.7433689 0.1067976 39 39 39
0.0228216905555363 -0.00179718208372404 -0.0336100982111172 -0.1815042 -0.2100489 0.9606954 102 102 102
0.047347347525093 0.0579004026069342 0.0338509555258563 0.01362863 0.3405495 0.9401278 88 88 88
-0.0325861033016193 -0.0808482129149126 -0.0565973247497932 -0.3172963 -0.1253077 0.9400112 69 69 69
-0.0475466059664764 -0.0808718351831658 -0.0571509097149044 -0.3868958 -0.2352806 0.8916023 96 96 96
-0.046117688091839 -0.0109912136772389 -0.0017491754652636 0.0939997 -0.2290807 -0.9688581 8 8 8
0.0250689793241454 0.0704429338414977 0.0437433647046934 0.4195376 -0.8926268 -0.1649412 46 46 46
0.0511038762056311 0.037041909616809 0.0266693347316535 0.07572298 0.1707154 0.9824064 84 84 84
0.0495657758975834 0.0558444905396521 0.0385761679574972 0.2855597 0.5696114 0.770713 45 45 45
-0.0324587175782634 -0.0538335385654455 -0.0500125366191444 -0.1485532 -0.5686281 0.8090699 207 207 207
-0.0515296918170385 -0.0686198032685849 -0.0531102249836273 -0.2356885 -0.6941012 0.6802018 64 64 64
-0.0424170255718108 0.0104674855518642 -5.39862720204121E-05 0.3028687 -0.9433665 0.1353888 58 58 58
-0.0468896322259575 -0.0487106049719329 -0.0410677669868595 -0.1737465 -0.4938213 0.8520285 215 215 215
0.0388424933553893 0.0833665486314333 0.0500540466989508 0.8222355 -0.01741756 0.5688809 34 34 34
0.0460553056312074 -0.00314648512784332 -0.00789297861644656 -0.02611986 0.3757892 0.926337 122 122 122
-0.0451348780743677 -0.00111775205466069 -0.0119373153992383 -0.1669743 -0.5643554 0.8084692 163 163 163
-0.0204414206869303 -0.0471774201244346 -0.0494108838868988 -0.2136897 -0.5876071 0.7804195 114 114 114
0.02187813954763 0.0274521319852472 -0.0123465097550558 -0.2833727 -0.4924806 0.822899 212 212 212
0.0462715472984017 0.0149638771723283 0.00116782556145839 0.01405614 0.4611095 0.8872319 121 121 121
0.026351188988365 0.0731613223382467 0.0418102519416945 0.4226866 -0.885532 -0.192793 43 43 43
0.0313987126335586 0.0803086670839906 0.035936894476658 0.3158452 -0.9440507 0.09492139 57 57 57
-0.0496295364754018 -0.0279528883004062 -0.0262403491022888 -0.2715662 -0.5337504 0.800851 72 72 72
-0.0198776352759575 0.0377077168762483 0.00840638900810325 0.01494895 -0.7383088 0.6742972 168 168 168
0.0168612150748326 0.014314324526298 -0.0213593906383622 -0.09837393 -0.499221 0.8608722 35 35 35
0.0114647643966852 -0.0339407019765288 -0.0378530541347252 -0.3347036 0.4402046 0.8331827 55 55 55
0.0529941488811541 -0.0052421401944357 -0.00109532982838684 -0.05820734 0.4966666 0.8659874 61 61 61
0.0177936332531927 0.0657256310195812 0.0392699785374516 0.4138282 -0.90818 -0.06289107 92 92 92
0.0266491151203194 0.0138160389015064 -0.0243191834154409 -0.1009073 -0.5158989 0.8506857 89 89 89
0.00360824278173144 -0.00814653083558103 -0.0344453483037059 -0.2180291 -0.5634742 0.7968438 61 61 61
-0.0512203668981526 -0.0920172558412186 -0.0613340498188681 -0.3862382 -0.3594959 0.8494602 89 89 89
-0.0100375510533561 0.0131814993248803 -0.0156725351923437 -0.1501074 -0.597671 0.787564 87 87 87
0.0170195619931617 -0.00467278525339399 -0.0348772031943458 -0.2500142 -0.5217031 0.8156707 47 47 47
0.0317693833828545 -0.00350882703731437 -0.0227740674011864 -0.2920744 0.6401898 0.7105277 13 13 13
-0.0578944457208159 -0.0243135178020227 -0.022374439080767 -0.2538402 -0.5447065 0.7992871 41 41 41
0.0040248831944818 0.0434440316990975 0.00329410790406404 -0.1205677 -0.6524141 0.7482107 85 85 85
0.00497798758384382 0.0527027220861432 0.0115940414428214 0.01219517 -0.646009 0.7632324 123 123 123
0.036256907493792 0.0643301022384871 0.021197984333379 0.3497151 0.571507 0.7423471 60 60 60
0.0176248730615574 0.0422237359835977 -0.00227694024325531 -0.1244225 -0.5345703 0.8359149 101 101 101
-0.0641975447992478 -0.071152959136333 -0.0488689503199296 -0.1499108 -0.6859617 0.7120275 42 42 42
-0.0416414583180831 0.00167255739570149 0.0151776930846028 -0.3104995 -0.3695292 -0.8758072 10 10 10
0.0149529854820045 0.0648011174781346 0.0282392793959712 0.4517569 -0.8834803 0.124009 127 127 127
-0.0374637209998827 -0.0158815492035336 0.00152287132337348 -0.006755318 -0.2056161 -0.9786094 10 10 10
-0.028829000782304 0.0151024140291135 -0.00632969656271609 -0.1966481 -0.6346983 0.7473203 155 155 155
0.0229697650581095 0.0104251480448954 -0.0255721100523174 -0.1787317 -0.5652253 0.8053418 48 48 48
-0.0250280528021161 -0.0283569401016595 -0.0354212895781809 -0.2183663 -0.5548696 0.8027676 74 74 74
-0.0289003710853917 -0.0556548046249455 -0.0523711423458668 -0.1724973 -0.6241598 0.7620165 124 124 124
0.00956588509065481 0.0322171487913611 -0.00712117465483147 -0.129418 -0.5711432 0.8105841 111 111 111
-0.0703079385544279 -0.0626242613766174 -0.0399521360101082 -0.3542889 -0.6791238 0.6428611 68 68 68
-0.0151863978306175 0.0392172414698245 0.0273492205425449 0.5986798 -0.795303 0.09526557 12 12 12
-0.0672196026720555 -0.0619260249858041 -0.0415495112105604 -0.3412559 -0.6335648 0.6943631 57 57 57
-0.0560274554112885 -0.0318329383490867 -0.0154840634959547 -0.4617043 -0.8795386 0.1150692 11 11 11
-0.00401839023538075 -0.0495595978780514 -0.0468589960440471 -0.5113206 0.4069425 0.756934 21 21 21
0.0443773468678832 0.0505130361323844 0.0263889396942276 0.2165835 0.5513102 0.8056976 60 60 60
-0.0381285270662943 -0.0307495533620651 -0.0328655574062721 -0.2142906 -0.5544114 0.8041813 53 53 53
0.0176341210568913 0.0674671515776489 0.0242202796172857 0.3354047 -0.9394652 0.07006343 157 157 157
0.00173578320817258 0.0516117672834375 0.0352042764855297 0.405091 -0.9142664 0.004273965 84 84 84
-0.0139322214320201 0.0371577445554119 0.00512072658290752 -0.09519285 -0.6907349 0.7168149 133 133 133
-0.00740594485768731 0.0423901137854255 0.0354133559576081 0.4346447 -0.8930013 0.1167593 98 98 98
0.00636774807072404 -0.0276116472316816 -0.0447341020621208 -0.3129034 0.3777213 0.871446 22 22 22
0.0472611893470662 0.0804691323058478 0.0614883637887537 0.4683058 -0.06055999 0.8814886 65 65 65
-0.0105227411433158 0.027066160632024 -0.00536236872053286 -0.1216566 -0.615312 0.7788393 78 78 78
-0.0484393179929605 -0.0564744374407914 -0.045657919590916 -0.1667471 -0.5969576 0.7847528 58 58 58
0.0458885219058618 0.0353761121982672 0.0191735889343419 0.2538981 0.4197853 0.8713875 28 28 28
0.00937338427796419 -0.0408951023814493 -0.0397387576716681 -0.4126362 0.3619071 0.8359154 74 74 74
-0.0419678770196401 -0.0205941356941791 -0.0245722755924443 -0.2989887 -0.5138121 0.8041162 94 94 94
-0.032699427180225 0.0220789621460564 0.00825579800486048 0.1948251 -0.979588 -0.04950206 171 171 171
0.0161876576869302 0.06569842716413 0.0277385689376856 0.4194784 -0.9025379 0.09727868 140 140 140
0.0571202507758386 -0.00158653672527476 0.00547883804999255 0.02762112 0.4478044 0.8937048 110 110 110
-0.0306423376951792 0.026484956649745 0.00634500804580562 0.08577029 -0.9957138 0.034606 164 164 164
0.0488924882272026 0.0179930470695553 0.00613554440188363 0.1360968 0.3186544 0.9380496 226 226 226
-0.00337044225762684 0.0200823971455465 -0.0113719293602089 -0.2219778 -0.5298911 0.8184994 88 88 88
-0.0320115168805872 0.0238490639055265 0.00152203730567824 -0.07384249 -0.906853 0.4149277 114 114 114
0.00797972862686391 -0.0347109492830503 -0.0412834424557245 -0.3456593 0.5226291 0.7793449 7 7 7
0.00597169361606076 0.0557309935247766 0.030752775482335 0.3967364 -0.916059 0.05861871 113 113 113
-0.0590863518191347 -0.0741390146344921 -0.0534280621604526 -0.2370056 -0.6415086 0.7295855 24 24 24
-0.00470816631232363 0.0453921188386083 0.0269869376811515 0.3852312 -0.9225484 0.0223942 95 95 95
0.0409358991460711 0.0428344597908401 0.0146812071746935 0.23102 0.6130286 0.7555301 48 48 48
-0.000343081519915689 -0.0293156452890673 -0.0463828401679312 -0.4180407 -0.4852508 0.7679672 158 158 158
-0.0540869531035719 -0.00531380070156107 -0.0123757020671172 -0.07798552 -0.8284171 0.5546561 164 164 164
0.0168522888510552 -0.0303161606300384 -0.0349836730157521 -0.5177427 0.4523052 0.7261973 54 54 54
0.00173079471866044 0.0206708846010377 -0.0128625845904073 -0.2467835 -0.5409703 0.8040205 71 71 71
0.0445811863055838 -0.0227158242897115 -0.0129860936760449 -0.2049082 0.703407 0.6806108 51 51 51
-0.048424047239211 0.00468096109247229 -0.00182103522016763 0.2947504 -0.9506336 0.09704634 116 116 116
0.0426393365958133 0.0758954888811666 0.0460027743408593 0.4382655 0.3287822 0.8365558 60 60 60
0.0544141223890993 0.0152051011628517 0.00903541651122258 0.1058145 0.502842 0.8578771 86 86 86
-0.0541480363861109 -0.0441457018331123 -0.0367591089580509 -0.1710742 -0.5860714 0.7919936 210 210 210
-0.0543630601630181 -0.0336705893763721 -0.0282617962136619 -0.2818696 -0.5727325 0.7697577 222 222 222
0.043897851991086 0.0776366543400732 0.0665485002359272 0.5117719 -0.8351853 -0.2013826 53 53 53
0.0304568530262741 0.012726534565682 -0.0249609719262873 -0.07534093 -0.3256827 0.9424726 110 110 110
-0.0247776278306497 -0.0628272539055914 -0.0542713590911865 -0.5495757 0.06740532 0.8327203 34 34 34
-0.0781062574368565 -0.0552718306883032 -0.0329409023260667 -0.4185569 -0.5598599 0.7150993 107 107 107
0.0401320086128916 0.0384578980384626 0.00119904218952915 0.3523379 0.6095622 0.7101352 28 28 28
-0.021971690288187 0.0359456457891278 0.0160778023681057 0.4092541 -0.9109734 -0.05136672 14 14 14
0.0042554449728498 0.0369242210594379 -0.00178437423117767 -0.1144419 -0.5928449 0.7971436 97 97 97
0.00936137541101312 -4.06971146083013E-05 -0.0308279087408002 -0.1460658 -0.4889375 0.8600028 49 49 49
0.0541620338443778 0.0395764132684289 0.0327068250684197 0.1948712 0.4085847 0.8916747 104 104 104
-0.0424052908110926 0.0166721586000641 0.0198376840080857 0.2078115 -0.9621432 0.1763372 45 45 45
-0.0369706193803183 -0.0470348860016081 -0.0425129011527797 -0.1796104 -0.6267177 0.7582644 125 125 125
-0.0449224156926409 -0.00691218298598284 -0.0164359057037479 -0.1271496 -0.5120651 0.8494835 72 72 72
0.0314616438933788 0.0708712802066803 0.0177121216273187 0.1365097 -0.04877124 0.9894375 179 179 179
-0.00206593547981981 0.0425016474843266 0.00456685037517873 -0.09413572 -0.6306471 0.7703394 139 139 139
0.0266812060665997 -0.0139214643556314 -0.0300581639372484 -0.2230404 0.5598133 0.7980364 29 29 29
-0.010582670289901 0.00195192526240395 -0.0220009664254097 -0.1888671 -0.6049232 0.7735613 148 148 148
-0.0335331681278555 0.0251103383188904 0.0224166238450482 0.3355485 -0.8944755 0.295501 103 103 103
-0.0172605090399662 -0.0417738656218201 -0.0471566508049117 -0.2186386 -0.7055647 0.6740738 81 81 81
0.00305076287802075 0.0205194652235496 -0.0130873134076605 -0.2272685 -0.53471 0.8139006 64 64 64
-0.0456632950786253 -0.0830722289935115 -0.0578903274678194 -0.2929153 -0.3063079 0.9057462 101 101 101
0.00151400490653941 0.042047619962012 0.00312170346177187 -0.1032386 -0.5842275 0.8049969 149 149 149
0.0409927769074225 0.0093643325344086 -0.0122837936898586 -0.08284241 0.7101924 0.6991165 36 36 36
0.0500656870228382 0.0600573572924409 0.0433889302884248 0.08289608 0.4713799 0.8780257 36 36 36
0.0442895985526097 0.0017331657805425 -0.008955098064094 -0.02814964 0.5537594 0.8322008 64 64 64
-0.0337972765095271 -0.00606630718649581 -0.0186848871786315 -0.2184916 -0.6011083 0.7687199 85 85 85
0.0450622931620983 0.0786090175771265 0.0662025425328321 0.7781681 -0.3249212 0.5374761 52 52 52
-0.0223368186492541 0.0349630606100743 0.0174904693306914 0.3955616 -0.9169758 -0.05183042 18 18 18
0.0478988794451549 0.039426993606221 0.0250652889487217 0.1553713 0.3442477 0.9259337 73 73 73
0.0154726639697715 0.0620026681678382 0.0151863706594578 -0.1044856 -0.6307131 0.7689497 189 189 189
0.0249422357642533 -0.0339356435238213 -0.0320398361705147 -0.3792102 0.1271343 0.916535 77 77 77
0.0476076800171716 0.06085121535741 0.0392471899508036 0.2239456 0.5645836 0.7944141 52 52 52
-0.00178373673895615 0.00443152950340475 -0.0242194712813192 -0.1573175 -0.5625563 0.8116536 115 115 115
-0.0202309173949822 -0.00939745263700897 -0.0269250739815695 -0.3688158 -0.6256355 0.6874264 130 130 130
0.0336250200121579 0.0474323536456032 -0.000369127159512816 -0.02595263 -0.2399522 0.9704378 63 63 63
0.032825239694624 0.0708177072118786 0.059310912742944 0.5969953 -0.6929738 -0.4042078 32 32 32
0.0541413732118197 0.00649096805156379 0.00616314617872649 0.01600914 0.5042669 0.8633994 61 61 61
0.0145096273942307 0.0636818570855088 0.0327090230881856 0.4506823 -0.8925053 -0.01788345 92 92 92
-0.0162716182152323 0.0329027834116504 0.00287656501661598 -0.1150038 -0.6333464 0.7652754 106 106 106
-0.0132778548543981 -0.0538207106682507 -0.0519226257848829 -0.6010864 0.1953552 0.7749397 25 25 25
-0.0426573436846862 0.00524567577414414 0.0186150663046701 -0.2544694 -0.4466475 -0.8577595 5 5 5
-0.0454841130930606 0.00237353525761586 -0.0091260650330095 -0.1255376 -0.6000134 0.7900786 180 180 180
0.0381320611276141 0.08432741972064 0.047977002205581 0.6378154 -0.04574014 0.7688299 77 77 77
0.0512455337427857 0.0686716914072524 0.0534386693979521 0.3326318 0.4651 0.820389 60 60 60
-0.0324071030730477 0.0236380520538717 0.0150058966290545 0.1726392 -0.9649199 0.1978009 108 108 108
-0.0134413555625861 -0.0736208060555107 -0.0534976133919464 -0.3232177 -0.186359 0.9277934 93 93 93
-0.0449255468943248 0.0110853548281332 0.00637718361222445 0.2682909 -0.9020687 0.3380711 46 46 46
0.0414709220453999 0.0402455572546981 0.00866278813871901 0.4864461 0.5616924 0.6692322 29 29 29
-0.0332797191967875 -0.0488508368688739 -0.045350495563621 -0.08899405 -0.644688 0.759248 82 82 82
0.0522014951929708 0.0469054745787297 0.0342617435652448 0.2404476 0.464372 0.8523753 83 83 83
0.0128922416762411 0.0391224890522577 -0.00322054958549739 -0.1950885 -0.5132025 0.8358012 78 78 78
-0.0129794678305262 -0.0456900235952783 -0.051441287891925 -0.4848038 -0.4513236 0.749181 136 136 136
-0.0305377985087456 0.0264395322383086 0.0233594827218517 0.452049 -0.8651367 0.2172332 27 27 27
0.0290578152852743 0.0771549204989167 0.0415618201631192 0.3604867 -0.9119154 -0.1961112 22 22 22
0.0448248593234837 0.0013671076282421 -0.00740881507687535 -0.03558789 0.4908381 0.8705237 68 68 68
0.0199484379554193 -0.00283469194188679 -0.0345990443122992 -0.1801852 -0.3981856 0.899434 123 123 123
-0.0595089165478981 -0.0392297386040482 -0.0302485064082489 -0.126984 -0.6434976 0.7548416 139 139 139
0.0454077001042328 0.0584667848142494 0.0334961687495728 -0.003706556 0.2934383 0.9559708 74 74 74
0.0201739437858794 0.00520200671940807 -0.0278964640639002 -0.1972696 -0.5209035 0.8305084 57 57 57
-0.0361770797340748 -0.0170294301079235 -0.0240351722305839 -0.2596021 -0.5653691 0.7829205 38 38 38
-0.0509971759482932 -0.0118953747937243 -0.00632374378927381 0.3424177 -0.5960436 -0.7262797 12 12 12
0.0484000859746909 0.0403948616810267 0.0269130374018319 0.03718221 0.3154613 0.9482097 90 90 90
0.00491122692286705 0.0548596233355106 0.0306149888809835 0.41006 -0.9090627 0.07386328 113 113 113
-0.000428609968347704 0.052178832134377 0.0188233827449675 0.3935601 -0.9188813 -0.02770581 77 77 77
0.0558868211124097 0.00877517172241538 0.00983702469031428 -0.01118701 0.4854601 0.8741872 139 139 139
-0.00472202517371856 -0.0136713212923628 -0.0337296922417092 -0.2669592 -0.6394809 0.7209694 113 113 113
0.0149124169689498 0.058998813521404 0.0132925252206157 -0.1707405 -0.5861107 0.7920366 155 155 155
-0.0495393783278311 -0.00163976632890195 -0.0115810339661544 -0.07264525 -0.6076599 0.7908679 131 131 131
-0.00819258549968116 0.0420543844123706 0.0346251523149522 0.4230563 -0.8970081 0.1280621 54 54 54
0.0110814982193279 -0.0383756380885512 -0.0388583572151192 -0.3322383 0.4197464 0.8446483 55 55 55
-0.0397825091224173 -0.0287670810336963 -0.0308043455677158 -0.1899054 -0.6214852 0.7600606 46 46 46
-0.0582145105531502 -0.0438195231484992 -0.0348750475601803 -0.2427708 -0.6796963 0.6921526 99 99 99
-0.0182266285919874 -0.0410416434895484 -0.0456627084292521 -0.2146843 -0.6953667 0.6858394 76 76 76
-0.0296368222059216 -0.0541413617033831 -0.0509273803950703 -0.1549267 -0.6152058 0.7729939 207 207 207
0.0335854545548062 0.0825561217248695 0.0412997143381877 0.3364862 -0.9394651 -0.06467073 139 139 139
0.0516708988238554 0.0481343069435408 0.0331554145840521 0.195317 0.457808 0.867331 99 99 99
-0.0490613381246439 -0.0204704437432521 -0.0230678734634843 -0.3010102 -0.5462154 0.7816915 79 79 79
-0.00466522898211363 -0.0394898698251186 -0.0484048293410115 -0.4880381 0.02807974 0.8723705 23 23 23
0.0131697754631763 0.0128848988948056 -0.0216834960379817 -0.1429335 -0.5650691 0.8125681 33 33 33
-0.0330529581871271 -0.0711553769760073 -0.05538697900885 -0.5738685 0.05600358 0.8170303 83 83 83
-0.0613885471105291 -0.0280849747912502 -0.0171956393495982 -0.2588585 -0.6570784 0.7079833 18 18 18
-0.0434654616156045 -0.0525184645902022 -0.0441488086199558 -0.1475083 -0.6090606 0.7792858 214 214 214
-0.0635438741576189 -0.0583948605534608 -0.0412124831583173 -0.3265006 -0.5893325 0.7389753 55 55 55
0.0450711996272979 0.0104899363332505 -0.0023253910064775 0.05271347 0.4720719 0.8799826 114 114 114
-0.019637006893235 0.0383793919395171 0.0167052520648104 0.4508992 -0.8920768 -0.02981438 25 25 25
-0.0371749047640926 -0.0520828819092221 -0.0472952891221828 -0.05183462 -0.6510042 0.7573022 197 197 197
0.0362197922137244 0.0222262893039985 -0.0183950873085779 -0.2486425 -0.03963164 0.9677842 131 131 131
-0.00827709477039851 0.00416570578599129 -0.0220329860978831 -0.2565607 -0.6242586 0.7378874 221 221 221
-0.0236049535627216 0.0327348917833923 0.0208208224116083 0.379701 -0.9212205 -0.08473405 17 17 17
0.0268289079827064 0.0759140556755847 0.028424219738109 0.3062793 -0.8793002 0.3647246 51 51 51
0.0415037493046895 0.0703804783393477 0.0378515920030901 0.1576358 0.2462926 0.9562902 76 76 76
0.0515184959032498 0.0259080397468157 0.0174171762751853 0.2992168 0.2933673 0.9079674 103 103 103
0.039088216431268 0.0718269718120427 0.0645718433402003 0.5627007 -0.6314455 -0.5335208 49 49 49
0.00747016490326979 0.00200689424471345 -0.0283004029559797 -0.07136071 -0.5286276 0.845849 52 52 52
-0.0251425596133463 0.00395263851333927 -0.0159580915289591 -0.2636029 -0.6302763 0.7302502 167 167 167
-0.0193110003695447 -0.0437168707815101 -0.047163526937802 -0.2361991 -0.6775244 0.6965419 70 70 70
-3.33170558297624E-05 0.0496580331441886 0.0329866971586507 0.3621819 -0.9320574 0.009654545 62 62 62
-0.0359193490225791 0.0131020567380637 -0.00481999819453505 -0.1781201 -0.6133265 0.7694829 133 133 133
0.0247515036251778 0.0661773206191724 0.0153947234000376 -0.1224977 -0.5635872 0.8169234 168 168 168
0.0101430620070206 0.0563369245624462 0.0138148935953398 -0.1069084 -0.6606352 0.7430556 156 156 156
-0.00698844987288827 -0.034859506164315 -0.0459438245588754 -0.1948848 -0.6651323 0.720846 110 110 110
-0.041586411069837 -0.0277177614479036 -0.0292593610218175 -0.2235924 -0.6409295 0.7343132 42 42 42
0.0293357662898468 0.0784277783235944 0.0327271551990835 0.2423755 -0.9679466 0.06582942 84 84 84
0.0166928787077198 0.00991709110478478 -0.0246099705664043 -0.152686 -0.4654521 0.8718035 83 83 83
0.0436945868954082 0.0519074132215792 0.0262857331490765 0.2551594 0.5571843 0.7902148 78 78 78
-0.0665314379569328 -0.0685091601297482 -0.0451215032823096 -0.2357514 -0.6917284 0.682593 74 74 74
-0.0246845466790593 0.0229612951233447 -0.00258631899063705 -0.1337092 -0.6506677 0.747498 135 135 135
-0.0115727963570038 -0.065074758541123 -0.0488191738586485 -0.4056097 -0.1069907 0.9077631 99 99 99
-0.0214581413803752 -0.0422266402344204 -0.0449806624061697 -0.1988253 -0.6560189 0.728085 64 64 64
0.0127430265868407 0.060223868780276 0.0394775863644041 0.4380406 -0.898815 0.0158756 81 81 81
0.00659131241000832 0.0202296701812185 -0.0140662085774441 -0.1948725 -0.5674055 0.8000473 79 79 79
0.0400070801290542 0.0587326813025711 0.0246987873218979 0.3622158 0.4780442 0.8001709 83 83 83
-0.0155014532529296 -0.0316850478053262 -0.0408212711909697 -0.2336281 -0.534762 0.8120638 41 41 41
0.022265802920598 -0.0448362499006081 -0.0349433485603127 -0.2741091 0.3241032 0.9054399 56 56 56
0.0314963170289881 -0.0383721720975404 -0.0268731416015246 -0.5173 0.5261474 0.674959 65 65 65
0.00687313710977744 0.0549412061038718 0.04021612054784 0.4794825 -0.8759207 -0.05347421 23 23 23
-0.0121514344692011 0.0375927307622042 0.041279450007963 0.4612909 -0.8795893 -0.1163334 105 105 105
-0.0114134878609737 -0.0385474287178258 -0.0468646620313479 -0.04330732 -0.6522474 0.756768 140 140 140
0.025263851752988 -0.0222324832502847 -0.0311733205694122 -0.4194894 0.4021396 0.8138258 41 41 41
-0.00226254256895775 0.00551908232868081 -0.0231382143961635 -0.1180413 -0.5447943 0.8302202 117 117 117
-0.00535773378324111 0.0450883244910558 0.0293198966043164 0.3708026 -0.9267002 0.06109171 96 96 96
-0.046957346109554 -0.00547219160634049 -0.0146639532350136 -0.1073023 -0.4984757 0.8602373 103 103 103
-0.00010823595719156 0.0506220471383488 0.0257023318113698 0.3826481 -0.9238913 -0.002290337 83 83 83
0.0173284459771095 0.0379639936950105 -0.00436796033732811 -0.1626907 -0.5288553 0.8329729 69 69 69
-0.04045003258399 -0.0829985458073996 -0.0580444611837093 -0.3294767 -0.2697033 0.9048233 76 76 76
0.0280613246636903 0.0367800784640891 -0.00742242887474404 -0.1944817 -0.4857605 0.8521817 96 96 96
-0.00318700473140376 -0.0440989202643519 -0.0472883115139743 -0.5050366 0.4270481 0.7500453 32 32 32
-0.0153542537835343 0.0404859375997677 0.0207823520368343 0.5591673 -0.8279289 0.04319403 39 39 39
0.0414978509030579 0.036243204997095 0.00403237482094593 0.304581 0.6240357 0.7195901 30 30 30
-0.06796270064012 -0.0464351422128679 -0.0318661629072464 -0.2312128 -0.5475144 0.8042192 121 121 121
0.0125580681358475 0.0609486237537299 0.0155272391659044 -0.0689109 -0.7072839 0.7035629 188 188 188
0.0150971025682889 0.0614681202572888 0.014838994935919 -0.1420664 -0.6165639 0.7743811 166 166 166
-0.0191287451434434 0.0316513505149115 0.0371849771653108 0.4829799 -0.8382369 -0.2531586 69 69 69
-0.0111188394626429 -0.059504264798118 -0.0489781808795923 -0.6150866 0.158321 0.7724008 42 42 42
0.0148938343579799 0.046904535205787 0.00244038590895684 -0.0276414 -0.4882351 0.8722743 125 125 125
0.00607293617503624 -0.0618114174591773 -0.0439483760780041 -0.4325623 0.3449938 0.8329881 19 19 19
0.00364908304508749 0.0382388117382046 -0.000167340231737312 -0.1622405 -0.5846236 0.7949172 102 102 102
-0.0237767618083089 -0.0450678198132802 -0.0469925083063113 -0.1681737 -0.6186435 0.7674619 67 67 67
0.0120936315909206 0.0591484921335194 0.0418940144084886 0.4359623 -0.8999177 0.009224168 109 109 109
-0.058010208781285 -0.0124219961605959 -0.0155805990025229 -0.2301117 -0.6923963 0.6838392 108 108 108
-0.0174127690708563 0.0330075022087805 0.0387359111672342 0.5167162 -0.8261493 -0.2246815 57 57 57
-0.0221800288300289 -0.0827103685028369 -0.0549419350969637 -0.3408168 -0.3114583 0.8870387 40 40 40
-0.0502313189189687 -0.0140243335206843 -0.0191485568876513 -0.3220151 -0.5643497 0.7601419 101 101 101
-0.0331255085280473 -0.0775344681155338 -0.0555963444626544 -0.4453267 -0.04656952 0.8941563 134 134 134
0.023366515360165 0.0428617651195686 -0.00227668769509992 -0.07253981 -0.5041055 0.8605903 113 113 113
0.00267766926208068 0.0351175804263772 -0.00217551003053301 -0.05968439 -0.6060733 0.7931664 161 161 161
0.00476296818205046 0.0297242029215379 -0.00828886317417521 -0.241913 -0.5755651 0.7811549 104 104 104
-0.0333668017584636 0.0237323478236338 0.0314265272454107 0.6582168 -0.7491117 0.07471432 49 49 49
0.0123244007369339 0.0316749410553194 -0.00850784918397174 -0.1585678 -0.5631105 0.8110258 108 108 108
-0.038164613695852 -0.0550213231642072 -0.0494255587308351 -0.1393473 -0.6456987 0.75077 214 214 214
-0.0291814118272717 -0.0675121142683371 -0.0547753707930936 -0.5721573 0.0459925 0.8188533 67 67 67
0.00354264340252275 -0.00395614678705747 -0.0312949187784386 -0.2001572 -0.5970797 0.7768095 233 233 233
0.021266759042307 0.0710374619125737 0.0261135736683659 0.3511759 -0.9274827 0.128263 89 89 89
-0.0214528208279277 0.0347191282987438 0.0236676193745591 0.3922023 -0.9176129 -0.06452879 17 17 17
-0.0438886571400752 -0.0130932234405159 -0.00109708636814249 0.08018452 -0.1915072 -0.9782103 15 15 15
0.0290012121424343 -0.00108920478753627 -0.0272476363593608 -0.2296514 0.6827981 0.6935755 47 47 47
-0.0332490941058545 -0.0473904059108825 -0.0439473271141665 -0.1869304 -0.6557041 0.7315115 104 104 104
-0.0281515040388247 0.00127985589377899 -0.0158307996751963 -0.2424977 -0.6717624 0.69995 104 104 104
0.0377126066414557 0.0574193236327477 0.0156949709705663 0.273938 0.5291605 0.803086 33 33 33
-0.00604994756155341 0.044118715945389 0.0257139613106061 0.4736885 -0.8790737 0.05337325 87 87 87
-0.0241889399556656 -0.00959921525393037 -0.0246938036579376 -0.4117658 -0.6630341 0.6251678 121 121 121
-0.0597217251406226 -0.0656616469653916 -0.0466303040659818 -0.2469234 -0.6414974 0.7262987 54 54 54
-0.0243104248576922 -0.048308164451788 -0.048612838275118 -0.1813598 -0.6252653 0.7590467 76 76 76
-0.00131231855760428 -0.00830727571036649 -0.0325644062388544 -0.2794692 -0.6773545 0.6805056 208 208 208
-0.0276454034921976 -0.00248672659378613 -0.0190995758004646 -0.2108175 -0.6773183 0.7048375 171 171 171
0.0175233522614016 0.066561408802701 0.0262953382767794 0.3739634 -0.92458 0.07282272 134 134 134
0.0223665135862832 0.0722969184767693 0.0300437962361672 0.3644516 -0.9234152 0.1203306 150 150 150
-0.0283849961960947 -0.0167879171424913 -0.0259218482938414 -0.2180422 -0.5740002 0.7892917 113 113 113
-0.0521699088808072 -0.000397654166048089 -0.00882039689662206 -0.004568961 -0.8058372 0.5921196 144 144 144
0.0442176777366758 0.0329751073386096 0.0100213364554512 0.329125 0.5850061 0.7412453 42 42 42
-0.0379863564838894 -0.0395939775059181 -0.0367178690600275 -0.2398154 -0.5614809 0.7919771 60 60 60
0.0374306153577249 0.0662308854354153 0.0273093178288196 0.281659 0.5883296 0.7579818 75 75 75
0.0323224525353716 0.0817552553789939 0.0335611983266946 0.3232708 -0.9374278 0.1293258 76 76 76
-0.0349349170318076 0.019963108112295 0.0112233537770639 0.2333138 -0.9097543 0.3433827 152 152 152
0.00565837289417415 0.0542487088237873 0.0128097644705124 -0.02553584 -0.6575974 0.7529367 137 137 137
0.0307568011726875 0.0513825223017395 0.00301036593485998 -0.1370615 -0.5112792 0.8484148 40 40 40
0.017600699857732 -0.035602569290992 -0.0334216528228917 -0.4485961 0.138073 0.8830047 65 65 65
0.0309745667528807 0.0481764163338217 0.000411946091030846 -0.1173277 -0.5077129 0.8534998 106 106 106
-0.0386431215185419 0.0157248575845044 -0.00057953617982609 0.2181916 -0.9717042 0.09046114 65 65 65
0.0224703374545077 -0.0288855487092285 -0.0317831377354251 -0.4722748 0.1992785 0.8586295 86 86 86
0.0341320018532021 0.0106548430663919 -0.0255760254153482 -0.114252 0.3319699 0.9363453 36 36 36
-0.0382478753317568 0.00999439723192153 -0.00702255589593709 -0.1151093 -0.6081082 0.7854643 127 127 127
-0.0609997571385357 -0.0413956316009385 -0.0310225968404758 -0.122636 -0.6677964 0.7341719 143 143 143
-0.0197394570033878 0.0309032804916428 0.0367631011113802 0.4734005 -0.8355854 -0.2787274 58 58 58
0.0398862034057643 0.0327426973568765 -0.00767299101763563 0.19042 0.4247415 0.8850621 45 45 45
-0.0486522825478122 -0.0671447047748249 -0.0535838346301903 -0.2564402 -0.6968489 0.669806 60 60 60
0.0111347925115424 0.0581361379462561 0.0437592579512093 0.437413 -0.8992279 -0.007685106 131 131 131
-0.0200314206179562 0.0373359334069309 0.0183155673136002 0.4187777 -0.9078088 -0.02254968 26 26 26
0.0478998576802145 0.0115917834774617 0.000374571136660506 0.02475055 0.3873705 0.9215918 153 153 153
0.0164724845772595 0.0463162906922885 0.00204166293179803 -0.03460553 -0.486381 0.8730613 111 111 111
0.0549146979829982 0.0123494767031278 0.0073219478470084 0.04296155 0.5462719 0.8365054 100 100 100
-0.00392612389889901 0.0450711726044005 0.0389556267552589 0.4218682 -0.9055218 0.04536033 73 73 73
-0.0343394237083667 -0.0789709489206452 -0.056333569907747 -0.4661999 -0.08768224 0.8803235 91 91 91
-0.0114774169248684 0.0406124945906159 0.0289765367923047 0.6325936 -0.7640765 0.1265405 53 53 53
0.0388921054803149 0.0474861501957302 0.0114169865205799 0.2095206 0.6155167 0.7597634 24 24 24
0.0129956797452673 -0.0503569805475932 -0.0402451852390787 -0.4089538 -0.0392841 0.9117091 54 54 54
0.056934729004368 -0.00354717161964446 0.00521455998700376 0.03553383 0.4850974 0.8737379 53 53 53
-0.00710787380879219 0.0431482610950087 0.032995993848449 0.40769 -0.9076543 0.09976254 70 70 70
-0.0235492485270445 -0.0213053535739461 -0.031169894805663 -0.2163317 -0.5982975 0.7715185 212 212 212
-0.0245657074891359 -0.0309594393139253 -0.0375225516230629 -0.235705 -0.5821823 0.7781433 166 166 166
0.0364824540735968 0.0560412766846538 0.0134147565187221 0.2012205 0.5149246 0.8332844 72 72 72
-0.0571535442468742 -0.066795603884452 -0.048527695268153 -0.2224471 -0.6767453 0.701807 66 66 66
-0.06878542415481 -0.0477759044456735 -0.0325664288696531 -0.2210179 -0.5408893 0.8115355 63 63 63
-0.0392732574676797 -0.0109031821713383 -0.0210383856073012 -0.1661495 -0.5184314 0.8388225 116 116 116
-0.027507201323592 -0.00113497045682898 -0.0179903003776886 -0.1869523 -0.6788281 0.7100995 163 163 163
-0.061699677880789 -0.0380748972725415 -0.0282775536044827 -0.2213359 -0.5799486 0.7840089 96 96 96
-0.0508287898970365 -0.0322910270679591 -0.0286446838044499 -0.2376204 -0.5832739 0.7767419 158 158 158
-0.0262986787649515 0.0273911419541468 0.00214433940590153 -0.04193376 -0.7225377 0.6900586 135 135 135
-0.0339211899804526 0.0242868804530678 0.0274714645731049 0.583761 -0.7936513 0.1712912 55 55 55
0.0435664231474786 0.0279099232561043 0.00234131763179918 0.2935713 0.6643501 0.6873536 160 160 160
-0.0441606292961234 0.00988983321043457 0.0201885680164298 -0.4326002 -0.6394221 -0.6356071 25 25 25
0.049193494886723 0.0369751633360651 0.0249200485373584 0.124594 0.2515478 0.9597917 88 88 88
-0.00662353244613878 0.00608216496675162 -0.0213357234191374 -0.2079624 -0.5965111 0.7751943 145 145 145
0.0379322193495581 0.0533539061827847 0.0130740278714407 0.1599585 0.5588182 0.8137171 20 20 20
-0.0177366850994043 -0.0366884611167424 -0.0433635014241103 -0.2491433 -0.6006094 0.7597342 66 66 66
0.0458996675742238 0.0617828234136747 0.035624430740468 0.139037 0.3754115 0.9163705 59 59 59
-0.0127330794932135 0.0448831530269138 0.0118945917592104 0.2769095 -0.8558266 0.4369004 185 185 185
-0.0162586852549718 -0.0271275052276327 -0.0387054650061632 -0.2635425 -0.5740565 0.7752448 207 207 207
0.0134770040273944 -0.0445239844185989 -0.0381141350000669 -0.2999966 -0.04750473 0.9527567 164 164 164
-0.0436822771802525 -0.0841763200512622 -0.0583239531136239 -0.2922482 -0.2938592 0.9100757 113 113 113
-0.04551997509043 0.00201667875691147 -0.00871046765406236 -0.1255376 -0.6000134 0.7900786 145 145 145
0.0536467040853092 0.0393229446643949 0.0298721129854588 0.1118774 0.1925515 0.9748884 74 74 74
-0.0265764710403482 -0.0131053838619312 -0.0244115444214467 -0.3450929 -0.613949 0.7099138 107 107 107
-0.0422446070967701 -0.0875580871736584 -0.0603214982183125 -0.2608795 -0.2693552 0.9270327 48 48 48
0.0419846265536705 0.0542680449841093 0.0232334728592596 0.3060404 0.5509267 0.7764142 34 34 34
-0.00330065296412307 0.0451754153243528 0.0416506191477511 0.529362 -0.8478412 -0.03067831 65 65 65
0.0362276293350714 -0.0321889308030834 -0.0242621908894787 -0.1340659 0.5150988 0.8465812 57 57 57
0.0175999672621145 0.0641994897780843 0.0160080082838258 -0.01803809 -0.6557293 0.7547806 203 203 203
-0.0467845135899294 -0.00765470048122263 -0.016195299246525 -0.1482099 -0.50151 0.8523624 76 76 76
0.0283015595003078 -0.0410915209794851 -0.0289995751818977 -0.4489507 0.5976292 0.6642911 21 21 21
0.034177309007239 0.0517571663107731 0.0027431186026533 0.1596588 -0.06773821 0.9848455 100 100 100
0.0297284955176438 -0.00269608636893448 -0.0261807741842059 -0.2457975 0.7342899 0.6327732 11 11 11
-0.0365977605639525 0.0222286524879753 0.0300651979708743 0.5062123 -0.8622455 0.01678832 84 84 84
0.0576703579962365 0.0148644144153547 0.0143702810944065 0.09116061 0.3980931 0.9128042 120 120 120
0.022005586245097 -0.027506661281433 -0.0323774896773846 -0.4820037 0.2343311 0.844252 86 86 86
-0.0195181008693421 -0.0212829351946392 -0.0328556788758578 -0.2654307 -0.6405739 0.7205634 223 223 223
-0.0218899249892106 -0.0042364503412311 -0.0226867754935068 -0.2028091 -0.6558208 0.727164 151 151 151
-0.0149210947792306 0.0119534970191819 -0.0133464859558164 -0.1793756 -0.6191991 0.7644717 101 101 101
-0.0378997685150866 -0.0535262642970543 -0.0482394962230543 -0.08025303 -0.6562217 0.7502882 228 228 228
0.0350087539193624 -0.0281856527061184 -0.0228196111614864 -0.06284696 0.3869984 0.9199362 81 81 81
0.0476237935847004 0.0678886798190225 0.0446891755065163 0.3224803 0.5123854 0.7959068 58 58 58
0.0455838968486435 0.0807626351103815 0.0661896656397598 0.7984448 -0.3781065 0.4685311 68 68 68
-0.0225053441887357 -0.0455364496909845 -0.0475124385939219 -0.1506572 -0.6159794 0.7732217 99 99 99
0.0545586774303928 0.028850761070478 0.0240677215627971 0.0382218 0.08182058 0.9959139 63 63 63
0.0246197660161926 -0.010851554514054 -0.0321120530476669 -0.3077688 0.6642931 0.6811703 19 19 19
-0.0326131348516652 -0.0551339180682838 -0.0507377098448129 -0.1913264 -0.5612245 0.8052461 197 197 197
0.0374193554346456 0.0473719371712832 0.00751418242951474 0.3539891 0.6029525 0.7149405 53 53 53
0.0562205526882131 0.0240714115737489 0.0212072073207957 0.1346354 0.0440818 0.9899142 101 101 101
0.0263472333849264 0.0753253015259724 0.0272960360300674 0.2918227 -0.8475786 0.4432268 69 69 69
-0.0755493582921114 -0.0431091063294032 -0.0278440175480792 -0.2355427 -0.5602856 0.7941031 57 57 57
-0.0225975020978566 -0.0402426431185515 -0.0435416278050708 -0.243275 -0.6117565 0.7527093 79 79 79
0.000731795635596999 0.0514900529020503 0.0247427405990877 0.4060372 -0.9138531 -0.002505319 97 97 97
-0.0605903509962875 -0.0108123307210489 -0.0134227822626373 0.175916 -0.9499482 0.2581705 63 63 63
0.0246178594622442 0.0648292488579035 0.01507426730539 -0.08687499 -0.5737264 0.8144267 176 176 176
-0.017619122284511 0.0196154802796853 -0.00746451750192895 -0.0455268 -0.6271521 0.7775651 106 106 106
-0.0111804612490534 0.0209048830002333 -0.00898042014844813 -0.1607305 -0.6012998 0.7826903 87 87 87
-0.0480571928621796 -0.0939887989184613 -0.0613683868824953 -0.3922326 -0.3328274 0.8575428 34 34 34
0.0129827175134172 0.0113994900686664 -0.0228823889433523 -0.1270783 -0.5786978 0.8055806 72 72 72
-0.00840925703326278 0.045461824514097 0.0171573985017123 0.6697211 -0.7414771 0.04105359 74 74 74
-0.00730479254698779 0.0243135304316533 -0.00763537360667355 -0.1882931 -0.5421348 0.8189235 110 110 110
0.0293552290154322 0.0269743135196792 -0.0136190412488653 -0.1802461 -0.4878163 0.854135 55 55 55
-0.00593301018970993 0.0444475910388162 0.0287457821783766 0.3997666 -0.9144428 0.06309538 82 82 82
0.0431031631126779 0.0344019565834145 0.0061462693865087 0.2785801 0.654772 0.7026142 34 34 34
-0.000537697782368785 -0.0365532480824249 -0.0468147309795788 -0.5185859 0.1344315 0.8443914 36 36 36
0.026510281262897 0.0246626370432356 -0.0148213940886135 -0.2079065 -0.4680914 0.8588744 131 131 131
0.0499172273663624 0.0565161253742718 0.039555682424119 0.2745498 0.5339723 0.799685 43 43 43
-0.0350956936456497 0.0194524907058103 0.00178793456448623 0.2724586 -0.9546671 0.1199044 81 81 81
0.0226827921597215 0.0717888116220163 0.0354555153160483 0.4206609 -0.9060651 0.04572044 50 50 50
0.0232452701509751 0.0678127858474847 0.0451517878216399 0.4955876 -0.8639134 -0.08970238 63 63 63
-0.0100206321444503 0.0307858403847019 -0.0016201595192048 -0.08257962 -0.6834859 0.7252777 36 36 36
-0.0300751913105652 -0.0355009875980435 -0.0372072065818518 -0.2883255 -0.6146395 0.7342252 76 76 76
0.0179205594132004 0.0143481226303822 -0.0215088329359873 -0.1087332 -0.499523 0.8594497 33 33 33
0.0566827824196081 0.0101925031961602 0.0110407809696754 0.01562251 0.4359121 0.8998536 134 134 134
-0.0109433882072916 0.0298796570640102 -0.00221964751372872 -0.05267908 -0.6893987 0.722464 100 100 100
0.0544918743303842 -0.0095240701555438 -0.000177994216423338 -0.1730066 0.5854655 0.792022 105 105 105
-0.0507535692925132 -0.0586170940500346 -0.0464620026504897 -0.1962634 -0.6191007 0.7603914 34 34 34
-0.0462713615708761 -0.00567628570541723 -0.0151599628756151 -0.1161865 -0.5032074 0.8563195 78 78 78
-0.0246807346382252 -0.00806091420264354 -0.0239029139723664 -0.3642391 -0.6530738 0.6639461 127 127 127
-0.0465940850446298 -0.0232890164981854 -0.0250927169559875 -0.3305723 -0.4946852 0.8037466 67 67 67
-0.0163694864917427 0.0232806791267333 -0.004834476090817 -0.1589938 -0.6539871 0.7396092 91 91 91
-0.0631616391899505 -0.0503667297048701 -0.035697348134599 -0.1772217 -0.6636571 0.7267405 55 55 55
0.00692518979952972 -0.0207242328814468 -0.0431589151521788 -0.3780415 -0.2850621 0.8808088 141 141 141
0.0262175646817315 0.0181704288670438 -0.0196216826419752 0.003018713 -0.5013413 0.8652443 57 57 57
0.0334622448543067 0.0517480639398722 0.00303121066501377 0.08969127 -0.2501227 0.9640509 114 114 114
-0.0341716287409195 -0.0812481222889546 -0.0565907830678437 -0.3511634 -0.1756414 0.9196925 113 113 113
-0.0364069640611784 0.0187012434309282 0.00983651793616824 0.2035012 -0.913166 0.3531502 105 105 105
-0.0148306233087279 0.0420230147979871 0.0168001510313293 0.5566314 -0.8301202 0.03258775 51 51 51
-0.0645612782645084 -0.0317294789251681 -0.0240467850885756 -0.2652412 -0.5474141 0.7937159 95 95 95
-0.0339729524709771 -0.0854351883710545 -0.0582071665580168 -0.2885135 -0.2470969 0.9250422 71 71 71
0.0469120187050884 0.0340599775256674 0.0194801900636817 0.2522514 0.4212698 0.8711492 41 41 41
0.0466216406927571 -0.0110587157883163 -0.010863568673938 -0.1549418 0.4490152 0.8799877 44 44 44
0.0219308789102337 0.0620358155771895 0.013098814162529 -0.1431733 -0.5512879 0.8219386 178 178 178
0.0440094035437402 0.0537849564658726 0.0279001836603158 0.2675729 0.5224537 0.8095967 33 33 33
0.0486335966100535 -0.000938888433482332 -0.00436818286549029 0.02228364 0.3608884 0.9323428 92 92 92
-0.000350957684940756 -0.0497319801459365 -0.0443811993237342 -0.4853559 0.2798726 0.8283122 58 58 58
0.0260459567792624 0.0653518325598864 0.0575713164857717 0.5242418 -0.799398 -0.2934848 101 101 101
-0.0388381388614678 -0.0536909671153225 -0.0477884018599228 -0.1059872 -0.675267 0.7299186 220 220 220
0.0187275043311637 0.0416102887777592 -0.00279200342051461 -0.1442832 -0.5227025 0.8402169 104 104 104
-0.0390085590363338 0.00135904242069163 0.0193819570211369 -0.3027928 -0.3113382 -0.9007691 12 12 12
0.00559700044260536 -0.00116159060450249 -0.030434828808118 -0.2049224 -0.5230016 0.8273308 221 221 221
-0.0586857125572369 -0.0539143307479336 -0.0399309431835041 -0.2463865 -0.6003846 0.7608101 57 57 57
0.0339553605660741 0.0826098924857072 0.0444333832328346 0.4409117 -0.8939469 -0.08034754 31 31 31
-0.0614433560306125 -0.0733274774593525 -0.0517302040019634 -0.1650908 -0.6785833 0.7157302 47 47 47
-0.0182492671507541 0.0177903233301048 -0.00908607734677946 -0.1010901 -0.627313 0.7721782 62 62 62
-0.0325245930315616 0.0226735135803334 0.00124313403880405 -0.0150357 -0.9344695 0.3557257 100 100 100
0.00837816513089873 -0.0341163961113679 -0.0414363529332914 -0.325383 0.5446149 0.7729945 21 21 21
0.0208521091242999 0.0458169631128114 0.00129047568287416 -0.02210716 -0.5403827 0.8411289 85 85 85
-0.0410658020647796 -0.0257206927539261 -0.0282479298090354 -0.2067575 -0.5983005 0.7741368 61 61 61
-0.0232941538445257 -0.0589594452089408 -0.054020683708411 -0.456479 0.01786386 0.8895549 29 29 29
-0.0407790962459584 0.0129119137209656 -0.00298258785594235 0.1455994 -0.8783933 0.4552209 87 87 87
-0.0351835243510696 -0.0315645650696004 -0.0336341300648503 -0.2680147 -0.5708617 0.7760702 69 69 69
0.00542442241576291 0.0555043144878494 0.0269913417723712 0.3950741 -0.9186431 -0.003379086 105 105 105
0.0357234887002718 0.00538973268778453 -0.0219636737442298 -0.2101253 0.6933412 0.6892934 17 17 17
0.0396538456246103 0.0773266376146938 0.0415605809596402 0.3023512 0.2156458 0.928483 70 70 70
0.0152622146842196 0.063587291042056 0.0357491141408671 0.3881728 -0.9211689 -0.02774377 79 79 79
-0.0442914795589124 -0.00686883324969467 0.00222621564003922 -0.003629597 -0.2219649 -0.9750479 7 7 7
0.000118707965881981 0.0504081844343368 0.0283509327623315 0.3706798 -0.9287226 0.008417682 100 100 100
0.0414253898124328 0.0778542373208168 0.046318427643788 0.4359567 0.3021833 0.8477187 60 60 60
0.0314437789639403 0.0275784702646512 -0.0140685845293509 -0.1661087 -0.5371418 0.8269744 83 83 83
0.00900751827300228 0.0603644929596273 0.0256530353683455 0.3711666 -0.9285333 -0.007835452 101 101 101
0.00597692732146182 0.0554024755557286 0.0139187575524736 0.002203241 -0.6839637 0.7295128 164 164 164
-0.00398854289460715 0.0268441549374445 -0.00680369009549597 -0.1856297 -0.5327137 0.8256863 70 70 70
-0.02887992875293 -0.0748591720644416 -0.0548176471645247 -0.5005248 0.02419651 0.865384 104 104 104
-0.0104704009346002 -0.0292495951470784 -0.040275616210788 -0.3161339 -0.5947919 0.7391089 85 85 85
-0.0352316444300476 0.0167425477652333 -0.00312710859529897 -0.1856668 -0.700458 0.6891201 155 155 155
-0.0138526860753412 0.0416683163817224 0.0199041799180505 0.5990394 -0.8004025 0.02253004 67 67 67
0.0394850946160519 0.0394944535462199 -0.00183558707684922 0.3133018 0.4903132 0.8132865 65 65 65
-0.044072014494059 -0.00246027166603524 -0.0128878880904481 -0.1889148 -0.5516761 0.8123821 138 138 138
