ply
format ascii 1.0
comment File exported by Rhinoceros Version 7.0
element vertex 460
property float x
property float y
property float z
property float nx
property float ny
property float nz
property uchar red
property uchar green
property uchar blue
end_header
-0.0819992337928968 0.0095413478833235 -0.0140910060146274 -0.1012097 -0.6930846 0.7137159 204 207 216
-0.0804952055317107 0.00998746320911481 -0.0132161654911693 -0.06364965 -0.6682636 0.7411967 202 205 213
-0.0824815040503291 0.0121516488412645 -0.0110949849512512 0.4831268 -0.6829044 0.5479325 203 203 210
-0.0811784907445157 0.0121841251041421 -0.0102367932161546 0.4981269 -0.6823245 0.5350727 194 194 201
-0.0796113259853826 0.0113591245341111 -0.0117685033535271 0.07057971 -0.6744183 0.7349684 194 197 203
0.0345948689904017 -0.0319217920484649 -0.0374553804031258 -0.5111157 0.6453587 0.5676908 167 175 173
-0.0805400195689394 -0.0029183286743053 -0.0183819719322464 0.333992 -0.9351102 0.1183983 172 177 178
-0.0768650372947963 0.00349105697927143 -0.0210426787056561 -0.1229929 -0.7028036 0.700671 200 203 209
-0.0768513686524539 0.00489891114126761 -0.0188659536825745 -0.01165615 -0.7205096 0.6933469 192 195 202
-0.077003696353497 0.00606829618561444 -0.0175357020498792 -0.02951128 -0.7212257 0.6920712 193 196 203
-0.0760548842877196 0.00394576844429495 -0.0188795843655339 -0.04647801 -0.7503941 0.6593546 190 192 197
-0.0794993738648566 0.0050031497227585 -0.0168901049190842 -0.07640828 -0.6552776 0.7515138 183 189 194
-0.0784488751410191 0.00579906410773412 -0.0182462384063655 -0.02730286 -0.6711084 0.7408563 191 193 200
-0.0774566875849931 0.00754229812255014 -0.0157038268833302 -0.06373119 -0.6940151 0.7171341 198 200 208
-0.076868869848651 0.00564642030246643 -0.016174153770136 -0.05758777 -0.6965465 0.7151969 192 195 200
-0.0778260392272117 0.00868686706917354 -0.0143613545805247 -0.09353757 -0.6792744 0.727899 197 200 207
-0.0709962532999873 -0.0021470037970357 -0.0176976484487344 -0.7866811 0.5065002 0.3529737 175 177 179
-0.00991739951132953 -0.00581580128143866 -0.0261936966417929 -0.04648152 -0.7014535 0.7111979 183 185 188
-0.0712115533934838 -0.00143580122470843 -0.0158730192508848 -0.8032477 0.2999632 0.5146021 168 174 175
-0.0843424791628777 0.00893705261319688 -0.00615411636356922 0.8799767 -0.4744475 0.02325055 183 185 190
-0.0835650450580339 0.00795054191020039 -0.0044023116875137 0.866195 -0.4986725 0.03212535 181 183 187
-0.0819527197449847 0.009302305238996 -0.00526550098906597 0.864787 -0.4998184 0.04821919 181 184 188
-0.08155961154179 0.0105502921345715 -0.007956310169421 0.7824782 -0.5610397 0.2701155 187 189 193
-0.0794533226447545 0.00951982420189057 -0.00421557795068883 0.8297683 -0.5577865 0.01894162 178 180 182
-0.0828212384813307 0.00629139726457972 -0.00169076142582869 0.7621198 -0.6341683 0.1303991 179 184 186
-0.0812331283840297 0.0071418009930253 -0.00228989870881635 0.7995946 -0.5933866 0.09241623 182 184 188
-0.0821689202143032 0.00605280546596854 0.00135627446404052 0.7976375 -0.6022076 0.03347361 181 183 187
-0.0804262020548716 0.00703548563857548 0.000461950396878019 0.7366458 -0.6651781 0.1220292 181 182 187
-0.0793531603606468 0.00815109917242562 -0.00173231822333331 0.7697527 -0.6365684 0.04755558 181 184 187
-0.0782654282611022 0.00921979085790681 -0.00247858722173167 0.7882686 -0.6153274 0.002191367 176 180 182
-0.0788396011364778 0.00818317750534248 -0.000263164792112414 0.7545814 -0.6539468 0.05441078 181 184 187
-0.0781609605469802 0.00828432000765078 0.000758039457219528 0.7612748 -0.643633 0.07872298 184 186 189
-0.0802444091863155 0.00933784384024672 -0.0123486958218383 -0.03041922 -0.6569687 0.7533039 195 198 204
-0.0800292855190712 0.0116883831107004 -0.0087873721327113 0.5923424 -0.7131989 0.3748037 184 187 191
-0.0780642719961495 0.00983211343566315 -0.0130742348844445 -0.06774965 -0.6840802 0.7262536 200 202 209
-0.0783795850361049 0.0108969587839864 -0.0111424306281184 0.09852925 -0.74663 0.6579025 192 195 200
-0.0800350719339562 0.0104693720213327 -0.00613398323527869 0.8329279 -0.5461022 0.08946231 179 183 186
-0.0787318478662842 0.0112876103702861 -0.0067665151110734 0.7757379 -0.6206001 0.1143949 182 186 190
-0.0793144912849222 0.0111385965380064 -0.00782272583208843 0.6975115 -0.6841653 0.2130623 178 181 185
-0.0785965864065545 0.00988629530115626 -0.00354967779618309 0.7981446 -0.6024219 -0.007288855 177 180 182
-0.07756796339494 0.0107537353103551 -0.00413529931999934 0.7936633 -0.6083512 0.002708387 182 185 187
-0.0780628479768737 0.0125541201903083 -0.00844851610238684 0.6042012 -0.6931059 0.3931222 180 184 188
-0.077087445522487 0.012287279322764 -0.00726115898019797 0.6191888 -0.728494 0.2930898 184 187 192
-0.075844315707525 0.00427375943705699 -0.00867678217266565 0.3008695 -0.7902228 0.5338778 161 168 168
-0.0768275924746948 0.0105229246571505 -0.00284233452031735 0.78362 -0.62045 -0.03132825 178 181 184
-0.0772855059486339 0.00905648650987301 -0.00087053403018722 0.7737032 -0.6333577 0.01553593 177 181 184
-0.0766233401264955 0.00904575947648634 0.000205802278355205 0.7727141 -0.6338136 0.03454261 183 186 189
-0.074958223760083 0.010433230740226 -0.000308178821275207 0.7691515 -0.6341786 -0.07888884 181 184 187
-0.0742747224833362 0.00984722819094963 0.000872095634426251 0.7314239 -0.673451 -0.1071582 177 181 184
-0.0742375243228786 0.0114762783447793 -0.00117239167945948 0.7605241 -0.6438206 -0.08425039 181 185 188
-0.0751952498158062 0.00369527316515206 -0.0207708676743044 -0.1095321 -0.725572 0.6793733 204 207 215
-0.0741766544795013 0.00385935370330315 -0.020114076347674 -0.1046705 -0.7104774 0.6958922 198 201 209
-0.0746892509303319 0.00600332504486567 -0.017464829468901 -0.03575324 -0.7249376 0.6878861 194 197 204
-0.0737120127830817 0.00536993790070439 -0.0205337503308467 -0.07964375 -0.7042032 0.7055174 183 182 188
-0.0726050783437326 0.00509637083469272 -0.0187526359104868 -0.05831344 -0.697727 0.7139864 194 197 204
-0.0721948266676815 0.00451736608358777 -0.0204511180008762 -0.08949949 -0.6954367 0.7129921 193 195 201
-0.0709819700048175 0.00408674491993266 -0.0199604475176073 -0.08385799 -0.6507611 0.7546376 193 196 203
-0.0712237491987482 0.00516053385615223 -0.0183562611034916 -0.04023487 -0.6680711 0.7430089 189 192 199
-0.0716260609090797 0.00619158142745824 -0.0168480968590504 -0.02414238 -0.6611409 0.7498732 190 193 200
-0.0699016127932808 0.00546103191050396 -0.0186350809496012 -0.05577983 -0.634926 0.7705567 183 185 192
-0.0757788605180973 0.00607427473631006 -0.0173891192750869 -0.03417889 -0.7444206 0.6668355 196 200 207
-0.0744641582054815 0.00742389081940731 -0.0156367471010651 -0.03753593 -0.7168059 0.6962618 192 196 203
-0.0746515521456281 0.00876157914103848 -0.0140228898193501 -0.1020414 -0.6953272 0.7114125 193 196 205
-0.0730069943663025 0.00611173158081435 -0.0172017562329677 -0.01694142 -0.7250752 0.6884612 191 193 200
-0.0721377916920085 0.00759326198427179 -0.0153056754006771 -0.05362969 -0.6937346 0.7182313 191 194 201
-0.070107167751468 0.00634340601902306 -0.0167957296376818 -0.03773955 -0.6688588 0.7424309 193 196 203
-0.0716900548578883 0.00899858096299577 -0.013525895784008 -0.07230389 -0.6792844 0.7303047 198 203 211
-0.0703009698666621 0.00748861409314427 -0.0154613296443986 -0.02526232 -0.693238 0.7202658 195 198 206
-0.0685697686072206 0.00391494812390669 -0.0195325591431859 -0.0725845 -0.6785306 0.7309772 184 186 194
-0.068520805506628 0.0050272611156541 -0.0180381857568144 -0.05448699 -0.6817486 0.7295547 178 182 188
-0.0688749800108521 0.00629547543399656 -0.0165268637106271 -0.06052426 -0.6962096 0.7152824 194 198 204
-0.0704994204284155 0.0069916820067446 -0.0145284757114403 -0.04477846 -0.6872109 0.7250766 192 196 201
-0.0641828776356661 0.00411348807457457 -0.0190788991553005 -0.06648446 -0.7039175 0.7071633 182 185 190
-0.0660580458753248 0.00621279034871547 -0.0159010760453536 -0.039053 -0.7074896 0.705644 187 191 197
-0.061299105167226 0.00422635026809193 -0.0188745647059723 -0.05814744 -0.6933634 0.7182382 189 193 200
-0.0640133545112604 0.00514938430363232 -0.017724707352888 -0.07677343 -0.6986586 0.7113242 181 185 190
-0.0630004570542617 0.00484587801834468 -0.0172836001181502 -0.07303739 -0.6972831 0.7130651 181 185 190
-0.0645657602546468 0.00667435288118923 -0.0159470048025255 -0.04973047 -0.6950932 0.7171975 188 192 198
-0.0675999448101301 0.00644377617789504 -0.0163352013665857 -0.03645955 -0.7033709 0.7098873 196 200 206
-0.0675179628780915 0.00770626006791231 -0.0148145232450816 -0.07737894 -0.6963598 0.7135093 199 200 207
-0.0661123224517342 0.00783683271999602 -0.014365112643546 -0.08167789 -0.6932899 0.7160153 191 194 202
-0.0663572117569267 0.00891981524602614 -0.0129468306846681 -0.1014318 -0.7100377 0.69682 193 196 204
-0.0676424100476618 0.0085568980001407 -0.0123620149456486 -0.1080282 -0.7084079 0.697487 189 193 198
-0.0637337055073566 0.00848862592981425 -0.0126907005901785 -0.09498699 -0.712269 0.6954497 188 191 198
-0.0648295626076267 0.00921737774933584 -0.0127330671784925 -0.1075315 -0.6936914 0.7122002 191 193 202
-0.0749042473956578 0.0100127952242934 -0.0125358152419096 -0.05867581 -0.7156507 0.6959894 193 197 205
-0.0736417754320744 0.00972938807850654 -0.0129874388837653 -0.08584421 -0.6990277 0.7099233 199 202 210
-0.0725057253798163 0.0111018374967915 -0.0106611294064332 -0.06759477 -0.6929101 0.7178486 199 202 209
-0.0738129584782952 0.0115395082521201 -0.0106840073155517 -0.0403225 -0.728687 0.6836588 194 197 205
-0.0737816923594092 0.0118773152290492 -0.00898671133521833 0.09708674 -0.7914689 0.6034493 190 194 199
-0.0726239057430504 0.0123621170966848 -0.00904807098767402 -0.03279632 -0.7114083 0.7020133 194 198 206
-0.0739881734926975 0.0161572757007373 -0.0065381253645479 0.28952 -0.8526666 0.4348998 165 170 171
-0.0750022531138175 0.0130718097998759 -0.00662581218840619 0.5049815 -0.8177351 0.27623 185 189 195
-0.0730516695620782 0.0137623776135878 -0.0073841967780538 0.3062353 -0.843953 0.4404127 192 195 202
-0.0727305966555374 0.0145801868905693 -0.00589319314304104 0.4933297 -0.8001646 0.3411191 184 187 192
-0.0707184198405582 0.00927124063211449 -0.0117681657182016 -0.1048256 -0.6897489 0.7164203 197 200 207
-0.0697516124177024 0.0101470761325491 -0.0118004767930981 -0.1311968 -0.7097702 0.6921082 199 203 212
-0.0696442176765038 0.0112805287756299 -0.0101336093536044 -0.06425685 -0.7356393 0.6743189 196 199 208
-0.0737709477291499 0.012750227904027 -0.00411355878381525 0.6587499 -0.7496589 0.06371877 177 183 187
-0.072082704369997 0.0143524971993263 -0.00493119007461551 0.3212077 -0.9085574 0.2671124 188 190 195
-0.0729031381059837 0.0127205798848133 -0.00168943217471795 0.5568838 -0.8141012 -0.1646809 181 184 187
-0.0716077850249839 0.0129794627575546 -0.00650075573930586 0.1784293 -0.7924911 0.5831988 192 194 199
-0.0717162350329694 0.0140290340634925 -0.00699001820832856 0.1640758 -0.7446349 0.6469914 201 205 211
-0.0706930407125146 0.0147947416923484 -0.00539423364379998 0.1432865 -0.8426472 0.5190517 192 194 201
-0.0708293027503046 0.0156176462411828 -0.0038119998296714 -0.02954936 -0.861668 0.5066114 184 187 193
-0.0690881839010924 0.0138990203737568 -0.00546158418148246 0.02160518 -0.8099873 0.5860493 186 189 194
-0.0683462597279547 0.0107670363481556 -0.0115823586271225 -0.1056917 -0.7218171 0.6839658 195 198 206
-0.0666849731447261 0.0101744801089767 -0.0114926493785205 -0.1119404 -0.700367 0.7049507 199 202 209
-0.0670065142952705 0.0114881365333539 -0.00972683686681575 -0.0868766 -0.7107609 0.6980482 194 197 205
-0.068071552647357 0.0128383517463846 -0.00886705568716073 -0.005109876 -0.7192385 0.6947445 186 189 195
-0.0653118743936947 0.0104357551087713 -0.0112736172281327 -0.110242 -0.6819953 0.7230001 197 200 209
-0.0655608897223861 0.0115582152158886 -0.00988436078487021 -0.08265954 -0.6842982 0.7245022 189 192 200
-0.0658425687802797 0.0129358294733837 -0.00820649591721112 -0.01966515 -0.6913611 0.7222418 195 197 205
-0.064050656428142 0.0114088046993686 -0.0093733069625257 -0.06562308 -0.6815909 0.728785 191 194 201
-0.0640783833556338 0.0124804151231337 -0.00796276343306757 -0.02748261 -0.6925027 0.7208916 192 195 202
-0.0626701082848999 0.0116012408747845 -0.00955861053222362 -0.06405721 -0.6969251 0.7142773 193 195 203
-0.0670169104543827 0.0137648805654511 -0.00659367380079534 -0.03367899 -0.7132298 0.7001207 191 193 200
-0.0660103744846694 0.0137615568870741 -0.00679949370316313 -0.0540504 -0.6951409 0.7168387 195 197 205
-0.0644150514886928 0.0138447476979806 -0.00631085961202993 -0.06402019 -0.6900012 0.7209713 189 191 198
-0.0659978024724541 0.0151155518701438 -0.0050951042490921 -0.06597998 -0.7016466 0.7094637 188 192 199
-0.065133682617561 0.016658164663784 -0.00307924130950854 -0.0977839 -0.6720876 0.7339867 194 197 203
-0.0678183509772214 -0.00011200208953821 -0.0132166536592037 -0.8046216 0.01428211 0.5936161 170 173 173
-0.0676383272524035 0.000908237395870426 -0.0147763453723416 -0.9344448 0.2901315 0.2064861 170 174 174
-0.0657496749930804 0.00186191604298314 -0.0126655665192004 -0.7779243 -0.05786725 0.6256877 166 171 173
-0.0617616662688416 -0.00138339799478393 -0.0154030599033591 -0.4560264 -0.3422066 -0.821544 169 171 175
-0.0597790128638565 0.00412014683034911 -0.0182784197347183 -0.06580541 -0.6986023 0.7124777 189 193 200
-0.0603503325232246 0.00677217138032593 -0.015106484997426 -0.05618568 -0.7008162 0.7111257 194 196 202
-0.0620573000307783 0.00782715551382229 -0.0126787584201338 -0.06999602 -0.6891109 0.7212675 193 195 199
-0.0608403335735002 0.00892389072213806 -0.012417840756675 -0.07228294 -0.7061026 0.7044107 195 197 204
-0.0603827400244263 -0.00178904462966334 -0.0144598372922723 -0.2978898 0.8801255 0.3696495 169 170 176
-0.0600636337794036 0.000655251461323614 -0.0122296285852204 -0.6712386 0.5694324 0.4745372 162 167 166
-0.0596175338236105 3.17766859261326E-05 -0.0117016107631864 -0.6712386 0.5694324 0.4745372 169 172 173
-0.0614685305227365 0.00242535508069408 -0.00972768702095472 -0.3178294 0.2117312 0.9242047 162 167 167
-0.0595371408565697 0.0018987064710303 -0.0105643928699811 -0.7585614 0.2442053 0.6041096 159 165 165
-0.0592819093124017 0.00323875238364035 -0.00793936244445959 -0.9345316 -0.2989892 0.1930183 161 168 169
-0.0586303190760447 0.0019596267954578 -0.010592141498765 -0.776137 0.3571253 0.5196854 160 165 166
-0.058563165674256 0.00328927589739969 -0.0110029455486319 -0.9192293 0.344268 0.1910419 163 167 166
-0.0565124688226808 0.00347373815375152 -0.00692000953532645 -0.9299998 0.02613453 0.3666297 177 179 185
-0.0660181400941848 0.00617785886703048 -0.0061585899936899 -0.3651226 0.03104087 0.9304418 164 171 169
-0.0614280419031203 0.0114879138597057 -0.00893357424632113 -0.05454137 -0.6963522 0.7156248 191 194 200
-0.0627892101786358 0.0112696862462216 -0.00864657961222404 -0.0666336 -0.695336 0.7155892 190 194 198
-0.0630627909704486 0.0127297656686016 -0.00805036792041103 -0.02951853 -0.7003466 0.7131923 189 192 200
-0.0631881703773116 0.014195218359196 -0.0059848371756015 -0.0674686 -0.696719 0.7141643 186 190 197
-0.0620195266198964 0.0140140910279771 -0.0058576676631531 -0.04757982 -0.7154741 0.6970172 186 190 197
-0.0637010875149748 0.014301982888298 -0.00439612721164651 -0.05961769 -0.6900392 0.7213125 183 186 192
-0.0622129293308546 0.00593677826212802 -0.00561264760885916 -0.8253113 -0.531923 0.1895235 160 163 166
-0.0791480437847198 0.00699370211803485 0.00307310448314557 0.8073304 -0.5897889 0.0191486 183 184 189
-0.0799592901579125 0.00597440486698297 0.00460019744237661 0.850781 -0.5207964 -0.07030562 185 188 192
-0.0786181092741955 0.00682682534859236 0.00410098001147885 0.8181723 -0.5749725 0.0008514869 181 182 187
-0.0777588736508328 0.0064357343433874 0.00544446715779046 0.838035 -0.5418085 -0.06434955 182 185 188
-0.0768623810892173 0.00578317265249795 0.00686588058564563 0.8432208 -0.5287302 -0.09707249 177 182 184
-0.0757073511882345 0.00494678865701537 0.00828514154136994 0.7947876 -0.5899703 -0.1422947 177 181 183
-0.0751825104843391 0.00514291388794952 0.00902651447670788 0.7590655 -0.6285633 -0.1694923 180 182 183
-0.0773256858558327 0.00764105107043078 0.00369318599036395 0.7893836 -0.6113821 0.05554736 184 187 188
-0.0763310416592944 0.00762230134489106 0.0047489338215646 0.8074834 -0.5896676 -0.01620532 180 183 186
-0.0760425491712819 0.00780208674474636 0.00344564905743694 0.7840746 -0.6182487 0.05473138 184 188 189
-0.0757413953276398 0.00655167960843284 0.00754513292071879 0.773892 -0.6147686 -0.1521533 176 180 183
-0.0747882037748191 0.00640320433946839 0.00741370831660604 0.7454879 -0.6429266 -0.1757644 183 184 187
-0.0736512732447681 0.00852950218389181 0.00648505760256868 0.6786301 -0.7174981 -0.1570276 183 184 186
-0.0746939153596315 0.00707690946058404 0.00716750571311142 0.7199687 -0.666056 -0.1949727 183 185 188
-0.0746621283417035 0.00479278648471793 0.0104692789732481 0.7445177 -0.6301797 -0.2203791 175 177 178
-0.0740690833485207 0.00509508613434817 0.0117285947484366 0.737376 -0.6238979 -0.2588978 179 179 181
-0.072601375283746 0.00724942957769459 0.0112679095023779 0.731444 -0.6297045 -0.2616523 171 174 176
-0.0723165933448726 0.00861285785749177 0.00974887600489216 0.7112686 -0.6567737 -0.2504901 169 170 174
-0.0721994279473304 0.00636352191917444 0.0125745338405927 0.7408422 -0.6238239 -0.2489911 178 181 182
-0.0695289800359404 0.00729858308649267 0.0145038575751567 0.8006738 -0.5603241 -0.2120338 180 182 183
-0.0745369428227871 0.00855267032702312 0.0040321124785011 0.744428 -0.6674349 -0.01890963 179 184 185
-0.0738581200097315 0.00851191501643922 0.00529123070397919 0.6801731 -0.7191452 -0.1421083 181 183 185
-0.0730155985423968 0.00965495337761202 0.00362994818407758 0.6576319 -0.7111298 -0.2486256 178 181 183
-0.0727190981712429 0.00929272818189442 0.00453026009008795 0.6440934 -0.7290193 -0.2316777 181 181 183
-0.0723586953495685 0.0101091848180352 0.00662941677296758 0.6399745 -0.7111876 -0.2909378 180 182 183
-0.072688152350965 0.0111425077276981 0.00203177531057552 0.5790656 -0.7282091 -0.3665986 179 181 184
-0.0717274263150873 0.0128855873654516 0.00417278935277432 0.6344774 -0.6028175 -0.4837867 176 178 180
-0.0715332673425237 0.0108742588982407 0.00728038470492132 0.7096559 -0.6500338 -0.2717436 173 178 179
-0.0707421462865767 0.0119440274490978 0.00681012256065383 0.753575 -0.5528696 -0.355612 178 180 182
-0.0710120307373803 0.00892758544679384 0.0116354099137481 0.7662407 -0.6105872 -0.2001462 179 183 184
-0.0703463743578014 0.010043733895776 0.0098531269715022 0.7582304 -0.6240547 -0.1887918 185 184 189
-0.0698476792193627 0.00985501661548627 0.0113610815471406 0.7776187 -0.6017988 -0.1820644 181 182 186
-0.0689663785466887 0.00958362205284846 0.0126509565699485 0.7959308 -0.5754109 -0.1881394 172 177 179
-0.0683272750689099 0.00853745530126071 0.0141279181939039 0.8064498 -0.5560716 -0.2010551 170 175 175
-0.0690016615254763 0.0114951394852096 0.00935163809522788 0.774976 -0.6042849 -0.1850727 179 183 185
-0.0676381340824577 0.0108058878889083 0.0120845279519916 0.7649356 -0.6083528 -0.2116138 172 176 179
-0.0678768566570032 0.00986272604512384 0.0135511135635408 0.7881598 -0.5758473 -0.2172651 175 176 178
-0.0677615833466092 0.00874099943761109 0.0147806997464369 0.8025353 -0.5547563 -0.2195051 177 178 178
-0.0719895024098012 0.0135019598331536 0.00188601479571104 0.4947773 -0.6448852 -0.5825106 182 183 185
-0.070442890441365 0.0165650976429021 0.00381279688235969 0.7793714 -0.4707056 -0.4135413 183 183 184
-0.0714123358281142 0.017494463893222 0.00240670962655376 0.5175185 -0.7731684 -0.366586 177 180 181
-0.0719935675106811 0.0173402118496651 0.000975432849502966 0.295845 -0.8526583 -0.4306384 178 180 182
-0.0718258576983004 0.0186867628491423 0.000822166605063179 0.3340931 -0.9056668 -0.2610547 179 183 184
-0.0706434387644066 0.0186711561627348 -0.00125100988778026 0.1167567 -0.9019675 0.4157192 198 199 207
-0.070286527274094 0.019079658350744 0.00219631921629193 0.6013951 -0.7855316 -0.1458215 178 181 182
-0.0696450529993866 0.019432176818128 0.00289376205242065 0.6706297 -0.7417385 -0.008927822 179 182 184
-0.0701232876639839 0.0181874921437737 0.00300113547119962 0.6488343 -0.7312246 -0.210534 180 182 184
-0.068728831089679 0.0188596948483648 0.00384210108330607 0.8313517 -0.5117753 -0.2166571 180 182 185
-0.0692611373776657 0.0172138666841852 -0.0029467078409563 -0.08045127 -0.7971624 0.598381 191 194 201
-0.0679405084792783 0.0175621734109235 -0.00220953518049627 -0.1388336 -0.7235746 0.6761398 195 198 204
-0.0700729288045157 0.0202676391455887 0.000143716847383013 0.2937533 -0.8996049 0.323141 190 193 199
-0.0672394153531863 0.0172720714919445 -0.00101146017906883 -0.07227453 -0.7175778 0.6927181 192 194 199
-0.0652460927429699 0.017635420649166 -0.0018664115896101 -0.1180279 -0.6846685 0.7192346 196 198 204
-0.0668351309604729 0.0190272300239958 -0.000500942362987367 -0.06445356 -0.706861 0.7044099 199 202 209
-0.065594229866651 0.0189105763202402 -0.000302545281428368 -0.0733789 -0.6851833 0.7246649 196 199 205
-0.0657051782535678 0.0203162823151528 0.00157362971988284 0.1041718 -0.7943817 0.5984195 197 200 206
-0.0645214087367334 0.0201247176103529 0.000700755915941986 -0.05748057 -0.6996071 0.712212 195 199 204
-0.0682791274022962 0.0208069620674654 0.0023916954006894 0.5643231 -0.7831062 0.2613122 189 191 195
-0.0675031943337565 0.0202293381710039 0.00368874801451979 0.74582 -0.6652404 0.03475285 180 182 186
-0.0674221065548313 0.0216563334169071 0.00250174539761838 0.5312353 -0.8041228 0.2667877 193 195 201
-0.0661095139996259 0.0212312876731466 0.00304118839180723 0.412315 -0.810895 0.4152657 194 196 199
-0.0703918090479476 0.0141336029856651 0.00503597924207255 0.7390981 -0.4753646 -0.4772447 180 181 183
-0.0695068267862844 0.0132837330776197 0.00639079567511247 0.8066145 -0.4772257 -0.3487532 180 181 184
-0.0679338072980578 0.0140804377705548 0.00730973318337913 0.8292348 -0.455717 -0.3235609 178 180 180
-0.0676905012493014 0.0176859736271566 0.00518690796050936 0.8608916 -0.3844345 -0.3332804 178 181 182
-0.0674312214703221 0.0156534147091498 0.00658039877286243 0.8389701 -0.3823792 -0.3871889 181 182 183
-0.0668660827059444 0.0142748525389782 0.00823604248995069 0.8056095 -0.492181 -0.3297745 178 180 181
-0.0665701583243248 0.0170629447928929 0.00670519951150017 0.8282459 -0.3695329 -0.421253 180 182 182
-0.0678243621720398 0.0129648119161407 0.00854491829009585 0.8095747 -0.5291299 -0.2541855 174 177 177
-0.0669931413518512 0.0126396067328287 0.0103547920977546 0.7711512 -0.5988618 -0.2160795 178 181 182
-0.0665995723467363 0.0119979566033475 0.0115955809689791 0.7621753 -0.6117904 -0.2116636 174 178 179
-0.0650033516485875 0.0119005352708228 0.0142730975191562 0.7699442 -0.5712422 -0.2843736 184 184 186
-0.0644403514172796 0.0152187426107377 0.00940962491208452 0.7783896 -0.5220553 -0.3486657 182 182 184
-0.0641194947753725 0.0154972435013618 0.00979857916635307 0.775019 -0.5288807 -0.3458766 180 181 183
-0.0653169033366812 0.0138087702234211 0.010869991443784 0.7478744 -0.6080445 -0.266394 180 184 184
-0.0637873116660508 0.0174012195154452 -0.000996699181788574 -0.115337 -0.6722429 0.7312912 184 186 188
-0.0640313028890969 0.0188999019195653 -0.000476734538588541 -0.0818892 -0.6774615 0.7309857 196 199 205
-0.0627990214150929 0.0199802192483092 0.00164148324608082 -0.02391047 -0.7020914 0.7116853 195 198 203
-0.0662998664853029 0.019526355784514 0.00508409443236169 0.8448629 -0.4781048 -0.2400467 178 181 183
-0.0654293080811694 0.019880163368025 0.00590795258525201 0.8212143 -0.5222577 -0.2299 180 182 184
-0.065804085803113 0.0181238922506548 0.00669297642739886 0.8140101 -0.4225228 -0.398575 178 180 181
-0.0649698981708999 0.0172664183332976 0.00772952128153037 0.8110189 -0.3996056 -0.4272748 179 181 183
-0.0645791523729331 0.0206074516821879 0.00342161627517445 0.3439696 -0.798167 0.494585 190 194 197
-0.0630329128774285 0.0212194538146571 0.003203413397323 0.0613514 -0.8288193 0.5561426 195 198 203
-0.0653987436083598 0.0218212856131998 0.00422541323248671 0.6370113 -0.7530504 0.1647167 187 189 191
-0.0633119424233897 0.0225781447156865 0.0050143623932124 0.4873873 -0.8156817 0.311636 191 193 197
-0.0638991771681097 0.0207529274461098 0.00681281288039493 0.7741412 -0.5950302 -0.2159732 182 183 185
-0.0630660935227123 0.0193377599524043 0.0086365528018959 0.8034706 -0.4428495 -0.3978935 177 180 180
-0.0622749371560394 0.020457039040719 0.00890691048742009 0.7906489 -0.5117936 -0.3360679 176 179 180
-0.0627773467498818 0.022201211832706 0.00611187554804693 0.6094848 -0.7868999 0.09652355 184 186 189
-0.0621863595161543 0.0222256077945453 0.00739288612746158 0.6939016 -0.7156235 -0.07989731 182 184 187
-0.0627550039959841 0.0173568536003468 0.00983526355035735 0.7550315 -0.5146063 -0.4063345 176 178 179
-0.0623630534731703 0.0181422300408851 0.0101270433458291 0.7494726 -0.5049228 -0.4281866 175 177 179
-0.0623354942404282 0.0162325793771374 0.0107207153624194 0.726755 -0.5738723 -0.3774888 179 182 183
-0.0614291388900252 0.0194498358148052 0.010394535348403 0.7698456 -0.493651 -0.4045324 174 177 179
-0.063278870257232 0.0140421181172359 0.0146237683138895 0.7456745 -0.5994229 -0.2909668 182 183 185
-0.0628009523141779 0.0155612919162715 0.0129480983358113 0.7095151 -0.6343769 -0.3068455 179 181 184
-0.0619567362600471 0.0154760638148652 0.0142447313735354 0.7261738 -0.6189781 -0.2992283 182 184 185
-0.0616780249106768 0.0168443659128421 0.012244721479662 0.7267707 -0.5876848 -0.3555712 179 182 184
-0.0596582540129447 0.0214251822761002 0.0109397926999449 0.78543 -0.5469733 -0.2896892 179 182 184
-0.0588122062949896 0.0207130157773665 0.012467652416508 0.8065827 -0.4976576 -0.3190003 180 182 183
-0.0517574076957965 -0.0138684681156014 -0.0276326910707714 0.5381059 -0.5533438 -0.6358086 204 185 182
0.0251873533815816 -0.0434989085425336 -0.0512230677035668 -0.6944859 0.5157132 0.5017263 177 181 180
0.0136374834025652 -0.0125376042199434 -0.0325961792703673 -0.06100911 -0.6927624 0.7185806 201 193 194
-0.0663731177431952 0.0102895066483888 0.0146366090129971 0.789731 -0.5573853 -0.2562157 178 180 179
-0.0257170102939721 0.0294361028759373 0.0374296650471517 0.8660462 -0.411275 -0.284283 174 177 178
-0.064541259880416 0.0107529677789482 0.0157620104222775 0.7843828 -0.540583 -0.3041608 176 181 180
-0.0636412692238473 0.011620805575725 0.0166651973772997 0.7888037 -0.5225672 -0.3235928 178 180 181
-0.0613821998197439 0.012883153270729 0.0180437249685038 0.7990375 -0.5012144 -0.3321494 177 178 181
-0.061919693119469 0.0116859836363703 0.0184368083780133 0.7932486 -0.5075057 -0.336444 174 176 177
-0.0607404051678024 0.015205574599183 0.0164312601606603 0.7896598 -0.5342155 -0.3017469 177 179 183
-0.0598170647333065 0.0145298241550014 0.0182094298805281 0.8161181 -0.4990496 -0.2913773 172 176 179
-0.0622641043182366 0.0100514529851718 0.0192295380484124 0.8010281 -0.4962997 -0.3347247 174 177 176
-0.061321437188008 0.0105216579316729 0.0200977196618796 0.8119256 -0.4819103 -0.3294529 172 175 177
-0.0599362289562837 0.0124113231917329 0.0198065675086817 0.833042 -0.4594432 -0.3081446 175 176 177
-0.0593317127558084 0.0126730992054145 0.0205874913745245 0.843162 -0.4427407 -0.305055 174 176 177
-0.0610297352628075 0.0158789422214889 0.0148816418594722 0.7435467 -0.6026238 -0.2897982 181 182 184
-0.0594439644061406 0.016503244090547 0.0161199873349713 0.7732707 -0.5561068 -0.3046271 180 181 185
-0.0583587267130472 0.0179598340173877 0.0155488833205463 0.7806411 -0.5522057 -0.2926915 175 176 176
-0.0580727661470064 0.0164953673364672 0.0180912730394539 0.830304 -0.4692436 -0.3006752 174 177 178
-0.0574514455079402 0.0186047055796075 0.0163927613951511 0.8051002 -0.5263678 -0.2734057 173 176 176
-0.0574521011721529 0.0202359376683066 0.0145357179154287 0.8017812 -0.5287032 -0.2786035 181 182 184
-0.0571947669350603 0.0194276215233196 0.014904236721911 0.8014334 -0.5315931 -0.274068 185 185 187
-0.0566676160618655 0.0196833636519951 0.0175597997039209 0.7900667 -0.5513672 -0.2679343 176 180 180
-0.0551842799741333 0.0192682392983603 0.0183899984972634 0.805464 -0.5158471 -0.2917695 180 181 182
-0.055858757189621 0.0167144022440449 0.0196599691084768 0.8446977 -0.4036142 -0.3515415 176 178 179
-0.0549392368826904 0.0139447523436387 0.0222046710746263 0.8617571 -0.3832076 -0.3324554 167 173 173
-0.055323966410179 0.0156432989118276 0.0206892881706688 0.852202 -0.393437 -0.3449045 181 182 185
-0.0545500965192449 0.014014876001966 0.0231374923156878 0.8601952 -0.3820656 -0.3377724 170 176 176
-0.0549764035957994 0.0174972067834169 0.0201644272235395 0.8311334 -0.4207038 -0.3636283 180 182 183
-0.0543510898685806 0.0162974309191029 0.0213207532375375 0.8375563 -0.4005838 -0.3715266 181 182 184
-0.0534304756720694 0.0178826413389868 0.0213991573243302 0.8310042 -0.409108 -0.3769119 176 177 178
-0.0536030497471991 0.0134028170358156 0.0247172583694082 0.8612016 -0.3670621 -0.3515638 178 181 181
-0.0523607949688181 0.0146655770451549 0.0242430663917118 0.8548373 -0.3592011 -0.37447 161 166 167
-0.0513733064343125 0.0152689658836569 0.0250196118446941 0.868107 -0.3403471 -0.3613228 161 165 165
-0.0492286306755396 0.0156752196961654 0.0262530637717568 0.8915758 -0.3321302 -0.3078669 171 175 174
-0.0481502381926182 0.0150710583074158 0.0273675596783735 0.8901742 -0.3331405 -0.3108173 169 173 172
-0.0543748976954106 -0.024147255845977 -0.0541530460721875 -0.09223899 -0.7000144 0.7081468 187 189 197
-0.0530897279303755 -0.0226046660996824 -0.0521838157970512 -0.08227371 -0.7151237 0.6941392 188 192 199
-0.0546374213636458 -0.021671448157069 -0.0513251325488474 -0.08828669 -0.708279 0.7003902 190 195 203
-0.0521206892747683 -0.0229003883275776 -0.0525434212305369 -0.08805153 -0.7127491 0.6958705 185 190 197
-0.0504509833905606 -0.0243572444649018 -0.053802808084869 -0.1086196 -0.7159388 0.6896618 189 193 200
-0.0492267872732537 -0.0215105299876679 -0.0506887481287841 -0.04171786 -0.6941738 0.7185975 193 197 204
-0.0553516195852994 -0.0204502946504823 -0.0496861416253278 -0.07499991 -0.683605 0.7259884 195 197 205
-0.0540877313807826 -0.0191697186001487 -0.0477758753852292 -0.05572908 -0.6740152 0.7366123 191 193 201
-0.0542188847689999 -0.0181935319186095 -0.0464944853410639 -0.09374779 -0.668998 0.7373283 189 192 200
-0.0525632537277332 -0.0194847026847256 -0.0463397733402285 -0.07677107 -0.6809654 0.7282804 190 194 200
-0.0513120633408928 -0.017940516178681 -0.045593231751126 -0.095643 -0.6806973 0.7262944 198 200 204
-0.0483399007828833 -0.0191916696225001 -0.0468314314537814 -0.04390965 -0.7112001 0.7016169 186 189 196
-0.047851244570742 -0.0213668308153618 -0.0500024135048309 -0.03391045 -0.6973571 0.7159212 195 198 205
-0.0482480524097033 -0.0204228189258575 -0.0486526276215326 -0.01925338 -0.712913 0.7009882 191 192 201
-0.0448261372756047 -0.0227802027115978 -0.0512349142889607 -0.07273974 -0.6852092 0.724705 190 194 200
-0.0418918945905844 -0.0244097473929947 -0.0528219738587251 -0.09040941 -0.6790667 0.7284878 185 188 194
-0.0421153027314052 -0.0223764645068034 -0.0508158503719522 -0.07790808 -0.682393 0.726822 186 188 196
-0.0466590807814704 -0.020335285058239 -0.0483747462924303 -0.03689072 -0.7043383 0.7089053 190 193 200
-0.0469942628999895 -0.0190487310766656 -0.0469082270302399 -0.03829204 -0.7045109 0.7086594 185 189 196
-0.0455414730755006 -0.0205240545264638 -0.0484023981942315 -0.03928842 -0.7027924 0.7103093 190 192 200
-0.0473153795671593 -0.0177642014722585 -0.0454216866092454 -0.08372206 -0.6901648 0.7187929 191 190 195
-0.0456090171066776 -0.0190901013570202 -0.0465793141001865 -0.0429437 -0.7076512 0.7052557 187 190 198
-0.0444102924742129 -0.0178250689491337 -0.0449379754938858 -0.06749981 -0.6920443 0.7186922 204 197 196
-0.0439201275200727 -0.018882456014957 -0.0465330008522805 -0.03514324 -0.7104491 0.7028705 194 196 203
-0.0428615994810828 -0.0187460249662328 -0.0459080663073274 -0.04106744 -0.6977425 0.7151706 196 198 204
-0.043106494309507 -0.0180243690464186 -0.0447971852824484 -0.05635759 -0.7030409 0.7089127 200 196 195
-0.054142063454826 -0.0165636879148716 -0.044506866894942 -0.08692575 -0.6867089 0.7217165 222 198 196
-0.0561153103018501 -0.0152490038566728 -0.0434971309613769 -0.07276604 -0.709464 0.7009749 246 204 199
-0.0565783376980695 -0.0140261019635797 -0.0418585427169688 -0.0675183 -0.7223608 0.6882122 248 203 191
-0.0551463803773586 -0.0145104752877157 -0.0419153499255145 -0.06845599 -0.7137184 0.6970795 250 205 194
-0.0532714849464853 -0.0155187009080653 -0.0434950110804845 -0.1114743 -0.6861696 0.7188496 243 204 198
-0.0533470848725006 -0.0139014538401212 -0.0414179058304072 -0.06618362 -0.6967148 0.7142887 251 206 196
-0.0516915563198364 -0.0168098733027235 -0.0442413516807316 -0.1322578 -0.6749312 0.7259309 218 199 195
-0.0520485054860576 -0.0142298940831163 -0.041518823159889 -0.06653066 -0.697195 0.7137876 248 203 192
-0.0508003256929461 -0.0138855887960658 -0.0410815334258571 -0.06906666 -0.6989296 0.7118477 248 203 194
-0.0550832350451476 -0.0130577256095081 -0.0402481947098133 -0.06929797 -0.7035916 0.7072175 245 202 197
-0.0568685606407699 -0.0128183313835193 -0.0394333236744104 -0.08784813 -0.7074445 0.701288 234 199 195
-0.0567686788311956 -0.0124914260373903 -0.0390635794355988 -0.1111872 -0.7129087 0.6923862 213 194 191
-0.0564985169636998 -0.0115829102823357 -0.0389803413869733 -0.08288965 -0.7016722 0.7076619 217 201 202
-0.0556039246394118 -0.0104779149567378 -0.0369974536347315 -0.06383696 -0.7009704 0.7103277 196 199 205
-0.0541621295453636 -0.012495803675455 -0.0386103060725089 -0.09209336 -0.6983839 0.7097737 203 195 188
-0.0539484552538365 -0.0129990080651923 -0.0401664511156641 -0.0671003 -0.6921027 0.7186733 243 204 198
-0.052976405386282 -0.0105703350150328 -0.0366947127799225 -0.07323983 -0.6796538 0.7298676 191 194 200
-0.0525206051061353 -0.0204682171707908 -0.0399398010572184 -0.01203217 -0.5498785 -0.8351579 206 185 178
-0.0494806683096742 -0.0128961478006384 -0.0391657457744762 -0.04820376 -0.6986621 0.7138261 217 195 188
-0.0490308717047956 -0.0151716071763381 -0.0422599501863655 -0.1108068 -0.6784769 0.7262169 247 202 193
-0.0477119089328584 -0.016592600788137 -0.0438265664682403 -0.1106538 -0.68189 0.7230366 228 194 190
-0.0460447399033717 -0.0167716305091665 -0.0436475226189972 -0.09675134 -0.6870283 0.7201606 234 199 196
-0.0463929626345401 -0.015670628395942 -0.0423842364261977 -0.1069397 -0.6764817 0.7286538 244 201 192
-0.0476990918348275 -0.0154337357436523 -0.0425671897959621 -0.110391 -0.6795444 0.7252815 244 200 191
-0.0467429817037397 -0.0141212591743578 -0.0406490020985347 -0.100123 -0.6849062 0.7217193 240 200 191
-0.0448303055911312 -0.0153127934455746 -0.0418936223227107 -0.11566 -0.6821725 0.7219858 243 199 189
-0.0435355924793006 -0.0164711609189658 -0.0429148495544589 -0.08974625 -0.696967 0.7114651 239 199 191
-0.0437478690138189 -0.0141695121992134 -0.0402482880076033 -0.0941337 -0.6840419 0.7233433 240 199 193
-0.046933387971996 -0.0128592066119193 -0.0389753083197399 -0.06901297 -0.6912389 0.7193233 206 191 187
-0.0485730733081251 -0.0106262755404096 -0.0366165765718169 -0.06942138 -0.693848 0.7167675 188 192 197
-0.0472258125333944 -0.0117311546945826 -0.0374671588045601 -0.0753155 -0.6880885 0.7217075 188 191 197
-0.047016607801158 -0.0106155402548322 -0.0359354651053787 -0.07782717 -0.6869776 0.722499 194 196 202
-0.0453630357263384 -0.0128605026354998 -0.0389777356346663 -0.06929873 -0.6900406 0.7204455 210 191 188
-0.0460182384659484 -0.0103011670392774 -0.0359280401848762 -0.0639627 -0.6793132 0.7310557 192 193 201
-0.0452109473440441 -0.0111021421699498 -0.0369572495023298 -0.06082985 -0.6939951 0.7174054 186 189 197
-0.0444269208933381 -0.0104565746282508 -0.035576655051556 -0.06515458 -0.676751 0.7333232 189 192 199
-0.0403142625507442 -0.0239810773547264 -0.0526798764902229 -0.08856011 -0.6916823 0.7167515 186 190 195
-0.0393834010831622 -0.023720849707566 -0.0516641249003239 -0.06971383 -0.7003434 0.7103937 186 190 196
-0.0405281341084018 -0.022534865402176 -0.0507336789173647 -0.06370242 -0.6890273 0.7219303 183 187 194
-0.041079547976123 -0.0212584306768244 -0.0493724542330055 -0.07671522 -0.6869115 0.7226807 190 193 201
-0.0411495057524416 -0.0200900287753254 -0.0479017012116304 -0.05452302 -0.6879021 0.7237527 195 197 207
-0.0412446178944244 -0.0188741237758181 -0.0461538132092455 -0.04550975 -0.6958355 0.7167578 191 195 201
-0.0402291172777662 -0.0179366196590611 -0.0443196756635412 -0.06908896 -0.7032469 0.7075807 204 192 192
-0.0398930880991726 -0.0190438327489542 -0.0458451021576659 -0.06154316 -0.6923436 0.7189386 194 197 203
-0.0403415254525772 -0.0166724552697797 -0.0425411500286659 -0.09085772 -0.706717 0.7016381 239 197 188
-0.0406947557030888 -0.0153682297547442 -0.0414691519914901 -0.1061442 -0.7072859 0.6989135 239 198 188
-0.0420407633833797 -0.013731956007891 -0.0398616595342179 -0.08586478 -0.6908125 0.7179174 241 200 196
-0.0410840267756232 -0.0140001260962561 -0.0396673476510286 -0.0740347 -0.696633 0.7135974 241 200 195
-0.0425991260132328 -0.0126327545301848 -0.0385652283542587 -0.06657528 -0.6801668 0.730028 210 197 194
-0.0412308245147397 -0.0128079778097689 -0.0382013736660772 -0.03795827 -0.6819342 0.7304279 203 194 193
-0.0428213554683339 -0.0114900783954985 -0.0369959392304153 -0.04378608 -0.6686604 0.7422776 189 191 195
-0.0414809842589676 -0.0117352296390092 -0.0365105560662167 -0.03632297 -0.6539407 0.7556733 185 188 193
-0.0570058036894547 -0.00746043695417709 -0.0350803906396716 -0.03868198 -0.7105759 0.7025565 192 191 198
-0.0574404033005163 -0.00981963455280588 -0.0352363018338735 -0.0331957 -0.7153584 0.6979688 196 199 205
-0.0549133666853301 -0.00947272588820613 -0.0344605619887115 -0.03984569 -0.7068655 0.7062247 187 191 197
-0.0547043891077408 -0.00975565483425989 -0.0366413465249356 -0.06417569 -0.6998859 0.7113657 196 197 206
-0.054574512163069 -0.00790910049895555 -0.0340002399728315 -0.05704275 -0.7054743 0.7064362 192 196 205
-0.0544731787195953 -0.00935651191182352 -0.0354012295751015 -0.06975084 -0.7022647 0.7084907 188 191 199
-0.0531286091089029 -0.00939212051717675 -0.0351047539486447 -0.07554406 -0.6941792 0.715827 189 191 198
-0.0512823326549023 -0.00955224605477678 -0.0358199596832075 -0.04513754 -0.6833953 0.7286518 190 192 198
-0.0505934185706653 -0.00919645259489332 -0.0345668927912762 -0.06601902 -0.6986737 0.712388 187 191 198
-0.0547104646656864 -0.00857537725923541 -0.0338372931260699 -0.02945007 -0.7072396 0.7063603 191 195 202
-0.0533623890623183 -0.00809084179378239 -0.033696937700315 -0.03285636 -0.6887445 0.7242593 193 195 203
0.0489924891829361 0.0191539635225577 0.011476758005136 -0.08081203 -0.7167355 0.6926468 185 190 196
-0.0568413962707384 -0.00452704416914962 -0.0293051155491958 -0.06448177 -0.7012097 0.7100332 200 195 194
-0.0550049786664708 -0.00720167516335368 -0.0320913607710925 -0.07622529 -0.6983579 0.7116783 195 196 203
-0.055484628929376 -0.00632648653950429 -0.0306704156174279 -0.08325075 -0.7022588 0.7070374 187 191 195
-0.0550748414663627 -0.00672340636919544 -0.0326411497274441 -0.07575983 -0.6985114 0.7115773 196 198 205
-0.0553794619030921 -0.00518448090236734 -0.0305213820361194 -0.05890297 -0.6941276 0.7174381 187 191 195
-0.0536397759541529 -0.00552270866561178 -0.0303910974469338 -0.04688843 -0.7088568 0.7037923 189 191 199
-0.0519753877694562 -0.00739515021264214 -0.0317966687998603 -0.08377929 -0.7064662 0.7027707 193 197 203
-0.0519737291017393 -0.00706266176462167 -0.0323759354108194 -0.09454452 -0.7093842 0.6984521 193 196 204
-0.0508665908835262 -0.00656863692183851 -0.0315092880346161 -0.08942467 -0.6930322 0.7153388 192 195 202
-0.0523579235655713 -0.00547491702714198 -0.0302943376382928 -0.05870841 -0.7014431 0.7103034 190 191 200
-0.0549516494638436 -0.00529149763564551 -0.0294575215475869 -0.06949268 -0.7099869 0.7007776 186 189 197
-0.0549549939657528 -0.00460178418380419 -0.0300305638463303 -0.07111783 -0.7010487 0.7095583 189 191 198
-0.0541818702925259 -0.00440807577501734 -0.0289668360166568 -0.06685945 -0.7050891 0.7059597 191 193 199
-0.0510648968535241 -0.00553472080570749 -0.0302556833514551 -0.04741001 -0.7093185 0.703292 192 195 203
-0.0526564011578294 -0.00441070007975419 -0.0291882904252204 -0.05094988 -0.7048504 0.7075238 192 193 202
-0.0511793962650682 -0.00443727738564137 -0.0285689735772516 -0.05257735 -0.7212398 0.6906872 195 195 198
-0.0489162790065709 -0.00874863111879431 -0.0344309980809159 -0.06436837 -0.6879853 0.7228644 193 197 203
-0.049563880896093 -0.00806271053156893 -0.0319792518010209 -0.08075653 -0.6873525 0.7218206 200 202 208
-0.0488525761083096 -0.00771023268084692 -0.0328362372925954 -0.07471652 -0.6863722 0.7234021 198 200 208
-0.0478410073642772 -0.00805481386501561 -0.0328584609482842 -0.07797535 -0.6879199 0.7215858 197 199 206
-0.0461631210660602 -0.00751632255503321 -0.0324324416107842 -0.08698828 -0.6813624 0.7267588 192 194 198
-0.0444529921660877 -0.009268629131713 -0.033933963424269 -0.06753971 -0.6662706 0.7426453 186 189 196
-0.0451320454318989 -0.00810338687629186 -0.0325031062296122 -0.0753339 -0.6956511 0.7144189 192 192 194
-0.0452768505763235 -0.006787262159206 -0.0309594465290115 -0.1194777 -0.6966229 0.707419 206 191 183
-0.0434664460114629 -0.00882066940908643 -0.0325936967574382 -0.1006047 -0.6710525 0.7345524 209 189 172
-0.0492668732091301 -0.00665299198772207 -0.0315681068656058 -0.100421 -0.6891772 0.7176005 199 202 209
-0.0498324194832689 -0.00396757060929809 -0.0284189698170629 -0.04510689 -0.7146474 0.698029 200 196 192
-0.0484509906191519 -0.00403324773891023 -0.028105703683871 -0.05024575 -0.725519 0.6863655 228 197 194
-0.0466328702915266 -0.00663459029849678 -0.0312787107695777 -0.1112782 -0.6787204 0.7259172 193 195 199
-0.0472116727108078 -0.00390356657350566 -0.0281245077978608 -0.06771554 -0.6922745 0.7184502 246 201 199
-0.0468694825413838 -0.00542327192077674 -0.0296094823066172 -0.09346797 -0.6909131 0.7168701 210 194 189
-0.0454330144950497 -0.00556821826527587 -0.0295814695504933 -0.08676305 -0.6917307 0.7169246 236 197 191
-0.0455148787359239 -0.00394359092147067 -0.0278249314400726 -0.07334058 -0.6836591 0.726107 249 200 190
-0.0583163124504971 -0.00366177122128764 -0.0276525603660667 -0.06841857 -0.7024673 0.7084198 233 198 190
-0.0571110691589478 -0.00293743431453697 -0.0275958544182876 -0.07543642 -0.6915243 0.7184034 234 199 193
-0.0589785501950129 -0.00061921848258284 -0.0245527403429907 -0.08562903 -0.7051566 0.7038621 235 199 194
-0.0575353984544762 -0.000760629579517724 -0.0246667144852236 -0.08870887 -0.7055006 0.7031356 241 199 193
-0.0556260996689808 -0.00306472231610289 -0.0276516142753077 -0.08196521 -0.695296 0.7140344 222 197 190
-0.0530312017209571 -0.0035845398159593 -0.0271325121708784 -0.05215524 -0.6844797 0.727164 204 192 188
-0.0529984082304509 -0.00440455942185292 -0.0275660921274383 -0.04298661 -0.6951885 0.717541 192 193 198
-0.0529953782857362 -0.00245749237940207 -0.0267347712706043 -0.08626554 -0.6769385 0.7309669 232 198 196
-0.055927570535693 -0.0013004301143551 -0.0255478216582536 -0.08842948 -0.6863316 0.7218928 246 200 193
-0.0532986055157814 -0.00098912918827998 -0.0237121180431769 -0.0874186 -0.6799315 0.7280462 244 197 186
-0.0589579859830645 0.00037582029603489 -0.0230195738056723 -0.0711512 -0.7104892 0.7001019 200 192 191
-0.0578737217790897 0.000546266119166638 -0.0231673327122353 -0.07069818 -0.6913634 0.7190399 213 195 192
-0.0579841505076892 0.00204265814462823 -0.0214490220515466 -0.064809 -0.6925461 0.7184565 189 192 198
-0.0581747715568417 0.00290222736838541 -0.0201661963086095 -0.04423317 -0.6811079 0.7308457 190 193 201
-0.0568070818097697 0.00309555338049816 -0.0193010778369732 -0.04058775 -0.6850247 0.7273883 190 193 200
-0.0567095240643081 0.00179520911290831 -0.0225157280590033 -0.05547941 -0.6843574 0.727033 205 191 192
-0.0545717613076251 0.000641872826553813 -0.0227365379474121 -0.0742365 -0.6879049 0.7219943 222 196 192
-0.0563071106006978 0.000799873393283024 -0.0219133231058359 -0.04870027 -0.6905165 0.7216753 192 192 197
-0.0534356417548967 0.000302066171276705 -0.0234008912941647 -0.06945285 -0.6900356 0.7204354 240 198 191
-0.0535175203762979 -5.0252123266592E-05 -0.0220620556355723 -0.08343422 -0.6742517 0.7337734 226 196 191
-0.0550818623419911 0.00178329119438381 -0.0211827670394679 -0.04555081 -0.681595 0.7303105 191 193 196
-0.0550210692383191 0.00318839526265013 -0.0194667452076429 -0.03347899 -0.6610719 0.7495753 190 194 201
-0.0519060197646155 -0.00627785845663209 -0.0207243964734009 -0.8823624 -0.3956361 0.2547719 182 174 173
-0.0505727752185194 -0.00218888225856007 -0.02477151802342 -0.08911999 -0.7008805 0.7076893 242 196 184
-0.0505949178869827 -0.00149592773696661 -0.0236996262816467 -0.06820838 -0.6955195 0.7152624 243 196 183
-0.0502281935908782 -0.00111575299846201 -0.0256103972431242 -0.07674664 -0.6986812 0.7113048 233 194 185
-0.0486148331065888 -0.00165687976370421 -0.0249386196627909 -0.05155224 -0.6778035 0.7334335 243 198 188
-0.0492412833084241 -0.0004359515479464 -0.0233738703290179 -0.05073459 -0.6951396 0.7170823 238 199 193
-0.0472212690586069 -0.00338317464730586 -0.0259875773270863 -0.03863969 -0.7049246 0.7082289 247 199 185
-0.0474200373828371 -0.00159266706194372 -0.0249762307976608 -0.03451033 -0.7035467 0.7098106 246 198 188
-0.0461437824503648 -0.00154871272070101 -0.0245701834275525 -0.01946989 -0.6734888 0.738941 241 197 191
-0.0509892994825529 0.000668477216133834 -0.0217426475058943 -0.05469441 -0.693749 0.718137 206 195 193
-0.0505230239314622 0.00086850405173533 -0.0222938411620839 -0.05954885 -0.6955126 0.716042 234 204 203
-0.0513075864296741 0.0025216903313896 -0.0189185169402624 -0.04847912 -0.7009222 0.7115883 193 195 199
-0.0509535701688666 0.00181373917056593 -0.020582382316506 -0.05001175 -0.6876886 0.7242811 194 196 202
-0.0494810466029101 0.00191255954381542 -0.0202400239399894 -0.01651845 -0.6703432 0.7418674 194 195 201
-0.0483134360960076 0.000361874403067119 -0.0214263900382408 -0.03868496 -0.6780245 0.7340206 194 193 194
-0.0466026408524982 0.000758397604190719 -0.0214209553526142 -0.01317116 -0.6854051 0.7280428 192 194 197
-0.0479778534085256 0.00124815824299063 -0.0212293659333405 -0.02330472 -0.6802383 0.7326205 192 194 199
-0.0451195341226232 -0.00062827431884882 -0.0224563504752024 -0.03742529 -0.689446 0.7233697 189 192 194
-0.0481285206366611 0.00178264282227447 -0.0199314413305812 -0.03207845 -0.6723949 0.7394972 188 191 197
-0.0481252217952726 0.00200817875517467 -0.0206587503463934 -0.01284219 -0.6726125 0.7398834 191 194 199
-0.0466103821768993 0.00210385374395017 -0.0197169065200048 -0.04928222 -0.6780521 0.7333598 194 196 201
-0.0469371528752838 0.00305921812112109 -0.0183962461180405 -0.04972699 -0.6958489 0.7164646 194 196 202
-0.0458529771968159 0.00145581703236775 -0.0191181474495976 -0.04564603 -0.6965753 0.7160302 193 197 201
-0.0415418180235765 -0.0105404124239874 -0.0349786280177251 -0.0577563 -0.6478909 0.7595404 190 186 187
-0.0420523916012563 -0.00919665695951921 -0.0333773420766217 -0.08218145 -0.6596616 0.7470561 210 186 175
-0.0429911048306391 -0.00890660331272519 -0.0337168689122141 -0.07776772 -0.6655834 0.7422607 187 184 182
-0.0435917012222937 -0.00759591614791155 -0.032320056931074 -0.0970479 -0.6793076 0.7274083 213 193 190
-0.0425008198202299 -0.00648231710654845 -0.0304803643923267 -0.1138714 -0.6810945 0.7232867 249 199 188
-0.0425228773677837 -0.00536247709856119 -0.0290463029249399 -0.08760639 -0.6836073 0.7245731 248 198 185
-0.0428808421355722 -0.00423077544138861 -0.0274618475777136 -0.05363453 -0.7070668 0.7051098 246 199 186
-0.0443094531882098 -0.00270875289090422 -0.0262604573456604 -0.04538013 -0.6913379 0.7211051 247 200 190
-0.0436913580143834 -0.000249399299684372 -0.022349721207407 -0.04146815 -0.7009104 0.7120428 186 189 193
