ply
format ascii 1.0
comment File exported by Rhinoceros Version 7.0
element vertex 470
property float x
property float y
property float z
property float nx
property float ny
property float nz
property uchar red
property uchar green
property uchar blue
end_header
0.0259478553839644 -0.0269486229943932 0.00352077979560844 0.6570843 -0.7531612 0.03143981 89 89 89
-0.0390229455146148 0.0144428607856528 0.00557078302402286 -0.8708152 -0.2480179 0.424462 118 118 118
-0.0184307515566106 -0.0134560683900493 0.010373518827226 -0.6843784 -0.4839659 0.5453469 61 61 61
-0.0384792686517946 0.0373826947326668 -0.00614343000415735 -0.003511263 0.4627866 -0.8864627 119 119 119
0.0278146601950572 -0.0271711665019374 0.00198525319161419 0.6422892 -0.7661136 0.02312004 115 115 115
-0.0421758207669413 0.0063114302653664 -0.00863104178447138 -0.8749884 -0.2658895 0.404596 64 64 64
0.00613437278029882 0.0251044963963174 -0.0163246405517578 -0.07679569 0.340026 -0.9372752 157 157 157
-0.0414393451704086 0.0152775749671228 -0.0163218795874309 -0.03609809 0.318693 -0.9471704 41 41 41
0.00498805802663449 -0.0488283218874872 0.00392412570698764 0.5081374 -0.8145527 0.2798218 131 131 131
0.0137066681557784 -0.0402187637729641 -0.0259919751548108 0.6579781 -0.7327436 0.1736424 101 101 101
0.0453241822584459 0.0475692626389654 -0.00108807668788613 0.01983759 0.6155185 -0.7878727 79 79 79
0.0138269339139497 -0.000524375035848124 -0.027039430555664 0.05008326 0.3421379 -0.9383141 94 94 94
0.0477205378008178 -0.00797061535322863 0.00527202692377343 0.7008159 -0.7027401 -0.1225289 112 112 112
-0.00426713693975256 -0.0495650968036809 0.00258586478061207 -0.6031864 -0.6098365 0.5140676 112 112 112
-0.0340304966609176 0.0437521331767192 -0.00347190872272163 -0.1612778 0.4071467 -0.8990111 50 50 50
0.0137149716255144 0.0134842257024499 -0.0203627494650666 0.04383371 0.3518706 -0.9350218 43 43 43
-0.0166012512160213 -0.0342577148382788 0.00024876810426655 -0.7115425 -0.3890515 0.5851035 76 76 76
0.0236797634988436 0.0529977626955931 -0.00311397150678705 0.2782158 0.4792997 -0.8323868 74 74 74
-0.0177067951411184 -0.0084923305018012 -0.0285354632460101 -0.09464928 0.5558672 -0.8258651 117 117 117
-0.0250364966320941 0.0626650919791483 0.00412441607739933 -0.3308647 0.4572247 -0.8255144 128 128 128
-0.0348279625300484 0.0284345139224675 -0.0108859329115524 -0.1515079 0.4285623 -0.8907186 92 92 92
0.052289714108276 0.02936481140869 0.0116196394681322 0.9866569 0.1136988 0.1165362 67 67 67
-0.0256930246259269 0.0304222409476547 -0.0114165909298253 -0.2300286 0.3562477 -0.9056348 229 229 229
-0.0250166384946763 -0.00390476977325882 -0.0254800465372674 -0.1242341 0.3120823 -0.9418973 27 27 27
0.0518291520563315 0.00590709191797667 -0.00594608000524399 0.889911 0.2485738 -0.382452 128 128 128
-0.0250093761125328 0.0194967902371448 -0.0166815472695918 -0.2493524 0.3311451 -0.9100364 62 62 62
-0.0130792929052365 0.00597228022751506 -0.0227105806461461 0.1231938 0.3914662 -0.9119087 89 89 89
-0.0112068374779065 -0.052170518266262 -0.0133035037583188 -0.5757992 -0.7305717 0.3670427 88 88 88
-0.00424206613409794 -0.0434540204091571 -0.0438953951241576 0.09405664 0.3992054 -0.9120244 48 48 48
0.0485639665626806 -0.0065968749219385 0.00430064257562635 0.7017974 -0.698876 -0.1380322 93 93 93
0.00713313818734151 -0.0117128414744005 -0.0301564574111592 -0.0925981 0.3084062 -0.9467372 82 82 82
0.0364360094899926 0.00249825570988293 -0.0249781956937098 -0.08258279 0.3550567 -0.93119 83 83 83
-0.0251108420302329 0.00995677150162066 0.0295481158173217 -0.749582 -0.4158082 0.5150052 89 89 89
0.0160437176620433 0.0421750006094554 -0.0086350169722495 0.0532807 0.4911594 -0.8694387 57 57 57
0.0417121200494545 0.0473427806400566 -0.00182597542270402 -0.05992286 0.5628087 -0.8244123 74 74 74
-0.0225039837974573 0.00628992740735868 -0.0224990884676665 -0.2197034 0.3010786 -0.9279451 25 25 25
0.0206500679251663 0.0367457491711496 -0.0105794795900792 0.02748987 0.3877122 -0.9213704 52 52 52
-0.00148652212587319 -0.0608462522625457 -0.0391000082936774 0.4563318 -0.8808575 -0.1259024 128 128 128
-0.010961648972572 -0.0529260404606389 -0.016609452967169 -0.4648952 -0.8337946 0.2977566 99 99 99
-0.0447766367521575 0.0390871240604087 0.00498833492174022 -0.9790766 -0.2025228 0.01983808 109 109 109
-0.0327343993471404 0.0303175876070225 0.0261876660574139 -0.89588 -0.2393382 0.374321 69 69 69
-0.00757936342856047 0.026998396270723 -0.0149620631349689 -0.1415506 0.3221049 -0.9360619 80 80 80
-0.0246295464705147 -0.0174867596788426 -0.0333837476383979 -0.2140621 0.3765793 -0.9013132 28 28 28
-0.0372545469863886 0.0405341968285198 -0.00389669981955315 -0.03070914 0.4499702 -0.8925154 73 73 73
-0.0179600787709117 -0.0322672290229096 -0.0406465248106102 -0.07054926 0.3176979 -0.9455637 47 47 47
0.0224521482202927 0.058791741624334 0.00338844274493494 0.4092109 0.7341615 -0.5418056 117 117 117
-0.0315056606500098 0.0485663869187889 -0.00164160003906494 -0.1816308 0.4338981 -0.882464 38 38 38
0.00594075713502129 -0.0460773272628996 -0.0438313610394833 -0.06318273 0.3508174 -0.93431 62 62 62
0.0137720137622678 0.051288498681606 0.0135150031998313 0.120785 0.8486142 0.5150387 33 33 33
0.0504245279283716 0.00287768377240427 -0.0113469436311509 0.9421205 0.06041099 -0.329787 115 115 115
-0.0307741474099833 -0.0289821344048384 -0.0173323893034451 -0.7118155 -0.4016218 0.5762106 84 84 84
0.0497068010125731 -0.00697084288031258 0.0111649353589242 0.6581545 -0.7509236 -0.05428119 98 98 98
0.00336365885016121 -0.0509996644512078 0.00478998849621742 0.2237494 -0.8417003 0.4914028 141 141 141
-0.00734721385855897 -0.0427247328747025 -0.0440766336233259 0.01272934 0.4335718 -0.9010291 140 140 140
0.0436194700247491 -0.0115453200999012 0.0307235970568934 0.6438053 -0.7429708 0.1830551 66 66 66
0.044196808281319 -0.0100228586171394 -0.00258828610300538 0.7295627 -0.6658721 -0.1560535 110 110 110
0.0214146831387404 0.0556031955755074 -0.000710102227171161 0.3020408 0.605003 -0.7367107 26 26 26
-0.0140382796274038 0.0248766476256637 -0.0156304718280638 0.03578846 0.3829387 -0.9230802 136 136 136
-0.0360387505785343 -0.000205964470435971 -0.00133170177245734 -0.764431 -0.4246605 0.4850863 72 72 72
0.00262826775154779 -0.0152460195048625 0.0335749271587443 -0.5001847 -0.7840515 0.3675302 68 68 68
-0.0216215363361013 0.0604480975089277 0.00154118207430221 -0.248934 0.419062 -0.873166 53 53 53
0.042933269535426 0.00472328351945683 -0.0228124550032585 0.3421727 0.4430214 -0.8286434 129 129 129
0.0331071758077889 0.0252294771333208 -0.0144849107517539 -0.02361585 0.3368763 -0.9412527 94 94 94
-0.0222356198645225 -0.0250573177750277 -0.0015920559001204 -0.7580704 -0.2891844 0.5845525 95 95 95
-0.00930005059605377 -0.0107332696348694 0.0261067610445002 -0.7409539 -0.5023072 0.4457294 105 105 105
0.024194480627555 -0.023268851075811 0.036647791911765 0.03449687 -0.8945923 0.4455496 86 86 86
-0.0234802934215684 -0.0401645527010859 -0.0424267685658073 -0.1113768 0.35099 -0.9297318 39 39 39
0.0275978851574193 -0.0267700487582088 -0.00717315803613461 0.7183256 -0.6939214 0.04981337 141 141 141
-0.0116233259151498 0.0573786944868542 -0.000494208157042209 -0.108282 0.4940563 -0.8626606 29 29 29
-0.0252758054741976 0.0341615457097635 -0.0105590137302117 -0.2278506 0.3924307 -0.8911129 104 104 104
-0.0157121374699712 -0.0529713415662669 -0.0235643453014404 -0.5883118 -0.7907333 0.1692039 97 97 97
0.0320371403958083 0.011161164515687 -0.0214895270231299 -0.07987842 0.421978 -0.9030803 60 60 60
0.0342212414129163 0.0118539318696198 -0.0209571093837744 -0.09610764 0.4035727 -0.9098859 155 155 155
0.054512575922368 0.00292229062370764 -0.00255556625539971 0.9620698 0.01723542 -0.2722583 141 141 141
-0.0186628163528014 -0.0118161555248133 -0.0313503947554967 -0.004807593 0.5597956 -0.8286167 165 165 165
0.0319671696439382 -0.0217128549033467 0.00477796568721545 0.6945428 -0.7189846 0.02591085 64 64 64
-0.0297606808904528 -0.0296686859098914 -0.0358903651588606 -0.1033357 0.4452226 -0.8894372 147 147 147
-0.0227712310702458 -0.0354439314237105 -0.011379047931093 -0.7644752 -0.3957868 0.5088522 87 87 87
-0.00243441808060052 0.0367586401929749 -0.0110712261670438 0.07403629 0.379366 -0.9222798 136 136 136
-0.030332927718142 -0.0257123888591209 -0.0142362909008104 -0.7059393 -0.4479782 0.548603 127 127 127
-0.0339279511015212 -0.0380645493284286 -0.0370355954838137 -0.7518192 -0.08092616 -0.6543843 161 161 161
-0.0145475905885685 -0.0512343206785335 -0.0201243264439581 -0.5325142 -0.8171688 0.220599 114 114 114
-0.00805905049846845 -0.0219361058338952 0.016497336851289 -0.6940854 -0.490332 0.5270863 47 47 47
0.000599622337234096 -0.0530286281414565 -0.00198903804069539 0.2620526 -0.9492015 0.1741978 133 133 133
0.0172956059042367 -0.00366088330073278 -0.0289497058468933 0.03434641 0.392014 -0.9193179 202 202 202
-0.0124753276407129 0.0440149379633683 -0.00834240752837129 -0.08832514 0.3220172 -0.9426047 130 130 130
0.00920073860261728 -0.0465963854620166 -0.0326714003365567 0.7238973 -0.6735804 0.149205 97 97 97
-0.0340289226834086 0.0119271199749387 -0.0188605116361711 -0.07088374 0.3297651 -0.9413981 88 88 88
-0.0375090818097489 -0.0151495665634416 -0.0151944552941849 -0.770035 -0.3257788 0.5485564 96 96 96
0.00399283736751388 0.05780858545909 -0.00136236949246543 0.0366321 0.396946 -0.9171106 69 69 69
0.0027462774389394 -0.00766882109604428 -0.0278508932471345 -0.1116969 0.3913983 -0.9134173 128 128 128
-0.000585505061592495 -0.0605964211128112 -0.037129292807283 0.4680719 -0.8728327 0.1381005 114 114 114
0.0268214777355281 0.028243805293457 -0.0148043951955782 0.02773714 0.3352528 -0.9417198 130 130 130
0.00709679578476308 -0.0367760570567073 0.016306380337865 0.2406314 -0.5757211 0.7814357 112 112 112
-0.015611020922896 -0.00554168291526613 0.0222184121952482 -0.6538233 -0.547119 0.5226623 98 98 98
-0.0319018222260575 0.00727972891539452 0.0160079523983905 -0.8091545 -0.4222688 0.4086051 99 99 99
0.0230848399185956 0.0504591888785302 -0.00372971202032563 0.1145387 0.3076394 -0.944584 47 47 47
0.0252636850728557 -0.0311343673334252 -0.0295365331383843 0.682579 -0.7110146 0.1689505 113 113 113
0.00142372893685161 -0.0509910145792214 0.00453724678754935 -0.06835979 -0.8136507 0.5773211 133 133 133
0.0116212464404358 0.028490046558685 -0.0149745267325724 0.1067251 0.3110751 -0.9443739 67 67 67
-0.041543656016502 -0.00990911777963199 -0.018460854517616 -0.9778201 -0.03750501 0.2060612 102 102 102
-0.00516260823733095 0.0284766960373282 -0.0146077971393724 -0.1154614 0.3103421 -0.943587 27 27 27
0.000791364441118492 -0.0461094019232091 -0.0444201461620291 0.001150187 0.3814711 -0.9243801 141 141 141
-0.000354280545663221 -0.0516934162718219 -0.0462370691951841 0.02884905 0.2954151 -0.9549333 81 81 81
0.00823774315109638 -0.0142871492108605 -0.0313682800363398 -0.1570475 0.316895 -0.9353682 30 30 30
0.00953595681986286 0.0160767880459944 -0.0196263040137271 0.001777679 0.3494381 -0.9369578 141 141 141
0.0158632116145557 -0.0380000041551363 -0.00449747383711258 0.6973135 -0.7140628 0.06219462 116 116 116
-0.0386287235632036 -0.0260421492456684 -0.0340313054175923 -0.4627931 0.2006495 -0.8634595 136 136 136
0.0292935494504637 -0.00227663498189434 -0.0262623863644658 0.0601871 0.404218 -0.9126803 52 52 52
0.0477666645205109 0.0100142634036655 -0.0137993686337204 0.8724733 0.2209306 -0.4358669 139 139 139
0.0167702596044544 -0.0216059592257556 -0.0355666261369986 -0.03062793 0.4016705 -0.9152719 110 110 110
-0.0206623991396159 -0.0202491320112919 -0.0352936216119442 -0.06204786 0.3364445 -0.939657 120 120 120
0.0375243809583886 -0.0169271473897423 0.00869925321173703 0.6906766 -0.7223242 0.03483718 78 78 78
0.0363437652668871 -0.0177555794130004 0.0273847446595644 0.6369219 -0.7698323 0.04109486 101 101 101
0.00557494719968477 0.0523415093625823 -0.00294192589552877 -0.0005920555 0.3933735 -0.9193786 22 22 22
0.00377586666558039 -0.0507171917285121 -0.0200559260959191 0.755623 -0.6488407 0.0896638 116 116 116
0.00211301128888819 -0.0529485774919884 -0.0113433575699164 0.5145207 -0.8545195 0.07116777 124 124 124
0.000978940755460456 -0.0151162119855728 0.0339491220517744 -0.47512 -0.8080043 0.3484106 57 57 57
0.0516380594156384 0.0187935054512989 0.0205945816509826 0.9582443 0.178152 0.2236731 58 58 58
0.000379027711051472 0.0588726168614739 -0.000955734294716459 0.0320629 0.4087647 -0.9120764 53 53 53
-0.0293043222932544 -0.00622520692768069 0.0012922319321268 -0.7454367 -0.3816114 0.5465316 70 70 70
-0.0146690424579315 0.00430940054542139 -0.0245803811094176 0.06252699 0.3493903 -0.9348887 189 189 189
-0.0205871724463492 -0.0459826471112956 -0.0447531751411164 -0.2052567 0.2702949 -0.9406436 150 150 150
-0.0293905085055152 -0.0357075591556315 -0.0195453258092704 -0.6904346 -0.3583098 0.628422 133 133 133
-0.0287345759932999 -0.00696502407057253 0.00317458529361392 -0.738228 -0.4184745 0.5290543 43 43 43
0.000129912728273562 0.0247732424070872 -0.0161352758509339 -0.0173586 0.3759621 -0.9264724 112 112 112
-0.0150599071291543 0.0147321219202816 -0.0193356756610464 0.1354172 0.4511087 -0.8821356 106 106 106
0.0139128799003138 -0.0420631440394081 -0.0343527794867224 0.7135684 -0.692015 0.1092495 90 90 90
0.0340113917463404 -0.0202998891990942 0.00330445205755892 0.6996177 -0.7144772 0.007577411 98 98 98
0.0154960428864656 0.0280383813439029 -0.0150570235924179 0.1237098 0.3330819 -0.9347472 91 91 91
0.0314451656016458 -0.0154157366880376 -0.0302571964725242 0.2761206 0.279499 -0.9195856 120 120 120
-0.0292817668699007 -0.0447885388549185 -0.02748559081522 -0.5290151 -0.7772044 0.3407293 77 77 77
-0.00896981767414251 0.0398389715626153 -0.0100499094316224 -0.1137419 0.3463176 -0.9311965 193 193 193
-0.033387093569199 0.0013415021248524 -0.0216542697230315 -0.07832218 0.3614625 -0.9290912 78 78 78
-0.00351581447619409 -0.0311796782249389 0.0168120828824743 -0.6344563 -0.4157262 0.6516417 45 45 45
0.00718445638981524 -0.02203182276916 0.0257952015709735 -0.4143118 -0.8328831 0.3669489 42 42 42
-0.0222636532237134 -0.0453485326534042 -0.0443415403690694 -0.2772324 0.2174799 -0.9358658 106 106 106
-0.0109264569952069 -0.0563401771133936 -0.0272630197589677 -0.3544047 -0.9233928 0.1474554 94 94 94
0.0267170219605039 0.0204889022377261 -0.016415974771017 0.02961374 0.41405 -0.9097723 119 119 119
0.000742045601393237 0.0537283160151496 -0.00254365252917416 0.1044532 0.3884398 -0.9155349 182 182 182
0.0147672719966306 -0.0244298062940183 -0.0367765114536879 -0.07750378 0.3974925 -0.9143265 62 62 62
-0.0311135846785157 -0.0474540351445458 -0.0302599048438286 -0.4797191 -0.8672929 0.1329385 80 80 80
0.0333192386978894 -0.0215543336682058 0.00973233003723106 0.7061816 -0.7079819 0.008319809 81 81 81
-0.0102239317418925 -0.0548946444832992 -0.0200256584173081 -0.3682332 -0.8916981 0.2632085 147 147 147
-0.0190498523377874 -0.0369016689197528 -0.00461053814316725 -0.7018594 -0.4878857 0.519 101 101 101
-0.0144790607572313 0.000521434703123269 0.0358410818981649 -0.7558177 -0.5780238 0.3076169 44 44 44
-0.00801288080121243 0.0541170047950108 -0.00205409610124935 -0.03742216 0.4308563 -0.9016443 81 81 81
-0.0252408481556931 0.0275053010821849 -0.0131071453176598 -0.2059641 0.4052714 -0.8906929 219 219 219
0.04379475776316 0.0233944301875251 -0.0131287679507571 0.5267438 0.3463932 -0.7762427 107 107 107
0.0389206401922982 0.0154539524076114 -0.0194324396919981 0.1155014 0.4031553 -0.9078134 143 143 143
-0.0197239979116263 -0.0107815056399734 0.0110893263128597 -0.7126298 -0.4984441 0.4936722 116 116 116
0.00818809142290144 0.0571136034678201 -0.0017019943910947 -0.02932633 0.4967887 -0.8673759 86 86 86
0.0511619193524805 0.0219727983593103 -0.00108730197582196 0.9403365 0.1075215 -0.3228101 105 105 105
0.039304195973168 0.0253811875718422 -0.0145577659637376 0.2944043 0.3974039 -0.8691354 126 126 126
0.0506442664171783 0.0337454319206043 0.0146055923696707 0.9819486 0.09084075 0.1659061 62 62 62
-0.0223627531952947 -0.0197133274543726 -0.0344061303013368 -0.1438177 0.3603017 -0.9216828 74 74 74
-0.0443458283808998 0.0459887201267561 0.0147865673453947 -0.8634365 -0.3109719 0.3972077 104 104 104
0.0194302318809968 0.0266970651143956 -0.0150118419627214 0.08598123 0.3467851 -0.9339954 44 44 44
0.00364196825479801 -0.0220981689844186 -0.0350699251813648 -0.04802956 0.3447113 -0.9374792 62 62 62
0.0217685020934845 0.0590365985928512 0.00213459454861248 0.4034265 0.7382323 -0.5406108 118 118 118
0.013187018046967 -0.0423273566763709 -0.0335182487960517 0.6355696 -0.7283361 0.2560815 76 76 76
0.0198215225029071 -0.00561774128511927 -0.0283062398908122 0.0654023 0.3936818 -0.9169172 93 93 93
0.0457631655916156 0.0388713150659186 -0.00771849962496313 -0.03371434 0.3925466 -0.919114 100 100 100
-0.0263238476217137 0.0286461142585126 -0.0131319317891898 -0.2435347 0.374854 -0.8945252 222 222 222
-0.0143193393629141 -0.041374312825192 -0.042625269188581 0.05493728 0.3944973 -0.9172534 130 130 130
0.0365069867724152 0.0289364002638457 -0.0146078682813738 0.1382338 0.390517 -0.9101582 132 132 132
0.0422732388037587 -0.0130269506722851 -0.000649282160061992 0.6716731 -0.7398123 -0.03915541 87 87 87
0.0544478591590966 0.00761746134864949 0.0124848046085108 0.9800138 0.1989242 -0.001476535 73 73 73
-0.0359827821382116 -0.0135181865923824 -0.0120863136066901 -0.7677933 -0.3702837 0.5228608 126 126 126
0.00536633384797736 0.0518243324320264 -0.00312219991973517 0.0121284 0.4210487 -0.906957 63 63 63
-0.00465252517349912 -0.0474709443775054 -0.044862795943986 0.1068837 0.3416068 -0.9337455 33 33 33
0.0289438702567565 0.0381300402367406 -0.0103288769928793 0.01062929 0.4865998 -0.8735603 89 89 89
-0.0152445229174757 -0.0532752354400288 -0.0369590279715226 -0.6122442 -0.7838228 -0.1038214 109 109 109
0.0277044370567295 0.0249063332458439 -0.0157381274448979 0.004983728 0.3540961 -0.9351957 169 169 169
0.0126452544919394 0.0460868345219345 -0.00709317104096174 0.03003352 0.4927266 -0.8696657 68 68 68
-0.0260446726109228 -0.00387740877055776 -0.0242198855721841 -0.1179006 0.2850518 -0.9512334 124 124 124
-0.0417854402022172 0.0153737280444735 -0.00257992471628438 -0.9412037 -0.2107953 0.2640094 94 94 94
-0.0108255775262432 0.0312742430759247 -0.0131150222083715 -0.05422859 0.2891802 -0.9557374 51 51 51
-0.00410898035861973 -0.024560582929148 -0.0360068508794287 0.06653524 0.4229931 -0.9036868 25 25 25
-0.00960349825912588 -0.0256013760299869 0.0120420658939789 -0.6448489 -0.3046601 0.7009652 75 75 75
-0.0130143105171007 0.0129033284746702 -0.0193483354076275 0.1538951 0.4437508 -0.8828372 163 163 163
-0.0264247480241019 -0.048263127050014 -0.0224175327014448 -0.5521239 -0.7903569 0.2655092 85 85 85
-0.0296814725304878 -0.0275571274561679 -0.035235540125989 -0.07752325 0.4299518 -0.8995174 130 130 130
-0.0393733614961002 0.0325029257550105 -0.00895020051450435 -0.1650787 0.3064716 -0.9374563 70 70 70
0.0427440066017643 0.020993288093992 -0.0154166319396828 0.3907628 0.402093 -0.8280252 132 132 132
0.00264345703496638 0.0578670086292081 -0.00112152752265382 0.05527556 0.4074581 -0.9115495 56 56 56
2.85577555619865E-05 0.0239294297683721 -0.0164993146800396 -0.03475178 0.362701 -0.9312574 110 110 110
-0.0341899588678011 0.0225267139989791 -0.0128517401832766 -0.08227281 0.4421899 -0.8931401 43 43 43
0.0199636294543802 -0.0215510683672748 -0.0362350017835508 0.1096386 0.3657495 -0.924233 136 136 136
0.0242183470986265 0.0191631192507704 -0.0187010709962633 0.03410839 0.4344436 -0.900053 167 167 167
-0.00498079380774807 -0.0568274447889034 -0.0475195542081367 -0.06252155 -0.06335736 -0.9960306 140 140 140
-0.0213189951445513 0.0389954224127236 -0.00792405038808353 -0.1279719 0.3681243 -0.9209276 79 79 79
0.0556151410221876 -0.00152698972269905 0.00817784744198724 0.8556267 -0.4503184 -0.2551789 120 120 120
0.0186008244068242 -0.0353644698628945 -0.0241219916058006 0.6521941 -0.7447641 0.1413122 133 133 133
0.0413278715587228 0.0399619267708275 -0.00636301016504154 -0.1235336 0.4641083 -0.877122 50 50 50
0.0245482511936005 0.0350732701104528 -0.0118739790619736 0.02724889 0.4030447 -0.9147745 119 119 119
0.0168266619443375 0.000405622815792928 -0.0258091556080545 0.08175731 0.3777601 -0.9222869 133 133 133
-0.0259323622879971 -0.0168839782433952 -0.0322538246553243 -0.2694131 0.413798 -0.8695906 86 86 86
-0.0397031022363327 -0.019333410723243 -0.0316961453487325 -0.2933417 0.4504752 -0.8432217 11 11 11
0.0228467779864664 -0.0315145757007267 -0.020877013734169 0.7001936 -0.6956374 0.1606784 123 123 123
0.0122515899686276 -0.041131765532181 0.0014782655842574 0.741331 -0.6697809 0.04268482 118 118 118
-0.0248254270514982 -0.00483779280169183 -0.0257069842109759 -0.1392774 0.2912324 -0.9464594 111 111 111
-0.036171756595838 0.0149400901062513 0.0109539042908643 -0.9001139 -0.1489985 0.409383 100 100 100
-0.0249109513041784 0.00684866079764657 0.0275032063936451 -0.662792 -0.587426 0.4643678 105 105 105
-0.00673411515556188 0.0196898327930535 -0.0170477961350253 -0.1286592 0.3309064 -0.9348517 18 18 18
0.0261746376098567 -0.0280145285215998 0.00112673298512705 0.6668739 -0.7442289 0.03745147 96 96 96
-0.0114266564864601 -0.0293250610990783 0.00898258812878783 -0.6625824 -0.337839 0.6684679 79 79 79
-0.0156193359866267 -0.00511847471209292 -0.0271662503545745 -0.1778682 0.3578954 -0.9166645 161 161 161
-0.0149209498664883 0.0477222091458289 -0.00621165329855455 -0.07001875 0.4200826 -0.9047806 221 221 221
-0.00482298491963584 0.0204017036959521 -0.0171328431569128 -0.1321467 0.3657722 -0.9212752 50 50 50
-0.0255304070788535 -0.0453556397480637 -0.0248750578073834 -0.5147109 -0.8237492 0.237718 108 108 108
-0.00884265142387186 0.0152696994099726 -0.0191504937741927 -0.04265867 0.3290012 -0.9433655 228 228 228
0.0420120738371151 0.0168876347489193 -0.0180551231948715 0.3606058 0.4343623 -0.8254047 43 43 43
0.0517862320659749 0.00248814143250886 -0.00716935814454117 0.8882203 -0.09101503 -0.4503121 121 121 121
-0.0215343153321289 0.00553613620554594 0.0303480659348377 -0.6382909 -0.6538682 0.4062524 84 84 84
-0.0424251041282656 -0.0116130154125158 -0.0199223653211765 -0.9888443 -0.09740912 0.1126871 141 141 141
-0.0168264321011987 -0.052080439627707 -0.0345984757318681 -0.7645127 -0.623044 -0.1653376 130 130 130
0.0373113338606473 0.0164637276439534 -0.0193791078428223 0.06756606 0.421128 -0.9044811 145 145 145
0.037441874605351 -0.0171839466692199 0.0118495538851535 0.6623077 -0.7491149 -0.01324387 108 108 108
0.0154903277298409 -0.0386618813489989 -0.025170941555539 0.6263052 -0.7655922 0.1470046 114 114 114
-0.0405476355895543 -0.0252896515564969 -0.0266980067454128 -0.9921919 -0.05479973 0.1120365 150 150 150
-0.023704028801974 0.00239008106329641 0.0203421994914603 -0.6429068 -0.6856092 0.3414834 106 106 106
-0.0287873575853078 0.0366781015965205 -0.00786319040566241 -0.2395743 0.4181975 -0.8761935 209 209 209
0.0256797652624975 -0.026099822534136 0.0351853660923626 0.07044762 -0.9277087 0.3665973 110 110 110
0.0266143612699873 -0.0278992345871585 -0.0112828588044152 0.6699436 -0.7379702 -0.08108963 103 103 103
0.00994036882759042 0.0260130859986571 -0.0166129251816636 0.08986112 0.3193894 -0.9433532 43 43 43
0.00562207076988386 0.0606915160069712 0.00175236578161858 0.0592722 0.5970804 -0.7999886 140 140 140
-0.0235301129123296 0.0628290339566284 0.00362693226412303 -0.253816 0.4360524 -0.8633862 95 95 95
0.0197345069100362 0.0214790293505989 -0.0166738893689971 0.05410151 0.3768239 -0.9247036 69 69 69
-0.0344887503192962 -0.0165468695487618 -0.0313663198532697 -0.00721372 0.4716752 -0.8817428 104 104 104
-0.0241625874880059 0.0585772636301287 0.00216434459906251 -0.2516888 0.4758493 -0.8427457 27 27 27
0.0279718031571384 -0.00872337273041479 -0.0292746049822307 0.1757111 0.3348075 -0.9257589 45 45 45
0.016965960657216 -0.0131283076798807 -0.0320436263594775 0.07277415 0.3565454 -0.9314393 67 67 67
0.019453983725859 -0.0195546946957952 -0.0341152155352814 0.04113111 0.4233353 -0.905039 33 33 33
-0.00129165360739492 -0.0313576518188627 -0.0377610530998992 0.01499097 0.3423075 -0.9394684 111 111 111
0.0212925489444228 -0.00292399786669928 -0.027353424103354 0.09966903 0.3989701 -0.9115311 104 104 104
0.0500653059124777 -0.00191630892229289 -0.0147732385866368 0.9559585 -0.2568141 -0.1420907 179 179 179
0.0120623608635769 0.0405080185258335 -0.00930482079442951 0.01847348 0.4588928 -0.8882996 84 84 84
-0.0336651685223269 -0.0397202608822198 -0.036778910095814 -0.7956364 -0.1835526 -0.5772964 196 196 196
-0.0360670624996459 0.00503216398489403 0.00578311310628582 -0.8702614 -0.3672188 0.3283221 132 132 132
-0.00762843969064064 -0.0067571888038418 0.0348888864687316 -0.7332998 -0.6192876 0.2806319 113 113 113
-0.00462240669804992 -0.0206441224024991 -0.0340421708293098 0.07129035 0.40876 -0.9098533 204 204 204
-0.0355688542260834 0.0605104807034647 0.00562748181995837 -0.246546 0.6641648 -0.7057621 79 79 79
0.022649267178778 0.0227532301301092 -0.0158464291431811 0.04000604 0.4167466 -0.9081419 125 125 125
0.00272876658410681 -0.0527006211626608 -0.0203567718111692 0.703273 -0.7000716 0.1237206 149 149 149
0.016341505164663 -0.0389888421126994 -0.0412748222325545 0.4726144 0.05944935 -0.8792619 95 95 95
-0.00641905281181498 0.0228691664236866 -0.0169050485328608 -0.1273311 0.3386011 -0.9322747 109 109 109
0.0212948469849076 0.0503290228273845 -0.00354946207910706 0.1251874 0.3045068 -0.9442477 55 55 55
0.0185324292968362 -0.0261585176498371 -0.0374554598093314 0.1520354 0.3263812 -0.9329312 141 141 141
-0.0254493423043566 -0.0390277389802682 -0.0160939795326497 -0.7263196 -0.3584054 0.5865198 63 63 63
0.0350603810439748 -0.0186147943804722 -0.00890129640708781 0.7194878 -0.6833407 -0.1240278 98 98 98
0.0331386775503514 -0.0201852311964157 0.0264489445082109 0.6360657 -0.7709819 0.0317378 145 145 145
0.00934142138271243 -0.0439374415599179 -0.0215685338812273 0.7803138 -0.6203799 0.07898822 117 117 117
-0.00785256962520242 -0.0199273923932144 0.0196177834080421 -0.6683478 -0.5406324 0.5109089 65 65 65
0.0338876437863952 -0.0186020011559438 -0.0121152594256955 0.7337472 -0.6747038 -0.07993651 61 61 61
0.0421272275809289 -0.012714164418826 -0.0198404183080026 0.7441568 -0.6542966 0.1346347 120 120 120
-0.0142934090717318 -0.0210512034266883 -0.0354104087564617 0.142623 0.3691015 -0.9183805 54 54 54
-0.0023550824146289 -0.0566333960000436 -0.0235159823060811 0.4174089 -0.8854214 0.2044475 140 140 140
-0.0338286095383616 0.0340573949864875 0.0278605128736919 -0.8883437 -0.3202969 0.3290218 102 102 102
0.0266151590353995 -0.0100720430562276 -0.0297276011889416 0.07711983 0.3661689 -0.9273472 88 88 88
-0.00312160090468672 0.0245416072384768 -0.0163475932022275 -0.1237923 0.353018 -0.9273908 124 124 124
-0.0171562843638248 -0.0509163006973514 -0.0196231821601105 -0.6180302 -0.7622662 0.192325 112 112 112
-0.01734865332965 -0.0535986751510109 -0.0325886229575448 -0.6568811 -0.7474767 -0.09892319 138 138 138
0.0168329057620679 -0.00598139164732236 -0.0290274781308517 0.009865911 0.3484159 -0.9372881 200 200 200
-0.0336283571559816 -0.00193586833695836 -0.0237124411844336 0.04182293 0.4737778 -0.8796508 114 114 114
0.0488228581443005 0.0457637060434819 0.00896377512730528 0.8115458 0.5726694 0.1159447 38 38 38
0.00980229755110662 -0.0425809471302045 0.00587657199920766 0.7247297 -0.6820716 0.09769933 134 134 134
-0.0368602173637557 0.0402994878225393 -0.00521363688500254 -0.03212992 0.4498699 -0.892516 117 117 117
-0.0144211342021344 -0.0359223445650156 0.000481060366204211 -0.7131459 -0.4113696 0.5676249 67 67 67
0.01377487913306 0.0295219899498955 -0.0140712498890906 0.1285022 0.3083745 -0.9425457 86 86 86
-0.00511733821905314 0.0135567589347494 -0.0189528580602157 -0.08136071 0.2914489 -0.9531201 242 242 242
-0.0446705061117109 0.0569928638138577 0.00745942161773283 -0.5956708 0.5884206 -0.5467518 82 82 82
0.0289702162792759 -0.022246017906806 -0.0324877024208468 0.4398031 -0.06267956 -0.8959043 145 145 145
-0.022484149679265 -0.0360416926285692 -0.0101178964438901 -0.7630161 -0.3979596 0.5093471 127 127 127
-0.0149781112435846 -0.0178502169287649 -0.0339427557345679 0.1190475 0.4132931 -0.9027826 13 13 13
0.0175053338316989 0.0103486983959651 -0.021875622166727 0.03479979 0.4216573 -0.9060873 127 127 127
-0.0255627689020633 -0.0144207304066604 0.001974157128386 -0.6826335 -0.4711855 0.5585658 28 28 28
-0.00848336963962881 -0.0403519932290899 0.00691335944534116 -0.6085461 -0.529007 0.5914587 84 84 84
0.0149657804543663 -0.0350797903086382 0.0110040262056659 0.6645013 -0.7046894 0.2486983 145 145 145
-0.0357394484877557 0.0163417952102745 -0.0168653997899561 0.002598826 0.4175135 -0.908667 80 80 80
0.0144283376195035 -0.0385204801641768 -0.0168595777802508 0.6484407 -0.7609252 -0.0227508 96 96 96
0.012583026168871 -0.00994349879266787 -0.0306957124645867 -0.07801696 0.3469521 -0.9346323 45 45 45
0.0332834153461857 -0.0193146272001872 0.023932197490457 0.6388522 -0.7685648 0.03429388 129 129 129
0.0421745205544973 -0.0128130821485852 0.0065894223351754 0.6157654 -0.7869148 -0.03997577 82 82 82
0.0482638226283333 0.0439465741218965 0.0105808353216543 0.8606267 0.4754409 0.1824216 74 74 74
0.0215273188840711 0.0378901266631491 -0.0103912720923577 0.01954503 0.3944869 -0.9186937 57 57 57
0.0171342358974237 0.00783494496792558 -0.0238634157028979 0.06112144 0.4449733 -0.8934556 232 232 232
-0.0240148209191596 -0.018592067206604 -0.00136451284929967 -0.6899894 -0.414227 0.5935745 53 53 53
-0.0224574468437745 -0.0131433234398672 -0.031249651389939 -0.1760423 0.5815616 -0.7942262 82 82 82
0.0479201111324491 0.00406680164106721 -0.0156041350992276 0.8865206 0.1966189 -0.4188344 114 114 114
0.00589303090713689 -0.0482241273533115 -0.0126432058399698 0.7796236 -0.6252249 0.03578975 112 112 112
-0.0438337205416207 0.0235036294599735 -0.01395388745883 -0.302606 0.5246223 -0.7957393 114 114 114
-0.0324074906302608 0.0176665236879372 0.0204804861523939 -0.8929064 -0.1933772 0.4065999 81 81 81
0.000427759119498217 0.00768808579089297 -0.0221219301339739 -0.06316867 0.3338097 -0.9405216 114 114 114
0.035765129533606 -0.00104264622664818 -0.0256652811325775 -0.0344041 0.3284971 -0.9438782 70 70 70
-0.0382809996250933 0.0400283276674509 -0.00452785759548413 -0.005191514 0.4535872 -0.8911968 147 147 147
-0.00214002291075921 0.0475952817774308 -0.00716862817695696 0.01763499 0.4374999 -0.8990455 81 81 81
-0.0224652423327537 0.00170537268471493 0.0185887009255924 -0.7208486 -0.6093841 0.3301945 91 91 91
-0.0260969818062434 -0.00555954892948507 0.0080303039769925 -0.7123813 -0.4598602 0.5301335 72 72 72
-0.015939310524025 0.0118736990867376 -0.0216281175081806 0.0737006 0.4011627 -0.9130371 234 234 234
0.032511423210419 0.0179503654905988 -0.0176808936073334 -0.05055276 0.3622067 -0.9307259 192 192 192
-0.0268532153680888 -0.00851402785372346 -0.0257194114176522 -0.09317431 0.327226 -0.9403413 95 95 95
-0.0126504874166745 -0.0416464292582261 -0.00172792962987672 -0.6026012 -0.6025792 0.5232305 83 83 83
0.0499691555617926 -0.00455980467466865 0.00079398088190108 0.7381835 -0.6560447 -0.1571324 123 123 123
-0.0235574358162859 -0.00304345811043638 -0.0251351190494491 -0.1295698 0.3285753 -0.9355479 113 113 113
-0.0376371475833887 0.000635850251172521 -0.022983643501693 0.1666562 0.45253 -0.8760378 38 38 38
0.0362769250631395 0.0304915692200218 -0.0129469376625388 0.1686779 0.4010262 -0.9004031 110 110 110
0.0521389432496474 0.00746692139831318 -0.00675269882592855 0.8951997 0.2323006 -0.380334 121 121 121
-0.0270331355964285 0.0364835873743476 -0.00878579908008575 -0.2478252 0.4287367 -0.8687736 119 119 119
0.0291230680151139 -0.0211557257157136 0.0370712924610079 0.5150908 -0.7840062 0.3464329 98 98 98
-0.0269011131103475 0.00959340891870442 0.028736419497817 -0.7635097 -0.3947147 0.5111294 106 106 106
-0.0295350238086264 0.0563589910831264 0.00154925310926318 -0.2123748 0.4813385 -0.8504177 43 43 43
0.0126051244511601 -0.0145453823440072 -0.032109646688165 -0.1197765 0.3347359 -0.9346687 69 69 69
-0.037829502410626 0.00608115862821923 0.00443470336603852 -0.8858877 -0.3348815 0.3210255 132 132 132
-0.0342256304667971 -0.00615119704108857 -0.00407726694070254 -0.747304 -0.3996218 0.5308853 35 35 35
-0.00263319532110506 -0.0367277471048755 0.0119494482675164 -0.5229463 -0.4682358 0.7122377 69 69 69
-0.0212288471001206 0.00723477897618929 -0.0224082545831605 -0.2064327 0.3266545 -0.9223244 191 191 191
0.000666429863417028 -0.0392323170003968 -0.0411256594322676 0.03501278 0.3913383 -0.9195806 75 75 75
0.0249258736127435 -0.00879746993908959 -0.0300440313724643 0.08913116 0.3408108 -0.9358972 102 102 102
-0.0195485089427184 0.00211871062323921 0.0276982231272342 -0.6352857 -0.6674222 0.3885352 91 91 91
0.000971105941404704 0.019214761879031 -0.0182122772953266 -0.05424491 0.3424416 -0.9379719 214 214 214
-0.0477505547134115 0.056000764450707 0.00915135575554354 -0.7476459 0.548669 -0.3741496 92 92 92
-0.00675362431333049 -0.0397276336460908 -0.0422938194041571 0.02141893 0.3976496 -0.9172873 54 54 54
-0.040429822576398 -0.0112279488415457 -0.0276684170784545 -0.05229856 0.3182846 -0.9465515 105 105 105
0.0177598297385798 -0.0372484671319426 -0.0278526145975285 0.66654 -0.7337706 0.131549 73 73 73
0.0361130820351906 0.0112352528654922 -0.0207700817578122 0.002777589 0.3815646 -0.924338 119 119 119
-0.0310578882392182 -0.00539779710756361 -0.0255299554926831 0.04059151 0.3920535 -0.9190465 89 89 89
-0.0239942751255432 -0.0108026613157921 -0.0269014650533819 -0.315558 0.5911678 -0.7422559 123 123 123
-0.0281360054905165 0.0527916597521561 -0.000288581425115952 -0.2457946 0.4404829 -0.863458 75 75 75
-0.0357496311354385 -0.0417796574608853 -0.030754785682467 -0.8833091 -0.4632257 0.07202106 106 106 106
0.0285203645347546 -0.0259948986307441 0.00683978785972938 0.6522247 -0.7578234 -0.01751087 101 101 101
-0.0107715831081002 -0.0564687942934154 -0.0344529608087424 -0.4251521 -0.9005925 -0.09043687 84 84 84
0.0457385094727968 -0.0099860655283861 0.00292163838036175 0.6599925 -0.7466029 -0.08363039 97 97 97
0.050023309851544 -0.00714108751547027 0.0170943363037786 0.6449565 -0.764183 0.007446199 97 97 97
0.0412362646522245 -0.0139963447202893 0.0104690686255633 0.5922161 -0.8025404 -0.07217382 119 119 119
-0.0332098430914826 0.0350674616043807 0.0282061605629786 -0.8883437 -0.3202969 0.3290218 102 102 102
-0.0180687192519738 0.0387554401941368 -0.00952428385959281 -0.1367004 0.3759055 -0.9165195 64 64 64
-0.021490947611169 0.0212717777721918 -0.016816420736685 -0.1142673 0.4069318 -0.9062833 67 67 67
-0.0229816725188795 0.0300511961668752 -0.0132242541722667 -0.167197 0.3690958 -0.9142283 33 33 33
0.0163171846131941 0.0556108519361371 -0.00164407151135165 0.1442219 0.4882662 -0.8606952 26 26 26
0.00964571183421425 0.00230513650272557 -0.0252998088734778 -0.1645281 0.4138183 -0.8953686 179 179 179
-0.0145320887693546 -0.0415254105492746 -0.00104618105071302 -0.6399267 -0.5693759 0.5160474 61 61 61
-0.0271835498584191 -0.00421357009632239 -0.0241943535756587 -0.08862288 0.2945436 -0.9515198 145 145 145
0.0317866170042721 -0.0135908591949991 -0.0306310015273099 0.1947127 0.3142888 -0.9291445 78 78 78
-0.0311242089364071 -0.0397582569017429 -0.0383809012064723 -0.6281226 0.00217408 -0.7781114 97 97 97
-0.00850975261756381 0.025723988596817 -0.0146211446833558 -0.1423263 0.317879 -0.9373879 121 121 121
0.0315146240397041 -0.0225379201916762 -0.00532633162393753 0.6768268 -0.7361024 0.007668255 94 94 94
0.0379228072548093 -0.0144393627962267 0.03394344932899 0.6758621 -0.719016 0.1619456 105 105 105
-0.0186132027228406 0.034647805618985 -0.0106034213199813 -0.07322139 0.405177 -0.9113014 60 60 60
-0.0101452665217373 0.012039297736929 -0.0194026862778972 0.09202681 0.4023056 -0.9108684 238 238 238
-0.0287329832184856 -0.039183167498009 -0.0410579745467367 -0.3939426 0.1389444 -0.9085723 49 49 49
0.0338188156941878 -0.0209763332815505 -0.0223542983238464 0.6820602 -0.7187116 0.135083 131 131 131
-0.039530971903922 0.000635808798687076 -0.0231506246886771 0.1036319 0.4470971 -0.8884619 79 79 79
0.00150169432969272 0.0421358736173456 -0.00875717881869154 0.02074866 0.3587497 -0.9332032 37 37 37
-0.0430296187420843 0.0229194900698515 -0.0137356538572501 -0.3076105 0.5260084 -0.7929003 139 139 139
-0.000383853156145864 -0.0519083128263134 0.00153026797100614 -0.06987207 -0.8906267 0.4493351 128 128 128
-0.00304130637123745 0.0260619861663172 -0.0158315301980225 -0.08370055 0.3539624 -0.9315068 126 126 126
0.0502567712685941 0.0143651879778759 -0.00813508723898804 0.9050112 0.1683454 -0.390659 142 142 142
0.047167330676756 -0.0100417601469145 0.0157341088555702 0.668231 -0.7438164 0.01430295 77 77 77
0.022505071388894 -0.0191365261223029 -0.034629759440053 0.0842201 0.3605682 -0.9289228 121 121 121
-0.00632609335953804 -0.0394951293309898 0.00640444534713858 -0.5859944 -0.5279996 0.6146763 85 85 85
-0.0243035919134426 0.0491026128594172 -0.00283899935307752 -0.1692987 0.4482459 -0.8777321 32 32 32
0.0513809115755993 0.0410889313396756 0.00989443011917696 0.9666357 0.2260838 0.1204223 86 86 86
-0.0288199423519523 0.0155424341250956 0.0273427096647064 -0.8757279 -0.1967503 0.4408968 98 98 98
-0.0115600282217408 -0.0139395446914778 -0.0314479448848395 0.09651226 0.4211143 -0.9018582 241 241 241
-0.0249341381023239 0.0372616673534163 -0.00869936190498272 -0.2015476 0.4394355 -0.8753713 51 51 51
-0.00302180274558894 0.0133273393340423 -0.0204900986202061 -0.1005812 0.3285862 -0.9391031 198 198 198
-0.0278175414184246 -0.00672173051203107 0.00553745402771011 -0.7080147 -0.4320657 0.5586004 65 65 65
-0.0312306291998902 -0.00161162253978064 -0.0236510604820591 -0.04556647 0.4446898 -0.8945249 55 55 55
-0.028244330953841 -0.0141755821598795 -0.00224176110128832 -0.6748031 -0.4739534 0.5656933 99 99 99
-0.0482899076380913 0.0512674697568027 0.00736109109814254 -0.8405636 0.3252158 -0.4332292 123 123 123
0.0396730037957932 -0.0137734350089012 -0.0137711703015996 0.7271785 -0.685207 0.04126523 113 113 113
-0.0315136280070311 0.00886975721149108 0.0177157091872746 -0.8633252 -0.2906734 0.412527 103 103 103
-0.0407165081831605 0.0400093394899574 -0.00492135867812732 -0.05280036 0.4571073 -0.8878429 91 91 91
0.0400925014498948 0.00481058893154573 -0.023850045497007 0.1426021 0.4167699 -0.8977569 115 115 115
0.0452282943309245 -0.0112465323672617 0.0133799458768414 0.6384256 -0.7645442 -0.08879703 88 88 88
-0.0138149390918277 -0.0365514850641704 5.74186924945375E-05 -0.6771939 -0.4618985 0.5727635 66 66 66
0.01274236654556 0.0339139500716135 -0.0135820095622442 0.1300642 0.4096681 -0.9029149 155 155 155
0.0272778535025867 0.0530534109511123 0.000333349276471606 0.4681705 0.6573666 -0.5904959 56 56 56
0.0185536145780164 -0.0220711696524192 0.0356358576181487 -0.2207873 -0.9121242 0.3453729 119 119 119
-0.0288198660912634 0.0108474562856582 0.0252639512336815 -0.8332814 -0.3212301 0.4499481 105 105 105
-0.0339511764666448 0.00295715405150454 0.0044223361527756 -0.7084338 -0.5645936 0.4235039 87 87 87
0.00814676278107951 -0.0215195740471799 -0.0350419787249381 -0.06482984 0.4251785 -0.9027848 16 16 16
-0.0145471051928058 -0.0117413217106443 0.0185830321271112 -0.7360213 -0.4997664 0.4566248 107 107 107
-0.0154376354613323 0.0204491983424746 -0.0168771682286957 0.1369074 0.4089001 -0.9022511 177 177 177
-0.00736411832602923 0.0651257284992099 0.00260023783057306 -0.02438131 0.5780753 -0.8156191 110 110 110
0.025606698385673 -0.0274507054322288 0.021007826249992 0.4428079 -0.8806416 0.1684981 116 116 116
-0.00056608554551707 -0.0230985831597972 -0.0345372973545772 -0.00506829 0.3812304 -0.9244661 59 59 59
0.0117203134119067 -0.0366945033134107 -0.0421916927336491 -0.01732663 0.3680408 -0.9296482 62 62 62
0.000819537995923381 -0.0195641290626827 0.0256220781837183 -0.4054678 -0.7272779 0.5537713 115 115 115
-0.00814389554821882 0.0467347512910781 -0.00760788400753248 0.04211951 0.4508891 -0.8915856 133 133 133
-0.00720155660375899 -0.045454022345748 -0.0449357521457062 0.001743115 0.3822995 -0.9240368 75 75 75
0.0103972617091094 -0.0155970969916237 -0.032960955630024 -0.1434514 0.3273429 -0.933953 57 57 57
0.0509177462064648 -0.00175059223544327 -0.0061997725771441 0.7743433 -0.5424833 -0.3257366 130 130 130
-0.000884634552928198 -0.0138115443716844 0.0344169450875075 -0.4701232 -0.7851663 0.4031106 77 77 77
-0.0217867062418667 0.052440162041745 -0.00181730739860242 -0.1866849 0.4345874 -0.8810689 82 82 82
-0.0302699940343188 0.0420595679492672 -0.00528816238226282 -0.2561964 0.3995377 -0.8801892 159 159 159
-0.0321483789960731 0.0205445175025216 0.0232219167097069 -0.9018562 -0.2105411 0.3772637 102 102 102
-0.0158712390633712 -0.0153480490106965 -0.0324385972465733 0.1075624 0.3804259 -0.9185349 102 102 102
0.0216833086546734 0.0311196949660619 -0.0135206939190691 0.01490223 0.3202522 -0.9472151 53 53 53
-0.0195315798536121 -0.0379718272608713 -0.00807822510046929 -0.6944644 -0.531774 0.4847015 119 119 119
-0.0228117419465507 -0.0167516943319932 0.00324818786734254 -0.6746566 -0.4571598 0.57952 73 73 73
-0.0269756166075249 0.0636088001790021 0.00448530020799498 -0.3482599 0.5138314 -0.7840232 37 37 37
0.0238164879958987 0.0343050742489179 -0.0116880857066462 0.02017444 0.3873639 -0.9217061 81 81 81
-0.0379118198791998 0.0441891835950585 -0.00255379382674997 -0.1079563 0.4579999 -0.8823727 51 51 51
-0.0402960153773141 0.0149212183597525 0.00266666743120331 -0.8922 -0.2719798 0.3605636 124 124 124
-0.019806160502834 -0.00835205721067434 -0.0271501872675601 -0.2330506 0.5318684 -0.8141274 106 106 106
0.046793855977271 0.0433614798098476 -0.00477210725100496 -0.03915904 0.4818867 -0.875358 97 97 97
0.00949009911271415 -0.0160604906812398 -0.032635790482784 -0.1578037 0.319224 -0.9344485 46 46 46
0.0154689576521302 0.0168240710383181 -0.019307173737697 0.09580849 0.3929619 -0.91455 94 94 94
-0.0146844970600469 0.0521945168594273 -0.00400420807266322 -0.06156826 0.5177706 -0.8533012 112 112 112
0.0132281983703729 -0.0403378741280955 -0.0275290763336948 0.6534125 -0.7305257 0.1984544 91 91 91
0.00452297935655432 -0.0270831338628936 -0.0361512141796664 -0.04962518 0.3875057 -0.9205306 113 113 113
0.0135214698493654 -0.0042916126204593 -0.0273197564443014 0.001447782 0.3546622 -0.9349934 78 78 78
-0.0372248556416442 0.0295981725664807 -0.0102070823495031 -0.1036849 0.377126 -0.9203398 47 47 47
0.0325730299888939 -0.0213520716840454 0.0151787908256541 0.6937658 -0.7173764 0.06371985 105 105 105
0.0408668640291069 -0.0145244434105949 0.0179534972133667 0.5546324 -0.831333 0.03561405 76 76 76
0.0466875093005678 0.00704675740653382 -0.0186596693213962 0.782993 0.2966668 -0.5467274 147 147 147
0.0120651759025486 -0.0305941505581453 -0.038935644869756 -0.0819676 0.4174163 -0.905011 66 66 66
0.036204634625521 0.0195959944960216 -0.0172934471495083 0.000581788 0.4218059 -0.9066859 153 153 153
0.0317989613029598 -0.0193834308543825 -0.0317616611235155 0.4261234 0.04296323 -0.9036443 67 67 67
0.0278511536191827 -0.0254826832886719 0.0177369394678974 0.6450511 -0.7533994 0.1276653 79 79 79
-0.0351327342304569 0.0133194933945771 -0.0177980609602277 -0.09121215 0.3800844 -0.9204435 138 138 138
0.00954001682230488 0.0143458543331993 -0.0210034224284021 -0.06113532 0.3250238 -0.9437277 94 94 94
0.043009134639035 -0.0097216033905434 -0.00923247875655758 0.7992205 -0.5928637 -0.09878833 82 82 82
-0.0318924010333906 0.0261117312525092 0.0261170269307446 -0.9162832 -0.1863958 0.3545161 69 69 69
-0.00790008954220156 -0.00286049886838691 -0.0267885372061158 0.06766589 0.3817318 -0.9217929 196 196 196
-0.0109456223556453 -0.0390860037754779 -0.0424229818037209 0.04836038 0.3546351 -0.9337533 136 136 136
0.0303170423583111 0.0137629739178502 -0.0188207337544189 0.02784634 0.3971364 -0.9173371 30 30 30
0.0478423129647277 -0.00426157060597321 -0.0117424299214799 0.8177022 -0.5756087 -0.006147212 112 112 112
-0.0291404471367415 -0.0334212618041558 -0.0166970525973958 -0.7093677 -0.3369944 0.6190575 104 104 104
-0.0234020242238825 0.0610992519765292 0.00256258897133416 -0.2473357 0.4336595 -0.8664667 71 71 71
0.0443690305213608 -0.0107835485058194 -0.0042542942327749 0.7494784 -0.6428603 -0.1581541 143 143 143
0.039927534484567 0.0454574786866035 -0.00285909310837185 -0.1330163 0.5244341 -0.8409967 69 69 69
-0.0377547671315289 0.0306933343386921 0.0163636884959266 -0.8895719 -0.2172412 0.4018309 73 73 73
-0.0183361174328543 -0.0455092770809471 -0.0454122227846892 -0.109586 0.2723465 -0.9559385 155 155 155
0.00550288856375059 -0.00172850630944499 -0.026315629386005 -0.2348148 0.3885889 -0.8909886 94 94 94
0.0524322143681671 0.0287251677351836 0.00411265658163451 0.9799411 0.06385228 -0.1887811 139 139 139
-0.0417906595598975 0.0281099281699861 0.00767373738430555 -0.8800561 -0.2373825 0.4112794 78 78 78
0.0215338028378861 -0.034518082357583 -0.0272892657394128 0.6880261 -0.706794 0.1645062 110 110 110
0.0335986164932581 0.00174589575576101 -0.0250416209428276 -0.01573576 0.344704 -0.9385795 55 55 55
-0.0401729558348888 0.0259017446790222 0.00928101507867646 -0.8614504 -0.247861 0.4432473 92 92 92
0.0121494152437086 -0.0408528835376993 0.00340508759450037 0.76777 -0.6373919 0.06527445 100 100 100
0.000198805110744549 0.033874359949851 -0.0115535125401559 -0.00386445 0.4890167 -0.8722658 7 7 7
0.0238386692841245 0.0258993926998665 -0.0151423755566038 0.01214756 0.3352197 -0.9420617 125 125 125
-0.0425416414180421 0.0205856328539671 -0.0142062677398296 -0.277155 0.4345738 -0.856931 101 101 101
-0.0327501121899078 -0.0314647345780803 -0.0208836407649501 -0.695445 -0.3447022 0.630505 129 129 129
-0.0273513893158149 -0.0102089107186007 0.00288667821734045 -0.7027124 -0.447359 0.5532316 35 35 35
-0.0105887428573709 0.0328970332585008 -0.0121309540290936 -0.02916856 0.3597835 -0.9325798 81 81 81
0.0161249649463365 0.0496637228958481 -0.00497916867984327 0.1017501 0.3115716 -0.9447592 50 50 50
-0.0305525841807753 0.0378468458699619 -0.00723395579847597 -0.2423919 0.4265258 -0.8713908 179 179 179
-0.012352817889853 -0.0349400402139228 0.00462155406946507 -0.7328751 -0.4240298 0.5320647 97 97 97
-0.0422180555303856 0.0439110585422362 -0.00283055802682242 -0.1019004 0.4936888 -0.8636479 99 99 99
0.0310472425854821 -0.0210424560148497 0.0283964383544978 0.6572453 -0.7536172 -0.009470506 103 103 103
-0.00704833417059125 -0.0242135493641764 0.0155637035254927 -0.7063541 -0.4234564 0.5672288 50 50 50
-0.0364484500847898 -0.0338556850812006 -0.0341860118097716 -0.8209679 -0.2147548 -0.5290482 95 95 95
-0.0109268808436008 -0.010702518304947 0.0235088583767661 -0.7247607 -0.4981078 0.4760363 83 83 83
0.0376638733050306 0.0539019233334852 0.00501595636132779 0.07634424 0.9329825 -0.3517317 114 114 114
-0.0195335351641762 0.0432338784370483 -0.00769029829231449 -0.1493697 0.3603804 -0.9207685 91 91 91
0.0229798308967638 -0.00700795996314163 -0.0293469407111123 0.04327707 0.3514393 -0.9352099 116 116 116
0.0317667961764144 -0.0118970939392942 -0.0291875784007377 0.172281 0.2974317 -0.9390706 54 54 54
-0.0264500387579468 -0.00210055882795523 0.00931085640370644 -0.6914004 -0.4910416 0.5299467 57 57 57
0.0109808407763484 -0.0236398547973684 -0.0345428627642505 -0.1541175 0.3962835 -0.9051006 82 82 82
0.0166614809369173 -0.0260985291638161 -0.0365297972835579 0.01985144 0.3988223 -0.9168133 58 58 58
0.0447823038038474 -0.0102763726060333 -0.02208276738509 0.8429748 -0.4568841 -0.2839901 112 112 112
0.010577417038398 -0.0470500186408964 -0.0387209921413092 0.5820306 -0.7828724 -0.2198891 87 87 87
-0.0052126990492628 -0.0214703757726089 0.0192461462758334 -0.679738 -0.4650779 0.5671497 80 80 80
-0.00142523967402586 -0.00237085476351484 -0.0259699167951442 -0.04983599 0.3665612 -0.9290583 235 235 235
-0.0136279070101769 -0.0113394808872311 -0.0298854382662557 0.06836735 0.4305536 -0.899972 204 204 204
-0.0326886640249363 0.0478586898404996 -0.00199011587583459 -0.1894408 0.435055 -0.8802496 39 39 39
