ply
format ascii 1.0
comment File exported by Rhinoceros Version 7.0
element vertex 474
property float x
property float y
property float z
property float nx
property float ny
property float nz
property uchar red
property uchar green
property uchar blue
end_header
-0.0630413637576015 -0.0497530352501474 -0.004415710941785 -0.01601074 -0.5452564 0.8381164 124 124 124
-0.102803513710228 -0.0596246099774445 -0.0220449573859231 -0.4082248 -0.861072 0.3031626 39 39 39
0.101222157471876 0.00444594360362327 0.0317582120663361 0.00458427 -0.5471319 0.8370339 146 146 146
-0.0310571856477662 -0.11179603855803 -0.0461077177524042 0.2063785 -0.7939384 0.5719001 126 126 126
0.093232908623158 -0.0107842951581123 0.0227249207176125 0.4801786 -0.7832953 0.3948125 94 94 94
0.137858375822059 0.0317429193267471 0.045034557624488 0.7197862 0.2924839 0.6295721 94 94 94
-0.0189795414993772 0.0412691838524273 0.0564484603938759 -0.00192348 -0.5582148 0.8296942 173 173 173
-0.0389527069026618 0.0910899983305156 0.0595827931637528 -0.8273429 0.5108961 -0.2334288 38 38 38
-0.0897142957756882 -0.0146884335116055 -0.0179081494364726 -0.8678437 0.4878662 -0.09398858 33 33 33
-0.0290921223147733 -0.0168331933634247 0.017470794355746 -0.01190097 -0.581324 0.8135851 173 173 173
0.0330740625325503 0.00897087870113045 0.0349030231261936 -0.05240669 -0.610778 0.7900657 133 133 133
0.106322241469199 0.0625882757246432 0.0298678722415123 0.4433088 0.7472405 0.4950848 88 88 88
0.0867348051956096 -0.0124850382895534 0.0206070505474452 0.1157883 -0.6439841 0.7562259 106 106 106
-0.0119212311596253 -0.0877032445532289 -0.0608928747926853 0.6933609 -0.6583562 -0.2929468 90 90 90
0.0612674784805449 -0.0384578603244932 -0.00106421628089642 0.6857621 -0.7253863 -0.05954016 58 58 58
0.00272748361825537 0.0889171927016221 0.0645611940298936 0.5051873 0.6014156 0.6189386 62 62 62
-0.0115682167094611 -0.0810907606193734 -0.0239258940906535 0.005182613 -0.5296034 0.8482296 190 190 190
-0.0963747378294575 -0.0675041983761409 -0.0302784516679264 -0.4649321 -0.8369051 0.2888389 42 42 42
-0.0347448179254926 -0.115255701920897 -0.0518676708935021 0.006083562 -0.9984179 -0.05589901 68 68 68
-0.0318192419908447 0.0995942518267101 0.072005743352697 0.2330989 0.8119826 0.535116 39 39 39
-0.0810642128324344 -0.0970378449952105 -0.0465361304011278 -0.5547876 -0.7334273 0.3928041 39 39 39
0.0454276806192322 -0.00872791189213129 0.0230700367423287 0.01632926 -0.5776704 0.8161068 210 210 210
-0.0366767531541514 -0.0988698146056219 -0.0365526179707634 -0.004045554 -0.5632092 0.8263044 153 153 153
-0.0268672136388686 0.0381774338581338 0.0542731911439525 -0.00264081 -0.533873 0.8455606 186 186 186
-0.0490927691969856 -0.0192187592221715 0.0161311304993376 -0.02171475 -0.5639057 0.8255537 138 138 138
0.105173824266665 0.00811722291106132 -0.00425118668107072 0.6618921 -0.67702 -0.3217809 74 74 74
0.113100627571476 0.010512679504894 0.0359129578721357 0.1259187 -0.6624209 0.7384734 104 104 104
0.0249327865721334 0.0218271128286729 0.0443615944949563 0.01276984 -0.5750151 0.8180431 225 225 225
-0.0766950387007608 0.0280743781746295 0.0241122716617051 -0.8770973 0.4468826 -0.1760575 49 49 49
0.038384937320731 -0.0547663295986789 -0.00629858944712913 0.1412564 -0.6067965 0.782205 157 157 157
0.0370678998688372 0.0135123151132199 0.0385256467424168 0.00845053 -0.5692431 0.8221259 231 231 231
0.0669029936398329 0.062416820583471 0.0506692109026051 0.4752433 0.591436 0.6514195 53 53 53
-0.0747152501893931 -0.0929635387956738 -0.0598349990427461 -0.4252113 -0.737801 -0.5242568 95 95 95
-0.0464312853954381 0.0252931112716028 0.0458447432342868 0.003966523 -0.5512783 0.834312 140 140 140
-0.0594451422374651 -0.067317930566543 -0.0161275277868461 -0.003859343 -0.5520759 0.8337849 149 149 149
0.128824909973034 0.0489446194292495 0.0332448704127517 0.3255665 0.7662758 0.5539205 62 62 62
-0.0502162581488772 0.0724089674385826 0.0530144426360061 -0.7299492 0.6825773 -0.03553125 47 47 47
-0.0215920624557917 0.0898161914610154 0.0788516157393058 0.334013 0.8119226 0.4787661 81 81 81
-0.0423006214008255 0.0111569277596006 0.0359807964310412 0.006141643 -0.5612007 0.8276569 157 157 157
0.0165361057434659 0.0786832604030103 0.0697838824451779 0.3398745 0.8104733 0.4770936 88 88 88
0.0105432943265713 0.0931391528133807 0.0517594874222628 0.4974038 0.7717605 0.396201 91 91 91
-0.0678040220851712 0.0375528903053108 0.00726795909972605 -0.872256 0.4828989 -0.07731832 18 18 18
0.0350220329935729 0.0399640689396399 0.0555156814516908 0.002026087 -0.5656577 0.8246377 198 198 198
-0.0331934737804649 0.00439079361843309 0.0315783653813455 0.008010859 -0.5515932 0.8340748 118 118 118
0.0655528804537302 0.0665758474050768 0.0488485390810405 0.4273804 0.4046411 0.8084625 20 20 20
0.0640886766472044 0.0321537760252903 0.0503912818193866 -0.0006126498 -0.5509369 0.8345466 171 171 171
0.0435426176733427 -0.04582087808386 -0.028463626867561 0.4957711 -0.7089268 -0.5016311 81 81 81
0.0187919955240474 -0.00741263764977784 0.0238508544750698 0.00590561 -0.5717263 0.8204232 226 226 226
-0.0350999511445025 -0.113224567457935 -0.0472755206547782 -0.02139311 -0.8148778 0.5792379 207 207 207
-0.0406483461657059 -0.0972263244820759 -0.0802666939997121 -0.3573176 -0.7536641 -0.5516472 43 43 43
0.0116903000411912 -0.0779495026697936 -0.0261600521370768 0.7108333 -0.6959871 0.1015777 62 62 62
0.0356709143763649 -0.053473660374515 -0.00718858504162828 -0.01037141 -0.5473166 0.8368614 155 155 155
-0.104073969916636 -0.0534810368353178 -0.0267254051657649 -0.3614752 -0.9262376 0.1068623 48 48 48
0.14388408179644 0.0349395444586529 0.0296677569956373 0.9592351 -0.2823531 0.01203125 47 47 47
-0.0731115656225798 -0.0341898922089037 0.00568120256146304 -0.002033058 -0.5329499 0.8461444 102 102 102
0.0053737091065833 0.0887926404393331 0.0625052315197947 0.4334596 0.6946606 0.5740727 85 85 85
0.0650705969189795 -0.0324405463418183 -0.00103842707484986 0.778761 -0.578513 -0.2425985 38 38 38
0.0732617564424585 -0.0232737057536891 0.00895547598531876 0.434258 -0.8828877 0.178688 65 65 65
-0.00815607559648734 0.0618600814373835 0.0703441912242027 0.05684734 -0.5903357 0.8051535 155 155 155
-0.107179306405293 -0.059261699486258 -0.0306050032932201 -0.4516599 -0.8914149 0.03718712 48 48 48
-0.0505106235510904 -0.101185244980833 -0.0688655921834009 -0.3889695 -0.7795898 -0.490859 76 76 76
0.102006486200639 0.0464064195922469 0.0536898785392985 0.1016372 0.6775287 0.72844 88 88 88
0.0130371539508123 0.0642010587543098 0.0717877976272253 -0.006776117 -0.5527513 0.8333187 112 112 112
-0.0873449897478586 -0.0851835182957765 -0.061241073924295 -0.4314559 -0.7320138 -0.5272586 140 140 140
-0.0184114418635004 -0.0657720153452879 -0.0143133020638808 0.01525073 -0.5554298 0.8314236 163 163 163
0.0270723601131238 0.0813087245790349 0.0538406265510968 0.4311984 0.88093 0.1950135 99 99 99
-0.0584960133521983 -0.0487698280192028 -0.00279075370899545 -0.01736298 -0.5561013 0.8309331 127 127 127
0.024628824814092 0.0373984666287517 0.053867104040051 1.054509E-05 -0.5590044 0.8291646 143 143 143
-0.0631570382706386 -0.0165723555083297 0.0177044254681425 -0.01700033 -0.5442691 0.8387384 130 130 130
-0.112937415782759 -0.0716316558980952 -0.0604863340794379 -0.6805546 -0.7326962 0.001339099 131 131 131
0.00252036880912465 -0.0674385672418882 -0.0150187012422713 0.0117163 -0.5076427 0.861488 163 163 163
-0.0692586108402375 -0.0743523610814538 -0.0209649600503461 -0.02019449 -0.5527787 0.8330834 188 188 188
-0.0337359354441267 -0.102868821229413 -0.0776432841170591 -0.04463682 -0.821395 -0.5686104 80 80 80
-0.0192935398342042 0.017711195474905 0.0409359736493347 0.01318759 -0.5494114 0.8354478 131 131 131
0.030339863824012 -0.0324539084156901 0.00712794646138992 -0.05527333 -0.5787513 0.8136288 169 169 169
-0.041177682230459 -0.0737154384047956 -0.0204612417932054 -0.02177341 -0.5591695 0.8287674 123 123 123
-0.112806053375432 -0.0497315406772796 -0.00781449328002426 -0.3906259 -0.7560943 0.5251027 43 43 43
-0.0322191009429766 0.0198544950387158 0.0421070456640757 -0.0009494413 -0.5613616 0.8275701 155 155 155
0.129547109034329 0.0266222229072188 0.0467226778545693 0.0251787 -0.5607066 0.8276317 139 139 139
-0.066238745800991 0.0408378325981982 0.0560544796924975 -0.003062824 -0.548552 0.8361108 148 148 148
0.0746165020747775 -0.0150504908117735 -0.0190911119269267 0.6440294 -0.5412155 -0.5406587 62 62 62
-0.0228092404987876 -0.0729551272415134 -0.0189720371318419 0.01190337 -0.6047409 0.7963333 197 197 197
-0.0510500565906149 -0.0714187862062339 -0.0192674462296027 -0.02704353 -0.5382681 0.8423396 126 126 126
0.00397772757800885 -0.0565598565153318 -0.00671337298720964 -0.03444945 -0.5684363 0.8220057 116 116 116
0.0125635647270204 -0.0353429396397587 0.00522414721402042 -0.01632936 -0.5640396 0.8255862 150 150 150
-0.085220809303014 0.00139544533309 -0.00274235118278349 -0.7661421 0.6188156 -0.1734749 24 24 24
0.0704961250562577 -0.0243904936137262 0.0117782660742419 0.3194185 -0.7460302 0.5843036 38 38 38
-0.0184897789546299 -0.105327850425575 -0.0462178425395651 0.7085663 -0.6951304 -0.1213569 37 37 37
0.11316820473159 0.0518405931842503 0.0427879345355695 0.4836003 0.7492589 0.4524841 99 99 99
-0.042656359042387 -0.0243368471493544 0.0132139985032134 -0.03789036 -0.5520548 0.8329465 202 202 202
-0.0571276159592444 -0.0449796122550588 -0.00153923503226672 -0.02451337 -0.5371278 0.8431446 106 106 106
0.0304994820122291 0.0298988981888366 0.0489291307380658 -0.004018093 -0.5647812 0.8252309 226 226 226
-0.00955362303717555 -0.0486644481617977 -0.00376586787968058 0.03776661 -0.6088958 0.7923506 216 216 216
-0.0227748307955897 0.0935154887841507 0.0762948717885257 0.3988829 0.6967118 0.5962257 75 75 75
-0.0475583848298471 -0.0878843125934117 -0.0299826641014466 -0.03309917 -0.5369201 0.8429835 169 169 169
0.0234696975770321 0.0200126928339284 0.0419369532544686 -0.06521415 -0.5012841 0.8628218 175 175 175
0.026905284615439 -0.00847746152144535 0.0243629669186414 0.01304637 -0.535552 0.8444015 101 101 101
0.0104399956035652 -0.06699266831995 -0.0467879570600703 0.7574585 -0.4770455 -0.4457401 64 64 64
-0.0246123347392615 -0.00494712689731291 0.0257333354069925 -0.01866034 -0.5641978 0.8254287 122 122 122
-0.0142484959568447 -0.0933768008739073 -0.032509171813094 0.01883353 -0.5099248 0.8600128 158 158 158
0.0885492106159016 0.0210939011292473 0.0431535623774374 0.002050474 -0.5582932 0.8296412 218 218 218
-0.0234065661995775 -0.106949000481926 -0.0544920298951139 0.6719663 -0.6440874 -0.3655307 71 71 71
-0.0781068150016009 0.0145030053608968 0.0017248685884238 -0.8183557 0.529148 -0.2242684 35 35 35
-0.0105065645824891 -0.00314801009445431 0.0265576936133132 -0.03396707 -0.5589869 0.8284805 114 114 114
-0.00236692098722457 -0.0782162628786878 -0.0561599063707587 0.8143631 -0.4801076 -0.3260512 57 57 57
-0.0575038148602292 0.052912225193277 0.0309015400807952 -0.8454805 0.4783022 -0.2374653 16 16 16
0.111278539431805 0.0111529270349839 0.0364147166966595 0.01007214 -0.5722579 0.8200118 114 114 114
-0.0896896753561798 -0.0632545458937801 -0.0153542776326629 -0.4704663 -0.7294964 0.4964842 86 86 86
0.0689983025526395 0.060837059559038 0.0499990462451519 0.4669966 0.5597615 0.68453 64 64 64
0.0649247232226653 0.0631109480621663 0.0526748938068513 0.5720859 0.624701 0.5314757 68 68 68
-0.042519973018504 0.0595591059045575 0.0688384522412968 0.000482701 -0.5552772 0.8316652 130 130 130
-0.0887198462697985 -0.0809700947152603 -0.0400628824506838 -0.4938267 -0.5767549 0.6507603 74 74 74
0.0732418750992316 -0.0207717809228889 -0.0132906821187308 0.6781368 -0.7078266 -0.1977676 52 52 52
-0.0361227208832018 -0.00736654009051674 0.0238129376687459 0.005588544 -0.5628716 0.8265254 139 139 139
-0.0610428895424322 -0.106423634447425 -0.0515859257831154 -0.4701983 -0.764079 -0.4416977 96 96 96
0.0152397161847806 -0.0683001200460107 -0.0164927916961589 -0.01647968 -0.5446284 0.8385155 133 133 133
0.0575875999832585 -0.0351709769913839 -0.0158859041236698 0.7949575 -0.5821778 -0.170621 121 121 121
-0.0452934223434358 0.023488358035282 0.0449409566248872 -0.003278787 -0.5461459 0.8376836 137 137 137
-0.0933710362927216 -0.0565699986494534 -0.00964178799226029 -0.06750526 -0.7776861 0.6250179 75 75 75
-0.0611029332102246 -0.0755163784353363 -0.0218879242866725 -0.001956409 -0.5396842 0.8418652 150 150 150
0.0974007203601341 0.0100495335784936 0.0357225849722457 0.01471093 -0.562646 0.8265671 190 190 190
-0.0508594142837353 -0.0997243621919859 -0.0683869841256501 -0.3799378 -0.7793872 -0.4981995 99 99 99
0.0826807940363783 -0.0154930499429042 0.0208609712737575 0.05713363 -0.5720482 0.8182276 170 170 170
-0.0167654346816777 0.0900583075766883 0.0769938389731176 0.1754656 0.8128457 0.5554221 119 119 119
0.135441814635951 0.0328829974924838 0.0104891852118562 0.6927107 -0.6491231 -0.3143105 42 42 42
0.00101687124060712 0.073757475763214 0.0782316733705614 0.01231064 -0.5442505 0.8388324 187 187 187
-0.0347809442456177 -0.113880365659521 -0.052433654000293 0.1123549 -0.9902111 -0.08281444 57 57 57
-0.00140572340592771 -0.0601808736863094 -0.0100077350152569 0.02118932 -0.5816543 0.8131601 174 174 174
0.0637801486736924 0.0651502395240202 0.050706216546299 0.4846874 0.5441895 0.684789 64 64 64
0.109708495291547 0.0128910232379891 0.0376615600937754 0.009571025 -0.5745113 0.8184407 173 173 173
0.0893251575004648 0.045150658150988 0.0581685120650428 0.2859984 0.1735153 0.9423892 78 78 78
-0.0593058652471163 -0.0230059482217273 0.0133497435896278 0.02257389 -0.564888 0.8248587 117 117 117
-0.0320091360740404 -0.0384252094454411 0.00328974900348872 -0.01039534 -0.5927991 0.8052833 119 119 119
0.139051631216421 0.0355537986932339 0.0407524905353714 0.6349239 0.5615731 0.5305725 100 100 100
-0.0994479977459863 -0.0298556740270253 0.00840387220635685 -0.01059297 -0.5465382 0.8373672 106 106 106
0.0785304296993816 -0.0101247052185065 -0.020677200768543 0.609163 -0.6234535 -0.4901288 34 34 34
0.122494325748319 0.021755084194043 0.00461094553815605 0.7461235 -0.57693 -0.3323424 55 55 55
0.0309456756248001 0.021206868437456 0.0430529259838802 0.0144549 -0.5601887 0.828239 178 178 178
0.119015587001861 0.0138364615637587 0.0168656829273609 0.6117862 -0.7387051 -0.2829 80 80 80
-0.0140631026532576 -0.0827215967998869 -0.0702815841129307 0.6515332 -0.5265542 -0.5461183 55 55 55
-0.0790837050695821 -0.0769214867801224 -0.0232755975160092 -0.5069817 -0.7314668 0.4559889 83 83 83
-0.0992155213775887 -0.0613992147011853 -0.0223466721607481 -0.4526303 -0.8254296 0.3373304 32 32 32
0.0628890167557907 0.0710961756884101 0.046527361305104 0.03073066 0.7250971 0.6879606 68 68 68
-0.0814803129489809 0.0101902320998766 0.0209885671340663 -0.8070849 0.578913 0.1160758 66 66 66
0.0412883971437559 0.0609187580481105 0.0696017685410726 0.1203644 -0.4379269 0.8909166 143 143 143
0.0741770316156929 -0.0201984954858156 -0.0127263252474263 0.6903714 -0.7022433 -0.1739011 35 35 35
0.0371124927801336 -0.0535715738354527 -0.00447964477861629 -0.02565744 -0.551366 0.8338689 150 150 150
-0.060103837286495 0.057114749273298 0.0408411960535762 -0.8523933 0.432718 -0.2935658 30 30 30
0.0828047600416948 0.0511565282997006 0.0542372535594301 0.3419547 0.8694307 0.3565911 49 49 49
0.0149741859436747 0.0710946624796585 0.0764840043432986 0.07786036 -0.3163821 0.9454312 167 167 167
-0.0566859441724494 0.0252111092919982 0.0455033591601919 -0.006249031 -0.5552602 0.8316532 131 131 131
0.0617063472368091 0.0410288680297963 0.0565441576046777 0.008202877 -0.556371 0.8308935 171 171 171
-0.00107637479732858 -0.0474041589305758 -0.00310823770831092 -0.0072776 -0.5631243 0.8263402 191 191 191
0.140553390764643 0.027368098034916 0.0368274826951716 0.8040537 -0.5944278 0.01237674 165 165 165
0.0258900280504069 -0.0219220448986901 0.0162838451361326 0.00328653 -0.5628607 0.8265452 139 139 139
0.0615274169640641 -0.0346603767601126 -0.00648671861308431 0.6882462 -0.6445656 -0.3329449 74 74 74
-0.0492231886323746 -0.104280350729298 -0.064270799754159 -0.4334452 -0.7241761 -0.5363714 106 106 106
-0.00269277904896947 0.0709809538195574 0.0764175227858995 0.0009186885 -0.5572308 0.8303571 154 154 154
-0.055792187652898 0.0504028951751925 0.062448442887194 0.005172171 -0.5499508 0.835181 156 156 156
0.00908599644316732 0.0775773355772262 0.0802200787554194 0.3891083 0.3347972 0.8581991 131 131 131
0.108806231743882 0.0545280322395787 0.0388175569519735 0.3937536 0.8636334 0.3147944 85 85 85
-0.0753485872932269 -0.0947537448514955 -0.05804612171602 -0.4129731 -0.7413672 -0.5289876 113 113 113
0.112759649607518 0.00827665749454121 0.015327417109695 0.700453 -0.7042749 -0.1155964 53 53 53
0.0424258362567804 0.0379331902895095 0.0544853930037487 -0.01011996 -0.5582573 0.8296061 120 120 120
0.0810020833950778 0.0233937850257271 0.0447523558659079 -0.006574832 -0.5515333 0.8341269 160 160 160
-0.0941544225840785 -0.0230427665655109 -0.0281959944984307 -0.8601041 0.5054827 -0.06861627 13 13 13
0.0692169633583193 -0.00883104397521817 0.0232912342909352 -0.05234714 -0.5653427 0.8231934 188 188 188
-0.00312861208669091 0.0828689047427629 0.0806501402764933 0.3631099 0.6702291 0.6472589 79 79 79
0.129602271682203 0.0535920951758089 0.0249908805446589 0.3061165 0.6973417 0.6480797 41 41 41
-0.109622908195361 -0.0609161160696221 -0.0435785034895899 -0.6075652 -0.7087743 0.358474 54 54 54
0.00307733060964255 -0.0568142052104748 -0.00863919217337294 -0.05038681 -0.5357803 0.8428527 170 170 170
-0.104602221095436 -0.0672286841601502 -0.0480959720111779 -0.5387126 -0.5470709 0.6407045 129 129 129
-0.00658740038952033 -0.00440087057917249 0.0263510233385161 -0.04201545 -0.5384807 0.8415897 149 149 149
-0.0283992874313506 -0.0725014820636058 -0.0189242031624969 -0.0469423 -0.5764608 0.8157753 180 180 180
0.120941571489061 0.0577347889855833 0.0248043160670652 0.43733 0.5689678 0.6964325 44 44 44
-0.0263925850968909 -0.109609227104545 -0.0452190047245851 0.1165381 -0.7128599 0.691556 142 142 142
0.0990430078511935 0.0606323956211572 0.0350790265251437 0.1251785 0.8022438 0.5837253 95 95 95
0.0368966554475345 -0.0408704406323048 -0.043060288471531 0.5978045 -0.6843001 -0.4175681 35 35 35
0.015612913212788 0.0818918249732055 0.0650737318990721 0.4209082 0.7717016 0.4767735 102 102 102
0.0391301125377455 0.0457993326061799 0.0595978777525696 -0.001606324 -0.5563063 0.8309758 168 168 168
-0.0265945781583223 -0.0250435999983802 0.0119974539437281 0.03318318 -0.5830714 0.811743 186 186 186
-0.0625148668181756 0.0517085758532774 0.0520653391819109 -0.926773 0.375602 -0.003858904 34 34 34
-0.0755018848458748 0.0297637685817775 0.0487094433759516 -0.3375724 -0.3485144 0.8744041 123 123 123
0.0485924572813707 -0.0409902301651408 -0.0288485852710941 0.6936733 -0.6184295 -0.3692728 48 48 48
0.00321588428112074 0.00152393432338704 0.0297364536553016 0.00998518 -0.5512522 0.8342789 103 103 103
-0.0651816411279702 -0.0943858167217619 -0.0662283254717062 -0.3736014 -0.7660032 -0.5231262 84 84 84
0.0670705257266939 -0.032988191208335 0.0067304439046188 0.5789653 -0.6504691 0.4916188 145 145 145
-0.0767522738623745 -0.0772467845625531 -0.0406422318000049 -0.3236838 0.03721822 0.945433 63 63 63
-0.0213266243513575 0.0613529015411811 0.0702395913833674 -0.006591342 -0.5619624 0.8271365 142 142 142
0.109240990782066 0.0226584045417073 0.0443292714396304 -0.007755874 -0.5557776 0.8312948 179 179 179
-0.0913744118718891 -0.0150127769785755 -0.0267665675938532 -0.8302817 0.5572127 -0.01209265 26 26 26
-0.031945279966838 -0.0243280195639701 0.0140105001155764 0.008421696 -0.5312521 0.847172 143 143 143
0.0283553076860223 -0.0584980853370014 -0.00869334980004105 0.1078627 -0.53337 0.8389768 113 113 113
-0.0682888487309703 -0.0845957203129557 -0.0272209111651821 -0.04880378 -0.5874835 0.8077632 186 186 186
0.0294843831695579 -0.061139771272877 -0.0205678179137704 0.6479729 -0.720221 -0.2478163 61 61 61
0.0848684500250036 0.0310645390791546 0.04971331680253 -0.00531643 -0.5600211 0.8284613 171 171 171
-0.104842946811956 -0.0250539403322778 0.0117154634464534 0.01407311 -0.5640004 0.8256546 123 123 123
-0.053118353349809 0.0371368537772159 0.0534486898899597 -0.003012038 -0.5559677 0.8311984 99 99 99
-0.0849157375021123 -0.077092746331711 -0.0329915168494451 -0.3459383 -0.6673327 0.6595406 135 135 135
-0.100888417167418 -0.0347727451887647 0.00533597812469505 -0.01083513 -0.5469701 0.837082 162 162 162
0.0715582854149672 0.0637511112116182 0.0472181735010513 0.5090043 0.4005487 0.7618894 116 116 116
0.142354344645165 0.0332254225781958 0.0382561984320047 0.9100127 0.1253797 0.3951667 119 119 119
-0.0634178423925857 0.0155418185993732 0.0392384779304016 -0.005180705 -0.5514532 0.8341898 121 121 121
0.0909946609544252 -0.000868617265550098 -0.00868052043108991 0.7265815 -0.6273798 -0.2801322 63 63 63
-0.037007663481754 0.0585529210948683 0.0678293229358631 0.005676418 -0.5576319 0.8300689 143 143 143
0.0648981267874862 0.0634360695221823 0.0510628606323807 0.5734679 0.5557501 0.601894 83 83 83
-0.0116297545087702 -0.0869967976475721 -0.0287306278979423 0.1041209 -0.6010514 0.7923989 99 99 99
-0.0742349812586696 0.0217122422879381 0.0431923651033039 0.002449671 -0.5573323 0.830286 117 117 117
0.0288112452912559 -0.0136065286783267 0.0198305033858959 -0.03933684 -0.5004818 0.864853 121 121 121
-0.0524615716830246 -0.00215624750612919 0.0276326169602812 -0.0001080449 -0.5979334 0.8015458 106 106 106
0.0333220600955744 0.0410622658968669 0.0564398902709431 -0.007026919 -0.5652192 0.8249108 170 170 170
-0.0167276315907308 0.093300336600336 0.0740814893050212 0.2482328 0.7326742 0.6336948 56 56 56
0.12970596188711 0.0299684250344987 0.00591556108551439 0.6623506 -0.6724539 -0.3302991 69 69 69
-0.00891508358528537 0.10385402199979 0.0540547609107845 0.4615257 0.7329666 0.4997539 65 65 65
0.0672323753361637 0.0641386022289201 0.0488813960342916 0.4498189 0.4776155 0.754683 62 62 62
-0.0466241823346407 0.0575586223439852 0.0672790204294224 -0.004778298 -0.5596215 0.8287346 115 115 115
-0.0195277915084713 -0.102669492484232 -0.051517070849155 0.8001908 -0.4664407 -0.3769983 51 51 51
-0.0008450754933369 -0.0650624742374346 -0.0149943013936024 0.04425363 -0.5625921 0.8255493 173 173 173
-0.00313333889307943 -0.0706417292825616 -0.0169020863272524 -0.05723399 -0.557656 0.8280966 175 175 175
-0.0990062981896767 -0.0772208417305789 -0.0626275045196595 -0.3898124 -0.7607266 -0.5189811 100 100 100
0.0210177634904332 0.027378672024281 0.0471871061408719 0.005579341 -0.5499543 0.8351761 181 181 181
-0.0144816794929739 -0.0542475205130999 -0.00750583482947786 -0.03621208 -0.5504465 0.8340847 134 134 134
-0.0409612990857147 -0.0148018513831691 0.0189211677163035 -0.01710023 -0.5345452 0.8449669 106 106 106
-0.116552048800321 -0.0668902920401184 -0.0558795426547801 -0.7622448 -0.5573485 0.3291589 40 40 40
0.0474176576901737 -0.0415697815440181 -0.0305015208050489 0.6382928 -0.6823192 -0.3564025 34 34 34
0.00238584237901129 -0.0746679706363027 -0.0495824954661213 0.7640318 -0.5560029 -0.3272861 77 77 77
0.103788182439009 0.0575695188827623 0.0370796686109483 0.2501782 0.8315229 0.4959641 58 58 58
-0.0127602825490696 0.0608361018701444 0.0695854586442308 -0.006369038 -0.5554239 0.831543 167 167 167
0.0788713426370058 -0.0171785554846633 -0.00690343842152591 0.5880169 -0.7667746 -0.257474 66 66 66
-0.00738786131921776 -0.0955940916338822 -0.042287232655219 0.6172665 -0.6514509 -0.4411279 106 106 106
0.0561489884421911 -0.0413250846747939 -0.00805485295186653 0.765192 -0.5385385 -0.3527853 56 56 56
-0.074814981995567 -0.0608930865160737 -0.0118459683864049 -0.0205421 -0.5274088 0.8493633 119 119 119
-0.0919295364668482 -0.0198192940000479 0.00969750301816991 0.1500121 -0.5302505 0.8344644 128 128 128
0.00869094023639283 0.0828935704965783 0.0674190379878388 0.2820221 0.7022485 0.65369 90 90 90
-0.0316158335378875 -0.113697452636105 -0.0585826872561206 0.4778177 -0.8278957 -0.2937327 77 77 77
0.0174815569320548 0.044029806691912 0.0584938221114186 -0.01236672 -0.5520618 0.8337114 143 143 143
-0.0723794018908146 -0.0325395185290487 0.00735640977374158 0.003682531 -0.554136 0.832418 96 96 96
-0.00442836646850164 0.0895287944949956 0.0711361127424455 0.513871 0.6229107 0.5898465 118 118 118
-0.0614227289348572 -0.057008099319058 -0.0087987503648288 0.02169458 -0.5713015 0.8204535 143 143 143
-0.0121344322280899 -0.0352109369123494 0.00614407732916195 -0.007094665 -0.5676014 0.8232729 222 222 222
0.0173718496396194 -0.0691811117067609 -0.0313720920420876 0.7389039 -0.5887811 -0.3276551 57 57 57
-0.0710420874662461 0.0239104994276715 0.0448590053250725 -0.005344366 -0.5578709 0.8299105 124 124 124
0.0609551150640355 -0.032986057871417 -0.0125675429148884 0.7187005 -0.621074 -0.3126288 56 56 56
-0.020745565325015 0.101763544923269 0.0653303987869158 0.2673513 0.6609976 0.7011458 54 54 54
0.04945840063764 0.0517267955964924 0.063415014547908 -0.0005150301 -0.5537442 0.8326867 190 190 190
-0.0573919873546411 -0.0793092616172117 -0.0239710252040078 -0.007310538 -0.5599566 0.8284897 153 153 153
-0.0544544246854546 0.0234137764512539 0.0445059958100686 -0.003543502 -0.5403513 0.841432 111 111 111
0.057386139010136 0.0284472492342875 0.0481940976013214 0.005164831 -0.5522779 0.833644 121 121 121
-0.0115625701935014 0.0726082768652137 0.0774002138441793 -0.008283706 -0.5555843 0.8314189 160 160 160
0.0488453295988811 0.0535565783284144 0.0646592739093615 -0.01689646 -0.5515195 0.8339909 171 171 171
0.0778426676766943 -0.0150039545904068 -0.0131284837271088 0.7727569 -0.5702682 -0.2786413 41 41 41
-0.00651149670099693 0.0795946665464764 0.0821345518234484 0.1768114 -0.2607674 0.9490722 163 163 163
0.113174396506379 0.0169487659553398 -0.00304949030613699 0.6766742 -0.6204435 -0.3964364 77 77 77
0.143435107116796 0.0450306939961531 0.019084224654513 0.9298787 0.3676923 -0.01131543 55 55 55
-0.0774720258646169 -0.0773017847427868 -0.0261481383994969 -0.651733 -0.6063318 0.4556378 34 34 34
0.111507365905614 0.0534205554401312 0.044241008983712 0.4077446 0.7639673 0.5000983 109 109 109
0.0285261217808905 -0.0643280762546077 -0.014820609018351 0.5412611 -0.7970532 0.2678483 81 81 81
-0.0865349961772095 -0.0155768853063278 0.0180924776986434 -0.02945467 -0.5612861 0.8270975 125 125 125
0.0596323956351972 0.0713215483236658 0.0463282380791357 0.1415543 0.7446361 0.6522878 81 81 81
0.0816054341270482 0.0598694837461056 0.0424251275938049 0.3378735 0.6622617 0.6687682 99 99 99
0.134430647886703 0.0391524476826561 0.0419468015696011 0.4185719 0.7256251 0.5461371 62 62 62
-0.0125559216706232 -0.0991017514820953 -0.0443370445246737 0.6804366 -0.5192543 -0.5170889 43 43 43
-0.0698231596496428 0.0141191031713634 0.0379391500012547 -0.02073237 -0.5520655 0.8335429 117 117 117
0.00078680370271389 0.0306175412263761 0.0491960759817792 0.00516899 -0.5580261 0.8298073 191 191 191
-0.0912090708886195 0.00132585366404925 0.00953044822159738 -0.7730716 0.5853781 -0.2443212 37 37 37
-0.0132346489943367 0.0437876939563335 0.058153219740532 -0.0020488 -0.5576307 0.8300866 175 175 175
-0.0282476027439857 0.067112844517937 0.0738681182696167 -0.007066116 -0.5566484 0.8307182 160 160 160
-0.0781145483007775 0.0162211699117107 0.0395406868118777 0.01806007 -0.558787 0.8291146 81 81 81
0.138909171671636 0.0292869219577454 0.0458209023543025 0.7742156 -0.1261986 0.6202129 97 97 97
-0.107116438834976 -0.0613712653631719 -0.0436726236790778 -0.547362 -0.7690092 0.3301813 59 59 59
0.131854315870461 0.0225755395812461 0.028101151446741 0.5510464 -0.7428147 -0.3802293 51 51 51
-0.0611701519385393 -0.0770421896748625 -0.0217196213347892 -0.003778819 -0.5545974 0.8321102 141 141 141
-0.0648527968486357 -0.0464441182926796 -0.00208344040841585 -0.016145 -0.5652381 0.8247698 106 106 106
-0.0749416135352576 -0.041188356902631 0.00125876435815525 -0.01235766 -0.5549326 0.8318035 61 61 61
0.0620225469498887 -0.0289861280050763 -0.0185056539984896 0.7777286 -0.6097854 -0.1526433 56 56 56
-0.0346076938237365 -0.0800119712578833 -0.0249518408387328 0.0003427437 -0.5632862 0.8262618 146 146 146
-0.0370912054277386 -0.0183446250541675 0.0167223594926864 0.008313362 -0.563258 0.8262392 66 66 66
-0.0607339051678037 -0.104942324461615 -0.0422069833883985 -0.5387076 -0.6310607 0.5581726 35 35 35
0.0509441592926354 0.055502940777872 0.0661930643610679 0.04728939 -0.5169574 0.8547039 174 174 174
-0.06909232704652 -0.0890404808785534 -0.0341210157284824 -0.5993427 -0.6418316 0.4783728 37 37 37
0.0857776433877042 0.00398245196562375 0.0234324902808851 0.1666337 -0.7085359 0.6857186 138 138 138
-0.0488101247430119 -0.0261674716892686 0.0122810029955568 -0.008925262 -0.5476092 0.8366866 118 118 118
0.0523296114467531 -0.0312106097964733 0.00782402090848622 0.006692296 -0.5999171 0.8000342 126 126 126
0.044921285256875 0.076927139243826 0.0460556726998996 0.150386 0.8220008 0.549271 86 86 86
-0.0883362912048207 0.00552827937806155 0.0110497328674959 -0.6753101 0.6880898 -0.2654971 45 45 45
-0.049127302824453 0.0604249141315263 0.0693039248164564 -0.009000743 -0.5544569 0.8321638 117 117 117
0.135526961998845 0.0292348851736564 0.0208091608953204 0.5576497 -0.7727317 -0.3031709 75 75 75
0.0471951734467422 -0.0470103403261948 -0.0188111248681638 0.7396678 -0.6279894 -0.2419109 40 40 40
0.0368858945501396 -0.0265045064774154 0.0110673195412624 0.02639918 -0.5438372 0.8387754 189 189 189
0.089187956296513 0.0613075385995843 0.0383122360918359 0.368976 0.6535 0.6609043 91 91 91
-0.0552782095433022 -0.111284741103958 -0.048172744003468 -0.4508054 -0.8881131 -0.08960727 103 103 103
0.0785918556631544 0.0427719692663528 0.0573627235008393 0.007111674 -0.5546615 0.8320457 154 154 154
-0.0941399711917992 -0.00833740403181715 0.00138860553223119 -0.8012788 0.4738661 -0.365244 56 56 56
-0.0808499714381092 -0.0853674634862887 -0.0659940274357764 -0.3787958 -0.7813733 -0.4959531 102 102 102
0.0664484440561459 0.0174404538573583 0.0433600579263353 -0.022923 -0.5519205 0.8335816 136 136 136
0.0414174207748008 0.0330822044013732 0.0509946038675215 0.005055819 -0.554925 0.831885 132 132 132
0.0353965288577682 0.00689138281508406 0.0336905990374659 -0.01280196 -0.5420649 0.8402391 174 174 174
-0.0544048360891138 -0.0156507664762395 0.0188646496086891 -0.006578829 -0.5471089 0.8370356 128 128 128
-0.025278205368878 -0.0932523375817007 -0.0741086883220138 0.7952353 -0.5134959 -0.3223706 60 60 60
0.0573194655737699 0.00978099856597447 0.0354028876229413 0.01112444 -0.5527326 0.8332844 161 161 161
0.0827217680573851 0.055336943163679 0.0466979933310896 0.3179247 0.7434785 0.5883567 88 88 88
-0.0993051631553286 -0.0572134995426403 -0.0142050758183289 -0.2972938 -0.8617732 0.4110516 65 65 65
-0.0270185759761321 -0.0601947398458056 -0.0106343990608415 0.004742379 -0.5369815 0.8435807 124 124 124
-0.0297705357572156 0.00887541856494578 0.0345987122487705 -0.01351523 -0.5657578 0.8244607 115 115 115
-0.0473165560463591 -0.111704257438969 -0.053557501068673 -0.3536644 -0.8240371 -0.4425881 99 99 99
-0.0583181361747287 -0.104804906519463 -0.0556571410488541 -0.4441606 -0.7339986 -0.5137776 120 120 120
0.0634561041621149 -0.0276447636784014 -0.0191544588911831 0.7384069 -0.6317433 -0.2359145 65 65 65
0.0200277596228657 -0.06905620058275 -0.0255909466381612 0.6905308 -0.6281706 -0.358565 47 47 47
0.100481772017925 -0.00482089995154844 0.0250448055472708 0.505338 -0.8014261 0.3199213 40 40 40
0.0474881489965151 -0.0209405684971875 0.0150454734528969 0.05380838 -0.5136463 0.8563131 163 163 163
0.0335904157846598 0.0639586421225966 0.0717891238251169 0.06931682 -0.4689167 0.8805182 160 160 160
0.0833185299494015 0.030652192156678 0.0494456526776133 -0.02499903 -0.5551895 0.8313481 165 165 165
-0.0171784795454015 -0.101528282456068 -0.0481289908027399 0.7843552 -0.4408118 -0.436431 48 48 48
-0.113974569581392 -0.0559115387987459 -0.0528029631295749 -0.9460278 0.2487036 0.2077932 41 41 41
0.0844202335368136 -0.0180977443183294 0.00341743402249034 0.4720671 -0.823916 -0.3135523 83 83 83
-0.0906405408629638 0.00224792394780926 0.0194132986735343 -0.814683 0.575926 0.06783009 69 69 69
0.0314920765904061 -0.0206511050409606 0.0149653984292435 0.0334254 -0.559326 0.8282736 187 187 187
-0.0449813615203589 0.085787424962275 0.0732525512811767 -0.7869051 0.5470753 0.2854629 51 51 51
0.0234627580569278 -0.0683726979400552 -0.0178094698297069 0.5264446 -0.829896 0.1847393 84 84 84
-0.0626341956477621 0.047642591263938 0.0181367993754498 -0.8215529 0.567843 0.05104106 39 39 39
-0.0233703678450929 -0.0767134805051801 -0.0226940405869367 0.02044635 -0.5396804 0.8416217 184 184 184
-0.0865055339174665 -0.0307175803377373 0.00819775851209453 0.01121822 -0.5733293 0.8192483 150 150 150
-0.0131924871814362 0.0823971883838037 0.0839108482536542 0.07274049 -0.2227602 0.9721557 155 155 155
-0.0596909006979853 -0.0758372801434932 -0.022322185578022 0.01390814 -0.547942 0.8364007 110 110 110
0.0450003755166497 0.0668865696082908 0.0662632662811905 0.52055 0.7865074 0.3323158 105 105 105
-0.0894131078335354 -0.0770482773466103 -0.0368782747477046 -0.5501885 -0.5883381 0.5925798 50 50 50
0.0564952338685654 0.0598390504867188 0.0629660660169592 0.3372143 0.677304 0.6538698 91 91 91
-0.0832969127298653 -0.0551223731097819 -0.00822542282660177 -0.009968235 -0.5532173 0.8329774 148 148 148
-0.0270213332639848 -0.018344828898964 0.0159708541598351 -0.03444205 -0.5424691 0.8393694 209 209 209
0.0751194656269547 -0.0197207031203543 -0.00890300555937606 0.6899334 -0.7110555 -0.1356172 29 29 29
-0.0970229754752032 -0.0575455855014873 -0.0126359781521461 -0.3052406 -0.8496158 0.4300945 78 78 78
0.0032293687545093 0.0973908407625674 0.0526403121617329 0.4929494 0.803556 0.3336146 75 75 75
0.0242578066080759 -0.0610700907317634 -0.034699417978787 0.600755 -0.697078 -0.3913766 57 57 57
-0.0203371770183192 -0.100077145817995 -0.0564062554448191 0.7106673 -0.5550712 -0.4322591 99 99 99
0.0251992322777692 0.0741356594393907 0.0708841681889837 0.3866083 0.8386597 0.3836457 166 166 166
-0.11461776364084 -0.0581147414628764 -0.0555234012924412 -0.9508634 0.1375674 0.27737 30 30 30
0.130437693989057 0.0503463529694028 0.0311825500818339 0.3450875 0.8081081 0.4773635 68 68 68
0.0715508155711682 -0.0195839193798668 0.0154856625235303 0.1015364 -0.7033485 0.7035562 94 94 94
0.111395268149793 0.0341104900645652 0.0518854462694543 -0.008154795 -0.55441 0.8322037 186 186 186
-0.101260371935313 -0.0251101854993381 -0.00649856625473938 -0.6598628 0.6891403 -0.299444 39 39 39
0.0374434408170008 0.0452270353962003 0.0592402567936213 0.002621859 -0.5532792 0.8329918 159 159 159
-0.0628681936668158 -0.101509083526496 -0.0559665247011771 -0.3913532 -0.7678081 -0.5072606 99 99 99
-0.0511553706263435 -0.00213378713394063 0.0274852851095859 -0.0217143 -0.6218343 0.7828477 114 114 114
0.0253997496679745 0.0134041521924908 0.0376862637496787 -0.00604682 -0.5631351 0.8263427 149 149 149
-0.0970334681000411 -0.0308524248948128 0.00793324800883655 -0.01524107 -0.5492625 0.8355109 129 129 129
0.0381389955750393 -0.0267327268812019 0.0109063270140876 -0.003660908 -0.5700856 0.8215771 165 165 165
-0.0533972586654947 -0.00966148441731862 0.0221780986999398 -0.01190507 -0.5564206 0.8308155 170 170 170
-0.0709277682326102 -0.0807769384421171 -0.0246618213815895 -0.08881298 -0.5897272 0.8027043 157 157 157
0.0209843027095618 0.0176806828612508 0.0407252465005566 0.01539394 -0.563471 0.8259924 124 124 124
0.0251981507165788 -0.0629503142827956 -0.0287967328033208 0.6138059 -0.728406 -0.3044125 53 53 53
0.0387481098446716 -0.0529266312103298 -0.00659238452780292 0.06983088 -0.6375589 0.7672303 122 122 122
0.0379323967441341 0.0718364799768978 0.0583135853261442 0.4303843 0.870182 0.2399011 112 112 112
-0.0427511026037064 0.0568251040217962 0.0669176033887388 0.005059732 -0.566062 0.8243471 137 137 137
-0.0344171773882214 -0.0308346461770546 0.00794608011624887 -0.0003508851 -0.5034997 0.8639953 109 109 109
0.0165585245838642 -0.0712946309746547 -0.0182560690899101 0.1482743 -0.6333823 0.7595009 174 174 174
-0.00850833452355371 0.0867082541636397 0.0803441067692295 0.4510439 0.8398705 0.3019551 99 99 99
-0.0458811700970436 -0.0121755958849936 0.0203071768379142 -0.009816298 -0.576215 0.8172392 120 120 120
-0.0522011170174546 0.0587749994873217 0.0598409372774116 -0.8125871 -0.2166315 0.541085 118 118 118
0.0669941918241608 0.0578225817335367 0.0602198103767099 0.3931656 0.8181732 0.4195394 63 63 63
0.138088220979023 0.0267299610338476 0.0450168939356608 0.6744393 -0.4909286 0.5514714 117 117 117
-0.112247781324108 -0.0733037577629978 -0.0580402433076168 -0.7995033 -0.5956556 0.07738751 115 115 115
0.0274656081547771 -0.0574372476677074 -0.0345486401507865 0.6107038 -0.701455 -0.3674259 58 58 58
0.0972020879018616 0.058344273806632 0.0402192558540452 0.1524107 0.8726532 0.4639476 82 82 82
0.0922876185185189 0.0222851883483697 0.0440044351769788 -0.0109515 -0.5671043 0.8235732 173 173 173
0.032673562866421 -0.0449634735231941 -0.00105504525734978 -0.0339953 -0.5209206 0.852928 161 161 161
-0.0928052498024559 -0.0867340047926175 -0.054315853884564 -0.4359135 -0.7417194 -0.5097369 123 123 123
-0.113912199845729 -0.0423405153198146 -0.0223461469408142 -0.8146973 0.5628709 -0.139444 65 65 65
0.022874220900309 -0.0674504912360627 -0.0158765319581438 0.3499897 -0.7798759 0.5189421 67 67 67
0.0093792852592296 0.0533111911421722 0.0643836783334472 0.006900336 -0.5549466 0.8318573 161 161 161
0.0856032281839392 0.0642181899019723 0.0374924892053409 0.3147112 0.6024808 0.7334669 105 105 105
0.0927180559896184 0.0409953000731242 0.0564527502176888 -0.03671818 -0.3823717 0.9232787 165 165 165
-0.110747462047165 -0.059100044454262 -0.0366820187567497 -0.5078173 -0.8479279 0.1521178 68 68 68
-0.041149677356211 -0.11075964940606 -0.0622239954171315 -0.3897167 -0.7456688 -0.5404618 59 59 59
-0.0373025806757874 -0.0454247668641923 -0.00107939784714917 -0.01605105 -0.5464345 0.837348 112 112 112
-0.0186549886259177 -0.0794063038726058 -0.0237374391605638 -0.01540292 -0.5800291 0.8144501 200 200 200
-0.0792617847043484 -0.0533593859546768 -0.00700251569230581 -0.005461094 -0.5528681 0.8332509 116 116 116
-0.0120769984867928 0.103752062740239 0.056397977967555 0.4154319 0.7134963 0.5642158 81 81 81
-0.0950585426598667 -0.037675529499013 0.00334568072685831 0.007090495 -0.5656382 0.824623 106 106 106
0.141967792782723 0.031146661508703 0.0279845528877522 0.7799326 -0.6183681 -0.09657152 125 125 125
0.0017575648237651 0.0426050055155995 0.0574886295098504 -0.006892897 -0.5562863 0.8309621 152 152 152
0.0686329791717895 0.0194864877937087 0.0423865820328235 0.000583354 -0.5354592 0.8445609 189 189 189
0.0196040343175139 0.0472326339521254 0.060590090183544 0.001430835 -0.5557057 0.8313778 195 195 195
-0.0792710627858138 0.0212073318612231 0.0429101935468588 -0.2977714 -0.3846915 0.873696 116 116 116
-0.108058175976333 -0.0387060000907558 -0.0328159329020837 -0.7107171 0.6747451 -0.1989983 60 60 60
0.000439361803763472 -0.0372233577039187 0.00398567493999785 0.0348129 -0.5850869 0.810223 173 173 173
-0.0898796989323776 -0.0098552166701753 -0.00941304655689557 -0.8734451 0.3785031 -0.3063152 28 28 28
0.06949173708291 0.0341477296559489 0.0520314053953881 -0.01575396 -0.5522192 0.8335501 165 165 165
-0.0841810634887468 -0.0727345442120426 -0.0400133009992026 -0.05774299 -0.9959089 -0.06950648 107 107 107
-0.0176027346863652 0.0965838116817734 0.0705329108989443 0.2924196 0.7791017 0.554519 47 47 47
-0.0765049411358847 -0.054818640538336 -0.00736494135745874 0.004772773 -0.5656039 0.8246632 141 141 141
0.053709320880813 -0.0398375311698631 -0.0188130719714608 0.735656 -0.6610023 -0.1479401 101 101 101
0.0988242707139424 0.0582380341247202 0.0387958825372337 0.1741714 0.8752794 0.4511656 93 93 93
0.0271657524917925 -0.0628766407981767 -0.0243087936255801 0.6278505 -0.7458155 -0.2226273 57 57 57
-0.0722971253248854 -0.101222517005705 -0.0497675067651957 -0.5098323 -0.8287237 -0.2308422 64 64 64
0.0213748192217027 -0.0589012186709128 -0.0431287083025519 0.5825147 -0.7126601 -0.3908864 61 61 61
-0.0741534553930254 -0.0902232181074492 -0.0628596042209594 -0.4081777 -0.7599475 -0.5058367 53 53 53
0.0530863545954836 -0.0427418065038196 -0.0125517333932193 0.7029493 -0.6163845 -0.3548696 62 62 62
-0.0922663271106074 -0.0480569102581228 -0.00326672670948347 -0.01073746 -0.540661 0.841172 118 118 118
0.121221576671401 0.017412735474915 0.0104717007544651 0.6100075 -0.7466817 -0.2652495 41 41 41
0.10715011668875 0.0113571118884188 0.0365776373926913 0.008339779 -0.5706571 0.8211461 173 173 173
0.122473220171807 0.0243761887923255 0.000722417102673345 0.7214185 -0.5924637 -0.3585277 67 67 67
0.0253632273878401 0.0782406113930261 0.0634321397634274 0.3642138 0.8125227 0.4551431 77 77 77
-0.00107680631218221 0.021086493165791 0.0428512385381445 0.001534814 -0.5788571 0.8154276 187 187 187
-0.111549176556101 -0.0626815329835861 -0.0493975677738051 -0.3519141 -0.5850926 0.730632 29 29 29
-0.0852730586460546 -0.0679998508909569 -0.0247100073393929 -0.4144859 -0.8383421 0.354096 61 61 61
-0.0368483164983284 -0.0457479793320332 -0.00185332951049 -0.006340927 -0.5622883 0.8269169 123 123 123
-0.0729770948867081 0.00588255096563595 0.032250628065151 -0.002021694 -0.5422322 0.8402262 139 139 139
0.043150887888018 0.079520855643457 0.0428016319454577 0.2332669 0.7335302 0.6383729 71 71 71
0.00105396957852522 -0.0793850499488955 -0.0481856245068848 0.8237182 -0.4945676 -0.2772928 77 77 77
0.0766630414274259 -0.018473744002383 -0.00930543717669291 0.6778364 -0.7147994 -0.1720453 43 43 43
0.115792704808871 0.0187972009519639 -0.00219335942036897 0.6245748 -0.6767375 -0.3897853 54 54 54
-0.0349542532264819 -0.114656171278327 -0.0485893675131784 0.01885013 -0.9553107 0.2950019 129 129 129
0.0800765088750981 -0.0162404426058507 0.0178175938489233 -0.03994219 -0.6834543 0.7288998 107 107 107
0.0529204871942586 -0.0334499365994771 -0.0308484304298594 0.8682799 -0.4322855 -0.24335 51 51 51
-0.0704851657114522 0.0349963905082493 0.0308040310903173 -0.7404121 0.6650754 -0.09728672 35 35 35
-0.0167549351325378 0.0919399375576244 0.0752893334245128 0.2203317 0.7466341 0.6276873 63 63 63
-0.0215335087820319 0.101524984924645 0.0661614236595112 0.2175721 0.6724804 0.7074125 65 65 65
0.051692880591514 -0.0144072789052692 0.0216527493620119 -0.01721559 -0.5383536 0.8425432 183 183 183
0.00478567970370003 0.019960641507945 0.0421154517246577 0.0007861962 -0.5700655 0.8215989 246 246 246
0.0202589013785435 0.0804276252483092 0.0637045131377438 0.3967851 0.7791638 0.4852477 53 53 53
-0.0994609589734319 -0.084270182091948 -0.0479804169509983 -0.5724435 -0.4962338 0.6527331 34 34 34
-0.0246949374295857 -0.109500631236396 -0.050304748396341 0.4117602 -0.8874269 -0.2071885 59 59 59
0.00710338117997233 -0.0285720251791131 0.0102109083352941 0.03458501 -0.5643938 0.8247809 94 94 94
0.105284817107973 0.0458873684960288 0.0523411369932507 0.2403711 0.6778527 0.694793 64 64 64
-0.0709930408931836 -0.0968188237759142 -0.0568591803327729 -0.3729938 -0.7541753 -0.5404583 87 87 87
0.00320573730974205 -0.0857741868318618 -0.0311554593892025 0.6359417 -0.7219684 0.2726534 114 114 114
0.0446277012827427 -0.0449793670964433 -0.028835383647397 0.5366099 -0.7155413 -0.4472699 80 80 80
-0.0964208648630032 -0.0234689044257215 -0.0228109479264055 -0.7856457 0.6108544 -0.09806976 30 30 30
0.13483270354115 0.0455101216456355 0.0325825854934632 0.4339358 0.5854311 0.684814 88 88 88
0.0336057647324783 0.0838905134292505 0.0412029982151844 0.2894125 0.8047158 0.5183367 117 117 117
0.101512970204682 0.0428528861676873 0.0566126050678829 0.116515 0.2365817 0.9646001 74 74 74
0.0579252125461398 0.0223144790220426 0.0435792198922043 0.01450344 -0.5612833 0.8274966 157 157 157
0.0636307303919192 -0.0271677622272193 -0.0174144099266443 0.7221788 -0.6407253 -0.2606317 59 59 59
0.000650249262611702 -0.0106918282614878 0.0214715331014176 -0.0390497 -0.5351017 0.8438846 165 165 165
-0.018034438001342 0.0716459141090025 0.0769187185140916 -0.002823239 -0.5594805 0.8288387 160 160 160
0.0608439181605753 -0.0227747283967763 0.0161199635716238 -0.01503493 -0.5854526 0.8105673 187 187 187
0.120089003672204 0.01933294463428 0.00358181652929945 0.6776397 -0.6543643 -0.3355767 62 62 62
-0.0186306272358139 0.105402926358458 0.0606756163478755 0.3830411 0.8358932 0.393144 83 83 83
-0.0662882310963955 -0.00321892469970075 0.0260438790515383 -0.009682502 -0.5558088 0.8312538 131 131 131
0.0156295214980831 -0.0621733778109856 -0.045148204798274 0.5176282 -0.7386837 -0.4317493 47 47 47
-0.0191286929026342 -0.0123431657682604 0.0210007077993714 0.009502413 -0.547666 0.8366431 135 135 135
-0.101300097305676 -0.0818945087473526 -0.0548485155209051 -0.4535692 -0.8062081 -0.3798729 120 120 120
-0.0802453340126745 0.0133698794863164 0.0029665090752472 -0.8337685 0.5151333 -0.1986647 29 29 29
0.0372993299550379 0.0248388736761112 0.0455247483091794 -0.01047658 -0.5577611 0.8299354 220 220 220
-0.0369459671085033 -0.0927081999063641 -0.0335563517405294 0.03367054 -0.5313925 0.8464563 156 156 156
-0.0200783353966649 0.0882680487538141 0.0829813916964576 0.3011862 0.8632449 0.4050866 67 67 67
-0.0447209289279709 0.0168293054862789 0.0399302552186107 -0.009308991 -0.5569364 0.8305029 148 148 148
-0.0212851647194183 -0.0248354588249302 0.0121667944549166 -0.02234746 -0.574686 0.8180688 185 185 185
0.0846632391380955 0.00963345786264669 0.0355709091637206 0.00559969 -0.564033 0.8257333 185 185 185
0.138732633255332 0.0249552260561616 0.037392053601771 0.722945 -0.6907745 0.01345935 90 90 90
0.0945035640821001 -0.0100346976507113 0.0101396974418445 0.7182492 -0.6955 -0.01994524 78 78 78
-0.0569456948752265 -0.0248502746822752 0.0120865194417388 0.0002989098 -0.5318834 0.8468176 115 115 115
-0.0339953470509125 0.0620330438424677 0.0705372650150309 -0.001829379 -0.5559741 0.8311976 137 137 137
-0.0662231437340726 -0.0951449389165455 -0.0633961898589779 -0.395812 -0.7846646 -0.4771103 104 104 104
-0.00829428519892605 -0.0854337903894435 -0.058726287332924 0.6357151 -0.7017154 -0.3216547 82 82 82
0.106481096728331 0.00756883173575407 -0.000582364977943006 0.6754589 -0.6325232 -0.3790378 54 54 54
0.0399480002834318 0.00181508357860061 0.0302457303741732 -0.03237734 -0.5697787 0.8211601 126 126 126
0.105161375963785 0.0569925738082062 0.0397231379604564 0.3560748 0.8488551 0.3907117 83 83 83
-0.00716095350394097 0.041335795562683 0.0566345256216021 -0.01295599 -0.5611147 0.8276367 166 166 166
-0.0211523025447211 -0.0707619027669262 -0.0180842550936493 -0.003278186 -0.555382 0.8315889 166 166 166
0.096880781468446 0.0136864865600246 0.038209634699622 0.01160062 -0.5569507 0.8304645 191 191 191
-0.0372231306021966 -0.0751191119384378 -0.0218292392393998 -0.01002199 -0.549547 0.8354027 149 149 149
0.018994881188477 0.0746879763498682 0.0749659994704797 0.436347 0.6992887 0.5662125 74 74 74
0.00252341935641143 -0.00696067187476301 0.024340115283749 -0.02106788 -0.5509843 0.8342496 106 106 106
-0.101155225471839 -0.058274292248099 -0.0162912910256717 -0.2966974 -0.8688794 0.3962564 50 50 50
0.0808212318029669 0.0711896627586752 0.03602351109456 0.4921229 0.4722672 0.7312857 96 96 96
-0.0739447718113739 -0.0921070011817391 -0.0615505802285413 -0.4221159 -0.7537797 -0.5036212 76 76 76
-0.0891720254986392 -0.0521726486088774 -0.00598461911963366 -0.00286937 -0.5633263 0.8262295 136 136 136
-0.0945707693758266 -0.0290754267182722 0.00902664479784149 -0.01539162 -0.5636636 0.825861 126 126 126
-0.000969110759225789 -0.074622466792688 -0.0212061298465738 -0.01110959 -0.5295743 0.8481908 162 162 162
0.00741311834616054 -0.0731386927772417 -0.0427815760983598 0.6902376 -0.6250972 -0.3644525 70 70 70
0.0468413985949963 0.0632721408845891 0.0703280606629373 0.512742 0.304718 0.8026472 88 88 88
-0.0571003990547041 -0.0623385388101676 -0.0128341510637938 -0.01434578 -0.5585898 0.82932 172 172 172
0.00823882348627913 -0.0328242255980438 0.00768041136384889 0.009372993 -0.5387218 0.8424315 133 133 133
