ply
format ascii 1.0
comment File exported by Rhinoceros Version 7.0
element vertex 469
property float x
property float y
property float z
property float nx
property float ny
property float nz
property uchar red
property uchar green
property uchar blue
end_header
-0.00760371203734711 -0.0269759517115291 -0.0224861618757905 -0.04694791 0.2114293 -0.9762651 56 56 56
0.0238110679841692 -0.013101289087565 -0.0218114302524588 -0.1218 0.02556792 -0.9922253 245 245 245
-0.0364235043819012 0.0281171337549297 0.0336695312636244 -0.980588 -0.0833006 -0.1775054 47 47 47
0.0439610037936573 -0.00485185158640511 -0.0167703694555715 0.9881684 -0.1533656 0.001525809 59 59 59
0.0328581297810515 -0.000205482101698129 -0.0313689678676014 0.01315764 -0.282214 -0.9592612 239 239 239
-0.0313330092753776 -0.0451827434823884 0.0136550122859122 -0.09373534 -0.9941542 -0.05358363 122 122 122
0.0239603935843 0.00618352915662612 -0.0300829985552924 -0.05629313 0.03061584 -0.9979448 79 79 79
0.0212532541683881 0.037634541309848 -0.0124328093132096 0.1153762 0.9857679 0.1222703 39 39 39
0.0338650096647171 -0.0453321235567377 -0.0111791002229542 0.02976309 -0.9976901 -0.06106287 147 147 147
-0.0281324579946085 0.0441518252128712 0.0116915683994817 0.1952474 0.95929 0.2040614 30 30 30
0.0211647649225226 0.0399188784489042 -0.025976633407169 -0.1085629 0.9205805 -0.3751608 90 90 90
-0.0113531447309738 -0.03570786671876 -0.0247655521824231 -0.06903064 0.006371185 -0.9975942 94 94 94
-0.0372433752194963 0.0175604783903789 0.0144213790497696 -0.9609821 -0.03084202 0.2748859 67 67 67
-0.024662847312104 0.0141874710219505 -0.0251266877411957 0.01921014 0.1791905 -0.9836268 48 48 48
0.0247313015401862 -0.0459538066284557 -0.0036901370219404 -0.008030022 -0.9995538 -0.02876937 158 158 158
0.0502899821052913 -0.0043703044816612 0.017358923595733 0.9169258 -0.3645219 -0.1623907 71 71 71
-0.0391999399259466 -0.0290588645478085 0.00200771880894582 -0.9938391 0.05902797 -0.09380528 82 82 82
-0.0431413260242188 0.00644669565052869 -0.0134938657358067 -0.9743951 -0.09847499 0.2021308 60 60 60
-0.0366317430928249 -0.00239401303776599 0.0123385856627919 -0.9919317 0.006714341 0.1265953 59 59 59
-0.0259532314269906 -0.0195186138112911 -0.0245386885686934 0.3285648 -0.6285497 -0.7049614 94 94 94
0.0230386586819722 0.037718067333055 -0.0144723031869022 0.1340099 0.9772903 0.1641494 67 67 67
0.0477405469200103 0.00758377252015352 -0.0138531753658512 0.9084023 -0.4010198 -0.1182729 53 53 53
-0.0189957672777172 0.0447138081305629 5.01193223398089E-05 0.2045342 0.9585038 0.1985853 52 52 52
-0.0336973819360677 -0.0196815728433217 -0.0248245530703619 -0.4700986 -0.7006466 -0.5367509 88 88 88
0.0507572173096114 0.0287851389430172 -0.0239469113881205 0.9881176 -0.02655584 -0.1513882 99 99 99
0.0524962685444257 0.0147646538927662 -0.00607687562842432 0.8860195 -0.3340943 -0.3214815 61 61 61
-0.0397641946132201 0.00598521258847406 0.0028981123717978 -0.9659173 -0.1999641 0.1643717 85 85 85
-0.020211214599982 -0.0294323466291078 -0.0230030047285736 -0.03433988 0.1446927 -0.9888806 76 76 76
0.0207029369137799 -0.00498879185739942 -0.0272866893338207 0.02836466 -0.7858644 -0.617748 88 88 88
-0.03548987880421 -0.00341339739727942 0.0151175283958447 -0.9914971 0.02137139 0.1283618 25 25 25
0.00990895796157854 -0.0456645799728141 -0.00475640753992077 -0.02837711 -0.9980825 -0.05500942 145 145 145
0.0400674661577767 -0.0372384094897116 0.00113060176672788 0.9625629 -0.2646166 -0.05874379 77 77 77
0.0260749205697592 0.0242264376142358 -0.0293996760740445 -0.03648005 -0.1200177 -0.9921013 90 90 90
-0.0286215386165594 0.0181164905382252 -0.0253303692934511 0.01196637 0.1236935 -0.9922483 112 112 112
0.0412044407987036 -0.0108856791642047 -0.0180990437309579 0.970264 -0.2361169 -0.05325891 54 54 54
-0.00967703303413114 0.0455527139847396 -0.0105975339696184 0.1841606 0.9768613 0.1087516 61 61 61
0.0194110913070202 0.0375406523989037 0.0238395688148816 0.1654969 0.9845073 0.05793208 77 77 77
-0.0282962872401811 0.0380018353916634 -0.0230632617956244 -0.1051683 -0.03391722 -0.9938759 233 233 233
-0.0332866861114607 -0.0457615599771743 0.0182837974186818 -0.2679948 -0.9625528 -0.0408761 139 139 139
-0.0271322969247036 0.00426561835067152 -0.0286852555080904 -0.04851273 0.2604933 -0.964256 239 239 239
0.0312739665369677 0.0209094151092399 -0.0292245537516507 -0.08972418 0.002700733 -0.995963 129 129 129
0.0393998643610294 -0.0233713445824688 -0.0272763769610684 0.4232599 0.009144768 -0.9059622 124 124 124
0.00497013728431028 0.0318131096962868 -0.0261092526010753 -0.159564 -0.005721616 -0.987171 213 213 213
0.0247233081614462 -0.00882552617843468 -0.0217863111956583 -0.05391143 -0.2418272 -0.9688205 123 123 123
-0.0370048564870051 0.0320581228492069 0.0155058922149361 -0.9836693 -0.05516555 0.1713227 51 51 51
-0.040014360618523 0.0253547091598343 -0.00427054621506059 -0.9438545 -0.05730017 0.3253544 89 89 89
0.0443116329865918 -0.0182416322828041 -0.00318675948234889 0.9662952 -0.1819967 -0.1820736 101 101 101
-0.0351011626404603 -0.044341870047147 -0.00444538100362399 -0.5503623 -0.8337659 -0.04399662 160 160 160
-0.0235926012693528 0.0434404488290669 -0.0229343784872757 -0.05478739 0.3723491 -0.9264742 112 112 112
0.0187555344194585 -0.0197046572816069 -0.0218512500004862 -0.008780352 0.0575745 -0.9983026 61 61 61
-0.00359727039521407 0.042727308612621 0.00542290604585058 0.2381112 0.9687236 0.06983999 58 58 58
-0.0299413426604536 -0.045349795445778 0.0107007079385084 0.004621057 -0.9994214 -0.03369869 123 123 123
-0.0436577547944683 0.0147131843106925 -0.01004824093868 -0.9949788 -0.07200497 0.06951544 108 108 108
-0.0376772320947727 0.0290382760485968 0.0127622330478367 -0.9792534 0.0198591 0.2016643 51 51 51
-0.00848297190815273 -0.0447011830715811 -0.0172969939034977 0.003219663 -0.9988856 -0.04708787 152 152 152
-0.0377837753412356 0.0194840878153262 0.0132151510106034 -0.9566443 0.007007655 0.2911744 34 34 34
0.0141054832029592 -0.00760000032619734 -0.0227987086576082 -0.008180451 -0.8220085 -0.5694165 222 222 222
-0.0364708232149593 0.0315042575470206 0.013415068579759 -0.9881843 -0.009675709 0.1529645 69 69 69
0.0137551606585411 -0.0265088115649788 -0.0226472972281603 0.003413631 0.1088327 -0.9940542 92 92 92
0.0230762740778589 -0.0464651937104474 0.0177350489644969 -0.01771936 -0.9998111 -0.007982172 118 118 118
0.0214860899756513 -0.0458629945215201 -0.00059795657285508 -0.02077883 -0.9995925 -0.01956922 156 156 156
0.0359839356248615 -0.039991907376115 -0.0268621651138969 0.3808838 -0.3653289 -0.8493894 167 167 167
0.0515484532114785 0.0171936034107907 -0.0207275536218509 0.9541501 -0.2542289 -0.1580039 119 119 119
-0.00557954786683501 0.0298826362954572 -0.0253871768432793 -0.04916627 0.05869176 -0.9970647 98 98 98
0.0428549408701677 -0.0265211110799968 0.0132644630941861 0.9579431 -0.2767454 -0.07587475 40 40 40
0.0513063383038066 0.0173274085638602 -0.019757023051744 0.9510296 -0.2747235 -0.1416675 151 151 151
-0.019457308281589 -0.0445675193721737 -0.0211763351513299 -0.1483118 -0.8223721 -0.5492793 145 145 145
-0.0150918824924553 0.0425124146185303 0.0236587893491703 -0.02090902 0.9968502 -0.07650131 56 56 56
0.0586327628797156 0.028003387561331 0.000724366895994782 0.9021391 0.3703349 -0.2213529 40 40 40
0.0469428592705996 -0.00806333575331286 0.00919182352667788 0.9687232 -0.198287 -0.1491901 88 88 88
-0.0352760844410052 -0.04272911778333 -0.0116653302088782 -0.5621421 -0.8184408 -0.1189576 145 145 145
0.0131927821058602 -0.032343068239453 -0.0231827288203146 0.001426633 0.155827 -0.9877833 79 79 79
0.0380765104749741 0.0350267324678486 -0.00517519507398276 0.1162738 0.9836073 0.1378301 34 34 34
-0.0449874911078119 0.0297392090441966 -0.0176913621895415 -0.9946517 -0.1030218 -0.007388323 92 92 92
-0.00613104547253096 0.0199373813545629 -0.025448963707515 -0.1567553 0.03636645 -0.9869677 128 128 128
-0.0382649037265068 -0.0288340889163836 0.0183904474881913 -0.9599937 -0.0172366 0.2794907 48 48 48
0.0345282447632491 0.0374953449970827 -0.0274976402153417 0.1434634 0.9088815 -0.3916026 52 52 52
0.0238526154344587 -0.0452510684427592 -0.0109524232307802 -0.02011685 -0.9993024 -0.03146293 154 154 154
0.0346879837931806 0.0187020191383389 -0.0300381992268765 -0.11457 0.08094318 -0.9901121 238 238 238
-0.0427109103103969 -0.0260474407739284 -0.014854131637607 -0.9784694 -0.1446272 -0.1472436 73 73 73
-0.0234053365314704 0.0289038204430412 -0.0240682198605789 -0.09335225 0.09756035 -0.9908417 226 226 226
-0.036738849478831 0.0454906097608105 0.00585127247288478 -0.3786422 0.9195771 0.1049194 48 48 48
-0.0268073004378708 -0.0262943200555514 -0.0220190220114337 -0.1566624 -0.05353485 -0.9862002 91 91 91
-0.00705602951068918 0.0107263869866039 -0.0273586938596073 0.01178427 0.200093 -0.979706 159 159 159
-0.0385393635128441 -0.0165422631756411 0.00270007370598016 -0.9907262 -0.07194622 0.1152622 77 77 77
0.0408036640383518 -0.028086640641279 -0.00823077129866931 0.9673581 -0.2120876 -0.1386983 70 70 70
-0.0326099926147623 0.0462796618522372 0.00831515273376834 -0.02770644 0.9934736 0.1106459 45 45 45
-0.00856357719894096 0.0173548577451834 -0.0255144040685236 -0.05046225 0.1674032 -0.9845962 225 225 225
0.0454956303123439 0.00781422639525431 -0.0277580363634865 0.880806 -0.27415 -0.3860344 62 62 62
0.0490343186976741 0.00720642379355807 -0.00535404956013771 0.8355896 -0.4712846 -0.282278 89 89 89
0.0416685920915123 -0.0214023642162089 -0.0115494542308129 0.9799865 -0.1923099 -0.05141317 89 89 89
0.0371996191262092 0.0352156807442847 0.0225142436172051 0.1515715 0.9881072 0.02588871 85 85 85
0.0055391724158238 0.0410328700065734 -0.0132644436155502 0.2418796 0.9620176 0.126556 18 18 18
-0.0215460679486688 -0.0192404166737983 -0.0221288615155341 0.2011961 -0.5133713 -0.8342481 131 131 131
-0.0387760952019016 -0.0115583437467353 0.00323755678051432 -0.983645 -0.0225633 0.1786992 32 32 32
-0.0421816690959806 0.045312419698587 -0.00401346375599096 -0.8633371 0.3729049 0.3399867 54 54 54
0.0383014692455146 0.00551465829832742 -0.0314290519394539 -0.0207299 -0.01211943 -0.9997116 68 68 68
0.0542982836099919 0.0322824266125949 -0.00685104261609212 0.6411607 0.7658513 -0.04883523 98 98 98
-0.0395606420536134 0.0149116751529617 0.00842293321243628 -0.9548761 -0.03315341 0.2951481 43 43 43
-0.035299726089504 -0.020641620907738 0.0237944077631193 -0.900829 0.07063936 0.4283891 43 43 43
0.0520082325481457 0.00525207294725316 0.0077739861255007 0.9005166 -0.3585247 -0.2460281 66 66 66
0.0253854959631175 -0.0222172587189056 -0.0225771700280538 -0.2427781 0.1664981 -0.9556867 63 63 63
0.0126495734617809 -0.0459548782163093 -0.0132421315885704 -0.01708956 -0.9994871 -0.02708334 128 128 128
-0.026594698535068 0.00918557296133904 -0.0267793112401127 -0.0300094 0.3158334 -0.94834 153 153 153
0.0380440198279735 -0.046455304535796 0.00640811281304701 0.04851267 -0.9969943 -0.06040609 164 164 164
-0.0270299685882232 -0.0457668363281274 0.0200337514810147 0.0004187461 -0.9994954 -0.03176176 132 132 132
0.0498187312419971 0.0234182966951186 -0.0287031892013302 0.9027041 -0.1717283 -0.3945056 74 74 74
-0.0247733653125184 -0.0117957510972748 -0.0311585700252635 0.0470484 -0.2066687 -0.9772791 68 68 68
-0.000393503250415428 -0.0447991709565203 -0.0218473888610283 0.05164542 -0.8710146 -0.4885349 157 157 157
-0.0262782600390199 -0.0454286258823211 0.0122531199941235 -0.007585493 -0.9981856 -0.05973321 134 134 134
0.0375631083273318 0.0359633815926415 -0.00846885549796475 0.1506521 0.9805007 0.1261835 66 66 66
-0.0439890031257479 0.0145225405050839 -0.0166032880325721 -0.9628947 0.004346749 0.2698422 50 50 50
0.0063901653863434 -0.0454352174836061 0.00247091796116652 -0.02898259 -0.9986621 -0.04282491 124 124 124
-0.0400687202587877 -0.0290531146901234 0.00982226491628804 -0.9986315 -0.05197996 -0.005764384 93 93 93
0.0475268146380718 0.0338936984665774 -0.0091940034750366 0.2465991 0.9666254 0.0694565 57 57 57
-0.0386255317698649 -0.0162134412037667 0.0115673405465509 -0.9857206 0.1243534 0.1135396 68 68 68
-0.00752623883243175 0.00182157592707921 -0.0296106023013589 0.06272101 0.1953957 -0.9787168 235 235 235
0.00395775811583743 0.0417496915914275 -0.0222637192935975 0.2115293 0.9219273 -0.324508 50 50 50
-0.025734596931914 0.0465891508739253 -0.0215007784728013 0.01070827 0.7345571 -0.6784624 100 100 100
0.00322048072946868 -0.0459515957509247 0.00860148758224769 -0.02374309 -0.9991885 -0.03253672 131 131 131
0.0346558748533961 0.00177740533657289 -0.0309705096844565 -0.03010387 -0.1524654 -0.9878502 95 95 95
0.00158569743436177 -0.0404455344331605 -0.0243004304592274 -0.01176528 -0.158178 -0.9873405 156 156 156
0.0444070535279713 -0.0185738251569267 -0.00094163477830797 0.9728426 -0.2281283 -0.0391759 86 86 86
-0.018766487747649 -0.0446756931032299 -0.00752979670020035 -0.0010082 -0.9993494 -0.03605378 133 133 133
-0.0461818659711719 0.00847615709935789 -0.0254331276576229 -0.9537016 0.1715015 -0.2470636 74 74 74
-0.038983653021762 -0.0144869356553849 0.00452874383614624 -0.9939574 -0.06615432 0.08759177 81 81 81
-0.0408683292390732 -0.00808079527095296 -0.0296628678985268 -0.1856887 -0.1394755 -0.9726594 131 131 131
-0.0141414909713349 0.0433152069238549 0.00789325303247221 0.1094769 0.9917019 0.06739595 48 48 48
-0.0441635045715272 -0.00353810790252052 -0.0119442320933387 -0.9856712 -0.001669643 0.1686695 104 104 104
-0.0163914084312313 0.042756846956123 0.0290096840843782 -0.03621333 0.9987777 -0.03363864 58 58 58
-0.0214339598916933 -0.023952549097231 -0.0220981358265923 0.04625281 -0.04703726 -0.9978217 77 77 77
0.0304081322886507 0.0370604397346421 -0.0204566596610155 0.08547358 0.9834185 0.1599445 54 54 54
0.00766961568439228 -0.0342440743508259 -0.0237633100475144 -0.004734476 0.1816391 -0.9833539 62 62 62
0.00579566811373811 -0.031429799976989 -0.0232180447512994 -0.01315185 0.1932504 -0.9810613 96 96 96
0.0527013765825648 0.00358652067781029 0.0153821701499612 0.9125884 -0.3999622 -0.08492779 98 98 98
-0.0408412233172442 0.015104800264931 -0.0262013371598039 -0.2787276 0.1720056 -0.9448413 91 91 91
-0.0328972805120471 -0.00642331756528747 0.0302399617350962 -0.9707115 0.07443345 0.2284269 72 72 72
0.0441175262956277 -0.00875506577493801 -0.0128845311002575 0.9895454 -0.135143 -0.05036114 47 47 47
0.0525894160422578 0.00337959827790546 0.01161026440946 0.9099932 -0.4016161 -0.1030381 109 109 109
0.0293809222500918 -0.0265598447717608 -0.0247372269234415 -0.280233 0.200786 -0.9386983 79 79 79
0.0201186731706937 0.0138370910427326 -0.0305530397120238 -0.099604 0.007796837 -0.9949966 139 139 139
-0.0145473644339005 0.0374126779126986 -0.0252276004716999 -0.0291208 0.07865024 -0.9964768 239 239 239
0.00601006413656591 0.039025119304394 -0.00962588132018458 0.2924933 0.9558247 0.02909792 91 91 91
0.032062017044084 0.0149488332664034 -0.0303108348643118 -0.1010834 0.05744015 -0.9932184 127 127 127
0.0241864930379021 0.0108511306777974 -0.0300527168677276 0.02863042 -0.02987774 -0.9991434 144 144 144
-0.0385285645865201 -0.0348110137415261 0.00178268913680216 -0.9687567 -0.2472962 -0.01884368 68 68 68
-0.0206346204189594 -0.0448683450741962 -0.0192134343329089 -0.1427028 -0.9492442 -0.2803059 175 175 175
0.0353689637858314 -0.0425444060707092 -0.0259563275998063 0.3623507 -0.5925707 -0.7194178 178 178 178
0.0494416697524653 0.0101668546261309 -0.00802535577094329 0.8476473 -0.4247001 -0.3179999 85 85 85
-0.0333025516368284 -0.0247564155033344 0.0297166605024406 -0.9367989 0.1663917 0.3077686 41 41 41
-0.0338331093428277 0.0220879148407067 0.0239725471739625 -0.9907691 0.1041653 0.08675349 38 38 38
0.0148672632738998 0.00995305803159741 -0.0289011526217156 -0.1587421 -0.03375392 -0.9867429 132 132 132
0.0364630578937042 0.00750113316183887 -0.030725110365725 -0.09752753 0.05390837 -0.9937717 101 101 101
0.0199216023417601 -0.00544234004791555 -0.0265568041682953 0.0487445 -0.8074914 -0.5878619 107 107 107
0.00301094180706318 -0.00776393655950103 -0.027838410830815 0.3115495 -0.6884384 -0.6549728 70 70 70
-0.0346704928651531 0.0387565568398134 0.0362671781024317 -0.7645041 0.1366868 0.6299605 52 52 52
-0.0440904176512744 0.0166777239543985 -0.00769536967356896 -0.9841835 -0.1072134 0.1410247 91 91 91
0.000622565169642098 -0.0433390356494434 -0.0238788621717755 -0.07699285 -0.589969 -0.8037466 178 178 178
0.0549983450204681 0.0247805895382494 -0.0076234516988368 0.926344 -0.2278799 -0.2999294 75 75 75
0.00994295368423681 0.0389716177730177 -0.00490757400492112 0.2434964 0.9687318 -0.0476257 45 45 45
0.042926964943375 -0.0106673763372467 -0.0150329430511303 0.9875467 -0.1506483 -0.04534861 54 54 54
0.0491527539344558 0.0240567369613405 -0.028981763041126 0.8319849 -0.1572784 -0.5320382 97 97 97
0.0380171203816622 0.0334613107205244 0.00515196585429686 0.1326714 0.9911534 -0.003637819 54 54 54
-0.0249505027344605 0.0456012190267403 0.00396495779375008 0.1738284 0.9669306 0.1866252 42 42 42
-0.0289556438383516 0.0441429254646488 -0.022361441346771 -0.08743566 0.408233 -0.9086808 87 87 87
0.0586157573667996 0.0246858117338975 0.00193717588729939 0.9376294 -0.1708586 -0.3027515 64 64 64
-0.0386038128201751 -0.0335728533408868 0.0104361547710074 -0.960637 -0.2771539 -0.0190351 83 83 83
-0.0305394274608839 -0.0163518049543812 -0.0289300749326243 0.06777079 -0.557539 -0.8273799 85 85 85
-0.0148673514465432 -0.0189006689684605 -0.021444819294962 0.2202869 -0.3412665 -0.9137893 95 95 95
-0.0374425470744839 -0.0376881761270549 -7.3135912349781E-05 -0.9541055 -0.2872771 0.08458488 65 65 65
-0.007649743635052 -0.0449300113556581 -0.0190452465349758 -0.0113815 -0.9933012 -0.1149924 163 163 163
0.00837902515195532 -0.0461593995468115 0.0105575993857625 -0.006558619 -0.9997476 -0.02148904 134 134 134
0.0414651389629326 0.03611096105264 -0.030343877858494 0.03816913 0.7342023 -0.677857 90 90 90
0.0348530549109995 -0.0459508908853905 -0.0166844512253654 0.07197326 -0.9951478 -0.06708824 169 169 169
-0.00643161367245915 -0.0127417395474339 -0.0234882999311451 0.3897688 -0.7792912 -0.490699 70 70 70
0.0540677597179333 0.0239189993586508 -0.0124357572119348 0.9412303 -0.1581315 -0.2984627 25 25 25
0.0478292380989946 0.0355636947770988 -0.017461086729704 0.3016559 0.9421219 0.1463221 73 73 73
0.0265390567624029 -0.0105362113818959 -0.0222694385815344 -0.09875802 -0.03808589 -0.9943824 226 226 226
-0.0374658142832485 -0.0248596947617523 0.0204245145481934 -0.927204 0.158885 0.3391877 64 64 64
0.0303502431410025 -0.0233026531680072 -0.024597004819284 -0.2986863 0.1734593 -0.9384553 69 69 69
0.0340746534418754 0.0376182989399778 -0.0210022141664566 0.08474226 0.9939995 0.06916481 32 32 32
-0.0383413950450207 -0.00806384102391 0.0153544295831685 -0.9950739 0.04956273 0.08585748 43 43 43
0.0438246462334715 0.0369571867325875 -0.0249438135573024 0.1055407 0.992922 -0.05447106 74 74 74
0.0405534148068736 -0.0273569657852957 -0.016942388072046 0.9620197 -0.256936 -0.09220596 63 63 63
-0.0102222242255634 -0.0448685930267885 -0.00911089810490048 -0.02107702 -0.9996108 -0.01827724 164 164 164
-0.0282289918438994 -0.0445770181134948 -0.00590298580711782 -0.02341091 -0.9990162 -0.03766281 175 175 175
0.0238226607504888 0.0206625083011245 -0.0294321951279405 -0.03684893 0.04632328 -0.9982466 102 102 102
0.0419326959584099 0.0367822409069165 -0.0300894346581516 0.05642858 0.7812825 -0.6216217 109 109 109
-0.0138587491867874 -0.0373623905328808 -0.0239839856679267 -0.1075333 -0.08844877 -0.9902593 97 97 97
-0.0411760610435556 -0.031137077186866 -0.0173470155129637 -0.8058173 -0.18221 -0.5634341 74 74 74
-0.0406277064114684 -0.00646234162821835 -0.0299830163003905 -0.144958 -0.1232616 -0.98173 141 141 141
-0.0370463314248288 -0.0157406989275033 -0.0261561331392833 -0.4323793 -0.7682976 -0.4719819 106 106 106
0.010387088495976 -0.0461166906932942 0.0106633107223608 -0.01499271 -0.9996691 -0.02090124 160 160 160
-0.0420416086402282 0.0403196489174829 -0.0159998766606836 -0.9408566 0.2368821 0.2422307 105 105 105
-0.014333009686047 -0.0446181385549358 -0.0139333179193525 -0.003659333 -0.9998496 -0.01695277 159 159 159
-0.00816128217757139 -0.0302972310140026 -0.0233645103127848 -0.01169405 0.2365065 -0.9715595 61 61 61
-0.0411788903602326 0.00789147562854464 -0.000556269904537471 -0.9744849 -0.1134056 0.1936965 53 53 53
-0.0219875582138847 0.0411748052526246 -0.0237317298187313 -0.1229344 0.176468 -0.9765993 110 110 110
0.0527800692605001 0.0320077473609752 0.0191263661420388 0.3878259 0.9203508 0.05045169 52 52 52
0.0367549287599884 -0.0464962566775062 0.0129364094887144 0.04789716 -0.9984135 -0.02960241 147 147 147
-0.0364446565812648 0.0452849339685477 0.0139827694240371 -0.3907802 0.898331 0.2007292 68 68 68
0.00896760855964973 -0.00776411688249601 -0.0216185830982299 0.1370898 -0.7911893 -0.5960083 156 156 156
0.0214406311730868 -0.0451094271888048 -0.0246459186522996 -0.05277912 -0.8980986 -0.4366156 169 169 169
-0.0112921855224204 0.0108718321724401 -0.027307005848479 0.03088147 0.2524345 -0.9671211 235 235 235
0.0149007086837025 -0.000182310067565972 -0.0294473301929002 -0.08973076 -0.1501999 -0.9845752 92 92 92
0.0399475102264273 0.0117647647604042 -0.031177388622102 -0.09359173 -0.005054581 -0.9955978 96 96 96
-0.0231940623043856 -0.0453220770439888 0.00607864979815007 -0.03257978 -0.9993914 -0.01246473 144 144 144
0.0308670976087804 0.00848625036991724 -0.0301519221765943 -0.09620005 0.08284546 -0.9919084 199 199 199
0.0220351010186191 -0.0462469667965377 0.0139836813229444 -0.01886616 -0.9991952 -0.03539989 139 139 139
0.0151998371677975 -0.0461185690677983 -0.00107743923320605 -0.003992093 -0.9998807 -0.01492252 120 120 120
-0.0172294843903258 -0.0449675230682929 0.00336904058447304 -0.016504 -0.9997237 -0.0167388 123 123 123
0.00510835380326791 -0.0228908702056059 -0.0218280426301891 0.001654209 0.1256951 -0.9920675 65 65 65
0.0497817272970611 0.0332004760322484 0.0154008904485604 0.2839232 0.955357 -0.08173545 62 62 62
-0.0346182857053996 -0.0298298331144311 -0.0190359837912474 -0.2924513 -0.04432037 -0.9552528 121 121 121
-0.0044624664223647 0.0428045131598638 0.0267424600507889 0.1034725 0.992937 -0.05804776 25 25 25
0.0382455869653127 0.0378257802479809 -0.0209687561869678 0.09603433 0.993882 0.05455216 54 54 54
-0.000695027673558446 -0.0437991495232282 -0.0232791190086288 -0.1047942 -0.6305317 -0.7690565 182 182 182
0.00437259488331998 -0.0450491474133514 -0.0157034335307615 -0.01131476 -0.9990309 -0.04253375 153 153 153
-0.0436314303615666 -0.0173114537207151 -0.0168790883143571 -0.9726455 -0.2112001 0.09672213 39 39 39
0.0228121940228596 0.0372121241564443 -0.0044143378344145 0.189624 0.9817075 0.01712432 32 32 32
-0.038034254244961 0.0316062014017737 0.00725608640086764 -0.942176 -0.1314068 0.3082801 58 58 58
0.00171732599203045 0.0118857169422171 -0.0273146688908882 -0.1434909 0.173814 -0.9742684 191 191 191
0.0314346573295401 0.0367811848233013 -0.0218280593660095 0.08563102 0.991987 0.09289332 18 18 18
-0.0276630263887485 -0.0232667831209827 -0.0221810285150254 -0.03682491 -0.3803354 -0.9241152 94 94 94
0.0402040166314248 0.00621209027571679 -0.0315524121834504 0.07460663 -0.03813951 -0.9964834 85 85 85
0.0503981631814439 0.00782979634571013 -0.00416207941112198 0.8327022 -0.46823 -0.2955802 155 155 155
-0.0088444913674226 -0.0449741491363835 -0.000385535527903519 -0.009504897 -0.9986852 -0.05037384 155 155 155
-0.0170897452530041 -0.0115071295240534 -0.0302495397878595 0.1022507 -0.4109714 -0.9058959 97 97 97
-0.0274134964994284 -0.0446621658380266 -0.0123377912726488 -0.01981079 -0.9991499 -0.03615183 168 168 168
0.0168521073664543 -0.00200410736539403 -0.0293097011608514 -0.02030789 -0.30135 -0.9532973 96 96 96
-4.74893356108286E-05 -0.0250647368825265 -0.0219908410653251 0.00884453 0.1625236 -0.986665 185 185 185
0.0408401979065771 0.0336711019554632 0.0162559183000247 0.1978962 0.9793361 -0.0416865 29 29 29
-0.0262118813355106 0.040576759093734 -0.0235598458141976 -0.1089394 0.08121287 -0.9907253 234 234 234
-0.037312699536606 -0.00512893684781157 0.0141616782573271 -0.9948294 -0.001114833 0.1015545 85 85 85
0.0180125927472268 -0.0123456192443758 -0.0207118946595753 -0.03682273 -0.02465027 -0.9990177 121 121 121
0.0365004236112403 0.0177879098827611 -0.0303314423295697 -0.1417722 0.08943361 -0.985851 158 158 158
0.0205463105942065 0.0377048814976864 -0.0109761450588226 0.1032043 0.9879645 0.1152174 53 53 53
0.0273345344730538 0.0372956273043457 -0.00721136482578713 0.08856077 0.988948 0.118907 51 51 51
-0.0443546600007816 -0.0173016721982742 -0.0220018080223231 -0.8154589 -0.4380023 -0.3783924 120 120 120
-0.0423042599562364 0.00668749072494546 -0.0083660758788042 -0.9870434 -0.08671216 0.1350052 76 76 76
0.00722770088481051 -0.0433103544253317 -0.0243229987611514 0.01682798 -0.6032718 -0.7973582 137 137 137
0.00841842551920857 -0.0458543518463179 0.0158250082424038 -0.01961623 -0.9994555 -0.0265313 145 145 145
0.0205290999217325 -0.0217972273445908 -0.0220305001973341 -0.05193285 0.08797505 -0.994768 91 91 91
-0.000808951891211329 -0.0454656184789708 0.00152619036039006 -0.01986614 -0.9985409 -0.05021463 123 123 123
0.00746306414498177 0.0409599353289134 -0.0213315928113832 0.197062 0.9773511 -0.0771451 88 88 88
-0.000397957711705699 -0.0452671376470437 -0.00295060620381435 -0.01987299 -0.9997835 -0.006160358 140 140 140
0.0379914225431135 -0.0462223825494767 0.00273077220959908 0.04629006 -0.9979883 -0.0433189 155 155 155
0.03683448882836 -0.000786235594345763 -0.0310415412579197 0.035653 -0.5077782 -0.8607498 106 106 106
0.0245828270906481 -0.00537606547419522 -0.024013283828124 0.05608157 -0.8079066 -0.5866359 66 66 66
-0.0251268624846797 0.0478220029466869 -0.0139594082222514 0.120661 0.9926362 0.01069014 70 70 70
-0.0372875205771392 0.0017885561389972 0.0138472343068109 -0.9876621 -0.1151064 0.1061789 47 47 47
0.00835755916860004 0.0400819707505196 0.00367651521274745 0.131533 0.9905113 0.0398308 49 49 49
-0.0149409251368551 -0.0460425704444765 0.0266416914785634 -0.01546872 -0.9996486 -0.02152639 121 121 121
0.0462142665932816 0.00578243323604322 -0.0225349742232192 0.9375481 -0.335605 -0.0915034 67 67 67
0.0198011694695857 -0.0317368846420643 -0.0237615353942837 -0.1922786 0.192293 -0.9623162 100 100 100
0.00421425691985133 -0.0447042451356163 -0.0204958228668725 -0.06289893 -0.9766729 -0.2053136 149 149 149
0.0256773651472182 0.0366280331623716 -0.00520942713334435 0.1023668 0.9928312 0.06170342 55 55 55
-0.0041294632160942 0.0433887697327735 0.00367957496879431 0.2129779 0.9747283 0.06741746 52 52 52
0.000558019855884107 0.0424680181540262 -0.025264004049135 -0.00228335 0.6198096 -0.7847489 92 92 92
-0.00496646788786581 0.0338590459957611 -0.0253450120939449 -0.03293895 0.06153673 -0.9975612 236 236 236
-0.0426052820739964 0.0145606636671163 -0.00822357684774802 -0.9847769 -0.09530675 0.1453658 113 113 113
-0.0431554408362493 0.0140273054123736 -0.0119946150386831 -0.9759685 -0.09117629 0.1979201 104 104 104
-0.0282208454555286 -0.0162667482786747 -0.0288264400553003 0.1833089 -0.5450636 -0.8181098 95 95 95
-0.0271383366077118 0.0487134575093289 -0.008878820353001 0.07355072 0.9909746 0.1120697 106 106 106
0.0260074744755392 -0.0455812692528876 -0.00954722742616607 -0.0002650559 -0.999639 -0.02686554 150 150 150
-0.0369503232279922 0.0354083352197063 -0.022800315317859 -0.02244376 0.01671892 -0.9996083 238 238 238
-0.0398666100028664 0.042982094108692 0.00571119988340316 -0.9065995 0.384013 0.1749609 30 30 30
0.0321638628779817 -0.0461296448912867 -0.0050529954125538 -0.0044906 -0.9992096 -0.03949746 121 121 121
0.0181124762691554 -0.00572196977561301 -0.026308367595124 -0.0003784767 -0.8394106 -0.5434976 133 133 133
0.0309665901714309 0.0258410691518498 -0.029843823509575 -0.07911884 -0.1813715 -0.9802268 139 139 139
0.0408165565783483 -0.0345680697876598 -0.000518874619485993 0.9727775 -0.209877 -0.09826304 47 47 47
-0.0380328962087366 0.0240863486308316 0.011764653798115 -0.9600682 0.1976208 0.1980281 49 49 49
-0.0372428908710987 -0.0430261842729012 0.0189405826477256 -0.8914195 -0.4463334 -0.07847139 100 100 100
-0.0412518250117808 -0.00961308392806659 -0.0294995707010348 -0.2289845 -0.2491703 -0.9409996 119 119 119
0.00600510929405162 0.022053216050105 -0.0268754038660128 -0.1839908 0.09119539 -0.9786883 134 134 134
-0.0441170423779644 -0.00386051703935952 -0.029639226192168 -0.2799219 -0.07651465 -0.9569688 141 141 141
0.0510317756115084 0.000265772553001087 0.0114159680882147 0.9123651 -0.3952257 -0.106708 43 43 43
-0.0234595877056762 0.00890333749682171 -0.0270740130853735 -0.09257945 0.3320102 -0.9387216 135 135 135
-0.0372012682075504 0.0173137709150584 -0.0253558520353713 0.01848747 0.1859219 -0.9823906 208 208 208
-0.00460446632216982 0.0423192865822433 0.0114473839983397 0.1437918 0.989594 0.005249605 50 50 50
-0.0214478731925256 -0.0030162863115244 -0.0299664076897615 -0.05730479 0.1532317 -0.9865273 152 152 152
-0.0362622836537749 0.0398480825060294 0.0294551271559302 -0.9951914 0.06516743 0.07312551 66 66 66
-0.00623625461598842 0.00731112203142503 -0.027261586092187 0.06613655 0.216393 -0.9740636 116 116 116
-0.0166866167509121 -0.00894765355493021 -0.0309753343795185 0.03336303 -0.1142866 -0.9928874 110 110 110
0.029839556769107 0.0355282371509333 0.00147520277448296 0.1862332 0.9821253 -0.02733413 81 81 81
-0.0385408923586583 0.0474437017306653 -0.00485639069705526 -0.3052114 0.8930311 0.3306682 61 61 61
0.00212946311883377 -0.0139998112699931 -0.0207150194489557 0.02097573 -0.1426064 -0.9895572 122 122 122
0.0130271192430365 0.0381659056026169 -0.00493455854991362 0.1910373 0.9768816 -0.09595378 50 50 50
0.0515943796454033 0.0124062133855685 -0.00860831328189529 0.8936589 -0.3509626 -0.279641 69 69 69
-0.0223669222541543 0.0386867734267393 -0.0247693062918661 -0.1480811 0.02332265 -0.9887002 182 182 182
0.0176316769389697 0.017234552831404 -0.0291149227518512 -0.1558678 0.09848222 -0.9828563 51 51 51
0.0313050534646475 0.0358845953153475 -0.00686165357243287 0.07231162 0.988074 0.1359441 37 37 37
-0.0377522143755966 0.0262874817869929 0.00950695439667906 -0.9674322 0.1197591 0.2230084 70 70 70
0.0280993647429795 -0.0463242866648659 0.0150584448797753 -0.00982906 -0.9999073 -0.009423965 138 138 138
-0.036706615783979 -0.00864907609712406 -0.0303658742992857 -0.1071626 -0.06146174 -0.99234 72 72 72
-0.0351016951834509 -0.00140873054977608 0.0217182356148805 -0.9521837 -0.06920075 0.2975861 44 44 44
-0.00323908131923978 -0.0115267304264761 -0.02176349430107 0.3748253 -0.7311373 -0.5700389 54 54 54
-0.0315023267403782 -0.0454376299386203 0.00342635343120781 -0.1509442 -0.9879771 -0.03342257 131 131 131
-0.0161275625479245 0.0448459171262419 -0.0227775343823477 0.06387904 0.7516031 -0.6565153 166 166 166
-0.0378638549980574 0.0160789675347688 0.0133505049132627 -0.9594042 -0.02627061 0.2808084 56 56 56
-0.010437296373869 -0.0157039545570059 -0.0207960820098307 0.2463995 -0.5550644 -0.7944752 130 130 130
-0.0428755163996362 -0.00852347996933189 -0.0108681732474221 -0.9650845 -0.0466522 0.2577509 67 67 67
0.0410166387577657 -0.026339634958702 -0.0219906178841882 0.9347848 -0.2293351 -0.2712613 65 65 65
0.0475313374519197 0.00515637095623656 -0.00445282953311901 0.8360707 -0.4919356 -0.2428687 109 109 109
0.0414510018799419 -0.0137162808480753 -0.0243973018370031 0.6644282 -0.05197869 -0.7455424 159 159 159
-0.0350563424420633 -0.0453970213036397 0.0274200738445217 -0.4510916 -0.8672577 0.2106669 131 131 131
0.00319398656156866 0.0213040201009391 -0.026287895456565 -0.1274274 0.06026107 -0.9900156 98 98 98
-0.0299961124200421 0.0484609651170267 -0.0081177884430795 0.01898476 0.9901856 0.138463 54 54 54
0.0238468875184212 0.0399441373327249 -0.0274749580699083 0.005878779 0.8425603 -0.53857 118 118 118
0.0236945816085392 -0.046402099995738 0.01333824681951 -0.02801775 -0.9991841 -0.02908922 148 148 148
-0.017110003452331 0.00830080530130495 -0.028001329451212 -0.02565163 0.2288584 -0.9731217 113 113 113
0.0406800496733175 -0.0205913257698846 -0.0247238100076127 0.7788209 -0.07359076 -0.6229144 85 85 85
-0.0236199950165856 0.0451711669449373 0.00894689413081393 0.1612587 0.9714228 0.174165 57 57 57
0.0132359354269838 0.0374600575832114 -0.00944687151083154 0.1703725 0.9848567 0.03210262 56 56 56
-0.0404030824007349 0.0437710874353319 0.00694960267140945 -0.9102254 0.3906913 0.1372954 27 27 27
-0.0333267139820119 0.0196632721591516 -0.0249924269669056 -0.02343412 0.1775024 -0.9838413 244 244 244
-0.0278512875218351 -0.00979523574659757 -0.030443106327798 0.0164118 -0.003711645 -0.9998584 80 80 80
0.0550833969023641 0.0159156572687191 0.00217896249946806 0.908771 -0.3896219 -0.1494323 57 57 57
-0.0401151551255152 -0.0359356899079208 -0.0124059531391655 -0.9349005 -0.3526092 0.04034735 51 51 51
-0.0440541976965143 -0.0181489115662179 -0.00906509394705676 -0.9803768 -0.07994235 0.180196 105 105 105
-0.0157110197959232 -0.00414157751067146 -0.0303369958865898 0.009331432 0.1212966 -0.9925724 90 90 90
0.0380461640575895 -0.0287100561189944 -0.0272716872088319 0.7817557 -0.1334788 -0.6091317 82 82 82
-0.0106956846201696 0.0440696836817935 -0.00541658423596755 0.1532186 0.9783517 0.1391113 52 52 52
0.0433018924605693 -0.013864825125097 -0.0243269786198713 0.8827445 -0.1954405 -0.4272764 119 119 119
0.0131169116807823 0.0396606734303739 0.00136301712694267 0.1567974 0.9874593 0.01840385 45 45 45
0.0116057853855289 0.0385359184621106 -0.0102217355273407 0.2296094 0.9705643 0.07269452 53 53 53
0.0358458988071149 0.00413388813991733 -0.0309306435405337 -0.07802693 -0.002643367 -0.9969478 87 87 87
-0.0389846986031073 -0.0351948339900268 0.0120736970883032 -0.9638857 -0.2570081 -0.0697934 71 71 71
0.0140435076708842 0.0263972265947301 -0.028125528595003 -0.1173286 0.1070899 -0.9873022 233 233 233
0.0435191645971895 -0.0171547200476183 -0.0147424436585588 0.9839038 -0.1458502 -0.1032519 61 61 61
0.021915671583377 0.0268891922107186 -0.0297132334284259 -0.1687132 0.001736072 -0.9856637 131 131 131
-0.0451590374999322 0.0344906047136266 -0.0220073242977455 -0.7212837 0.05538859 -0.6904215 94 94 94
-0.0132096627500349 0.0419311783128151 0.012618729464839 0.05327883 0.9956474 0.07646988 28 28 28
-0.0231583752522069 -0.0175134629439728 -0.0246955237455866 0.193814 -0.7465714 -0.636449 56 56 56
0.0534893027949224 0.0316220305309829 -0.00628470655589339 0.5173083 0.8505751 0.09441413 33 33 33
0.0256635763818602 -0.0344182397225643 -0.0256643411218457 -0.2126655 0.1666177 -0.9628146 80 80 80
-0.0420657200557755 0.0463812459788897 -0.00995428371559096 -0.9342816 0.3518525 -0.05759877 75 75 75
0.0433942311892819 0.0333116809857064 0.0040754917908413 0.1545876 0.9856775 0.06739748 35 35 35
0.0376094420288011 0.0175609822247189 -0.0306168400657385 -0.1345363 0.09012046 -0.986802 58 58 58
0.0153310987241604 0.0146588500186475 -0.0293639977145098 -0.1960396 0.02884201 -0.9801717 77 77 77
-0.0397316477224126 0.0110779088914099 0.0109610234859665 -0.9547769 0.01956014 0.2966791 63 63 63
-0.0117308572198975 -0.0145489620085872 -0.0253801436146001 0.2856176 -0.8436221 -0.4546695 71 71 71
-0.0396938202199109 0.00426657578313683 -0.000590031283262932 -0.9344201 -0.2300726 0.2718927 85 85 85
-0.00377968236192117 0.0157094664244675 -0.0261301118236471 -0.06570395 0.1088551 -0.9918838 236 236 236
-0.0464292685410332 0.00418065416410163 -0.0293863638759578 -0.6019308 0.2810176 -0.747468 124 124 124
-0.0208669686927785 -0.0185810951841388 -0.022779024232797 0.1908822 -0.5951725 -0.7805983 136 136 136
-0.020293332762523 0.0197403976164576 -0.0244275723533729 -0.04693179 0.1056789 -0.9932922 99 99 99
0.0352714132174863 -0.00291883280213101 -0.0290224220708683 0.003304987 -0.7741465 -0.6329979 76 76 76
-0.0402262560086792 -0.0188473712270392 -0.0211788248131221 -0.2127629 -0.5766962 -0.788767 131 131 131
-0.0150570231494471 -0.0457368565298022 0.01052156372438 -0.0250974 -0.9981878 -0.05469196 126 126 126
0.022853155399897 -0.0361322924846212 -0.025559050383701 -0.2479732 0.1637364 -0.9548297 102 102 102
-0.0376485145213381 -0.0205476256797692 0.00586097642621428 -0.9973242 0.05396213 -0.04931981 62 62 62
0.0489662256095622 -0.00269494765158562 0.000319454799526192 0.9127406 -0.2790261 -0.2984108 78 78 78
0.0228347107659508 -0.0083658517876648 -0.021984198683811 0.0255948 -0.352424 -0.9354904 103 103 103
0.048055793553379 0.0112232173410189 -0.0243946774869599 0.8929504 -0.3886115 -0.2272018 70 70 70
-0.0333314595238401 -0.0193554150521422 0.0283312180488142 -0.9375635 -0.0403854 0.3454614 26 26 26
0.0267867600699714 -0.00405409996910322 -0.0281694057563287 0.04839679 -0.8104359 -0.5838248 107 107 107
0.0307673283932959 -0.0302065567066827 -0.0260246270436567 -0.2724624 0.1989976 -0.9413629 98 98 98
-0.0100279963130574 -0.0461054554127576 0.00582962581023852 -0.02293235 -0.9984561 -0.05059099 171 171 171
-0.00272923028666261 0.0174477239208106 -0.0267615135065427 -0.1079641 0.0440507 -0.9931784 227 227 227
0.0322061482602134 -0.0455317530226114 -0.020326906200286 0.1097464 -0.978748 -0.1732285 173 173 173
0.0179643625454036 -0.00509333056606076 -0.0271108073838979 0.03696987 -0.791012 -0.6106826 123 123 123
-0.0371730389818048 -0.0376263093613158 0.00327095608051223 -0.9525145 -0.2990678 0.05722374 59 59 59
-0.00124595182573817 0.0421221383206691 0.0293688879513637 0.1384758 0.9903279 -0.008664507 31 31 31
0.0116788052616783 -0.0379657053463529 -0.0243163107900306 0.05390353 0.0487904 -0.9973534 93 93 93
0.0500911424239017 0.0161759085876201 -0.0258463419941564 0.9257601 -0.1783399 -0.3334113 99 99 99
-0.0368696783007634 0.00495400679726554 0.0182989402229715 -0.969344 -0.07272215 0.2346994 49 49 49
-0.00533110604431486 0.0253211337128778 -0.0254851578389343 -0.1330775 0.01366858 -0.9910114 65 65 65
0.0184416701219774 -0.0271254692426972 -0.0224297777534888 -0.08126562 0.1722725 -0.9816914 69 69 69
-0.0271720400438502 -0.045231212532798 0.00580285025054025 0.003113706 -0.9997458 -0.02232966 121 121 121
-0.000994547750549746 -0.00883420354055398 -0.0286377068861714 0.2431693 -0.6380756 -0.7305671 90 90 90
0.0505069568123995 0.0236874352719505 -0.0261161804443558 0.9502998 -0.1323033 -0.2818265 79 79 79
-0.0301213026217118 0.0429490725069499 0.0256546897167344 0.02857589 0.9995651 -0.007282395 32 32 32
0.0523269930057906 0.0327166122824356 -0.0231805778926424 0.9701868 0.2004026 -0.1362955 90 90 90
-0.0231332780211044 0.046135103108742 -0.0229438509732557 0.0007362532 0.5721676 -0.8201364 153 153 153
0.0508814831580213 0.00567567463869678 0.00154250145186721 0.8300021 -0.4644844 -0.3087892 70 70 70
-0.0421847885105755 0.0456409666595672 -0.013841341409695 -0.8965932 0.4404451 -0.04613858 89 89 89
-0.0359567148631887 0.0318611470286554 0.0201747004437029 -0.9542821 -0.1417893 0.2631378 73 73 73
-0.0361512900248071 -0.0335751895796383 0.026529167191119 -0.9710146 0.08067703 0.2249928 56 56 56
0.0377911344207376 -0.0465926333475402 0.0128597634707404 0.04789716 -0.9984135 -0.02960241 120 120 120
-0.0251164221760083 0.0169531839638428 -0.0252348713206782 0.05072923 0.109464 -0.9926954 126 126 126
0.0291032978562651 -0.00448925591488636 -0.0265740499430707 0.08090644 -0.8843426 -0.4597741 118 118 118
-0.0107247497492451 0.029008861767911 -0.0254938911434256 -0.09480792 -0.04859539 -0.9943088 102 102 102
0.0549281320899098 0.0175802685684474 -0.00275678079722144 0.8986405 -0.3408046 -0.2762201 53 53 53
-0.0363343552250035 -0.0439526299601061 0.0118608752206698 -0.7317827 -0.6797122 -0.04985332 105 105 105
-0.0373937669022 -0.000718788390790426 0.0118000544557922 -0.9876289 -0.0215168 0.1553264 71 71 71
-0.0140811120044324 0.0139980591579396 -0.0261697655624968 -0.004225438 0.259937 -0.9656163 226 226 226
-0.0400392862610093 0.0497111202432359 -0.012841904143943 -0.4863704 0.8581065 -0.1646121 118 118 118
0.0420731677035289 0.0276333388049816 -0.031829572563923 -0.1461502 -0.02491783 -0.9889485 54 54 54
0.0535569102424527 0.0194862114408252 -0.00842622872057761 0.8962184 -0.3230471 -0.3040284 60 60 60
-0.0376461225029632 -0.0102620609472013 0.0148437728835521 -0.9927489 0.08962909 0.08010121 62 62 62
0.040647689212888 -0.0331737242801688 -0.000194767687596437 0.9698934 -0.2230332 -0.09779045 89 89 89
0.044239702131007 -0.0200470433837774 -0.00168656717974783 0.9755363 -0.1798711 -0.1263931 103 103 103
-0.0118206232692648 0.00548096709908963 -0.0286664321361828 0.05114919 0.2352773 -0.9705815 151 151 151
0.0374444080221517 -0.0467119951129942 0.0191804218314524 0.2950525 -0.921402 0.2529077 116 116 116
-0.0398474357915708 -0.0247678186596736 0.0100917458342989 -0.9912514 0.1313144 0.01330919 83 83 83
-0.0360133061664125 -0.0453664380241354 0.0237337271900103 -0.4397205 -0.8920898 -0.104027 113 113 113
-0.0111898169021742 -0.0164234858838042 -0.0212189115222122 0.2582045 -0.5371304 -0.8030077 127 127 127
-0.0140694097163412 -0.0218000680656403 -0.0209199177182603 0.09685202 -0.02897824 -0.9948769 99 99 99
-0.0153473948747826 -0.0458288848516892 0.0177411640574377 -0.01968843 -0.9991587 -0.03597474 140 140 140
0.0249640489834213 -0.019926804434621 -0.0221429672482861 -0.2113525 0.1092446 -0.9712856 103 103 103
-0.0445920946036122 0.00534723444419383 -0.0209474748057653 -0.9746844 -0.08268183 0.2077357 62 62 62
-0.0163885475909671 -0.0456323680305093 0.0133847923147975 -0.05103922 -0.9975766 -0.04728521 120 120 120
-0.0268530742899409 -0.045630502999386 0.0223754170638953 -0.01533011 -0.9997914 -0.01349623 134 134 134
0.0193452433104546 0.0237007437511179 -0.0288517700897113 -0.1397827 0.06148735 -0.9882713 92 92 92
0.0459190405105776 -0.0185521606423926 0.00853260863348329 0.9288478 -0.3024853 -0.2138792 64 64 64
0.001380493113043 -0.0448952026083909 -0.00929116003593297 -0.02359567 -0.999355 -0.02707063 103 103 103
0.0237048228110446 -0.0450658893871081 -0.023367534181119 -0.03104117 -0.9537211 -0.2990862 178 178 178
-0.0356935129661682 -0.0429574869063063 0.00618525417211938 -0.7853535 -0.6102969 -0.1037183 93 93 93
0.0520595519172198 0.009566224220801 -0.000439820632978732 0.8593589 -0.4326778 -0.2725658 74 74 74
-0.00464079922408533 -0.0443157509463514 -0.0163434046552976 -0.01963578 -0.9995626 -0.02211442 161 161 161
-0.0158852763771491 0.0432851798054281 0.011336505764229 0.09008885 0.9907297 0.1016785 25 25 25
-0.00461306015166452 0.0446765339923219 -0.0227518817985138 0.03117369 0.7687208 -0.6388243 124 124 124
-0.0114469122713561 0.0126661479403392 -0.0265970973519961 0.02473236 0.2444449 -0.9693477 236 236 236
-0.00632181400824106 0.0431247387623308 0.0190726372016791 0.05948618 0.9980272 -0.02007609 67 67 67
-0.0428120464420585 0.0226337903036302 -0.00394496047079892 -0.9466981 0.01034645 0.3219558 54 54 54
-0.0197497398116353 -0.0456741227953894 0.0135828424024447 -0.04720585 -0.9983656 -0.03221458 119 119 119
0.0235636843117304 0.0391904024936005 -0.0210209251868582 0.1109173 0.9784973 0.1738979 25 25 25
0.0160980695768886 -0.0464680692361212 0.017115711423228 -0.02831552 -0.9992864 -0.02500097 114 114 114
-0.0296522693350592 -0.0446372512439381 -0.00760859872023698 -0.1069749 -0.993409 -0.04116897 168 168 168
0.0290735521423873 -0.0459479462057917 -0.00396656891564348 -0.03895923 -0.9988751 -0.02703135 133 133 133
-0.0350885635401916 -0.00978945497367656 0.0128647160823546 -0.9891036 0.1103778 0.09742136 87 87 87
-0.0381826230913691 0.0104048855254413 0.0112703636940416 -0.9462948 0.005292341 0.3232617 74 74 74
0.0104542142623207 -0.0156813063463941 -0.0212673268963069 -0.1109767 0.0911402 -0.9896351 86 86 86
-0.0328325265832676 -0.000408377126390302 0.0280920988953373 -0.9278047 -0.03624574 0.3713013 33 33 33
-0.0373783685206268 0.0273570054103216 0.00950393404185704 -0.9714166 0.1015581 0.2145595 84 84 84
-0.00862443563930815 0.0415291915902198 -0.0237188902718838 0.1297683 0.4646236 -0.8759481 115 115 115
-0.0190256947449372 0.011643740534474 -0.0274253483214142 -0.1002209 0.3248742 -0.9404321 92 92 92
0.019435643924725 0.0384523680259146 0.0200134438762536 0.2126836 0.9763507 0.03879461 19 19 19
-0.0425742531493265 -0.0159998215922477 -0.00501101702082027 -0.9647064 -0.03794296 0.2605802 56 56 56
-0.00893885851217124 -0.0407154560693774 -0.02409419085142 -0.1324596 -0.2641417 -0.9553448 115 115 115
-0.0404705320436785 -0.00983824688281731 0.00374809813144331 -0.9477022 -0.05253062 0.3148032 37 37 37
0.0393216628926962 -0.0370303802820076 -0.00596443081889883 0.9755936 -0.1787522 -0.1275332 29 29 29
0.0132767764807287 -0.0454466568415173 -0.0154778512319585 -0.01160041 -0.9988616 -0.04627113 162 162 162
-0.0302335293165317 0.0404863962534339 -0.0232507219749236 -0.1205221 0.03976306 -0.991914 230 230 230
0.0408829891263429 -0.0233922174360113 -0.0198289289709167 0.97167 -0.1679077 -0.1663264 86 86 86
-0.042103176685661 0.0387544811217684 -0.00718689874566739 -0.998565 0.03564212 0.03996909 64 64 64
-0.0314090056326235 -0.0446212241486772 0.00226677759888796 -0.1432624 -0.9894317 -0.02237932 121 121 121
-0.0321830389858044 0.0213160513952269 -0.0244696190017472 -0.02220291 0.2076318 -0.977955 88 88 88
-0.0135370764892166 -0.0340476564589518 -0.0241826917474189 -0.06912841 0.05639744 -0.9960123 137 137 137
0.015732877783118 -0.0448101145613318 -0.023653945632611 -0.1986151 -0.8671854 -0.4566635 197 197 197
0.0190083384096218 -0.0179068294303177 -0.0217009668686368 -0.006791385 0.06049659 -0.9981453 75 75 75
-0.0353243453130534 0.0170828049840399 0.0238170340304691 -0.9676084 0.07135873 0.242161 68 68 68
0.0013106011665931 0.0412214469990844 0.0245977129890104 0.1960537 0.9804077 -0.0190729 41 41 41
-0.0359013507217458 0.03678119708924 0.0322319216356495 -0.9936419 -0.08932605 0.06853297 77 77 77
0.0483434741016664 0.00987451573089571 -0.0223771563939744 0.8902642 -0.434858 -0.1353815 45 45 45
0.00648145622753193 0.0403407533209887 -0.00156454447962337 0.1490155 0.9881545 0.03667649 25 25 25
-0.0368448602279452 -0.0202370361052184 0.0206494632859415 -0.9399331 0.1254618 0.3174667 49 49 49
-0.0419444463743832 -0.0258184486773083 -0.0175234860972499 -0.7363686 -0.2390915 -0.632927 114 114 114
0.015178460300449 0.0384596999323465 -0.0118503619741766 0.1418773 0.9827579 0.1185656 55 55 55
-0.0148422408809752 0.0424341495073328 -0.0242883418068991 0.0225313 0.4573015 -0.8890262 67 67 67
-0.0411022754806207 -0.0325695576684024 -0.0113339363563257 -0.9690321 -0.1815928 0.1673346 42 42 42
-0.0418558186696505 -0.00136799494058693 -0.0302721109571877 -0.07027522 0.08681165 -0.993743 158 158 158
-0.0401123841263764 -0.0229134444212198 -0.00425351180457592 -0.9520105 -0.138455 0.2729582 95 95 95
-0.0352388655138955 0.0277171098944227 0.0266152042616067 -0.9844301 -0.1047494 -0.1411559 127 127 127
0.0396369595835715 0.0295607494362566 -0.0311557270832632 -0.1529767 0.02944908 -0.9877909 95 95 95
-0.0127608222708882 -0.0449984577430833 -0.0217208506100032 -0.02112219 -0.884102 -0.4668164 178 178 178
-0.00811494738814544 0.0315028639418649 -0.0256241121783489 -0.03031865 0.03238611 -0.9990155 65 65 65
-0.0414862104230784 0.0167892741348461 0.0069368464031492 -0.9864065 0.06763425 0.1497593 35 35 35
-0.0429943295902571 0.0265819374622336 -0.0234926061154504 -0.3831471 0.1882328 -0.9043046 108 108 108
-0.000518109063379901 0.0352654169537248 -0.0255088261274454 -0.1242349 -0.001034474 -0.9922523 238 238 238
-0.0423872180462734 0.0290961424910241 0.000443329189695169 -0.9364951 0.005445752 0.3506384 33 33 33
0.0192419543866376 0.0248830142924357 -0.0287589796007604 -0.1640309 0.05813241 -0.9847409 77 77 77
0.0466965159425401 0.0142691740261502 -0.0285127882955618 0.8017017 -0.2360684 -0.5491322 75 75 75
-0.0414737955337598 0.00791359854385343 -0.0278830313822024 -0.2905196 0.3017356 -0.9080495 67 67 67
-0.0215030530334657 0.0434452167814188 0.00969893389288981 0.1020741 0.9841942 0.144716 68 68 68
0.00663970636810074 -0.0457000262089187 0.0117814327590443 -0.01388377 -0.9996006 -0.0246131 123 123 123
0.01609105631006 0.0264781253786412 -0.0282955432020698 -0.1461206 0.1134927 -0.982735 143 143 143
-0.041995692991331 -0.0250578445739529 -0.014377024779215 -0.98831 -0.13104 -0.07792141 36 36 36
