ply
format ascii 1.0
comment File exported by Rhinoceros Version 7.0
element vertex 463
property float x
property float y
property float z
property float nx
property float ny
property float nz
property uchar red
property uchar green
property uchar blue
end_header
-0.047692381284153 0.021943103917658 0.0249135674008815 -0.9618783 -0.0486666 0.2691128 173 174 176
-0.0421996275296626 -0.0431035015870009 0.0018930731909608 -0.6230861 -0.7113799 0.3251188 204 206 198
-0.028310205791793 0.0123426355918952 0.0262083741120821 0.1234348 -0.2774334 0.9527826 216 173 204
-0.0476326162413836 0.0150357429844206 0.023049352971155 -0.9921342 -0.08111034 0.09534609 181 182 186
-0.0456933832678275 0.00094635969762491 0.00909567262199851 -0.9998748 -0.01011391 -0.01216568 167 172 169
0.0117427816995954 0.0151677673794611 -0.0057077768976001 0.09423027 0.3920116 -0.9151216 196 198 196
0.0131151198672901 0.0137308263280135 0.0239177029193997 0.02989355 -0.3258112 0.9449621 229 199 222
-0.0133506492353808 0.0314898395580879 0.0095682633038203 -0.04185112 0.9984093 0.0377789 152 162 157
0.0329163740641252 -0.0135322735082545 -0.000211969585546756 -0.6309512 0.452305 -0.6303338 205 205 200
-0.0201262959338986 0.00592603744540887 0.023655127017308 0.01004195 -0.1914397 0.981453 193 194 199
-0.00389968260619344 0.0221315654239815 0.0188188994937659 -0.2409915 0.3167403 -0.9173869 209 206 206
-0.0353577156712674 0.00758711238524912 0.0245238673457898 0.01991618 -0.341003 0.9398512 227 186 220
0.00775489819718822 -0.0208104699740465 0.0107439455755804 0.1862571 -0.3512957 0.9175509 187 189 183
-0.0406126264659354 0.0268826867691248 0.0293424675056582 -0.412221 0.01210561 0.9110034 180 181 182
0.0232831342554707 0.017237444297343 0.0109627441496633 0.3128222 0.224942 -0.9227911 206 205 208
-0.0266499994704188 0.015954149659044 0.026473506076833 0.1421146 -0.2291798 0.9629538 209 195 207
-0.0258817879747129 -0.0180329581607246 0.00526635496200351 -0.01927292 0.7940923 -0.6074916 210 211 211
-0.00664904746293593 -0.000996535848336588 0.00122996869604947 -0.4638681 0.8477899 0.2570578 196 197 196
-0.0443488577674678 0.00124841329705294 0.0217226428229581 -0.4837601 -0.4105468 0.7729344 159 170 168
0.000977106981662423 0.0126530792901609 0.018631971314003 -0.3298923 0.9144306 0.2344947 194 196 200
0.00862963056843791 0.018948593720395 0.0277654359784007 -0.03007587 -0.2272406 0.9733741 180 183 187
-0.0478698135346043 0.026126798377451 0.0251305193872647 -0.91745 0.3190129 0.2377318 183 189 189
0.0374830421415362 -0.0263743926703112 -0.00891416108784543 -0.1138601 -0.5107659 -0.8521467 206 206 189
-0.0144028546289621 -0.0452912090188931 -0.00236008133223678 0.04859586 -0.987556 0.1495711 178 179 142
-0.0207682565794696 0.0326309246118656 0.00395789026567875 0.1299648 0.9896306 0.06115858 166 169 170
-0.00188190003106459 0.00687575431825549 -0.000472826809515436 0.4173252 0.859976 0.2937362 194 196 191
0.047453596719528 0.01858777040154 0.0164754485945061 0.9292687 -0.06741941 0.3632001 140 141 145
0.0223393528597626 0.0246849662869116 0.0159243857509491 -0.0766865 0.1656543 -0.9831977 253 189 234
0.0321424118473561 -0.0252345432843867 0.00694449856309601 0.07997604 -0.4159712 0.9058542 196 196 192
-0.0465958948847551 -0.000260424864049202 0.016706403614367 -0.9991623 -0.01261012 -0.03893255 179 183 184
-0.00388023405575932 0.0285398328287531 0.0266608259895313 0.1560959 0.8783048 0.4519012 160 167 173
0.0297297971937687 -0.0111087637643733 -0.0116368330233132 -0.06385227 0.063692 -0.9959248 210 216 201
0.0392580807087499 0.0163653630164375 0.0231174978943737 0.07953617 -0.09700487 0.9921008 190 195 199
-0.0449259750533739 -0.00621544992132328 0.0104130711146646 -0.9987701 0.04004012 -0.02924274 145 159 152
0.0220908571649854 -0.0364959329129151 0.00347656458823817 0.123389 -0.4642124 0.8770872 191 193 189
-0.0165201121979601 0.00650073756158542 0.0240224787978476 0.03327441 -0.2363572 0.9710963 242 188 231
0.0300893890549581 -0.0040126704720902 -0.0118790007332321 -0.02738112 0.1674621 -0.9854982 209 212 200
-0.00922403823606932 0.00535109005204726 -0.00555902385010157 0.0002184736 0.1290249 -0.9916413 196 200 198
0.0232590140116729 0.0195944789001703 0.0164618650051221 -0.1798006 0.02877417 -0.9832821 252 192 235
0.0209170773116338 -0.00270958102614727 0.0195257802843253 0.1237625 -0.4155826 0.901096 187 187 188
0.00655722375171153 -0.00736925853262127 0.0189474346798943 0.02629251 -0.5880256 0.8084149 199 174 192
-0.0109747292383766 0.00847170739834779 -0.0083254151860763 0.02649976 -0.1355426 -0.9904171 185 188 177
0.00511411068807432 -0.0283709673781658 0.00839943717047456 0.04718181 -0.3542617 0.9339553 182 184 180
-0.0207813673265802 0.0213888863944319 0.0279027438216301 -0.1541667 -0.2751033 0.9489735 185 188 183
-0.0283749628406875 -0.0454056924350609 -0.000913784911715926 0.04538566 -0.9899402 0.1340098 189 190 179
-0.0283187877803863 0.00076685965938561 0.0221994173653258 -0.0561662 -0.3132546 0.9480068 179 183 185
0.000296361205053719 0.0325333105059395 0.00164743557791161 -0.03591547 0.9951791 0.09126113 156 155 160
-0.0110446322332931 -0.00322425589803343 -0.00481289300854038 -0.2856997 0.954527 -0.0851702 196 196 198
-0.00965449845848632 0.0183538912791734 0.0273962978967376 -0.09330099 -0.3777337 0.9212015 209 179 204
-0.0444948810894688 0.00830876177632089 -0.00307863658229302 -0.964478 -0.2433782 -0.1027101 166 174 173
-0.0125419391097636 -0.0110073639350925 0.00553724383751683 0.1387342 0.8487998 0.5101879 194 199 194
-0.00141823912049777 0.00958194604178941 0.0252228714026943 -0.0004253603 -0.2954177 0.9553681 213 186 208
0.0131312552284646 -0.00261389477258267 0.0121583711650035 0.1347877 0.6822506 0.7185864 247 197 233
-0.0249836215055597 0.00595607242413487 0.023877227017624 -0.01171359 -0.2858228 0.9582109 176 183 181
-0.0354437278803883 -0.00104757536220146 0.0213854674925463 0.03614042 -0.3084471 0.9505547 224 182 215
-0.042129662633033 -0.0288120131756029 0.00873035688976015 -0.3606731 -0.3181709 0.8767452 183 191 188
-0.0463026135813271 -0.00215525759024549 0.0170291407203583 -0.9963373 -0.04683302 0.07154444 177 180 181
-0.0255562448588849 0.0144767592887585 0.0259069750785957 0.1319998 -0.2382281 0.9621972 226 187 216
-0.0468951351195859 0.0308686849729973 0.0152935295805633 -0.7158549 0.6917474 0.09506483 192 194 196
-0.0464778850494743 0.0165751244974758 0.0050105393170104 -0.9956015 -0.06513827 -0.06733947 153 159 158
-0.0071454146192087 -0.004275962477305 0.0194879830167544 -0.02582349 -0.3028171 0.9526988 228 183 218
-0.0458748636816166 0.00672873558238962 0.0150954071856467 -0.9904115 -0.04621487 -0.1301892 170 176 174
-0.0123646632255907 0.00156322856572011 0.0214182255283654 0.1437453 -0.3111577 0.9394244 194 179 193
-0.0238736368718444 -0.0275494389466885 0.00914687984376078 0.0122819 -0.3767731 0.9262242 178 183 174
-0.0455899894729084 -0.0408109125636331 -0.00642248119612157 -0.9899815 -0.1197815 -0.07475981 192 196 194
-0.0450038233541741 -0.0234913881092904 0.0102090389782171 -0.8840408 -0.2889222 0.3674178 179 186 179
-0.0277492066949629 -0.0454955862619292 -0.00260997406426025 0.01482699 -0.9990594 0.04074871 193 192 181
-0.0472821048414183 0.0255740559932197 0.0288524270337819 -0.5069296 0.02433841 0.8616438 185 189 192
0.0159093012607836 0.0295146378907795 0.0161151283156393 0.1006292 0.9707801 0.2178527 154 160 156
-0.0292504086236263 -0.00981191956276528 0.000724101409475125 0.7451928 0.5524095 0.3735392 188 188 190
-0.0458888377375077 -0.00909120602616431 0.0110208540720652 -0.9906284 0.0412938 -0.1301932 191 193 193
-0.0100694837339539 -0.0155274484163944 0.0147230063662492 -0.0044362 -0.3993942 0.9167686 191 194 196
-0.015496517797241 0.00362975427613621 -0.00295278905313787 0.5652185 0.614182 0.5507345 173 180 162
0.0141543393309416 -0.00869252230750039 0.017119602955488 0.04145099 -0.5902862 0.806129 205 176 197
-0.00406176746053033 0.0101938343630885 0.0149004304842056 0.5111746 0.7728205 -0.3760972 198 202 207
-0.0466570475420782 0.0151436255135352 0.00547629212726877 -0.9958893 -0.05720345 -0.07023027 172 177 177
0.0304034840470597 -0.0338064498134482 0.00369852191295927 0.1490601 -0.4472808 0.8818849 188 188 187
-0.0468350588593656 -0.00485530468647422 0.020026704509065 -0.8075511 -0.1128725 0.5788963 175 182 188
-0.0233373802436125 -0.0156773425648581 -0.0107865997390272 0.1157796 0.08997519 -0.9891914 178 183 177
-0.0115718286341673 0.0136361950499779 0.0182079331276929 0.931927 0.2650047 -0.2475573 197 201 201
-0.00222367151795355 0.0100113841241626 0.0185441940845085 0.2215964 0.9538535 0.202629 202 204 208
-0.0475971142937028 0.0265184631826678 -0.00655795927890432 -0.9634336 -0.2593881 -0.06718285 176 180 174
-0.0277913664408604 -0.00568995783248738 0.019631398853247 0.04883879 -0.3711624 0.9272827 249 194 236
0.00166841361040104 -0.0105034407430333 -0.00338511312574949 0.7543102 -0.3854247 -0.5314733 217 221 218
-0.0146594362702033 -0.00578717423177755 0.0191034162969801 0.0447987 -0.3686408 0.9284918 186 190 190
-0.0305965863269999 0.022639155940285 0.0288030444250705 0.20402 -0.2685006 0.9414262 173 180 176
-0.0456263482364965 -0.0136561492847053 0.0160716025921125 -0.7120795 -0.3773247 0.5920886 185 188 186
0.0141420519908686 -0.0195513217227873 0.0115474606397946 -0.06352653 -0.54616 0.8352686 173 179 165
-0.0448980240476953 -0.00310166873326889 0.0106193344808759 -0.9990508 -0.02240048 -0.03736008 161 170 165
-0.021254274889948 0.0125196846346073 0.0247830471502754 0.04598646 -0.2642367 0.9633609 223 188 214
-0.0132934228048438 0.00436767582645547 0.00327768378166973 0.5439737 -0.1507023 0.8254583 213 195 209
-0.0108825164816768 -0.0430899575392456 0.00348958855363282 0.09035601 -0.7485301 0.6569158 194 196 188
-0.0433492163208362 0.0293728853957321 0.0248201005607691 -0.2631994 0.8792 0.3971566 144 156 154
-0.0111536934817531 -0.00394867771150909 -0.00505463576607496 -0.633419 0.770952 -0.06643222 193 196 196
0.0414685812727011 0.00235900786171472 -0.00503323827249236 0.9820661 0.1826948 -0.04657102 198 195 186
0.0201477637852252 0.0284429593365114 0.0204397262859081 0.009933291 0.9830378 -0.1831339 129 135 121
0.017454555535954 0.0239594555915155 0.0183529840042923 0.07869572 0.7065825 -0.7032412 198 196 197
0.0478845979477709 0.00445278391507509 0.0134976560781803 0.997428 -0.07040637 -0.01342999 165 164 161
-0.0262014244090678 -0.0418562131575424 0.00539034601914004 0.07826276 -0.5441584 0.8353242 201 204 199
0.028333676805355 0.0133193240667544 0.0228512821687371 0.111526 -0.2245568 0.9680579 235 179 222
-0.0167559805712572 -0.0111052555921409 0.0168241268700292 0.07653335 -0.3788431 0.9222909 187 188 189
-0.0190549148887831 -0.0391164347551407 -0.0040259628144417 -0.3965745 -0.3685517 -0.8407724 209 209 192
-0.0400006765893546 -0.0243732755252091 0.00212982484083454 -0.8200766 -0.1986966 -0.5366507 191 195 192
-0.00991760275865317 0.00622556796157758 0.00409033796563735 0.1574939 -0.5153429 -0.8423879 251 196 238
-0.0395345035413877 0.00331638825579705 0.0231318048925217 -0.03018505 -0.3023422 0.9527214 220 179 212
0.0150136987961447 0.0132380719177418 -0.00480192644947294 0.5748067 0.4387489 -0.6907218 192 197 186
0.0244817185495732 0.0162053998507524 0.00221057041635161 0.6666471 0.3608674 0.6521934 241 207 229
0.0470136459510218 0.0238628654502873 0.0110872019353989 0.9867129 0.1437397 -0.07574043 139 139 130
0.0372978787939695 0.00552853143432164 -0.00512455048125818 0.2225201 0.4865701 0.844828 198 199 188
-0.0335090438580408 -0.0429070370623994 0.00500835039529607 0.01999517 -0.6071885 0.7943062 190 191 186
-0.0371894140711468 -0.0300020154866015 0.00929563619054305 -0.005859518 -0.3241513 0.9459871 169 172 173
-0.0267064316039896 -0.0122898907811624 0.0169169672623964 0.05678356 -0.410371 0.910149 174 177 174
0.00581668269001923 0.00547978744333766 0.0234389283061365 0.04122075 -0.2997645 0.9531223 228 179 215
-0.0452581351169377 0.0312172020457292 0.0132939100499365 -0.5381564 0.8420727 0.03607243 197 194 201
-0.0452205523225304 -0.0132791387679616 0.00623462173959 -0.982415 -0.05143204 -0.1794868 181 183 184
0.0101862631684271 -0.00976871374355659 0.00393490870136318 -0.2326644 -0.5002787 -0.8340195 196 198 193
-0.00409548961157191 -0.00385738500729849 0.00170840353344784 0.4932869 0.8345124 -0.2454731 197 197 196
0.0144320801685822 0.0289000577368298 0.0177864173706236 0.109984 0.9671176 0.2293185 170 170 171
-0.0369733073535434 0.0232213576369972 -0.00793737055375271 0.03392483 0.3117902 -0.9495451 166 174 168
-0.0296466255406778 0.0156912246494965 0.0270367431275533 0.1450692 -0.2752035 0.9503778 209 198 207
-0.0122182527691261 -0.0311854949587583 -0.00585929532180585 0.2153306 0.6884263 -0.6926052 206 208 194
0.0483313439028519 0.0278952415117473 0.0179047113823328 0.898281 0.425772 0.1086711 197 199 201
0.0444015867896728 -0.0145959678797484 0.0115715900227968 0.6703805 -0.3721368 0.6419535 184 186 182
-0.0261927999514684 -0.0348239423958161 -0.0061886759444304 -0.2515218 -0.2029211 -0.9463402 198 200 179
-0.0324315837734499 0.021551877300952 0.0291804125098881 0.1362794 -0.2064391 0.9689225 182 185 187
-0.0422828882890272 0.00285213169375131 0.0229212482633644 -0.1555832 -0.3158914 0.9359522 165 167 172
-0.00685864696806782 -0.0031348089992761 0.0100011167873356 0.249095 0.9554042 -0.1586014 240 200 228
0.0302279690792753 0.0257572970165476 0.0255687532786048 0.1740662 0.4129596 0.8939605 176 175 174
0.0279134677741404 0.0189442911335673 -0.00352681527475895 0.561745 0.6832477 0.4664924 225 204 220
-0.0445283082228891 -0.0177750095559949 0.0143513091512904 -0.4993047 -0.5070868 0.7025368 180 182 185
-0.0452347367472907 0.00119652874663279 0.00492877212056728 -0.9883309 -0.08005896 -0.1295862 170 175 174
-0.0449579167776013 0.00701932214155299 0.000942844286708377 -0.9699775 -0.1162903 -0.2135888 166 170 167
-0.0458617812527153 0.00892004624088394 0.0125129278601513 -0.9960757 -0.07883326 -0.04023026 180 183 186
0.00897917472840382 0.0222910555714996 0.0288324615076691 0.09614778 -0.04281097 0.994446 174 178 177
0.00739441057856682 0.0292581037825507 0.0196440369769801 0.004221362 0.9811206 0.1933505 150 154 158
0.0185075003551134 4.17776249401758E-05 0.00147178023527827 0.7399074 0.6627324 0.1154246 194 197 187
-0.0255299155677002 -0.00286387611017835 0.0207975227081553 -0.02332581 -0.3736107 0.9272923 197 184 197
0.00544305840221782 -0.0173836112896119 0.0126789135098537 0.1178115 -0.4689425 0.8753362 189 191 188
-0.0151389984989279 -0.00784075104337223 -0.00825483980576591 -0.3168291 0.04323971 -0.9474965 188 188 184
-0.0142680861584386 0.0299091236105433 0.0207586961094265 -0.001260875 0.987319 0.1587437 167 169 173
0.00639216260743192 0.0233226643569605 -0.00291921801186396 0.02805161 0.3441873 -0.9384819 252 198 238
-0.00337072520799953 -0.00826586335898594 0.0181412503043172 -0.01171826 -0.397148 0.9176798 193 194 195
-0.00898478362520194 -0.00177126575715181 -0.000501376416340626 -0.525796 0.8439827 0.10598 204 208 203
-0.0212376208185185 0.0152553151810423 0.0258056841432829 0.01214398 -0.3141405 0.9492989 216 186 210
-0.0438360417557329 -0.00721799140465273 -0.000228660160820654 -0.9950973 0.01946027 -0.0969675 175 186 182
0.0197974268566403 -0.0128602201057773 -0.00881181835872177 -0.4721946 0.05492669 -0.8797814 205 206 197
0.00383093377531485 0.0264719319797504 0.00902945213889877 -0.7178187 0.6961011 -0.01339958 247 198 238
-0.0101934535642034 0.0279747107551318 0.0288434625540377 0.006490221 0.644946 0.7642006 171 178 174
-0.0444640561013665 -0.00871884952284629 -0.00903932016053752 -0.9895129 0.1045358 0.09968247 173 180 180
0.000787198804105715 -0.0269383714006733 0.00900318637862954 -0.05866153 -0.4328524 0.8995541 170 172 168
-0.0293384604003237 0.00573024582456128 0.00589468956820802 0.9527967 0.2924312 0.08162393 188 190 185
-0.0105013894245092 0.00887926120013893 0.00266507397915985 -0.2774113 0.4544016 -0.8465 231 197 222
0.0261649691936425 -0.00591087199427942 -0.00630312400247365 0.1538654 0.9708796 -0.1836255 215 214 211
0.0379269889780214 -0.0411320523380488 -0.00556092239725095 0.2579655 -0.9139666 0.3132392 187 187 181
-0.0135742043501443 -0.0406611945725066 0.00531865128769521 0.07644858 -0.399014 0.9137524 192 194 197
-0.00983046625277217 -0.00330047092494767 -0.0108430649972557 0.2553838 0.2844314 -0.9240552 203 204 201
0.0129438252247003 0.0206012315567161 0.0103490220721124 0.4938501 0.1539107 0.8558175 201 206 201
-0.0262558715224317 0.0130449460995985 -0.00756890765823126 0.1304135 -0.629124 -0.7662867 160 170 162
0.0359212278011998 0.0248783233772017 0.0238696947588832 0.1300548 0.3347334 0.9332949 191 188 189
0.0138100642996257 -0.00628983661132332 -0.00439539188405008 0.02505638 -0.6061602 -0.7949478 206 207 204
-0.00288727639242325 0.0140073786199506 0.0266674331955932 0.04437498 -0.2563195 0.965573 220 178 211
-0.00226188753195466 -0.0331125868718589 0.00668974065420416 0.0878741 -0.1984999 0.9761536 190 190 188
-0.00648630695181396 -0.0313343486016944 0.00694153409625001 0.00398333 -0.2803208 0.9598981 185 190 188
-0.0439465620781876 -0.0112637322221483 -0.00179259163732839 -0.9989598 0.007171156 0.04503271 164 169 172
-0.0182386638722047 0.00431814833277033 0.0232885226387361 0.03909987 -0.2551578 0.9661085 200 193 202
-0.0178957090496796 0.0101123209754009 0.0245170431504872 -0.08196537 -0.2635847 0.9611477 191 178 192
-0.0485757430128519 0.027638866362662 0.00954141734785471 -0.9991747 -0.03285619 0.02388218 179 184 189
-0.0081728927354312 -0.00287184720209122 0.0199449360012731 -0.04864712 -0.2708019 0.9614051 245 185 230
-0.00290036130768034 -0.0382780404302088 0.00486052879609017 0.03067556 -0.3258463 0.944925 179 182 179
-0.0145577290707968 0.0303409020214817 0.0167404549906926 -0.1030726 0.9913141 0.08168511 151 159 160
-0.00986037773841875 0.0235071490557376 0.029632814246997 -0.007048119 -0.2081667 0.9780679 214 217 223
-0.0456869392351908 -0.00200110709052403 0.0124208947302442 -0.9923086 -0.04941859 -0.1134964 171 174 174
-0.00453141793696865 0.0179480220312712 0.0283076424683855 0.05339489 -0.2483989 0.9671851 194 183 188
-0.0327905708885834 0.0158718096078313 0.0245722328402805 -0.2647971 0.3058106 0.9145285 244 197 232
-0.0252740142872492 0.0169251195341866 0.00701196024547249 -0.7960132 0.1042261 0.5962381 176 181 173
-0.00894212922879856 -0.0325851489009024 -0.000306102233088218 0.2665734 0.9536337 0.1397187 218 220 204
-0.0085250024306196 0.00353700471197171 0.0221067194471641 -0.1767625 -0.3492174 0.9202186 180 187 189
-0.0475699211157901 0.0277639515549253 0.015236499067544 -0.9819132 0.1882992 -0.01974602 140 144 143
-0.0174621513804247 -0.0414021141541407 0.0051495564343034 0.04433567 -0.4994024 0.865235 188 190 189
-0.0441345825852903 -0.00506735082013743 0.0200709239864038 -0.3352703 -0.2407783 0.9108346 202 205 203
-0.04637651585944 0.0108094580380039 0.013628995613161 -0.9987868 -0.001777968 -0.04921156 174 180 181
-0.0440215237934047 -0.0213627730528591 -0.00712280048237138 -0.9906999 -0.05715127 0.1234801 186 188 186
0.0380832332689562 -0.00399528675944616 0.0112194887513597 0.9556257 0.01026462 -0.2944048 203 206 205
-0.00177984375979356 -0.00488520684957594 0.0196291898246295 -0.07865195 -0.3707104 0.9254122 195 188 194
-0.0451590344692971 -0.029623953460286 -0.00712221426052154 -0.9997596 -0.009180822 0.01991338 193 199 196
0.0427200695060024 -0.00889708691917745 -0.00933149463100655 0.9598671 -0.09094641 -0.2652995 169 168 154
-0.00300190087820229 0.0136147010939299 0.00777997008643358 -0.7051982 0.5517572 -0.4452634 198 197 188
-0.04501613841261 -0.0202220770099348 0.00620736979411343 -0.9926562 0.006980019 -0.1207684 183 185 182
-0.0449757589558848 0.0317664984690066 0.0120018285920233 -0.4896538 0.8677707 0.08493025 180 183 179
-0.0462928296318068 0.0167120126180523 0.0133655479427463 -0.9940848 -0.1081976 -0.009417093 169 173 174
-0.0117151974292957 -0.0167501635415719 0.0141375119912602 -0.01628733 -0.4330961 0.9012006 184 187 190
-0.0454188627884047 -0.0216570546404311 0.00838759336948816 -0.9910237 -0.09513097 0.09392685 181 182 180
0.0145187107716578 -0.0104763416461775 0.00131517563517339 -0.1588703 -0.5610108 -0.8124205 198 199 196
0.033638532349735 -0.0282595295250138 0.00547350966224866 0.102275 -0.3922966 0.9141352 191 193 193
-0.0177482760450507 0.0077799974863586 0.00532910694559033 0.9564093 0.1400421 0.2562603 192 192 186
-0.0271117959028215 -0.0145208765482187 -0.00113544958788422 -0.3787588 0.9244989 -0.04293668 184 188 183
-0.0205454964992007 0.03119892397368 0.00793064405441712 -0.07253865 0.9964443 0.04285892 166 171 166
0.0261159395759569 -0.0317961162494853 -0.0100004218512692 -0.4150553 0.6004066 -0.6835503 204 203 187
0.0358113886508453 -0.0100676654846108 0.00311181679731345 -0.380275 0.0138089 -0.9247704 214 202 204
-0.00696011233132099 0.0287931721177315 0.0251318947852415 0.1383355 0.9193589 0.3682968 165 169 171
-0.00840151698597968 -0.0143108991804801 0.00177780371772004 0.6004903 0.790183 -0.1225653 201 203 199
0.00966935391429091 0.00690796798162152 0.023853929155587 0.03113211 -0.2575788 0.9657556 230 178 218
-0.004038348638018 0.0113602047125676 0.0139821044646536 0.2977302 0.9433531 -0.1464299 203 195 201
-0.0430636605137542 0.00124223492876485 -0.00479669232651889 -0.9985014 -0.0292067 -0.04628105 164 173 165
-0.0440499575843487 -0.0259038022708465 9.51187570406575E-05 -0.9934018 0.09532452 -0.06376532 177 182 177
-0.0135225106753569 -0.0268194952687536 0.00985427624115037 0.03223246 -0.4047916 0.9138407 183 182 184
0.0149417376870444 -0.00565504594136024 0.0197418748107641 0.1188436 -0.4613481 0.8792236 225 181 219
-0.000479076964824188 -0.0114813640481252 0.0167201531837002 0.00325663 -0.534905 0.844906 200 193 200
-0.0455674916895821 -0.00178316827682612 0.020613195451212 -0.6363497 -0.2696874 0.7227225 176 181 185
-0.00133883050882178 0.00125224194579332 0.0226090980842788 -0.0250158 -0.3983102 0.9169096 206 174 196
0.0183051813437463 -0.00706390829678138 0.0179821565954389 0.1392448 -0.5104778 0.8485419 193 191 192
-0.039901734924374 0.0168007688104289 0.0261127872242039 -0.1605361 -0.3009178 0.9400408 179 180 176
-0.0450078043951014 -0.0384577056026144 -0.00265511138783556 -0.993376 0.05877649 0.09873887 188 192 190
-0.0421924496128667 -0.00558125387164787 0.0195671100460542 -0.1851367 -0.2799595 0.941991 189 193 190
0.00668748033009825 0.0238744909655526 0.0283252028835827 0.03406904 0.005575164 0.999404 179 186 185
0.0386312284856951 0.0294125551889718 0.0112194686123767 0.01064701 0.9707961 0.2396697 158 161 157
-0.00149128813876964 0.00706194296035423 0.0244180898591418 -0.05035139 -0.289512 0.9558491 176 180 184
-0.0165377511489007 -0.0253894383709218 0.00178206780936818 0.5444566 0.8132439 0.2054294 214 218 214
0.00428906020902531 -0.0236171082326073 0.0100894916169868 0.07525247 -0.3743615 0.9242243 185 188 186
-0.0481493675428795 0.0262537614651639 0.00754574104612735 -0.976792 -0.210574 -0.03919106 172 175 176
0.0300950006294796 0.00310100744218045 0.0216826656239089 0.1070557 -0.2771538 0.9548428 196 178 191
-0.0230812971013705 -0.0114487398600255 0.00447616110868643 -0.5011215 0.5700275 -0.6511112 203 203 200
0.0408876484732763 -0.0124865317973881 0.00301915484716078 0.2181574 0.7131321 -0.6662206 207 208 200
-0.0318380489636776 -0.0183390067340813 0.00556534511511578 -0.932503 0.3183259 -0.170607 207 206 205
-0.0481558947070444 0.0250028857750729 0.0274279747275464 -0.8241638 0.06958165 0.5620609 200 205 206
-0.0314248050814498 -0.00768943387468035 0.0191031567924932 0.026898 -0.354315 0.9347392 232 182 221
-0.0461216752369833 0.00072919553313322 0.0187829622052155 -0.9619597 -0.07349755 0.2631191 162 169 168
0.0270967035779257 -0.00332217745130003 0.0021728768614562 0.4349641 0.8742418 -0.2156561 199 199 196
0.0166312318480193 0.00930143068527123 0.0184214755391935 0.9194826 0.3916065 0.03458483 250 192 236
-0.00904289209538778 0.00777958645883159 0.0174927694374665 0.08482193 0.8799934 0.4673509 188 189 190
-0.0127109669474186 -0.0132604336701972 0.0040003981453261 0.4023003 0.4446298 -0.8002867 202 203 201
0.0415096333309506 -0.00496153166883961 0.00328222255703661 0.2454488 -0.5559222 -0.7941697 234 201 219
-0.0214789468767558 0.00374240876347431 0.0232768738247683 0.01409374 -0.2685216 0.9631705 190 194 193
0.0178033897908503 0.00342852009993566 0.021641553598921 0.0133653 -0.311272 0.9502268 194 171 190
-0.0454075397139508 -0.014703158491278 0.0103756933262208 -0.9940022 -0.08448169 -0.06944355 178 178 168
0.00329724157220745 0.00621246573050471 0.0241358991820939 0.06309604 -0.2891537 0.955201 225 192 224
-0.0312864778668314 0.0320499634998802 0.0103639515276747 0.03594488 0.992582 0.1161416 162 162 160
-0.0220658166362016 -0.0430179972799848 0.00376457340259348 0.04660488 -0.7716579 0.634328 199 201 190
0.00294670396200436 0.0157516042640309 0.0178732906077628 -0.5529355 0.630854 -0.5443212 191 197 195
-0.0127237396160309 0.00700232303236392 0.0236707068843906 0.1181097 -0.3918669 0.9124091 200 192 201
-0.0102351137129297 -0.0290326345223518 0.00825605422554435 0.1639393 -0.444737 0.8805299 180 183 180
-0.0136236443677082 -0.029172910638759 0.00847273988304981 0.07469609 -0.4002273 0.9133666 186 188 184
-0.0263122402994305 -0.0309556155672224 0.00844425557509415 0.03976092 -0.2839761 0.9580066 190 192 192
-0.0140348899606355 0.032993813814933 -0.00781413133724468 0.0992217 0.8861427 -0.4526656 185 188 186
-0.047023302509023 0.0218117885840458 0.0132110913146159 -0.9805945 -0.1432297 -0.1338641 154 162 159
0.0423956255653457 0.0298030573011268 0.00907400906423081 0.2974118 0.8992307 0.3208276 156 160 167
-0.0447910021760316 0.0293426264096217 0.0236471782061969 -0.5221011 0.8087249 0.2708773 151 162 156
0.00322713933288243 0.00249189373110004 0.0226668702663095 0.04277924 -0.3489327 0.9361709 235 181 222
-0.0456532777021528 0.00265541494511712 0.0023795184520814 -0.9708663 -0.104114 -0.2158216 178 182 181
0.0346379878135654 0.0291827054396155 0.0218286164042067 0.03357506 0.8853552 0.4637012 148 145 141
-0.0135947530609759 -0.0213895865878146 -0.000237074646055546 0.07109988 0.1404423 -0.9875327 209 211 205
-0.00121061485864438 0.025085764424522 -0.00264287908406086 -0.1589319 0.09059775 -0.983124 193 195 195
0.00224359989933953 -0.00884269722087627 -0.00550632772826115 0.517464 -0.513681 -0.6843704 207 209 200
-0.0336264504957327 -0.00857909092689602 0.00893604889458599 -0.9578046 0.240524 -0.1573483 189 192 190
-0.0162075007869051 -0.0157601373959091 0.015098401882808 0.06203022 -0.4298316 0.9007758 231 177 217
-0.0460253813033717 0.00221431365835556 0.0150015584296209 -0.9930164 0.0193137 -0.1163853 167 173 171
-0.0438841289362564 -0.0059759850195984 -0.00562556185889274 -0.9847665 0.1491514 0.08937992 180 185 187
0.0136585102786337 0.0261845289391514 0.0276835522564503 0.1375447 0.5374688 0.8319908 181 184 183
0.042019117598211 -0.00391115173607903 0.017540503533477 -0.004135411 -0.3558165 0.9345467 187 189 188
-0.0100152117972518 0.0293760196359105 0.00641982840297464 0.2927417 0.9403986 -0.1730689 190 194 194
0.0276005833268242 -0.0236360041937398 0.00812924538864648 0.09050109 -0.4405063 0.8931762 194 196 191
-0.0262365616514784 -0.0453123811286837 -0.00539362033764526 0.009993819 -0.9997485 -0.02007666 224 224 216
0.0155183088697768 0.00100424499335694 0.0213158560641774 0.05765434 -0.2906193 0.9551002 204 174 198
0.0304716840430743 0.0314258756401561 0.00103772764432836 0.1918111 0.9794413 0.06247604 148 151 136
-0.0142911813345261 -0.0191535251930895 0.0127735799420515 0.0970513 -0.415476 0.9044119 194 188 196
0.00282198565977132 0.0304765551749773 0.0128996944356856 0.05586005 0.9766406 -0.2074918 150 154 151
-0.027827173703862 0.0101377537929458 0.0109030261980738 0.8512545 0.3731154 0.368986 184 188 185
0.00429130401320665 0.0149923372082683 0.026273303886734 -0.01058079 -0.228219 0.9735523 218 178 209
0.0193955774475822 -5.84714262114039E-05 0.00232587554455954 0.3859707 0.8534454 -0.350225 197 196 194
0.00571844293102353 0.00225584774711995 0.0223454075964256 0.01279973 -0.3138665 0.9493808 240 180 226
0.00498953275229175 -0.0337254866285953 0.00616915980269589 0.01799643 -0.379313 0.9250934 184 184 179
-0.0462839345078725 0.0134630807987199 0.0130276627542367 -0.9974706 -0.07086912 -0.005478474 165 172 167
0.0294829368875622 -0.0245163824261092 0.00746692360265624 0.09979507 -0.4352054 0.8947833 187 189 184
0.0201317869172266 0.00796781169742566 0.0236840066279349 0.08865023 -0.2559905 0.9626058 185 187 188
-0.0325164134921112 0.0306419207805576 0.0193752811378722 0.1268752 0.9587066 0.2545277 179 180 175
0.0482903627354307 0.0131220922274273 0.0133140512113812 0.9998583 0.00379987 0.01640021 179 181 182
-0.035798723134397 -0.0288170072228662 0.00953861551866664 0.04164309 -0.3390142 0.9398592 170 176 174
-0.0376712821114005 -0.0420152251793047 0.0054649685112354 -0.09364129 -0.4983805 0.8618864 203 207 209
0.0166827812428527 0.00390572536514922 0.0218982724474089 0.06265994 -0.2932692 0.9539742 208 182 201
-0.0463045970066367 -0.013633248030173 0.0145794895215096 -0.8975132 -0.3119433 0.3117073 180 181 179
0.0160270875280499 0.0209260097107664 0.026584308448061 0.1942673 -0.2189393 0.9562039 185 189 186
0.0448214954326409 0.031516740716417 0.00308661344110903 0.6791609 0.7339717 -0.005102023 182 177 171
-0.0372734022924359 -0.012404922146741 0.0178433874248229 0.02988833 -0.4611668 0.8868099 234 186 222
-0.0450893005339459 -0.00139833284178381 0.00297169848822978 -0.9713041 -0.0488156 -0.2327775 168 175 170
-0.0265377836636886 -0.0011398737449696 0.000566556583768918 0.8170909 0.4479819 0.3628701 179 181 182
-0.0407344324887016 0.0189383489587073 0.02718262801634 -0.1695054 -0.3127937 0.9345737 183 184 184
0.0102383040721026 0.00451906833238969 -0.0105888163936715 0.2573802 0.2302376 -0.9384807 211 212 206
-0.0467856180916686 0.0153298643649715 0.00995803631477668 -0.9967888 -0.07973301 0.007397987 181 183 190
-0.0288599455027576 -0.0107252009449514 0.0177595460244062 0.1000449 -0.4056006 0.9085588 215 186 207
-0.044052879301822 -0.0400732710056326 0.00423968749047901 -0.8228404 -0.4059992 0.3976159 190 193 190
-0.0100562895152767 -0.0440674393712924 0.00170213856577475 0.08868459 -0.8673944 0.4896549 184 187 176
-0.0260414755439846 -0.0223022873532034 0.0122652686205078 0.06439798 -0.4488201 0.8912987 237 181 222
-0.0196401926799035 -0.0459687728529516 -0.00416108474113416 -0.02260359 -0.9947963 0.09934477 192 194 176
-0.0467053750835009 0.0224218738083847 0.00318190610826882 -0.9788687 -0.1952074 -0.06091148 160 167 165
-0.0458443180531336 0.0116778122656284 -0.00855235615067493 -0.9633746 -0.2640372 -0.04683739 177 182 179
-0.0463144960233293 0.0120796670314348 0.0166797166418058 -0.9887004 -0.006732461 -0.1497539 178 182 182
-0.0481905380689172 0.0236178663779149 0.0193066151032357 -0.9942801 -0.08102367 -0.06958628 153 159 161
-0.0315956578869594 -0.00918819316206987 0.00325494037933849 0.5538419 0.5165467 -0.6530227 179 183 173
-0.00946704160664269 -0.043149728193946 0.00282658058238075 0.06582375 -0.7460737 0.6626019 188 190 181
-0.0443358038170778 -0.00697914346960649 -0.0046791696017921 -0.988562 0.1375913 0.061755 181 184 187
-0.0304293240826641 -0.0429341520948179 0.00506275466230974 0.05242453 -0.6319101 0.7732666 197 200 194
-0.0184884983692024 0.019040533848441 0.0275315005925608 -0.1230296 -0.337012 0.9334273 184 187 187
-0.00916198263135626 0.0254857384328138 0.0310381898063711 0.0147551 -0.1779046 0.9839371 190 190 191
0.00342969072908006 0.0109553766644823 0.0253846352843479 0.07458719 -0.2328018 0.9696597 205 182 204
0.0334676036784449 0.0279644985817717 0.0231940351593311 0.07636032 0.7929187 0.6045237 153 163 146
-0.00417722280638011 -0.0265597989162848 -0.00335620738878631 0.2158082 0.03100845 -0.9759433 218 218 202
-0.0444701772428306 -0.0284163916849188 -0.00369751748459282 -0.9945984 0.03195328 0.09875673 189 193 192
-0.0306860236969508 -0.0208871710606682 0.0130241189643344 -0.03448245 -0.4057085 0.9133518 231 180 216
0.0257281724650948 -0.00662138496168385 0.0174409790838689 0.0194097 -0.398316 0.9170429 250 197 233
-0.0456734463650572 0.00220130806368346 0.0129595744752992 -0.9941259 0.0310361 -0.1036844 181 185 189
0.0335707000143131 -0.0178265379406725 -0.00503440040487921 -0.1263654 0.8946601 -0.4285034 214 215 207
0.0231804363017272 0.0209799146152537 0.0255163292641409 0.1405082 -0.1582997 0.9773427 181 185 190
-0.0432532052929284 0.00141122320747855 -0.00895878433091693 -0.9965461 -0.006284044 0.08280335 156 166 159
0.00827425316249686 0.0308879956127444 0.00981221158239418 -0.069956 0.9805118 0.1835831 150 154 153
-0.0328523726853562 -0.0244327066164886 0.0112296795350437 -0.01682768 -0.4117939 0.9111216 240 184 228
0.0148200106162464 0.014821363185557 0.0262853250773716 0.1519207 -0.2200402 0.9635883 161 170 164
0.0267052883560597 -0.0362880851145879 0.00266326088628713 0.1818 -0.634918 0.7508847 191 193 189
-0.0473486776547085 0.0187255377305167 0.0224404126995446 -0.9898867 -0.1406424 -0.01854706 172 173 176
-0.0420089921061839 0.0255177193182792 0.0113683536235226 -0.1970326 0.3038207 -0.9321325 166 172 160
-0.0210218042888843 -0.0202402289817605 0.00306311592838485 0.1563214 0.6202628 -0.7686597 199 201 202
0.00281921006422636 0.0211023266989744 -0.00441548230172298 0.2658275 0.9457014 0.1870417 196 194 193
-0.035075552879728 -0.00670737622766371 -0.000698751112999135 0.1348376 -0.5087143 -0.8503109 176 178 170
0.00231285524682523 -0.0123461287167511 0.0153845140298987 0.04751036 -0.5321066 0.8453434 220 169 204
-0.0445839001664654 -0.0258188261990766 0.00249831192434355 -0.9854489 0.02071872 -0.1687046 183 186 180
-0.0328718759468687 -0.0178465795038972 0.0141141628170161 -0.04413813 -0.4392572 0.8972764 204 189 201
-0.0444369497554171 -0.00445908827602948 0.0014085879310626 -0.9798796 -0.03824783 -0.1958906 177 179 181
-0.0450289725886399 -0.0298681280199123 -0.00664382873327349 -0.9997596 -0.009180822 0.01991338 204 202 204
-0.01597185990474 -0.025998179605761 -0.00268618733897977 -0.0876411 -0.08660546 -0.9923803 203 205 194
0.0313310053392954 0.0215152646948064 0.000857342283115264 0.1927334 -0.6800677 0.7073626 251 200 236
-0.0254150036247478 -0.0257402529470485 -0.00462964327839605 0.8562069 0.1127678 -0.5041758 221 224 215
0.00335382664522488 0.0162809993531097 0.0260313571746232 -0.009613199 -0.2167571 0.9761782 215 188 210
0.0111129570727277 -0.00621335385991806 0.0195432866184139 0.05211855 -0.5446323 0.837054 191 173 182
0.0446026113139995 0.0297892366482754 -0.00190344762393385 0.6850928 0.6662344 -0.2945836 210 196 202
-0.0342276334631828 -0.0329636498323543 0.00803983220780571 0.03175079 -0.3215405 0.9463633 191 195 193
0.011468196632437 0.00500651006512676 0.0233781369647891 0.0439564 -0.2856332 0.9573304 218 175 208
-0.00964687489780691 -0.00700039968604826 0.01853384846068 -0.02173413 -0.3488117 0.9369408 198 199 203
-0.0355664752819673 -0.00543708188263292 0.0199854350913767 -0.02408269 -0.3175159 0.9479471 206 178 202
-0.044862122551989 -0.0117454266654509 -0.00990419033769696 -0.9944336 0.008137233 0.10505 189 196 192
-0.041979018927857 -0.0400808459304965 0.00545270610212736 -0.4109844 -0.3999965 0.8192037 163 172 170
-0.000941922579017707 -0.0364962948024982 0.00572393839397822 0.07633147 -0.2804191 0.9568378 185 185 180
-0.0178404188028598 -0.0177502567701758 -0.0110507053422425 -0.04403306 -0.1811233 -0.9824741 215 219 213
0.014378448343124 -0.0408754464055995 0.00162088119550446 0.2286576 -0.7272683 0.6471449 191 192 184
-0.0286355579510791 -0.024891546795005 0.0110455561626906 0.03864989 -0.4443365 0.8950258 225 181 213
-0.0454843320046214 0.00416506736085476 0.00290934875052537 -0.9706695 -0.1356425 -0.1984988 166 174 169
-0.0307765571250884 -0.0313016184995738 -0.000489805801361515 -0.7108456 -0.5791011 -0.3991746 219 220 210
0.0132704013418505 6.06037661792236E-05 -0.0102361987293405 0.2117256 -0.02893083 -0.9769009 215 214 203
-0.0290139592342324 -0.0278772105522467 0.00970913088668615 0.05655263 -0.3846182 0.9213418 191 190 191
0.00294685522234261 0.00315841461829991 -0.000640548571229721 0.0647188 0.9155975 0.3968535 197 200 196
0.04600703974513 -0.0112447475423231 0.00481037930213252 0.9874685 0.003437933 -0.1577786 167 167 150
-0.0463137163643546 0.00809701069883773 0.00875828000568218 -0.9988913 -0.02727124 0.03837302 165 170 173
-0.0335170738463684 -0.0398707228229682 0.00580668006641041 -0.01331188 -0.2920172 0.9563204 188 192 190
-0.0344159264596775 0.000741042625273303 0.0223335836185194 0.1025547 -0.2918448 0.9509517 206 173 199
-0.0346357969562783 -0.0354773025669055 0.00719419173491043 -0.001464713 -0.3203767 0.9472891 182 188 184
-0.0302272507538077 0.026670449504909 -0.00577818995748333 0.241322 0.01367817 -0.9703487 170 173 167
0.0216610245705748 0.0172020647577785 0.00969943494847286 0.5276775 0.1167895 -0.8413778 203 203 204
-0.0458432063168728 0.0205760158009524 -0.00310610214361282 -0.9923083 -0.1237905 0.0002641162 178 174 179
-0.019740079131257 -0.00564693512666181 0.0193295623569059 0.05163311 -0.3836223 0.9220455 180 177 182
0.0093648383159175 0.015575787063732 -0.00624205293294389 0.124549 0.289248 -0.949117 199 201 196
0.0168231231429703 0.0135864310984792 0.0252550884278047 0.157732 -0.2031386 0.9663619 174 179 177
-0.00689612336185319 0.00741095819615434 0.0232928446751884 -0.1443159 -0.367714 0.9186726 181 186 182
-0.0396958672454528 0.0308974939392249 -0.00173563763511447 -0.1382064 0.9821138 -0.1278732 145 155 145
-0.0441767019923014 -0.00880482891829115 0.000653841722084297 -0.992204 -0.004941684 -0.1245269 171 176 175
0.0236936510829846 0.0166657940203754 0.00361496464367694 0.4265654 0.6684518 0.6092734 211 209 217
-0.0459721142191671 -0.0133599117244899 0.0120931325649109 -0.9916869 -0.114316 -0.05906799 180 184 182
-0.0184525369559119 0.0181903274536914 0.0183016941188016 0.5327152 0.8180266 0.2169033 204 195 204
-0.00690410364477279 -0.00136149749016079 -0.00485404475827814 -0.9350995 -0.0313758 0.3529935 194 196 191
0.043894662179232 -0.00861591665278982 -0.00174797444313943 0.9674957 0.184478 -0.1729736 200 199 191
0.0305356420146552 -0.0294823843313741 0.00477482388490899 0.007356422 -0.4168597 0.9089411 183 183 176
-0.00959011250002062 -0.0318436145503795 -0.00573536229498248 0.2378211 0.9131021 -0.3311884 204 204 190
-0.0277228237454901 -0.044904969344104 -0.00664659539888754 0.1011666 -0.9879779 -0.1168975 216 215 207
0.00436535299035423 -0.0153051654988898 0.0139698915916723 0.03701056 -0.4658936 0.8840664 184 180 181
0.0196049922187558 0.0270465678155772 -0.00290403915227741 -0.0262185 0.3838172 0.9230368 254 199 246
-0.0317320211522929 -0.0449541043436266 -9.47476933596259E-05 -0.001990813 -0.9805673 0.1961727 193 195 183
-0.0311276198224415 0.00582451620148527 0.0143995116144026 -0.7923162 0.573589 -0.2079199 196 201 198
-0.027594693902901 -0.0282659192121908 0.00950738395047493 0.05217549 -0.364456 0.9297578 191 192 192
0.00296794178328996 0.0143047888770916 0.00181953644895874 -0.2145299 0.381985 0.8989241 253 198 240
-0.047277857159167 0.0220799500977414 0.0116417760345016 -0.9831098 -0.1702234 -0.06722514 154 161 156
0.001688922147151 0.000220256311941447 0.0217012839844931 0.009797601 -0.3604577 0.9327241 235 176 217
-0.0443157739157725 0.00416505935846267 -0.00119906224848121 -0.9657742 -0.1353741 -0.2212554 173 177 177
-0.0167345225038014 -0.00231732373836502 0.00622470621007776 -0.8264253 0.3653192 0.4284427 254 194 235
-0.0412575116802294 -0.020639669059761 0.0127617983486597 -0.1085204 -0.4019724 0.9091983 185 181 188
-0.0475427370673303 0.0233707047712128 0.027341963349741 -0.8016378 -0.1451455 0.5799221 179 185 186
0.048020407458415 0.0163170940341302 0.0109191314012423 0.9423215 0.08984612 -0.3224249 163 162 155
0.00531233774408291 0.000884343499841456 0.00772635931959778 -0.7194601 0.5485678 0.42597 203 203 203
0.0294119586724502 0.00590649054827852 0.0223169086081472 0.07938381 -0.164678 0.9831477 212 176 203
-0.0444286103330487 -0.0311112285940097 -0.00389088797625542 -0.9966564 -0.02221708 0.0786285 183 188 184
0.0403094311282675 -0.00241168335127318 0.0110790578768778 0.579945 0.5197929 0.6272792 198 201 199
-0.00749821731927058 -0.00990575954847173 0.0174730895042383 -0.004255602 -0.4150951 0.909768 187 191 189
-0.00474047616091022 -0.0413637321815873 -0.0110310149762351 -0.1045851 -0.3114319 -0.9444957 198 199 188
0.00406102314021117 -0.0285047395044112 -0.00595333450121893 0.1695609 0.4429905 -0.8803456 201 203 190
0.0198007507229221 -0.0134222230661533 -0.0072045913520106 -0.3980729 0.1218129 -0.9092302 210 211 199
0.0378899597712699 0.00607466399078938 0.0212524596483598 0.101336 -0.2953198 0.950009 184 187 183
-0.0458692778880687 0.0115835430173548 -0.00471331837790162 -0.9734022 -0.2290866 -0.002723446 177 183 184
0.00210402208168969 0.0181158768792271 0.0154059762449263 0.428837 0.5097073 -0.7458534 236 194 222
-0.0268833938630262 -0.00988874294573672 0.0173766547752546 0.08560999 -0.3936745 0.9152548 196 176 190
0.00764196965702912 -0.0369260046473867 0.00465090704364166 0.06819757 -0.368386 0.9271682 189 189 182
-0.0055470979844856 -0.01346652239526 0.0157820264459723 0.02380623 -0.4198385 0.9072865 192 195 195
-0.0341991736372249 -0.0136627286580235 0.0164492081375163 0.008058606 -0.5043726 0.8634485 225 189 216
-0.0464793313901031 -0.00906248444851898 0.0182909410445174 -0.7685693 -0.2733691 0.5784208 174 180 181
-0.0440297411827337 -0.0174610338495677 -0.00557848482489667 -0.9929931 -0.004827836 0.1180735 178 181 176
-0.0354177148883099 0.0320504082096624 0.00547500109884524 0.02323576 0.9988984 0.04076924 144 156 151
-0.0463478518458751 0.0195015412631826 0.00313669230338667 -0.9960653 -0.0623644 -0.06296493 157 164 159
0.0175981339193065 -0.038835750733575 0.00296621533453717 0.1536104 -0.5756412 0.8031445 191 190 187
-0.0263250652778304 0.0116457175151339 0.00216439952673683 -0.6616718 0.3452579 -0.6655729 170 173 170
0.0194007318819607 -0.0169284039202723 -0.00872545228905131 0.567695 -0.5295932 -0.6302804 203 204 191
0.00763550453836026 0.00682209689317403 -0.00473484556923273 0.08822925 0.9273168 -0.3637296 199 201 196
-0.0272429682381718 0.0132435943023876 0.0262755814500527 0.1570256 -0.2669967 0.9508185 213 174 206
0.0458068450442839 -0.0196125921882669 0.0056987187858468 0.8959283 -0.2629679 0.3579949 180 182 173
0.00430277447202188 -0.011391247707938 0.0164894191240234 0.06418405 -0.5562552 0.8285291 229 182 218
0.0213755043857573 0.0299310839680996 0.0100201602579109 0.02431194 0.9903818 0.1362088 144 149 146
-0.00653044135630587 0.00924599365925738 0.0152800143356971 0.2274882 0.9151952 0.3326664 203 196 197
-0.0169255528122034 0.0144505424499122 0.010770646350443 0.4902687 0.8039106 -0.3366962 207 201 199
0.00667885733877505 0.00866042171275005 0.000570975508258909 -0.79506 0.1532351 -0.5868549 201 199 199
-0.0174673211600129 0.000144113813740576 0.0216555604010329 0.1122013 -0.3536351 0.9286297 200 183 198
-0.047944206848467 0.020319245214852 0.0212184104210729 -0.9867123 -0.156104 -0.0450596 169 174 176
0.0320103013051973 -0.0248926969284661 -0.0120387076519516 0.2186945 0.1645877 -0.9618127 199 201 183
-0.00779032042252248 -0.0294994053526678 0.00768657394453023 0.02967375 -0.3117199 0.9497105 176 180 179
-0.0234472181669689 -0.0163290842181425 0.014705412512502 0.06730897 -0.421346 0.9043987 182 186 182
-0.0456417790746086 -0.016004107843451 0.0103473094602012 -0.9936965 -0.09117572 -0.06522419 185 188 185
0.0136314220593867 0.0308781512965032 -0.0012053707896594 0.02797398 0.9930246 0.1145409 221 189 212
0.00279749790012307 -0.0364153567578518 -0.00829630015243374 0.2178371 0.2565882 -0.9416525 203 204 183
-0.0467159035638531 0.0246458765719371 -0.00636695578817223 -0.975922 -0.2126629 -0.04848301 161 167 160
-0.041133060485387 0.0125498347997121 0.000137580001663529 -0.9457885 -0.08196786 0.3142697 166 176 167
-0.037190688816491 0.00170213132564756 0.0160511126787852 -0.8786939 0.4662267 -0.1026137 195 196 190
0.000299801129276966 0.0221997190697508 0.0279509406204863 0.07397222 -0.2156781 0.9736586 187 190 188
-0.0213113840592467 -0.0198348321347266 0.0133999017802176 0.08176833 -0.356207 0.9308225 239 186 222
-0.0365035686848538 0.0178604249552755 0.0214619744108237 0.7227083 -0.0554744 0.6889232 199 198 199
-0.0101257040796898 -0.0448303235526536 -0.00661825983535738 0.03835242 -0.9928593 -0.1129581 194 198 177
0.0141163455311459 0.0223932868462807 0.017277069172516 -0.1533911 0.5683501 -0.8083621 201 201 204
0.0127157285495636 0.00732543897183036 0.0241456059521653 0.04311309 -0.2724644 0.9611995 180 183 187
-0.0147041210411416 -0.00968444232835941 -0.00177106173850777 -0.9211735 0.0591469 -0.3846312 198 201 198
0.00257863011572002 -0.0105025219125978 0.00831679983322578 0.9442392 0.3127271 0.103025 255 196 245
-0.0299043599793716 0.001672282136157 0.0221967277862426 -0.05914083 -0.2722812 0.9603986 178 179 182
0.0103213659522867 0.0291882049886186 -0.0010690423546805 0.509483 0.6240299 0.5924641 236 199 232
-0.0270065566515261 -0.00033234750088551 0.0219827467633101 -0.04604017 -0.317567 0.9471174 182 180 181
-0.00827518874957134 -0.016959348666062 0.0144754430028381 -0.004719862 -0.3864551 0.9222962 178 181 185
-0.0461151186492443 -0.0117476405412761 0.0111622626550588 -0.9881896 -0.01969008 -0.1519655 201 203 205
-0.0206098266636936 -0.0275649215777547 0.00958350304684841 -0.0007242173 -0.3646106 0.9311598 187 189 186
-0.0171323569518975 0.0259584649815183 -0.00514462330129495 0.2916887 0.2372447 -0.9266243 170 176 166
0.04559411552513 -0.00769779285952765 0.00259580520358502 0.9637035 0.1676137 -0.2078007 174 173 163
0.0132849247450657 0.0320241772364258 0.00552560650565354 0.05934393 0.9978889 0.02638456 117 123 111
-0.0457925590299484 0.0177677173143023 -0.00189519392883675 -0.999141 -0.02244935 0.0348317 168 171 168
0.0247731546921199 -0.0232451856864231 0.00861016853060373 0.1037552 -0.4379137 0.8930098 210 189 202
0.00421558951658896 0.00966391141282508 0.0249722686705576 0.07148407 -0.2800043 0.9573336 217 177 209
-0.0404310545120579 -0.0356997281219278 0.00718031955915291 -0.2016789 -0.3548875 0.9128968 184 188 187
0.0120490426677 -0.0174240641417625 0.0135280195862397 -0.01908427 -0.5307488 0.8473142 181 190 187
0.0174870268033307 0.021134135212221 0.0263437646845308 0.1527938 -0.2415511 0.9582834 180 182 177
-0.0459332562666914 0.00545898849560911 0.00712343359580872 -0.9970972 -0.07597394 -0.005016973 162 171 169
-0.0376215738029748 0.014569171311968 0.0257501873047978 -0.1521713 -0.2484429 0.956619 176 182 180
0.0213186582128666 -0.000333592476334466 0.0141130037873561 -0.4052834 0.8129129 0.418232 217 189 210
0.0478813832074183 0.00526512548271618 0.0113861336795377 0.9843889 -0.08102551 -0.1562478 171 171 163
0.00168630178082463 0.00299251213802731 0.0146093925853625 0.6328461 0.7079098 0.3136391 203 204 203
-0.0463095306516093 0.0172285245213819 -0.00675351792382486 -0.9976853 -0.0228277 0.06405377 175 179 182
-0.00392059737800388 0.0187856558299017 0.00789686226140404 0.1341416 0.8165641 0.5614526 210 201 203
-0.0154252939604063 0.0129403990042394 0.025817242314034 -0.03681444 -0.304808 0.9517021 224 179 214
-0.0480214523654872 0.0237576466408572 0.023087014649714 -0.999426 -0.01829389 0.02851315 169 176 177
0.0244104254855537 -0.0123240488325735 0.00142285907315151 0.8375736 -0.3903696 0.3822069 198 198 196
-0.0450236241869237 -0.000717821917775363 0.00738853501990774 -0.9829643 0.01895143 -0.182817 149 152 151
0.0224660800254899 -0.0104688958924543 0.00821265265947363 0.9102005 0.09350455 -0.4034749 195 198 197
-0.0442458656779678 -0.0239899453291644 -0.00826325669810454 -0.9956336 -0.05815595 0.07301828 186 189 188
0.00761742093038742 0.0038800552565661 -0.0110574432265574 0.04992429 0.2301612 -0.9718711 198 202 183
-0.000208913049384973 0.00252584322552774 0.0229572101667457 0.03263894 -0.3596355 0.9325218 191 177 190
-0.0318234640756836 -0.0250976656959235 0.0108478258678274 -0.01291886 -0.4120125 0.9110866 216 176 205
