ply
format ascii 1.0
comment File exported by Rhinoceros Version 7.0
element vertex 474
property float x
property float y
property float z
property float nx
property float ny
property float nz
property uchar red
property uchar green
property uchar blue
end_header
0.0496057712222853 0.0104062749529142 -0.0403430154303789 0.1825162 0.4865045 -0.8544011 151 151 151
0.0496236208543648 0.00899203831612727 -0.0416923116476892 0.164243 0.4502648 -0.8776593 205 205 205
-0.0881861097570198 0.0092763735534972 0.00592211166308124 -0.9472786 0.2410278 -0.2111135 24 24 24
0.047171027785164 0.0127888782086106 -0.0390631365632548 0.1640459 0.523171 -0.8362901 155 155 155
0.0460109133008584 0.0125819332203558 -0.0398386213018936 0.1375304 0.5136339 -0.8469154 202 202 202
0.0188499794202084 0.0402682002537281 0.055664143676364 0.4126213 0.741137 0.5295844 63 63 63
0.0461676413390602 0.00954718094270879 -0.0415724519845293 0.1116478 0.4371686 -0.8924227 220 220 220
0.0481753700820082 0.0259913127644671 -0.0300893060255709 0.05851356 0.4964187 -0.866109 165 165 165
0.0496400790471765 0.0211287042463255 -0.032496280183086 0.1181664 0.5257652 -0.8423821 181 181 181
0.0475515173545431 0.022075492604114 -0.0321857596399023 0.1517267 0.5215734 -0.8396071 138 138 138
0.0447215845417523 0.0196709496209033 -0.0346425592747793 0.1469143 0.6176468 -0.7726116 174 174 174
0.0474139211774682 0.0183477252511763 -0.0353946750118557 0.1749845 0.6402529 -0.7479683 166 166 166
0.0468450731663368 0.0179246899567121 -0.0361299829865758 0.1724184 0.626769 -0.7598898 187 187 187
0.0456868873598411 0.0182025661723612 -0.0363340277607778 0.1408944 0.6347678 -0.7597491 153 153 153
0.0266291576841766 -0.0357813605426291 -0.0590987780862911 0.008621732 0.0703171 -0.9974874 229 229 229
0.041480503894296 0.0109932730294027 -0.0413405314774062 -0.001919958 0.4503717 -0.8928391 202 202 202
0.0634780769807803 0.0470772833062665 -0.0194775280570769 0.03967663 0.5607424 -0.8270391 243 243 243
0.063139843832194 0.0461228867997412 -0.0202088043008182 0.037738 0.5309193 -0.8465817 192 192 192
0.0659075755447214 0.0590117103212515 -0.0104177754814938 0.08629313 0.8482985 -0.5224396 222 222 222
0.0630223412471955 0.0555000474898006 -0.0130913645043687 0.0443633 0.6265698 -0.7781016 184 184 184
0.0622997704352275 0.0562253897181103 -0.0124841792244212 0.03028936 0.6569213 -0.7533504 176 176 176
0.0621597879877678 0.0599146384354494 -0.00864171549285245 0.1442928 0.9411486 -0.3056451 207 207 207
0.0577770800781523 0.0614162097596769 -0.00778857236003976 0.2224041 0.9706298 -0.09172954 208 208 208
0.0620984210012816 0.0580513546600916 -0.0109478773139366 0.1084302 0.7664428 -0.6330943 209 209 209
0.0578744597294105 0.0599643765760376 -0.0098690836897108 0.2192487 0.9361595 -0.274837 221 221 221
0.0579438439206963 -0.0143266836677074 -0.0463906597150966 0.6332461 0.2580014 -0.7296813 221 221 221
0.0572639321833011 0.0608418517612922 -0.00901257192586229 0.1908285 0.9515203 -0.2412335 246 246 246
0.0636611455095979 0.0525307337039282 -0.0152799258257459 0.0797028 0.6267017 -0.7751725 208 208 208
0.0629001390594959 0.0542896532219751 -0.0136829443553136 0.04384074 0.6059136 -0.7943215 214 214 214
0.0612868430150262 0.050306444401627 -0.017172392293319 0.01399425 0.6069494 -0.7946173 229 229 229
0.0604443051601486 0.0497969207225522 -0.0170010792148094 0.01190581 0.5962025 -0.8027458 192 192 192
0.0532728859183673 0.0542553737154431 -0.013606453994515 0.1090238 0.6496841 -0.7523459 204 204 204
0.0548256002254632 0.0513605456946147 -0.01615544694884 0.06364043 0.6167349 -0.7845941 186 186 186
0.051577950927892 0.0501330329022205 -0.0177170589901468 0.1290816 0.6229587 -0.7715312 187 187 187
0.0512413526462874 0.0532404092508727 -0.015146628783827 0.1419375 0.6553156 -0.7418997 205 205 205
0.0591841576957606 0.046032025541945 -0.0197293137496656 -0.001595396 0.5125309 -0.8586673 177 177 177
0.0560941863908586 0.04254429002251 -0.0214138343109915 0.05911522 0.4586149 -0.8866667 198 198 198
0.0554304246055088 0.0477733027398156 -0.0189194229892857 0.09983093 0.566729 -0.8178337 231 231 231
0.0557289442263005 0.0400343581260014 -0.0226532928803664 0.03390925 0.4046892 -0.9138254 155 155 155
0.0542591182921242 0.0411401775024011 -0.0225825015629359 0.07976703 0.382663 -0.9204381 210 210 210
0.0589562585938581 -0.00353946140769701 -0.0424565451307095 0.5564539 0.201663 -0.8060341 225 225 225
0.0282480135903449 0.0195050253980362 -0.0345110442333827 0.1173571 0.5309513 -0.8392366 189 189 189
0.0533094505294525 0.0396921080435917 -0.0232752965564959 0.0371371 0.3398558 -0.9397441 167 167 167
-0.0815859347729515 0.0343252988737329 -0.00554144095439899 -0.8894885 0.4481502 -0.08928468 74 74 74
0.052921098630363 0.0437339606626 -0.0217637978670216 0.1544267 0.4386348 -0.8852977 222 222 222
0.0647917531625253 -0.00495923091072303 -0.0360510279262804 0.8296854 0.05543088 -0.5554724 180 180 180
0.0521357432128435 0.0460639193080511 -0.020678013235829 0.1197652 0.5204382 -0.8454587 218 218 218
0.0518225802934538 0.0425611053029064 -0.0229107326230837 0.138185 0.3736935 -0.9172012 197 197 197
0.0512269709678068 0.0436766730921824 -0.0223307170384857 0.1080691 0.4367884 -0.8930492 211 211 211
0.0514642424907601 0.0399801050692773 -0.0232657433079233 0.1002988 0.3178391 -0.9428247 165 165 165
0.0494327717077341 0.0396273147948322 -0.0241136789076085 0.02259239 0.3035195 -0.9525574 202 202 202
0.0490583034417376 0.0494648815076741 -0.0185396617807601 0.07542336 0.587244 -0.8058882 175 175 175
0.048598383331877 0.0307822571061191 -0.0267215673271136 0.03410713 0.5207834 -0.8530073 171 171 171
0.0511822317132542 0.0381679521918589 -0.0235588295001597 0.04940381 0.2961353 -0.9538675 161 161 161
0.0494946343552374 0.0369130289548373 -0.0245038747357916 0.0557076 0.2817651 -0.9578649 169 169 169
0.0475586435568149 0.0316201770489235 -0.026376987067842 0.08513793 0.4939415 -0.8653169 196 196 196
0.045947789580993 0.0334928698586164 -0.0255892957767699 0.08024099 0.3847764 -0.9195154 194 194 194
0.0443473321175407 0.0346475446009735 -0.025079708807091 0.09406584 0.3648396 -0.9263065 159 159 159
0.0433835267620983 0.0339808769278165 -0.0257692404417139 0.0805723 0.350982 -0.9329093 198 198 198
0.0640840803580036 -0.027553175269235 -0.0296308700089122 0.906789 -0.2357365 -0.3495169 26 26 26
0.0435793185489692 0.0353049332160386 -0.0250892981284278 0.08010738 0.3242897 -0.9425598 216 216 216
0.0430243996562871 0.0331263901771474 -0.0267280194144263 0.08056942 0.3853966 -0.9192269 199 199 199
0.0446447363610454 0.0232700790800409 -0.0324128273479804 0.1201632 0.5439416 -0.8304747 186 186 186
0.0430915236440885 0.0204436215198114 -0.0343600090260023 0.06805196 0.5999689 -0.7971237 193 193 193
0.042273486962463 0.0208953997541388 -0.0342526080408227 0.03859472 0.6026781 -0.7970505 199 199 199
0.0450934036995729 0.0292268969496069 -0.0286001538487118 0.0465938 0.5476452 -0.8354123 180 180 180
0.0422314599200866 0.0291027173704929 -0.0281084359051638 0.02241526 0.5145575 -0.8571628 193 193 193
0.0385723162024365 0.0247300108839755 -0.0315997235458579 -0.05942455 0.5573841 -0.8281254 188 188 188
0.0439052114564626 0.0183302484657116 -0.0362184369400172 0.08720885 0.6330658 -0.7691699 183 183 183
0.0447502969492906 0.0176437962050863 -0.0370358669327817 0.1253651 0.6132825 -0.7798514 142 142 142
0.0432742978712786 0.0158197831629405 -0.0380361854373043 0.06574301 0.5894683 -0.8051118 183 183 183
0.0419200788218639 0.017610918068854 -0.0368480791918551 0.03495335 0.6314518 -0.7746269 194 194 194
0.0408154179601263 0.0176149456759122 -0.0369844836052759 -0.002953849 0.6031104 -0.7976522 181 181 181
0.0402892661185348 0.0165884605039427 -0.0376665870332081 -0.02680565 0.5895203 -0.8073087 220 220 220
0.040285645872125 0.0205132116442573 -0.0343752185260984 0.02246391 0.6173893 -0.786337 225 225 225
0.0384421692601182 0.0220881177952703 -0.0334617718282739 -0.04220379 0.6064195 -0.7940241 196 196 196
0.0366872500291913 0.0159902037676454 -0.0379529072171094 -0.0546423 0.5485567 -0.834326 184 184 184
0.0339586056898358 0.0147790862407964 -0.0383892093217576 -0.08690295 0.5322523 -0.8421136 182 182 182
-0.00257961000282236 0.0692890341744398 0.00751004488317944 0.2068049 0.9777556 -0.03500975 137 137 137
-0.00605418629925403 0.0534740682689887 0.04186324441627 -0.001303438 0.8352727 0.5498343 98 98 98
0.0540462528786394 -0.0713075354406197 -0.0128227381940024 0.8858287 -0.4373926 -0.154904 53 53 53
0.0586957523287879 -0.0156278181747759 -0.0464117944370405 0.6522641 0.2051913 -0.7296905 164 164 164
0.0717840399555274 0.0292460665222558 0.0461111888588352 0.2599259 0.9141357 0.311118 98 98 98
-0.094057459548508 -0.00595270405454584 0.00604199871538519 -0.8897924 0.3886322 -0.2392371 55 55 55
0.0713602221203584 0.0450426889327894 0.016645060448675 0.1050777 0.9051216 0.411963 167 167 167
-0.00563516484143012 0.0550262860271333 0.0388155699872446 0.02831647 0.8136847 0.5806164 97 97 97
0.0437522422962826 0.0582610118489361 0.00726600739472624 0.315638 0.7866635 0.5305971 113 113 113
-0.0242626026783554 -0.000793998548812014 -0.0492375659959429 0.01032087 0.5586254 -0.8293558 76 76 76
0.0351292832424703 -0.0339487144915174 -0.0583868457502212 0.15377 -0.08336652 -0.9845836 238 238 238
0.0379533104356313 -0.083310798888321 -0.0252281579086942 0.1763237 -0.7346264 -0.6551595 146 146 146
-0.0600167859058542 0.0384348307825944 -0.0272219581791392 0.2338007 0.4069571 -0.8830194 215 215 215
0.0236349949551897 0.0663035911465958 0.00930327588545959 0.2895768 0.9067072 0.306639 102 102 102
0.0373264077866438 0.0530471451263008 0.0242312982191612 0.3460631 0.7229561 0.5979756 84 84 84
0.0414604180009244 0.0458694739375392 0.0300050409904612 0.3652793 0.8325434 0.4164644 125 125 125
0.0147086081606647 0.0592310976024301 0.0226791712337916 0.1993377 0.8367526 0.5100095 75 75 75
-0.0355673719896274 0.0776563685727952 0.00171846880876853 0.2199997 0.9683918 -0.1175474 197 197 197
0.0516996589681504 -0.0710912849070655 -0.024323780072401 0.8399051 -0.3371915 -0.4252778 102 102 102
0.0073559678657773 0.00879415944657347 -0.0421378109652871 0.219704 0.3508236 -0.9103038 219 219 219
0.0505288929555197 -0.0482022150829441 -0.0455730199104211 0.6888459 -0.4720777 -0.5501218 129 129 129
0.0210595340099604 0.0199884834131515 -0.0345805436333731 0.09453315 0.4293508 -0.8981767 174 174 174
0.0134597722250764 0.046874398894762 0.048003365795137 0.09436543 0.8953386 0.4352746 60 60 60
-0.0154988048742895 -0.0126182701512214 -0.0564868046214101 -0.2143939 0.502717 -0.8374431 68 68 68
-0.0851824283665192 -0.0391425117332986 -0.0348521789014286 -0.4308372 -0.6221015 -0.6537347 96 96 96
0.00470633230762907 0.00997688305316591 -0.0422527833998988 0.2439248 0.3939147 -0.8861895 193 193 193
0.0604963859457648 -0.0638174256407362 -0.00683606839712547 0.8733793 -0.3763833 -0.3091023 60 60 60
0.0527432173231674 -0.0233341608024608 -0.0517254242110423 0.5264024 0.1246339 -0.841051 212 212 212
-0.0987081477108727 -0.0151339797958725 -0.0100473351857145 -0.8981754 0.4396327 0.00203165 34 34 34
-0.10288356504398 -0.0288166426888116 0.00285381578957669 -0.9594792 0.2751637 0.06070076 127 127 127
-0.0435411484562604 0.0398486327606082 -0.0265874423589152 -0.1595002 0.4539831 -0.876618 167 167 167
0.0556217522175624 -0.0463910531834177 -0.0341171774849994 0.9091133 -0.2988777 -0.2901468 61 61 61
0.0351289849485439 0.041293729648739 -0.0225835692170618 0.05299213 0.5204146 -0.8522679 154 154 154
0.0473002976750592 0.0642495125751847 -0.0061602393422386 0.2961234 0.9190274 -0.2601913 155 155 155
0.00419360195270535 -0.0843311833475707 -0.0176025495950776 0.09321922 -0.8054951 -0.5852246 64 64 64
-0.0101211472271761 0.0726185134664247 0.00679922967926955 0.3273941 0.9447476 0.0162777 106 106 106
-0.0549095341822561 0.0246207135752099 -0.0349602377664697 0.1652451 0.5046934 -0.8473362 150 150 150
0.0356281655382764 -0.058075336721786 -0.0496861481592204 0.4983509 -0.5053684 -0.7044495 112 112 112
-0.0882154253773644 0.000360521144124992 -0.00635872278092244 -0.9458533 0.3135234 -0.08405113 61 61 61
0.0255694066177101 0.0385847331635878 -0.0258162661823474 0.03633834 0.4847636 -0.87389 180 180 180
0.0233617995161457 -0.0464253764208741 -0.0589704259244504 0.1586203 -0.1849632 -0.9698599 221 221 221
0.0669747835347931 0.0357810156642272 0.0350628140209694 0.08330055 0.9090179 0.4083473 121 121 121
0.0164202583661783 0.0252084598210077 -0.0335540925801737 0.001141858 0.4837026 -0.8752317 235 235 235
0.0329137550322129 -0.00101273583993167 -0.0480396298975567 -0.02119667 0.4480238 -0.8937703 199 199 199
0.0675485437832886 0.0439060485717245 0.0186917699242349 0.01186735 0.9284455 0.3712791 124 124 124
0.04876853213554 -0.0805353972581349 -0.0162888549166166 0.7736031 -0.5820418 -0.2505307 34 34 34
-0.0295883803168393 -0.0341919241078416 -0.0601630998257627 -0.2989799 -0.06404644 -0.9521077 126 126 126
0.072710410442316 -0.0428107727176925 0.00318182817323756 0.9065876 -0.2862993 -0.310051 109 109 109
0.0227484755660203 -0.009795845060385 -0.0517660840538415 0.118391 0.566779 -0.815319 155 155 155
0.020997189905156 -0.0420881841020896 -0.0602159827718346 0.1492347 0.01290073 -0.9887176 197 197 197
0.0514789566695346 -0.0621084100502185 -0.0306602965920372 0.9542172 -0.1795319 -0.2392443 84 84 84
-0.0874152034462532 0.00563798532556525 -0.0108820738344806 -0.9893647 0.1329874 -0.05892244 70 70 70
-0.0121167997144891 0.0482980296435432 0.0541355026985578 0.3833497 0.8473856 0.367397 118 118 118
0.0611514998859128 0.0306694995388377 0.0488127876952598 0.08938428 0.9713023 0.2204141 102 102 102
0.0389404266308415 0.057734940678182 -0.0127734299869581 -0.08184735 0.5605857 -0.8240417 125 125 125
-0.0024355428336249 0.0636530969456953 0.0252247201999291 0.3394758 0.8239285 0.4537599 59 59 59
-0.0226452393625252 0.0591689778315032 0.0372317017359682 0.4143615 0.8129336 0.4091986 97 97 97
0.0202918117501065 0.0487206670331349 -0.0160049070541789 -0.1804551 0.7487352 -0.6378335 184 184 184
0.0587095263738466 0.0488555181499556 0.0123387353184512 0.4073054 0.7464018 0.5262952 113 113 113
0.0713724156828981 -0.0446511191904736 0.00142437915390516 0.8877677 -0.3444186 -0.3053594 84 84 84
0.0166181020966119 0.0580805263404881 0.0242433778773026 0.2043564 0.82894 0.5206697 75 75 75
0.0365814676831686 0.0400165656776397 -0.0233579654684387 0.03259744 0.4996045 -0.8656401 161 161 161
-0.0278573881494562 0.0389306123917437 -0.0254026587807343 0.1986195 0.4882112 -0.8498236 154 154 154
0.0613953551676056 -0.0317617022289997 -0.0339843917926521 0.8592934 -0.3783768 -0.3441595 82 82 82
0.0659767100145352 0.048685996016479 0.00768489506713349 0.1598441 0.8544656 0.494306 129 129 129
0.046248141334178 -0.0754167020306233 -0.0281921905268909 0.5786341 -0.5627937 -0.590293 160 160 160
-0.0523359396542982 0.0454638842972263 -0.0218157204729341 0.06342085 0.4872368 -0.8709639 189 189 189
0.0599974719970309 -0.0549311306796267 -0.0165546953734897 0.811546 -0.3170854 -0.4907646 60 60 60
0.0436918799503769 -0.0543927218827052 -0.0463782493773527 0.5155802 -0.3960819 -0.7598001 69 69 69
0.0701367156839003 0.0326357569847506 0.0394871839115992 0.2404433 0.849579 0.4694704 126 126 126
-0.0768188244919252 0.038545572598374 -0.0130197530422067 -0.8463636 0.4267561 -0.3186657 84 84 84
-0.00981730045303353 -0.044288817688535 -0.0644700060597695 -0.1458774 -0.2382386 -0.9601886 127 127 127
0.0559218495831058 -0.0462978840388617 -0.0332647865262106 0.9215528 -0.278329 -0.2706904 135 135 135
0.0604540440491839 -0.0426571943669258 -0.0233159250606159 0.8452772 -0.3224537 -0.4260634 74 74 74
-0.0524941254990821 0.0777381914076011 -0.00198228185220405 -0.05432445 0.5684291 -0.8209368 159 159 159
0.0296927764926793 -0.00133512513350476 -0.0475140935791577 -0.123528 0.4083422 -0.9044321 170 170 170
0.0743103914504744 -0.0323059462660964 -0.00268760259425625 0.9020384 -0.3328752 -0.2748106 39 39 39
-0.00169438120945076 -0.0337554349675627 -0.0641894580851412 0.2337331 0.05858917 -0.970534 195 195 195
0.0483569487222817 -0.047556305935192 -0.0471412287829288 0.5613171 -0.4587029 -0.6888503 169 169 169
0.0123695884515205 -0.0504591801672778 -0.0601661050580323 0.1736016 -0.1959821 -0.9651184 168 168 168
0.0526276317988064 -0.0421760939023372 -0.0459950396212446 0.80762 -0.370423 -0.4588429 98 98 98
-0.0121453388047188 -0.0653110264788827 -0.0348054357734182 -0.1754241 -0.6162503 -0.7677643 47 47 47
-0.0544659981176241 -0.00827100256788638 -0.0499085774372817 0.1443782 0.3796084 -0.913812 88 88 88
0.0684014186889752 0.0339891845456795 0.0381147173027099 0.1718769 0.8836293 0.435497 107 107 107
0.0333389266819597 -0.0620104094561156 -0.0480429288502951 0.4328662 -0.5023508 -0.7485122 93 93 93
0.0121997481556875 -0.0537291872108795 -0.059088327309913 0.2296119 -0.215007 -0.9492368 147 147 147
0.0437361297211987 0.0555606542809761 0.0112440842625198 0.2543426 0.8444232 0.4714437 123 123 123
-0.071945467122422 0.0503831447753207 -0.00186772637972564 -0.9527867 0.2878755 0.09656686 102 102 102
0.0561200481050186 -0.0526488144990256 -0.0243825040666802 0.8724918 -0.2931841 -0.3908979 40 40 40
-0.0163142894361283 0.0627329098533428 -0.00331053511251027 0.1478442 0.6259717 -0.7657033 133 133 133
0.0431207920893173 0.062945592897943 -0.000909686809547242 0.4546974 0.768461 0.4502421 115 115 115
-0.0118004265858698 0.057602164329016 0.0363641061872695 0.06089772 0.8168094 0.5736845 87 87 87
-0.0119378338201566 -0.000165509682555354 -0.049561747830952 -0.02297771 0.4995121 -0.8660021 128 128 128
-0.0120611284622338 0.0635592330528619 0.0296189217738334 0.0946672 0.7195427 0.6879654 82 82 82
-0.0265666632621233 0.0618915652960803 0.0373045250127131 0.3727067 0.7971615 0.4749981 92 92 92
-0.0526870823799013 0.0835550524793208 0.00203008748152846 -0.0399766 0.9154662 -0.4004042 150 150 150
0.0482829429182647 -0.0167544144751325 -0.0529500105073195 0.4039847 0.2196561 -0.888002 226 226 226
0.00981840626577979 0.0689601049588622 -0.00228543515324861 0.004158043 0.8816773 -0.4718347 188 188 188
-0.08597453884969 0.0109323165685863 -0.0373048643201764 -0.8728926 0.4691587 -0.1339723 68 68 68
-0.0525329983544127 -0.0175765542977495 -0.0543452273883802 0.08104019 0.4746175 -0.8764535 109 109 109
-0.0763038332603001 0.0430903243909034 0.0307051399110266 -0.8516679 0.5188034 0.07419515 17 17 17
0.0635132230502884 -0.0203294667356738 -0.0371359965630498 0.9097678 -0.2873784 -0.2995599 89 89 89
0.0688791231112917 -0.0273930748038923 -0.0181412996019334 0.8847398 -0.3520117 -0.3054884 102 102 102
0.055251342312177 -0.0745269890553286 -0.00578713553665278 0.8756596 -0.3662633 -0.3147563 38 38 38
-0.0554845701662501 0.0798826585741175 0.0149510307523846 0.3144501 0.8550938 0.4122325 125 125 125
-0.0432866131608889 0.0327469926730566 -0.0300678214486937 -0.1291438 0.4401581 -0.8885847 153 153 153
-0.0557948114019244 -0.0650793704804501 -0.0282871828203744 -0.07357088 -0.5309571 -0.8441989 153 153 153
0.0454568820197077 0.0334382260990558 0.0524213765000974 0.1860887 0.9154768 0.3567537 131 131 131
0.0455911683377148 -0.0472059190504717 -0.0494788553310836 0.526386 -0.4177515 -0.7405413 110 110 110
0.0462155403068465 -0.0692356115284771 -0.0347411191968505 0.5609946 -0.5907325 -0.5799312 153 153 153
0.0481542804698298 -0.0205742034753034 -0.0537382228055555 0.438984 0.1619861 -0.8837723 232 232 232
0.0469728188985679 0.05122080511799 0.0164517529175035 0.3318169 0.7629032 0.554866 127 127 127
0.0283871461609873 -0.0756915082529894 -0.0343007970175739 -0.07993227 -0.8051437 -0.5876686 62 62 62
0.065353526752999 -0.0323777368446702 -0.019531797421826 0.8936574 -0.2973092 -0.3361305 110 110 110
-0.0681198435385824 0.0624163160137238 0.0166854040929848 -0.9689882 0.2242107 0.1038819 21 21 21
0.0375989656810525 -0.0684305556837697 -0.040780550563197 0.5030433 -0.5701855 -0.649489 93 93 93
-0.0696894439892102 -0.0144164549093678 -0.0552125080557762 0.0445176 0.317886 -0.9470832 120 120 120
-0.0862173172791518 -0.0178982857455732 -0.0502927956582232 -0.5114571 -0.2339149 -0.8268588 69 69 69
0.0621922661069996 -0.0561600140987333 -0.0100798352870628 0.8638978 -0.4221517 -0.2747153 100 100 100
0.0626336642501513 -0.0518333007416433 -0.0151134514870929 0.8448063 -0.2557303 -0.4700046 80 80 80
0.0454767590985621 0.055441500359528 -0.0149685742271622 0.1131689 0.6005421 -0.7915441 216 216 216
-0.0308412094664052 -0.0506746983956318 -0.0439624875885848 -0.2665845 -0.7914363 -0.5500558 46 46 46
-0.0673315593699773 -0.0244429933786005 -0.0549907527552371 -0.3938183 -0.3540597 -0.8482623 92 92 92
0.0259688978010315 -0.022686630074229 -0.0570898041461076 0.05290894 0.2974908 -0.9532575 119 119 119
0.00301333043677499 -0.0003402467327146 -0.0494467947559779 0.1586993 0.6194008 -0.7688675 178 178 178
-0.0395520534572276 -0.00560824343888289 -0.0497958416005038 -0.09483235 0.08603953 -0.9917681 54 54 54
0.0118209819138162 0.0690997202727115 -0.000303830279434689 0.009231071 0.9972458 -0.07358988 131 131 131
0.0197502743089166 -0.0665185161285873 -0.0476664292028021 -0.1152505 -0.7928061 -0.598478 54 54 54
0.0745553555763165 -0.0396362945648062 0.00883177032687521 0.9446448 -0.2410269 -0.2226031 126 126 126
-0.071984485761234 0.049580847887204 -0.0181900617664159 -0.6595768 0.4290361 -0.6171601 105 105 105
-0.0495631794751659 0.048140060832112 -0.0206999740945192 0.01161513 0.5635139 -0.8260249 202 202 202
0.068055992951491 -0.0440135280357121 -0.00792274524714971 0.8992375 -0.2665155 -0.3469026 68 68 68
0.0495678679795062 -0.0115311428460628 -0.0508295295772304 0.4012067 0.3385571 -0.8511241 218 218 218
-0.0984444478694657 -0.0121651838030926 0.0126055095151834 -0.8881887 0.4251075 -0.1743688 60 60 60
0.0581979869661802 0.032937952485275 0.0444602852959856 0.2048211 0.8833856 0.4215189 82 82 82
0.0432983010377916 0.0648900830405506 -0.00301840549270922 0.4322748 0.8264226 0.3607828 148 148 148
0.0619096033215976 -0.0581686272540537 -0.00875686008950372 0.8726507 -0.412177 -0.2618985 57 57 57
0.0034266057758634 -0.0369813435465655 -0.0624205014854772 0.2441946 0.02442613 -0.9694186 157 157 157
0.0199142258156786 -0.0203959801845063 -0.0574528415214621 0.1156951 0.2875263 -0.9507593 115 115 115
0.038357265386729 -0.0174593751323044 -0.0552311242558929 0.04497308 0.3425546 -0.9384209 208 208 208
0.0387151872603155 -0.0771226406841099 -0.0314075367572411 0.2753411 -0.6666437 -0.6926568 151 151 151
-0.0620549390383061 -0.000498751100794337 -0.0479191138697534 0.2231943 0.4718856 -0.852941 71 71 71
0.0324170625336171 -0.0615245567059618 -0.049893469017867 0.4159296 -0.5671115 -0.7109058 139 139 139
-0.0810871396870692 0.0361327329760072 -0.00273840919555014 -0.8833466 0.4616216 -0.08126688 97 97 97
0.0423403047095219 0.00770187285384871 -0.0427380580878357 0.04322463 0.3931932 -0.9184393 203 203 203
-0.0361956658938976 0.0226975039030932 -0.0334564235591356 0.08496678 0.3280734 -0.9408233 171 171 171
-0.0206010398424592 -0.079314715136629 -0.022669829739997 -0.1243347 -0.710081 -0.6930555 101 101 101
0.0605477084439667 -0.0588146248389438 -0.0130904399779307 0.8564752 -0.397567 -0.3292273 77 77 77
-0.044703005428262 -0.0455863679193336 -0.0469367311796957 -0.3781538 -0.738167 -0.5586674 48 48 48
-0.00810466559992973 0.0387980687269753 -0.0209493038032938 0.1202762 0.6133971 -0.7805624 130 130 130
0.0693998101642435 -0.0450733679949809 -0.00319715159488733 0.8787358 -0.2926164 -0.3770928 35 35 35
0.069020372457087 0.040236765845334 0.0259616205406411 0.01160589 0.8671475 0.4979162 106 106 106
-0.0948218969057018 -0.0396692101427808 -0.0264559426495922 -0.6256413 -0.4899475 -0.6070621 78 78 78
-0.0870187943563088 -0.0495936425610772 -0.0230326601201855 -0.3818264 -0.5793277 -0.7201305 130 130 130
0.0658772625109543 -0.0245343086429428 -0.0274849458489582 0.8766249 -0.2930602 -0.3816339 50 50 50
0.0381505102622119 -0.0432544831014198 -0.0560036580069963 0.4850098 -0.2715806 -0.8312698 178 178 178
0.0419968907977726 -0.0134552755118681 -0.0535227946217032 0.1075882 0.2973883 -0.9486754 208 208 208
0.0174871765273976 0.0549676684011867 0.030593810035805 0.1858502 0.953338 0.2379207 69 69 69
0.0250836308242515 0.057107965759816 0.0232437625236332 0.2018819 0.7634535 0.6135001 81 81 81
0.04057567769991 0.0519877325510512 -0.0166798035309836 -0.08263974 0.5406307 -0.8371912 182 182 182
-0.0155557430921305 0.0662230766353216 0.0264837329719715 -0.02888197 0.8479921 0.5292212 85 85 85
-0.0565619014933012 0.0640441608065973 0.0494068130957547 0.1755779 0.8395383 0.5141477 66 66 66
0.0391834885294853 0.0654936437345989 -0.000215131229423765 0.3674995 0.8231177 0.4329219 130 130 130
0.02725937758923 0.062875792797829 0.0157261446862566 0.2125166 0.8318568 0.5126899 91 91 91
-0.0701424115332419 0.0659024027585313 -0.00216277233281345 -0.9032853 0.350879 -0.2468999 93 93 93
-0.0867261200274028 0.020566377607019 0.0130080935357023 -0.9593594 0.2684848 -0.08686417 39 39 39
0.0833899487776524 0.0257092289682959 0.0481481687003437 0.2661853 0.8587371 0.4378538 68 68 68
-0.0621891219751456 -0.00751694837674777 -0.0516450574761018 0.2418787 0.4273631 -0.8711231 97 97 97
0.0576829395814205 0.0505989434753115 0.0102744772703155 0.407813 0.7277809 0.5513833 106 106 106
-0.0228800011420272 -0.0797972669006797 -0.0214460708321208 -0.0991291 -0.7064809 -0.7007554 80 80 80
0.0455017815091332 -0.0359310511160476 -0.0540577297123353 0.4620495 -0.3488045 -0.8153808 117 117 117
-0.0300567551088085 0.0640026915594596 0.0352468327516853 0.3332392 0.8181325 0.4686267 86 86 86
0.0303752532532839 0.0645996995174664 0.00813223198245294 0.336816 0.8872623 0.3151517 179 179 179
-0.0345914235802827 0.0551066760322213 -0.0139075077446268 0.1716943 0.5868914 -0.7912519 159 159 159
0.0105253181908838 -0.0774147029422144 -0.0252326616236918 0.004734507 -0.6878086 -0.7258767 72 72 72
0.0244783680623177 -0.0574257496905903 -0.0557201733831604 0.258817 -0.4130372 -0.8731632 118 118 118
0.071364312037538 -0.040596880525555 -0.00241152478533828 0.8698578 -0.3452576 -0.3523415 40 40 40
-0.0879977635210349 0.0206806812897294 0.0328237562257497 -0.9843494 0.1654283 0.06074247 42 42 42
0.0514053344114873 -0.0760809781536478 -0.0170381500461738 0.8268544 -0.5317888 -0.183064 27 27 27
0.0404430863775875 -0.0503899325172221 -0.0522058257988906 0.5305222 -0.3890728 -0.7531059 153 153 153
-0.0553056633021085 0.0682535256584338 0.0372098500527139 0.2814325 0.8679186 0.4092835 87 87 87
-0.0740515518787799 0.0489749320923374 -0.0135503578233291 -0.9244104 0.2480911 -0.2896831 121 121 121
-0.0580870473706541 -0.0252975146525928 -0.0587897334443904 -0.1430247 -0.09443758 -0.9852033 238 238 238
-0.0305257375848007 0.0511370157416301 0.0600105269008324 0.3686681 0.838659 0.4009176 87 87 87
0.0745020398961129 -0.0414246890389369 0.00743984804572037 0.9452049 -0.2596362 -0.1979313 128 128 128
-0.016689796626971 0.0535895147855846 0.0444744987144733 0.3626905 0.8592531 0.3607488 102 102 102
-0.0382409617259847 0.078424035540501 0.00217263439899494 0.4629159 0.8761217 -0.1346092 123 123 123
-0.0112021565227516 -0.0330991054369435 -0.0647395408421157 0.04193657 -0.05265642 -0.9977317 106 106 106
-0.028848585261299 0.0271869178447252 -0.032764706716198 -0.05255575 0.367474 -0.9285477 172 172 172
0.0492146994050917 -0.00498601571290902 -0.0477708978581009 0.3732431 0.3611678 -0.8545451 201 201 201
-0.0380052630345684 -0.0342991320871737 -0.0582605997230809 -0.1404139 -0.01685702 -0.9899494 103 103 103
0.0586152662563162 -0.0291311107154665 -0.0433530737014835 0.8922513 -0.3140583 -0.3244304 82 82 82
0.0835078497939885 0.028529371053639 0.0419473904551628 0.328987 0.8893608 0.3174978 94 94 94
0.06597048162326 -0.038308281190269 -0.0140217428421068 0.8333363 -0.3450106 -0.4318777 35 35 35
0.0433732554622162 0.0398199926384872 -0.0235308263073386 -0.00680599 0.4088556 -0.9125737 182 182 182
0.0468009460095842 -0.0414879991398941 -0.0512178992290341 0.4286965 -0.3450628 -0.8349557 119 119 119
0.0300553828487229 -0.00973836292226682 -0.0517453792799687 -0.05775345 0.4569474 -0.8876168 184 184 184
-0.026339319551782 -0.0335780406391207 -0.0613015812854685 -0.344742 -0.05984043 -0.9367881 144 144 144
0.0434105583320079 -0.0829558391714842 -0.0241784509005498 0.5155547 -0.7138311 -0.473971 113 113 113
0.0353836670834937 -0.0444217697692844 -0.0566100150805698 0.3412256 -0.3042509 -0.8893799 142 142 142
0.0227218117314814 0.0424777419718996 0.048906260484338 0.3320896 0.7679104 0.5477502 51 51 51
0.0468111513143983 0.0401776078041057 0.0375282952865496 0.227669 0.7813239 0.5811195 79 79 79
0.0686920666310593 -0.0384402949180191 -0.00893884187796758 0.8368804 -0.3262621 -0.4395273 46 46 46
0.0250861742668711 0.0495997875007308 0.0414408005854099 0.1971217 0.8149571 0.544966 110 110 110
0.0494898217199355 -0.0783155574930023 -0.0167235774343237 0.8190375 -0.5232691 -0.2353021 92 92 92
0.0362905953244907 -0.066511969235632 -0.0434592523839731 0.4834723 -0.5779486 -0.657442 85 85 85
-0.00480529979082123 0.0679674606139157 -0.0017502478394161 0.02457415 0.701355 -0.7123885 144 144 144
-0.0251738421778969 -0.0538699016479439 -0.0464272968304931 -0.2905552 -0.8344206 -0.468316 52 52 52
0.0515431800249457 -0.0583640840876399 -0.0326561042076946 0.9475725 -0.1199608 -0.2961683 120 120 120
-0.0879177297711689 0.00733089336620918 -0.00027886670439542 -0.9816987 0.1568619 -0.1079908 46 46 46
0.00852441471152865 -0.00847594990755052 -0.0531836639186009 0.192425 0.5081517 -0.8394966 159 159 159
0.0499640211495418 -0.0083031580417221 -0.0485558901476281 0.414834 0.3720669 -0.8303487 218 218 218
-0.0345736542162403 0.059249444171663 0.0456389542770846 0.1322699 0.8941197 0.4278489 82 82 82
0.0513626919981469 0.0473281852233088 0.0214986649182651 0.3049375 0.8281579 0.4702847 109 109 109
-0.0905835152513741 0.00697404875542784 0.00820315365326918 -0.9061186 0.3365258 -0.2563191 27 27 27
0.0231535966810319 0.0510516071480402 0.0402748408287557 0.1514824 0.8508634 0.5030751 113 113 113
-0.00894921199129861 0.0703817050504246 -3.4121052222752E-05 0.1094991 0.8216659 -0.5593523 116 116 116
-0.0885336916717909 -0.0389516729895211 -0.0342090595335494 -0.4496232 -0.5868277 -0.6734035 108 108 108
0.0585665093946077 -0.0211201963511798 -0.047352803310998 0.7620915 -0.05096943 -0.64546 129 129 129
-0.00256454777145931 0.0355261696960277 -0.0217072427244944 0.08471321 0.5357625 -0.8401084 158 158 158
-0.0184753413083092 0.050603897041921 0.0524598973972744 0.3202884 0.8723948 0.3692461 70 70 70
-0.0591254128574463 0.0538429835826945 -0.015721974762845 0.1204231 0.594008 -0.7953948 167 167 167
-0.0689656883649463 0.0556448170015905 0.0354048698532249 -0.9310642 0.3551696 0.08351 23 23 23
0.0460042308775366 0.0627649788727288 -0.00273656446760888 0.3956415 0.8024559 0.4466904 94 94 94
0.00201919005942575 -0.0210945081055671 -0.0606092094877206 0.3019534 0.1273211 -0.9447823 182 182 182
0.0347127313319597 -0.0571698039894234 -0.0518381869064776 0.5080407 -0.5061474 -0.6969286 164 164 164
-0.081767419573028 0.00115047795771517 -0.0513670118145538 0.07897525 0.4404743 -0.8942848 177 177 177
0.0226745391892784 -0.0761771336576346 -0.0300898233722092 -0.182296 -0.7927434 -0.581658 55 55 55
0.0614370232828385 0.029225815352526 0.0558911150410805 0.1653115 0.9562541 0.241351 95 95 95
0.0532433922851112 0.0452065647580544 0.0220480211782633 0.2982021 0.8533075 0.4277169 101 101 101
-0.0789912511184201 -0.0642203562653927 -0.0174868130154708 -0.4982924 -0.566909 -0.6559869 105 105 105
-0.062243652140749 0.0759196202628556 -0.00231923854798227 -0.1465933 0.4796284 -0.8651399 144 144 144
-0.0033972759274552 0.0634373393022318 0.0269215786377549 0.3051433 0.8188001 0.4862654 100 100 100
-0.086243894865647 0.0218717012851243 0.00348160907064585 -0.9797896 0.1978846 0.02922345 22 22 22
0.0226286806122165 0.0237869500374878 -0.0333786503389512 0.08960851 0.4041425 -0.9102962 197 197 197
-0.0594524407257109 0.0510047156777598 -0.0180949956610997 0.1510354 0.6330864 -0.7592034 132 132 132
0.00290757702286992 -0.058979686797179 -0.0517322597786114 -0.2831668 -0.8469433 -0.450004 63 63 63
0.0211426386659737 -0.02235121368996 -0.0580086395148554 0.08552557 0.2627264 -0.9610724 140 140 140
0.0178504218071018 0.0605273354653961 0.019785910423522 0.1029375 0.8188847 0.5646519 70 70 70
0.052551474094563 0.0314647680420398 0.0532817492173482 0.3091124 0.9305538 0.1962631 98 98 98
0.0447971968353582 -0.0815644352739273 -0.023741271650831 0.6162755 -0.6632634 -0.4246012 93 93 93
-0.0185899662438831 0.0606960117321403 0.0338115679863114 0.1786336 0.7721156 0.6098586 98 98 98
-0.0774717356677823 0.0437405823904307 -0.00559832548655935 -0.9099638 0.4121871 0.0454706 78 78 78
0.0719031335288158 -0.0359084090160664 -0.00624080081651979 0.8089542 -0.3754585 -0.4523539 133 133 133
-0.0984522374411703 -0.0182788470991242 -0.0284796743051636 -0.9449705 0.3013065 -0.1274565 86 86 86
0.0413126946326217 -0.0399026920504939 -0.054840949612685 0.5101671 -0.3154183 -0.8001505 127 127 127
-0.0777981529227958 -0.0485428145944518 -0.0302302648601618 -0.4886159 -0.6550763 -0.5763068 110 110 110
0.0562447841108864 -0.0439949771965037 -0.0375800330461765 0.9089158 -0.3113707 -0.2773451 42 42 42
0.0589560050978046 -0.0384703153583827 -0.0299069478019889 0.8613473 -0.402561 -0.3098799 120 120 120
0.0343204210084962 0.0357044965421229 0.0526270268253398 0.3226524 0.7909938 0.519831 71 71 71
-0.0744567362528752 0.00566380217693774 -0.0459325201463666 0.20875 0.4589134 -0.8636099 109 109 109
-0.00214731783051603 -0.00785277257720385 -0.0548216966325624 0.02893315 0.5884118 -0.8080436 123 123 123
0.0291833482389516 0.0668033023266486 -0.000332262122883772 0.344624 0.929584 -0.1307969 192 192 192
-0.0546648945910717 0.0220027048566956 -0.0357465365732905 0.1960634 0.5230084 -0.8294705 171 171 171
0.0418602584850207 -0.0519470615521961 -0.0497447548136124 0.5886475 -0.4654965 -0.6609139 104 104 104
0.0600061898609723 -0.0491206526061708 -0.0212245338266945 0.8704048 -0.2670948 -0.4135889 39 39 39
-0.0653276291477005 -0.0433259431151242 -0.0420451237721707 -0.2242311 -0.5399238 -0.8112969 86 86 86
0.0401767998001761 -0.087714539645544 -0.0187180201867791 0.588055 -0.7485369 -0.3064047 65 65 65
0.0607512804592831 -0.0320854140100142 -0.0357839194609616 0.8525146 -0.3637666 -0.3753567 79 79 79
0.0026817548977407 0.0669833660955803 0.015071318435625 0.1800279 0.8855193 0.4283053 69 69 69
-0.0920905557958145 -0.00594110594074415 -0.0440213691792277 -0.8766865 0.336106 -0.3441709 69 69 69
0.0194700060624644 0.0231905006334857 -0.0343905565021929 0.1067551 0.4047751 -0.9081632 194 194 194
0.0264349582135273 0.037792395081369 0.0541106317271104 0.2686013 0.7923781 0.5477136 38 38 38
-0.0806602418329665 0.0381597246421248 0.0119546645223836 -0.8466581 0.5252252 0.08549015 57 57 57
-0.014630229901051 0.0488826442849909 0.0549262562175043 0.3538185 0.883459 0.3071037 117 117 117
-0.0574721547522166 -0.047135529029452 -0.0406750540197506 -0.1471116 -0.5741851 -0.8054003 127 127 127
-0.0733070246364873 0.030181309376453 -0.0350591820770522 0.2268971 0.3962246 -0.8896762 190 190 190
0.0408830452730946 0.0340487717162319 0.0536621084181568 0.1575162 0.9008084 0.4046392 144 144 144
0.0619384805407996 0.0438208135701738 0.0209437504372273 0.1987001 0.8833482 0.4245166 99 99 99
-0.0666880694309335 0.0359693143482857 -0.0301245049479071 0.2615918 0.4412107 -0.8584304 169 169 169
-0.0376538333264307 0.0334746679419218 -0.03010788227378 0.02268793 0.4436701 -0.8959029 148 148 148
-0.07952047082044 0.0400289029442209 0.0359907801950799 -0.8885894 0.426672 0.1684036 9 9 9
0.0628915040914171 -0.0214964067402353 -0.0379303159740595 0.9058377 -0.3114091 -0.2871977 94 94 94
0.0499087965267924 0.0599492997125396 -0.000611351677405642 0.3187102 0.8409732 0.4372503 114 114 114
0.0348269447957796 -0.0698774834931662 -0.0431416985992056 0.3340227 -0.6804962 -0.6521915 100 100 100
0.0600702527155859 -0.0235343825886275 -0.0446223451491881 0.8617568 -0.2544937 -0.4388715 80 80 80
0.0627215351915451 0.049781000130813 0.00697036821274899 0.3374877 0.7248879 0.6005327 116 116 116
0.0489832984168834 -0.0816974484624817 -0.0111511990976317 0.8153664 -0.5151584 -0.2641771 33 33 33
0.0286553245053716 0.0640387385025993 0.0131888682147137 0.351524 0.8843181 0.307266 128 128 128
-0.0085142432179417 0.0424381306551594 -0.0171355123775462 0.1978876 0.6513942 -0.7324795 154 154 154
0.0220807637101963 0.0622488863851564 0.0177293507355712 0.04109921 0.7635472 0.6444429 126 126 126
0.0290763688475097 -0.0370507326929198 -0.0593027344626292 0.0320142 0.006251765 -0.9994678 214 214 214
-0.00339088550529754 0.0532634380969303 -0.00891980938478726 0.04171617 0.5653818 -0.8237737 144 144 144
-0.0628277466185518 0.00807191642894656 -0.0435979273119299 0.03759038 0.3048031 -0.9516733 149 149 149
0.055942107150122 -0.0412692563295567 -0.0383098136908241 0.9300486 -0.2563951 -0.2631941 97 97 97
0.0561365610241396 -0.0403711121693117 -0.037582852117324 0.9167385 -0.2862448 -0.2786656 118 118 118
0.0662812252675065 -0.0165485574245321 -0.0334558674290443 0.9143671 -0.2177302 -0.3413594 96 96 96
0.0534720302046079 0.0342586733759499 0.0450127481099709 0.2935896 0.8142799 0.5007527 68 68 68
-0.0585800089206496 -0.0398913344192321 -0.0475287373179323 -0.2323427 -0.6559423 -0.7181619 74 74 74
-0.0501779873801249 -0.0211209704851558 -0.0563885199048597 0.03814736 0.417758 -0.9077572 80 80 80
-0.0481542283246288 0.0814192440903475 0.00528835698395104 0.3391748 0.8849985 0.318964 76 76 76
-0.014114505117846 0.0353308926931241 -0.0236622781711948 0.1991222 0.5986333 -0.7758791 139 139 139
0.00725957239174946 0.0690455035592427 0.00162235006492513 0.0272442 0.99902 0.03488214 191 191 191
0.0221023239121116 -0.0512692874736482 -0.0583143118275432 0.1177269 -0.2435554 -0.9627155 92 92 92
0.0351779904755847 -0.0598716248473673 -0.0490387258999826 0.4805214 -0.5062239 -0.716126 95 95 95
-0.0904722520014238 -0.00485341928813909 -0.017712575280006 -0.7774981 0.6247528 0.0719763 47 47 47
0.0653894055167967 -0.0172476136764432 -0.0354877020603402 0.9037737 -0.2420993 -0.3529604 87 87 87
0.0483880166136101 0.058453174046814 0.00380916591451567 0.3233716 0.8583695 0.3982871 114 114 114
-0.0913832563730921 -0.00355115401504358 -0.0011330655061102 -0.8916545 0.4001293 -0.2117754 87 87 87
0.0639446474711529 -0.0259132858293371 -0.0320417964420171 0.909253 -0.2433176 -0.337721 76 76 76
-0.0137179841106687 -0.0618206400460757 -0.0391713412251358 -0.2510582 -0.6915049 -0.6773409 57 57 57
0.0253466087119016 0.0526280279650924 0.0305643970724161 0.292241 0.9178643 0.2685523 110 110 110
-0.0784880241401433 -0.001353303307148 -0.0518813397752982 0.1519786 0.4436835 -0.8832029 157 157 157
-0.0919770866632508 -0.00376334489673602 -0.0299523208830507 -0.8749685 0.48354 -0.02488492 62 62 62
0.0492239379624246 -0.0374002607496109 -0.0517575709672972 0.4783351 -0.3005629 -0.8251409 107 107 107
0.0121665637121109 0.0631169787503436 -0.0052483994251845 0.1243302 0.3508866 -0.9281275 165 165 165
0.0560850131020452 0.0535081926014243 0.00800117243779452 0.3598042 0.7427766 0.564645 120 120 120
0.0554187618982542 -0.0531556587802104 -0.0263522466816636 0.8848989 -0.331024 -0.3276844 113 113 113
-0.0413893146426059 -0.0212270533870261 -0.055543658482402 0.1330992 0.3460362 -0.9287322 111 111 111
0.0552702145613182 -0.0281471774316773 -0.0502576617254913 0.7691264 -0.1422596 -0.6230624 98 98 98
-0.0218637614092194 0.0497791734530859 0.055908827207251 0.1900233 0.8596213 0.4742809 69 69 69
0.0555847159562548 -0.0390043697935997 -0.0413475633022906 0.9314911 -0.2676864 -0.2463092 71 71 71
-0.0833864727311164 0.0214330178010892 -0.0258763254937575 -0.9617093 0.2510522 -0.1099452 100 100 100
0.015094427127043 0.0537685550984923 0.0352274984381666 0.1300632 0.8830192 0.4509552 51 51 51
-0.000474746948663451 0.0349615097558997 -0.0226594816158602 0.04768011 0.537297 -0.8420443 181 181 181
0.0737613928792968 -0.0426209111841099 0.00532428643034898 0.9297249 -0.2660969 -0.2545662 75 75 75
0.0408190713326761 -0.0762382536258546 -0.0308829999103079 0.3280225 -0.6461903 -0.6890858 147 147 147
-0.0950012383080745 -0.00332633656179548 0.0206072715275452 -0.9286256 0.3707331 0.01454455 85 85 85
0.0298944627652777 0.0162283913942255 -0.0372616744713435 -0.01986352 0.5626383 -0.8264645 198 198 198
0.0190091661948482 -0.0634882661033146 -0.0502342493226558 -0.1284765 -0.8095642 -0.5727997 43 43 43
-0.0684219320491586 -0.0676646614811207 -0.0217857871958443 -0.410256 -0.6709442 -0.6176762 63 63 63
-8.55494043308092E-05 -0.0497781937686764 -0.062981864337232 0.1105457 -0.1621228 -0.9805589 143 143 143
0.0136147143410912 0.0164608869464421 -0.0373156353968513 0.09104003 0.4784592 -0.8733776 190 190 190
-0.0690105767582083 0.0194689877596689 -0.0398618967522029 0.1128117 0.5468264 -0.829611 107 107 107
0.0127659988979438 -0.0772866255878745 -0.0257066868889603 -0.08826586 -0.7396338 -0.6671964 68 68 68
-0.0331774127701516 0.0583890276343993 0.0465626215060855 0.1860189 0.8847383 0.4273582 109 109 109
0.0653818532252348 -0.0599982300558768 0.00419730330762765 0.8742756 -0.3901829 -0.2887897 67 67 67
0.0455808521524812 0.0462952036947999 0.0248527694858814 0.3620427 0.8318364 0.420682 49 49 49
0.0353028428873414 0.0667004617209024 0.00126793125357323 0.1435998 0.9687856 0.2020728 190 190 190
-0.0807263273376622 0.035910795641932 -0.00431386167882693 -0.8874263 0.4433527 -0.1261465 49 49 49
-0.0479543049915701 0.016534769057126 -0.0372624088110394 0.1592338 0.6340327 -0.7567345 171 171 171
0.0481244115483643 -0.0548423073675455 -0.0427791579586597 0.7291321 -0.4238992 -0.5372856 91 91 91
-0.0437434051231138 0.0261114566249893 -0.033308015620488 -0.03626079 0.3661004 -0.9298686 217 217 217
0.0522050363675457 -0.0745522625311568 -0.016055341416804 0.8732588 -0.4697903 -0.1292907 38 38 38
0.0490381664822994 -0.072972102500569 -0.0277941056818216 0.7031188 -0.5055439 -0.5000492 139 139 139
0.009311273111277 0.0165851059824855 -0.0385764053761541 0.02770001 0.5703914 -0.8209058 191 191 191
0.0598513192119206 -0.0624811403411966 -0.00873373063482516 0.8670861 -0.3825191 -0.3191253 71 71 71
-0.0651806806007347 0.0666050934990932 0.0380141907441561 -0.727764 0.5621161 0.3929187 82 82 82
0.016504065082136 -0.039518882889704 -0.0605574589988069 0.181291 0.1111064 -0.977133 174 174 174
0.0514751342900763 -0.076079093460082 -0.0153685140845372 0.8494084 -0.4994818 -0.1703625 41 41 41
-0.0576316842844111 0.0573019283699117 -0.0140605282250429 0.1189268 0.6069859 -0.7857637 178 178 178
0.0808767067034766 0.0256341913540207 0.0495193464493028 0.2174657 0.8775853 0.4272619 125 125 125
0.042623987783132 -0.00997638057179906 -0.0522710725329558 0.1099992 0.3396584 -0.9340944 226 226 226
0.0541711092688257 -0.0508980398473979 -0.0337631350005523 0.8540095 -0.363999 -0.3717156 89 89 89
0.0900676290894706 0.0209918250784142 0.0541366924508324 0.3389805 0.8762658 0.3424187 115 115 115
0.000618962733249351 -0.05926842935315 -0.0476215761502255 -0.267383 -0.8461974 -0.4609298 22 22 22
-0.0526330717672225 0.0708392018869863 0.032862704301013 0.2530476 0.8872317 0.3857289 100 100 100
0.0444704850434117 -0.0500025033716046 -0.0484691917717549 0.5488889 -0.4660803 -0.6938949 95 95 95
0.0636733763251556 -0.0252083132463848 -0.0330209943765029 0.9112782 -0.2402393 -0.3344504 66 66 66
-0.0334129641192922 0.00307943584221948 -0.046104860456232 0.1037652 0.5711734 -0.8142442 218 218 218
0.0164180834991683 -0.0511595941953624 -0.058684724047829 0.2047421 -0.231307 -0.9510929 178 178 178
-0.0149310945277672 0.0517748769096944 0.0475556388867804 0.3589805 0.804811 0.4726651 88 88 88
0.0535914833701048 0.00420686249264801 -0.0421951041350204 0.3461626 0.3226951 -0.880931 233 233 233
-0.0893932961703725 0.016499744110014 0.0193910669464637 -0.9408865 0.3176098 -0.117714 8 8 8
0.0639238236083126 -0.0225968858062069 -0.0335536134572371 0.9029058 -0.2644368 -0.3388722 78 78 78
-0.053482277166589 0.0710329524010155 0.0317638927547982 0.2917123 0.8678657 0.4021355 113 113 113
0.0164430407872982 0.0632244313404595 0.0174922371073798 0.1844136 0.7673658 0.6141184 33 33 33
0.00905626971172158 -0.0524031775636143 -0.0599002261451385 0.304372 -0.1214453 -0.9447797 189 189 189
-0.042039884812517 0.058072379749412 0.0558930268155139 0.2182947 0.9237878 0.3145846 98 98 98
-0.0767890720217093 0.0200797462143625 -0.0410587515169513 0.1579033 0.4709267 -0.8679255 142 142 142
0.0141185841378051 -0.000871747300890235 -0.0460228413340076 0.08213087 0.5143587 -0.8536332 179 179 179
0.0416213531250778 -0.0668773975868707 -0.0399683889011458 0.4193474 -0.6050331 -0.6768181 87 87 87
0.0608022749104467 -0.057844722151159 -0.0135458230672654 0.8622376 -0.3748863 -0.3405973 91 91 91
-0.00704220320147364 -0.0636084413669877 -0.0381973897111563 -0.2487196 -0.7260234 -0.6411151 26 26 26
0.0282502888558565 0.038385054013893 0.0530222195578187 0.2825381 0.7995415 0.5300054 94 94 94
-0.0376158050883575 -0.0489886291427252 -0.0467093584293375 -0.2630294 -0.8005132 -0.538511 87 87 87
0.0375440505666167 0.065049649137517 0.00099871552713994 0.3425946 0.8251723 0.449132 124 124 124
0.0612665858824024 -0.0644643824781153 -0.00248770816742883 0.8786256 -0.4118125 -0.2417177 51 51 51
0.0714363845790955 0.039722008941427 0.02702693101409 0.07952877 0.8530697 0.5157007 57 57 57
-0.0386395982086349 -0.0202351213591715 -0.0548283929174863 0.07267612 0.3653268 -0.928038 111 111 111
0.0244791605650616 0.0580285782017008 0.0223925886131839 0.1621101 0.7743636 0.6116219 76 76 76
0.0567980393782372 -0.047854981785309 -0.028611648503225 0.9127747 -0.2741042 -0.3028353 98 98 98
0.0459854826042667 -0.0681040525212631 -0.0360996810934301 0.5667086 -0.5778515 -0.5873066 118 118 118
0.0560728163358024 0.0425507251651621 0.0267105224478771 0.3113161 0.8357828 0.4522713 106 106 106
0.0528428514940731 -0.0757219711553884 -0.0111519306290421 0.8810218 -0.3843987 -0.2757504 48 48 48
-0.0662280991431383 -0.0715572290973286 -0.0165177796642553 -0.3791554 -0.7886875 -0.4839558 32 32 32
-0.104984048871964 -0.0376022490441178 -0.0136822354354022 -0.9491123 0.2225537 -0.2228356 120 120 120
-0.0218764875822623 0.0581510667232011 0.0399532766288114 0.4219639 0.8253878 0.3750752 97 97 97
-0.0450016795480703 0.0578374863692698 -0.0125297006675961 -0.05811756 0.4712636 -0.8800756 181 181 181
-0.0704408148668461 0.030203621490593 -0.0346341084367173 0.2617888 0.4045045 -0.8762664 183 183 183
-0.0912914446603548 -0.0130805292120136 -0.0458478937061752 -0.7273289 -0.1066123 -0.6779576 119 119 119
-0.0189527863061865 0.0667246824791876 -0.00118466996294304 0.2158931 0.4957877 -0.8411806 163 163 163
0.0158521599400898 -0.0564143758191968 -0.0579812695053011 0.1272549 -0.3260833 -0.9367368 158 158 158
-0.0401656922073119 -0.00778744724813973 -0.0493672644495614 -0.05626966 0.1643022 -0.9848038 78 78 78
-0.0936212331970325 -0.00719555205578259 0.00144666885079787 -0.8469205 0.5077392 -0.1578811 59 59 59
-0.00624470624047735 0.00648669536137025 -0.0444657126671709 -0.02923002 0.5392112 -0.8416632 107 107 107
0.0629885169619131 -0.0224729130777428 -0.0371260112840995 0.9007481 -0.3156731 -0.2983343 144 144 144
-0.053560996076925 -0.0686132359050816 -0.0258527337287021 -0.06523157 -0.4917014 -0.8683171 110 110 110
0.0522828711343286 0.0612866245483781 -0.00493684527336996 0.2219574 0.9216658 0.3182248 112 112 112
-0.017024592843331 0.0503734110920652 0.0510063670932457 0.389582 0.8500348 0.3544949 128 128 128
0.044178541217577 -0.0768803036155069 -0.0287179689065998 0.4832776 -0.59095 -0.6459264 155 155 155
0.0469375764488613 -0.0536950500372427 -0.0447772569213919 0.5875419 -0.4121813 -0.6963484 117 117 117
0.0504727857102947 -0.00187656731906893 -0.0461692759644798 0.3422671 0.3969781 -0.8516229 213 213 213
0.0547320355916656 0.00346287266540268 -0.0419083825439718 0.3841839 0.3191336 -0.8663466 230 230 230
0.0571383378336141 0.0358615078611747 0.040888767786964 0.3185428 0.873656 0.3677712 93 93 93
-0.0378383140141181 0.0609740626269624 0.0441897006330073 0.2090204 0.8023877 0.5590031 40 40 40
