ply
format ascii 1.0
comment File exported by Rhinoceros Version 7.0
element vertex 464
property float x
property float y
property float z
property float nx
property float ny
property float nz
property uchar red
property uchar green
property uchar blue
end_header
-0.00280923764911467 -0.0118086731256606 0.00787785759509091 0.04069256 -0.7401789 0.6711776 183 188 194
0.0332260368870294 -0.0186321008675857 -0.0137816592423884 -0.7739066 -0.3406649 0.5338688 163 170 173
0.0318005305463966 -0.00548354241143434 0.0136010959057176 0.09393696 -0.7784284 0.6206651 210 184 208
0.0477346393034308 0.0219037084260761 0.0442185927423471 0.02432282 -0.758485 0.6512365 182 186 191
0.0117239485979974 -0.0196891910658014 -0.00108657732916428 0.03532851 -0.7100385 0.703276 185 188 194
-0.0703591143353739 -0.0138257191783125 0.00882103152562119 -0.2811694 -0.3932272 0.8753949 189 191 197
0.0613399484136767 0.0466359352636087 0.0548629179384176 0.03010607 0.7769292 0.6288677 154 158 151
-0.0479114279960902 -0.0114679303637282 0.00213434758666903 0.5364434 -0.4126461 -0.7361737 212 178 210
-0.0141577385002805 -0.0226795054542974 -0.00347431452660746 0.01704888 -0.7435746 0.6684356 181 185 190
0.059490154196709 -0.0212705506662961 -0.00470654922442065 0.1915444 -0.7273183 0.6590288 192 197 203
-0.0515400259857346 -0.00570479527498102 -0.00673837733311811 -0.1991619 -0.76157 0.6167217 230 191 232
-0.092318686326947 -0.0374108971374357 -0.0224033146359411 -0.09749489 -0.8390538 -0.5352415 164 170 174
0.054922329972519 0.0222671984763678 0.0345183115639331 0.8318833 -0.4950671 -0.2507562 167 172 173
-0.0784720781035793 -0.0126498875830205 -0.00776235016189036 0.1803632 -0.9295552 0.3215529 179 184 189
0.0380749300627077 -0.0152325530626772 -0.00934364798292275 0.2217165 -0.4215094 0.8793018 161 167 167
0.0554982553521191 0.0031397703860222 0.023172435598544 0.03160102 -0.7637477 0.6447409 190 193 199
0.0197576819581338 -0.000533097083988965 0.0206394772900348 0.05687302 -0.7541457 0.6542397 241 188 233
0.0214907769271386 0.0195338199313666 0.0421592074955399 -0.003438186 -0.7366855 0.6762268 179 183 187
0.0258407087394756 -0.0129375178629746 -0.00969433558421068 -0.05273218 -0.5678646 0.8214312 173 177 181
-0.074677570301648 -0.0134301890451786 -0.0125192925465951 -0.01178445 -0.9091691 0.4162602 182 186 192
0.0595348460622001 0.046697625498083 0.054622999306172 0.04578033 0.7648811 0.6425426 154 158 151
0.0701581818651178 0.0378909751738127 0.0602328757369531 0.3493416 -0.3891062 0.852383 173 178 184
0.0190791471960816 -0.0297913555642448 -0.0123247959424371 0.06989562 -0.7379117 0.6712682 181 186 190
0.0475303839132115 0.00271297829725536 0.00823998162873357 -0.1643891 -0.5920471 0.7889591 171 173 178
-0.0352519017339974 -0.00958388944422073 -0.00659500611215436 -0.1047351 -0.91674 0.3855105 223 185 220
-0.0488554126093828 -0.0122607665994381 -0.00493436151927368 0.5771051 -0.6960508 0.4271569 212 179 208
0.0635022452442362 -0.00291919080019631 0.0130835869023733 0.9400716 -0.2502277 0.2316278 179 181 181
-0.0263118077040421 -0.019386496683078 0.000942679352673115 0.02310481 -0.7674787 0.640658 244 191 238
-0.00403558502152723 -0.0273141723783431 -0.00880686733176872 0.03068721 -0.7359942 0.6762919 249 187 240
0.0452352925629507 0.0294495122506798 0.0523007733973452 0.0413595 -0.7393634 0.6720351 184 188 194
0.0624088414008694 -0.0090660773773974 -0.0145197349168847 0.9955906 0.01066785 0.09319597 177 179 177
0.0158148307161579 -0.0261630285612409 -0.00828222442186211 0.04265963 -0.7510704 0.6588424 181 185 191
0.0334518731863502 0.0208788651927887 0.0261064525179865 0.008112336 -0.9239396 0.3824522 188 183 193
-0.0564235922227931 -0.0111079512131423 0.0113954305806229 0.0430815 -0.7479641 0.6623396 187 191 197
0.0170427935515187 0.0271747693765499 0.0431202920470107 -0.4866447 0.4410295 0.7541021 166 169 169
-0.0105037342650931 -0.0105295717667171 0.0103507018060275 0.01157655 -0.7449496 0.6670203 220 188 222
0.0177715097162778 -0.00894073176896371 0.0110283166214104 0.02997045 -0.7463031 0.6649312 243 187 234
0.0523164823343771 -0.0324663698781573 -0.022488517647775 0.04764389 -0.7979607 -0.6008234 175 180 181
0.0617122253076925 -0.0165803998613833 -0.000855614850636677 0.7633412 -0.5261271 0.3748338 183 184 185
0.0276541823858159 -0.00134700687544609 0.01887415063321 0.04749123 -0.7489442 0.660929 185 187 194
0.0131020761615961 0.017835591306115 0.0325366776001806 0.8935466 0.3997558 0.2043765 175 177 179
0.0491775779874368 0.0415563853795068 0.0617759195410662 -0.2635987 0.3059213 0.9148377 174 178 175
-0.044037811923709 -0.0157403554977037 -0.0166728710559765 0.2378202 -0.6743125 0.6991024 175 174 182
0.0236480343580334 0.0153628502708525 0.0272248510154099 -0.2950757 -0.8198101 0.4907563 191 170 190
-0.00111430577367155 0.0248521193699338 0.0326448958896585 -0.5495707 0.5172448 0.6560716 170 174 175
-0.0509518168979568 -0.024166101694022 -0.0187970422406595 -0.8441178 0.2397652 0.4795599 179 174 185
0.0220947091638539 -0.0237465619993451 -0.0306248444992554 0.05977885 -0.680967 -0.7298701 179 183 186
-0.0253493348851261 -0.0242049056675134 -0.00441022556644932 0.01737624 -0.7362941 0.6764385 178 181 187
0.0625577504295736 -0.00812055085908592 0.00144952248030644 0.9934313 0.02203369 -0.1122893 176 178 177
0.0274898655733269 -0.0221246933872402 -0.00407124264127573 0.05398038 -0.737488 0.6731995 238 182 229
0.0620277769569695 0.00329960484149616 0.00745124954688703 0.9764273 -0.09953891 -0.1915247 184 186 181
0.000180410245014251 -0.0208601568550374 -0.0150477840111692 -0.5430655 0.08518668 0.835358 169 170 175
0.0678737816799044 0.0148440283181843 0.0196248029372005 0.9809534 -0.1896578 -0.0419569 184 186 186
0.049289006720282 0.0169553450781967 0.0389096710836841 -0.005804779 -0.7346246 0.6784489 189 194 199
-0.0282253667042838 -0.0168243227722066 0.00413169082721265 0.01954547 -0.7411208 0.6710871 180 185 191
0.00181817177748567 -0.020373870014363 -0.00128505605407325 0.02040111 -0.7408798 0.6713278 184 187 194
-0.0799367679764975 -0.0319177394144983 -0.02701098772921 0.03509578 -0.6695291 -0.7419562 155 164 167
-0.0300387923964403 -0.0268430748965102 -0.0073548052888141 0.07427112 -0.7084687 0.7018232 235 188 228
0.0168794516866315 0.0276858086145161 0.0326464235585891 -0.1427512 -0.8380587 0.5265735 183 187 192
0.0535743923023793 0.0124931849452729 0.0334160679050827 0.047829 -0.7570682 0.6515828 183 186 191
-0.0841613760706172 -0.0220364065592249 0.000215205643493255 -0.1969524 -0.5539855 0.8088942 181 183 185
0.0190069451165273 0.0205798410773963 0.0300420841768623 -0.06914823 -0.6815192 0.728526 175 177 182
0.00896806372164516 0.00832472677208884 0.0209044834449491 0.9399495 -0.1262473 -0.3171067 178 171 180
0.0633143843285326 0.0115015697929588 0.00554156890108193 0.9212641 -0.2454818 -0.3016804 178 179 177
0.0435538928502259 0.0225825996247535 0.0452543503354557 0.01224731 -0.7452868 0.6666315 189 190 196
0.0506116164768526 0.0103406579082808 0.0174327937584912 0.1947929 -0.913218 0.3578946 159 163 166
-0.045769122146897 -0.0347055773150436 -0.015711876792957 0.04481059 -0.7464986 0.6638764 177 180 185
-0.0282400425469715 -0.0244307935102915 -0.0319390879370371 0.03223922 -0.671726 -0.7400978 166 172 173
-0.0822491181877618 -0.0246260783784155 -0.0337154243324923 0.02972588 -0.6696625 -0.7420704 163 170 173
0.0188401480766949 -0.0280998691728399 -0.0194202122221042 0.9920479 0.1201046 0.03762721 177 179 182
-0.0224199389028206 -0.0246237156744005 -0.0317158533723876 0.00613721 -0.6629788 -0.748613 162 170 167
-0.0582012766826443 -0.0360906138700194 -0.0166109132812371 0.03769809 -0.7812693 0.6230546 205 205 215
-0.0741084665868863 -0.0318688021367178 -0.0268943381481732 0.01863218 -0.6643725 -0.7471693 164 171 175
-0.102820039345491 -0.0289950948994219 -0.0190593210898989 -0.8172407 -0.004893198 0.5762757 158 162 167
0.0473305432584965 0.0473828271829789 0.0542773137246733 -0.2728627 0.8579684 0.4352426 166 169 158
0.0558670119769866 0.000673363656943149 0.0196511338271536 0.02414428 -0.7634166 0.645455 180 184 189
0.00378361959257667 -0.013938008918974 0.00555014603978943 0.02196546 -0.7370739 0.6754551 180 183 191
0.0687229675773997 0.0291370794323316 0.0284158539343445 0.9903161 -0.1027744 -0.09333534 181 182 185
0.0633315153591241 0.00909635087006799 0.00792516632909157 0.914632 -0.2441404 -0.322248 177 178 177
0.0062211095157263 -0.0279307373302896 -0.0164719617001617 0.9011263 -0.1890723 -0.3901577 175 173 180
0.0598587972371867 -0.00620176899396985 0.0125004348222439 0.1625973 -0.7585965 0.6309465 189 192 196
0.01988249043346 -0.0214355071952537 -0.0334291710085783 0.03282331 -0.6614972 -0.749229 176 181 183
0.00776447829632598 -0.023915149414285 -0.0148511833337236 -0.09090628 0.6207208 0.7787437 174 173 181
-0.0319279455297528 -0.0124106492917567 -0.00957406557973994 -0.2192736 -0.2739905 0.9364018 218 182 215
0.055488020248105 0.0322663403997295 0.0557042019998416 0.01951907 -0.7694138 0.6384524 193 196 202
-0.0629653678308086 -0.0126869075134417 0.00983266253357429 -0.0101135 -0.6989334 0.7151152 182 185 191
0.0297155246156846 0.0122222974138056 0.033746720018888 0.03979746 -0.7466189 0.6640606 185 188 194
0.0384502829855355 -0.0283540657886614 -0.0260346907733297 0.02771143 -0.6824712 -0.730387 180 183 186
-0.0761638013847881 -0.0298959074866453 -0.00902843951871318 0.01414706 -0.7422211 0.6700058 176 180 185
0.00624185723949022 -0.0235448600336136 -0.0161058401148544 0.2747141 -0.3491611 0.8958899 175 176 181
0.00160388769212716 -0.00160202631812367 0.0195879404451396 0.04324012 -0.7422513 0.6687252 186 188 194
0.049482648712007 0.041613939395421 0.0612555108454661 -0.2762019 0.2712605 0.9220251 170 174 173
-0.0173195940767457 0.00507496471248348 0.0283236910886838 0.03792309 -0.7321352 0.6801029 190 192 198
0.0458903446315517 0.0011437793424165 0.00437163323078676 0.04740259 -0.8144916 0.5782356 177 181 186
-0.00985585060035543 0.0270027614435292 0.0227225469286891 -0.4509387 0.5242958 0.7223353 168 172 173
0.00763287017468439 -0.0123216549007796 0.00792106505321388 0.05107842 -0.7242953 0.6875953 191 193 199
0.000181338355399241 -0.0101846145445811 0.00974759862894864 0.07012141 -0.7447132 0.6636907 187 190 197
0.0334220904278952 -0.0255199361005546 -0.0290879174717949 0.01839298 -0.6821154 -0.7310132 179 182 185
-0.0291147134776191 -0.0248395505105071 -0.0168736521481778 0.1462622 -0.7956145 0.5878817 176 173 184
-0.0256288534493203 -0.019487489296656 -0.00886611094246437 0.01653889 0.6437194 0.7650828 167 170 174
0.0593958731757054 0.00697709073424724 0.0271412247424032 0.02542555 -0.7443038 0.667357 189 193 197
0.0629836283594569 0.00422316551443824 0.0235998032897171 0.3256088 -0.7437318 0.5838166 186 189 195
0.0313092525325303 -0.00448602026956257 0.000130076625545983 -0.2142892 -0.5351317 0.8171378 196 173 197
0.0394856227623697 -0.012222695573786 -0.00209079180486438 0.5032054 0.5400555 0.6746292 179 170 179
-0.0541189553522612 -0.0263569869460405 -0.0310360000840424 0.02577484 -0.6548833 -0.7552903 159 167 169
0.0662123791758544 0.0254636205757763 0.0197491405053454 0.9644421 0.1827248 -0.190953 180 183 181
0.0368646818801777 -0.0171461054900951 -0.00782451568864884 0.3139139 0.6920763 0.6499912 164 168 171
-0.0121955298237948 -0.0201975935923049 5.18854981063077E-05 0.02441237 -0.7383379 0.6739889 187 189 193
-0.00452537659495089 -0.0185003784828434 -0.0183034168666943 0.2097134 -0.6148724 0.7602317 168 173 174
0.0421715872188964 -0.0329202913898032 -0.0170668337460269 0.04000491 -0.8632315 0.5032205 181 184 188
0.0480303777434523 0.0323339916261876 0.0432794671164392 -0.4217379 -0.6288042 0.6532553 172 175 179
-0.00991475002322684 -0.0163384672938568 0.00382354100335902 -0.008115655 -0.7357007 0.6772582 189 186 197
-0.024310806823439 -0.00223351968178653 0.0198011983727611 0.03029787 -0.7594246 0.6498895 188 191 198
-0.0283033122103182 -0.0160900125814522 -0.005959654156731 0.1307459 -0.2738787 0.9528357 169 172 177
0.0275678176776397 -0.00291813201290103 0.0169836158701991 0.03447067 -0.7434606 0.6678908 181 184 190
-0.023190195472087 0.0159157450736502 0.0176990703691919 -0.4721619 0.4784523 0.7403692 166 171 174
-0.0871845924853245 -0.0101774907881903 -0.00749558721407212 -0.7693945 0.3550044 0.5310405 152 156 149
-0.00706320412098993 0.00372941772270874 0.00676574828945459 0.1943798 -0.5078102 0.8392528 221 186 218
0.0498035569294162 0.00907397181565217 0.0296872206431089 0.03532154 -0.7474338 0.6633967 180 184 189
0.0456473075387303 0.0164148125845975 0.0377414822032764 -0.01029993 -0.7467545 0.66502 182 185 190
0.0516721288182795 0.00123768275380143 0.0208273426285949 0.0370953 -0.7542143 0.6555797 192 193 200
0.0414980755698009 0.0265811068868581 0.0495446501264531 0.02489184 -0.7437528 0.6679911 181 184 188
0.021401011303424 -0.0205394618845299 -0.0111650749581751 0.9577786 -0.1876128 -0.2178569 166 168 171
0.0499143487427043 -0.0167323357525307 -0.0095835230979997 0.2818227 -0.9548468 -0.09404011 161 165 166
-0.0458072441546102 -0.0333514922143836 -0.0138624265482719 0.03362305 -0.7473764 0.6635495 175 178 185
0.01639352316261 -0.00828600965085102 0.0120742284824901 0.02075497 -0.7530943 0.6575852 222 185 219
-0.00656665314027283 -0.0361116879510364 -0.0182707097462226 -0.01955829 -0.9600269 0.2792238 187 189 195
-0.0266157437859933 -0.0145447543393947 0.00618961048470895 0.02451869 -0.7333251 0.6794359 182 184 191
0.0280426368981468 -0.0208405330071186 -0.0335070797749704 0.02392907 -0.6907535 -0.7226943 182 186 187
0.0664316828288998 0.0107456257516657 0.014821067393816 0.9447821 -0.2226696 -0.2404265 181 181 181
-0.0417025950482275 -0.030524373487015 -0.0270844031151714 0.02215034 -0.6768141 -0.7358206 165 171 173
0.0275326126345172 0.00822858190281817 0.0296757525160151 0.03517774 -0.753536 0.6564648 186 189 194
-0.0751576825880722 0.00123406022207007 -0.00176969646692815 -0.5306953 0.4361161 0.7267498 158 162 159
0.0259206054171655 0.00174548902848926 0.0222022598820562 0.05992043 -0.7467893 0.6623558 250 189 241
0.0532151718714484 -0.0290654918937128 -0.0244074757507839 0.05661756 -0.6372581 -0.7685679 189 191 192
-0.0506360610871672 -0.0171595727042175 0.00415952734753772 0.03512017 -0.7408635 0.6707368 248 189 241
-0.0780065553046958 -0.00309078695891318 -0.00165899247067858 -0.562063 0.4750403 0.6770686 159 163 162
0.0384871735608341 0.000876118373006274 0.0121450185894844 -0.9397382 -0.2947451 -0.1732557 196 173 193
0.0488986990690572 -0.00062187651002521 0.00607319148060309 -0.09121504 -0.8997288 0.4268112 171 176 178
0.00409406576624338 0.0206135814065725 0.0245217410181078 0.2473764 -0.8189593 0.517794 181 184 189
-0.0707853209873521 -0.0096617503557721 0.00719848324544015 -0.5351178 0.2164427 0.8165792 175 178 184
-0.00299252709556885 -0.0023146059632132 0.0111072292337775 -0.06428078 -0.736612 -0.6732539 168 172 177
-0.00270358416842242 -0.0111742019987737 -0.00951086899048004 0.0007528843 -0.8202806 0.5719609 227 181 220
0.0467293012415864 0.00922152611288007 0.0306286199115928 0.04261671 -0.7334506 0.6784055 185 189 196
-0.086340841509279 -0.0311425441185624 -0.010203342323663 0.03271211 -0.7426641 0.6688647 179 180 187
0.00945116222851627 0.00485920964819631 0.0267285586291257 0.03453307 -0.7345157 0.6777125 189 191 197
-0.0601439870872422 0.00753608621846436 0.00174875982014044 -0.3409734 0.2610557 0.9030986 162 166 168
0.031853287634072 0.00393827539528091 0.0173014215413637 -0.994195 0.06750293 0.08378272 177 175 183
-0.0303696671346101 -0.00809475009336669 0.0134270775173063 0.02035005 -0.7417318 0.6703878 184 187 192
0.0425544693464142 -0.0291143226931444 -0.0128472358806735 0.0426586 -0.7401726 0.6710625 176 180 185
0.0025860972681615 -0.0165664452861546 -0.00850267349277611 -0.07103256 -0.7915246 0.6069952 189 167 189
0.0588620683697654 0.0399309405259569 0.0635972578959447 0.02578079 -0.4252137 0.9047257 168 171 173
0.0396617466063267 0.0147668825724765 0.0246618743895192 0.5482493 -0.1784571 -0.8170531 163 166 168
0.0474397628441912 0.016004626089055 0.0375156511929721 -0.01211332 -0.7407331 0.6716903 183 186 192
0.0600841800145959 -0.00388730004776394 0.0140137000061693 0.1163696 -0.7527513 0.647938 189 190 196
0.0501798767836723 -0.0169749644036861 -0.0121126101805305 -0.335178 -0.8100638 0.4810949 170 171 174
-0.0489166056312813 -0.032398084498775 -0.012552383445628 0.04971787 -0.749607 0.6600133 219 186 215
-0.0486342494781695 -0.0309970258350306 -0.026485232158687 0.02926346 -0.6610041 -0.7498115 163 170 172
0.0572976338139721 -0.0272945368211169 -0.0266228963995994 0.01939115 -0.7088777 -0.7050648 177 179 181
0.0362164082541918 -0.0198875280505567 -0.0343015775554836 0.0374772 -0.6817824 -0.7305945 181 183 185
-0.0157346308995185 0.0123703264193382 0.0183623912600704 0.5632325 -0.3589713 0.7442505 194 182 198
0.0136340846421232 0.00886107244255341 0.0308538905163495 0.0187208 -0.747285 0.6642399 181 185 190
0.0695833060824347 0.0315321900309196 0.0541376850535834 0.4008323 -0.7584983 0.5138227 190 194 200
0.0259427341650245 0.0243018175783808 0.0476302593408385 -0.04030747 -0.6173394 0.7856636 181 185 190
-0.0144208675595694 -0.0107728535478545 0.0102823617414402 0.01268271 -0.7475136 0.6641254 236 187 229
0.0193773639511372 0.0167426759217211 0.0393487886712723 0.01730269 -0.7478285 0.6636664 188 191 196
0.0671671675868986 0.0287701071832809 0.02227982499727 0.9771537 -0.04445749 -0.2078324 178 183 183
0.0433404162956377 0.0135102166152006 0.0216048328487043 -0.1911657 -0.7022515 0.6857831 165 171 173
-0.06514130614769 0.00664912114864491 0.00137370200464992 -0.425469 0.5523529 0.7168559 157 161 161
0.0553450747730873 0.0258667506267176 0.0481564121882319 0.05118515 -0.7527009 0.6563699 195 197 201
0.0611435011760593 -0.0258154417498467 -0.0174770179148184 0.9198157 -0.3889905 0.05124065 176 179 181
-0.0282776238634677 -0.0101163676664827 0.0113264070379861 0.02003199 -0.7416256 0.6705149 183 185 192
0.0652381106015865 0.0114821276720534 0.0113233768823803 0.9080975 -0.263042 -0.3258341 173 175 175
-0.0126807918724561 -0.00839052854460332 -0.00797632847478302 -0.007890212 -0.7534279 0.6574832 199 187 204
-0.0431283020588848 -0.00887760700785201 -0.00689171931492383 0.3500481 -0.7125548 0.608056 221 186 220
-0.0143860324783551 -0.0327685622743453 -0.0141967092825964 0.0004051686 -0.7200522 0.6939198 182 183 190
0.0339088913190642 -0.0267951087292381 -0.0276675695039414 0.03063163 -0.6651591 -0.7460731 179 181 185
0.037650550623864 0.0206806413468731 0.0431624719942967 0.01643231 -0.7452196 0.6666166 185 188 194
0.00157243996547063 -0.0217642464496162 -0.00288499211060472 0.02709893 -0.748315 0.6627898 180 184 191
-0.0342566130868454 -0.00987774770979544 -0.00137970216331507 0.235272 -0.9697278 -0.06538371 195 187 202
0.0444162271526904 0.0191192232098109 0.0310805463308569 0.9502128 0.302433 0.07503241 167 171 176
-0.0242950587541442 -0.00409410163540924 0.0177080504118791 0.07188173 -0.7693575 0.6347614 182 186 192
-0.0267721066461286 -0.0102576483176114 -0.00207634402483131 -0.004477901 -0.9250742 0.3797601 179 177 184
-0.0445648762644355 0.00855458680347998 0.00935094834945527 -0.4837656 0.6529987 0.5827209 156 160 158
0.00971757033276166 -0.0108469248924508 0.00879092228983519 0.02205215 -0.7354065 0.6772673 182 185 191
-0.0896895257566284 -0.0219105781835139 -0.00864968827545648 -0.4299794 0.328123 0.8411022 155 160 163
0.0578232227638376 0.00255044132855231 0.0217004379537844 0.01880608 -0.7649482 0.6438171 186 189 195
0.0342580273841042 -0.00504373095046973 0.00951828848497221 0.9821156 -0.06884369 0.1752412 203 166 196
0.0181921479954337 -0.00496821973876416 0.00382358482389178 0.06244507 -0.5964743 0.8001993 170 169 175
0.0616553665491635 -0.0145284132321049 0.0029859772654553 0.5762352 -0.6321203 0.5180511 187 188 192
0.0394751776870477 0.0105262619131614 0.031679740235305 0.1120366 -0.7486643 0.6534138 188 190 195
0.0639956508884891 0.000654694522320809 0.0173805679195399 0.7992587 -0.5668541 0.1996548 177 179 181
0.0704415147325159 0.0430266768165469 0.061269937304684 0.4646144 0.5054255 0.7271028 189 190 185
0.016167975066149 -0.0343018456197947 -0.0175993559023803 0.0726712 -0.9004768 0.4287896 182 185 189
-0.0380171669798077 -0.0121931585009086 -0.0108811535528476 0.04305122 -0.7218881 0.6906693 186 186 197
-0.0399718609009208 -0.0378159778912122 -0.0210475627159207 0.08596043 -0.9264969 -0.3663527 176 181 183
-0.00431772399072461 -0.0300886797843253 -0.0118366657407566 0.03257785 -0.7487952 0.6620004 230 184 224
0.0630967086812877 -0.0119267459731677 0.0033386929820966 0.9035594 -0.405883 0.1372566 170 171 169
0.0212327434692545 0.0266766327331994 0.0339325554677679 0.2222675 -0.9699035 0.09942029 177 181 185
0.0654706732125794 0.00315942182491935 0.0193861607345878 0.8561779 -0.5153679 0.03681552 180 183 185
-0.0915763869874135 -0.0278543221019776 -0.00614008895133017 -0.335407 -0.5359496 0.7747645 174 178 180
-0.0606578932304176 -0.0363237324403031 -0.0164887777131275 0.02095003 -0.7671388 0.6411389 185 189 197
0.0469394528571749 0.047870368837989 0.0520042520096961 -0.2944146 0.8742029 0.3861209 162 165 155
-0.0105421933060974 -0.0333886173794499 -0.0156429841960543 -0.0002114836 -0.7345484 0.6785562 182 185 193
0.0123324684936401 -0.0158097165746135 0.00332875147862943 0.1071065 -0.7365338 0.6678668 189 191 196
0.0518030287085436 -0.0214744967754819 -0.00488163380928947 0.03608817 -0.7073361 0.7059556 180 183 187
-0.0708298963918308 -0.0156916168350687 -0.0190085130818529 0.09445917 -0.7884497 0.607803 162 167 171
-0.0641699991691436 -0.0266508739487917 -0.0312518177848541 0.03035275 -0.6642096 -0.7469299 164 171 171
0.0467561908578853 0.0274297280844844 0.0388530489804962 -0.2942335 -0.7098386 0.6399655 167 172 172
0.0365342116076883 0.0425799421618963 0.0462963164918789 -0.449877 0.7749588 0.4439026 161 166 164
0.0473113142422008 -0.0198807037785623 -0.00222168787634736 0.07306883 -0.7440049 0.6641669 184 187 191
0.0583872717505249 -0.0318021152376737 -0.0216679524538749 0.603006 -0.7615921 -0.2374051 199 202 204
-0.0218358967938892 -0.009350125777566 0.0119613170768982 0.03868524 -0.7406426 0.6707846 192 193 200
0.0416490389158986 0.0342568096396276 0.0424697387004951 -0.0982748 -0.7326309 0.6734939 174 178 181
0.0502207734575242 0.000856446864080374 0.00367355410731313 -0.1561452 -0.8670219 0.4731719 171 176 175
-0.0195766943433773 4.83775089828997E-05 0.0106226284144997 0.8500636 -0.5186813 -0.09144189 202 171 200
-0.103366162688073 -0.0237254717315213 -0.0211962659450791 -0.7403865 0.1437119 0.6566389 136 142 138
-0.0370559118099516 -0.0205836242390045 -0.0146053371411153 -0.3973803 0.05778978 -0.9158325 183 171 188
0.0633971194859209 0.0296732456142511 0.0523076850786184 0.01459245 -0.7461484 0.6656197 181 185 192
0.0415078181851483 -0.013066015227464 0.00512706276940289 -0.008541639 -0.7473395 0.6643875 231 185 223
0.0303331457625537 0.00320976218645941 0.0183264720588278 -0.4034685 0.1584792 0.9011645 175 174 182
0.0254548781927779 0.0420367297281427 0.0384387473172251 -0.3974535 0.6774477 0.618947 166 170 163
-0.0881899613849626 -0.0248446248977315 -0.0337075420439807 0.01727729 -0.6656585 -0.7460564 164 171 173
-0.0201878379192797 -0.0367788435463769 -0.0192269557011185 0.05940029 -0.9750441 0.2139172 183 187 190
0.0624631608854562 -0.0069359613965152 -0.0144251611452047 0.9938959 0.01083993 0.1097878 181 183 179
0.0271475968683115 0.00917009325631313 0.0194880477474567 -0.242926 -0.6082855 0.7556294 182 172 187
0.0602237526577811 -0.0241126396892405 -0.00751202491287828 0.3182261 -0.6942757 0.6455334 189 193 198
-0.0564940544354835 -0.0030252036259627 0.0129431543893982 -0.3875481 0.5004748 0.774165 165 168 170
0.0257123026976656 -0.034312420981498 -0.0177923987691974 0.03736037 -0.9039978 0.4259016 181 184 188
-0.0429186829189989 -0.0139126498732888 -0.0146263373718993 0.09585821 -0.6988506 0.7088152 201 184 206
0.0261474360613798 0.00634795546470812 0.0135671910067506 -0.2475971 -0.9534246 0.1722708 196 173 195
0.0200552785492079 4.23082828276966E-05 0.00666510936303871 0.02116785 -0.1702417 0.985175 174 178 184
-0.0653043068446735 -0.0226667213905993 -0.0263483977625149 -0.09553663 -0.7438769 0.6614528 170 176 179
0.0516571034772495 0.023011687614427 0.0336186566528106 0.08168435 -0.7267709 0.6820056 164 169 172
-0.0401720571906194 -0.00531945884759566 0.017015051788719 0.08143314 -0.7368532 0.6711303 181 184 190
-0.0962513792111768 -0.0357420393560294 -0.0151089126119678 -0.2232306 -0.8001983 0.5566424 186 189 197
-0.0177954620315992 -0.0110760710703506 -0.0113967928669023 -0.1443895 -0.5518228 0.8213667 189 183 196
-0.0894990386871148 -0.0261407031898446 -0.00457383018735441 -0.3980659 -0.4932002 0.7734967 178 179 185
0.0688090798476386 0.0343611233071037 0.0400088728059404 0.9905201 -0.1236393 0.0598596 181 183 186
-0.0775608035433466 -0.00517270467471631 -0.0018388850103726 -0.5565825 0.4809893 0.6773959 141 150 145
0.0155050988000083 -0.00893990428169389 0.0108158335335216 -0.03768099 -0.7522704 0.6577761 199 186 202
0.023597428233276 -0.00430818086473228 0.00921910661152098 0.5960448 0.4010495 0.695622 186 172 188
0.0178779957320083 -0.0022828412643604 0.0178977929577216 0.02427357 -0.753557 0.6569343 250 188 241
0.0354510698671104 0.0224956537808418 0.0454597413840822 0.01316262 -0.7375615 0.6751516 187 190 195
0.0628661219951656 0.0328191808382921 0.0561871255682109 0.0007382141 -0.744629 0.6674782 183 187 194
-0.0138728920156845 -0.00877693004216773 0.0123198368415571 0.01134351 -0.7401984 0.6722929 249 188 241
0.0476782190836547 0.00388886397183363 0.0241277668277132 0.02252869 -0.7598765 0.649677 181 184 190
0.0689516389387377 0.0306371515305063 0.0339915928681851 0.9965749 -0.08215348 0.009447953 176 179 182
-0.00195828448698077 -0.00464928763886185 0.0167668309983489 0.02347196 -0.7521002 0.6586307 185 190 195
0.00175324932077014 -0.00711474074814711 -0.00727653614068269 -0.06518522 -0.7027045 0.7084894 190 184 196
-9.89591895050879E-05 -0.0132165572310374 0.00686698118185369 0.05617565 -0.7452629 0.6644001 188 190 197
-0.0322239807142841 -0.0364294072676545 -0.0177175179233943 0.008864476 -0.8589882 0.5119187 180 183 187
-0.0680782018616464 -0.0216045179738779 1.92276055187013E-05 0.006508586 -0.7256739 0.6880081 178 181 187
-0.0225657707838289 -0.0261256735198352 -0.0308056468850371 0.01508037 -0.6801743 -0.7328953 170 175 174
-0.0936942941514465 -0.0373909488427949 -0.0223639940766237 -0.1249528 -0.8526968 -0.5072424 165 173 178
0.0158108277499496 -0.0250799279365403 -0.00705043782014186 0.03120693 -0.7430655 0.6684906 188 192 196
-0.0466300593190629 0.00845495089547588 0.00897996205789581 -0.385677 0.6786464 0.6250538 161 165 161
-0.0101154350128683 -0.0171163982812765 0.00277349013488276 -0.006717713 -0.7285759 0.6849321 189 187 197
0.00857280777210523 0.0193813012821381 0.0306105439258521 0.2417114 -0.4562902 -0.8563731 172 174 177
0.0686616908283684 0.0168801112655832 0.0218120036293234 0.9938289 -0.1083157 0.02391437 183 184 185
-0.0150109453820653 0.00703052249896607 0.0180177722403291 -0.3512895 -0.2067371 0.9131569 221 173 212
0.0368895538463816 0.00766966121593948 0.00973878614388768 -0.1793896 -0.8088042 0.5600492 210 183 208
0.0618028542181532 0.0183012973762809 0.0396582445137583 -0.02206816 -0.7627594 0.6463057 186 188 193
0.0414529633464076 0.0130623927446877 0.0253628070176819 0.5021788 -0.6885455 -0.523184 166 169 172
0.0434933458668638 -0.00718138626229836 0.0115118195605535 0.01750747 -0.7478944 0.6635868 182 184 191
-0.0179997531757481 -0.0349597301603387 -0.0170452206080606 0.002247804 -0.8394366 0.543453 179 181 186
0.0683073604447388 0.0243621397091515 0.0358270116136427 0.99424 -0.1067071 -0.01001644 179 179 183
0.054522248104389 0.0172176451530653 0.0272612591533343 0.8841258 -0.1637498 0.4376158 170 174 178
-0.0843339313137514 -0.0245597894221135 -0.00225298600294271 -0.01789746 -0.6652555 0.7464012 184 188 195
0.0556050590496211 -0.00875882789263493 -0.00155418722994 0.1357301 -0.7148359 0.6859934 167 170 173
0.0402781022197702 -0.0197339730458441 -0.0134953678796996 -0.9514774 -0.2398187 0.1928152 162 166 169
-0.04636694852839 -0.0142453499430121 0.0073125919526551 0.02786206 -0.7532319 0.6571647 248 187 241
0.0684754454951841 0.0304702790783441 0.0414635303842911 0.9974054 -0.003689753 -0.07189569 172 174 176
-0.0661111670273939 -0.0285361765357161 -0.0295355901791318 0.02564694 -0.6464974 -0.762485 164 171 172
0.00186522846375237 0.0295630548941931 0.0309772355225262 -0.481299 0.5781727 0.6588381 169 171 172
0.0628654852196702 -0.0235454145143846 -0.00755630751190334 0.7233526 -0.489522 0.4869591 187 191 191
0.065442280852924 0.0147493435903494 0.0356266380034712 0.2982776 -0.7385314 0.6046502 188 191 196
0.0126439883527842 -0.0334599494648432 -0.0167710440229509 0.04570534 -0.7885901 0.6132184 181 184 188
0.056084370816472 0.0115031927589435 0.0191203273182555 -0.05051304 -0.910061 0.4113848 163 164 167
0.0184707798903778 0.0288118976777465 0.0422909333486106 -0.5254986 0.4573908 0.7173874 159 167 163
-0.0901505407421075 -0.0313948503105179 -0.00997381523883928 0.02834648 -0.7335487 0.6790455 179 183 188
0.0465909556232162 0.0202356937852499 0.0267152728945061 -0.1919407 -0.5858212 0.7873832 174 175 182
-0.0540240384724839 -0.0273333201746577 -0.03013105300805 0.02851826 -0.6667286 -0.7447548 159 167 169
-0.0240045339020423 -0.00128275546345324 0.00893228742381208 -0.4878283 -0.7278651 0.4819086 212 177 208
0.00387196372990228 -0.0261899878881472 -0.00773886231375687 0.02762665 -0.7214875 0.6918762 232 184 225
0.0051857852648558 0.0305463778155947 0.0324186818680643 -0.5450634 0.5425109 0.6392087 163 168 169
0.011928620374813 -0.0107616582121617 -0.00724340856777833 0.386389 -0.8769445 0.2857828 178 181 187
0.0352111786745288 -0.0220396330756406 -0.0218668531592842 -0.04746581 -0.8613125 0.5058535 173 177 178
-0.0440800155649361 -0.0248028123156814 -0.00405447419240196 0.005599473 -0.7188222 0.6951714 250 189 243
0.021874740279741 0.0184144480566785 0.0411393615808723 -0.0003555807 -0.7249763 0.6887738 180 183 188
-0.0923419299042729 -0.033855782227089 -0.0127894721058614 0.01182573 -0.7461878 0.6656305 179 184 190
0.0669409119788993 0.0206465516845595 0.0419915508008423 0.5026094 -0.6450262 0.5756084 184 187 192
0.0156105403881623 -0.0231836649368227 -0.00510012715095098 0.02879112 -0.7382866 0.6738724 185 188 193
0.0450264152679187 -0.0258774803730838 -0.028473990045193 0.04097224 -0.6525928 -0.7566003 177 181 185
0.0518009764944791 0.00685358285272397 0.027237126510969 0.041358 -0.7430431 0.6679644 185 189 194
-0.101243869852618 -0.0222631899487408 -0.0200275411944008 -0.7302712 0.183623 0.6580171 141 148 142
-0.0582398292779072 -0.0246654059578838 -0.0322185030089048 0.0004780374 -0.6824142 -0.7309655 165 172 174
-0.0862573132311795 -0.0361765509022858 -0.023406679283595 0.02928057 -0.6841075 -0.7287932 167 174 177
0.0288248518973573 0.0233131318213483 0.0461087943577426 0.01066966 -0.7284254 0.685042 181 184 190
-0.00816790313256988 -0.0108071830024845 0.0103322490112283 0.06889074 -0.7484955 0.6595518 251 189 242
0.0458722414630044 -0.0187822207166553 -0.00142007121809218 0.07679062 -0.7448402 0.6628094 190 191 196
0.0691510741379995 0.0277051764986428 0.0430623337666871 0.9949083 -0.02518479 -0.09758721 174 176 178
0.00828259312277435 -0.0212950892443865 -0.0224020738098083 0.1906702 -0.4192627 0.8876169 177 180 185
0.0666332820361797 0.0464238039476698 0.0548639201166508 0.1406226 0.7931781 0.5925316 162 164 161
-0.0126207577293647 0.00174648889845808 0.0238766216488138 0.05607542 -0.747058 0.6623896 185 187 195
0.0310465834325671 -0.0185229822581972 -0.0106270813364392 -0.8400974 0.4831982 0.2464873 168 169 172
-0.0781144797594413 -0.0243231736969645 -0.00262449385372271 0.04691475 -0.7545012 0.6546198 177 182 187
0.0497418370129292 -0.0198841201070791 -0.0151849841391273 0.1419935 -0.577245 0.8041306 165 172 174
0.0198405767191394 0.00362333705151296 0.0242416917943025 0.007713977 -0.7319999 0.6812611 199 187 205
-0.0882691525623196 -0.00997912856210892 -0.0105595634721767 -0.7331217 0.3584399 0.5779736 142 147 145
0.0380401077827015 -0.0356044104144891 -0.0198824339102252 0.09821822 -0.9890457 -0.1101896 187 191 193
0.00676719159318662 -0.0167195888171406 -0.01211288731251 0.09364017 -0.824165 0.5585549 172 171 178
0.0518139257398635 -0.00710585861638857 0.0109162105559165 0.01809031 -0.7402227 0.6721184 184 184 191
0.0474921696947801 -0.0203992470276745 -0.00324085158973253 0.05569343 -0.7243101 0.6872213 182 185 189
0.00261072260242123 0.00742572695559429 0.0125652352595899 -0.401588 -0.8912471 0.2107266 177 179 185
0.0489266604903031 0.00228240769108634 0.00653437839549503 0.03016699 -0.7694898 0.6379463 174 179 181
-0.018004533333003 0.00347108109414496 0.0261089810262949 0.03060311 -0.7498352 0.6609165 181 185 191
-0.00647994716029121 -0.0282963185902648 -0.00968599920876917 0.030446 -0.7415638 0.6701912 250 188 242
-0.0185138041683341 -0.0279105999694828 -0.0286827490845853 0.03581805 -0.6844578 -0.7281721 168 173 175
0.0597194157168586 0.0340282497715791 0.0459005828553954 0.5448654 -0.7340382 0.4053511 162 168 169
-0.0222879545829349 -0.0230882137601448 -0.00330802237138339 0.01724565 -0.7564136 0.6538662 179 183 188
-0.0720468091740889 -0.00950039194640262 0.00654827824676452 -0.5295739 0.2912225 0.7967063 175 178 183
0.0178341720577366 -0.0146680724858639 0.00427146988674409 0.02760515 -0.7541777 0.6560898 183 185 191
-0.0161761437659251 -0.0252954953669555 -0.0059548644378582 -0.01173924 -0.7336493 0.6794268 185 187 192
-0.0643466212823265 -0.0210106665281973 0.000600955876021603 0.01259404 -0.7246628 0.6889885 186 189 196
0.00569750393672397 -0.0354903377935256 -0.0188726524402191 0.1590218 -0.9771008 0.1413718 184 188 193
0.0600044108481059 -0.00144973096806389 0.0172600849085793 0.09897316 -0.7497689 0.654256 191 193 197
0.0129357796488385 -0.00128852198448359 0.000751176157057443 -0.02769475 -0.498558 0.8664138 181 185 190
-0.0641101029549143 0.00438899723052044 0.00331131845309762 -0.3818309 0.5275427 0.7588833 159 164 165
0.0114577598104999 0.0345848902112795 0.0354595226486324 -0.5713467 0.4693522 0.6732544 175 176 175
-0.0961584821170778 -0.0233279180505416 -0.0126287286484346 -0.8108953 0.2088894 0.5466388 141 150 144
0.00536268255623629 0.00378131657894587 0.0256405030546009 0.02971426 -0.7390949 0.6729456 189 193 198
-0.0203252704498711 -0.0341351442341433 -0.0158989669208714 0.01656787 -0.7537371 0.6569672 171 174 180
0.00562562318336202 -0.0349041189527487 -0.0177630254328603 0.07154746 -0.8967009 0.4368163 180 184 189
-0.0176411692419682 -0.0233947771323091 -0.0147808672203736 -0.589 -0.6088617 0.5313816 171 169 177
0.0633421581586466 -0.0051216679260454 0.0111452331369292 0.9248049 -0.2467659 0.2895557 182 182 183
-0.00420361310969231 0.00355950345628364 0.0162936874479873 0.5100057 0.5794931 0.6356744 175 176 182
-0.0804154062406761 -0.0135223363606708 -0.0153562223195993 0.2413079 -0.8087528 0.5363668 168 173 177
-0.0639939771290337 -0.0183703532861272 0.00347340956724468 0.01189136 -0.7474755 0.6641829 189 192 199
0.0225552014918575 -0.00216272490796032 -0.000651024820313484 0.07858709 -0.8196908 0.5673897 186 182 192
-0.0258751349229227 -0.0343720774005919 -0.0232911816176217 0.02724015 -0.7288465 -0.684135 174 179 180
-0.0123269556284749 -0.00399903120480283 0.0176696756378698 -0.001379048 -0.7430308 0.6692559 241 185 232
-0.0229520754335324 0.00555296337883648 0.00896667360516662 -0.0662087 -0.820884 0.5672441 213 185 212
-0.00559692953259905 0.0159597293127337 0.0359945945917429 -0.4465283 -0.09293154 0.8899304 168 172 180
-0.00816305256563954 0.00556826914181208 0.027693378393585 0.02421453 -0.7521784 0.6585145 182 185 192
0.0514271033739258 0.0113702903729049 0.0218529333661809 0.5366952 -0.8101135 0.2359539 168 171 174
-0.000821580393568944 -0.00571684402345529 -0.00624526319883612 -0.04090932 -0.7955245 0.6045387 211 185 212
-0.00658728579944068 -0.015943664041268 -0.0146767250512896 0.0760625 -0.820278 0.5668849 195 184 199
-0.102074854590906 -0.0150052666319186 -0.0228858664481539 -0.6736144 0.2348769 0.7007685 136 143 138
-0.00871811477935225 -0.00581819289752139 0.015163580804834 0.04355226 -0.7664852 0.6407836 250 187 242
-0.00616074179039217 -0.0329377448185673 -0.0149962330106468 0.03008193 -0.7380802 0.674042 188 191 197
0.0624007825433459 -0.0250708854417556 -0.0207225397213249 0.9006947 -0.3844697 0.2023168 178 182 184
-0.0740688378502439 -0.0233126356409844 -0.0343275739341107 0.03799218 -0.6696007 -0.741749 165 171 174
0.0237427416094791 -0.00496021596915897 0.0149376622162856 0.02347407 -0.736801 0.675702 191 190 199
-0.0383150903179112 -0.0287747758695462 -0.00918471651719011 0.01231459 -0.7491295 0.6623091 184 188 194
-0.0181010607471412 -0.0134503837285019 0.00710174780827749 0.03407194 -0.7295916 0.6830338 246 188 238
0.0579695368272288 0.00409087474345582 0.0234439052530191 0.01571914 -0.7578436 0.6522469 186 189 195
-0.0502953140155435 -0.0194958574083045 -0.00654511158817656 0.9414276 0.2921465 0.1684175 228 177 220
-0.0053495483968371 -0.0227975798867748 -0.0198213634218482 0.36131 -0.7619847 0.5374331 169 173 175
0.0630541021381319 -0.0160373702165817 -0.0150688501611193 0.9550647 -0.01678582 0.2959218 187 188 184
-0.020944681890751 -0.0260106250344599 -0.00618880126723897 0.01533818 -0.7561837 0.6541796 184 186 192
-0.0264482108921635 -0.0278732885159689 -0.0149852682162074 0.07259228 0.6097204 0.7892854 176 169 181
0.0373842777782292 0.0122503711493513 0.0333271368086538 0.04421006 -0.7351584 0.6764522 181 184 188
0.00981320873065439 0.0359669537224947 0.0319011451708704 -0.5837517 0.4936033 0.6446625 165 169 165
0.00328654269572493 0.032890539506796 0.0286002086990089 -0.5178171 0.4326134 0.7380455 166 172 170
-0.0422825927844324 -0.036744359856941 -0.0178968237282723 -0.0122361 -0.9182338 0.3958498 176 180 184
-0.0310981257461274 0.00362361531746369 0.0260105698380698 -0.07414594 -0.5480296 0.8331662 178 181 185
-0.0475404839707005 -0.0210557108912051 -0.000168831252230828 0.02941589 -0.7431297 0.6685005 214 190 213
0.0407451201820974 -0.0212281822490384 -0.0327620993603273 0.04642575 -0.6699641 -0.7409405 178 183 185
-0.0323126031988119 0.00744244789138593 0.0080004492901985 0.1913217 -0.9730534 0.1286976 187 191 198
0.0687168129322311 0.0324803694868037 0.0419421214684642 0.9969617 -0.04467975 -0.06380605 174 177 180
-0.0305120028106112 -0.0323846679954283 -0.0250618002502844 0.02271151 -0.633642 -0.773293 169 174 177
-0.0401222550098268 -0.015559647742983 -0.0179258191358243 -0.06257071 -0.6778768 0.7325081 170 172 176
-0.080515115281421 -0.0280420013749748 -0.00682804660261599 0.03199943 -0.7422665 0.6693403 176 180 185
-0.106432466700208 -0.018171117655611 -0.0266795543167417 -0.7035489 0.1025302 0.7032116 147 153 149
0.0634062925234646 0.00126922534368934 0.0147066505734711 0.9501625 -0.2935847 -0.1048771 175 177 177
-0.0602843981922625 -0.0387234594759248 -0.0195044941487253 0.01904929 -0.983901 0.1776963 192 196 203
0.0652917840361349 0.0126644089413533 0.0331738021071377 0.3246122 -0.7029235 0.6328709 179 182 187
0.0686698956765088 0.0289146875956818 0.0266091436213164 0.9820343 -0.1319921 -0.1348578 180 182 182
-0.00687214331363251 0.00576882156803515 0.0279389571643628 0.0117345 -0.7514631 0.6596708 181 184 191
-0.0722218114295554 -0.037424711860862 -0.0173290067395682 0.007615746 -0.8341491 0.5514864 178 183 188
0.0655511232851955 -0.0143462609430398 -0.0288268758631739 0.9960579 -0.06994706 -0.05455255 184 187 189
0.0639413712096566 0.0281794465121968 0.0503012585103786 0.03292364 -0.7550202 0.6548744 184 187 193
-0.0114639033525439 -0.0291328395546337 -0.0263978698208425 0.007406098 -0.7114028 -0.7027455 184 188 189
0.0456298853737005 -0.0248804526848709 -0.0281883633434429 0.03630044 -0.6427835 -0.7651874 184 187 191
0.0119030228524446 0.0102229778265117 0.0140352264854742 0.1627758 -0.7588732 0.6305676 182 180 188
0.0521536317307651 -0.0185015111415778 -0.0188039432480167 -0.001041212 -0.7845557 0.6200575 169 173 176
0.051469086567149 -0.0173912971613109 -0.000738199815337348 0.0594447 -0.788461 0.6122056 182 184 188
-0.00383316994868377 -0.0362643577107615 -0.0198883763509907 0.005324201 -0.9953045 -0.09664632 176 180 182
0.00542632053163583 -0.000744945086571414 0.0204134318878769 0.03188513 -0.7369128 0.6752354 187 191 196
-0.0719009713269374 -0.0275428999057202 -0.0185539198574701 -0.5342458 0.2726586 0.8001491 173 177 182
0.061512907743416 -0.0262967602378421 -0.0197389029169897 0.896796 -0.4272233 0.1150526 180 183 185
-0.0025337759133448 0.00104837580892858 0.022880072228582 0.007589244 -0.7361357 0.6767914 186 190 196
-0.0202983845695943 -0.0242116516384779 -0.00849451750802799 0.8865442 0.3934454 0.2433929 174 174 181
-0.106460638295277 -0.028543036948197 -0.0312703126024313 -0.07522755 -0.6676481 -0.7406664 162 172 175
0.0642929737385929 0.0149358488302682 0.00571592884988437 0.9026382 -0.2728352 -0.3328742 173 173 173
-0.00190126348461295 -0.0294025503515363 -0.011262704929105 0.0433065 -0.7583638 0.6503913 247 188 236
0.000994481706177552 -0.0200576321815094 -0.0084140820698127 0.1395639 0.6709623 0.7282386 219 173 210
0.0197561182139259 -0.0172966995034928 0.000941242265829978 -0.03440228 -0.7305139 0.6820307 182 185 191
0.0394599345080326 -0.0199715632392388 -0.00192833835948736 0.04611469 -0.7430868 0.6676042 190 184 198
0.021240243508851 0.0172415343589728 0.0318356577480024 -0.9609129 -0.1347302 -0.2418558 175 177 181
-3.47612294753219E-05 -0.0262119529243706 -0.0296324332444406 0.04963559 -0.6597251 -0.749866 173 178 182
0.0348225219682616 -0.00419561930575219 0.00692865071079479 0.8207007 0.3819148 0.4249606 202 167 198
0.0633001715990549 0.0344866759855182 0.0576385408002631 0.005850872 -0.7249293 0.6887984 194 195 201
0.00539730947182004 -0.0344267780949564 -0.0218186268637797 0.004640604 -0.8558725 -0.5171661 183 186 189
0.0349993723857507 0.0303352682135017 0.0367336184821199 -0.01568428 -0.8357316 0.5489142 176 181 185
0.0625071499122756 -0.00043698119161939 0.0103572583651356 0.9836769 0.09082184 -0.1553422 163 166 161
0.00275919845676675 -0.00843817496818855 -0.00630632549193699 -0.3188383 -0.7232002 0.6126366 187 179 193
0.0111139699559297 -0.0235561674516107 -0.0164050900041293 -0.1262798 0.3160269 0.9403087 172 176 179
0.0494732135401099 0.01555523688405 0.0365485364847946 0.002423342 -0.7533768 0.6575847 184 187 191
-0.0458805984459421 -0.0223245022833033 -0.01193779378316 0.8210583 0.3551025 0.4469513 180 177 186
-0.0585266402213493 0.00514424636599753 0.00507260560680023 -0.4647819 0.5049213 0.7273461 165 166 168
-0.08141521345103 -0.0201217176619426 -0.023434274663834 -0.1579771 -0.4914022 0.8564853 164 168 171
-0.0361611191586597 -0.0299998013299853 -0.0273765480170755 0.01728096 -0.6643377 -0.7472328 166 171 173
0.0477906470613014 0.0239636451265098 0.0464550991877836 0.08281684 -0.7468734 0.659789 179 183 188
-0.0063238219086772 -0.0307609778124724 -0.0256216815836907 -0.01928937 -0.7073547 -0.7065955 171 176 177
-0.0321920367537745 -0.0320988678009811 -0.0253715099275121 0.03034923 -0.623215 -0.7814615 164 169 170
0.0328935175026119 0.0247552828800564 0.0476273455720237 0.02149974 -0.7458931 0.6657187 180 183 188
0.069935250056905 0.0399992912894576 0.0423886220907085 0.9898421 -0.1392626 -0.02860948 176 178 181
-0.0225341870749363 -0.0314560144428592 -0.0128421196808318 0.03373261 -0.7474725 0.6634358 183 186 191
-0.0812830768856649 -0.0183944003015706 0.00258275625660204 -0.4854887 -0.1290793 0.8646613 162 167 169
-0.0623678956682649 -0.0270644250571814 -0.00605135564391568 0.06821001 -0.7488689 0.6591986 193 195 201
-0.00666989430308274 -0.0031186553858471 0.0186109953884144 0.01884524 -0.7421395 0.6699805 237 186 229
0.0621761237934617 0.0107202182232145 0.00345943854902514 0.9449787 -0.2136074 -0.2477642 171 172 171
0.0479352091687408 -0.0190842115711157 -0.0344428772783456 0.04142921 -0.6819038 -0.7302676 180 183 184
0.0358844873839717 0.0115255136426815 0.032020132838965 0.03241553 -0.7207575 0.6924289 184 187 191
-0.00498854840996454 -0.015096460215735 -0.00973797653314734 0.9350502 0.18714 0.3010976 210 174 207
0.0597687733410881 -0.0158324695339261 0.0021970791916226 0.2424035 -0.7496048 0.6159003 188 190 193
-0.0306303207871963 0.000215039133284911 0.0140077085808836 0.2055795 -0.6454479 -0.7356182 173 177 180
0.0196262106767744 -0.0153047003888497 -0.00484155166840056 -0.8087113 -0.3476898 -0.4744447 183 176 188
0.0279359802596248 0.0401134075182655 0.044791519763173 -0.4140816 0.6186199 0.6677169 166 167 164
0.0556585582235556 -0.014643462918588 0.00290248898360673 -0.03053122 -0.7557768 0.6541172 188 191 196
0.0184048520113089 -0.0311734620712915 -0.0238018209389687 -0.2255393 -0.7425886 -0.63063 183 187 191
0.0416288828443152 -0.0265888068810093 -0.0276610011155063 0.04500754 -0.6741984 -0.7371777 178 181 184
0.0282174981233734 -0.0169604245689565 -0.0156183087337858 -0.141277 -0.9863514 0.08456856 170 173 176
0.017894253828417 0.00471059327338619 0.0111254520355323 -0.2130723 -0.8785728 0.4274461 218 178 213
0.0359544507084264 -0.0209067022559142 -0.00325797649224269 0.01127252 -0.7372192 0.6755596 232 184 224
-0.0402820932016601 -0.0356459394924927 -0.0167972013911704 0.01921854 -0.7877244 0.615728 179 183 187
-0.0184359439784325 0.0162188530765676 0.0233245873711078 -0.6657102 0.2815924 0.6910396 165 168 169
0.0555259450571119 0.0278997765975232 0.0501815651802825 0.03839299 -0.7328522 0.6793038 185 189 193
0.0255370575656295 0.00756605226670837 0.00981027695156195 -5.559736E-05 -0.7581215 0.6521133 209 184 211
0.0112681009439557 0.0183850094646577 0.0416050817340926 0.05283546 -0.7380941 0.6726258 189 193 199
-0.016781360886081 -0.000514215282826691 0.00382481453551292 -0.2749216 -0.5066391 0.8171505 214 186 212
-0.0884725126340102 -0.0374933772786485 -0.0222213788926447 0.0165282 -0.8344086 -0.5508984 169 177 180
-0.0225811163103335 -0.000415756863444194 0.0217292501021571 0.01475322 -0.7482983 0.6631982 189 192 198
0.0095646246883403 -0.0126589540238793 -0.00483324115112521 0.05592992 -0.9896568 0.1321032 172 175 177
-0.0868591837140995 -0.0152999301281092 -0.00337565957672986 -0.7458044 0.3360476 0.5751937 153 158 152
-0.00218238520888203 -0.0362169979915068 -0.0192906774645429 -0.02609313 -0.999406 0.02251142 183 186 188
-0.0301281460379448 -0.000463281777470348 0.0151885591858699 -0.04887707 -0.7109356 -0.7015566 171 174 176
-0.0463512580540923 -0.00553604421371134 0.0169645460961447 -0.06687979 -0.6944997 0.7163779 186 188 196
0.0289120774645015 -0.00433093057391953 0.00313323134753779 0.3804185 -0.6439648 0.6637704 182 172 185
0.0375578068176603 -0.010719975487935 0.00288139586058539 0.9160368 -0.01035732 0.4009604 223 170 213
0.0311428264530162 0.0434425005756819 0.0409155156333295 -0.3240089 0.7810587 0.5338216 161 166 160
0.0216976729119027 -0.0275956139957247 -0.0107898623111789 0.04307842 -0.6918008 0.7208022 186 189 194
0.0626044401454164 -0.00904357110874976 0.00275453088405614 0.9985504 -0.04178846 -0.03392376 170 174 173
-0.0029948703491014 0.000669705310197832 0.000953835717857066 -0.07248126 -0.7838209 0.6167425 203 185 206
0.053409959655407 -0.0340244358503407 -0.0207841581896923 0.1088157 -0.9734924 -0.2011757 180 184 186
-0.00994998571515815 -0.0286926086788371 -0.0099315260824554 0.02857394 -0.745046 0.6664008 250 188 241
-0.0430041944108801 -0.0208200654769324 -0.0223626148745171 0.1955357 -0.5974989 0.7776637 174 178 181
-0.0924032837207864 -0.0351619586000235 -0.0140391077201591 0.001051952 -0.7578114 0.6524727 176 180 186
0.0181532639105315 -0.0062370028900538 -0.000434568390170198 0.5881355 -0.7154489 0.3771334 176 174 183
0.0138226349017465 -0.00156723381995449 0.0191800666753679 -0.01997644 -0.7341964 0.6786433 229 185 223
-0.0644433518378085 -0.0128921730134033 0.00991306589160607 -0.03909653 -0.6860063 0.7265444 191 195 201
-0.10819096479382 -0.0274180403055424 -0.0319647233629173 -0.2746142 -0.7304003 -0.6253819 171 176 180
