ply
format ascii 1.0
comment File exported by Rhinoceros Version 7.0
element vertex 476
property float x
property float y
property float z
property float nx
property float ny
property float nz
property uchar red
property uchar green
property uchar blue
end_header
-0.00987637317821388 0.0289457240590368 0.00887720463610842 -0.8207681 0.4682339 0.3272565 113 113 113
0.0147260399992764 -0.0339386066904749 -0.0147006494011764 0.798964 -0.5417844 -0.2610098 32 32 32
0.0152872773344814 -0.0284434160700525 0.0117020177636261 -9.167018E-05 -0.5257641 0.8506304 127 127 127
-0.0167464045350254 -0.038126905869552 -0.0300375503506546 -0.3180989 -0.6160808 -0.7205953 67 67 67
-0.00897228992626076 -0.0310761532297815 -0.041156051775444 -0.3368428 -0.6340263 -0.6960945 55 55 55
0.0198031636412441 -0.0221572122088159 -0.0144746583905105 0.9381024 -0.331343 -0.1008742 29 29 29
0.0331901284392178 0.00576607375233518 0.0339422690663452 0.002623005 -0.5510156 0.8344908 161 161 161
-0.0434578684632481 -0.0386466583719934 -0.0122750681843643 -0.6483398 -0.7435046 -0.1638793 34 34 34
-0.0140119818513096 0.00923971324055539 0.0188431906495209 -0.6736884 0.4322691 0.5994059 37 37 37
-0.0431865481202305 -0.037991305302688 -0.0029192549195175 -0.8179587 -0.5751151 -0.01364968 62 62 62
-0.0375369814698399 -0.010240217160293 -0.0101959985699539 -0.8357847 0.4519551 0.3117701 99 99 99
-0.0253969458405674 0.0138588347920691 -0.0109643471445923 -0.8279932 0.4590581 0.3220139 86 86 86
-0.0132812289063633 0.026444832373551 0.00164565620757295 -0.8247907 0.4597316 0.3291918 56 56 56
-0.0120006827180088 0.017555991698197 0.0165305900368805 -0.7537668 0.3160607 0.5761435 41 41 41
-0.000643852121084976 -0.0536993941775049 -0.00485862614773558 0.0009112124 -0.5473775 0.8368853 78 78 78
-0.00192153728649025 0.00978211550801145 0.0368542539868469 -0.2316611 -0.3195155 0.9188269 38 38 38
0.00753748142078514 0.0541011491307531 0.0157278048787232 -0.5706785 0.6620488 0.4858161 54 54 54
-0.0384861258332432 -0.0306241712084497 -0.025563029667366 -0.3751249 -0.6070749 -0.7005294 54 54 54
0.0152307721312344 -0.0237767896166529 -0.0303313416447525 0.8760344 -0.3429255 -0.3390662 30 30 30
0.034077999227792 0.00994030623524533 -0.0107835662569885 0.9761178 -0.1693721 -0.136041 33 33 33
-0.0227311877076328 -0.0242626866808618 0.0150428581032868 0.04342673 -0.5535067 0.8317117 178 178 178
-0.0196388987366856 0.0141209760197912 0.00422190306521608 -0.8326697 0.4540928 0.3169556 90 90 90
-0.00665605343028908 -0.0421155294886316 0.00299029229022219 -0.01843277 -0.5409558 0.840849 226 226 226
-0.00602329052135353 0.0318496623524939 0.0137697922978516 -0.8254427 0.4727902 0.3084053 96 96 96
-0.0133112696473301 -0.0569741329661096 -0.0103767794575577 -0.3820664 -0.9240666 0.01123565 45 45 45
0.00952446185901756 0.0463692346104895 0.0312046277318115 -0.1830901 0.7379547 0.649539 73 73 73
0.0322247716124355 -0.000477631997176542 -0.00280625941418455 0.8842379 -0.4473088 -0.1343064 45 45 45
0.0165940495665371 0.0529604354390417 0.0129901337418671 0.5715533 0.6760398 0.4650773 78 78 78
-0.0248457220856846 -0.048097392033645 -0.000731704851615889 -0.1029244 -0.6597418 0.7444108 128 128 128
0.0193010541136562 -0.00806071371943606 0.0248569118771668 0.02800212 -0.5550632 0.8313367 99 99 99
-0.00872385776683693 -0.0553695759287561 -0.00549550177716063 -0.0001669627 -0.5534724 0.8328675 113 113 113
0.0167447301085293 0.027970711279801 0.0476111936364289 0.1693866 -0.1133043 0.979015 68 68 68
-0.0364748266999424 -0.0453019341936792 -0.00256897332333372 -0.09648243 -0.9946235 -0.03761856 53 53 53
-0.0380228785340488 -0.016127189110824 -0.000885380527008039 -0.8352556 0.4612426 0.2993382 69 69 69
0.00912010394886131 0.0359558263310705 0.0393898057732697 -0.7488707 0.4150822 0.5166232 32 32 32
-0.0386015204255283 -0.0385939082613672 0.00595446107722475 0.03053875 -0.5262449 0.8497845 100 100 100
0.0286315652067959 -0.00558491558940066 0.026594506481659 0.002677812 -0.5423665 0.8401377 114 114 114
0.0149368020232021 0.0468889871129309 0.0246962177548523 0.5647973 0.7018741 0.4340238 99 99 99
-0.00824916637584572 -0.0393020114412989 -0.0336985272374039 -0.3084182 -0.6723894 -0.6728823 55 55 55
0.0278180810149014 0.0400867858418738 0.0190239715371247 0.5666887 0.6976636 0.4383258 90 90 90
-0.0254694250886143 -0.0384432873240198 -0.0249302816595917 -0.388104 -0.622236 -0.6798512 36 36 36
0.0149368020232021 0.0429116883763586 0.0310690271649475 0.5707103 0.694428 0.438246 96 96 96
0.0433658333952724 0.0131719508656775 0.0384813415799256 0.3213812 -0.125163 0.9386418 92 92 92
-0.0348252085511387 -0.0401155552378382 -0.0167947840895538 -0.3610979 -0.8201361 -0.44383 43 43 43
0.0309368344481289 -0.00454541058451785 -0.00165372910164641 0.9168075 -0.337527 -0.2134 12 12 12
-0.0361245898072422 -0.0164774260035242 0.00493939397669985 -0.8238801 0.4603031 0.33067 97 97 97
0.0210837098295986 -0.0266919931879724 0.00313715813494875 0.9149696 -0.3842911 -0.1230893 28 28 28
-0.042589071161002 -0.0138710937014307 -0.0161720645632629 -0.8382119 0.4435255 0.3173106 87 87 87
-0.0228930739228428 0.00997583060353147 0.00120660839415743 -0.8272782 0.4652719 0.3148537 91 91 91
0.0288802357847988 -0.0136978229990686 0.00838004229403688 0.8599271 -0.466019 -0.2082107 30 30 30
-0.0321358469788731 -0.0144887766352381 0.0126059818062897 -0.8318697 0.4570858 0.3147465 53 53 53
-0.0245112208192051 0.00575951724140988 0.00335411904193117 -0.8354652 0.451465 0.3133325 100 100 100
-0.000736358529776382 -0.0299311480036463 0.0110416579041596 0.02516366 -0.5478374 0.8362063 245 245 245
-0.0465010432069004 -0.0244773826113428 -0.0105877053942566 -0.8414124 0.4382427 0.3161781 73 73 73
-0.00336802280589943 0.0129911103734289 0.0331028866562958 -0.7944326 0.2796904 0.5391198 23 23 23
0.047207710378915 0.0169684091100012 0.0317017900738831 0.7421212 0.576931 0.3411844 93 93 93
-0.0283619192902744 0.00190273909657346 -0.00073472978733824 -0.834582 0.4527723 0.3137996 101 101 101
0.0155490609343349 0.0497240224370276 0.0193424093518372 0.5456167 0.6955774 0.4674125 101 101 101
-0.0189706114594639 0.00382904200642453 0.0175227689538117 -0.7067767 0.549061 0.4460927 28 28 28
0.0290385457213223 0.0284485021123205 0.0359201895985718 0.5500299 0.6982404 0.4581783 92 92 92
0.0208126279051601 -0.0151667198649134 0.0204024779591675 0.01116608 -0.5474273 0.8367788 83 83 83
-0.036497476464957 -0.0375242433062281 0.0065118837151642 0.028471 -0.5420158 0.8398859 99 99 99
-0.0299891260926426 -0.00915553183467044 0.0104139017853851 -0.8236479 0.4747437 0.3101977 123 123 123
-0.00221550739452248 0.0155899920949255 0.0328693854603882 -0.8264631 0.3120525 0.4685957 52 52 52
0.00966584407642479 0.0524934926518713 0.0219617950711365 -0.1191649 0.8768674 0.4657288 105 105 105
0.0429440709288418 0.0230851569661413 0.0271820592675324 0.5489361 0.7105657 0.440188 100 100 100
-0.0444747237031162 -0.0381720861902918 0.00501285670138552 -0.7200001 -0.5142681 0.4659702 85 85 85
-0.00256192958995705 -0.0544430813303675 -0.00514145018719481 0.003600499 -0.5322731 0.8465651 95 95 95
0.0111764641936123 -0.0238536200037683 0.0149155425820465 0.03896586 -0.5453688 0.83729 130 130 130
-0.0101836947266758 0.00760356574147092 0.0252657103333588 -0.7169582 0.5024887 0.4831936 49 49 49
0.0210386487181484 -0.0261948308459009 0.00126148937083437 0.9012999 -0.4226895 -0.09482672 36 36 36
-0.0426443842713535 -0.0397539934626306 -0.00251246812008665 -0.8348287 -0.550242 -0.01717226 75 75 75
0.0100783082182705 -0.014081974934646 0.0211030113492127 -0.003077035 -0.5506849 0.8347076 238 238 238
-0.019161107904166 0.00218252329914914 0.0190401243958588 -0.7023316 0.5629801 0.4356417 35 35 35
-0.0146311549012363 -0.0301812490931238 0.0108930039200897 -0.01766471 -0.5116932 0.8589866 100 100 100
-0.044732454187125 -0.0143622359743799 -0.0209619683232193 -0.8315296 0.4269653 0.3553297 68 68 68
-0.013193729287833 -0.0314105948916162 -0.0384442341532593 -0.3263776 -0.6896046 -0.6464697 49 49 49
-0.000721338159292984 0.029402653265885 0.027327703217041 -0.8437763 0.3092632 0.4386318 34 34 34
0.0191177102263271 -0.0320930680742945 0.00955514786578371 0.6121191 -0.5993345 0.5158569 100 100 100
-0.0161286619965733 0.0155786672124182 0.0112086403164978 -0.8224609 0.4202363 0.383353 84 84 84
-0.0174695280854404 -0.0549854239931787 -0.0114163142647629 -0.4601519 -0.8665057 -0.1934636 23 23 23
-0.0124639300172031 -0.0124548873415674 0.0227301287446137 0.01031524 -0.5428991 0.8397346 194 194 194
0.0446993085081875 0.0161549249181067 0.0356452333722229 0.6128508 0.514205 0.6000059 104 104 104
-0.0312546519105137 -0.00797136635691775 0.0051710474286194 -0.8212373 0.4619358 0.3349395 68 68 68
-0.00262224949046974 0.00559000163166867 0.0340407359395142 -0.03953751 -0.5155542 0.8559443 54 54 54
0.0192476483519375 0.00980464606373654 0.0368260013852234 -0.004646256 -0.5634112 0.8261635 241 241 241
-0.0330354002778233 -0.00995095581919803 0.00344450948573305 -0.8342254 0.4435681 0.3275903 100 100 100
0.0449298592741787 0.0137232938298498 0.0214058625493164 0.7276772 -0.6561835 -0.1997724 32 32 32
-0.029100301629752 -0.0441983541956629 0.00202229795790865 0.04365252 -0.5529733 0.8320547 95 95 95
0.0122703286345303 -0.0421946248522486 -0.00581186833046721 0.8143651 -0.5305673 -0.235176 40 40 40
-0.0128413466279209 -0.0542984208574976 -0.00509775998257445 -0.06571436 -0.6045413 0.7938586 114 114 114
0.0395694943602383 0.0231906571873938 0.000982763150703447 0.872743 -0.3930002 -0.289604 52 52 52
0.0314339371855556 -0.00450017065913333 0.00146487531996919 0.9297287 -0.3142043 -0.1920422 44 44 44
-0.026795032388419 0.00959376483052121 -0.00896061780117796 -0.8305553 0.4554137 0.3205873 83 83 83
0.041576025121957 0.0364032187947546 0.00753937838412477 0.5558902 0.6978638 0.4516328 91 91 91
-0.0482486513917149 -0.0167034468165125 -0.0263765883650665 -0.8542054 0.4437936 0.2708882 99 99 99
0.0207673283751308 -0.0179689726343836 0.0186397897992249 0.01106492 -0.5548179 0.8318982 110 110 110
0.0114296647246181 0.0517793097981726 0.021324502209198 0.3626412 0.7950385 0.4862151 108 108 108
0.0117279263670742 0.0276801982411657 0.0478371548447724 -0.4691846 -0.2014424 0.8598179 41 41 41
0.0153211327727139 0.0247424045094763 0.0464360582623596 0.01026132 -0.4758301 0.8794774 100 100 100
0.025241968267709 -0.0104209980478968 -0.0104671848025207 0.8809241 -0.4345617 -0.1874268 42 42 42
0.00912916385486717 0.0435783067235266 0.033871220329773 -0.3760746 0.6581752 0.6522065 73 73 73
0.0418745251829922 0.0273487964162146 0.000817047337066668 0.8889348 -0.3610712 -0.2818201 44 44 44
0.0411738129790127 0.0320568480977331 0.0150466131959076 0.55635 0.7024128 0.4439492 83 83 83
0.0209029885466396 -0.0218559107294763 -0.00902087809704588 0.9122623 -0.3211912 -0.2541924 31 31 31
0.0155695649321377 -0.0368613800516809 0.00612019179202272 0.03880528 -0.5678073 0.8222463 101 101 101
-0.0102604655091465 -0.0541718801966394 -0.0180829000677948 -0.4046841 -0.7276531 -0.5538517 45 45 45
0.0213550301726162 -0.0276863178721155 0.00697891590930177 0.8232563 -0.5654848 -0.04976042 30 30 30
-0.0325728682343662 -0.00196160883814944 -0.00654256167076872 -0.834608 0.452859 0.313605 75 75 75
0.000690815084725571 0.0261164107808386 0.0316656100545044 -0.7824988 0.3193237 0.5345352 25 25 25
0.0186883183653652 0.0369004407414709 0.035633938292038 0.5561327 0.7054994 0.439303 135 135 135
0.0174227925474941 -0.0361381968966211 -0.00237688245438383 0.8754531 -0.4403803 -0.1991157 47 47 47
-0.0367385176484287 -0.0376900038233484 -0.020350290557373 -0.3639196 -0.7061006 -0.6074409 49 49 49
-0.00449788845226173 -0.0584430298319544 -0.0178569239582901 -0.3082557 -0.76461 -0.5659947 39 39 39
0.0467556687529385 0.0196803012379919 0.028944747427475 0.7434597 0.5645886 0.3584793 96 96 96
-0.0213111666505039 -0.00149460644633426 0.0195889341626282 -0.7619016 0.5285843 0.3743055 16 16 16
0.00755846225574608 -0.0518216690531458 -0.00330342175625609 -0.008387836 -0.5613533 0.8275338 98 98 98
-0.0360115794007481 -0.0301043591013636 0.0114647614750977 -0.1058127 -0.4709829 0.8757733 111 111 111
-0.0197745589081944 0.0110702910908972 0.0078376996312256 -0.8271484 0.4523739 0.3334418 81 81 81
0.0106431218321621 -0.0433697900286402 -0.0108287614788894 0.8354434 -0.4956153 -0.2374864 28 28 28
-0.0348252085511387 -0.0294942459574427 -0.0287720394339447 -0.4178079 -0.6636797 -0.6204562 44 44 44
-0.0268703726594151 -0.0277993282786096 0.0127302574906464 -0.006371752 -0.5630518 0.826397 118 118 118
0.0204509469206631 -0.0274151763430323 -0.00355201782845305 0.9472701 -0.3146358 -0.06069388 46 46 46
-0.0355483321015537 -0.0158899030199732 0.00349874971247865 -0.8262961 0.4556758 0.3310504 80 80 80
0.0257390710051357 0.0304598012456213 0.0359503197465058 0.5469 0.702073 0.4560634 101 101 101
0.0192683907683193 0.0138498940953528 0.0393928158078308 0.01805853 -0.5381907 0.8426296 100 100 100
-0.0344320563142002 -0.000310440968581571 -0.0146885943617706 -0.8319541 0.4570339 0.3145988 81 81 81
-0.0133789805237949 0.00632456927388059 0.0215098130498047 -0.6552777 0.5341666 0.5341134 36 36 36
0.00794040881946678 0.0360416570195471 0.037559317329895 -0.8290669 0.2914127 0.4772073 23 23 23
-0.018283012277335 -0.0419084033480371 -0.0264971089568024 -0.3596807 -0.6095978 -0.7064137 61 61 61
-0.0125881460969151 0.029601136732987 -0.00074979486130522 -0.8258677 0.4592403 0.327171 91 91 91
0.03934347354725 0.00860695033161984 0.0211708414349671 0.7657056 -0.6120299 -0.1977737 36 36 36
-0.016588094598502 -0.00497474284083499 0.02752103088237 -0.303608 -0.154371 0.9402084 66 66 66
0.0016263695891201 -0.0457200011721338 0.000730411985885637 0.02190162 -0.5530768 0.8328424 170 170 170
0.0160216065581142 0.0386630692967688 0.035498337725174 0.5639995 0.6966192 0.4434256 67 67 67
-0.000791671640127944 -0.0576634010782923 -0.007303370257843 -0.0007257563 -0.5341824 0.845369 91 91 91
0.0250610085661709 0.00318328528492795 0.0323797333035584 0.006014158 -0.5582076 0.8296795 170 170 170
-0.0480452803437412 -0.0253134569636072 -0.0188738537039642 -0.9886215 -0.08244369 -0.1258191 70 70 70
0.0162929269011318 -0.0338331660738672 -0.0113711190428619 0.8028144 -0.5293987 -0.2742737 37 37 37
-0.0287348059479893 -0.0302964648714746 -0.0327380877938156 -0.3305187 -0.7175576 -0.6130811 60 60 60
0.043456432455331 0.0140757956990515 0.0131709444317932 0.8336506 -0.4577371 -0.3090363 76 76 76
-0.000401380426138687 0.027840415526322 0.0291666257176514 -0.8284134 0.351918 0.4357579 29 29 29
0.0253323289091885 0.0126295485982214 0.0385265517029877 -0.0008412916 -0.5414825 0.8407116 64 64 64
0.0449629994566738 0.0120419660100256 0.0253139304909821 0.7089998 -0.6511534 -0.2707741 30 30 30
0.0216110917265713 -0.0280780395975794 0.0114383864197846 0.5301781 -0.702157 0.4752755 108 108 108
0.0293353768523037 0.0458043017873083 0.00894822357035829 0.5486194 0.7090237 0.44306 85 85 85
0.00304996692493553 -0.0463527640810694 0.000142859200012224 0.003424059 -0.5438569 0.8391709 131 131 131
0.00760113918140526 -0.0260592302790369 0.0132891404423828 0.03195995 -0.5575429 0.8295327 100 100 100
-0.0440906313721836 -0.0225565037241663 -0.00732597531937407 -0.831236 0.4446629 0.333649 74 74 74
0.0172058316405117 0.0174656310567175 0.0417355465684052 0.01278605 -0.5572497 0.8302466 84 84 84
0.00377332889392967 0.0258572497853552 0.036688523272049 -0.7664866 0.3064902 0.564413 63 63 63
0.00253784381702538 0.0236275592335974 0.0352422165665741 -0.7722497 0.3146187 0.551947 31 31 31
-0.000656011468619155 0.00887815146534787 0.0362214910779114 -0.0962161 -0.4370545 0.8942739 46 46 46
0.00191366397693749 0.0421820083150183 0.0193500387463684 -0.8250214 0.4687059 0.315681 76 76 76
0.00796901904895897 0.0341508784779821 0.0397016870770569 -0.8402143 0.2786246 0.4651972 40 40 40
-0.0271416930024326 -0.0262852510920252 -0.0375854802336578 -0.3254251 -0.7269135 -0.6047275 43 43 43
-0.0482035902802647 -0.0291326841822351 -0.00920165898464964 -0.9413497 0.2493155 0.227382 237 237 237
0.00634944164112206 -0.0473244986048426 -0.0161620211806183 0.8256204 -0.5286622 -0.1971479 42 42 42
-0.0337630537812412 -0.000726242970534696 -0.0109417569842224 -0.8409575 0.4418729 0.312312 63 63 63
-0.0334090021912754 -0.0174868306627954 0.0128545629773255 -0.8326813 0.4611761 0.3065265 76 76 76
-0.0218988684479893 -0.0531775555124964 -0.00445595206879423 -0.3987658 -0.8073767 0.4348893 124 124 124
0.0468801232512295 0.0210814872273718 0.0254758465085144 0.7010367 0.5852 0.4075396 105 105 105
0.0200895043547451 -0.02987839789302 0.00514845726824953 0.9068841 -0.4098949 0.09771048 28 28 28
0.0347896786864101 0.0410811105260168 0.00894500491954042 0.5494146 0.7059239 0.4470067 96 96 96
0.0134679051573574 -0.0403641066065515 -0.00633163573406981 0.821294 -0.4988061 -0.2768913 30 30 30
-0.0246363905732334 -0.0402640900126184 0.00404112217761232 -0.008374995 -0.5880508 0.8087806 224 224 224
-0.00734532154247169 0.0281547704228674 0.0156417059693451 -0.835757 0.4310168 0.340198 95 95 95
0.0443149777586758 0.0289909043797766 0.0072501170430298 0.9662666 -0.1742592 -0.1896381 52 52 52
-0.00866043842479591 -0.0204050740709986 0.0173923539910431 0.03608191 -0.5370395 0.8427851 226 226 226
-0.00666725910350685 -0.00694086165339602 0.0261877345833893 0.01389962 -0.5229493 0.8522504 214 214 214
-0.000294568902701187 0.035381714392594 0.0233945417199249 -0.8247589 0.4007758 0.3989379 59 59 59
-0.00824916637584572 -0.052092810582229 -0.0223314297404175 -0.3550196 -0.6802475 -0.6412678 42 42 42
0.0398970814879238 0.0102453628072058 0.00925009129382326 0.8491302 -0.5140306 -0.1214513 57 57 57
-0.0101624754731358 0.0318231978902136 0.00366448042727663 -0.8274429 0.4635406 0.3169674 84 84 84
0.0214000912840664 -0.0128165087214197 -0.0232127738203888 0.8755191 -0.3129739 -0.3681218 34 34 34
0.0322474213774502 0.00806454806416379 -0.0148739052023773 0.9391351 -0.2913321 -0.1820737 49 49 49
-0.0281962183777988 -0.0399498543253626 -0.0227457416262512 -0.4036238 -0.6565738 -0.6371802 54 54 54
-0.0311642912690342 0.00604883818714963 -0.0143179726805572 -0.8256604 0.4709101 0.3106904 58 58 58
-0.00916445530101662 0.017827192831925 0.019690619686615 -0.7887363 0.2792607 0.5476391 24 24 24
0.00505387508228416 -0.0300667485705103 0.0108508038315888 0.01784657 -0.5439989 0.8388962 77 77 77
0.0258294316466152 -0.0154831013193811 0.00480945585108949 0.8664109 -0.4881589 -0.1050391 19 19 19
-0.0356386927430332 0.000516692686966524 -0.0202749651875381 -0.8350359 0.4565372 0.307065 101 101 101
0.0188690396483242 -0.00257607312113894 0.028770403841507 0.003630192 -0.5341243 0.8453982 57 57 57
-0.0430315760438145 -0.0102531513682093 -0.0224121493306045 -0.8208337 0.4655867 0.330849 99 99 99
-0.0159779814545811 0.0149797597417151 0.0125833618435974 -0.7975329 0.4101164 0.4424317 40 40 40
-0.0130401877228916 -0.0329292020312036 -0.0362747591938858 -0.3542634 -0.6686462 -0.6537658 53 53 53
-0.0208591250245274 -0.0243834456911768 0.0148188936505432 0.05157997 -0.5518034 0.8323777 56 56 56
0.0146957608397305 -0.0397690734377588 -0.00460661770962523 0.811543 -0.5255532 -0.2553266 30 30 30
-0.0304015902344883 -0.0467821559420313 -0.000224365016448957 -0.2734876 -0.8584556 0.4338876 106 106 106
-0.0496045378510654 -0.0180593332758631 -0.0313030761685257 -0.9744206 -0.06678149 -0.2145802 84 84 84
-0.00212490833446388 0.0253299870976721 0.0279730129037018 -0.8585958 0.3333667 0.3894611 61 61 61
0.00514423572376366 0.0244486728200232 0.0391216444764252 -0.7888002 0.3272592 0.5202841 33 33 33
-0.000800731546133804 -0.00564821572215213 0.0267029869351502 0.02541157 -0.536577 0.8434687 161 161 161
0.0173021527464687 0.025239507246903 0.0466770994458313 0.02722878 -0.4590759 0.8879797 91 91 91
-0.0018991259400547 -0.0420590242853845 -0.0327945780959015 0.06330484 -0.6789594 -0.7314414 58 58 58
-0.01947319782421 -0.0534035167208399 -0.0123955887761001 -0.5079077 -0.8024649 -0.313177 45 45 45
-0.0152095583741367 0.0237102904805456 0.00134433982707216 -0.8243891 0.4682564 0.3179913 86 86 86
-0.00833952701732521 -0.00694086165339602 0.0263233053479309 -0.004450268 -0.5184104 0.8551204 233 233 233
0.0128880711729824 0.0431527295598303 0.0332987475190277 0.448775 0.7346286 0.5088437 109 109 109
-0.0127419260804356 0.0238745608815466 0.00761620877124025 -0.8334481 0.445819 0.3265115 81 81 81
-0.0333789614503086 0.00401941924183713 -0.0182410907950287 -0.8442398 0.4496813 0.2916264 66 66 66
0.00773560726001854 0.0521468320378576 0.0198300051484223 -0.5264117 0.7824683 0.3326171 58 58 58
-0.0049346712891758 -0.0155282816401209 0.0204778182301636 0.003164215 -0.5764466 0.8171287 89 89 89
-0.0125731257264317 -0.0159350833407129 0.0205531286988373 0.02884459 -0.5634128 0.8256719 187 187 187
-0.0186988142792881 -0.0504295429697718 -0.00195203544758604 -0.002693782 -0.570008 0.8216347 102 102 102
0.0177334519560635 0.0479736724385534 0.0194815861973877 0.5540001 0.6913986 0.4637369 108 108 108
0.0346881123717129 0.0217254558095251 0.0394417810235138 0.5929649 0.507368 0.6252761 103 103 103
-0.0293260840241611 -0.00770922512919558 0.00950996754504396 -0.8373745 0.4548392 0.3031918 79 79 79
-0.0162640837495029 -0.0217654904833521 0.0166209804806824 -0.003073655 -0.5614105 0.8275318 117 117 117
-0.0488363531892002 -0.0233022174349512 -0.0243427139725571 -0.9192539 -0.3488893 -0.1823417 75 75 75
-0.046486022836417 -0.0198220214358057 -0.0323426109757309 -0.6576478 -0.3381738 -0.6731551 52 52 52
0.0173927518065273 -0.0199676951876367 0.0171884763035889 0.001380298 -0.5689597 0.8223643 96 96 96
0.0199538441832363 -0.00901993126780642 0.0242442357335205 0.0269393 -0.5527043 0.8329419 93 93 93
-0.0147463110749424 -0.050025065850326 -0.0021396112646942 0.04524424 -0.5693709 0.8208348 119 119 119
-0.0205503729645908 0.0158837237843786 -0.000343008061874372 -0.8337027 0.4513656 0.3181335 110 110 110
-0.0168215063874424 0.0220756927022253 -0.000147162100303633 -0.8359237 0.4512723 0.3123859 101 101 101
-0.025243404275626 -0.0424206456652368 0.00236880956031038 0.01463903 -0.5213673 0.8532068 69 69 69
0.0483375760252773 0.0217593112477575 0.019905315617096 0.9838132 0.1785693 -0.01498855 54 54 54
0.0233527394469082 0.0175831714162146 0.041627066114914 0.02956309 -0.533664 0.8451797 60 60 60
0.0366843911345303 0.0350699821004187 0.0155136453900452 0.5631616 0.6947415 0.4474184 86 86 86
0.0072263451750576 -0.0220638117304529 0.0159731673989411 0.03574744 -0.5385683 0.8418232 211 211 211
0.0112758847410976 -0.0302626094332422 -0.0296307784523849 0.6366603 -0.6518673 -0.4119864 50 50 50
-0.00932276523754005 0.0301773944386755 0.00748740313388063 -0.8202252 0.4660733 0.3316719 92 92 92
-0.0314241675202549 0.002030769873551 -0.010105608126152 -0.8290905 0.460921 0.3164819 64 64 64
0.0325864525969326 0.003725687552384 -0.0101733935084228 0.9349529 -0.2682622 -0.2321603 57 57 57
0.0260101529295742 -0.0101272663584436 -0.00856889607571409 0.8780943 -0.4090354 -0.2482747 52 52 52
0.0454450818236172 0.026354352522782 0.0181124973092194 0.7188997 0.5944118 0.3603579 83 83 83
0.0450383397276699 0.0278609195241247 0.017057882526886 0.6469608 0.6360348 0.4205966 87 87 87
0.0204962464506924 -0.020183642815658 -0.0143767428603058 0.933823 -0.3469646 -0.08712086 32 32 32
-0.00636089122936134 0.00191775946705686 0.0317268836293335 -0.21313 -0.4281399 0.8782208 90 90 90
0.00540029727771874 -0.00591637701899661 0.0266396868023987 0.05415285 -0.5305808 0.8459027 234 234 234
0.0233527394469082 -0.0126085481157984 0.021884964684021 0.01035886 -0.5367885 0.8436533 66 66 66
0.00919687473133202 -0.0460363826266016 -0.00951804043911741 0.8311853 -0.4961398 -0.2509506 11 11 11
0.0150612565214931 0.023973981429032 0.0458371805939789 0.006202097 -0.4873585 0.87318 94 94 94
0.00696408473804588 0.0502607026585852 0.0215414631161804 -0.6957434 0.6297301 0.3455158 77 77 77
0.00199925624683495 0.0356914201268469 0.0274758505616303 -0.8279105 0.3212146 0.4597665 37 37 37
0.0407670708830654 0.030934373427323 0.0174872743878479 0.5509145 0.7016591 0.4518491 90 90 90
-0.0124524859254063 -0.0537198981753076 -0.0178117287363891 -0.3344366 -0.757166 -0.5611166 26 26 26
0.0114115449126064 -0.0307446918001856 -0.0286364388670807 0.6397088 -0.6535643 -0.4045074 32 32 32
0.023439046972543 0.041791717101029 0.0216479170117493 0.547289 0.6994383 0.4596313 88 88 88
-0.0183056620423496 -0.0281835398188318 -0.0401843172516708 -0.3036971 -0.7478882 -0.5902807 45 45 45
-0.00874650753185158 -0.0342624983301844 0.00815405128337099 0.01991573 -0.5705286 0.8210362 121 121 121
0.0146657200987637 0.0413749614247595 0.0331932771000977 0.575456 0.6852168 0.4464621 120 120 120
0.0402020188505947 0.0138498940953528 0.0064365732464905 0.9023834 -0.1571382 -0.4012627 31 31 31
0.0190497609312832 -0.0319801172724451 -0.00452375235222624 0.9398966 -0.319745 -0.1198225 24 24 24
0.00264322482898827 -0.048115452241012 -0.0261505973544006 0.6295028 -0.5639682 -0.5344774 91 91 91
-0.0362864760224522 -0.0136752328386988 0.000801982263099688 -0.8351521 0.4578618 0.3047681 85 85 85
0.0285865040953457 -0.0101950368395533 -0.00142775299214171 0.8876073 -0.3771264 -0.2644407 29 29 29
-0.00686443126842384 0.0298127332219397 0.0150034892354126 -0.8252925 0.4668988 0.3176443 100 100 100
-0.00654304302379494 -0.0477652153483118 -0.000896675607192976 0.02349534 -0.5739627 0.8185443 84 84 84
0.0196148129637539 -0.0280253490915979 -0.00267067374848173 0.9562508 -0.2882959 -0.0496986 26 26 26
-0.0164600638215244 -0.0405374369135584 -0.028395397683609 -0.329701 -0.5933431 -0.7343304 58 58 58
0.0210536690886318 0.0170137086400305 0.0415396857056732 0.03929513 -0.5509661 0.833602 78 78 78
-0.0287507799927891 -0.0261631807795252 0.0137359070572968 -0.01041392 -0.553445 0.8328206 241 241 241
0.00504767619922752 -0.0454849800577845 0.000823067406188982 -0.001115369 -0.5381128 0.8428721 121 121 121
0.0214000912840664 0.00343183665364133 0.0322102474961395 -0.01641325 -0.5478761 0.8363984 69 69 69
0.0175431939299404 -0.0319800576678003 -0.0107986313309555 0.8578181 -0.4372855 -0.2700545 49 49 49
0.0139878960783779 -0.0332004031649317 0.0087416040692444 0.001968782 -0.5527391 0.833352 90 90 90
0.0349742146666348 0.0372168221959387 0.0148884224686737 0.5567241 0.6972914 0.4514897 87 87 87
-0.00853336132213478 -0.0597505173197473 -0.00891110124253081 -0.3445261 -0.8209096 0.455422 124 124 124
0.0489703389342129 0.0143469968327795 0.0303458738122101 0.9910421 0.02588599 0.1310171 44 44 44
0.0178295346434414 0.0382337966450964 0.0339390504155274 0.5501181 0.7056521 0.4465705 115 115 115
0.036857483022958 0.00368050723164426 0.0210804211888428 0.8632221 -0.4584243 -0.2114113 35 35 35
0.0114115449126064 0.0412393012532507 0.0384813415799256 0.03655031 0.7816727 0.622617 101 101 101
-0.004904630548209 -0.000116070221969022 0.030300663689148 0.01753254 -0.5415219 0.8405038 36 36 36
0.00314056598499413 0.0457477965840613 0.0176906454358216 -0.8344707 0.4495645 0.3186698 72 72 72
-0.0105284479920567 -0.0420009097567285 0.00300802467204286 0.02820626 -0.5379464 0.842507 242 242 242
0.0191100808317959 -0.0167034468165125 -0.0263313931431656 0.8907937 -0.324043 -0.3185635 46 46 46
0.0406540604765713 0.0288553634175573 0.0205380785260315 0.5548327 0.7009056 0.4482098 122 122 122
-0.000550630456656265 -0.00977321476847781 0.0239429342541809 0.02891342 -0.548575 0.8356013 56 56 56
-0.0258761671845615 -0.00662442059428348 0.0179166364464874 -0.8285452 0.4643734 0.3128423 121 121 121
-0.0166107443635166 -0.0413810810557093 -0.0277776998486404 -0.3339143 -0.5843745 -0.7395996 56 56 56
0.0153211327727139 -0.0384715399256433 0.00514279482699587 0.03257547 -0.556092 0.8304821 102 102 102
-0.038316610223502 -0.0206807455530847 0.00545351384020998 -0.8290274 0.4583588 0.320345 92 92 92
-0.0287612704102695 0.00601569800465451 -0.00852370085381315 -0.8376055 0.4474061 0.3134402 86 86 86
-0.0181926516358555 0.0128555694112097 0.0105947124753113 -0.8145905 0.4350284 0.3836569 71 71 71
-0.0137180117432774 0.0190475383290564 0.0124477910790558 -0.813922 0.406602 0.4149767 69 69 69
-0.0211154249970615 0.0175711312779699 -0.00447101714276121 -0.8277935 0.4578604 0.3242249 98 98 98
-0.00797808445140724 0.0356800952443396 0.00160046098567201 -0.8254278 0.4730065 0.3081133 61 61 61
0.0348802777464687 0.0157030025014196 -0.0123089683260803 0.983449 -0.1595322 -0.0858921 48 48 48
-0.024595620996207 0.0114318528661047 -0.00515651526116179 -0.8351602 0.4451124 0.3230827 93 93 93
-0.00483691967174416 -0.0315055450907434 -0.0422859919276123 -0.278443 -0.6724839 -0.6857367 34 34 34
0.00976192676380272 0.0529002347478186 0.0210804509911652 0.07159864 0.8958393 0.4385721 95 95 95
0.0210386487181484 0.0357854762563025 0.0339013802800293 0.5510986 0.7045588 0.4470875 82 82 82
0.00361501895740624 -0.0422058901301111 0.00284339664317323 0.02710949 -0.5410458 0.840556 103 103 103
0.0345073910887539 0.0124487081059729 -0.0129982215371017 0.9802937 -0.1595729 -0.1164507 22 22 22
0.00177561961963768 0.0322811999806677 0.0288453268799896 -0.8008384 0.3421242 0.4915373 42 42 42
0.0418292256529629 0.0303769507893835 -0.00270832898281859 0.8757879 -0.377699 -0.3005645 34 34 34
-0.0267800120179356 -0.0453584393969263 -0.0124106538500671 -0.5630552 -0.8127961 -0.1494366 41 41 41
0.00732123576954002 -0.0430081686487879 0.00191684244013979 0.002175919 -0.5312427 0.8472169 88 88 88
0.0253246995146572 -0.0201760730257715 0.0168996917996521 0.371804 -0.636082 0.6761371 89 89 89
0.00298225604847069 0.00562385706990109 0.0339842307362671 0.001414961 -0.5587971 0.8293032 44 44 44
-0.0361720351044834 -0.0437675318232263 -0.00871352674626158 -0.2062272 -0.9148672 -0.3471142 36 36 36
-0.0398873118226231 -0.0048165521136011 -0.0214048904385452 -0.8404531 0.4302461 0.329434 46 46 46
-0.0355030325715244 -0.0195960602274622 0.0103235113415833 -0.8364772 0.4430849 0.3224621 57 57 57
0.0277615758116543 0.028301636267594 0.0376339125428314 0.5472201 0.6998841 0.4590343 80 80 80
-0.035105350381583 -0.00581093640238894 -0.00837907018326567 -0.84377 0.4574631 0.2806773 78 78 78
-0.004904630548209 -0.0489139756670679 -0.00183452489041136 0.002715498 -0.5782223 0.8158747 81 81 81
-0.000147703057974624 0.0457101264485632 0.00932164666987612 -0.8358088 0.4529432 0.3102676 83 83 83
0.00536071979358788 -0.038341601800033 0.00530098555422975 0.0261075 -0.5499817 0.8347686 83 83 83
-0.00359380520030861 -0.0398895940294947 -0.034602461477745 -0.1626723 -0.673202 -0.7213437 81 81 81
-0.0230037001435459 -0.00412352890879764 0.021200971582901 -0.7915003 0.4994084 0.3523045 59 59 59
0.0138295861418545 0.0480866828450476 0.023814873674881 0.5546696 0.7061772 0.440063 105 105 105
0.0372718545134365 0.00221161036579953 0.031509684303772 0.1847692 -0.7466106 0.6390876 213 213 213
-0.0271717337433994 0.00428311019032346 -0.00216597141884611 -0.8378649 0.4450396 0.3161045 68 68 68
0.0117279263670742 -0.03057899088771 -0.0265573692526703 0.7226428 -0.5936319 -0.3541024 36 36 36
0.0238519879515469 0.0482279458531653 0.0112839507851715 0.5543409 0.7021303 0.4468995 80 80 80
-0.0333336619202793 -0.00739284367472781 -0.00133734764717863 -0.8416303 0.4408838 0.3118972 91 91 91
-0.0407460955445469 -0.012620588254043 -0.0128626358713989 -0.8217852 0.4665655 0.3270866 74 74 74
0.0290158959563076 -0.00644369931132449 -0.00402657510899351 0.8885716 -0.3835192 -0.2517013 30 30 30
-0.000328424340933609 -0.0276524624338831 0.0125042664799805 0.02101602 -0.5473163 0.8366619 214 214 214
0.00210082256153221 0.0311603942403113 0.0305718350205536 -0.8069768 0.3417233 0.4816779 39 39 39
-0.0260869292084873 -0.0493207177630152 -0.00216597141884611 -0.3430774 -0.8653477 0.3653372 76 76 76
-0.0228027132813633 -0.0326580605021204 -0.0316646528448944 -0.3376828 -0.6582424 -0.6728204 59 59 59
0.00788604938343163 0.0124938884267126 0.0387864279542084 0.003302706 -0.5448029 0.8385577 240 240 240
0.0189143391783535 -0.0286129316797937 -0.0122298729624634 0.9288098 -0.2964466 -0.2223328 25 25 25
-0.0456272391144932 -0.0272343954554285 -0.0070773941483383 -0.8508115 0.4303371 0.3015456 56 56 56
0.0378519269163906 0.0280342498311316 0.0254344510827179 0.5576445 0.7003031 0.4456547 105 105 105
-0.00447523868724709 -0.0603639087191309 -0.0143993330206756 -0.3620958 -0.8793503 -0.3092405 33 33 33
-0.0317970541779697 -0.0103306374064173 0.00686593530513002 -0.8210022 0.4635229 0.3333195 91 91 91
-0.0146294859711826 -0.0225866040697779 0.0159053671155091 -0.01440693 -0.5663109 0.8240657 88 88 88
-0.00881421840831642 0.0115335383900915 0.023532377460968 -0.7754306 0.3439233 0.529551 30 30 30
-0.0332533148591221 -0.00246127457530154 -0.00848854901455687 -0.8381013 0.4526867 0.3044026 57 57 57
-0.0339211252991856 -0.0168616375437464 0.0111596452984924 -0.8358045 0.4556084 0.3063525 69 69 69
0.0081573697264492 -0.045833011578628 -0.0125462544169311 0.8321812 -0.509222 -0.2194706 24 24 24
-0.0204523829285801 -0.0352342924586023 -0.0316194576229935 -0.33618 -0.6249617 -0.7045608 56 56 56
0.0329855652983486 0.0371113219746863 0.0174496042523499 0.5495819 0.7058213 0.446963 84 84 84
-0.00120985782787209 0.0439172187337195 0.00913708088732912 -0.8338977 0.4592165 0.3061614 92 92 92
0.00511228763416405 -0.00661315531642093 0.0259447860512848 0.04966367 -0.5315064 0.8455971 227 227 227
-0.0228139189545811 -0.042770882557937 -0.0229189974274521 -0.42191 -0.6296427 -0.6523358 55 55 55
0.0414901944334805 0.0102792182454382 0.0232725012097473 0.6970323 -0.675809 -0.2396418 33 33 33
0.0310045453245937 -0.00793518633753909 0.00778116462565615 0.9468556 -0.3212543 -0.01613015 31 31 31
0.0252870293791592 0.0429568686970984 0.0187301802430268 0.5651486 0.691755 0.4495355 104 104 104
0.00570380412891502 0.0337171950825964 0.035401480177414 -0.8351042 0.277106 0.475198 35 35 35
0.00289952480152245 0.0439360538014685 0.0193177628312226 -0.8295335 0.4643611 0.3102305 75 75 75
-0.0370126990143955 -0.020048042248794 0.00739474771357729 -0.8372193 0.4346257 0.3319102 80 80 80
-0.0324522284333408 0.00347713618367063 -0.0132241976466064 -0.8350215 0.4579095 0.305054 83 83 83
-0.0341924456422031 -0.00284298272044314 -0.00924685420655058 -0.8402193 0.4436554 0.3117715 108 108 108
-0.0370737341706455 -0.0134266218653406 -0.00241078259609984 -0.8291994 0.4627807 0.3134685 92 92 92
0.0133155556853115 -0.0220310291758264 0.0158262717518921 0.03155877 -0.5647653 0.8246479 83 83 83
-0.0264409807984531 -0.0166582664957727 0.02004091618396 -0.08790406 -0.4699131 0.8783249 45 45 45
0.0114454003508389 0.0173074403294836 0.0417016613278504 -0.01336383 -0.5443244 0.8387684 96 96 96
0.0153323384459316 0.0434766211995398 0.0292385387215729 0.5646697 0.6930306 0.4481703 96 96 96
-0.00130021846935158 0.0163244405278479 0.0333627629075165 -0.8190803 0.312144 0.4813249 19 19 19
-0.0256954459016026 -0.0338331660738672 -0.0300375503506546 -0.3275624 -0.6678917 -0.668299 50 50 50
-0.0247687128846348 -0.029019673775741 -0.0354838204588775 -0.2864218 -0.7434394 -0.6043677 41 41 41
0.0189143391783535 -0.0347371301165308 -0.000523803850639326 0.9379815 -0.3411711 -0.06158629 42 42 42
0.0232080193693935 -0.0203095278254236 0.0169416832718964 0.07019491 -0.5819937 0.810158 92 92 92
0.040895101660043 0.0257819095143591 0.0250879096779938 0.5660878 0.6978709 0.438772 106 106 106
-0.0190707472626865 -0.0356022915354456 0.00757940290309145 0.01076475 -0.5598805 0.8285034 145 145 145
-0.0254579809968174 0.00624541430561887 -0.000207422396171553 -0.8319542 0.4608507 0.3089803 106 106 106
-0.041906001931876 -0.0336674055567469 -0.0202900302615051 -0.5705714 -0.5767413 -0.5846518 53 53 53
0.0116261216337978 -0.0258558592310633 0.01327262995578 0.02543788 -0.5445226 0.8383604 77 77 77
0.0468913289244473 0.0206294456013952 0.0253289806637879 0.7010367 0.5852 0.4075396 91 91 91
0.0426427098448574 0.0288553634175573 0.0184590089116211 0.5625466 0.6947294 0.4482102 115 115 115
0.00756323062732811 0.0497944751271521 0.023747073391449 -0.5972902 0.6657487 0.4472393 76 76 76
-0.00452053821727638 -0.0464657744875635 -0.0291110110487823 -0.1862561 -0.612059 -0.7685652 60 60 60
-0.0464633730714024 -0.026522537182876 -0.00713388445042418 -0.852789 0.4299603 0.2964542 80 80 80
0.028993246191293 -0.0025115212908472 -0.0158004445042496 0.8793481 -0.3927831 -0.2691994 52 52 52
0.0395060750181973 0.0273275771626745 0.0247594880852814 0.5521557 0.7090713 0.4385682 107 107 107
-0.0454465178315342 -0.024477323006698 -0.00960843088291929 -0.8445029 0.4327702 0.3154754 58 58 58
-0.0364521769349277 -0.0394827923289026 -0.0181958955731277 -0.3039236 -0.8012421 -0.5154042 33 33 33
-0.0211604861085117 0.0200493731984411 -0.00870449664257811 -0.8275551 0.4790796 0.2926352 77 77 77
0.0115848752196133 0.0403353372105871 0.0387600827012177 -0.01027263 0.7695875 0.6384587 106 106 106
0.0227764817412197 -0.00212117047221316 0.0289488601479645 0.02576618 -0.5539765 0.8321335 105 105 105
-0.0109158781830967 -0.0399799546709741 0.00426708338595583 0.03333789 -0.5588799 0.8285782 53 53 53
0.00536024295642967 -0.0238546332827295 0.0150290596280213 0.02494876 -0.5595302 0.8284343 160 160 160
-0.00113070285961037 -0.0459460219851221 0.000583531239997881 0.007512471 -0.5653867 0.8247917 163 163 163
0.00393902980640526 -0.025998969983169 -0.0401315820422058 0.6925042 -0.4024566 -0.5987208 41 41 41
0.0152274342711269 0.0135851302632605 0.0393659341130371 0.00992872 -0.5433385 0.839455 230 230 230
0.0368124219115078 0.0410359302052771 0.00688855526782228 0.5479543 0.7020195 0.4548787 65 65 65
0.0115965577299892 0.0414776006230627 0.0372897851262207 0.03616274 0.7674934 0.640036 109 109 109
-0.0223621157471836 -0.0459912023058618 -0.0201845747437362 -0.4889709 -0.6838583 -0.5415213 46 46 46
2.18125517665868E-05 0.0470245280751501 0.00914837596751406 -0.8375302 0.4478304 0.3130352 66 66 66
-0.00121653354808693 0.0358428159245764 0.0213199722561951 -0.824643 0.437514 0.3585322 90 90 90
0.0332115861113369 -0.00270738215357913 0.0171332227978821 0.9434884 -0.2802433 -0.1768995 36 36 36
0.000767585867196274 -0.0245451530924524 0.0141200887951966 0.01072373 -0.5617964 0.827206 117 117 117
-0.0271481303040684 -0.00607564062983645 0.0130999254975434 -0.8428228 0.4426713 0.3060911 89 89 89
-0.00877917087718849 -0.047988077115127 -0.000877169987190229 0.02004829 -0.5837603 0.8116785 94 94 94
0.0120896073515713 0.00928489356129514 0.0363570916447754 0.03503477 -0.561022 0.8270592 87 87 87
-0.0267304209534824 -0.0262128910532679 0.0138308274541016 0.0001780584 -0.5621262 0.8270515 213 213 213
0.00202548229053612 -0.0479497513285364 -0.0264217835869675 0.5820522 -0.5674055 -0.5824656 85 85 85
-0.0242942599122227 -0.0318896970263208 -0.032252220531929 -0.306081 -0.6907959 -0.655069 63 63 63
0.0348688336546719 0.00329641490071164 0.0322893130574341 0.02794414 -0.5887073 0.8078631 226 226 226
0.0418292256529629 0.0285275378712927 0.0194646584782715 0.5548294 0.6982968 0.4522677 81 81 81
-0.0157972601716221 0.0270474353322302 -0.00413957061432646 -0.8335881 0.4568424 0.3105254 93 93 93
0.0164283486540615 -0.0349179110041345 -0.00852370085381315 0.7999436 -0.5354365 -0.2709208 36 36 36
-0.00354874408885841 -0.0506916841974939 -0.0254726392235641 -0.1123179 -0.6930276 -0.7121078 58 58 58
-0.00542438305065041 0.0236349502095495 0.0222329664025421 -0.7868835 0.3215886 0.5266832 36 36 36
-0.0400530127350986 -0.00864328951747073 -0.0167345237936859 -0.8319402 0.455548 0.3167831 74 74 74
-0.0465840128724277 -0.016281624745437 -0.023031992932785 -0.8122181 0.4635653 0.3541313 68 68 68
-0.00440752781078224 -0.0408296784868921 0.00395976183749391 -0.02250069 -0.5428536 0.8395259 195 195 195
0.0485185357268154 0.0156125226506506 0.0278148221764679 0.9969468 0.06695595 -0.04017408 61 61 61
0.0151628228361904 -0.0421494445315088 0.00282079158164217 0.09492955 -0.6175263 0.7808006 65 65 65
-0.0334466723267735 -0.0021273693552698 -0.0105801803078537 -0.8392699 0.445601 0.3115537 74 74 74
-0.00752604282543068 -0.0548950633516992 -0.0189642441477661 -0.4358916 -0.6959989 -0.5705997 28 28 28
-0.0404490259949863 -0.040606280278274 -0.0145542901959305 -0.3549139 -0.8467181 -0.3963643 49 49 49
-0.02185356891796 -0.000839253377028837 0.0193177628312226 -0.7617031 0.5232761 0.382087 16 16 16
0.0138972970183193 -0.0403641662111963 0.00376992104388429 0.07245952 -0.6293492 0.7737371 98 98 98
-0.0326606062714756 -0.0163870653620447 0.013351725319397 -0.8297779 0.4557146 0.322169 70 70 70
-0.0201903609101475 0.00131217627613889 0.0193629431519623 -0.725091 0.5495564 0.4150069 25 25 25
0.019366142385751 -0.0320478877535547 0.00209762332774355 0.9486491 -0.3163228 -0.002184469 28 28 28
-0.0256954459016026 -0.0371777615061487 -0.027054546495903 -0.3699575 -0.6294086 -0.6833566 54 54 54
-0.0103412894074619 -0.0564511022082056 -0.00611534537934111 -0.09950399 -0.6782848 0.7280306 114 114 114
-0.0449267653290928 -0.0181271633616175 -0.0158682447876816 -0.8294681 0.4739243 0.2955983 79 79 79
0.0196977826292812 -0.026405771683761 -0.00873462679051207 0.9541005 -0.2289021 -0.1931219 27 27 27
0.0131891938383877 -0.0394075116625513 0.0045834648404236 0.01888835 -0.5638589 0.8256552 113 113 113
0.0227109166319668 0.0453672805318152 0.0173667537961121 0.5455751 0.711988 0.4420643 100 100 100
-0.00205719745799904 -0.0433697900286402 0.00245921490527345 0.005145908 -0.553555 0.8327968 209 209 209
0.0434337826903164 0.0100531974324499 0.0366734730992432 0.04073667 -0.5508704 0.8335961 94 94 94
0.00856411182239647 0.00887815146534787 0.0362667012009735 -0.009835448 -0.5579169 0.8298386 230 230 230
-0.0242670801942051 0.00769404559223996 0.00117561397887422 -0.8311024 0.4635397 0.3072454 105 105 105
0.00671112262561913 -0.0451776585093225 -0.0214048904385452 0.8076084 -0.5020992 -0.3092979 75 75 75
0.0351401539976894 0.00431327014057981 0.00937436697817995 0.8653486 -0.5011489 0.004656239 47 47 47
-0.0491074351136387 -0.0231666168680872 -0.0229867977108841 -0.99001 -0.1409959 0.0006219757 122 122 122
0.031383154028207 0.0294598737248694 0.0312328505311127 0.5773634 0.6937298 0.43057 94 94 94
-0.025966527826041 0.00702504305928098 -0.00226388694905089 -0.8299907 0.4596878 0.3159155 78 78 78
-0.044286373025626 -0.0382021865359033 -0.0128475558962707 -0.7257855 -0.6611608 -0.1900048 36 36 36
-0.0394126204316319 -0.00594647736460818 -0.0207269323077087 -0.8287511 0.4587555 0.3204917 50 50 50
0.0311852666075527 0.0449228683003698 0.00740830777026369 0.5566791 0.6948081 0.4553571 97 97 97
-0.0372206000153721 -0.0095622739306177 -0.00870449664257811 -0.8496981 0.4329211 0.3009858 85 85 85
0.0232080193693935 0.0414137044438635 0.0228560435567017 0.5454487 0.7035992 0.4554492 106 106 106
-0.0218082693879307 0.00917951254933225 0.00568328974581911 -0.820775 0.4684493 0.3269307 83 83 83
-0.0153723982636631 0.0276259580144201 -0.00452826740406798 -0.8364547 0.4420234 0.3239735 79 79 79
0.0169514390166103 -0.0345562896242823 0.0077020692620392 0.1770675 -0.5856659 0.7909757 84 84 84
0.00902259075000877 -0.0500782927981104 -0.00233168723248289 0.1468528 -0.545536 0.825121 118 118 118
0.0156036587889492 0.0210023322591101 0.0441648828778382 0.01248952 -0.5155149 0.8567896 94 94 94
0.0296937199766933 -0.0104436478129114 0.00331793902255251 0.8998261 -0.4129238 -0.1407369 56 56 56
0.0133198472197353 -0.00820138068110599 0.0247715580258484 -0.02165585 -0.532495 0.8461561 86 86 86
-0.0378533629243076 -0.00826962799937381 -0.0110728275980835 -0.8359121 0.4502955 0.3138232 78 78 78
0.0217617722685635 0.0124938884267126 0.0386169421467896 0.02033759 -0.5400493 0.8413877 99 99 99
0.0237504216368496 -0.0103306374064173 -0.020500956198204 0.8923846 -0.3789524 -0.2450402 44 44 44
-0.0457175997559727 -0.036996980618545 0.00381513116694643 -0.8686678 -0.3158528 0.3816454 109 109 109
-0.0402940539185703 -0.0374941429606165 0.00662638423777773 0.02121782 -0.5486444 0.8357865 107 107 107
0.0131291123564541 -0.0429629883280481 0.00209762332774355 0.1810443 -0.7264274 0.6629677 110 110 110
0.020556327932626 -0.0267371735087122 -0.00484765889309691 0.9441737 -0.318678 -0.0835489 38 38 38
0.0183719369108974 -0.0346467098704065 -0.00282886447571562 0.9031045 -0.3945986 -0.1693934 38 38 38
0.0119086476500332 0.0392958322057043 0.0407562720570679 -0.0575434 0.7895767 0.610948 111 111 111
-0.00501001156017189 0.0140757956990515 0.029215948561203 -0.8564319 0.2567203 0.4479052 52 52 52
-0.0122717646424473 -0.057418545197555 -0.0104370546545868 -0.3850027 -0.9223277 0.03293324 70 70 70
-0.0205687311951817 0.0198610225209509 -0.00635424079560087 -0.8242097 0.4736696 0.3103472 74 74 74
-0.0108104971711338 0.00608352809040891 0.0255700218472595 -0.7046983 0.5074795 0.4958476 26 26 26
-0.00869000232860451 0.0160814919957434 0.0216171610150452 -0.8014508 0.2477706 0.5443218 49 49 49
0.0237201424773037 0.0140306153783117 0.039370225647461 0.01966927 -0.5367281 0.8435259 64 64 64
-0.0187631872956455 -0.0300365886202539 0.0109336840901489 0.01322562 -0.5201575 0.853968 58 58 58
-0.00625312603160744 -0.0564242205134119 -0.00634670080803679 0.008081985 -0.557705 0.8299999 102 102 102
0.0174528332884609 0.0243205228337561 0.0460593867097016 0.02471146 -0.4555419 0.8898713 83 83 83
-0.042086723214835 -0.0417275628557886 -0.00239194752835081 -0.810994 -0.5849488 -0.01111316 54 54 54
0.0152984830076992 0.00799361853688108 0.0354724991116638 0.03032613 -0.5652195 0.824383 93 93 93
0.0317276688750088 0.00476519255726682 -0.0139699709620361 0.9292544 -0.2932989 -0.2246377 35 35 35
0.0310195656950771 -0.00404067845255984 0.027423100451004 0.01743986 -0.5581028 0.8295885 221 221 221
0.0373772355253994 0.013985435057572 0.00110329864360048 0.9143913 -0.04002149 -0.4028484 46 46 46
-0.0199326304261387 -0.0459912023058618 -0.0221732390131836 -0.4164676 -0.6403418 -0.6453814 45 45 45
-0.0088876513306797 -0.00592954964549197 0.0268600451741333 -0.007220337 -0.5215726 0.8531764 228 228 228
0.0222135754759609 0.0467534461507116 0.0152500140462036 0.5562344 0.7038712 0.441779 63 63 63
0.0272229882414639 0.0102416673192297 0.0369446444306488 0.002303374 -0.5454304 0.8381529 87 87 87
-0.0380793837372959 -0.0171101889124597 0.00114849386550142 -0.831064 0.4502538 0.3265029 121 121 121
0.0194567414458096 -0.0184208950510706 -0.023047058006752 0.8907307 -0.3309482 -0.3115638 20 20 20
0.0453184815581142 0.0222655931004797 0.0252566504273529 0.6017927 0.6917518 0.3991554 104 104 104
0.0192192765410244 0.00310424952595578 0.0319277512822266 -0.009204047 -0.5445933 0.8386497 60 60 60
-0.00415885723277931 0.0161397853383337 0.0294871198926087 -0.8392034 0.2784174 0.4671417 32 32 32
0.0207222672636806 0.0471150079259192 0.0172386932168122 0.5577932 0.7040646 0.4394994 75 75 75
-0.0061248568360508 0.0137775340565954 0.0269560682568665 -0.8548931 0.2671968 0.4447062 52 52 52
0.0295129986937344 -0.0106018385401453 0.00151007054187013 0.8994897 -0.3961349 -0.1843785 35 35 35
-0.0309318331544102 -0.0445771417132105 -0.00881425859593199 -0.175024 -0.9663894 -0.1883035 42 42 42
-0.0423053530518711 -0.0160932740679468 -0.0123051983322983 -0.830393 0.4609239 0.3130442 82 82 82
0.00120150768116112 -0.0443324646464075 0.00151910064555361 0.0288336 -0.5485716 0.8356062 143 143 143
-0.0349005488221348 4.45036976681745E-06 -0.0164181423392181 -0.8427377 0.4525363 0.2915546 74 74 74
-0.0345691469971836 -0.0283492407313074 -0.0300526154246216 -0.4271037 -0.6693608 -0.6078968 44 44 44
-0.0213111666505039 0.0181887546071325 -0.00766496183537291 -0.8274376 0.4616889 0.3196721 65 65 65
-0.0266896513764561 -0.0306580862513269 -0.0325459969248657 -0.2785543 -0.7255355 -0.6292899 70 70 70
-0.0140119818513096 0.0131719508656775 0.0166511106286164 -0.7174134 0.3836375 0.5814984 39 39 39
-0.0243781832520664 0.0158644118794714 -0.0105252993311767 -0.8303347 0.4598561 0.3147645 91 91 91
-0.0112773207490147 -0.0368613800516809 -0.0345120710339432 -0.4120828 -0.6118343 -0.6751641 50 50 50
0.0337840291197598 -0.00581093640238894 0.022255556562912 0.9079272 -0.377472 0.1821626 61 61 61
-0.00400078571483498 -0.0362919172754969 -0.0384713393654709 -0.2095051 -0.6969581 -0.6858258 42 42 42
