ply
format ascii 1.0
comment File exported by Rhinoceros Version 7.0
element vertex 470
property float x
property float y
property float z
property float nx
property float ny
property float nz
property uchar red
property uchar green
property uchar blue
end_header
-0.0199784460692555 0.0813915281069111 0.0197710718614282 -0.1663666 0.9439384 -0.2851357 147 147 147
0.070411867402974 -0.0182355136456769 -0.00284442062237772 0.9499346 0.04987191 -0.3084429 63 63 63
-0.0695139716361109 0.0266229122810009 -0.0228307318645076 -0.9813452 0.109506 0.1580188 78 78 78
-0.0690552781171277 -0.00127859623655868 -0.0427710735820516 -0.4908285 -0.08808756 -0.8667918 210 210 210
-0.0629125301139105 -0.0469981369800521 0.0279510615410578 -0.8744209 -0.4079758 0.2625715 101 101 101
0.0273851326204564 -0.0175170146215529 -0.0317663702612005 -0.1782037 -0.3417605 -0.9227368 132 132 132
0.00806566912199118 0.051660620447826 -0.0432810754915862 -0.2083416 0.02964561 -0.9776067 102 102 102
-0.0129897567638437 0.062990227898317 -0.0351819415860187 -0.03314459 0.1513876 -0.9879186 95 95 95
0.0428272452381838 0.0718751333278747 0.0216892732236201 0.2167904 0.9728771 0.08069779 152 152 152
-0.0579443022591654 0.0255870744975857 0.00603586103207798 -0.8776785 0.2838234 0.3861667 107 107 107
0.028483886556144 -0.00602306561503663 -0.0396523301788885 -0.1729561 -0.6325055 -0.7549986 221 221 221
0.0451144272249935 0.0372166528743594 -0.0432461848242348 0.1609038 -0.1757776 -0.9711911 164 164 164
-0.0071434912074143 0.0738361389820961 -0.00376030776996816 0.007850425 0.9931824 -0.1163064 19 19 19
0.0418813677998783 -0.0291291422892732 -0.0294067950300598 -0.178346 -0.2905547 -0.9400908 159 159 159
-0.0651446588720166 -0.0248449207626944 -0.0407848698402702 -0.4548126 0.0346413 -0.8899132 195 195 195
0.0631597362053613 0.0587052966289017 -0.037244930317746 0.8872336 0.1630587 -0.4315419 81 81 81
-0.0708091914235127 0.0153393084131621 -0.0249654960945529 -0.9915532 0.07486441 0.1059127 86 86 86
0.0301123018157895 -0.0682167039922701 -0.022835505352015 0.1984135 -0.9360026 0.2907428 91 91 91
-0.0602712750097491 -0.0177023544372605 0.0307250996899038 -0.9594041 0.1479226 0.2401306 50 50 50
0.0113948562199264 0.0550148681819058 -0.0432780195533127 0.03548997 0.3058397 -0.9514213 227 227 227
0.0676883590522911 0.0497439148478254 -0.00839854483914604 0.91894 -0.02217992 -0.3937731 54 54 54
0.0553959991049457 0.0674340457317344 -0.0240620231106246 -0.0784976 0.9893613 -0.1224841 73 73 73
0.0638066608168173 0.0415849928447061 -0.0307617430839523 0.988171 -0.01522715 -0.1525984 45 45 45
-0.0650986012575346 -0.00966572415808442 -0.0422418516062323 -0.1580833 -0.03967057 -0.9866285 208 208 208
0.023429272513305 -0.0532817777314498 -0.0294386270509808 -0.1100597 0.4382836 -0.892073 123 123 123
-0.0651880345223725 0.0205607918476027 -0.00631393298458832 -0.8505525 0.3046252 0.4286769 98 98 98
-0.0612905753271614 -0.0369369671118482 0.0328778549363332 -0.9253628 0.1333013 0.3548724 43 43 43
0.0554144084737465 -0.0252159036361199 -0.0322376924502802 -0.04578087 -0.09533399 -0.994392 112 112 112
0.0257975784530297 -0.0605676325591931 0.0023106288304931 0.01176023 -0.9105672 0.4131936 81 81 81
0.0578573508073649 0.0698479505155378 0.0153519698974164 0.2254132 0.972901 -0.05150151 86 86 86
0.000307828131376406 -0.0441581224757568 0.0419934300251307 0.1158981 -0.9052876 0.4086833 159 159 159
-0.0314683389799345 0.0730778833603354 0.00454376382300448 -0.1830292 0.9714167 -0.1511622 55 55 55
-0.0396102212552029 0.0668977331260538 -0.0136855588102119 0.2040734 0.9579257 -0.201823 43 43 43
-0.0666265007943602 -0.0436008636469745 -0.033437890278744 -0.9930533 -0.09111455 -0.0744541 94 94 94
0.00252438623476471 0.0488802631830174 -0.040996354268067 -0.4400066 -0.03048285 -0.897477 83 83 83
0.0404191042162616 0.0342291012062943 -0.0438376900559225 0.1537098 -0.06808281 -0.9857677 125 125 125
-0.0199650347132402 -0.0160044531671737 -0.0389205196147582 -0.02131121 -0.1213694 -0.9923786 128 128 128
-0.006635960625602 0.0136219872824126 -0.0346349625741199 -0.2495334 0.1415853 -0.9579597 118 118 118
-0.0218747665492593 -0.0441040468785099 -0.0355022867750819 0.1961377 -0.2522871 -0.947566 117 117 117
0.0431548277580984 -0.0611151491524027 -0.000514217311778475 0.03508338 -0.9623314 0.2696062 91 91 91
-0.04271621344324 0.0568249980604842 0.0160977977936461 -0.7159165 0.4638939 0.5217912 43 43 43
0.0646379189501984 0.0575663035578577 -0.0297681199335081 0.9920091 0.04097001 -0.1193288 49 49 49
-0.0701990963085282 0.0130126030323738 -0.0415844322694688 -0.5603732 0.1636313 -0.8119155 159 159 159
0.0190606649514128 -0.0074747963363706 -0.0363091446469238 -0.1879766 -0.5381726 -0.8216051 218 218 218
-0.0374986218150499 -0.00812734506572599 -0.0388063739014783 0.09450352 -0.02022215 -0.9953191 98 98 98
-0.00137143613483647 -0.0357041666618381 -0.0318375415530144 0.1462572 -0.05489448 -0.9877223 130 130 130
-0.0716117952888513 0.0087797637463809 -0.0254524401624375 -0.990774 0.1354752 -0.003662767 152 152 152
0.0702491469568848 0.0523725046298447 0.000531724100316711 0.9808241 0.01261195 -0.1944867 42 42 42
0.00918039935047647 -0.0208421804776775 -0.0328083178162707 0.1186781 -0.2360606 -0.9644641 126 126 126
-0.0439308417287989 0.0681727175504383 -0.026570324652618 0.2657479 0.9430418 -0.2001255 32 32 32
-0.0649941697216972 -0.0405864631556705 0.0214988550939046 -0.986358 0.0498207 0.1568942 188 188 188
-0.0674704989909074 -0.01672945527679 0.00838111166309252 -0.9062817 0.1822675 0.3813555 25 25 25
0.0184837056289932 -0.0218098550915262 -0.0311713862256086 0.1862797 -0.2165883 -0.9583263 201 201 201
-0.067494140919972 -0.0430805748208776 0.0120692420412438 -0.9455487 0.06193382 0.3195338 68 68 68
0.0112610454641169 -0.0442461555111724 -0.0285698173673057 0.235723 -0.07128818 -0.969202 124 124 124
-0.000189784881850993 0.0730601390205114 -0.02010399229415 0.375859 0.91961 -0.1142253 135 135 135
-0.0658394409879747 -0.0579155012886636 0.000216317896474527 -0.6016001 -0.7098709 0.3662793 61 61 61
0.0282038792210122 0.0687689557943887 -0.0240960355883519 -0.02100997 0.982419 -0.1855032 66 66 66
-0.0103582429270088 -0.0557552907822778 -0.0306061653704551 -0.06482299 -0.3581168 -0.9314238 120 120 120
-0.00689021310617031 -0.0552183769362009 -0.0315015513897485 -0.01993027 -0.2733403 -0.9617109 100 100 100
-0.0655699319243433 0.0112665331647186 -0.000598957557684743 -0.8713291 0.2481999 0.4232994 61 61 61
-0.0461670417627619 -0.0752087214939576 -0.0201349602744007 -0.2189297 -0.9219902 0.3193805 141 141 141
-0.0306601771898566 0.066867413278789 -0.0251231093833771 -0.1089287 0.9826707 -0.149976 30 30 30
-0.0585310440549553 0.0214219019172008 -0.0414048158749413 0.005748371 0.2179879 -0.9759346 229 229 229
0.0532487106223038 -0.0602301415203743 -0.0317975364834717 0.02997155 -0.1489001 -0.9883979 109 109 109
0.0068719363356896 0.0645443733183384 -0.03739387711029 0.02938809 0.5505897 -0.8342585 165 165 165
0.0203409028418256 0.0719309852472525 -0.000400793062432236 0.04051168 0.9969214 0.06713032 99 99 99
0.0444637787268327 0.00986922234008225 -0.0425384168645636 -0.05617025 -0.03522738 -0.9977996 122 122 122
-0.0537481333981687 0.0615247975635791 -0.00788584641756357 -0.7647753 0.366346 0.5300088 52 52 52
-0.0380006793677053 0.0585706474547292 0.0213471773002004 -0.8508716 0.4967502 0.1710461 75 75 75
0.0155343139061492 -0.0707476273670231 -0.0227827513622827 0.1166557 -0.967675 -0.2235989 79 79 79
-0.0597864853844835 -0.0279766533755872 0.0355969994463878 -0.9667458 0.02336578 0.2546697 41 41 41
-0.0679542612168829 0.0175438716546426 -0.0411176555921287 -0.3604282 0.3351793 -0.8704863 144 144 144
-0.0284270529498767 0.0728324879498052 0.00153544141132983 -0.09228051 0.9908232 -0.09876049 43 43 43
0.0626638123292095 0.0369871221316589 -0.0347610019366607 0.9782774 -0.04575866 -0.2021865 16 16 16
0.0576602005613101 -0.0645811742626774 -0.0228061449424044 0.2343514 -0.9652594 0.1155578 56 56 56
0.0490263249249541 -0.0449299134268204 0.0341697486241374 0.02458197 -0.9501659 0.3107739 106 106 106
0.0495786860360121 -0.00961945333934011 -0.0393597218306415 0.1112878 -0.3883393 -0.9147719 89 89 89
0.0711283005194957 -0.0395699626075816 -0.00216018520476446 0.9730717 0.06905682 -0.2199152 48 48 48
-0.0508975300244049 -0.0655817032767212 -0.00246348130490809 -0.165316 -0.8794299 0.4464009 137 137 137
-0.0593536622995505 0.0376721467529739 -0.00212919566098085 -0.9079692 0.2044345 0.3657846 98 98 98
0.0182649834288244 -0.000892026901585519 -0.0409904116618937 -0.2537313 -0.5391359 -0.8030896 209 209 209
-0.0614556967403523 -0.0270728171148178 0.0307001798778257 -0.9443738 0.09669586 0.3143372 57 57 57
-0.0692187433121065 0.00889779582049233 -0.00882178104611719 -0.9379163 0.2481876 0.2423136 106 106 106
0.0481550470804104 0.0177877108213305 -0.0428235062844255 0.02025022 0.02850716 -0.9993885 103 103 103
0.0524052222554345 -0.0609833544756835 -0.00320146798718141 0.1058462 -0.9527862 0.2845963 180 180 180
-0.024728861187462 0.080258264721212 0.0306135046583813 -0.3028717 0.9514971 -0.05405627 105 105 105
0.00336056356002502 0.0709926389644053 -0.0310251107234279 0.3768806 0.9115726 -0.164306 68 68 68
-0.0659466280060476 -0.0580651494708564 -0.0107324695314649 -0.8754838 -0.3657049 -0.3158924 99 99 99
0.0541509481940596 -0.00502866663573331 -0.0399980007529195 0.08321686 -0.3510736 -0.9326426 202 202 202
-0.0711472858219153 0.0374563584962422 -0.0298905314506235 -0.8176564 0.3631446 -0.4467259 186 186 186
-0.068135066260341 -0.0515221126410834 -0.0111736675676047 -0.917995 -0.2785628 -0.2822903 89 89 89
-0.0462859718225242 -0.0769491999340861 -0.0274287439092773 -0.1958872 -0.9794124 -0.04878001 59 59 59
-0.0425952138514402 0.00349449611383634 -0.0406319434757852 0.1865468 -0.09314611 -0.9780205 160 160 160
0.0612048886016458 0.0125632782876492 -0.0405721063703092 0.7312989 -0.08111392 -0.6772168 94 94 94
0.0715560849263675 -0.0341505229984072 -0.000665269722863016 0.9744261 -0.004785592 -0.2246574 15 15 15
-0.0336142472469499 0.0681121852064623 0.017853741227669 -0.9252259 0.2548451 0.2810892 55 55 55
-0.0420918245290304 0.0318876475456786 -0.0360107023495294 0.1953765 0.1286314 -0.9722561 151 151 151
-0.00738441939503186 0.074207923861406 -0.0215914527492832 -0.1496943 0.9765308 -0.1548523 98 98 98
-0.0696129371179582 -0.0335330459752865 -0.0247273365562021 -0.9851729 -0.1083187 -0.1330469 123 123 123
0.0556543533821882 0.0702537409130748 0.0217688402302501 0.1344086 0.9908686 -0.01066689 84 84 84
-0.0249071055540359 0.0439462638736265 -0.036005613601196 0.07319947 -0.04588873 -0.9962611 185 185 185
0.0724089523576573 -0.034022044108958 0.00440223653359945 0.9734513 0.009854314 -0.2286818 56 56 56
-0.0295492662328117 -0.00856556506588824 -0.0390863729594897 0.05420153 0.0529433 -0.9971254 126 126 126
-0.0715725410925844 -0.0231570593000172 -0.0265802979964498 -0.981146 -0.1550496 -0.1153787 142 142 142
-0.0183161100127203 -0.0181657546449263 -0.0390339451843532 0.1204538 -0.2082404 -0.9706321 88 88 88
0.0322153178148157 0.0212617858104545 -0.043552635907663 0.02233865 -0.1091368 -0.9937757 134 134 134
0.0626278049916206 0.0490591107153886 -0.03257964439796 0.9785555 -0.03965455 -0.2021304 60 60 60
-0.0699987194279259 0.04151158872385 -0.0238904327865879 -0.9406465 0.287549 0.1802771 177 177 177
-0.0663935063620119 0.0173572392436017 -0.00624231411075155 -0.8627437 0.2840459 0.4183196 70 70 70
0.0505984120032989 0.0511767996690622 -0.0457820453252372 0.09211607 0.1851409 -0.9783852 219 219 219
-0.00361192230883579 -0.00361786118490359 -0.0383119556759605 -0.1010875 0.05884867 -0.9931355 80 80 80
-0.0180107189732715 0.00524012375707494 -0.0368161114561043 0.2237395 0.2862905 -0.9316536 209 209 209
-0.0461883458884363 0.0211047469235046 -0.0394616626331524 0.2456207 0.23124 -0.9413812 111 111 111
-0.0586090162149987 0.0262280427241763 0.00470358214414596 -0.8840303 0.264666 0.3852822 77 77 77
0.0528379223684658 -0.054313681774502 0.0130533684384538 0.06382615 -0.8534722 0.5172151 101 101 101
0.00289531030768565 0.0719401558401032 -0.0200910213728829 0.2587154 0.9490698 -0.1798135 122 122 122
0.0369137900469638 0.0675636311305212 -0.0364032108262298 0.05311879 0.9714379 -0.231272 87 87 87
0.0749355123306003 0.0295515575513727 0.0187838411575864 0.9778305 -0.03225224 -0.2068993 28 28 28
-0.0594908453115765 -0.00598434573199502 0.0203589325842599 -0.933392 0.1616351 0.3203956 75 75 75
-0.0157093262687748 0.0735794589278063 -0.0097702213164465 -0.1840283 0.9700445 -0.1585788 162 162 162
-0.000431568066412355 -0.0553332755374192 0.0207959515044535 0.1130085 -0.8453519 0.5221199 120 120 120
0.0258495049909494 0.0155397732047078 -0.0432694622553139 0.04555378 -0.03292777 -0.998419 131 131 131
-0.00729066895824791 -0.0577798926426383 0.0152829656473017 -0.006303047 -0.9016181 0.4324871 59 59 59
0.0694143543508134 -0.0202670499134412 -0.00681321811840957 0.9448674 0.03799142 -0.3252419 52 52 52
0.0315251293551364 0.024797595629207 -0.043883083169531 0.03611665 -0.1236697 -0.991666 105 105 105
0.0611664465223815 0.023580093259572 -0.0356545230775217 0.9638671 0.01013055 -0.2661907 40 40 40
-0.0190640886068115 -0.072674049864474 -0.0158820273651394 0.2284428 -0.8921302 0.3897661 146 146 146
0.0396649129594855 0.0693721258427993 -0.023543393010248 0.10362 0.9687815 -0.2252227 105 105 105
-0.0062156665183193 0.0770161442321204 0.0166450043440936 0.1207568 0.9917037 -0.04406304 30 30 30
-0.0680095650923771 0.0336718851078464 -0.018273892328444 -0.9256791 0.1221215 0.3580565 105 105 105
-0.0622502128550015 -0.0181723582446218 0.0200258270347122 -0.9387447 0.1670593 0.3014125 100 100 100
-0.0514788925628579 0.0675490495756066 -0.0084651696066898 -0.5935965 0.6226775 0.5098196 57 57 57
-0.0394960729253033 -0.0539294416468081 0.0221268843303606 -0.05729127 -0.9273785 0.3697118 63 63 63
0.0674977108236281 0.0537767366483377 -0.0089291225303359 0.9389995 -0.1298123 -0.3184789 28 28 28
-0.0698205694306349 0.0140201045045156 -0.0144309949791275 -0.9817738 0.1079496 0.1564197 100 100 100
-0.0300716968547331 -0.0390164589389661 -0.0386051972344669 0.2205638 -0.08249599 -0.9718776 163 163 163
0.0152581915415802 -0.00498522239644683 -0.0362366294419186 -0.1688139 -0.5197061 -0.8375007 146 146 146
-0.0569377096064744 -0.00278454315201171 -0.042673313393591 -0.008777478 -0.03509488 -0.9993454 199 199 199
0.0586708058326359 0.0691249334878028 0.00704231422733498 0.277495 0.9578038 -0.07488894 90 90 90
-0.0496195605039853 -0.0709762553695314 -0.0132918849855875 -0.2833633 -0.8949792 0.3445539 158 158 158
-0.0562369963429124 -0.0498859929811966 0.0347601432159242 -0.2131589 -0.9321178 0.2927793 63 63 63
-0.0572842466357274 0.0640581455496205 -0.0228501360068107 -0.573353 0.7555007 -0.3169938 133 133 133
-0.0607664392653238 -0.0139418431927136 0.0212889262873091 -0.9288455 0.2014452 0.3109114 49 49 49
0.00823256580236666 -0.0582607279409364 0.0133337690263625 0.09569039 -0.8882468 0.4492893 167 167 167
0.0434578057351572 0.0703136317169577 -0.0149961294993907 0.2536246 0.9369714 -0.2403314 78 78 78
0.0716814598836278 0.0540691524369685 0.00943428166559612 0.9515815 -0.09663162 -0.2918131 85 85 85
0.0606388953397497 0.0204005535013976 -0.0395826447443029 0.8406045 0.1058205 -0.5312119 145 145 145
-0.0678736508214497 0.0262094538543416 -0.0139405956692106 -0.893054 0.2073436 0.3993284 56 56 56
-0.0514019185538525 0.0347241832128571 0.0169746671352217 -0.8800915 0.269827 0.3906818 102 102 102
-0.00344761657505289 0.0402352711347054 -0.0386639368825598 -0.2540486 -0.04073233 -0.9663333 93 93 93
-0.0556517972636937 -0.0474772643117256 0.0409107603514856 -0.3403306 -0.8460374 0.4103607 120 120 120
0.0103846480160586 -0.0406938535784003 0.0481485470594292 -0.04158391 -0.9564071 0.289061 136 136 136
-0.00903628410569045 0.0487297596558682 -0.0361741813233353 -0.2154375 0.1100062 -0.9703017 114 114 114
0.0172761387885773 -0.00473494498111537 -0.0371806772598396 -0.2623782 -0.5495439 -0.7931955 187 187 187
-0.00209363174406231 0.0729056065386515 -0.0295423383900549 0.1594895 0.9733717 -0.1646532 103 103 103
-0.040848250658376 -0.0520324970633426 0.0298601470793359 -0.1069436 -0.9583946 0.2646562 182 182 182
-0.00588727614327349 -0.0133306139234926 -0.0374604364230571 -0.0155099 -0.2104446 -0.9774827 95 95 95
0.0458843480673457 -0.030734963714794 -0.0294158303149844 -0.229223 -0.3222423 -0.9184861 166 166 166
-0.0193687182547852 0.0524924099941171 -0.0361037995845145 0.09270438 -0.04300507 -0.9947645 98 98 98
0.0683514823078128 -0.0480009138853144 -0.0215307848347818 0.9594257 -0.006669845 -0.2818825 62 62 62
0.0696063130765795 -0.0506258065067593 0.0128337301987535 0.1484097 -0.9242377 0.3517943 57 57 57
0.0457067757053311 -0.0209699996472328 -0.0325521810103571 -0.02293427 -0.2475018 -0.9686159 154 154 154
-0.0720091597226227 -0.0397046287771432 -0.00982519769064594 -0.9039743 -0.2842316 -0.3194416 133 133 133
-0.0508027969114151 0.0642672433163545 -0.030436491846251 -0.4380105 0.6817887 -0.5859275 78 78 78
0.0161231144138504 0.0397421881206275 -0.0437992664219602 -0.2192264 -0.1089456 -0.9695724 87 87 87
-0.0388803242850248 -0.0552572690435047 0.0188720162602826 -0.04173571 -0.8882492 0.457462 101 101 101
0.0637050952711263 0.0240136337102379 -0.0279396017438191 0.968827 -0.0142043 -0.2473306 24 24 24
-0.0719905456295117 -0.00215795656676776 -0.0372753608297356 -0.9913365 -0.08470158 -0.1003869 124 124 124
0.0125585302073831 0.0677062910568595 -0.0271536203761178 0.219746 0.9499025 -0.2222543 71 71 71
0.014801840817984 0.072471095042449 0.0107930811987721 0.4383825 0.8985306 -0.02153026 32 32 32
-0.00263581838643416 0.0746299123029646 -0.00155315984678955 -0.06928991 0.9747055 -0.2124809 87 87 87
-0.0536567707707479 -0.0479477347989803 -0.0425257733589051 -0.006812144 -0.09792939 -0.9951701 134 134 134
0.0784588356612124 -0.0314490495465038 0.0215029323423536 0.9014828 0.03381185 -0.4314921 67 67 67
0.0570774365610897 0.0695017299832559 0.00499913312596906 0.2634702 0.9628777 -0.0587371 63 63 63
0.0381719050259495 -0.0556416951172465 0.0126182934628785 0.08536046 -0.8269194 0.5558038 94 94 94
0.0550710465779081 0.069576192721591 -0.00856439230849171 0.1491382 0.9863037 -0.07044655 81 81 81
-0.0378846290556324 -0.0462232049881561 -0.039443830486189 0.273585 -0.186487 -0.9435962 199 199 199
0.0609102086363025 0.0591637491470112 -0.0410276754424117 0.5787863 0.3278953 -0.7466533 109 109 109
0.0472946566441437 0.0667531325605744 -0.0256752994100489 0.141591 0.9832232 -0.1149962 85 85 85
0.0359779572723874 -0.0619968856236026 -0.00214485763702082 0.02812269 -0.939526 0.3413211 53 53 53
0.026199461371193 0.0417327176072828 -0.0455750967517011 -0.01272478 -0.06788436 -0.9976121 140 140 140
-0.0666031803521483 0.0147600198585214 -0.0422571750483509 -0.1787058 0.1804526 -0.967213 141 141 141
-0.0595508241086736 -0.0472243307290032 -0.0404587056932501 -0.2281755 -4.449428E-06 -0.97362 136 136 136
0.0680679183433032 0.0128378368773054 -0.00180812334540126 0.9734281 -0.1005568 -0.2057328 45 45 45
0.0199736238869585 0.0535533642952857 -0.0449854212255396 -0.346424 0.1213856 -0.9301913 127 127 127
-0.000859134584419316 0.0482946216452003 -0.0390577112309753 -0.4207414 0.0518684 -0.9056966 67 67 67
-0.0466297977391386 0.0444760375380684 0.0191620550527544 -0.7974311 0.3316346 0.5041053 43 43 43
0.0268249180730781 -0.0634577277306012 -0.0318059532944823 -0.328525 -0.1349245 -0.9348084 196 196 196
-0.0520736223725086 0.0651150527502216 -0.0267837535902646 -0.4796238 0.7871855 -0.3876854 85 85 85
-0.03734633449394 0.064616333358118 0.0316393269491029 -0.90383 0.356028 -0.2373507 41 41 41
-0.0474513783708415 0.0701988336453914 -0.0163147067072546 0.01126388 0.9884055 -0.1514189 155 155 155
0.0688408405183147 0.0699895625827158 0.0199373085959467 0.07028472 0.9958676 -0.05751321 84 84 84
0.0221056348024313 -0.00626053073023547 -0.038206294732083 -0.2140692 -0.6063222 -0.7658641 221 221 221
0.00907219806930877 -0.0510775719813552 -0.0284188348221451 0.1525421 -0.1644482 -0.9745192 133 133 133
-0.0210651111266586 -0.0651514108278237 -0.0279384761181248 0.08000521 -0.3450727 -0.9351599 182 182 182
0.0390135490848139 0.0665731799007268 -0.0390205968497428 0.06329941 0.8728472 -0.4838708 161 161 161
0.0329003482472103 0.0685757451106406 -0.0259018629141081 0.05693816 0.9844662 -0.1660853 88 88 88
0.0238644650683014 0.011738612028285 -0.0430826939311945 -0.04303883 0.02143808 -0.9988434 93 93 93
-0.0722406815636319 -0.00199329976972984 -0.0180093301563959 -0.9883374 0.04453584 0.1456219 134 134 134
-0.068613846559346 -0.0200987644857764 -0.0390147257543856 -0.724533 -0.07795307 -0.6848177 217 217 217
-0.00437858354900202 0.0175054658385461 -0.0346807713344058 -0.1906045 -0.007593573 -0.9816375 81 81 81
-0.0676206362227398 -0.0403954612090778 -0.031287327928358 -0.9748787 -0.1816561 -0.1288901 87 87 87
-0.0642328622094401 -0.0255731812581872 0.017371032223792 -0.9567524 0.0893508 0.2768415 79 79 79
0.0495194764805134 0.0722671455240831 0.011292821710463 0.1599939 0.9827992 -0.09223674 110 110 110
0.0531630883877108 -0.0413325552422601 0.0426763832775011 0.03296115 -0.9291115 0.3683278 66 66 66
-0.0227760774556177 -0.0468209574696743 0.0415403542214867 0.03085389 -0.9602659 0.2773761 136 136 136
0.0100609515825518 -0.00225376267702693 -0.0377393872792859 -0.1050381 -0.4535417 -0.8850237 223 223 223
-0.0642883659742402 -0.0346357689504939 0.0247380094148708 -0.974373 0.1057862 0.1985105 46 46 46
0.0282279450791152 0.0555014920768777 -0.0457226051963503 -0.01548496 0.07372455 -0.9971584 114 114 114
0.0710149998300235 -0.0545202116372594 -0.0057369227057899 0.9251888 -0.3518412 -0.1422445 49 49 49
-0.0553999609313218 -0.0697516599084969 -0.01339125107735 -0.2549995 -0.8960788 0.3633429 130 130 130
-0.0659872235275621 0.0326422784233915 -0.0142966190165432 -0.856654 0.2163132 0.4683509 91 91 91
-0.0422437003676354 -0.00873226420259887 -0.0395864408905927 0.1572485 -0.08153128 -0.9841878 120 120 120
0.0280000145681988 0.00846778539282589 -0.0445414243383173 -0.001403232 0.2339806 -0.9722403 133 133 133
0.0112109381601625 0.0723619562145488 -0.0173800624380435 0.1259899 0.9511648 -0.2818016 38 38 38
0.00576831871643489 0.00214611897097328 -0.039254879518315 -0.1880518 -0.1624635 -0.968629 226 226 226
-0.00388406257372408 -0.0354216218125654 -0.0324443264762277 0.1883081 -0.07267583 -0.9794173 129 129 129
-0.0299379557642587 -0.014177535690856 -0.0378892425970503 -0.004999307 -0.08753015 -0.9961493 197 197 197
0.0479128669637127 -0.0636469162257141 -0.00950016731994541 0.1447523 -0.9492445 0.279252 184 184 184
-0.0602525937702854 0.050997210162099 -0.0314443313790033 -0.6301436 0.1850224 -0.7541125 172 172 172
-0.031130321546437 0.0684609651372947 -0.0172807443480209 -0.1162913 0.9633783 -0.2416168 87 87 87
0.0705794624887768 0.0238080449384159 0.000715229457929345 0.9806499 -0.001001662 -0.1957668 9 9 9
-0.0254915372465025 -0.0493068254003914 0.0337172033768391 0.06963822 -0.9043279 0.4211193 93 93 93
0.00889825238312202 -0.0629189137041635 -0.000418760025056975 0.03854329 -0.9339009 0.3554484 68 68 68
-0.05390836390951 0.0483053793038843 0.00386614407152275 -0.8449782 0.3499883 0.4043761 63 63 63
0.0371611711527169 -0.0590173132290635 -0.0311961810815298 0.04583067 0.06461392 -0.9968573 196 196 196
0.0631112207463868 0.0061568437257391 -0.022943792285728 0.980571 -0.03227249 -0.1934916 56 56 56
0.0368673790746905 -0.00926537365560964 -0.0384753069876587 -0.1488254 -0.6347352 -0.7582626 162 162 162
-0.0565442735401892 0.0539415241605816 -0.00694195834401773 -0.8507888 0.2993073 0.4319417 102 102 102
0.0545669430748898 0.0365707214828548 -0.0423958072531291 -0.05402322 -0.1013654 -0.9933814 53 53 53
-0.0348172455326759 -0.0615181015613333 0.00867403694872687 0.02022995 -0.8899096 0.4556882 70 70 70
0.0203350532251649 0.0748433872708389 0.0283317212592334 -0.01910854 0.9823461 -0.1860941 111 111 111
-0.0726456154581296 -0.00857987321023757 -0.023895439050524 -0.9823768 -0.05151402 -0.1796726 130 130 130
0.000191409790416444 0.0260674510388921 -0.0384357406670605 -0.4174391 -0.1883867 -0.8889629 95 95 95
-0.0302084623420524 0.00213317716340278 -0.0385820474808239 0.05426303 -0.005874738 -0.9985094 77 77 77
-0.0591664323033638 -0.0346840704751055 -0.042754651033439 -0.1224706 -0.1004582 -0.9873748 226 226 226
-0.0119340028457728 0.0771272627879576 0.0266633113165267 0.5014171 0.8629628 0.06225812 23 23 23
-0.0564244505509472 0.0283463813541471 0.00842711215502523 -0.8868929 0.2710221 0.3741231 128 128 128
0.00600641622987531 -0.0442246989870148 0.0404013229897046 0.05698672 -0.8884572 0.4554078 92 92 92
-0.0340083760326615 0.0385719740215353 -0.0355547757768651 -0.001083974 -0.09392586 -0.9955786 116 116 116
-0.0704324048810316 -0.0167764347143609 -0.0338805233995741 -0.9582651 0.003954545 -0.2858539 183 183 183
-0.0600127051317681 0.0457773953215999 -0.0326560623130239 -0.472999 0.2355793 -0.8489842 91 91 91
-0.0378008334606576 -0.0719367575845051 -0.0116186992780721 0.006113724 -0.9003824 0.4350566 119 119 119
-0.0240761855240699 0.0703049916403884 -0.0151097447410335 -0.3012542 0.9120581 -0.2782015 69 69 69
-0.0450141035166394 0.0451696537423287 0.0206684130929161 -0.8101214 0.3719503 0.4531626 60 60 60
0.0372707158246667 0.0701656947173603 -0.0197862009243862 0.007252411 0.9663982 -0.2569472 60 60 60
0.0285038897192041 0.0586707955341998 -0.0451604910330369 0.004263152 0.1592995 -0.9872211 86 86 86
0.0425831927019144 0.06712939462388 -0.0374306025507805 0.1301298 0.9423252 -0.3083656 191 191 191
0.034822285199173 -0.0579638134757274 0.00950977458091334 0.04587195 -0.8894719 0.4546816 247 247 247
-0.0570757387998538 -0.0229814290000692 -0.0426659992432351 0.06102712 -0.02056133 -0.9979243 182 182 182
0.0641273801489489 -0.0504954707996474 0.0173798763195324 0.1782462 -0.9464378 0.2692281 117 117 117
-0.0500262947265181 -0.0108733956983891 -0.0421229615990196 0.2627743 -0.0391182 -0.964064 90 90 90
0.0110619915218827 -0.0719800678753095 -0.0232783565631551 0.2055966 -0.9703973 -0.1267248 145 145 145
-0.0662998858927702 -0.0598656434253118 -0.0100042045655697 -0.9016754 -0.3357467 -0.2724988 82 82 82
-0.0432853210620086 0.0216722527870481 -0.0381837019150844 0.2682626 0.2257226 -0.9365278 109 109 109
0.0106307215423975 -0.0462084138996435 0.0368433677642894 0.1024812 -0.9030384 0.417156 105 105 105
-0.0356112251229308 -0.0211937791851422 -0.0385315412435151 -0.02099729 0.02185357 -0.9995407 91 91 91
0.0120575589469775 0.0255808951709102 -0.042784372007277 -0.2333181 -0.06645935 -0.9701267 210 210 210
0.0459402026446207 -0.047333126780561 0.0284816754662108 0.01301275 -0.9370146 0.3490475 87 87 87
-0.0543648126368122 0.00908398067478156 0.034017138754865 -0.9742362 0.1966005 0.1105084 52 52 52
-0.0701687300820554 -0.00877899021345208 -0.0404259506010353 -0.7349839 -0.1887642 -0.6512808 148 148 148
-0.0623110532779318 -0.0492165857128886 0.0257897303543734 -0.7512328 -0.6109736 0.2497209 230 230 230
0.0213243896577614 0.0256354896180311 -0.0445689454300429 0.001091408 -0.05715058 -0.998365 112 112 112
-0.0642733529172724 -0.0483887452216589 0.0232519661785225 -0.8514696 -0.4508464 0.2678376 65 65 65
-0.058260048397086 -0.0699198395191323 -0.0350562045734924 -0.3900992 -0.7933104 -0.4674197 93 93 93
0.0447151872894577 0.0587646725380946 -0.043601193040226 0.118203 0.2832068 -0.9517468 205 205 205
-0.00487587278256942 0.0628147863230213 -0.0363522624768498 -0.2935925 0.03463294 -0.9553031 166 166 166
-0.0554512423600249 -0.0569998942144925 0.0134518627516542 -0.2522767 -0.9000072 0.3554482 71 71 71
0.0128568069475996 0.0697717766693762 -0.0212249571016382 0.2102927 0.8952745 -0.3927601 98 98 98
-0.013774165840528 0.0742944972421127 0.0075200696038436 -0.3487751 0.9085765 -0.2298795 19 19 19
0.0026380370591096 0.00648382025852601 -0.0379199896032501 -0.2007311 0.2105465 -0.9567535 90 90 90
-0.0230118951065734 -0.0514920392913638 -0.0324337556172299 0.1920781 -0.3859532 -0.9023005 113 113 113
-0.0708277352381881 -0.0135067210358166 -0.00471641202838546 -0.9538156 0.0749226 0.2908991 193 193 193
-0.0492393387040148 -0.0639235861426277 0.00144312271889335 -0.1412356 -0.8699765 0.4724335 76 76 76
0.025832630840355 0.0376719498282296 -0.0451251282259535 -0.02232555 -0.1355549 -0.9905183 101 101 101
-0.0403438068638329 -0.0201200330083529 -0.0382720857791964 -0.02557775 0.01725946 -0.9995238 166 166 166
0.0608963866586084 -0.0601413720161643 -0.0287868747736498 0.4568884 -0.3846804 -0.8020436 189 189 189
0.0656827279333587 0.0607696873782462 -0.0214432576393179 0.9381326 0.1134233 -0.3271732 45 45 45
0.00284136601003372 0.0471026872004212 -0.0411457193591849 -0.4054773 -0.0432383 -0.9130819 78 78 78
0.00653809268367937 0.0228103600760725 -0.0412951024322327 -0.3640828 -0.1562688 -0.9181632 105 105 105
-0.0135608118147448 0.0761729072009996 0.0129348025244079 -0.1749177 0.8147125 -0.5528538 111 111 111
0.0468101080865837 -0.00468100122063708 -0.0408438647406628 0.1069405 -0.2790703 -0.9542974 210 210 210
0.0190275834358376 0.0286726779374351 -0.0442221488784798 -0.04958025 0.0111654 -0.9987077 206 206 206
0.0539085077889765 0.0706638197891722 0.0209328721865635 0.148857 0.9887211 0.01649648 107 107 107
-0.0376014974003786 -0.0641147367827795 0.00360157210314777 -0.01245097 -0.8496731 0.5271628 86 86 86
0.0104335245389438 -0.0228892629317785 -0.032623562245705 0.1100084 -0.2152358 -0.9703462 173 173 173
-0.0229744525296168 0.0577981306542312 -0.0362322765028654 0.05577049 -0.02199848 -0.9982013 118 118 118
0.0597952696478332 0.0524546558487344 -0.0435439048831958 0.6467821 0.04503085 -0.7613443 43 43 43
-0.0131625615871244 -0.0603930321449311 0.0115225167738767 -0.01770602 -0.9214425 0.3881111 51 51 51
0.0444720452939127 0.0239194064618728 -0.0429768682300345 0.09920048 -0.02230557 -0.9948174 97 97 97
0.0710233338282947 -0.0445088655610602 -0.00811889981849939 0.9843673 0.07342479 -0.160093 149 149 149
0.0201016898930774 0.0623370130873375 -0.0418747722852785 -0.5842141 0.4192026 -0.6949555 131 131 131
0.0655626899930544 0.0507469998063035 -0.0164556235652507 0.9824069 -0.1225054 -0.1409579 19 19 19
0.0255564616801124 -0.0288611451075025 -0.0288766292069575 0.05933768 -0.2847874 -0.9567524 148 148 148
-0.0373881630755696 -0.0444574381433838 0.0484036613208837 0.03669096 -0.942792 0.3313563 62 62 62
0.0731746759462381 0.057822284710273 0.011759542297766 0.9638114 0.002504128 -0.2665733 59 59 59
-0.0582722814702593 0.0481465355468735 -0.00539087698865043 -0.8743365 0.3112282 0.3723878 113 113 113
0.00931515363731895 0.0770760772737107 0.00842582249237572 0.08998208 0.9847935 -0.14861 148 148 148
-0.0523427469474562 0.0682190026604519 -0.019444415041511 -0.4092066 0.8889743 -0.205608 103 103 103
-0.0402219329335614 0.065335650268352 0.00877862895271381 -0.7205821 0.6113041 0.3272134 50 50 50
0.0294938729890332 0.0500778064373246 -0.0460610151832545 -0.05472565 -0.02778645 -0.9981147 125 125 125
-0.0642515856697151 -0.0617316543292279 -0.0244898757756862 -0.9869202 -0.06768163 0.1463138 106 106 106
-0.00983533304567839 -0.0639104050580734 -0.028441749698571 -0.1052449 -0.1799964 -0.9780208 138 138 138
0.0243858347222467 -0.0697626796907904 -0.0218583052329862 0.1019108 -0.9872339 0.1224063 130 130 130
0.0439162711156909 0.0672882198089537 -0.0271938574929426 0.1913201 0.9759401 -0.1045825 89 89 89
0.0366556354757716 -0.0433148745823142 -0.0271692585711417 -0.02840215 0.1993207 -0.9795226 107 107 107
0.0311886400919931 0.0267585375769785 -0.0442806146958377 0.03141197 -0.1224129 -0.991982 140 140 140
0.0144774642833102 0.0407915696916303 -0.0438910175726316 -0.2171509 -0.09573036 -0.9714326 79 79 79
-0.0480934320187694 0.0343651663647129 0.0314741425632416 -0.9335647 0.357724 -0.02214577 115 115 115
0.0655601462349563 0.0393836623325206 -0.014601225796026 0.9735915 0.0568602 -0.2211029 14 14 14
0.0634799723254884 0.0487780694722133 -0.0220963172330673 0.987678 -0.1345377 -0.07994856 65 65 65
0.023806922273884 0.0635861491811611 -0.0437950670231144 -0.2712188 0.5792904 -0.7686761 146 146 146
-0.0686290287072985 -0.00990369606682107 0.000583238656194918 -0.926232 0.1426845 0.3489061 45 45 45
-0.0540564613745388 -0.0498907771964194 0.0370190355901807 -0.1464131 -0.934636 0.324066 111 111 111
-0.0649757005072846 -0.0152910393087986 0.0122330972566851 -0.9105245 0.2193487 0.350473 78 78 78
0.0731161893373863 0.00149612852446968 0.0107498889599482 0.9336232 0.05280939 -0.354343 71 71 71
0.0381031288046899 0.00654852444027609 -0.0432076434720881 0.2139289 0.1255224 -0.968751 107 107 107
-0.0535737470075815 -0.0502857307467532 0.0331985395301073 -0.07329363 -0.980096 0.1844989 118 118 118
-0.0236116139216633 0.0608080677011671 -0.0364710073313979 0.1004395 0.008427129 -0.9949075 100 100 100
-0.0713110903685902 0.00646245966694825 -0.0335433041287406 -0.9915169 0.1292195 -0.01401808 167 167 167
0.0644954412225697 0.0386046633446926 -0.0237206743803282 0.9959917 0.06066516 -0.06572867 20 20 20
0.0669612886856636 -0.0368641412460937 -0.0222843129244933 0.9568468 0.1509211 -0.2483284 47 47 47
-0.0328232576787641 0.0681675689849464 -0.0149712002875375 -0.1857759 0.9590442 -0.213826 55 55 55
-0.042490566624511 -0.0430177233328362 -0.0411087663253185 0.1740504 -0.05430676 -0.9832382 115 115 115
0.0732277135932461 0.042782913414785 0.0147492310510598 0.9766676 0.05735559 -0.2069556 27 27 27
-0.00914289281488144 -0.0515028379384053 -0.0320047598428966 0.08036222 -0.2425169 -0.966813 115 115 115
-0.0591323774247287 -0.0691081774568836 -0.0273048578006935 -0.4740238 -0.8803982 -0.0141562 98 98 98
-0.0593624411191435 -0.00744519949631006 0.0272158784740794 -0.9656393 0.1997859 0.1662118 37 37 37
0.0552540148061754 -0.0640686505905075 -0.0168129697196416 0.1862739 -0.9685892 0.164733 146 146 146
-0.0674494386261295 0.0159634609775243 -0.00741870121654348 -0.8808422 0.2480718 0.4032088 55 55 55
0.0148954734233296 -0.0305861804957945 -0.0300108373527947 0.1891608 -0.2887232 -0.9385399 166 166 166
0.064573328935785 0.0316006655568282 -0.0271897192925064 0.9696283 -0.02498835 -0.2433034 32 32 32
0.00518451441294686 0.0139378081189681 -0.0378371269270729 -0.4257054 -0.05659071 -0.9030905 120 120 120
-0.0642716599371063 0.0139320145894224 0.000367219828450671 -0.8758397 0.2528149 0.4110834 96 96 96
-0.0196257001847488 -0.0186598074979278 -0.0383679891346405 0.06291907 -0.200041 -0.9777652 85 85 85
-0.0712857057976104 0.0224992140032685 -0.0321185139862759 -0.9807242 0.1247361 -0.1504025 166 166 166
-0.0219857954822833 0.0736776743668677 0.00556167637236876 0.0891882 0.995961 -0.01034769 85 85 85
-0.067307762193605 0.0397048098414223 -0.0179635514916422 -0.8398564 0.1140323 0.5306956 115 115 115
-0.0483281834807398 0.0314816465486683 0.0259454394588988 -0.9456925 0.2929271 0.1409231 49 49 49
-0.0542770451080875 0.0115511599788152 -0.0421242374004854 0.06196645 0.05307439 -0.9966661 149 149 149
-0.000603461298338756 0.0774521503283607 0.0254468386219565 -0.06997494 0.995984 -0.05585076 50 50 50
0.0675687687964461 0.046110102653826 -0.0076723382167922 0.9313369 0.008992512 -0.3640476 51 51 51
-0.057218965555905 0.000305759246015835 0.0275008150165134 -0.9549624 0.2040872 0.2153956 71 71 71
0.0735054499462855 -0.0249074671245308 0.00857926849982443 0.9676895 -0.01922082 -0.2514111 47 47 47
-0.0156481155740344 -0.0631661924825786 0.00241222224098359 -0.009585517 -0.9295997 0.3684461 94 94 94
-0.0309942465163894 0.0746224046986677 0.0154702370608028 -0.6240447 0.7321705 -0.2729371 65 65 65
0.073191500066866 0.0606015301265697 0.0125173639095003 0.9663343 0.0422023 -0.2538049 72 72 72
0.0641938425893062 -0.0131873064474703 -0.0202938165945588 0.964753 0.1159676 -0.2362268 11 11 11
0.00823622984609849 0.0770231953028175 0.0161307397305642 0.2806507 0.9591815 -0.03472636 54 54 54
-0.0663604002814747 0.00844857891324269 0.000261785552258142 -0.8706507 0.2366177 0.4312533 46 46 46
-0.0552422912404748 -0.0547926497424469 -0.0407781954598486 0.09655837 -0.2365271 -0.9668151 184 184 184
0.0568811780718972 -0.055384347824581 -0.031254224521082 0.2436003 -0.03498964 -0.9692444 128 128 128
0.0275913848158658 0.0719881079235292 -0.00116460737500096 -0.01761531 0.9996358 -0.02044719 96 96 96
0.0718711192904226 -0.00433933237257356 0.00679283520726931 0.9398163 0.1319068 -0.315192 34 34 34
0.0182619243541419 -0.0038661160967326 -0.0382949071893547 -0.265481 -0.5938979 -0.7594768 145 145 145
-0.0714447138034967 -0.0153288270160863 -0.0313939059320865 -0.9829352 0.04699207 -0.1778484 132 132 132
-0.0265616244788815 0.0786890816918988 0.0184046523512534 -0.382516 0.8596907 -0.338546 111 111 111
-0.0358787892422821 0.0674925169569305 -0.0124117977139679 -0.1985904 0.9586505 -0.2038407 61 61 61
-0.0118757303369209 0.0743270554633497 0.00315265955276239 -0.1962127 0.9746512 -0.1074973 34 34 34
0.0687246553021834 0.0679204271706249 -0.00245715307768862 0.4954961 0.8215485 -0.2820315 72 72 72
-0.0555553697191646 0.0396910126953383 -0.0367188400696281 -0.1457923 0.2537189 -0.9562277 117 117 117
-0.0124716668383375 -0.0124921909033771 -0.0367060459747461 0.2408349 -0.1708358 -0.9554129 103 103 103
-0.035286605027597 -0.0517688981519882 -0.0363588150878896 0.3296579 -0.3299539 -0.8845655 128 128 128
0.00444149494744746 -0.0117887105705159 -0.0364835817739914 0.1871132 -0.217311 -0.9580003 104 104 104
0.0555236938074338 -0.0390237627983636 -0.0305203005501954 -0.2420843 -0.07327393 -0.9674844 132 132 132
-0.00549189646382338 -0.0597409139566354 0.0115958205429738 0.1322279 -0.8630942 0.487426 120 120 120
-0.0200690981585698 -0.0746384442094354 -0.0195916811237529 0.1704925 -0.9726082 0.1580051 215 215 215
0.0666886626613063 -0.0479590869868569 0.0240043137230091 0.05384719 -0.8990745 0.4344716 144 144 144
-0.0412853102955305 0.0524196121947538 -0.0366027606623712 -0.005590602 0.04591667 -0.9989296 65 65 65
0.000622992232804334 0.0769327313849553 0.0238983714582168 -0.04758802 0.9972107 -0.05749946 50 50 50
0.0359690140096588 -0.0606013606208533 0.00234240466236091 0.02725749 -0.971392 0.2359123 152 152 152
0.0648298004346399 0.0510360961202236 -0.0219632782650308 0.9802107 -0.1763796 -0.08987372 69 69 69
0.0323767943432424 0.0339975157386758 -0.0449519126984769 0.004021734 -0.1127943 -0.9936102 139 139 139
-0.0568112459746415 0.0359832727321852 0.00348777688050367 -0.8941981 0.1810573 0.409424 90 90 90
0.00733185307807015 -0.0374489144880166 -0.0300894198560434 0.2843429 -0.1211405 -0.9510384 117 117 117
-0.0453579171311161 -0.0504451250305322 0.0322074969769477 -0.102615 -0.9644936 0.2433562 141 141 141
0.0674758090423426 0.0385575297659568 -0.00689661892898102 0.9301668 -0.01531613 -0.3668177 47 47 47
0.0172855762960736 0.0666624669465523 -0.0323167787296398 -0.08477318 0.9585235 -0.2721142 120 120 120
-0.0672542597378045 0.0133313177629681 -0.00557616764491631 -0.8958904 0.212725 0.3900366 21 21 21
0.0707647445232659 -0.0508308599183092 0.011416401579018 0.2816907 -0.9197394 0.2733677 82 82 82
0.0721463208070108 0.0293645005031338 0.00621894563091846 0.9679287 0.02857059 -0.2495951 32 32 32
0.0347145797686036 -0.0158733480747724 -0.0336203740622933 -0.04979857 -0.384483 -0.9217879 123 123 123
0.033124204018298 -0.0463732130533949 -0.0278894161962723 -0.1627645 0.2053236 -0.9650647 115 115 115
-0.0509845958963917 -0.0581459404523239 -0.0399739748119236 0.0626723 -0.2880075 -0.9555752 185 185 185
0.0401995087640587 0.0730129511067339 0.0224596394829369 0.2711443 0.9595594 0.07567389 156 156 156
-0.00914491729841781 0.00245700187435416 -0.0360194278262977 -0.1838825 0.2986752 -0.9364723 218 218 218
-0.0471799467627186 0.0536376997181354 0.0113341620853849 -0.7962784 0.410468 0.4443611 66 66 66
-0.00852049993307984 -0.0420698865757168 -0.0328725321569653 0.1674642 -0.03300915 -0.9853254 135 135 135
-0.0439774757384804 -0.0564591383645183 -0.0386090432828721 0.3634647 -0.3144774 -0.8769249 105 105 105
0.0140242870401747 0.060279407491596 -0.040508947888706 -0.02310149 0.4757648 -0.8792691 243 243 243
0.0527974237439491 0.0654228280118889 -0.0380423335056406 0.05061409 0.8782933 -0.4754356 213 213 213
-0.0367603554105066 0.0665835653889182 -0.0193316363796727 -0.1115264 0.9854962 -0.1279028 28 28 28
-0.0716689039720902 0.0300413523295073 -0.0320110349447549 -0.9141529 0.09899522 -0.393096 65 65 65
0.0155814388246819 -0.012047731447858 -0.0341344718633362 0.1661928 -0.214036 -0.9625843 160 160 160
0.063408351337147 0.0264763326888824 -0.0280547649352043 0.9713598 -0.04528962 -0.2332572 14 14 14
-0.0697863744186921 -0.0374888320071438 -0.0250959781460308 -0.9775001 -0.1610492 -0.1362233 141 141 141
0.0535774028888629 -0.0550758590529055 -0.032021841485785 0.08397957 0.0360847 -0.9958139 141 141 141
0.0558162797831701 0.048324651262329 -0.0448841802967732 0.2107693 -0.05398034 -0.9760442 114 114 114
-0.0415871779272074 0.0519531854993069 0.0218946864777252 -0.875682 0.3875216 0.2881111 107 107 107
0.0591196018072044 0.0582526544690125 -0.0423998749418792 0.3082777 0.3563603 -0.8820273 210 210 210
0.0759893069917128 -0.0401987427288293 0.0132114574435583 0.9647027 0.05411844 -0.2577204 82 82 82
-0.0347710286271986 -0.0642754074380318 0.00326052995288661 0.0001542546 -0.8458736 0.5333834 185 185 185
-0.043381333756033 0.0504521953053314 0.0189822182114103 -0.7770217 0.4087228 0.4787306 88 88 88
0.0668327146712568 -0.0289644829244129 -0.0175194885661779 0.96112 0.1594793 -0.2254211 47 47 47
-0.0455315317990256 0.0341595894983229 -0.0365842651023121 0.1867789 0.1224265 -0.9747438 153 153 153
-0.0652475863197577 -0.017045869685147 -0.0416653866618048 -0.4035745 -0.1028724 -0.9091452 234 234 234
-0.0151202791918187 0.049327042493998 -0.035574142111595 -0.03550773 0.05256693 -0.997986 143 143 143
0.0725118325479848 -0.0125725139115984 0.0056323715026913 0.9492245 0.06528036 -0.3077519 68 68 68
-0.0617355748413447 0.0256870197743457 -0.00232148655127162 -0.8932318 0.2482886 0.3748196 100 100 100
-0.0470881152585823 0.0367108827958871 0.0288665336247117 -0.9219934 0.3871503 -0.006541713 33 33 33
-0.0256210617663318 -0.0614447747651561 0.00711158865717731 0.07256293 -0.9048535 0.4194936 95 95 95
-0.0725113974592888 0.0180931689900636 -0.0373494720370223 -0.9464426 0.2053099 -0.2491871 148 148 148
0.062716097574466 0.0433622069980995 -0.0304425523358287 0.9899133 0.01043077 -0.1412897 37 37 37
-0.0115114966645827 0.0781871806470151 0.0144572329186984 0.1147034 0.9269336 -0.3572635 82 82 82
0.0728566682097688 -0.0438524449256166 0.00298441159130214 0.9680359 0.03993483 -0.2476122 59 59 59
0.0528214520482553 -0.0658506921766091 -0.0309635202423024 0.2487945 -0.5738444 -0.7802588 185 185 185
0.0716861707176839 -0.00141327391118429 0.00713586939160266 0.9364951 0.0920882 -0.3383737 58 58 58
-0.0412777173187314 0.0514643619869226 0.0296564796355879 -0.9393495 0.3173176 -0.1301233 69 69 69
0.0742308074954658 0.0499303724874189 0.0226759197769481 0.9837462 -0.03304361 -0.1764979 127 127 127
-0.0679907951506584 0.0157374433710071 -0.0415649407140411 -0.3659983 0.2223485 -0.9036627 132 132 132
-0.0345718104839105 -0.0124181883725463 -0.0382505379083706 0.0211578 -0.08975387 -0.9957392 136 136 136
-0.0501492813089815 0.0699806124666109 -0.015633373336336 -0.2961092 0.9522047 -0.07500368 146 146 146
0.0723268621175548 -0.0436983000813209 -0.00151982411645729 0.97179 0.05205272 -0.2300319 33 33 33
-0.0230640439225093 0.0390285046191723 -0.0359174723866334 -0.003688126 0.02801727 -0.9996006 116 116 116
-0.069152509229655 -0.0453472162534778 -0.0178433055348733 -0.9663569 -0.1932725 -0.1697056 171 171 171
-0.0694324731548987 -0.0318143274984897 0.00461345832593862 -0.9070801 0.05931611 0.416758 64 64 64
-0.00664382667210221 0.0159299240398245 -0.0346233650702825 -0.1881832 0.02825021 -0.9817275 76 76 76
-0.0305315846898719 0.00836435781521061 -0.0376832739875224 0.168182 0.05801019 -0.9840476 185 185 185
0.0306981087875898 -0.0578513313089259 0.0102951989560445 0.0315698 -0.8788126 0.4761216 76 76 76
-0.0615066395783986 0.0449901980849499 -0.0110327485467283 -0.8751367 0.2636583 0.4057341 108 108 108
-0.0355173462907938 0.0386061553752948 -0.0353700642017001 0.01582769 -0.09435173 -0.9954131 112 112 112
0.00433209226739585 0.0585422848757942 -0.0405869812639357 -0.347289 0.4046679 -0.8459517 141 141 141
-0.0439197186280003 -0.0418544317104206 -0.0413601106296801 0.1391219 0.01293611 -0.9901907 52 52 52
-0.0638315849306297 -0.0301624488167296 0.0238072949917649 -0.9707126 0.1304437 0.201746 86 86 86
0.0582186523246943 0.0699749822713267 0.0169911295836476 0.1713936 0.9840541 -0.04755687 53 53 53
0.0387812040893259 -0.0464219638881731 -0.0290339137582267 -0.1186413 0.3009776 -0.9462224 77 77 77
0.0448742361200243 0.0671956421501914 -0.0254463530736326 0.2145973 0.9682391 -0.128301 82 82 82
-0.0291239923181986 -0.0602359581686456 -0.0314404289801944 0.2233746 -0.3238162 -0.9193731 84 84 84
-0.0306917378792542 0.0772873950125936 0.0215368411904615 -0.6261376 0.7626473 -0.1622371 121 121 121
0.0163030038449302 0.0377573684230761 -0.0441006565235145 -0.1945204 -0.1161109 -0.9740021 102 102 102
0.0435737298221792 -0.0458774508636357 0.0304903538294704 -0.002062436 -0.950865 0.309599 109 109 109
0.0655033622461747 -0.056998702807636 -0.0279245981625992 0.6907058 -0.2640613 -0.6731992 115 115 115
0.0624514272240602 0.0311774581855506 -0.0337934921475174 0.9687271 -0.07183808 -0.2375018 48 48 48
-0.0635512639249124 -0.0244086117503366 0.0190494888110118 -0.9591745 0.09664676 0.265789 104 104 104
-0.0239909894981987 -0.0548663811103864 0.0240459460806414 0.03353338 -0.8649092 0.5008069 165 165 165
-0.0411645453972879 -0.0366754766050159 -0.041082768899078 0.073045 0.06819949 -0.9949941 117 117 117
-0.0647915483098055 0.019177447982432 -0.00393757616005952 -0.8528662 0.3154657 0.4160537 79 79 79
-0.0609128326021655 0.00143084367337232 0.0135713377913015 -0.9053134 0.2008274 0.3742671 36 36 36
0.0495580080008351 0.00679955409092114 -0.0430705699193824 -0.001595968 -0.04940639 -0.9987775 201 201 201
-0.0304243776166308 -0.0461035547673967 -0.03759972448788 0.2624178 -0.2825757 -0.9226527 201 201 201
-0.0252001903764491 0.0642720378347599 -0.0366319598994873 -0.09750611 0.4065154 -0.908426 106 106 106
-0.0715157407241834 0.00925817252993877 -0.0266604100129612 -0.9928296 0.11931 -0.007379106 169 169 169
0.0597799091007507 0.0673639589510457 -0.0232197625096217 0.190432 0.9690763 -0.1569293 105 105 105
0.070308765881615 0.0466661321171915 0.00013241597441771 0.9828435 -0.02707944 -0.1824426 47 47 47
-0.0671822839409852 -0.0408388357922826 -0.0359642107925034 -0.9775628 -0.179653 -0.1099801 43 43 43
-0.0595223370402994 -0.0152181927873043 -0.0426666168829557 -0.06558483 -0.02341218 -0.9975723 192 192 192
-0.0578373067955955 -0.00660148935997684 0.0336040546802467 -0.9794309 0.1901857 0.06741297 83 83 83
-0.0309718702142377 -0.062037990266729 0.00690400014537157 0.04484797 -0.8762367 0.4797894 82 82 82
0.0609172968007398 0.00242909602820851 -0.0339850555181232 0.9769444 -0.1354779 -0.1650008 67 67 67
-0.0645535378699237 0.0420051572996274 -0.0322023793653755 -0.4178745 0.3395212 -0.842678 140 140 140
0.0521650326362297 -0.0628706352597022 -0.0102711561606821 0.1303276 -0.9520699 0.2767265 121 121 121
-0.0671463077554265 0.0054649428312068 -0.0427109259448919 -0.1141392 0.03235715 -0.9929377 155 155 155
-0.0695775000937546 0.0353860461229882 -0.0227477393076174 -0.9260714 0.01792983 0.3769222 110 110 110
0.068748551144131 0.0697985070654161 0.0238601065001244 0.2064851 0.9774981 -0.04314394 113 113 113
-0.0278750733707615 0.0732891561096007 0.00309446728162394 -0.07509001 0.9900686 -0.1188519 50 50 50
0.00261439820901606 0.0407020531310567 -0.0405181169067116 -0.3256724 -0.0570168 -0.9437619 106 106 106
0.0465166452514992 -0.0125123575362414 -0.0375081116972135 -0.05027794 -0.6502493 -0.7580554 198 198 198
0.0716371665910001 0.0579228433989094 0.007926973743693 0.9573368 -0.01961691 -0.2883079 79 79 79
0.0653331291691731 0.0551653884635934 -0.0206249111327459 0.9800659 -0.1217287 -0.1570128 64 64 64
