ply
format ascii 1.0
comment File exported by Rhinoceros Version 7.0
element vertex 469
property float x
property float y
property float z
property float nx
property float ny
property float nz
property uchar red
property uchar green
property uchar blue
end_header
-0.041391047205617 0.0219827576262652 0.00877507472963382 -0.6955386 0.6135404 0.3738908 92 92 92
-0.042898481943184 0.0206555900981344 0.00726680534453736 -0.7474261 0.5812369 0.3217419 71 71 71
-0.0394156070484851 0.0203600950406495 0.0183567186613308 -0.6692278 0.6812339 0.2967398 24 24 24
-0.0401770858932976 0.0196943055367784 0.0166833217262585 -0.6970232 0.6793525 0.2294319 33 33 33
-0.0426839212136481 0.0172705820044623 0.0151869964485187 -0.7113846 0.6659577 0.2245711 81 81 81
-0.0441270607611866 0.015270492079059 0.0175401067312332 -0.7690988 0.5568221 0.3137453 26 26 26
-0.0422558658696678 0.0155681231665834 0.0209880415756764 -0.7161303 0.5822771 0.3848518 19 19 19
-0.0450274031427477 0.0146104980273858 0.0171620325367964 -0.8141842 0.4995625 0.2958737 55 55 55
-0.0438768265263767 0.014512623264296 0.0195910555773515 -0.782248 0.5150426 0.3504558 23 23 23
-0.0416165860561106 0.0132270070076208 0.0241306234079982 -0.7181562 0.562884 0.4091617 12 12 12
-0.0438544748166085 0.0167538069609743 0.0150473182675062 -0.7238793 0.6482191 0.236243 71 71 71
-0.0449087000772626 0.0153670001723392 0.0150590907420083 -0.7882168 0.5578116 0.2599241 120 120 120
-0.0462255791910013 0.015449310475919 0.010274821581368 -0.7723275 0.5963631 0.218772 131 131 131
-0.0466411464220582 0.0146928597583778 0.0110201121827898 -0.8048289 0.5275679 0.2718871 126 126 126
-0.0469559929906191 0.013533536065228 0.0128461111421733 -0.8254567 0.5024886 0.2571504 126 126 126
-0.0472205607481656 0.00898638773123395 0.0183703009520709 -0.8249434 0.5300933 0.1961365 65 65 65
-0.0467565490416858 0.0129005335774808 0.0146592141481185 -0.8401133 0.4622141 0.2838447 88 88 88
-0.046862969839278 0.0106890729457076 0.0167152540000029 -0.8548987 0.4411416 0.2730243 62 62 62
-0.043758059768036 0.0115399172766741 0.0243065652461613 -0.7320472 0.5565632 0.3928668 25 25 25
-0.0449544531678511 0.00913715049430586 0.0263388561596866 -0.7350654 0.5781867 0.354089 22 22 22
-0.0451271115190288 0.00785624999145051 0.0264355926082439 -0.7394001 0.583537 0.3358154 17 17 17
-0.0472656860381119 0.00727078008552628 0.023063750334091 -0.7630752 0.5891184 0.2658114 16 16 16
-0.0489465125678422 0.00385434129477336 0.0278524001742644 -0.7779115 0.4789036 0.4068231 6 6 6
-0.0486407597875268 0.00294519765735202 0.0268182555624605 -0.7779115 0.4789036 0.4068231 16 16 16
-0.049401825931074 0.00584098672992006 0.0215826145649865 -0.7848221 0.5726108 0.2370047 61 61 61
-0.0482644134212371 0.00738610413115603 0.0182760989473464 -0.7873939 0.590927 0.1755452 62 62 62
-0.0483857505998611 0.00795766563150591 0.017066156208531 -0.8079699 0.5652512 0.1663604 72 72 72
-0.0484580836144858 0.00755117407451666 0.0169390701392698 -0.8079699 0.5652512 0.1663604 80 80 80
-0.0504915171342565 0.00513296297054211 0.0208763589988459 -0.7964773 0.5646334 0.2163632 73 73 73
-0.0494658478213856 0.00354326293783758 0.0232889943174755 -0.8020561 0.496155 0.3324698 39 39 39
-0.0496630543586576 0.00148824632728917 0.0271597968950874 -0.8064049 0.4272709 0.4088406 27 27 27
-0.0507770796269582 0.000887941064801945 0.0258581983789235 -0.8013394 0.444508 0.4003346 30 30 30
-0.0513318394859339 0.00252297588453998 0.0204506349989989 -0.8124077 0.5330097 0.2364197 74 74 74
-0.0519642991453722 -0.00124676068847696 0.0246007329564606 -0.8210478 0.4299351 0.3755479 55 55 55
-0.0527078061924158 -0.00247329484376024 0.0262443274653421 -0.8024931 0.4199246 0.4238729 44 44 44
-0.0530771243900567 -0.0061681819213093 0.0274513906157908 -0.7932164 0.3963915 0.462257 48 48 48
-0.0511496767937466 -0.00400284235887605 0.028815901760154 -0.784847 0.3964328 0.4762942 28 28 28
-0.0513244135267189 -0.00500780293519476 0.0290248666545016 -0.7884985 0.3901958 0.4754129 18 18 18
-0.0510719732905976 -0.00746439008791833 0.0312089382295201 -0.7881373 0.3744749 0.4884754 31 31 31
-0.0541869707825715 -0.00930903659503701 0.0284900550710204 -0.8133573 0.3610632 0.4561615 43 43 43
0.0078059355304696 -0.0350338065359439 0.0289749359668467 0.01621845 -0.6755343 0.7371502 12 12 12
0.000441091326347842 -0.0368602152431552 0.0287135156863579 0.09980137 -0.6812474 0.7252184 11 11 11
0.00402102135857152 -0.0371599217546104 0.028500903193502 0.08198538 -0.6820121 0.7267309 15 15 15
0.000288026015864862 -0.0410417405207633 0.0271031079846355 0.07761529 -0.7504147 0.6563944 16 16 16
0.0320757135433928 -0.0380988081198261 0.0248555285756088 0.04498043 -0.7430966 0.6676707 30 30 30
0.0316304526066954 -0.0420515463471205 0.0245901793435864 0.05156357 -0.7351108 0.6759832 35 35 35
0.0244407852872334 -0.0415080142379944 0.0239905780351643 0.07812176 -0.707314 0.7025695 36 36 36
0.030005583065415 -0.0426298823242657 0.0226508380451884 0.09032491 -0.8085744 0.5814198 42 42 42
0.0280809785506511 -0.0433306448228026 0.02258252472229 0.08646527 -0.7628862 0.640725 21 21 21
0.0278710188541134 -0.0444062551289133 0.0207651417906485 0.0686685 -0.8192555 0.5693023 43 43 43
0.0114519779517458 -0.0374390820091692 0.0287720289567552 -0.06286791 -0.7644584 0.6416003 15 15 15
0.0127766535556548 -0.0403426855305642 0.027044788353675 -0.1084763 -0.7870318 0.6073005 4 4 4
0.0191251933529502 -0.0449617274390395 0.0231506336801152 0.01348635 -0.8637895 0.5036724 31 31 31
-0.0449628012944271 0.0563245025113062 -0.0177610136978553 -0.2152936 0.08740062 -0.9726304 83 83 83
-0.046948235122113 0.0564345516256022 -0.0173101505167448 -0.3577938 0.1274743 -0.9250588 70 70 70
-0.0426784023099964 0.0557680622114687 -0.018097090458376 -0.1600892 0.0685052 -0.9847226 100 100 100
-0.0437365727975962 0.0537724097182399 -0.0182660665479138 -0.1619538 0.07722521 -0.9837719 59 59 59
-0.0483057139121114 0.0542742875263651 -0.0171845520577833 -0.4087647 0.1110211 -0.9058619 81 81 81
0.0707264984474647 0.0105263121176919 0.00622969264157189 0.5297152 0.7928102 -0.3014196 103 103 103
-0.0518193664960521 0.0546520123410059 -0.0147743560332633 -0.5906618 0.2196309 -0.776454 41 41 41
-0.0498162672996769 0.0522913775721436 -0.0159768933704635 -0.4623273 0.09289872 -0.8818295 61 61 61
-0.0529211201058328 0.0527302336134208 -0.0144103368150052 -0.5704561 0.2388514 -0.7858306 59 59 59
-0.048068122985634 0.0549070603558617 -0.0170321785892617 -0.392506 0.1205013 -0.9118215 92 92 92
-0.0468029678388547 0.0527366615529796 -0.0175771296866175 -0.3308537 0.06708583 -0.9412945 52 52 52
-0.0431057904298092 0.0508588472338596 -0.0185442393552934 -0.1947369 0.06132622 -0.9789365 82 82 82
-0.0442144854319548 0.0492704269185371 -0.0184404503240771 -0.2280613 0.02684157 -0.9732767 88 88 88
-0.0480614330588715 0.0495783917509702 -0.0172586888576977 -0.3402863 0.02614729 -0.9399583 79 79 79
-0.0496191601176651 0.0482037996548643 -0.0164012028207509 -0.3511683 0.02706362 -0.9359211 98 98 98
-0.0451215114124771 0.0480075825111372 -0.0180919663612175 -0.2528375 -0.01150342 -0.9674404 65 65 65
-0.0401124049282104 0.0555327053691783 -0.0186000415258695 -0.1680437 0.05468606 -0.9842615 130 130 130
-0.0393769609539172 0.0539576598696041 -0.0185983634396929 -0.194675 0.1105286 -0.9746205 86 86 86
-0.0406413122333789 0.0526090809166027 -0.0185362603281557 -0.1838663 0.09710352 -0.9781432 85 85 85
-0.0360101312855338 0.0516383499779514 -0.0200841493362749 -0.2189303 0.1246265 -0.9677488 77 77 77
-0.0391738607819329 0.0508591411211472 -0.0191934975370659 -0.2418265 0.1033514 -0.9647997 77 77 77
-0.0333698037367296 0.0523881454403701 -0.0204121922442179 -0.1757285 0.08297298 -0.9809358 67 67 67
-0.0299224954604217 0.050282408175927 -0.0210526914242496 -0.08558369 -0.007163413 -0.9963052 70 70 70
-0.0365261382395771 0.0465493327140807 -0.0203875262765042 -0.2151989 0.0569607 -0.9749076 81 81 81
-0.0418924758258015 0.0498115809444113 -0.0187120640567847 -0.2164862 0.065967 -0.9740545 93 93 93
-0.0396094272177575 0.048869283197071 -0.0190111472192202 -0.2480729 0.07481886 -0.9658478 80 80 80
-0.0405517017724419 0.0471041960817056 -0.0191014041151155 -0.2744126 0.06080662 -0.9596876 75 75 75
-0.0391921967363118 0.0464033697537978 -0.0195911303776677 -0.2717668 0.0567913 -0.960686 105 105 105
-0.0402606550398572 0.0442497889813123 -0.0195693062415025 -0.2674822 0.02209121 -0.9633095 118 118 118
-0.0466248756594184 0.0456877866385215 -0.0176401034879229 -0.2945581 -0.04935862 -0.954358 70 70 70
-0.042176790946338 0.046345581405139 -0.0183622020581286 -0.2873347 0.01298636 -0.9577422 86 86 86
-0.0350811582029621 0.0454880886301579 -0.020383755972256 -0.148044 0.01163845 -0.9889123 72 72 72
-0.0330618693048793 0.0446328106845557 -0.0207439607238797 -0.09149452 -0.01972437 -0.9956102 65 65 65
-0.0431139471313635 0.04354653050583 -0.0185971062435883 -0.354868 -0.035572 -0.9342394 89 89 89
-0.0386187205465823 0.0434762809334863 -0.0201290648199112 -0.2509725 0.01068721 -0.9679352 100 100 100
-0.0364695527352565 0.0424883641390905 -0.0203039619208303 -0.1509563 -0.06557539 -0.9863631 76 76 76
-0.0339331484933488 0.0428990961095042 -0.0206997459584503 -0.09839918 -0.05138921 -0.9938193 69 69 69
-0.0399237520476858 0.0417506831087064 -0.0197769585476131 -0.3019746 -0.07220126 -0.9505779 138 138 138
-0.0357108096750168 0.0410470664803457 -0.0204690451546564 -0.1379179 -0.08605105 -0.9866984 88 88 88
-0.0577274357769723 0.0521937273971518 -0.0108613783043827 -0.6520241 0.3733267 -0.659918 91 91 91
-0.0566391871332705 0.0516259248934596 -0.0120794409820476 -0.5578089 0.3375406 -0.7582319 80 80 80
-0.053976527080081 0.0535801606421897 -0.012999082426101 -0.610074 0.2999445 -0.7333778 49 49 49
-0.0556017149694905 0.0528509073303394 -0.0117024817958881 -0.6022351 0.3395974 -0.7224864 74 74 74
-0.0547335269352518 0.0518818265661611 -0.0133277247685604 -0.5507495 0.2786176 -0.7867955 45 45 45
-0.0551576108694285 0.0504688717286876 -0.0129631979697943 -0.5184046 0.2929912 -0.8033759 52 52 52
-0.0514385224475148 0.048798485626268 -0.0157768563782681 -0.4101842 0.100892 -0.9064049 108 108 108
-0.053900292978619 0.0484241646585279 -0.0148251672472241 -0.4584971 0.1728355 -0.8717272 101 101 101
-0.0520497876389268 0.0475015012141673 -0.015766980503487 -0.4066007 0.05605809 -0.9118845 98 98 98
-0.0533861983732744 0.0478317193417106 -0.0152838349296226 -0.4137898 0.0840065 -0.9064882 82 82 82
-0.0507975368008512 0.0467543120237379 -0.0160675451238464 -0.3513039 -0.002450923 -0.9362583 100 100 100
-0.0588213959424203 0.0478389292735557 -0.0119129290039468 -0.7001097 0.1394984 -0.7002761 78 78 78
-0.0586908995200777 0.0475435640888271 -0.0124928967768875 -0.6872867 0.1176538 -0.7167946 67 67 67
-0.0601506678764726 0.0439335231157603 -0.00975767878439296 -0.9555398 -0.1111839 -0.2730966 94 94 94
-0.0542812647228618 0.0466660131750432 -0.0150263154442713 -0.4228251 0.08896977 -0.9018333 113 113 113
-0.0528211641285163 0.0457065033437094 -0.015527069352636 -0.3878353 -0.02490825 -0.9213921 100 100 100
-0.0554382397394926 0.0463383833415894 -0.0144344269207732 -0.4819075 0.0759477 -0.8729244 123 123 123
-0.0471309026671565 0.0440570812211722 -0.0171172261382229 -0.2937739 -0.1342054 -0.9464068 50 50 50
-0.0488876799371186 0.0440079311276311 -0.0172548376789664 -0.3285103 -0.1474412 -0.9329212 91 91 91
-0.0511891284504192 0.0445392464602929 -0.0159151383900943 -0.3614785 -0.1175875 -0.9249359 88 88 88
-0.0536502960052399 0.0435684198121942 -0.0149781181071568 -0.3750508 -0.1442088 -0.9157187 61 61 61
-0.0515050226911667 0.0426535755583348 -0.0151484867737342 -0.3370461 -0.2038461 -0.9191554 73 73 73
-0.0488642003943706 0.0426284341621403 -0.01650040768205 -0.3300268 -0.2421795 -0.9123768 49 49 49
-0.0556644273032829 0.0445423897470696 -0.0139658779209247 -0.4856608 -0.07093035 -0.8712649 104 104 104
-0.0562191212449242 0.0425943488315723 -0.0139796726871085 -0.527927 -0.1944905 -0.8267204 122 122 122
-0.0514931537434417 0.0398435285364092 -0.0146097146925104 -0.3021351 -0.3330126 -0.893206 117 117 117
-0.0529274699381067 0.0398213364201385 -0.0138605437090295 -0.3584807 -0.3301866 -0.8731943 133 133 133
-0.0649415616969305 -0.0159653991049054 -0.0212215568798152 -0.2413973 -0.06715237 -0.9681001 124 124 124
-0.0524973775727784 0.0389547403283821 -0.0140046081206698 -0.349144 -0.3414669 -0.872639 133 133 133
-0.0456331062543447 0.0429981218632438 -0.0175937071200548 -0.2967319 -0.1819508 -0.9374669 63 63 63
-0.0421950719360117 0.0412879943765418 -0.0186923422241839 -0.3907562 -0.1701944 -0.9046233 78 78 78
-0.0472064950362312 0.041353567850045 -0.0169046131972133 -0.3380704 -0.260729 -0.9042836 97 97 97
-0.0468120214121898 0.0394451529267661 -0.0162030176490827 -0.3638334 -0.3336774 -0.8696463 90 90 90
-0.0448442623441394 0.0407145145104963 -0.0174702737031082 -0.3819897 -0.2670227 -0.8847501 62 62 62
-0.0453025165573228 0.0398790084451244 -0.016686546380346 -0.3812468 -0.3034668 -0.8732461 117 117 117
-0.039809725289624 0.0404493676651969 -0.0199742538438572 -0.2983513 -0.1787318 -0.9375721 126 126 126
0.0249111352772025 -0.00607339285686637 -0.0225414101615992 0.0931379 -0.01358746 -0.9955605 83 83 83
-0.039698568130687 0.0371456588799173 -0.0183963977941463 -0.3932997 -0.2510943 -0.8844586 75 75 75
-0.0424588488549229 0.0389928509458628 -0.0184251303211258 -0.4225605 -0.2605198 -0.8680853 48 48 48
-0.0417494839697302 0.0380456743791548 -0.0180815745809402 -0.4278388 -0.2593438 -0.8658491 55 55 55
-0.0427392875947978 0.0366923071623839 -0.0166575145567402 -0.4647928 -0.3096235 -0.8295186 96 96 96
-0.038077871962696 0.0362459141365088 -0.0191298355588879 -0.3149067 -0.1571701 -0.9360189 74 74 74
-0.0413519189277973 0.0361230368323382 -0.0173423770339764 -0.4554461 -0.248261 -0.8549476 105 105 105
-0.0395332216210271 0.0338082672117255 -0.0180412012071733 -0.4432816 -0.1417833 -0.8850982 102 102 102
-0.0491774636756144 0.0391260476430564 -0.0149032802015744 -0.3104734 -0.3368506 -0.8888971 102 102 102
-0.0504310359981771 0.0384772403889022 -0.0141493250065096 -0.2998133 -0.3404801 -0.8911707 105 105 105
-0.0478747260805542 0.0373942392223277 -0.0150770519979035 -0.3236582 -0.3652762 -0.8728222 90 90 90
-0.0493752787038959 0.0349057932799497 -0.0132517414086532 -0.3253744 -0.3996069 -0.8569981 114 114 114
-0.0499168251285143 0.0350110422383678 -0.0138109348197404 -0.3296385 -0.4181145 -0.8464742 123 123 123
-0.046066922070562 0.0331452822485296 -0.0138473888051197 -0.4406567 -0.3514243 -0.8260282 147 147 147
-0.0427299660951656 0.0348188856669669 -0.0160578137006502 -0.5282054 -0.2495001 -0.8116334 112 112 112
-0.0431618507328814 0.0351234159314577 -0.0166705704538728 -0.513746 -0.2813311 -0.8105047 107 107 107
-0.0421289254969873 0.0339572369019912 -0.0161117241089223 -0.5380809 -0.2139084 -0.8152988 83 83 83
-0.0421564444685022 0.0332324316340473 -0.0161130591650518 -0.5387847 -0.2103199 -0.8157675 111 111 111
0.0356395025774693 -0.0581201697035831 -0.00831932662544635 0.1928215 -0.95792 0.2126246 76 76 76
-0.0589486430624727 0.043125164178957 -0.00824598835107973 -0.9816603 -0.1899871 -0.01574554 60 60 60
-0.0562561017012018 0.0377435720063446 -0.00811655163919359 -0.8529131 -0.5189704 0.05664741 63 63 63
-0.0548952711410161 0.0364833169849208 -0.00703671889749038 -0.7987148 -0.5392565 0.2669402 73 73 73
-0.0577002163285975 0.0400255743729898 -0.0114255708206133 -0.6905379 -0.4267212 -0.584009 109 109 109
-0.0558509702978256 0.0370290335110013 -0.00988256093774556 -0.7048691 -0.5201455 -0.4822947 58 58 58
-0.055589005581517 0.0357721490451377 -0.00742751740186001 -0.828972 -0.5371989 0.1556363 64 64 64
-0.0549628877786815 0.0341133614913804 -0.00990198641204412 -0.6651651 -0.544799 -0.5106362 100 100 100
-0.0550915148166842 0.0366315548602607 -0.01247461198376 -0.5525525 -0.5414669 -0.6336398 162 162 162
-0.0548344705915647 0.0348514896687018 -0.0112620593198131 -0.5786245 -0.5473714 -0.6046305 152 152 152
-0.0492672582455291 0.033443762699356 -0.00359830812669751 -0.5899997 -0.4941405 0.6385339 63 63 63
-0.0475739595375135 0.0334477711746781 -0.00197514254343714 -0.6006544 -0.3526176 0.717548 26 26 26
-0.0481409833107955 0.0307446213693234 -0.00454016960267159 -0.77708 -0.4247835 0.4644413 37 37 37
-0.0433761553006006 0.0253134187516735 -0.00171748260390306 -0.845179 0.2024736 0.4946484 19 19 19
-0.044477148277058 0.0245878482208866 -0.00351050926454102 -0.9047659 0.2054374 0.3730873 16 16 16
-0.0511241948245569 0.0318295328541252 -0.0098091712892622 -0.552559 -0.6787252 -0.4837464 143 143 143
-0.0518949856755269 0.0319738015957836 -0.0083675455891378 -0.6928739 -0.7194892 -0.04755179 95 95 95
-0.044316807663246 0.0292044556397131 -0.0128807013399446 -0.6178687 -0.2610862 -0.7416685 148 148 148
-0.0439768608735002 0.0279377014342821 -0.0125078701059628 -0.6293309 -0.2493605 -0.7360448 123 123 123
-0.0433952356555897 0.0285719298099785 -0.0134520475557064 -0.6164716 -0.2503508 -0.7465168 152 152 152
-0.0472777342048351 0.030383845326966 -0.0113410652429368 -0.5836796 -0.4221967 -0.6935907 133 133 133
-0.0462652095479282 0.0285529221206799 -0.011480597948359 -0.6638134 -0.3144499 -0.6785817 128 128 128
-0.0505771374518671 0.0306597816271854 -0.00753355347238718 -0.732124 -0.6811591 -0.004092513 74 74 74
-0.0495030641943319 0.0284275636443505 -0.00666668077948609 -0.7843889 -0.6060017 0.1322724 47 47 47
-0.0478539050516975 0.0269875330896316 -0.00648475348068225 -0.8737323 -0.4859936 0.02004994 77 77 77
-0.0465882576828577 0.0243705605898397 -0.00932483066660919 -0.8536209 -0.1649505 -0.4940877 149 149 149
-0.0446945520248541 0.0237820447517301 -0.0116070615881418 -0.7408578 -0.02960416 -0.6710091 115 115 115
-0.0456944089971891 0.0214369328912918 -0.0111530847813583 -0.7791276 0.0901145 -0.6203544 105 105 105
-0.0464598216956462 0.0202034042286061 -0.010563904758453 -0.7356004 0.1571534 -0.6589347 93 93 93
-0.0472265928681947 0.017604422411104 -0.00103339898068602 -0.8446699 0.4806028 0.2356984 50 50 50
-0.0491870379181297 0.0142973691358406 -0.000759096973569934 -0.7983523 0.5654376 0.2071569 67 67 67
-0.0507436129363509 0.0126272186361924 -0.0015804235441588 -0.8059958 0.5137661 0.2939644 74 74 74
-0.0515507692864897 0.0111226521220489 -6.53633120955288E-05 -0.8190632 0.5228691 0.2361002 65 65 65
-0.0507783343354227 0.0137665329119878 -0.00944820478175393 -0.6224509 0.6009091 -0.501461 138 138 138
-0.0517914484390086 0.0127697414347807 -0.00338502542171218 -0.7813982 0.6032557 0.1596852 79 79 79
-0.0526067710600608 0.0112395413178064 -0.00457212700267387 -0.806867 0.5761905 0.1302698 84 84 84
-0.052234499530874 0.0127193766655449 -0.0103820613106991 -0.532216 0.6827549 -0.5005916 136 136 136
-0.0531095933924666 0.0107375332948545 -0.0109572639968706 -0.4774953 0.6537236 -0.5870636 151 151 151
-0.054933482217368 0.00931289555840986 -0.00722109565440757 -0.8177646 0.5755214 -0.006006142 91 91 91
-0.0521382488427773 0.0103807599130901 -0.0116779905422818 -0.2445388 0.6398677 -0.7285397 135 135 135
-0.0528425817600158 0.00836131589312417 -0.0131817540518687 0.01783394 0.5987649 -0.8007263 95 95 95
-0.0524885709448023 0.00936034460158575 -0.000735413095898224 -0.8302193 0.4973415 0.2517685 79 79 79
-0.0536504431520646 0.00689319075070793 0.00108545190903073 -0.8065758 0.5487244 0.2198566 64 64 64
-0.0551421417805447 0.00545302420097316 -0.00205566458344922 -0.7878804 0.5662428 0.2421024 58 58 58
-0.0574667733755776 0.00167134064136043 0.000580175086728779 -0.8007674 0.5632467 0.2037762 75 75 75
-0.0550668704216323 0.0078538773702086 -0.00520361560532115 -0.8223457 0.5358886 0.1912351 51 51 51
-0.0558741994256182 0.00726887655637376 -0.00759524129809933 -0.8110574 0.5832693 0.04452942 56 56 56
-0.0554067983294272 0.0053139678840648 -0.00355613251528311 -0.804538 0.5365042 0.254719 28 28 28
-0.056115153803078 0.00439260120898721 -0.00404471602854109 -0.7909861 0.5554854 0.2564701 56 56 56
-0.057339826750445 0.00671786225274662 -0.00991579293320735 -0.80315 0.591645 -0.07004471 61 61 61
-0.0569123893483333 0.00382799017024582 -0.00275811082881885 -0.7907938 0.5637744 0.2383349 58 58 58
-0.059398407010639 0.000695716711822447 -0.00296500106627409 -0.7899214 0.5651869 0.2378821 84 84 84
-0.057850327722338 0.00109561034237493 -0.000561810091695009 -0.797416 0.5636526 0.2154611 98 98 98
-0.0590715806198966 0.000685573776932014 -0.00144431631640632 -0.7925513 0.5647461 0.2300529 78 78 78
-0.0585539393719858 0.00244958373397863 -0.00525113877667563 -0.795823 0.5584749 0.2340331 51 51 51
-0.0569927867507692 0.000745078150221845 0.00512017171093046 -0.8485528 0.4961191 0.1839132 103 103 103
-0.0590489477659817 -0.00217709560802049 0.00143238160602363 -0.8608972 0.4399679 0.2555079 35 35 35
-0.0615383178038081 -0.00309372318301637 -0.00221338211781488 -0.8595518 0.4189352 0.292684 43 43 43
-0.0608737638710505 -0.00568109092729041 0.00544248971138836 -0.8828503 0.4065777 0.2350952 64 64 64
-0.0548755319544594 0.00767416860222059 -0.0138100766493142 -0.1358443 0.6950887 -0.705973 44 44 44
-0.0573784031132335 0.00704925863804928 -0.0153572737393423 -0.05934343 0.5566974 -0.828593 116 116 116
-0.0559706821559645 0.00557403062588713 -0.0163048969686127 0.07861562 0.3945647 -0.915499 55 55 55
-0.0570723356490215 0.00473758853698403 -0.0168941659698192 0.05641879 0.3525621 -0.9340861 90 90 90
-0.0587330541232698 0.0036122388534976 -0.0167101078787594 0.05339164 0.3993525 -0.9152414 85 85 85
-0.0575680655172954 0.00272371681365335 -0.0171583832461004 0.05757233 0.3771354 -0.924367 71 71 71
-0.0590056585410603 0.00239366124086415 -0.00759190123168865 -0.8051718 0.5477502 0.227306 30 30 30
-0.0608791086139479 -0.000186856784415435 -0.00617959358155243 -0.8241525 0.5219032 0.2199768 73 73 73
-0.0612341146179325 -0.00176734791601785 -0.004752852108762 -0.84969 0.4639178 0.2506136 45 45 45
-0.0624198056594421 -0.00152868128344608 -0.00870192409309725 -0.8582968 0.4588847 0.2296767 46 46 46
-0.0623023931465941 -0.00209135514434466 -0.00872382943993846 -0.8582968 0.4588847 0.2296767 43 43 43
-0.0604583521387699 0.00277456454371627 -0.0156405182754606 -0.291589 0.606146 -0.739975 97 97 97
-0.0615737819433128 0.00119901814321866 -0.017926377146289 -0.09779006 0.4401694 -0.8925738 87 87 87
-0.0595779664210673 0.000487585635864374 -0.0179368071274563 0.02825788 0.4202638 -0.9069619 90 90 90
-0.060352972493171 -0.000879768294734129 -0.0190659972177908 0.06575384 0.4248937 -0.902852 106 106 106
-0.0642690790115166 -0.00336157359842226 -0.0118373822398729 -0.8834162 0.4369218 0.1693375 41 41 41
-0.0654715800608866 -0.00502862891368294 -0.0132241028560486 -0.8927469 0.4432775 0.08067186 71 71 71
0.0874581248804831 -0.00189814685799106 0.00799578976044854 0.9032935 0.3997367 -0.1557929 74 74 74
-0.060069458650037 -0.00222116361311819 -0.0195012843347001 0.07779153 0.3741812 -0.924087 84 84 84
-0.0622346221725385 -0.00182746511305432 -0.0198284032871431 -0.1481069 0.3670336 -0.9183413 111 111 111
-0.0639602061349364 -0.00283045548573702 -0.0190700225175787 -0.4316767 0.3790787 -0.8185076 112 112 112
-0.0654602762220152 -0.00536498416640896 -0.0183181503398482 -0.7637514 0.4176039 -0.4922304 144 144 144
-0.0665234743943111 -0.00687584673842712 -0.0150046036820899 -0.9065716 0.4159354 -0.07159415 58 58 58
-0.0643335842962898 -0.00994550276223527 -0.0199826571768411 -0.3827778 0.23649 -0.8930586 82 82 82
-0.0686601732043719 -0.0104757330932719 -0.017062895707209 -0.8929424 0.36487 -0.2636736 67 67 67
-0.0617770143445391 -0.00338404788639513 -0.00340419383770121 -0.8697311 0.407828 0.2779283 68 68 68
-0.0624345947181407 -0.00558765682678275 -0.00261582106979766 -0.8827409 0.3714651 0.2877191 73 73 73
-0.0632106897487462 -0.00793956416071362 -0.00144521614122897 -0.8825629 0.3710397 0.2888118 76 76 76
-0.0633248261075817 -0.00757680249944825 -0.00234560442108947 -0.8968417 0.3503638 0.2700373 33 33 33
-0.0641046493880897 -0.00892889283020004 -0.00479387166816317 -0.8948368 0.3673462 0.2536214 32 32 32
-0.0651990033404837 -0.0102456730234344 -0.00421435275935125 -0.8829468 0.4042917 0.2386488 34 34 34
-0.062507862860558 -0.00866598553627207 0.00111405926489447 -0.8891956 0.3560349 0.2873508 72 72 72
-0.0629837392731605 -0.00959827906736432 0.00067561766943855 -0.867788 0.3874336 0.3111899 51 51 51
-0.0636125621252176 -0.0106268006957098 8.37673022624219E-05 -0.8824372 0.3577115 0.3055275 50 50 50
-0.0643241523348259 -0.0100487610492745 -0.00207887749271699 -0.8859929 0.3764724 0.2707123 56 56 56
-0.0641040343259649 -0.011456217400134 -0.000374436452116905 -0.8801448 0.3618451 0.3072674 52 52 52
-0.0640557699126781 -0.00736277421336662 -0.00724740917905478 -0.8912625 0.3823356 0.2438659 104 104 104
-0.0667861973792001 -0.0112922679170753 -0.0108761358315912 -0.8883431 0.3780745 0.2605882 36 36 36
-0.0654586186585312 -0.0123876627003972 -0.00377870988042919 -0.8746322 0.4030352 0.2694089 42 42 42
-0.0663059830660551 -0.0119966830089124 -0.00653045065338523 -0.875618 0.4234993 0.2322528 36 36 36
-0.0657715416307093 -0.0123624820009558 -0.00590085666750886 -0.8709866 0.432481 0.2331148 24 24 24
-0.0662514374517972 -0.0139379612706301 -0.00219057965866157 -0.8661866 0.3915274 0.3105271 58 58 58
-0.0672230669173465 -0.0158626815479086 -0.0031499385178049 -0.8580249 0.4018014 0.3199202 52 52 52
-0.0677724910877354 -0.015273339022958 -0.00440322774747495 -0.8593864 0.4307095 0.2755802 40 40 40
-0.0680225988028088 -0.016168931932514 -0.00473983698421612 -0.8475189 0.4461999 0.2874326 53 53 53
-0.0688135291773557 -0.0160147064795566 -0.00697584541632493 -0.8596256 0.447162 0.2471639 51 51 51
-0.0680552519094971 -0.0167433212121277 -0.00543146203097536 -0.8423973 0.461689 0.2778671 42 42 42
-0.0679805977059981 -0.0182440202667735 -0.00235553395348068 -0.8212439 0.4317203 0.3730629 21 21 21
0.0786971410818115 -0.0221082865783679 0.00687980186684875 0.772355 -0.4888874 0.4055329 82 82 82
-0.0687847108413938 -0.0183331989644582 -0.00464881114939666 -0.8214564 0.4864878 0.297555 44 44 44
-0.0673452598574295 -0.00948614036155115 -0.0140072868758562 -0.9240837 0.3821255 0.007033367 76 76 76
-0.0679283362493507 -0.0109517970492563 -0.0129771742958595 -0.9231953 0.3443836 0.1706176 57 57 57
-0.0679337322444691 -0.0106320122517205 -0.0135870182922823 -0.929792 0.3613823 0.0699268 70 70 70
-0.0680175608479598 -0.0123753410426313 -0.0112837142696932 -0.9005235 0.3757882 0.2187249 44 44 44
-0.068082090138086 -0.0134226862390203 -0.0105864942029929 -0.899695 0.3844571 0.2067405 63 63 63
-0.0683556043336616 -0.0112251155844985 -0.0156358254210664 -0.8969521 0.3960823 -0.196458 52 52 52
-0.0686744519413877 -0.0147555631239273 -0.0138396265239779 -0.9490498 0.3145829 0.01849865 71 71 71
-0.0692576055675663 -0.0162053021960391 -0.00980963514934455 -0.889219 0.4330457 0.1475164 54 54 54
-0.0692561411935246 -0.0176465219643829 -0.00721849681613865 -0.8684747 0.4437208 0.2210508 62 62 62
-0.069827581107641 -0.017070799192342 -0.010867949771573 -0.9007732 0.4126406 0.1354086 54 54 54
-0.0681295756338091 -0.0146373519519523 -0.0183125048562117 -0.7461048 0.2137935 -0.6305711 107 107 107
-0.0691887777220547 -0.0165783637769368 -0.0154999877015757 -0.9596171 0.2142917 -0.1822473 35 35 35
-0.0679374299833746 -0.017692650250817 -0.0199123438882916 -0.4500435 -0.06473751 -0.890657 123 123 123
-0.0701032080468144 -0.0188150753258378 -0.0182799286873032 -0.7676747 0.0849546 -0.6351836 91 91 91
-0.0711744383306528 -0.0202544168321501 -0.0116710318101953 -0.8362467 0.5392603 -0.0994477 48 48 48
-0.0691931979960597 -0.0192202872757283 -0.00462741247575219 -0.799199 0.5188237 0.3034847 43 43 43
-0.071542424838974 -0.0204602364326572 -0.00703622559696662 -0.758962 0.6195042 0.2004776 86 86 86
-0.0737834617575716 -0.0228465267952969 -0.00589467643811406 -0.7937867 0.5363645 0.2867329 55 55 55
-0.0729340133756183 -0.0242425606055261 -0.00320554374049833 -0.7880523 0.3819657 0.4827793 68 68 68
-0.0741445015323029 -0.0243620810937826 -0.00423877001944054 -0.8014526 0.3735162 0.4670753 86 86 86
-0.0756168969498194 -0.0247457757861167 -0.00958431846143395 -0.9517501 0.293045 -0.09108463 92 92 92
-0.0763405027013851 -0.025606652424782 -0.00891323895111765 -0.9920227 0.1249605 0.01660912 119 119 119
-0.0760945543730012 -0.0265391507587565 -0.0103249866138554 -0.976175 0.007945822 -0.216839 128 128 128
-0.0755306727412278 -0.0254105451129361 -0.00591597074719455 -0.9052237 0.2006151 0.3745979 119 119 119
-0.075333452327644 -0.0261664266847408 -0.00703322250707919 -0.9618197 0.1099349 0.2506334 127 127 127
-0.0243607969935415 0.0483394318379189 -0.0217461888027668 -0.142012 0.02827146 -0.9894611 83 83 83
-0.0216510056704293 0.0471663567119622 -0.022411372598185 -0.09072749 -0.04112207 -0.9950264 66 66 66
-0.0185768906878698 0.0460770104570221 -0.022207611075312 -0.1335857 -0.1226953 -0.9834128 68 68 68
-0.0203078879508213 0.0466103413485504 -0.0226890995705412 -0.1123808 -0.06285445 -0.9916753 24 24 24
-0.0137289490058529 0.0451359464909413 -0.0235759021584311 -0.2833796 -0.1799162 -0.9419799 223 223 223
-0.0166673152193193 0.0451856597813312 -0.0221865029795688 -0.1946737 -0.1335088 -0.9717394 202 202 202
-0.0137561075162409 0.0428300422130912 -0.022501111051772 -0.2244824 -0.1516296 -0.962609 239 239 239
-0.0149392857720317 0.0439823469359866 -0.0222721358391613 -0.2486841 -0.1334288 -0.9593503 236 236 236
-0.0108508283723323 0.043396438215298 -0.0239379095049638 -0.2215159 -0.2071408 -0.9529026 179 179 179
-0.00908986861112449 0.0424392524775454 -0.0237508479869782 -0.1453804 -0.2314419 -0.9619247 158 158 158
-0.0277327055706189 0.0467434683323806 -0.021329455697436 -0.09524862 0.00822813 -0.9954195 85 85 85
-0.0303359431619743 0.0458736136686726 -0.0206418854286551 -0.09605364 -0.005376092 -0.9953616 70 70 70
-0.0273214070229678 0.0439799140613684 -0.0214283286928401 -0.1105903 -0.01744596 -0.993713 101 101 101
-0.0280200170213992 0.0421868703188191 -0.0209952300393112 -0.100898 -0.01811104 -0.9947319 45 45 45
-0.0245315710422451 0.0465227592335722 -0.022091958328893 -0.1223809 -0.000849092 -0.9924828 135 135 135
-0.0238144349234762 0.0443541346192442 -0.0214462953660938 -0.09173606 -0.05469373 -0.9942802 84 84 84
-0.022153630692895 0.0454703236645224 -0.021845064232948 -0.08009288 -0.06987388 -0.9943354 78 78 78
-0.0203453791637749 0.0447956587981657 -0.0218791942370728 -0.05143894 -0.09406932 -0.9942359 31 31 31
-0.0218856438223403 0.0435226342232913 -0.0214416333091446 -0.06819293 -0.08689233 -0.993881 75 75 75
-0.0245167209498763 0.0397609168624105 -0.0215382237209668 -0.02319147 -0.06413833 -0.9976715 122 122 122
-0.0285387122327668 0.0403162268435497 -0.020805187959489 -0.08292559 -0.04561399 -0.9955113 64 64 64
-0.0233634229345302 0.0372602023401896 -0.0208649405346092 -0.05960431 -0.08080747 -0.9949459 89 89 89
-0.0329944888964449 0.0404853753933707 -0.0205091524004104 -0.1340518 -0.05863158 -0.9892383 77 77 77
-0.0306871593534381 0.0406913788857497 -0.0208690921427708 -0.09449061 -0.02722557 -0.9951534 93 93 93
-0.0297151570502641 0.0383511524879143 -0.0208535149153623 -0.09460824 -0.03446458 -0.9949178 90 90 90
-0.0328890535581047 0.0376877625159089 -0.0204063319614162 -0.1437432 -0.05064308 -0.9883183 92 92 92
-0.0309788345654736 0.0368096510966711 -0.0207813803726181 -0.1052246 -0.02936099 -0.9940149 106 106 106
-0.0282212882117189 0.0375614678915352 -0.020970337276837 -0.05034893 -0.03917817 -0.997963 85 85 85
-0.027893387171663 0.036662359222001 -0.0211557076824826 -0.05012079 -0.03704372 -0.9980559 28 28 28
-0.0287972390840198 0.0362717162755479 -0.0206716919509679 -0.06567736 -0.03747125 -0.9971371 62 62 62
-0.028584671181158 0.0348332079538614 -0.020891269724764 -0.03667284 -0.05995214 -0.9975274 54 54 54
-0.0262046800738193 0.0362943614547098 -0.0206633710181118 0.003815738 -0.07517532 -0.9971631 81 81 81
-0.0250664115587839 0.0351489255392152 -0.0205784197688778 0.008626326 -0.104744 -0.9944618 105 105 105
-0.0274798643171607 0.0362436124836671 -0.0212370576495998 -0.01534018 -0.05816418 -0.9981892 38 38 38
-0.0301453828144198 0.0340254456243605 -0.0209220728859016 -0.09106108 -0.0652074 -0.9937081 56 56 56
-0.0177314960821039 0.0431126392761902 -0.0221007439887867 -0.108513 -0.0767897 -0.9911247 214 214 214
-0.018643252718046 0.0413515097377781 -0.0219954650011002 -0.08980152 -0.04643536 -0.9948766 204 204 204
-0.0145243414094582 0.0412517628916662 -0.0221850447708492 -0.1785627 -0.1276809 -0.975609 246 246 246
-0.0155674597629208 0.039669303376598 -0.0218414163815426 -0.09181611 -0.03566808 -0.995137 243 243 243
-0.0212622158500969 0.0380938671137072 -0.0212923392097856 -0.1193952 -0.05614785 -0.9912579 116 116 116
-0.0106919684802024 0.0392764031500945 -0.0222792078317189 -0.1442052 -0.1435089 -0.9790863 198 198 198
-0.0105963998857294 0.0365205648817784 -0.0223321767141339 -0.1050063 -0.08790558 -0.9905788 109 109 109
-0.0128921391183788 0.0359761082178141 -0.0217961029084184 -0.07202141 -0.001294205 -0.9974023 95 95 95
-0.0161130195572784 0.0351686554912554 -0.0218820238155596 -0.09468909 0.02518112 -0.9951884 184 184 184
-0.0143329938256223 0.0343713658745737 -0.0219670396129612 -0.05822122 0.04272114 -0.9973892 72 72 72
-0.0219936596546038 0.0364766416266764 -0.0206531319470688 -0.09270397 -0.07739426 -0.9926813 138 138 138
-0.0200390168653031 0.0356194281090481 -0.0212259744373692 -0.1705522 -0.03307429 -0.9847934 240 240 240
-0.018662520936259 0.0346912077337971 -0.0217162301963897 -0.157635 -0.004260594 -0.9874883 246 246 246
-0.0225086425060398 0.0343698712111558 -0.0202212683967002 -0.1127579 -0.06976616 -0.9911702 105 105 105
-0.0239462488630531 0.0328153500085655 -0.0203511403374823 -0.05313063 -0.09896167 -0.9936718 105 105 105
-0.0171614435590302 0.0330573023305227 -0.0223583848474419 -0.1604537 -0.0152256 -0.9869259 245 245 245
-0.0175141629490787 0.0314341846628325 -0.0220079114829725 -0.1728446 -0.08205815 -0.9815249 233 233 233
-0.0190562289234326 0.0302408003903289 -0.0215252642478861 -0.2558143 -0.1377229 -0.9568654 244 244 244
-0.00565984087051463 0.0406980941916522 -0.023848999792619 -0.07395549 -0.2188258 -0.9729573 157 157 157
-0.00526810061145488 0.0385142345253802 -0.0229765464097947 -0.04370351 -0.2286778 -0.9725207 244 244 244
-0.00334247707413238 0.0378494275171548 -0.0230077510571788 -0.01095628 -0.2439861 -0.9697168 240 240 240
0.00408242249815738 0.0329789493084072 -0.0233506031133174 -0.2579314 -0.05095829 -0.9648185 184 184 184
0.00738817345707143 0.0312012131251771 -0.0241248614733577 -0.2242087 -0.01358099 -0.9744465 210 210 210
0.00546965352709816 0.0320959183226392 -0.0237748686419289 -0.2700525 -0.03404227 -0.9622436 146 146 146
0.0121412599708047 0.0279758181815095 -0.0247443037722789 0.003052542 -0.116722 -0.9931599 210 210 210
0.0114646642351641 0.0269475278758116 -0.0245019742627169 -0.0243676 -0.1794134 -0.9834719 196 196 196
-0.00754530905772144 0.0373551922385769 -0.0227165649199358 -0.06024496 -0.1889445 -0.980138 210 210 210
-0.00813172489464875 0.0326045070369343 -0.022222590911077 0.04569469 -0.0915211 -0.9947542 85 85 85
-0.00870218554793367 0.030938725011791 -0.0219655723550438 0.04413126 -0.1044593 -0.9935495 89 89 89
-0.00720674121557729 0.0297071927693464 -0.0220802926033209 0.03028236 -0.109865 -0.9934851 167 167 167
-0.00231302230035701 0.0347618223178723 -0.022253067038742 -0.01141252 -0.1537988 -0.9880363 243 243 243
-0.0042650971487298 0.0341892320055868 -0.0219919423736404 0.01089118 -0.1247197 -0.9921322 225 225 225
-0.00349547993284127 0.0327896715839004 -0.0220491634908377 0.01924459 -0.1038937 -0.9944022 244 244 244
-0.00388320809668252 0.031056090109906 -0.0220506045610144 0.01133121 -0.07273279 -0.9972871 244 244 244
-0.00293916021082563 0.0299548625834964 -0.0220777959007774 -0.0110308 -0.05314113 -0.9985261 246 246 246
-0.00833903219964116 0.0284917982938964 -0.0217585976272102 0.01247028 -0.1339876 -0.9909045 68 68 68
-0.0057786778531782 0.0275345268778315 -0.0215167893976752 -0.01359072 -0.0564935 -0.9983104 174 174 174
-0.00408177606152615 0.0268835041685107 -0.0215990439557271 -0.03805804 -0.00895588 -0.9992354 203 203 203
-0.00264723585309945 0.0252554645406995 -0.0218067516251052 -0.05103725 0.01572113 -0.998573 79 79 79
-0.0076050111747199 0.0260272217413553 -0.0210695111564418 -0.048999 -0.0622848 -0.9968549 125 125 125
-0.0118071897808369 0.0301319912466187 -0.0224206954740456 0.01860967 -0.1249897 -0.9919835 161 161 161
-0.0122386800482465 0.0297243153810103 -0.0221007709386289 0.01377444 -0.1220116 -0.9924331 144 144 144
-0.0103914779050224 0.0297068966193532 -0.0220174708655833 0.04908496 -0.1444221 -0.988298 149 149 149
-0.0106369864124425 0.0283302092226823 -0.0222863122585409 0.04656554 -0.1579375 -0.9863505 69 69 69
-0.0137391046752896 0.0274327936916581 -0.0219017032314334 -0.05337741 -0.1827101 -0.9817168 116 116 116
-0.0291215581386096 -0.0202594330044614 -0.0203799266226294 -0.07450932 0.1356981 -0.9879445 238 238 238
-0.0149194074259628 0.0278211890022901 -0.0215639692038992 -0.1264769 -0.1853746 -0.9744946 105 105 105
-0.00927640836817245 0.0265206072335891 -0.0213314068796756 0.003163479 -0.1061239 -0.9943479 82 82 82
-0.00985834098318594 0.0250106986763419 -0.0210052695476815 -0.01631611 -0.08929548 -0.9958715 118 118 118
-0.0071019086247216 0.0231311531554048 -0.0215485492915341 -0.1000934 0.04567984 -0.9939289 87 87 87
-0.00628345095620741 0.0222092667229219 -0.022011261311949 -0.1035144 0.03162719 -0.994125 102 102 102
-0.00537865856539022 0.0222553750168351 -0.0218777499949015 -0.07179075 0.0211466 -0.9971955 64 64 64
-0.00479277083151997 0.0215456894150254 -0.0220376156448658 -0.0384776 -0.009592722 -0.9992134 134 134 134
-0.00583422450461923 0.0202401042372118 -0.0221022660843143 -0.07558946 -0.08599477 -0.9934239 118 118 118
0.00282804926453117 0.0299139641505441 -0.0225988535635338 -0.2208766 -0.05681721 -0.9736454 62 62 62
0.0032771731234561 0.0285989784843617 -0.0223991495988249 -0.2553223 -0.04777882 -0.9656748 44 44 44
0.00591026945261475 0.0281055734873563 -0.0233566426311854 -0.271751 -0.07275791 -0.9596133 95 95 95
0.00269820500699769 0.0271737566753909 -0.0222608393610452 -0.2095469 -0.01186637 -0.9777266 85 85 85
-0.000988746124786277 0.027505630737223 -0.0216571324434688 -0.06890386 -0.009301519 -0.9975799 65 65 65
0.00140946942249653 0.0256761066733073 -0.0219223726681445 -0.1390395 -0.001803391 -0.9902852 86 86 86
0.00403595275240931 0.0259724599647657 -0.0226298074769183 -0.2239177 -0.01499915 -0.9744926 81 81 81
0.00331787362461078 0.0248711559956443 -0.0223932090086781 -0.201387 -0.02976 -0.9790596 112 112 112
0.0070570058086451 0.0270528410533704 -0.0235948586441787 -0.2428924 -0.1020667 -0.9646687 77 77 77
0.00893308384816116 0.0255288063053296 -0.0239942066121976 -0.09161387 -0.2012624 -0.9752437 114 114 114
0.00598916493708268 0.0247778813451573 -0.0227603582760854 -0.2280796 -0.09851005 -0.9686462 72 72 72
0.00644133843752992 0.0230581995350572 -0.0228293120029765 -0.155297 -0.1542566 -0.9757499 108 108 108
0.00930705327866566 0.0230613404927351 -0.0232987028526138 -0.02985142 -0.2367522 -0.9711114 121 121 121
0.0085912090375817 0.0212716130431918 -0.0228854259033754 -0.07162002 -0.2562209 -0.9639613 93 93 93
0.000221101509723542 0.0235425886314184 -0.021717710704492 -0.06145026 0.001299504 -0.9981093 81 81 81
0.00593647080513127 0.0207275000349438 -0.0224457669435409 -0.1103341 -0.2509719 -0.9616858 91 91 91
-0.00366070804497776 0.0218304671712224 -0.021957039442316 -0.01626186 -0.04591356 -0.998813 183 183 183
0.00180776555564688 0.0210917901566561 -0.0222208658461185 -0.04573569 -0.1449758 -0.9883776 126 126 126
-0.00182622388824849 0.0193914145901899 -0.0220463634108304 0.008587216 -0.1996142 -0.9798369 155 155 155
-0.0337288860975997 0.0369002442660673 -0.020151546371687 -0.1944248 -0.06694845 -0.9786301 49 49 49
-0.0360661309738717 0.0357213631293771 -0.0196440323227348 -0.2633472 -0.103753 -0.9591056 99 99 99
-0.0325194579730931 0.0344853049352543 -0.0204751748831037 -0.1752436 -0.05312539 -0.9830907 78 78 78
-0.0338565337332046 0.0342048675712032 -0.0200865436808842 -0.2285881 -0.06655737 -0.9712454 140 140 140
-0.0377673400237903 0.033740563946661 -0.0184583899927445 -0.4049912 -0.111153 -0.9075391 91 91 91
-0.0380359130244534 0.0321480525853248 -0.0186092991901975 -0.4265066 -0.140825 -0.8934542 73 73 73
-0.0351057928469825 0.032888641534327 -0.0198755120877857 -0.2822533 -0.1120763 -0.9527707 87 87 87
-0.0273906605200641 0.0302633933466798 -0.0203055790346912 0.02016582 -0.1861001 -0.9823238 115 115 115
-0.0298498740023452 0.0308712917321992 -0.0208422165785384 -0.06430189 -0.1614449 -0.9847847 73 73 73
-0.0322351525505964 0.0284754172041031 -0.0194859576925332 -0.1406509 -0.1912963 -0.9714026 97 97 97
-0.0302743886183341 0.0297462630912371 -0.020199951183803 -0.08491092 -0.1840288 -0.9792464 93 93 93
-0.04058277809434 0.0300200245243079 -0.0170301009709102 -0.5607792 -0.1554723 -0.8132374 101 101 101
-0.023334757133163 0.0302885797901298 -0.0202670120900778 -0.1015476 -0.1519923 -0.9831513 131 131 131
-0.0220131705214273 0.027627252973359 -0.0198036629669195 -0.157434 -0.1690881 -0.9729459 151 151 151
-0.0258309561710517 0.030878497727737 -0.020389486097324 0.03495916 -0.1453296 -0.9887655 85 85 85
-0.027488597682592 0.027988531656717 -0.0198614965992908 -0.01164512 -0.2031654 -0.9790752 122 122 122
-0.0241440670970499 0.0246494523674201 -0.0193917211330187 -0.1222537 -0.09778455 -0.9876701 100 100 100
-0.0195742296903045 0.0277753276090364 -0.0204480735702096 -0.2237957 -0.1949342 -0.954943 168 168 168
-0.015946991057681 0.0261394179109991 -0.0215083820718696 -0.1770056 -0.160084 -0.9711035 98 98 98
-0.0184281863392106 0.0266278638108293 -0.0205438834362405 -0.2609993 -0.1697212 -0.9503021 63 63 63
-0.0188527649987867 0.0252661138362016 -0.0202204722405691 -0.2441994 -0.1286164 -0.9611579 72 72 72
-0.01745101448169 0.0248595542416705 -0.0202916822108525 -0.2397958 -0.1292139 -0.9621859 69 69 69
-0.0195988298593845 0.023917497488825 -0.0199345362690172 -0.2236149 -0.0973492 -0.9698039 86 86 86
-0.0216423806399182 0.0243884167688675 -0.0192735273601437 -0.1666071 -0.1011689 -0.9808195 145 145 145
-0.0186135903379759 0.0221762522386864 -0.0198222298055488 -0.2485188 -0.06895101 -0.9661698 72 72 72
-0.0287145377507013 0.0259483278270658 -0.0192014966038682 -0.04598666 -0.2313564 -0.9717816 95 95 95
-0.0254719178591316 0.0238902458735843 -0.0194006824338423 -0.09562273 -0.1205217 -0.9880946 52 52 52
-0.0200482138704615 0.0195041073280153 -0.0194661593046498 -0.172515 -0.04207884 -0.9841077 93 93 93
-0.0410346979975651 0.0272076918432387 -0.0151023768299238 -0.6398172 -0.1820873 -0.7466446 112 112 112
-0.043985213588664 0.024407536701929 -0.0120916595933583 -0.660135 -0.05367167 -0.749227 140 140 140
-0.039198420486266 0.0262408156797824 -0.016999351095689 -0.5310361 -0.1579751 -0.832493 93 93 93
-0.0377576525709343 0.026438089726093 -0.0181672723815829 -0.4288124 -0.1693875 -0.8873713 76 76 76
-0.0378942779864658 0.0246113506351708 -0.0172094349826869 -0.4576696 -0.1750629 -0.8717176 62 62 62
-0.0339759494045866 0.0275064107558882 -0.0192199672685648 -0.1978589 -0.1876182 -0.9621077 55 55 55
-0.0346753152704774 0.0253824014495345 -0.0187037570036868 -0.2368112 -0.1901847 -0.9527593 79 79 79
-0.0305865529416171 0.025106599127912 -0.0193502903668381 -0.06182822 -0.2504387 -0.9661562 113 113 113
-0.0331293819582426 0.0251917791477221 -0.0193985185221472 -0.1475752 -0.2397761 -0.9595462 84 84 84
-0.0360386950646605 0.0258272589194868 -0.0183067769332971 -0.2964107 -0.1850366 -0.9369643 80 80 80
-0.0344112764769295 0.0224720577885404 -0.0182008334979588 -0.1880036 -0.2448847 -0.9511499 101 101 101
-0.0289589422693743 0.0249661709246431 -0.0190082177948564 -0.05430859 -0.2281511 -0.9721099 100 100 100
-0.029667696069727 0.0225990527227389 -0.0184814402743813 -0.1001269 -0.2260901 -0.9689468 79 79 79
-0.0276563777123198 0.0210300450196115 -0.0180534644583241 -0.1872213 -0.1508791 -0.9706615 156 156 156
-0.0269871695392176 0.0188945668407514 -0.0184374939783191 -0.2195875 -0.166888 -0.9612126 243 243 243
-0.0214678252618644 0.0204471564283124 -0.0195875219758753 -0.143886 -0.05105129 -0.9882765 89 89 89
-0.0235660802528175 0.0169660411805714 -0.019341623372067 -0.2277441 -0.1557986 -0.961176 243 243 243
-0.02084110208831 0.017815726926889 -0.0191903247924582 -0.1929111 -0.09496745 -0.9766097 186 186 186
-0.021751978508603 0.0160812608871981 -0.018935600496218 -0.2135754 -0.2144656 -0.953095 243 243 243
-0.0418457967504682 0.0279341847828734 -0.0155308278167572 -0.6393877 -0.1956794 -0.7435676 140 140 140
-0.0419438104186884 0.0252690283306516 -0.0143401276200844 -0.6632933 -0.1337929 -0.7363026 108 108 108
-0.041649954972602 -0.0573849850817361 -0.00457972912117213 0.05690056 -0.945978 0.3191991 64 64 64
-0.0379635068763338 0.0230647122712146 -0.0169554021436148 -0.4817743 -0.1712844 -0.8593923 61 61 61
-0.0432229478967374 0.0224042995263762 -0.0129116786325559 -0.669148 0.001249495 -0.7431281 126 126 126
-0.0403139140631794 0.0227608698490518 -0.0153537976734103 -0.5703658 -0.0937069 -0.8160281 102 102 102
-0.0389245982683625 0.0213428063724543 -0.016226112016969 -0.4663534 -0.1219964 -0.8761457 64 64 64
-0.0402794270430935 0.019971172094408 -0.0153399860395188 -0.4791543 -0.0649751 -0.8753225 57 57 57
-0.0366870359261394 0.0204998227542297 -0.0167139956522403 -0.2745825 -0.1713095 -0.9461805 73 73 73
-0.0359574370587865 0.0190944103447932 -0.0166913417539575 -0.1832643 -0.2039912 -0.9616662 110 110 110
-0.0381306282261359 0.0186102274138591 -0.0161997428599934 -0.3384508 -0.1318496 -0.931701 74 74 74
-0.035092241515732 0.0178139834558904 -0.0169040534202562 -0.124896 -0.2350016 -0.9639373 123 123 123
-0.0437672193184584 0.0207322976631386 -0.0125701049492082 -0.6387905 0.02606701 -0.768939 99 99 99
-0.0433749352530512 0.0192993921233968 -0.0130661025584546 -0.5893654 0.04468128 -0.80663 86 86 86
-0.0473199893946242 0.0181348801885191 -0.00989765269373591 -0.613329 0.1932608 -0.7658184 141 141 141
-0.040868349642275 0.0186318217222794 -0.0150678512308712 -0.4610402 -0.06366926 -0.8850922 83 83 83
-0.0423722736899742 0.0191709166427154 -0.0144108917711109 -0.5630123 0.001494595 -0.8264472 82 82 82
-0.0433522976709662 0.0166609911902429 -0.0133529632711821 -0.5270601 0.02397146 -0.8494899 94 94 94
-0.0434957782930167 0.0162088161026741 -0.0133022233530082 -0.5263575 0.01052425 -0.8501983 100 100 100
-0.0393088896700624 0.0169835054330374 -0.0156155933106526 -0.3652774 -0.11965 -0.9231772 80 80 80
-0.0403325499125031 0.0152367182355586 -0.0146646508529482 -0.3812234 -0.1445712 -0.9131089 91 91 91
-0.0386993207993749 0.0144790737767357 -0.0152320163741797 -0.3279268 -0.1715139 -0.9290032 63 63 63
-0.0370408386686174 0.0146222822309119 -0.0155462367466839 -0.178833 -0.2177324 -0.9594849 55 55 55
-0.04160951608549 0.0138759102426746 -0.0142557394719797 -0.3861622 -0.1729649 -0.9060695 102 102 102
-0.0376207062453772 0.0130015684584335 -0.0154016297318659 -0.2060977 -0.2539423 -0.9450064 64 64 64
-0.0318009096730947 0.0209069876263899 -0.0175607153417895 -0.08932952 -0.2659225 -0.9598466 77 77 77
-0.0296797988047716 0.01766803044424 -0.0170773224567499 -0.2306525 -0.2468121 -0.9412137 126 126 126
-0.0286801215933979 0.0151684394499481 -0.0168429915036778 -0.2484894 -0.2968445 -0.9220284 75 75 75
-0.0326112468336081 0.0189804686139654 -0.017482757973523 -0.09488691 -0.2502564 -0.9635187 146 146 146
-0.0326117368058387 0.0171531762326804 -0.0165211428209689 -0.08008508 -0.2715914 -0.9590748 135 135 135
-0.0258557467306831 0.0149215576111903 -0.0174928121749734 -0.2925222 -0.3435631 -0.8924097 95 95 95
-0.0248488406839261 0.012446122438067 -0.0163232899192485 -0.2576692 -0.397575 -0.8806479 108 108 108
-0.0263487227950533 0.0156470138976916 -0.0180817364394804 -0.2810358 -0.3028669 -0.9106539 210 210 210
-0.0227064409110221 0.0139817567305363 -0.0183497152275015 -0.2786247 -0.3777072 -0.8830094 197 197 197
