ply
format ascii 1.0
comment File exported by Rhinoceros Version 7.0
element vertex 475
property float x
property float y
property float z
property float nx
property float ny
property float nz
property uchar red
property uchar green
property uchar blue
end_header
-0.0073722424707896 0.0500548577503224 0.00231029485894035 0.002248181 0.5637584 -0.8259367 222 222 222
-0.0826301416360964 -0.0252586776798537 -0.00520458005393207 -0.9216315 -0.1918606 -0.3373203 60 60 60
-0.0409395234074319 -0.0324279855328536 -0.0518048063083208 -0.0210164 0.5514927 -0.8339149 71 71 71
0.00180391808013858 -0.0682092838941655 -0.0442548046821072 0.5940179 -0.7484391 0.2949266 33 33 33
-0.0763033576161856 0.0179248890400978 -0.0176899103621174 -0.0216956 0.5683445 -0.8225046 191 191 191
-0.0606324790355575 -0.0505458237908505 -0.0565007654649946 -0.8722892 -0.03650969 -0.4876255 85 85 85
-0.0700188111140545 -0.0660466767676594 -0.024204500121848 -0.958053 -0.2402069 -0.1563175 53 53 53
-5.88526449618598E-06 0.0784032447219478 0.032101521375431 -0.541984 0.8236486 0.1669022 65 65 65
-0.000968223254532941 0.0142951946712488 -0.0214590967103695 -0.02319643 0.5472062 -0.8366764 109 109 109
-0.0734624332271714 0.0107690414572057 -0.0223517601770215 -0.01014846 0.5424447 -0.8400302 173 173 173
-0.0644830994221079 -0.0703457717696299 -0.046614288587888 -0.8393829 -0.3579647 -0.4090202 91 91 91
0.0764118979125792 0.0390359711150627 -0.00639734208323894 0.1740489 0.5305594 -0.8295864 77 77 77
0.0873250436302795 0.0226104524162722 0.0129002860326735 0.5774818 -0.755331 0.3098223 23 23 23
0.0857026520191093 0.0326972275305129 -0.000738811258400557 0.784809 0.1694503 -0.596122 95 95 95
-0.0545129168459961 0.0301919647007043 -0.00991932509876162 -0.037782 0.5386506 -0.8416817 135 135 135
0.0114598208505525 0.0440981457918397 -0.00174268282142273 0.003432963 0.5577643 -0.8299923 183 183 183
0.0677662612559602 -0.00303976595986488 -0.021136285395043 0.9101556 -0.1746839 -0.3756359 17 17 17
0.0602033725240141 0.0553320645522841 0.0582680122899813 0.8167167 0.4447905 0.3676075 83 83 83
0.033175821917919 -0.0352054556712054 -0.0220234066963783 0.6770512 -0.6812891 0.2782927 35 35 35
-0.0345924523384959 0.0511357855240333 0.00394781808669445 -0.04148515 0.5462648 -0.8365846 179 179 179
0.0537498994116565 0.0282221052960887 -0.0134977983189704 -0.003564121 0.570767 -0.8211043 126 126 126
-0.0176781770911547 0.0707008330765233 0.0194541432567796 -0.6573561 0.7468715 -0.1003287 73 73 73
0.0795430988787433 0.0455387554177256 0.0220356516571751 0.8178795 0.4897637 0.302001 90 90 90
0.00148531189176437 0.0680787860791245 0.0666473785152668 -0.6012315 0.7759945 0.1906653 84 84 84
0.0796121353632866 0.0301614509294197 -0.00929845704067811 0.6947213 0.2184318 -0.6853101 152 152 152
-0.0517156993441175 0.0307542075645915 0.0215146439253705 -0.5885555 0.5861428 0.5568114 53 53 53
-0.0403454241311274 0.0119339119051338 -0.0221721681208358 -0.01030037 0.5421906 -0.8401924 122 122 122
-0.00481386182157428 -0.0619395099814185 -0.0681213952593199 0.4633444 -0.4017417 -0.7898833 53 53 53
-0.0701084152062721 -0.0580998465775676 -0.0320981863704572 -0.9626234 -0.1077943 -0.2484685 45 45 45
0.0555708291460431 0.035661133711764 -0.00908976266399639 0.01311076 0.5477955 -0.8365095 78 78 78
-0.00711432648749799 0.0742594589297112 0.0334166038190825 -0.6260327 0.7460252 0.2270009 47 47 47
0.0559503419777321 -0.0151498821650845 -0.00745600685414341 0.6909839 -0.6980801 0.1876845 47 47 47
-0.0404866940919633 -0.0772209084512557 -0.0687883282752081 0.3491012 -0.7317773 -0.5853464 59 59 59
0.000881691526694928 -0.0651348551805864 -0.060636803521586 0.4370617 -0.7286293 -0.5273294 55 55 55
0.0631512116090125 0.0470090622273962 -0.00127592058553469 -0.008680231 0.5383894 -0.8426515 106 106 106
0.0419939931527014 -0.0257955408968505 -0.0108127354072846 0.5075349 -0.8410025 0.187412 16 16 16
0.0553552760900275 0.0746690927789342 0.0405732187965472 0.8344861 0.4566342 0.3084124 109 109 109
-0.0108990464695937 -0.0795338211434018 -0.0442246061146671 0.4594245 -0.8097138 -0.3650925 50 50 50
0.0322076999155574 0.076335071892303 0.0185693298902414 -0.02989173 0.5835 -0.8115629 87 87 87
0.0810607337149289 0.0210034561305514 0.025981127793154 0.7533078 -0.6227955 0.2113129 21 21 21
-0.0298260083012674 0.0521201149978843 0.0269655497121782 -0.8302531 0.4474472 0.3323715 57 57 57
-0.00215463917051428 -0.0387874268506619 -0.0563395364993762 -0.01361127 0.555491 -0.8314111 62 62 62
-0.015624615240732 0.0591958703374846 0.00852308656855633 -0.03361511 0.5700463 -0.8209246 141 141 141
0.00208628131109023 0.0765855124303016 0.0453526810716096 -0.5780903 0.7494494 0.322703 41 41 41
0.0294734918916248 0.0409218372803393 -0.00482781771617513 -0.006746756 0.5707628 -0.8210873 8 8 8
0.0160292907090498 -0.0174574767020899 -0.0430662910795372 -0.02155792 0.5427079 -0.8396448 61 61 61
0.0560411325210408 0.0814447165948977 0.0234742573047636 0.5235752 0.6600425 -0.5387141 182 182 182
0.0223663013801745 -0.0466206441382464 -0.0615664193746427 0.5680504 -0.2618424 -0.780229 155 155 155
-0.0786953737803162 -0.0168397187979433 -0.0221022832164006 -0.9668325 -0.165065 -0.1949066 30 30 30
-0.0614512642166167 -0.0643377359850273 -0.0529254262520516 -0.7364045 -0.268897 -0.6208082 37 37 37
-0.0518852562256136 -0.0441154658842574 -0.0591479724659975 -0.03086006 0.562006 -0.8265573 169 169 169
0.0580129605785995 -0.01818139339902 -0.025065025108354 0.6329072 -0.7737051 0.02844132 39 39 39
0.0546550312410952 -0.0129556602097217 0.00114352297093251 0.7552484 -0.6052507 0.2515384 37 37 37
0.0797386561696292 0.0450611116458992 0.0227600410002145 0.8181979 0.487945 0.3040754 75 75 75
-0.00128176805274482 -0.0711347449505639 -0.0464737206647948 0.5558868 -0.8191715 0.1412369 34 34 34
-0.0515381955532346 -0.0699030680781625 -0.0668156125039739 -0.8826239 -0.1618819 -0.4413268 80 80 80
0.0839730000308816 0.0188425284180194 0.00940191452158234 0.6120292 -0.7197323 0.327728 29 29 29
0.0163688386468379 -0.0466427700996364 -0.0622079807067697 0.237046 0.1945304 -0.9518231 110 110 110
0.046759921180213 0.0337572557134866 -0.00958052241445029 -0.02559353 0.517163 -0.8555042 74 74 74
0.00738510949041893 -0.0601831532791886 -0.0315675910744755 0.6132075 -0.7846228 0.09134363 67 67 67
-0.0226548690963879 0.0584998880456495 0.0384603792316641 -0.8298461 0.5040544 0.2393419 46 46 46
-0.013302225341683 0.0151576721801781 -0.0202306357037425 -0.03214402 0.5532903 -0.8323681 60 60 60
0.0402645750754274 -0.0332133727163632 -0.0400190132019335 0.7341433 -0.6723077 0.09505762 76 76 76
-0.0517824179224473 0.0371314538215803 0.0148777286594242 -0.6903337 0.5421501 0.4790748 33 33 33
0.0148532595705282 -0.0519586204388165 -0.0556218685281418 0.5704123 -0.8205752 -0.03586135 39 39 39
-0.0509548562579036 0.0268212178156144 0.025877492133646 -0.6050466 0.6389996 0.4749718 39 39 39
0.0497603215123126 0.080213417861607 0.0484693448823512 0.8269405 0.4730981 0.3038872 77 77 77
0.0372611095249546 -0.0360155765231016 -0.0436086633569003 0.6586347 -0.744401 -0.1098522 40 40 40
-0.014170161784349 -0.00600357534446228 -0.0345087427118856 0.003566069 0.5542333 -0.8323538 206 206 206
-0.0303161261329044 0.0604426671106137 0.0154446837499541 -0.6408164 0.7285227 0.2420929 86 86 86
0.00509048999850759 0.0816955149378746 0.0231943550078178 -0.2730972 0.6317979 -0.7254305 127 127 127
0.0378338561720652 0.0564502379244227 0.00569230552966132 0.01450436 0.5584564 -0.829407 125 125 125
-0.0687117845605785 -0.0060309185625691 -0.0335112476658753 -0.01809289 0.5318555 -0.8466418 157 157 157
-0.0235154516442975 -0.0592052716076816 -0.0694887624702727 -0.009280766 0.553997 -0.8324669 131 131 131
0.0361387115035416 0.0891461115476468 0.0269108831078775 -0.0477 0.5609196 -0.826495 135 135 135
-0.0664325409982138 0.0320019245245846 0.00240146906425795 -0.6207966 0.6924597 0.3675747 15 15 15
0.00462971516332367 -0.0638457866881537 -0.0599293334446636 0.6507018 -0.5787755 -0.4915344 46 46 46
0.0560473417422602 0.0207401416118533 -0.0184457814384045 -0.03850706 0.553811 -0.8317516 120 120 120
-0.0255772384585511 0.0582658120100989 0.00794301817887613 0.01748015 0.5580293 -0.8296371 182 182 182
-0.00775927775425655 0.0320686903154423 -0.00973570230716214 -0.01541174 0.5519506 -0.8337343 81 81 81
-0.0279046934975846 0.0504305819203865 0.0344064582791706 -0.8383731 0.4736165 0.2698478 51 51 51
0.0319049190428342 -0.0249003885496485 -0.0482299353937944 -0.0281763 0.5341948 -0.8448917 65 65 65
0.0403699060727098 -0.0319038475064702 -0.0324316592636623 0.7193963 -0.6842914 0.1192238 31 31 31
-0.00579961547757235 -0.0712728728948195 -0.0552287012676165 0.3195396 -0.8493306 -0.4201571 67 67 67
-0.0736257484232492 -0.0491840173135023 -0.0209429958603243 -0.9600864 -0.08502556 -0.2664671 48 48 48
-0.0166076540380111 -0.0333138107874442 -0.0528378837757633 -0.00979935 0.5495194 -0.8354235 107 107 107
-0.047423672770192 0.0275094055373992 0.0302305217092224 -0.6282541 0.6349651 0.4495733 48 48 48
-0.0777183141072779 -0.0334965340967641 -0.0165417672026404 -0.9461488 -0.1948109 -0.2585559 37 37 37
0.0572144591305612 -0.0200080849111948 -0.0244555736092557 0.5954741 -0.7972837 0.09873869 11 11 11
0.0194848177463443 0.0216019899468782 -0.0172738365206888 -0.006724048 0.5325876 -0.8463482 73 73 73
0.0505297457305927 0.0533141129600325 0.00305302162460372 -0.008544984 0.5450524 -0.8383585 101 101 101
0.070774813118774 -0.00473430614853987 -0.0123497430769042 0.6834383 -0.7293791 0.03030266 42 42 42
0.0218968878961443 -0.0480530850176951 -0.059386814228434 0.6021083 -0.6990605 -0.3857202 55 55 55
0.0718996486479213 0.0514562654867916 0.0328832510296605 0.8246742 0.4811553 0.2973246 78 78 78
-0.0293316435189888 -0.0349372642192063 -0.0531612635278026 -0.01815627 0.5530771 -0.8329322 108 108 108
0.0590322795061453 0.0582246934535624 0.0578329826523807 0.8104523 0.4578319 0.3654543 82 82 82
0.0318230869960292 0.0194117894624262 -0.0188415127310673 -0.04554668 0.5276804 -0.848221 103 103 103
-0.026625131334947 -0.0224164225019159 -0.0451477959319077 -0.02649386 0.5471619 -0.8366074 161 161 161
0.08589027115505 0.0343465728607082 7.41858340732315E-05 0.7913352 0.1973031 -0.5786709 106 106 106
-0.0185013209994216 -0.0860499738042549 -0.0361253850865082 0.4212229 -0.8195516 -0.3884667 39 39 39
0.0447103022330271 -0.0289528976484037 -0.0367020949726658 0.5783578 -0.8107184 0.0907631 40 40 40
-0.0469840096128986 0.0379966045979476 -0.00495900300764848 -0.02737776 0.5535489 -0.8323665 142 142 142
0.0535837953544307 0.00115011018352329 -0.0317758564288725 -0.01706881 0.5678535 -0.8229526 180 180 180
0.0317343022110297 -0.0414463637154552 -0.028716457139774 0.592818 -0.7477425 0.2990785 45 45 45
-0.0639328064024189 0.0315433799502085 0.00893972557606615 -0.601193 0.6421998 0.4755485 34 34 34
-0.0589043315917364 -0.0877174887667991 -0.0424485339909904 -0.9029204 -0.2487381 -0.3505197 54 54 54
0.0502687972573146 0.0564988760106202 0.00539272754811435 -0.03808019 0.5711588 -0.8199558 90 90 90
0.0499770434935738 -0.0194784730319847 -0.00982201373546127 0.6446747 -0.7602998 -0.07961647 29 29 29
-0.0572170300021395 -0.0525268722462932 -0.0622951165164254 -0.7431338 0.05343926 -0.6670055 48 48 48
-0.0627145697986007 0.0343545169212669 -0.00678185342708354 -0.09690265 0.6720963 -0.7340956 95 95 95
-0.0803002003529423 -0.0171266313912661 -0.0151212394877939 -0.94213 -0.1013994 -0.3195454 81 81 81
0.0321832767356003 0.0060412171707237 -0.0278854562775615 -0.05791191 0.5634416 -0.8241237 12 12 12
0.0166257958255749 0.00787400692184581 -0.0269965070817557 -0.0287242 0.545545 -0.8375891 185 185 185
-0.0270199252024814 0.0630479726960864 0.0114638584348034 -0.5103646 0.7449517 -0.4296218 169 169 169
-0.0176231330926773 -0.0227461129082049 -0.04547905490941 -0.004936254 0.5557632 -0.831326 118 118 118
0.0553220299831905 -0.0173687681370527 -0.0167927577377576 0.5183779 -0.8173897 0.2513134 9 9 9
-0.0709018157195389 -0.0516619896573605 -0.0343912560608363 -0.9753006 -0.1984958 -0.09689269 15 15 15
-0.0228936286641774 0.039695500365019 -0.0050906936341924 9.188759E-05 0.5417107 -0.840565 107 107 107
-0.0349494233107333 0.0542715897716217 0.00609816033871172 -0.135484 0.6645824 -0.7348295 185 185 185
-0.0480242300528471 -0.0415453873314574 -0.0575129190020524 -0.007114503 0.5585002 -0.8294739 168 168 168
-0.0701867603732667 -0.0650535593252359 -0.0324952236272944 -0.9548538 -0.2147314 -0.2052915 41 41 41
0.00522629835112998 -0.065831345548325 -0.045949405968385 0.6782289 -0.711227 0.1848292 32 32 32
0.0115059940861619 0.020013204107842 -0.0178636079073515 -0.009809409 0.5417604 -0.8404757 32 32 32
0.00729215747889556 -0.0169014510382274 -0.0425329480212396 -0.02021935 0.5631176 -0.8261294 233 233 233
0.0687854004308035 0.0324946079529003 -0.0109443825130721 -0.03826722 0.5485381 -0.8352494 86 86 86
-0.0223276675042654 -0.0544131987802381 -0.0663648018814911 -0.01947274 0.5502221 -0.8347912 70 70 70
0.00935047457818117 0.0864985834196073 0.0335511056590175 -0.6166302 0.764092 0.1895537 42 42 42
-0.0770568375022627 -0.0203975432257758 -0.0280569618789352 -0.9885582 -0.1207559 -0.09039187 40 40 40
-0.0251698932299806 -0.0587202878901365 -0.0693397472812007 -0.0178872 0.553514 -0.8326477 140 140 140
0.0359057666133928 -0.000437848099124949 -0.0317251570254069 -0.026296 0.5559798 -0.8307797 147 147 147
0.0523590149424162 -0.0223812762557786 -0.0397654799834159 0.7116944 -0.6435387 -0.2816897 38 38 38
0.0761558421127515 0.00945363026148593 0.00883504966983986 0.8188375 -0.5472036 0.1734168 41 41 41
-0.0329186562219779 -0.0855608051223854 -0.0514119526060293 0.3202364 -0.8162745 -0.480775 46 46 46
-0.0718151677584811 -0.0623040619207513 -0.0172240740291213 -0.9766338 -0.1958885 -0.08839709 42 42 42
-0.0658402631829029 -0.0554737383677034 -0.0491990634868723 -0.7712132 -0.02559779 -0.6360621 79 79 79
0.0219899737295721 0.0368712171966823 -0.00693713688846315 -0.02251421 0.5514091 -0.8339311 96 96 96
0.0013575823599381 0.0416202890712147 -0.00340986542249305 -0.03926896 0.5402027 -0.8406182 103 103 103
-0.0514505226428654 -0.0336886435574661 -0.0518575918870791 -0.02675269 0.5549229 -0.8314714 155 155 155
-0.0738356227834698 0.000667763257019005 -0.0288979791972551 -0.06856571 0.5468359 -0.8344275 113 113 113
0.0362247199587236 0.0634137687371099 0.0103868470207923 0.003681715 0.5650553 -0.8250449 66 66 66
-0.0429311309664473 0.0329001213275928 0.0286177518014394 -0.6035292 0.6367425 0.4799078 25 25 25
-7.76597763929576E-05 -0.0496405440600546 -0.0637790496268051 -0.02906732 0.5503786 -0.8344091 86 86 86
-0.0129062382834604 0.0630380044838208 0.0563097914109305 -0.6265573 0.7713133 0.1118116 67 67 67
-0.04041581890037 -0.075972795587901 -0.0697237805944907 0.3498275 -0.7282684 -0.5892757 27 27 27
-0.0269371840519863 -0.0270168283417133 -0.0480321314564507 -0.01481379 0.5504638 -0.8347276 87 87 87
0.087356578880637 0.0314956985364738 0.00028615312815336 0.7773972 0.2048428 -0.594721 129 129 129
0.0258363023230581 0.0415879844401914 -0.00407140069116779 -0.02997652 0.5649123 -0.8246063 141 141 141
-0.0406228092081093 0.0348986375023848 -0.00718965754520262 -0.01675166 0.5577419 -0.8298454 206 206 206
-0.0261874912138789 0.0225531630401818 -0.0150984748033494 -0.003556966 0.5543799 -0.8322561 93 93 93
-0.0845506159276481 -0.0110391515262015 -0.00265467609396641 -0.9749079 -0.127599 -0.1824093 24 24 24
-0.0533653965784322 0.0367021389790643 0.0124878501819203 -0.6380435 0.5806525 0.5057105 30 30 30
-0.0368104526321336 -0.0378264763921415 -0.0552962059646212 -0.02877678 0.5378383 -0.8425568 104 104 104
-0.0795544609293974 -0.0381862823686173 -0.003110109122373 -0.9325808 -0.1646049 -0.321245 78 78 78
-0.0636795846500324 -0.011377291368627 -0.037100151024008 -0.02092643 0.5624592 -0.8265602 124 124 124
-0.0208403010153895 -0.0692107849635866 -0.0697117002429657 0.2562602 -0.7742319 -0.5787017 51 51 51
0.019960365961867 0.0151695273014651 -0.0212668649312907 0.001257233 0.5425094 -0.8400488 67 67 67
-0.0469244422902635 0.00834301675208415 -0.024730693581156 -0.019506 0.5489625 -0.8356193 114 114 114
-0.00500758861758599 -0.0440860552168788 -0.059922887479544 -0.02890304 0.5482827 -0.8357934 89 89 89
-0.0498212097350477 0.0392087536100432 -0.00398943778640551 -0.02538405 0.5594656 -0.8284648 166 166 166
0.0186731260518027 0.0440733453248783 -0.00175203240162727 -0.01260907 0.5686891 -0.8224559 67 67 67
0.0181563038306589 -0.00388292025790549 -0.0335849662192794 -0.03084024 0.5577051 -0.829466 93 93 93
0.0302960496961813 0.0244344572999817 -0.0154794742502047 -0.01449952 0.5589041 -0.8291056 81 81 81
-0.0278406344811928 0.0494428432586602 0.0363204642876997 -0.8501593 0.4726043 0.2321082 75 75 75
-0.0792754492247003 -0.0137149909325769 -0.0197065597462061 -0.9662979 -0.1598506 -0.2017824 46 46 46
-0.0847976554394485 -0.00682161598422193 -0.00565242350045492 -0.9592288 -0.1375339 -0.2469099 51 51 51
0.0342587786819744 0.0897670391885479 0.0272444902434705 -0.04694451 0.5777435 -0.8148673 111 111 111
-0.092481576607129 -0.00406816116792175 0.016816023472242 -0.8550287 0.04025834 -0.5170157 53 53 53
-0.0147039758467782 0.0699253396933701 0.0157047962808703 -0.2488084 0.6741309 -0.6954436 143 143 143
0.00732012728497455 -0.0617517392186487 -0.0377939501296503 0.5694619 -0.803847 0.1718814 54 54 54
0.000312776074535837 0.0345754001251923 -0.00713259121776519 -0.02375503 0.5299843 -0.8476747 37 37 37
-0.0868876000480183 0.0172541218930495 -0.00177995072727238 -0.904714 0.4082801 0.1216547 62 62 62
0.0192404108860538 0.0550795964951853 0.00534681079544821 0.002611118 0.5445846 -0.8387018 175 175 175
-0.00620677570346428 -0.075597885267837 -0.0337907842791864 0.9136835 -0.1870492 -0.3608254 68 68 68
-0.016301168651031 0.0632726475366436 0.0441140960708492 -0.6765255 0.677714 0.2881266 42 42 42
0.0300310623096438 -0.0398814395584463 -0.0245091039977583 0.6040588 -0.7473035 0.2768582 57 57 57
0.0507150300654138 0.0774475390161711 0.0491270136224096 0.8220733 0.476292 0.3119958 91 91 91
0.0475791823917384 0.0405937178543629 -0.00485967352539438 -0.01113037 0.5601817 -0.828295 186 186 186
0.08049848503676 0.0451030814057036 0.0198008512208746 0.8235003 0.4867087 0.2914822 79 79 79
0.0193643023923369 -0.0234454437268313 -0.0473445194140057 -0.02200135 0.5342094 -0.8450658 93 93 93
0.0485181312872813 -0.0220557088800264 -0.0050981060209763 0.4996422 -0.8647239 0.05109112 44 44 44
-0.0618337021490967 -0.0591813725719643 -0.0539292174345359 -0.7934929 0.02000833 -0.6082506 82 82 82
-0.0438074646645621 -0.04073846878774 -0.0566826567046473 -0.01375463 0.5536588 -0.83263 112 112 112
0.0584412625038755 -0.018231625253873 -0.0234970372249956 0.6044438 -0.7703757 0.2029012 40 40 40
0.037694440137074 -0.0319697246343553 -0.0231520881161657 0.6369307 -0.7394806 0.2179168 47 47 47
-0.0792214839852632 -0.027459916432379 -0.0140009833619371 -0.9458292 -0.1556354 -0.2849296 71 71 71
0.00177725109680327 0.0518149816405951 0.0029839665689548 -0.01971696 0.5349459 -0.8446562 112 112 112
0.0146026727856454 -0.0243982612905594 -0.0469039226409652 -0.01741216 0.5505562 -0.8346165 79 79 79
0.0105218374943596 0.0553523617690672 0.00520172506044286 -0.01010133 0.5325945 -0.8463103 63 63 63
-0.0739489665927135 -0.0305477145448445 -0.0388859173931344 -0.9466682 -0.08881625 -0.3097272 84 84 84
-0.0146885708326612 0.0668912972522633 0.0391574178629313 -0.5939889 0.7628285 0.2554798 73 73 73
-0.0506994290179195 0.0447044608602467 -0.000284571287935131 -0.1973112 0.7439424 -0.6384496 53 53 53
-0.051535542324366 0.029275072597102 0.0225976786538135 -0.6037477 0.5919422 0.5339411 47 47 47
-0.028956789273926 0.0359738187501595 0.0462047340067228 -0.9059016 0.3586467 0.2251996 33 33 33
0.014683580026676 0.0870917598094867 0.047413091320916 -0.5868241 0.7561345 0.289652 21 21 21
-0.0064056777245356 0.0727804063779771 0.0369188855786293 -0.6746244 0.7037009 0.2229058 39 39 39
0.0220146967165307 0.0747309833578758 0.0179540920157221 -0.0008990181 0.575074 -0.8181009 170 170 170
-0.0804918318366108 -0.0201254979049628 -0.0136992858775742 -0.9350395 -0.1460436 -0.3230672 57 57 57
0.0628196068361644 -0.00290307859117289 0.0116852066357675 0.6274253 -0.7448319 0.227075 16 16 16
0.0771400377594502 0.0538215191797264 0.00893401580639436 0.7157652 0.6744232 -0.1812004 126 126 126
0.0659296662168167 -0.00268423754163949 0.00315899329480138 0.5342082 -0.791743 0.2962511 20 20 20
-0.0504160493077666 0.0178610343893553 -0.0181143156158637 -0.02822975 0.5588613 -0.8287805 176 176 176
0.0270329502934381 0.0554427244233502 0.00564697704878714 -0.04077977 0.5442402 -0.8379378 74 74 74
0.090931357596042 0.0325075025339856 0.0100714322217141 0.9376861 0.3452316 -0.03949558 168 168 168
0.0629954178020509 0.0549134596678504 0.0521030359368674 0.8272603 0.4554892 0.3288919 123 123 123
0.0176686451081587 -0.0191280302953153 -0.0440188982401799 -0.01308406 0.5507261 -0.8345835 21 21 21
-0.0243664684706613 0.057582930782766 0.0336531407302602 -0.839246 0.4824063 0.2508988 34 34 34
-0.0586339664019664 -0.0788029399695621 -0.0488762855132902 -0.8471668 -0.214424 -0.4861386 43 43 43
-0.0771150016843207 -0.0261737246671343 -0.0214337552703887 -0.9729673 -0.1659274 -0.1606322 31 31 31
0.0805868251913229 0.0229722234442475 -0.0062778192160681 0.6551154 -0.1611636 -0.7381397 16 16 16
0.00438630602402768 0.0422318807074649 -0.00297236705337892 -0.02142612 0.5550191 -0.8315616 123 123 123
0.00964024457779167 -0.0603133083448724 -0.0469260796888371 0.7763795 -0.6293529 -0.03390806 31 31 31
0.0658026809135386 0.0521209313739144 0.0488192189370167 0.8128299 0.4718791 0.3415226 87 87 87
-0.05879177886988 0.0232470999038557 -0.0143940594349458 0.004327863 0.5632477 -0.8262767 128 128 128
-0.037973578153591 -0.00350544630626215 -0.0324750308022705 -0.004215834 0.5537258 -0.8326884 130 130 130
-0.0750940327307548 0.025396173183545 -0.000533358627921615 -0.5904686 0.7341805 0.3351505 61 61 61
0.0615912651724708 -0.00413053457228152 0.00621788611621965 0.6160263 -0.7630743 0.1955228 25 25 25
0.0219716018017229 -0.0440744416567751 -0.0604740012170642 0.337799 0.05357606 -0.9396922 90 90 90
-0.0752519810406065 -0.03729721433373 -0.0207426516458916 -0.9445094 -0.228792 -0.2357036 43 43 43
0.0165145163945282 0.0577284570559231 0.00685634999749146 0.01256772 0.5393441 -0.8419917 55 55 55
-0.0409131625976187 0.00988786095059324 -0.0236762976583695 -0.02835893 0.5598888 -0.8280823 175 175 175
0.0864369312756197 0.0405095050514244 0.0107549262509613 0.8270025 0.4870813 0.2807465 103 103 103
0.0450812204474802 -0.0251706333586489 -0.0185016807260737 0.6660047 -0.7287742 0.1591411 35 35 35
-0.0109272194984575 0.0375478010195867 -0.00598895499752317 -0.006752983 0.5456517 -0.8379849 61 61 61
0.037065551443539 0.0329460283339909 -0.00978981236687695 0.004385883 0.5289326 -0.8486525 99 99 99
-0.0201960533706789 -0.070156411552347 -0.0651992096909646 0.2991868 -0.8199019 -0.4881066 19 19 19
0.0461813011268333 -0.0236778542504538 -0.00947445691056356 0.614304 -0.7865556 0.06293572 20 20 20
0.0104320249208212 0.00836276688107473 -0.0254799210389475 -0.001838788 0.5202467 -0.854014 84 84 84
-0.0790619673123749 0.00778086637265463 0.0242999800777318 -0.3699732 0.8247298 0.4277156 31 31 31
-0.0613724351991058 0.0221322439238103 0.0185145451541217 -0.593147 0.6020085 0.5345676 31 31 31
0.0084453137856908 0.0855383416389051 0.0344946706181577 -0.6112453 0.7785618 0.1421992 56 56 56
-0.0273062900907466 -0.0493941670848436 -0.0631485658153094 -0.02479032 0.5420471 -0.8399824 173 173 173
-0.0259230715699388 0.00981310080994158 -0.0238472624804029 -0.005070497 0.5603426 -0.8282454 15 15 15
0.00925209163500251 0.0806339258423487 0.0577601414598893 -0.6802355 0.6905864 0.2457033 53 53 53
0.0436659721702375 0.0942402256760124 0.0412020157093294 0.7253254 0.630213 0.2770102 77 77 77
0.0517597928922091 -0.00999572152511097 -0.0379167153875489 0.3128031 0.3827777 -0.8692729 86 86 86
-0.0146517591838704 -0.0635421622170407 -0.072568835479836 0.217175 -0.1970182 -0.9560433 84 84 84
0.0535173546138699 -0.0185370953816509 -0.00807378491411465 0.6357938 -0.7688426 -0.06817165 21 21 21
0.0158223655885659 0.0809625357978911 0.0717633857390358 -0.625396 0.6597014 0.4167421 95 95 95
0.00370299451907941 0.0800040430806275 0.0222092288074925 -0.2509402 0.6826345 -0.6863229 115 115 115
0.0613629025857121 0.0721618990861228 0.0154293212775819 0.1955559 0.7290124 -0.6559717 147 147 147
0.0461807582708491 -0.0256306438825978 -0.0227251957836455 0.5711035 -0.7832853 0.2455709 41 41 41
0.00519645414666536 -0.0627749858172986 -0.024012213771203 0.6841301 -0.713259 -0.1524065 51 51 51
0.0117029798817776 -0.056831558343686 -0.0280432502404165 0.6395661 -0.7600588 0.115178 22 22 22
0.0298112304432001 0.078799100088921 0.0206270955730627 -0.01863693 0.5473553 -0.8366928 109 109 109
-0.0406501562925006 0.0394151558053388 0.0247849194933225 -0.6039808 0.5681955 0.5588927 29 29 29
-0.0421289599440928 -0.0335434592260043 -0.0523960978100599 -0.02446061 0.5470438 -0.8367465 114 114 114
0.0079502537595002 -0.0251237642982038 -0.0480550911052708 -0.02004931 0.5430158 -0.8394831 125 125 125
0.0314218437451692 0.0524726014724595 0.00288200291635313 -0.04449831 0.5607713 -0.8267741 102 102 102
0.0484280945049205 -0.00267617538015497 -0.0339891204952419 -0.02351659 0.5683399 -0.8224577 166 166 166
0.00326980931925491 -0.023358245026977 -0.0463541110227593 -0.00359507 0.5422557 -0.8402058 181 181 181
-0.0599114885285272 -0.00261216047597779 -0.0310106780148603 -0.005328706 0.5470951 -0.8370535 93 93 93
-0.035663963621156 -0.086036797323231 -0.0528205178494481 0.3432532 -0.7861906 -0.5138886 75 75 75
0.0415594992140846 0.0830214135722371 0.0229124702477736 -0.02477978 0.5383574 -0.8423522 131 131 131
-0.0264155793025613 0.0271186131841934 -0.0121508106803638 -0.01395012 0.5376294 -0.8430659 96 96 96
0.0186938007009652 -0.053275890632412 -0.0375450696903256 0.6515386 -0.7577417 -0.0364005 43 43 43
0.0229443439035468 -0.0185558656265452 -0.0437853406780916 -0.03643889 0.5513532 -0.8334758 93 93 93
-0.0197451996058202 0.0585684538933089 0.0481527259880626 -0.7324191 0.6562861 0.1812476 67 67 67
0.0583871822830024 0.0638680746816513 0.0101818447678787 -0.02944938 0.5531934 -0.8325322 69 69 69
0.0840901158545324 0.0457970172824591 0.00900944828891762 0.8245078 0.5196612 0.2239178 107 107 107
-0.0466340307283204 -0.0457283657496463 -0.0600880904113454 0.002520377 0.5418583 -0.840466 125 125 125
0.0526405375444341 0.0375490065367776 -0.00732911924946478 -0.03770287 0.5670474 -0.8228219 98 98 98
0.0254921468392073 -0.0435691569137963 -0.0409054162099696 0.6510029 -0.7362952 -0.1845656 50 50 50
0.0417245219496207 -0.0244531173628663 0.00366275660378301 0.7385624 -0.6740887 -0.01140675 13 13 13
-0.0365064905196122 0.0299178664116393 0.0420491118520695 -0.6912215 0.5827268 0.4273666 16 16 16
0.0604152274873393 0.0462093323464057 -0.00162393537758754 -0.02214227 0.5404966 -0.8410547 75 75 75
0.0538285171978119 0.0269585861961659 -0.0142840167162105 -0.007277824 0.5772404 -0.8165418 169 169 169
-0.0229000414646157 0.0566492225302799 0.0387081526023609 -0.8411195 0.484243 0.2408872 31 31 31
-0.0668571963463622 -0.0549986625024076 -0.0483267979250798 -0.7717039 -0.01906487 -0.6356962 69 69 69
-0.0693881869364503 -0.067911446664895 -0.0296780524734393 -0.9726198 -0.1687959 -0.159746 44 44 44
-0.024657537624688 0.0521521245834742 0.0421970284212622 -0.8515101 0.4947845 0.1735478 59 59 59
-0.0535377404488107 -0.0661862446149862 -0.0653925766111985 -0.8536817 -0.09840785 -0.5114131 96 96 96
-0.0709950188460089 -0.0554782966501542 -0.0309374614462319 -0.9772201 -0.06099679 -0.203274 69 69 69
-0.0129205741936533 0.0585419299062673 0.00854509975990103 -0.03550555 0.5720065 -0.8194802 46 46 46
0.0459221661916904 0.00881814401008651 -0.026051010581764 -0.03435466 0.5337654 -0.8449345 134 134 134
0.035861143440834 -0.0348925195266274 -0.0243306361339118 0.6924333 -0.6600127 0.2914094 36 36 36
-0.0492290916565803 0.0431573721805962 0.0119193708915647 -0.6352107 0.581996 0.5077283 31 31 31
-0.0149778368270721 -0.0775032711588438 -0.050155749102599 0.3251468 -0.8218257 -0.4678484 48 48 48
8.64527434218942E-06 -0.064247657445572 -0.0622548485964304 0.4116685 -0.6901523 -0.5951628 50 50 50
-0.0359862675309639 -0.0682889524938797 -0.075090206317675 0.1771332 -0.04332808 -0.9832327 147 147 147
0.0690484167681022 0.0113586184074675 -0.0202462997157752 0.8531421 0.08518478 -0.5146767 127 127 127
0.0156007204731172 -0.055177178391989 -0.0170245184921005 0.8252317 -0.5505103 -0.1262184 32 32 32
-0.076948208911455 0.00994648329112147 0.0217735329115022 -0.3616718 0.8115579 0.4588761 27 27 27
0.0768363707645152 0.0369941170821677 -0.00778463214676089 0.220667 0.5077341 -0.8327738 37 37 37
0.037010448163403 0.0834105424290446 0.0232666109551039 -0.0237259 0.5276617 -0.8491232 141 141 141
-0.0799614221720084 -0.0266416035469819 -0.0114545366267185 -0.9285211 -0.1732774 -0.3283649 87 87 87
-0.0596374380804245 -0.0184776485052283 -0.0417981560343859 -0.01549079 0.547339 -0.8367677 191 191 191
0.0682662324193275 0.0528888159375196 0.0409039587745503 0.8296446 0.4906878 0.2662994 26 26 26
0.0197005607164085 -0.033872526575198 -0.053524250932885 -0.009785086 0.5613411 -0.8275267 149 149 149
0.0515935391895821 0.042867068297445 -0.00366492467562191 -0.01596867 0.5398315 -0.8416216 79 79 79
-0.0395649998589818 0.0347303257300691 0.0304861813596895 -0.5483678 0.6398149 0.5384513 30 30 30
0.0191639449375671 -0.0114810487701056 -0.038921172961123 -0.007822114 0.5634943 -0.8260829 193 193 193
0.0801132452778945 0.0484987515025734 0.0152449454670857 0.827826 0.4689289 0.3079119 66 66 66
0.0448885308718359 0.0851568634063091 0.0519621508006807 0.8212051 0.490775 0.2911392 99 99 99
-0.0497244267088977 0.0443344484687316 0.0101802669196286 -0.6731073 0.583324 0.4545984 17 17 17
0.0251453153437424 0.0776111786290965 0.020149820082377 -0.02946129 0.5437321 -0.8387415 56 56 56
-0.0306196865719328 -0.0297547309951793 -0.0499214534189812 -0.02769575 0.5410444 -0.8405378 85 85 85
0.00439692138558856 0.081450236981468 0.0318018656237436 -0.6698871 0.7218258 0.1738358 50 50 50
0.0338648728965421 -0.033708116248317 -0.0541689635821099 0.1950152 0.41014 -0.8909289 180 180 180
-0.0132620191892128 0.0312654997791906 -0.0100126024983899 -0.01973746 0.5585962 -0.8292049 81 81 81
-0.0495877517210344 0.000874413585011169 -0.0291907103718522 -0.02224706 0.5524092 -0.8332762 178 178 178
0.0067087638921266 -0.000771755012071607 -0.0316604916795796 -0.008450164 0.5262022 -0.8503175 68 68 68
0.0588524741644267 0.0567754838380488 0.0054385283610445 -0.03162901 0.5461633 -0.8370814 96 96 96
-0.0907308053865816 0.00154006679016094 0.016041508160057 -0.9039903 0.1928939 -0.3815671 66 66 66
0.0835441163081014 0.0245340849899311 0.0292783124067849 0.7609656 -0.6083089 0.2255918 19 19 19
-0.0641188951548368 -0.0798815068767328 -0.0366788036195296 -0.8865657 -0.3109726 -0.3424869 45 45 45
0.0370078700623588 0.0597338803283611 0.0074197402420054 0.01862549 0.5652407 -0.8247157 129 129 129
-0.0854337738163911 -5.48020531055959E-05 0.00255263766916464 -0.984381 -0.07978851 -0.156933 69 69 69
0.0373416440857393 0.0881834082376685 0.0690967447137108 0.8407581 0.4595141 0.2863086 120 120 120
0.0634607218446079 -0.0027779612693053 -0.0283576749967174 0.7570059 0.08461769 -0.6479058 64 64 64
0.0140920270322571 0.0799039994983015 0.0688837259760986 -0.656756 0.6717708 0.3426303 64 64 64
-0.0430072280826759 -0.055656382999412 -0.0667348120483892 -0.01624504 0.5843706 -0.8113242 81 81 81
0.0139006183087833 -0.0141344331080641 -0.0406763403393945 -0.02863663 0.5566118 -0.8302791 219 219 219
-0.0869228118621328 0.00625238605210721 -0.00234444367181139 -0.9875509 -0.1499138 -0.04763633 29 29 29
-0.0272626033864816 -0.0575843006732765 -0.0686743334761053 -0.02656581 0.5492304 -0.8352486 94 94 94
-0.0429154606745403 0.0248381932388533 0.0388929298733625 -0.5707476 0.6505032 0.5010917 29 29 29
-0.052728760256266 -0.060609258629802 -0.0676132184883965 -0.6793257 0.03426287 -0.7330366 90 90 90
0.0383745602417278 0.0862245132451707 0.0694801899677323 0.841525 0.460138 0.2830347 54 54 54
-0.064626987102516 0.0360596272924716 -0.00566364323421309 -0.257065 0.7760369 -0.5759203 105 105 105
-0.033495798697093 0.0232879469796863 -0.0147749707935171 -0.003365959 0.5479645 -0.8364949 192 192 192
-0.064753730945911 -0.0663604921342371 -0.046578911676703 -0.8972071 -0.2837981 -0.3383461 30 30 30
0.0388247949434422 0.0909246983249163 0.027817308493411 -0.01413294 0.5557457 -0.8312322 127 127 127
-0.0683098212225428 -0.0665603721155605 -0.0316481172270722 -0.9574289 -0.220478 -0.1863313 26 26 26
0.0521495251571324 0.0342079808397315 -0.00944966116895898 -0.01216022 0.5099414 -0.8601232 128 128 128
-0.0560861948518967 -0.0867319512598261 -0.0505040334228293 -0.9015825 -0.2076927 -0.3794902 28 28 28
-0.073672608332995 1.57207208630883E-05 -0.0291645869078625 -0.0724607 0.5498222 -0.8321328 179 179 179
0.0453993210661094 -0.0264599139821838 -0.0236167622659686 0.5737871 -0.7949581 0.1970028 39 39 39
-0.0462517673638956 -0.0421604077823693 -0.0575621073126585 -0.003718476 0.5553557 -0.8316046 145 145 145
-0.0689971566423073 -0.0719374182963455 -0.0234179882855949 -0.9743268 -0.174488 -0.1422715 30 30 30
0.0359055137118587 0.0911442845667891 0.068615677089927 0.5393096 0.7745121 0.3305695 70 70 70
0.0146341203120459 -0.0561340245288428 -0.0155374279252459 0.8188185 -0.5410227 -0.1919134 72 72 72
0.0271609894455636 0.0909968554284599 0.028616012078924 -0.01373912 0.5624579 -0.8267117 136 136 136
-0.00372270839880273 -0.0304200654426453 -0.0511050302588331 -0.008379657 0.5416769 -0.840545 51 51 51
0.0482633051325503 0.0751345221254498 0.0606333324625223 0.8127196 0.4713263 0.3425469 94 94 94
0.02513158424189 -0.0454227164592563 -0.0521812205679073 0.5475394 -0.8351955 0.05146916 71 71 71
0.0384217402012745 -0.0355123434078034 -0.0518387177710029 0.8160293 -0.5242199 -0.2434949 119 119 119
-0.0149239635467442 -0.0763106625304717 -0.0520177343896047 0.3373977 -0.835246 -0.4341969 60 60 60
-0.0407378716493956 0.0205940545510428 -0.0163487232203971 0.00275543 0.5583329 -0.8296124 163 163 163
-0.0211832021901077 0.0646680964820847 0.0278206004219052 -0.7161572 0.6868954 0.123667 63 63 63
-0.00531402812584059 0.0746521129514939 0.0375844686468993 -0.6725431 0.7114769 0.2036823 43 43 43
-0.0671756281809512 -0.0764643182413822 -0.0308615814572233 -0.9549469 -0.2088253 -0.2108755 26 26 26
-0.00362649168224016 0.00845917552408282 -0.0255435409706082 -0.0005395398 0.5446581 -0.838658 79 79 79
-0.0427693579171826 0.0372699372735352 0.0246823153098158 -0.6181762 0.5695137 0.5417677 40 40 40
0.0259214819516835 -0.0470512354398256 -0.0354982038065401 0.7768615 -0.6139329 -0.1399021 46 46 46
0.0673580363275101 0.00522439935901375 -0.0227729467985378 0.8355736 0.02857305 -0.5486349 59 59 59
0.0483233601067365 0.0702016038694013 0.067133584482159 0.81882 0.4989274 0.2839107 32 32 32
0.0611027473293775 -0.0157975984664475 -0.0251886470568191 0.7077023 -0.7065082 0.0018826 45 45 45
0.022405939458864 0.0879760018655393 0.0608895553763659 -0.4018911 0.9072179 0.1242551 53 53 53
0.0276062261704024 0.0931306573726225 0.0491330342190574 -0.5367774 0.8435289 0.01813934 69 69 69
0.0253513122465037 0.0122438214937557 -0.0232873657873692 0.006862043 0.5474255 -0.8368263 141 141 141
0.0447287149642932 -0.0283873561551027 -0.0447235960621439 0.7900363 -0.4893158 -0.369341 73 73 73
0.0389104654367942 0.0794796412975531 0.0210739936517077 -0.03950962 0.5641316 -0.824739 132 132 132
0.0733972321462246 0.0069114188207583 0.0178402776079266 0.6759347 -0.6839237 0.2745189 16 16 16
0.0172113342754312 0.0839626141008469 0.0668905664268952 -0.6439014 0.7281207 0.2350131 68 68 68
-0.0603563569618217 0.0160774337218514 0.0328626011724999 -0.53776 0.7782822 0.3241775 43 43 43
-0.0105607020251053 -0.0477343804498246 -0.0620028097850814 -0.006628504 0.5520806 -0.8337644 170 170 170
0.0863021240776343 0.0225100363176887 0.0138251791887779 0.5933826 -0.7492354 0.2941827 43 43 43
0.00872843638391818 -0.0609851022252542 -0.0450628242169236 0.6679642 -0.7441348 0.009337473 50 50 50
-0.0332950589979404 0.0363446478647045 -0.00580612351609675 -0.00525733 0.555071 -0.8317864 132 132 132
0.0221252649629518 -0.0468325720509322 -0.0524496891200552 0.5382053 -0.8415638 0.04588482 76 76 76
-0.0460550135114708 -0.00927927574042875 -0.0362659162283745 -0.0256482 0.5539683 -0.8321426 187 187 187
-0.0228089119797772 -0.0603269802693857 -0.07046072766916 -0.01210055 0.4873289 -0.8731346 106 106 106
0.0483847300075479 0.0245076718448567 -0.0156955855249639 -0.03459163 0.5517509 -0.8332913 122 122 122
0.0512002109441849 -0.0191342367363683 -0.00792203346704248 0.6244538 -0.7653563 -0.1558431 28 28 28
-0.0413307645790546 -0.0585625698332645 -0.0683545129644587 -0.0141362 0.5706386 -0.8210797 63 63 63
0.0819609757998621 0.025417607792608 0.0352408334649391 0.8033403 -0.484686 0.3460115 24 24 24
0.0541332463228343 -0.0203843912428079 -0.0426027820693109 0.7472177 -0.1157772 -0.6544167 33 33 33
0.0736192810835015 0.0578607187903533 0.00996836936872247 0.6495028 0.6525664 -0.3902605 18 18 18
-0.0398008738515185 0.0556105869842027 0.00811427141416646 -0.4321844 0.8293189 -0.3541846 76 76 76
0.0476252041592955 0.0779850755458118 0.0581739553917095 0.8311027 0.47089 0.2958561 83 83 83
-0.0593911834258898 -0.0191856595405659 -0.0425720529992908 -0.01521286 0.549714 -0.8352144 170 170 170
0.0699447417039687 0.00932677440645058 -0.017813144272864 0.8421345 0.018954 -0.5389344 83 83 83
-0.0287955843566317 -0.0519399239257088 -0.0645799615258853 -0.02415696 0.5412465 -0.8405169 118 118 118
0.0765141907347942 0.0112503207670922 0.0187328067915724 0.8149418 -0.5233968 0.2488486 25 25 25
-0.0273889710777002 -0.00982874795290534 -0.0368125693449767 0.002793733 0.533892 -0.8455481 114 114 114
0.000806923879924204 0.0785781677308435 0.0345800218527063 -0.5682791 0.8222504 -0.03103484 68 68 68
0.069573029648194 0.00128562789308151 0.00550097628378549 0.607983 -0.7462186 0.2711356 30 30 30
-0.00723035909192582 -0.0757041393565401 -0.0477074788480397 0.5498002 -0.8129724 -0.1918219 61 61 61
0.0615364154080598 0.0454615677642924 -0.00212755720220206 -0.01340972 0.5360669 -0.844069 82 82 82
0.076192168520961 0.0113592163622802 0.019573176886094 0.8103914 -0.5315413 0.2464337 17 17 17
0.0867047141410122 0.0415171954314744 0.0033336246366043 0.8755988 0.3612917 -0.3206166 80 80 80
0.0570371013369175 -0.0193921872136514 -0.0361572355676952 0.785278 -0.4752825 -0.3967934 125 125 125
0.0322824414884453 0.0907175340228736 0.073853106491174 0.05300104 0.9437926 0.3262611 86 86 86
-0.0756372529282003 -0.0498921661299605 -0.0142622235172277 -0.9659427 -0.1969587 -0.1678155 27 27 27
-0.0166364835106103 -0.0238767869878953 -0.046220175363893 -0.02849246 0.5597378 -0.8281798 47 47 47
0.0567471113453779 0.0414927377985663 -0.00472602323306298 -0.005362609 0.5421025 -0.8402953 127 127 127
0.0454966355019271 0.0754986008534404 0.0661470990534514 0.8270649 0.4808714 0.2910779 38 38 38
0.0395352568807459 0.0898512051990983 0.0602403929605 0.8282029 0.4583763 0.3224455 62 62 62
0.0389952038836661 0.0575952329146545 0.00633694568823936 0.01732239 0.5467505 -0.8371164 154 154 154
-0.0205202682553258 0.0651401360924393 0.0257490289910961 -0.7038723 0.7045017 0.09078103 72 72 72
-0.00176830014767981 0.0688046382094654 0.0572399300950828 -0.5464636 0.8211835 0.1644239 47 47 47
-0.0815320111978788 0.0209890084617137 0.000561088312480806 -0.5233903 0.7757747 0.3524717 39 39 39
-0.0246519669679084 0.0517872416848413 0.00411241057131159 -0.0144101 0.551595 -0.8339875 216 216 216
-0.0285091287998678 0.0313407993513453 -0.0093764657124015 0.0009989156 0.5393254 -0.8420969 235 235 235
-0.0311675648662686 0.0387070708354638 0.039892425723708 -0.8871815 0.3197894 0.3326316 60 60 60
-0.0120422934202296 0.0227584566069967 -0.0154566491639203 -0.03455768 0.5609953 -0.8270974 215 215 215
0.0205265832244155 -0.0514566166887795 -0.0373507781036251 0.621277 -0.7666764 -0.1619327 57 57 57
0.0445389702207124 0.043852225423189 -0.00268909094953196 -0.009450101 0.5512383 -0.8342943 114 114 114
0.0249561198090493 -0.0447079493907931 -0.0401441812889742 0.6988119 -0.6582077 -0.280044 86 86 86
-0.0456618940246569 -0.0224762690467039 -0.0449129556541092 -0.0126873 0.5405896 -0.8411908 132 132 132
-0.00099228572877319 -0.0207201797808199 -0.0448406490642106 -0.0314601 0.5490881 -0.8351722 224 224 224
-0.0394435501426345 -0.0374453124784815 -0.0548480958921906 -0.02780981 0.5319625 -0.8463111 143 143 143
0.0380762393473761 0.0727358853991873 0.016387847516251 0.003229242 0.546024 -0.8377633 163 163 163
0.046695065031072 0.040336634469077 -0.00515321860896159 -0.0007488832 0.5607702 -0.8279712 117 117 117
0.0272890851894392 0.0808305678440278 0.0218817684157741 -0.03732417 0.5613805 -0.8267157 185 185 185
0.0512281093718303 0.0727049382196858 0.0556792605788366 0.8288282 0.4751447 0.2954343 57 57 57
0.0515561312510326 0.0765365784586365 0.0495927699406692 0.8227505 0.4790627 0.3059092 74 74 74
-0.0246514926480992 -0.0790302592789905 -0.0552252176391994 0.4255893 -0.7637529 -0.4853403 56 56 56
0.0633052160287371 -0.00168582210136403 -0.0287721205473805 0.726275 0.06698383 -0.6841329 53 53 53
0.0329503994879523 -0.031975924351253 -0.0010363357035717 0.7071728 -0.7029758 0.07570823 21 21 21
-0.0433801762136783 0.0469291118293862 0.000613220872806602 -0.1032612 0.5781665 -0.8093582 56 56 56
0.0121882506297535 0.000882526712200682 -0.0304148370837649 -0.01660571 0.5331909 -0.845832 179 179 179
-0.03920636465892 0.0332969971805717 0.0323890702276042 -0.559018 0.6331009 0.535427 31 31 31
-0.0170439358687573 -0.0700615780329765 -0.0648486864404277 0.3461943 -0.8248817 -0.4469 40 40 40
-0.0407889647921893 -0.091659721221775 -0.0480323155158789 0.4342611 -0.7985457 -0.4168238 32 32 32
-0.0540031543924651 -0.0804048974843516 -0.0572665453640035 -0.8864434 -0.0910016 -0.4538026 63 63 63
-0.00182528704046891 -0.0564448449534631 -0.0683496992243099 0.1780596 0.07804149 -0.9809201 82 82 82
-0.0605832644457032 0.0153187465669447 -0.0198488895303759 -0.01407108 0.5495417 -0.8353478 195 195 195
0.015906530068958 -0.0533082444703438 -0.0141331946216387 0.8633627 -0.5036547 -0.03060645 35 35 35
-0.0121897919016705 0.0477291444918602 0.000852706469337688 -0.03788688 0.5588394 -0.82841 215 215 215
0.0591979177253732 -0.00638971886959461 0.00887793488657826 0.6067053 -0.7589118 0.236562 12 12 12
-0.0562250869441314 -0.0880782673889615 -0.0488739753658219 -0.9146646 -0.2287059 -0.3332902 40 40 40
-0.0449786375429775 0.0250739858141638 -0.0136844642704692 -0.02732008 0.5391022 -0.8417972 155 155 155
0.0580126129569771 -0.00833627776283685 0.00684300242740596 0.5869719 -0.7703533 0.2490378 17 17 17
0.0620083481044456 0.0585226449686376 0.0479880369050052 0.8164597 0.492666 0.301121 44 44 44
-0.0541765869143871 -0.0762617639021937 -0.057380032326084 -0.8760554 -0.2262828 -0.4258203 58 58 58
0.0185374205505 0.0914092814343972 0.0442364893654094 -0.3253741 0.9326124 0.1560958 52 52 52
-0.0671515771377507 -0.0316098038486471 -0.0493214634320628 -0.5272839 0.1809411 -0.8302 62 62 62
0.00837979407720169 0.0366048672837338 -0.00706590473011146 -0.06113369 0.5482587 -0.8340714 88 88 88
0.0735006118031476 0.00451567726171243 -0.0126176901174129 0.7142805 -0.1000432 -0.6926721 75 75 75
0.0326423126749307 -0.0396734671445079 -0.0358861334008531 0.5834882 -0.7896569 -0.1896933 33 33 33
0.061821438958265 0.00927960735555566 -0.0263590216218007 0.1283496 0.5271754 -0.8400074 153 153 153
0.068038547184093 0.00204935883884616 0.0119811295419938 0.5559298 -0.8052473 0.2062008 27 27 27
-0.0498617487087138 -0.0444289411864623 -0.0592741133243593 -0.02272611 0.5556186 -0.8311266 132 132 132
0.0304859180612858 0.0728543621285265 0.0159275486356571 -0.04682472 0.5471594 -0.8357177 123 123 123
0.0329807788471177 -0.0384364062638821 -0.0441202022470624 0.526355 -0.8476769 -0.06628929 44 44 44
0.0207457763285894 -0.0471781900172213 -0.0178639050756524 0.7697951 -0.6328515 0.08315354 24 24 24
0.0388118424921118 0.0504069103988323 0.00176114957947082 -0.006694795 0.5693288 -0.8220826 84 84 84
-0.029360931852954 -0.0296699369396644 -0.0503284776102598 -0.03481199 0.5392587 -0.8414204 41 41 41
-0.0308360857635579 -0.00576316581069425 -0.0339418589722596 -0.01901272 0.5563467 -0.8307327 112 112 112
-0.0702467930183375 0.0209693549671388 0.0121530329640641 -0.5227882 0.6265209 0.5780693 35 35 35
0.0729140307880973 0.0119628693665426 0.0268817913824275 0.6437572 -0.6743771 0.3616519 13 13 13
0.0332897706871551 -0.0414189641086739 -0.0351491925990993 0.5977165 -0.7850965 -0.1623528 63 63 63
0.0218619613235176 -0.047331234948131 -0.0421155071293204 0.7414209 -0.6242664 -0.2461434 55 55 55
0.0772274525667662 0.0516921212963677 0.0182903849164062 0.8253275 0.4754156 0.3046548 121 121 121
0.076412751422235 0.0444892737439444 0.0315895329862187 0.8135356 0.4928452 0.3086478 75 75 75
-0.0382485984936771 -0.00492772298921607 -0.0332971187344527 -0.00515382 0.5571641 -0.8303864 133 133 133
0.0790691436803177 0.0167503121258834 -0.00768279925483215 0.8157544 0.05187891 -0.5760671 64 64 64
0.047675654472314 -0.0263112546827562 -0.0325664535210152 0.5338318 -0.8402547 0.09484528 48 48 48
0.0533052466399688 0.0682857177240375 0.0131414717822549 -0.01385672 0.5803364 -0.814259 60 60 60
-0.0690947637761936 -0.0593527146716819 -0.0409543181313287 -0.9435815 -0.3134181 -0.1068791 13 13 13
0.0667171719083346 0.0290287865313834 -0.0127591704313593 -0.001485134 0.5375311 -0.8432426 77 77 77
0.0275432356161371 -0.0417438336903166 -0.0585997949756586 0.4677565 -0.0619784 -0.8816817 83 83 83
0.0573219594925301 0.00526084064313959 -0.0287958684755309 0.02461527 0.5334616 -0.845466 180 180 180
-0.00527645275401989 0.00665198269199907 -0.0263325061936476 -0.004998909 0.5170918 -0.8559154 88 88 88
-0.0543965724858293 0.000254978540577766 -0.0296794115204142 -0.03227081 0.5365101 -0.8432766 80 80 80
0.0634990448108343 0.0723559995260352 0.0197807764740678 0.7226629 0.6902793 -0.03567694 86 86 86
0.0270812653529433 0.0925464351407115 0.0500343095583927 -0.537666 0.8428407 0.02312795 47 47 47
0.0392136133137881 0.0893208011318152 0.061979542147661 0.8229746 0.4750914 0.3114498 61 61 61
-0.0118554664914874 -0.0836682385307372 -0.0368399862246881 0.456986 -0.7982674 -0.392343 54 54 54
0.0572917973049516 0.0227974614326956 -0.0171714718185336 -0.03231661 0.5574579 -0.829576 70 70 70
0.00224542845400899 0.0818419277241411 0.0385447161560921 -0.5866305 0.8084432 0.04779287 94 94 94
0.0647314760379099 0.0304273954772729 -0.0118985359552347 -0.01372059 0.5524142 -0.8334569 63 63 63
0.0184702136145733 0.0627188766043949 0.00978065177819115 -0.01806473 0.5435008 -0.8392142 103 103 103
0.0195289970415093 0.0939138318723698 0.0310533874335436 -0.294453 0.7688619 -0.5675815 98 98 98
-0.0485378160046257 -0.0854889023885597 -0.0623216755091325 0.00495802 -0.7397596 -0.672853 105 105 105
0.0115975172828626 -0.0582214921624968 -0.0534001259880512 0.8697208 -0.3840395 -0.3099989 84 84 84
-0.00800912738384163 -0.0727075435566836 -0.054021272812013 0.3166383 -0.8437954 -0.4333008 38 38 38
0.00567867307330516 -0.0499261816252318 -0.0639485811679755 0.03242813 0.4996623 -0.8656131 147 147 147
0.0312589413172466 -0.0336921918149398 -0.00577708512010419 0.710893 -0.6947402 0.1093941 16 16 16
0.0413625291099751 -0.020753250329588 -0.0454294416183853 0.05680197 0.5549503 -0.829942 136 136 136
0.0345844576712537 0.0393949517333163 -0.00608670670090361 -0.02101163 0.5635279 -0.8258297 120 120 120
-0.0133952184651931 -0.0773273073270988 -0.048849506789793 0.3394468 -0.8242149 -0.4532611 46 46 46
0.0583433224452061 -0.0191900454825994 -0.0250772976733236 0.6239742 -0.779774 0.05107476 44 44 44
0.00718730936542844 -0.0596006254704916 -0.0263645825279137 0.7061343 -0.7077742 -0.02073801 93 93 93
-0.0559003208442941 -0.032689443223058 -0.0513007500463758 -0.001979907 0.5507458 -0.8346707 178 178 178
