ply
format ascii 1.0
comment File exported by Rhinoceros Version 7.0
element vertex 473
property float x
property float y
property float z
property float nx
property float ny
property float nz
property uchar red
property uchar green
property uchar blue
end_header
0.0135737385974833 0.0517067783362919 -0.00694213404730298 0.4641686 0.8379452 -0.2870459 124 124 124
0.0106059339271495 -0.0539203710071987 0.0146321098558571 -0.1817085 -0.446894 0.8759382 102 102 102
0.0500731643663356 0.0320659749991948 0.00261900231763385 0.4308656 0.8870162 -0.1660029 72 72 72
0.01755982901916 0.0042053037173802 0.0242508690111305 -0.01050017 0.100177 0.9949142 72 72 72
0.0376946952568004 0.00638093285632674 0.0263744632951882 -0.1242387 0.2214344 0.9672288 154 154 154
-0.00397188696995288 -0.0573151237480586 0.00887197658940814 -0.2288688 -0.3386444 0.912655 113 113 113
0.0477564659343669 -0.0281178183071559 -0.0150508393295143 0.7736377 -0.6304048 -0.063832 82 82 82
0.033061298392863 -0.0469848937504238 0.00668576762601397 0.7979858 -0.6026284 0.007601085 54 54 54
0.0140507098661372 0.0514108710773045 -0.00518410995081403 0.4735661 0.8374023 -0.2729332 118 118 118
-0.0472964916004232 -0.0454137749187892 0.000962082599845149 -0.6415746 -0.6898488 0.3353962 39 39 39
0.0378854897247264 -0.0175886280052608 0.0311020056955483 -0.1313089 0.189961 0.9729711 75 75 75
-0.0227666917814305 -0.0722623295299953 -0.00546988442018964 -0.7552376 -0.6547819 0.02960959 40 40 40
0.0477280643211314 -0.0053934282772487 0.030469570612159 -0.1656982 0.2115606 0.9632166 116 116 116
-0.012545955516248 -0.0531062013618892 0.00857824489995501 -0.2005903 -0.3004155 0.9324774 70 70 70
-0.0392107341064504 -0.0545061654560512 -0.0101134140737388 -0.7376859 -0.6746932 0.02467197 69 69 69
-0.0101838234437993 0.00266777210307662 0.0256063084356453 -0.03926524 0.06687316 0.9969886 185 185 185
0.0632238563524196 0.0241045825965459 0.000422094320502497 0.5202869 0.7989817 -0.3015457 52 52 52
-0.0873618173970273 -0.00591034955906328 -0.00820338323191144 -0.9846519 -0.1179791 -0.1286145 90 90 90
0.0519401606546351 -0.0133918351643031 0.032636855100837 -0.1084539 0.1362518 0.9847199 92 92 92
0.0162992652879664 -0.055366945933575 0.0147558192960884 -0.05045498 -0.4994014 0.8649003 78 78 78
0.0537526186929652 0.0239565842635686 -0.0174817104585502 0.4991289 0.7930484 -0.3492057 90 90 90
0.0618156668172786 0.0122033827788884 0.0289200584642555 -0.1596458 0.2359115 0.9585713 119 119 119
-0.0662616464866689 -0.0039440817348903 0.00928935811444781 -0.2333892 -0.2564973 0.9379438 104 104 104
-0.0121825459970525 0.000159221220737138 0.0259545783750679 -0.02877424 0.01345279 0.9994954 145 145 145
-0.0106835040821126 0.0442563765533024 0.0272940735571053 -0.1927258 0.05210007 0.9798685 224 224 224
0.0376947101579616 -0.0403745300285762 0.00730517909451983 0.8001826 -0.5972793 -0.0544553 103 103 103
-0.0624459061397603 0.0104571156985814 0.014995161747184 -0.2421407 -0.3302917 0.9122912 208 208 208
0.0422145452724406 0.0337865226752812 -0.0104673166520927 0.504406 0.8272979 -0.2472908 94 94 94
0.0227042761074016 -0.0533553189747279 0.016287509655204 0.2090843 -0.6274213 0.7500842 104 104 104
-0.022323799468427 -0.0732771284096187 -0.0175739635475013 -0.7886087 -0.6148511 -0.007370518 100 100 100
0.0535822686181971 0.00454031162334029 0.0292528609983589 -0.1942651 0.2641111 0.9447256 84 84 84
0.0378536906467387 0.0276194088943059 0.0260031859628823 -0.02634526 -0.1774372 0.9837794 125 125 125
0.0748300727830836 0.00850935511661116 0.000980053400244929 0.93169 -0.3619964 0.03020548 69 69 69
-0.0614692542327931 -0.0268594748489803 0.00321337983533404 -0.3801775 -0.3806129 0.8429703 67 67 67
-0.0605153265966466 0.00855423741412703 0.0144125263445046 -0.2657774 -0.3274852 0.906706 137 137 137
0.00657820966109723 0.0443928711898381 0.0283623080007698 -0.04087271 -0.1727005 0.984126 133 133 133
-0.0292171213401845 -0.0532018966190761 0.00532067224904559 -0.1842428 -0.196507 0.9630367 201 201 201
-0.0681165281309178 -0.0249498612396663 -0.0108453144080971 -0.7150778 -0.6977217 0.04299159 66 66 66
0.0277010824905345 -0.0523495800011104 0.012094531511512 0.6695644 -0.7034167 0.2385131 103 103 103
-0.0453431877864888 -0.0473753339760249 -0.00495397641733625 -0.7143607 -0.6997238 0.008684042 64 64 64
0.00400409366950483 0.0511250370032841 0.0294599871389534 -0.1286627 0.01548812 0.9915674 134 134 134
-0.0437873724474004 -0.0494094318859523 -0.0111656744726036 -0.7301026 -0.683309 0.006244729 61 61 61
0.047279494665713 -0.0290367729179805 -0.0135502625949714 0.7717679 -0.6328745 -0.06200168 81 81 81
-0.0339868042244008 0.0403246157653386 0.010398302530494 -0.5310867 0.7397946 0.4130991 63 63 63
0.0598169442640254 0.00717352562022749 0.0298101942293312 -0.1597409 0.223469 0.9615324 74 74 74
-0.0385293636097005 0.0452623837478215 -0.0147418190486763 -0.3946909 0.9110568 0.1191415 106 106 106
0.0533664998041102 0.0322508090026433 0.0105792920343544 0.4120127 0.8844831 -0.218941 107 107 107
0.0677209969984004 -0.00343839592861589 -0.00908016755655744 0.7718959 -0.6357303 -0.004870522 36 36 36
0.0145049568639705 -0.00361405081676897 0.0257085900060799 -0.07979553 0.2045736 0.9755933 63 63 63
-0.00164381895199328 0.0576248639113957 -0.0112414021737907 0.3757819 0.8439035 -0.382903 117 117 117
-0.0221307400239995 -0.0585017330162471 0.00586375996991656 -0.1249908 -0.1382049 0.982485 97 97 97
-0.0213585022462895 -0.0746739930622524 -0.0120966394193504 -0.7725675 -0.6344903 0.02369698 41 41 41
0.0381489571557948 -0.0291750556938594 0.0313148538820412 -0.07300419 -0.3351947 0.9393162 92 92 92
0.0422826882825801 -0.00169788069652971 0.0288490693323281 -0.1270098 0.2038942 0.9707192 103 103 103
0.06796326007709 0.024481105137592 0.0213244597665932 0.8518715 0.4455903 0.275253 67 67 67
-0.0654515597595265 -0.0271793729774898 -0.00147595598772504 -0.7217594 -0.6900016 0.05441554 71 71 71
0.0396707084403941 0.00314380459857527 0.0276101569883492 -0.1032117 0.2313488 0.9673805 88 88 88
-0.0721328977121404 0.000975715447192826 0.00923332974835894 -0.2133224 -0.2661648 0.9400265 119 119 119
0.0663128074632594 -0.00622527069973405 0.00753042504712603 0.7939765 -0.6079063 -0.007155922 77 77 77
-0.0274682465566686 -0.0497664637081569 0.00655061409398577 -0.1910486 -0.2177341 0.9571271 132 132 132
0.032084661387057 -0.0472271866314357 0.00364140078946612 0.7983427 -0.5956309 -0.08872873 115 115 115
-0.0344183418525746 0.00649719171596114 0.0221377651445534 -0.2717286 -0.2805046 0.9205872 126 126 126
-0.000175056196599299 0.0443483763225133 0.028245631908622 -0.09087265 -0.07735138 0.9928539 140 140 140
-0.061560106612592 0.0243776910789067 -0.000932182813439153 -0.7671764 0.6391999 0.05351453 50 50 50
0.0230222519861171 0.0435699992663914 -0.01549912586287 0.4856678 0.8075923 -0.3345465 105 105 105
0.0483242746816585 -0.0123885399811214 0.0319472889654305 -0.1607509 0.2033844 0.9658126 89 89 89
-0.0363489362968495 0.0377797060496861 0.0115938226930763 -0.4322354 0.7612441 0.4834047 41 41 41
0.0483242746816585 0.00749989085269515 0.0274214188806679 -0.1438276 0.2443349 0.9589651 55 55 55
0.038739490173907 0.024215059805637 0.0253333489648964 -0.03211055 -0.1657736 0.9856409 109 109 109
0.0225907143579432 -0.058039498996014 0.00509769127294085 0.5636005 -0.8199624 0.100081 77 77 77
-0.00407407913342028 0.0123531990535313 0.0251678268663552 0.0237121 0.07891464 0.9965993 125 125 125
-0.058062342144399 0.030762421417957 -0.0168602575309608 -0.7545375 0.6561965 -0.008907003 102 102 102
-0.0577443662656835 -0.0197274512760585 0.00668204233571551 -0.318716 -0.3117696 0.8951088 89 89 89
-0.0606061789764455 0.0241947942264134 0.00634301111623309 -0.747123 0.6547565 0.11446 31 31 31
-0.0622187826408437 -0.0236483640186733 0.00368571684285662 -0.2875608 -0.338914 0.8957936 41 41 41
-0.0553595248235753 -0.0238337940685695 0.0064747373811867 -0.3127345 -0.2946942 0.9029687 239 239 239
-0.0397217843307546 -0.0514436192028468 0.00285995409413836 -0.5763775 -0.4760533 0.6642005 180 180 180
-0.0112740221990636 0.0361149483211095 0.0263864736311104 -0.05039018 -0.09692697 0.9940151 205 205 205
0.0364909347520778 -0.0413022465221828 0.0168458263628151 0.7309994 -0.6803445 0.05264321 28 28 28
0.00152083005771131 -0.0135339922420925 0.0267633239977028 -0.1367456 0.1106607 0.9844058 155 155 155
-0.042731222845464 -0.0457383520119136 0.00343272492810748 -0.4244904 -0.3987131 0.8129181 189 189 189
0.0113478776441523 0.0544404857642705 0.0302934984914925 -0.1309135 0.1173068 0.9844292 166 166 166
-0.000780728794484431 -0.0251243836395686 0.0228344838373329 -0.2649497 -0.3035042 0.9152523 114 114 114
-0.0676017079128316 0.0176958613879735 0.00417751476689837 -0.7450779 0.665004 0.05127046 126 126 126
-0.0577443662656835 0.0290103428847844 -0.00304549529627302 -0.7704149 0.6361763 0.04172064 67 67 67
0.0502889331804225 0.00659664206576888 0.0281907360307839 -0.1770754 0.2439573 0.9534826 161 161 161
-0.0526567075027516 -0.0248165554516261 0.00677320763989947 -0.2972759 -0.3328728 0.894887 52 52 52
0.0361048009620616 0.0415416532046849 0.0119031111948159 0.6023582 0.7976843 -0.02940279 121 121 121
-0.0405735049022725 -0.0319924182407802 0.00768456265851519 -0.305008 -0.3421336 0.8887714 38 38 38
-0.0120614144577077 -0.0834903246872371 -0.00158088996485212 -0.6130422 -0.7748568 0.1541953 88 88 88
-0.0691916022075704 -0.0248528546802944 -0.00771796300486066 -0.7247047 -0.6870371 0.05275539 47 47 47
-0.013954145051389 0.0663216882236058 0.000775222038474299 -0.3010367 0.9235316 -0.2376263 118 118 118
0.0682661112771937 0.0232464247233922 0.00696838304921649 0.5293068 0.8114125 -0.2478794 40 40 40
-0.0831372413410237 0.00180636577678267 -0.00683292343691327 -0.7548726 0.6473628 0.1053031 46 46 46
-0.018178713656812 -0.077844721745724 -0.00973452224806287 -0.7883779 -0.6123025 0.05954735 48 48 48
-0.0661935034765294 0.0186634533889348 0.00191343233510516 -0.7475538 0.6636522 0.02700165 96 96 96
-0.0250833902133992 -0.0558182425014919 0.00554109022542498 -0.1825345 -0.164054 0.969416 139 139 139
0.0246727195011088 -0.0396433598511165 0.0233334343187477 -0.1775277 -0.4657561 0.8669228 93 93 93
-0.037584510780721 0.000450181294208207 0.0191358368150856 -0.2599238 -0.2379559 0.9358507 112 112 112
0.0178210314737269 -0.057469738196606 0.0141050557844307 0.1326345 -0.5919187 0.7950097 133 133 133
-0.0745518106593183 0.010994719792133 -0.0172391195543144 -0.6917459 0.7138503 0.1091114 81 81 81
0.0214323576913783 -0.0376701778881496 0.0236730317823555 -0.2366348 -0.4370901 0.8677305 127 127 127
-0.0423451039566091 -0.0339674479477352 0.00668138668462298 -0.3087499 -0.2928374 0.9049419 92 92 92
-0.077572611309438 -0.00200478501247819 0.00718704268857501 -0.368382 -0.2013657 0.9076049 152 152 152
0.0519810494409511 0.0289466255195195 0.0263367931596901 0.08436304 -0.01319993 0.9963477 98 98 98
0.012438106201739 0.0549938850886876 0.00228679582997821 0.4888598 0.836252 -0.2483922 112 112 112
0.0320437726007411 0.00427611403537337 0.0263595323316719 -0.1198282 0.2488499 0.9611009 113 113 113
-0.0324877623094609 0.0278405123241002 0.0245744328252938 -0.3242354 0.3796677 0.8664432 207 207 207
-0.0621052059902242 0.0157162421233708 0.0165489952318337 -0.3829232 -0.1352872 0.9138201 124 124 124
-0.0369848880542806 0.0242091887481267 0.0238968770258095 -0.2457183 0.3117324 0.9178482 191 191 191
-0.017792594767957 0.0459512644298131 0.024088088726249 -0.4170163 0.463227 0.7819963 71 71 71
-0.0103655282033971 -0.0113195306770748 0.024274889682975 -0.279789 -0.251941 0.9264145 79 79 79
-0.0646641824020436 -0.0282193548195308 -0.00780477716997602 -0.6733983 -0.7377519 0.04750761 62 62 62
0.0119838443027446 -0.046902818154568 0.0178575258009102 -0.1783069 -0.3850098 0.9055242 113 113 113
-0.0504308465494206 0.0370245748050267 -0.00233995511606672 -0.5149862 0.8555195 0.05362443 84 84 84
-0.0575172278656056 -0.0016085333340114 0.0123955647699501 -0.282077 -0.2182989 0.934226 63 63 63
-0.0143856826795629 0.00242416791987959 0.0255086164228585 -0.04950788 0.04839613 0.9976005 135 135 135
0.0164809700475642 0.0532683604247624 0.00465542480870745 0.4904623 0.8491112 -0.1961044 127 127 127
0.0167535271869609 -0.0268151587955898 0.0273950736276772 -0.2642618 -0.3368541 0.9037118 144 144 144
0.00612394776210279 0.058974581290012 0.00338524982854388 0.4537598 0.8483683 -0.2727147 117 117 117
-0.033169147707372 0.0457344227321202 -0.000499512697014592 -0.6092005 0.7371306 0.2924265 39 39 39
-0.0244928720964482 -0.070267749499554 -0.00880209698751905 -0.7545108 -0.6562688 0.004976566 35 35 35
-0.0195414844526342 0.0475704246051366 0.0220430831663277 -0.538804 0.581476 0.6095702 123 123 123
-0.0799725923313191 0.00540136032176558 -0.00919583036974408 -0.7124015 0.6848599 0.1531372 41 41 41
0.00344383981093854 0.0641084783561284 0.0117677192442086 0.2978001 0.9529704 0.05623511 135 135 135
0.0270196970926234 0.0481077306754643 0.0241611640207436 0.5802609 0.8052019 0.1222586 41 41 41
0.048687684200854 -0.02678657836842 0.0182330648653176 0.696125 -0.7169623 0.0370825 42 42 42
0.0152999040113398 0.0524704330451543 -0.000771280074867986 0.487812 0.8240349 -0.2881075 120 120 120
-0.0614238354934743 0.00271974735332076 0.0120877365820076 -0.2421795 -0.2702723 0.9318272 111 111 111
-0.0200411650909474 0.0365393631942326 0.0262008945696022 -0.3040693 0.1469014 0.9412555 221 221 221
0.0138008769975612 0.0482876174933964 0.0298532287828591 -0.08030716 -0.1087596 0.9908189 85 85 85
-0.00291573736801654 -0.0425219959728664 0.0160909037344124 -0.2662417 -0.3953729 0.879088 99 99 99
-0.00918446216717272 0.0591758065707738 0.0202545563928749 -0.6515185 0.5288838 0.5438801 63 63 63
0.0346284833179423 -0.0222608572952693 0.0314173440687325 -0.145529 0.1343704 0.9801866 55 55 55
-0.0130456212534001 -0.0844466514103359 -0.0153002549655769 -0.6598001 -0.7201289 -0.2146583 65 65 65
0.0148002233730266 -0.024649811457867 0.0278774838201668 -0.2492051 -0.2803501 0.9269847 164 164 164
0.057363974712939 -0.0175178772919124 0.00921133563443682 0.8002445 -0.5996397 0.006410742 34 34 34
-0.00752642486229449 0.0586176388747746 0.0227082710020211 -0.6582813 0.4714142 0.5868853 63 63 63
-0.0310795727743199 -0.0625380105488246 -0.00915833904818036 -0.7494026 -0.6611178 0.03631876 34 34 34
0.000116425417513555 0.0570033066756779 0.0271600525133278 -0.1182125 0.6940405 0.7101644 89 89 89
-0.0014621141923955 -0.00231702394413408 0.0239162485353615 -0.1493487 -0.234271 0.9606311 103 103 103
0.0699014243112513 0.000188993740802446 -0.00819672241285779 0.828697 -0.5596433 -0.007789683 75 75 75
0.0590901252256343 0.0143914096839482 0.0279275815241005 -0.1724526 0.2098107 0.9624134 85 85 85
-0.0159528676046422 0.050718920756107 0.0219497422926094 -0.48307 0.5971752 0.6403321 60 60 60
0.0478245940433452 0.0319987409598881 -0.0039828677423332 0.4892097 0.8544043 -0.1751206 107 107 107
0.0123018201814601 -0.0595059818737453 0.0121611993066933 -0.1778729 -0.4240891 0.8879807 58 58 58
0.0132557627187678 -0.0042654997818416 0.0258865098707344 -0.02937773 0.1692795 0.9851301 79 79 79
-0.0127276453746846 -0.0559099740498012 0.00771058008595965 -0.1756332 -0.2687089 0.9470736 230 230 230
-0.0182241323961309 0.0583214633948857 0.0119307379476692 -0.644035 0.6141233 0.4561485 102 102 102
0.0288594242559382 -0.0392098254673427 0.024443541025367 -0.2184651 -0.5072671 0.8336384 86 86 86
-0.0455930355562261 0.0306757562644536 0.0181618075124886 0.0198867 0.7036443 0.710274 88 88 88
-0.0736433092130712 -0.00735874242710527 0.00610572502538226 -0.239708 -0.2860049 0.9277614 120 120 120
-0.00609552595749407 -0.0037801093571132 0.0244393687002327 0.120617 -0.05294207 0.9912864 57 57 57
0.0311079945789287 0.0445918314940983 0.0165879766695168 0.548124 0.8299896 0.1033313 42 42 42
-0.0354404274000218 0.010514812994724 0.0234874825231697 -0.2833391 -0.2528253 0.9250937 145 145 145
0.023894416950793 -0.00977571077274736 0.0281833152525093 -0.08775238 0.1677819 0.9819108 183 183 183
0.070208030603976 0.0178854339606816 -0.00497233464792707 0.552666 0.7649859 -0.3306915 65 65 65
-0.0447980884088567 -0.024373305510754 0.0097880701772835 -0.28102 -0.3234361 0.9035579 79 79 79
-0.0867485675586751 -0.00527719921993669 0.00154927775784991 -0.8961628 0.01596549 0.4434381 114 114 114
0.0305174764619777 0.0428502731807286 -0.00391518666819074 0.5207124 0.8263896 -0.2143333 142 142 142
0.0577954825387904 0.0331088476665074 0.0205349962465431 0.4221199 0.9051694 -0.04983209 94 94 94
-0.0303300443662694 -0.0639294511787837 -0.0111508329160545 -0.7426633 -0.6676463 0.05195734 48 48 48
-0.0590389940513661 0.00269077949595992 0.0130775611154701 -0.2796501 -0.2722801 0.9206842 161 161 161
0.0240216132627437 0.0479729943759495 0.00103986666127703 0.4885373 0.8376411 -0.2443129 116 116 116
-0.0564724478496602 0.00876347951961104 0.0153468291513588 -0.2787977 -0.3301723 0.9018083 118 118 118
-0.00562612447872668 -0.0273747868053859 0.0207493047468331 -0.2625654 -0.2955595 0.9185336 158 158 158
0.051890182159991 -0.015799713801617 0.0332906882517006 0.1013592 -0.08463805 0.991243 157 157 157
-0.0647398952020696 0.022139477062946 -0.0164342780359123 -0.7643317 0.644823 0.0005999522 117 117 117
0.0484832700715968 0.0363557212836796 0.0206222574464943 0.3371285 0.9273039 -0.1626406 39 39 39
-0.0358946743978551 0.0192385190017277 0.024514798378196 -0.1495841 -0.02769462 0.9883611 227 227 227
0.0449173625932643 -0.0318983621113246 -0.0170924772270057 0.7610962 -0.6451424 -0.06725963 45 45 45
0.0255433794485042 0.023019718456989 0.0260019044630196 0.08777764 -0.1994468 0.9759693 168 168 168
-0.0789580914749196 0.00751517944408003 -0.0138117928750847 -0.7081351 0.6934843 0.1327562 110 110 110
-0.00527785453930407 0.048672782707935 0.0281436781637337 -0.2041938 0.1045353 0.9733331 191 191 191
0.0105302211271235 -0.0584567017071193 0.0123148898832466 -0.1893551 -0.4345001 0.8805421 59 59 59
-0.0206619772686055 -0.0633391565792507 0.00545597479268572 -0.1059668 -0.08901516 0.9903774 120 120 120
0.0276783582197139 -0.0453652269356197 0.021262411331382 0.008732167 -0.563439 0.8261116 99 99 99
-0.0280133459343007 0.0525316470153386 -0.0130865682609413 -0.5764775 0.813722 -0.07436547 96 96 96
-0.0576080802454045 0.0148823731429631 0.017999414657798 -0.2389184 -0.2900538 0.9267075 149 149 149
0.0175939079748103 -0.0256346590034908 0.0283713977090981 -0.2465437 -0.2805847 0.9276252 169 169 169
0.0101213928686091 0.0494068735129887 -0.0136469562299583 0.4215297 0.860992 -0.2846146 98 98 98
-0.0350770178808263 -0.0546258813850826 0.00415432856008074 -0.4815043 -0.3866322 0.7865552 137 137 137
0.0248392697797725 0.037601279545551 0.028395835613456 -0.002614187 -0.1833605 0.9830422 95 95 95
-0.0102746758235982 0.05941365890575 -0.0135987956769798 0.1792284 0.8486924 -0.4975925 97 97 97
-0.019586903191953 -0.00958727068828996 0.0221311192266609 -0.2323632 -0.2771181 0.9323159 137 137 137
0.00778197016581983 -0.0375666446201747 0.0208857695810463 -0.1995511 -0.3423919 0.9181215 228 228 228
-0.0315338197721532 -0.0624970621578639 -0.012511323834214 -0.7518413 -0.6568104 0.05774733 123 123 123
-0.00766269598141223 0.0424176626689488 0.0276362936250832 -0.09412 -0.07493075 0.9927371 186 186 186
0.016026723049731 -0.0622439212315029 0.00443253323956988 0.61475 -0.7792299 0.1219967 27 27 27
0.0480062988029429 -0.0288308984749263 -0.00956622853353956 0.7639799 -0.6435259 -0.04700106 87 87 87
0.0235219326244304 -0.0571052259914821 0.00663379237576983 0.5882151 -0.7960702 0.1423913 54 54 54
0.0689474817739436 0.0251030796058232 0.0197819511644509 0.8054639 0.5521775 0.2152389 131 131 131
-0.00386966500416308 0.0630240016467625 -0.000495459581169866 0.4406647 0.8541542 -0.2761071 113 113 113
-0.000167486406712825 0.00677965812755171 0.0258743803255226 -0.05419513 0.142483 0.9883124 150 150 150
0.0714913186059901 0.00268610053134505 0.0122774283640053 0.902171 -0.3951306 0.1730873 80 80 80
0.00934916999206037 0.0532521181590611 -0.00774433806017377 0.4791627 0.8158873 -0.3236216 119 119 119
-0.00799204144611865 -0.0132289058678096 0.0245555977575447 -0.2816276 -0.198547 0.9387571 166 166 166
0.00479147102698774 0.06079887085033 0.0185854475252297 -0.01340723 0.983133 0.1823999 34 34 34
0.016708108447642 -0.0365008837692684 0.0229672233812477 -0.2323275 -0.3812987 0.8947822 113 113 113
-0.0324423286689809 -0.0298628336899227 0.0113686065427925 -0.2612609 -0.3443945 0.9017401 242 242 242
-0.0618326637519887 -0.0309815830700343 -0.00869220092371442 -0.6913574 -0.7224848 0.006369924 61 61 61
-0.0222670111431172 -0.0540070361607021 0.00654784247800372 -0.1321892 -0.1935614 0.972142 243 243 243
-0.00339270863667041 -0.00748480625080522 0.0244502465479042 -0.0002184908 0.1766215 0.9842788 70 70 70
0.0357565459238002 -0.00575978822636064 0.0288508276693489 -0.1247718 0.1711798 0.9773073 133 133 133
-0.0270821276678136 -0.053782952498669 0.00583729550763629 -0.2089304 -0.1840596 0.9604531 152 152 152
-0.0419816944374135 0.0417372458465153 -0.00527098372057416 -0.4495181 0.8590171 0.244996 68 68 68
0.0515722211824367 -0.0254366523735469 -0.00470614030436017 0.756225 -0.6535618 -0.03131478 48 48 48
-0.0748243677987149 0.00883646540713851 0.00648621127530596 -0.7637656 0.6165364 0.1911672 122 122 122
-0.0234480920805028 0.0260812812335545 0.0253874699823525 -0.0284037 -0.05806112 0.9979089 109 109 109
-0.0287174407018712 0.0367810600287968 0.019604925369468 -0.6655461 0.4619405 0.5862247 121 121 121
-0.0600837740673116 -0.0321238166801875 -0.010036866808686 -0.6944736 -0.7195181 -0.0002173472 70 70 70
0.0235446419940898 0.00122560792041365 0.0257362167589333 -0.1404534 0.254053 0.9569378 130 130 130
-0.0315678987278035 0.0365683012492711 0.0167615453951027 -0.5806893 0.5569118 0.5938428 47 47 47
0.049323635958285 0.0314596467502171 -0.0044374723680351 0.4710595 0.8627346 -0.1838261 80 80 80
-0.0387564871086171 0.00280468397212569 0.019508306240287 -0.2671865 -0.2446919 0.9320607 154 154 154
-0.00433906648293048 -0.0767871863357967 0.00555789873525164 -0.0200557 -0.1089431 0.9938456 79 79 79
0.0258727100120494 -0.00152681536602434 0.0269519726984169 -0.1283496 0.2054658 0.9702114 145 145 145
0.0324934747444102 0.0420853965766484 -0.0054864545114372 0.5157169 0.8232967 -0.2371045 124 124 124
-0.0551778200639775 0.0319675081260258 0.0024384300462868 -0.7496145 0.6581278 0.07032767 69 69 69
-0.0456157449258855 -0.0149420327656215 0.0120665769331124 -0.2529763 -0.2565289 0.9328429 237 237 237
-0.0642175051940969 0.0208952301032597 0.00687432691976092 -0.731943 0.6728292 0.1075194 72 72 72
0.0299723621831843 0.0210796468741948 0.0248635153524544 0.05222796 -0.1882947 0.9807229 115 115 115
-0.00389995906487017 -0.00359470910953935 0.0238851051084664 0.07035912 -0.08719513 0.9937035 96 96 96
-0.0565860095991185 0.0286075644977147 0.0105195085756447 -0.7077058 0.6946521 0.1288836 34 34 34
-0.0402101102842382 0.0192542546279484 0.0237835387937691 -0.2020008 -0.07889765 0.9762022 209 209 209
-0.0801997232808164 0.00471352272105757 -0.00526177480295636 -0.7273481 0.6784813 0.1030907 92 92 92
0.0323193397746989 0.000266718197589555 0.0274308662168648 -0.1130394 0.2185585 0.9692545 117 117 117
-0.044093978740125 -0.0435579545013851 0.00373840734883807 -0.345037 -0.3115849 0.8853611 86 86 86
-0.00595016513004809 0.0527875297553593 0.0264668206922676 -0.43211 0.3070287 0.8479472 95 95 95
0.0627696093545863 -0.00995720691608842 0.0103583376161721 0.7864413 -0.6141258 0.06602731 71 71 71
0.0296316620336482 0.0452264719493443 0.00281945273801348 0.5456346 0.8125008 -0.2052444 130 130 130
0.0452353384719798 0.0215129428393895 0.025669012521949 -0.09711582 -0.1096072 0.9892192 114 114 114
-0.0197231892122319 -0.0763891465179866 -0.00225540592745282 -0.7791889 -0.6264428 0.02083534 49 49 49
0.00780469443664045 0.0595309012420231 0.0256026427499916 -0.2659888 0.8926138 0.3639927 46 46 46
0.00962171223029584 -0.00139315195011552 0.0264292101614144 0.1900635 -0.01020587 0.9817188 132 132 132
0.014482247494311 0.0103013985641057 0.0246892313711312 0.04940407 -0.04231109 0.9978822 131 131 131
0.0156784531103084 -0.045394463013882 0.0190388600580361 -0.1669586 -0.3928859 0.9043039 77 77 77
-0.0291717026008657 -0.0180577165596431 0.0162925462476876 -0.2650452 -0.2674687 0.9263971 76 76 76
-0.0263325992597631 -0.0656919903271144 0.00290671393796466 -0.6140063 -0.519064 0.5946166 101 101 101
-0.0517481986059239 0.0366724901683385 -0.00536304309442975 -0.5566126 0.8249097 0.09852079 67 67 67
0.00978827741012067 0.0464624636657292 0.0290778021566536 -0.08743273 -0.1721555 0.9811819 110 110 110
-0.0518208715690663 -0.0175626403801387 0.00935340330525897 -0.2752511 -0.2892978 0.9168116 124 124 124
-0.0563134673608831 0.0320698493011052 -0.0111799646861885 -0.7507824 0.6529334 0.1000191 71 71 71
-0.0792306411637357 0.00475876264644209 0.00556630299016497 -0.7871257 0.4976298 0.3644143 75 75 75
0.0347874638067195 -0.0417369133942073 -0.011107977176461 0.6583077 -0.7527489 0.0003623236 47 47 47
-0.0323211971296361 0.0365736656673009 0.0152618031255867 -0.5496132 0.5766523 0.604481 66 66 66
-0.0511122319473317 -0.00853438444065507 0.0126336555235054 -0.2722644 -0.2336378 0.9334267 83 83 83
-0.0604926172269872 -0.00677506394314226 0.0100752155534889 -0.242719 -0.2546709 0.9360717 53 53 53
0.00303501155242414 -0.0774631626121944 -0.00704598023966291 0.7052835 -0.6984634 -0.1213427 120 120 120
-0.0356069776786855 0.029131846953159 0.0211608152143624 -0.4098386 0.6864614 0.6006689 122 122 122
-0.0280360553039601 -0.0660053915493434 -0.0048806925065849 -0.7456555 -0.6653026 0.03701838 43 43 43
0.0382625338064143 0.00901977949214522 0.0260275046579506 -0.1415734 0.2423506 0.9598037 193 193 193
0.0417375740037867 0.0375397377498204 0.00982216403409503 0.5069654 0.861198 -0.03638852 43 43 43
-0.0134998831523946 -0.00719634957241472 0.0243873040430214 -0.2163337 -0.2685927 0.9386467 156 156 156
-0.0396649960054448 0.028972106505161 0.0174678008310463 -0.07021976 0.7620432 0.6437075 49 49 49
0.00144511725768537 0.0595871680266911 -0.00208457901552656 0.4258851 0.8655591 -0.2634946 128 128 128
-0.0446618023885778 -0.047906977605099 -0.00943077697828748 -0.7329888 -0.6800558 0.01586317 49 49 49
0.0224619981275508 0.000614749718433061 0.0256548862211373 -0.1426562 0.2384363 0.9606234 115 115 115
0.00947030153140516 -0.0373526937477535 0.021456662868705 -0.2050066 -0.3346925 0.9197571 197 197 197
0.0172759171949336 0.028418260145908 0.0271074812166359 -0.001562468 -0.1513544 0.9884783 186 186 186
0.0380240407215068 0.00479738645625655 0.0268639664404061 -0.1153523 0.2213407 0.9683502 114 114 114
-0.0563815954698613 0.032589482594257 -0.0133712996490333 -0.7459486 0.6655178 0.0254303 88 88 88
0.00135426487788648 0.0610686414725835 0.0180461446993019 0.1240378 0.9496822 0.287608 115 115 115
0.0335155602918574 0.0349308722503239 0.0269917886011269 0.07087462 -0.1250522 0.9896154 124 124 124
-0.0219944540037206 -0.0616132444851344 0.00620836422368548 -0.1005194 -0.09573521 0.9903184 68 68 68
-0.0206998411191991 -0.0505527085773891 0.00748753950521014 -0.1602182 -0.243416 0.9565975 50 50 50
-0.0475236150993398 0.0414702170379216 -0.0146975775010917 -0.5751747 0.7971686 0.1835656 100 100 100
-0.0405280861629537 -0.0141844875328487 0.0135875682584908 -0.2809109 -0.2653978 0.9223086 80 80 80
-0.060924154855161 -0.0313329226486629 -0.00668306245878675 -0.7038364 -0.7101592 -0.01697692 82 82 82
-0.0588799986614278 -0.0144285387508815 0.00871599123403094 -0.3130958 -0.3088908 0.8980855 113 113 113
-0.00436934564247637 0.0521191530711705 0.0278422574751045 -0.3383638 0.2303264 0.9123923 115 115 115
-0.0228575441612294 -0.0722120232098049 -0.00722263350561597 -0.7558391 -0.653821 0.03500404 72 72 72
0.00591953363284559 0.00432740383220259 0.0265480916254189 0.02500804 0.1583792 0.9870616 126 126 126
-0.0328511718286565 -0.0599712855331844 -0.00818053975180127 -0.7445192 -0.666987 0.02862583 30 30 30
-0.0316246870531133 0.0388617091662938 0.0141348879091408 -0.514147 0.6465933 0.5635334 72 72 72
0.0463709857688853 0.00392802290988509 0.0279397408716347 -0.1442052 0.2411134 0.9597235 92 92 92
0.0129832055793712 0.0478416853435094 -0.018426965618882 0.4021816 0.8625485 -0.307018 110 110 110
0.0670395966993281 0.0221248441226536 0.00036412880345843 0.501328 0.8153063 -0.2897342 60 60 60
-0.0121371272577336 0.00194765858722273 0.0256197790853646 -0.02872172 0.0446077 0.9985916 110 110 110
0.0519583102689692 0.0304699414260441 -0.00125297501162031 0.43019 0.8833882 -0.185908 49 49 49
0.0131194766984889 0.0564461224563176 0.0117444436304238 0.5639842 0.8061275 -0.1791095 120 120 120
0.0419646975027034 -0.0354167944900936 0.0184701721422341 0.7753987 -0.6305438 0.03422431 59 59 59
0.0141642716155955 0.0173005037791783 0.0255081097833779 -0.03011453 -0.1057056 0.9939414 135 135 135
0.0748073634134242 0.0191943519599492 0.0087824504129555 0.8915675 0.4366843 0.120059 116 116 116
0.0693336006627986 0.0199734144694859 -0.000931407953057073 0.5274388 0.7911972 -0.3095404 58 58 58
0.0188431021200129 -0.0601537353508418 -0.0148681361921165 0.7422709 -0.6556793 -0.1382699 126 126 126
-0.00825322899952441 -0.0789539939873165 0.00529814169332049 -0.0750289 -0.1551447 0.9850385 105 105 105
0.0614976760374019 -0.0129215545170253 0.00206751034184954 0.7849232 -0.6141472 -0.08196808 45 45 45
-0.0138027194513372 0.03447149925304 0.0262413959257271 -0.03684867 -0.09144778 0.9951279 215 215 215
0.0285187390075633 -0.0411939448826259 0.023308161949363 -0.1201287 -0.5160604 0.8480865 80 80 80
0.0261679765211055 0.0302955978400761 0.0272369723074105 0.06449387 -0.196378 0.9784049 119 119 119
-0.00259776148930102 -0.028252345990414 0.0212513248674538 -0.2654044 -0.3036582 0.9150695 136 136 136
0.0241124656425425 0.00916938715053145 0.0236236791364815 -0.04950875 0.1600963 0.985859 110 110 110
0.0501640018449733 -0.02599112458157 0.00548807189389727 0.7626455 -0.6466195 0.0159706 39 39 39
0.0441451248155543 -0.0330749577991908 0.0141474942915108 0.7762781 -0.6277329 0.05782485 30 30 30
-0.0388927582277349 0.0145121686942631 0.023022894119468 -0.2783162 -0.221333 0.9346399 192 192 192
-0.0143061849845937 0.0407324605472142 0.0270679037325051 -0.1567671 0.05229976 0.9862499 206 206 206
-0.00809424851074725 -0.086122286986584 -0.000721629405770086 -0.4057787 -0.8846396 0.2296875 64 64 64
-0.0636951151861241 0.00311820440364424 0.0118648450128701 -0.202792 -0.2772259 0.9391599 89 89 89
-0.0707360628618291 0.0139882736690098 0.00521538064404986 -0.7396742 0.6627093 0.1170402 67 67 67
-0.00393780801430255 0.0404861145503575 0.0277662913553383 -0.0946881 -0.09936594 0.9905355 191 191 191
0.00666906204089612 -0.0392478532307094 0.0200652520410683 -0.2011105 -0.3504279 0.9147431 237 237 237
0.055569666288943 0.022951918173557 -0.015865873242173 0.5027196 0.7898712 -0.3512498 86 86 86
0.0161629941688487 0.0476316981799657 -0.0135707218892906 0.4032856 0.872587 -0.2755952 104 104 104
0.0570459839330623 -0.0191655284874385 0.0151823799364235 0.7849767 -0.6086569 -0.1155349 73 73 73
0.00853149857387037 -0.0103004402630275 0.0265274386160042 -0.09987585 0.2169174 0.9710672 115 115 115
-0.0523387167228749 -0.0151225752346462 0.0104196409933235 -0.2709354 -0.2751131 0.9224461 77 77 77
-0.0259919140113881 -0.00541455812382158 0.0217023830167916 -0.3040746 -0.2693352 0.9137818 116 116 116
0.0487785365806529 0.0266587012298161 -0.0178174038179252 0.4864773 0.8038161 -0.3423732 74 74 74
0.0245553579555461 -0.00323502488064226 0.0270645360700753 -0.1277847 0.1984789 0.9717393 146 146 146
0.0483697083221385 -0.0279609686844295 0.0134571532957222 0.7264173 -0.6852201 0.05283317 28 28 28
-0.0684647831691793 -0.0242687589638179 -0.00751639499739148 -0.7215322 -0.6893023 0.06522001 35 35 35
0.00167224075660199 -0.00094331569599565 0.0268353562109139 -0.1659735 -0.1832038 0.9689629 162 162 162
0.0662946280466029 0.0226360433585698 0.000461463188376643 0.499259 0.8172512 -0.2878211 51 51 51
-0.00189365182056933 0.0148395770080144 0.0247611741773751 -0.004474734 0.0417679 0.9991173 101 101 101
0.0378991242872188 0.0368618541247899 -0.00840414657667615 0.5033429 0.8289422 -0.2439277 119 119 119
-0.0461608592046788 -0.0399384028427547 0.00328836247846148 -0.3640115 -0.24427 0.8987924 49 49 49
0.00774790611133069 -0.0134104318134731 0.0272311012499001 -0.1145407 0.1564662 0.9810193 135 135 135
0.07294492688045 0.00570617847514693 -0.0100550909288261 0.9293036 -0.3303567 -0.1651037 85 85 85
-0.0155894580854467 -0.0774604207985347 0.0041442553751137 -0.4738444 -0.4327632 0.7669339 135 135 135
0.0185705598817775 0.0213213735110814 0.0255534987203743 0.023426 -0.1583653 0.9871027 122 122 122
-0.0438895646108678 0.0418601506240422 -0.00914111330584028 -0.4568203 0.8416656 0.2879485 116 116 116
-0.0418113443626454 0.0107084982879216 0.0207896272890236 -0.295862 -0.2588691 0.9194849 86 86 86
0.00405708219871015 0.0285341911799962 0.0266386906854775 0.01335795 -0.1380499 0.9903352 146 146 146
0.0443722632156321 0.0380253665931279 0.0217832963220742 0.2724597 0.9558075 -0.1104435 54 54 54
0.0174803313241908 -0.0369400507919734 0.0230522792093422 -0.2272992 -0.3833028 0.8952173 112 112 112
0.0320392128454158 -0.0335787362568324 0.0290158431284096 -0.1575745 -0.3686265 0.9161249 124 124 124
0.0608617242799708 0.0217096083648259 -0.0112582851894233 0.5542819 0.7702144 -0.3155017 48 48 48
0.060816305540652 0.0167210572249943 0.0278520028345253 -0.1773649 0.182036 0.9671631 123 123 123
-0.0104109469427159 -0.0354242450706905 0.0168131928198006 -0.2836673 -0.3143597 0.9059309 188 188 188
-0.049522337652593 -0.0336361355297511 0.00432610914632342 -0.2971464 -0.2903756 0.9096076 78 78 78
0.0391483184324214 0.0113943391330296 0.0256989638559487 -0.1462566 0.2405456 0.9595555 133 133 133
-0.0376435640825322 -0.0554844564907497 0.00145721838399432 -0.7012909 -0.6523497 0.287456 87 87 87
0.00121799375876874 -0.0425941771976894 0.0174156467668679 -0.2412699 -0.3935287 0.8870873 175 175 175
-0.0420271280778935 -0.0265652067177242 0.00982287928983233 -0.2647895 -0.3365226 0.9036809 170 170 170
-0.0382416668905309 -0.00586272544788774 0.0174905102007057 -0.3284561 -0.2739236 0.9039261 243 243 243
-0.0721783313526204 -0.01361559100079 0.00464380190297625 -0.2592351 -0.3514546 0.8995981 83 83 83
0.00444320108756513 -0.00265882677959856 0.0267590920679238 -0.1112149 -0.1490431 0.9825566 119 119 119
0.0584087547288844 0.00338433914256636 0.0305726270429756 -0.163293 0.2766806 0.9469864 70 70 70
0.0178437408433864 0.0514755123145634 0.000422213529792048 0.4624413 0.8422469 -0.2770706 97 97 97
0.0174954858051249 0.0511093907840306 -0.000577982211861394 0.4543224 0.841584 -0.2921087 121 121 121
0.0339698072896907 -0.0288174576275295 0.0309543351881172 -0.1678883 -0.2683594 0.9485762 121 121 121
-0.0696004304660848 -0.00119076437878068 0.00918573543950579 -0.2130135 -0.2563966 0.9428076 100 100 100
0.0119157012926051 0.06021173529697 0.0206669311277535 0.3246625 0.9449523 0.04073612 138 138 138
-0.0372574451936772 0.00996919207645003 0.0221509079687264 -0.3040648 -0.265686 0.9148527 226 226 226
-0.0480232957376531 0.0373692684657628 -0.00446450307444074 -0.4375281 0.8928513 0.1067039 139 139 139
0.0127106484399745 -0.0372329778187221 0.0220379273645546 -0.1827746 -0.3475717 0.919667 159 159 159
-0.027490955926328 0.0290677123553807 0.0253795723669197 -0.2293267 0.2073045 0.9510174 215 215 215
0.0103030976282069 0.020303504992252 0.0256825725786354 -0.06194637 -0.1316626 0.9893572 178 178 178
-0.0862716037406018 -0.00792471833156999 -0.00723987414911725 -0.9008705 -0.4339008 -0.01274313 92 92 92
-0.0575475219263127 0.0280192666537816 0.00856635377332232 -0.7618256 0.638481 0.1093796 120 120 120
-0.0576080802454045 0.0302472286708409 -0.00514211847856977 -0.7678407 0.6376674 0.06165197 48 48 48
-0.00523243579998522 0.000959622193103471 0.0256726186029579 -0.03898081 -0.1258654 0.9912812 223 223 223
-0.0407097909225514 -0.017640841674084 0.0128432552568581 -0.2648497 -0.2574243 0.929294 125 125 125
-0.00562612447872668 -0.035699171494717 0.0180856029741432 -0.2681636 -0.3057833 0.9135562 166 166 166
-0.0201660815252355 -0.0753753609173244 -0.00709117546156385 -0.768187 -0.6391225 0.03756458 39 39 39
0.0450082149730632 0.0351706021316106 0.00516036555692218 0.511119 0.8494738 -0.1309645 89 89 89
0.0135283198581645 -0.0635759062282985 0.0110142271272805 0.09157326 -0.5706224 0.8160909 70 70 70
-0.0533380779995015 0.0300273769385869 0.0155672769300606 -0.5358598 0.7157346 0.4478597 95 95 95
-0.0745063844694188 -0.0176252848617977 -0.00487929179743268 -0.6835033 -0.7274607 0.06020168 83 83 83
0.0217806276308009 0.0165556543357426 0.0248647670499947 0.1427653 -0.1511888 0.9781411 82 82 82
-0.071523440219312 -0.0207673437111324 -0.00488274886682966 -0.7053928 -0.7084588 0.02252008 98 98 98
0.0287458774076411 -0.0481026000492519 -0.00915564193800428 0.7389626 -0.6638951 -0.1147935 67 67 67
-0.0512485030664495 -0.0211604363434261 0.00859702036305926 -0.2868797 -0.2975584 0.9105817 239 239 239
-0.0299439254774144 0.0457643442637974 0.00612834498807452 -0.6234096 0.702293 0.3437221 126 126 126
-0.0223578635229161 0.0550725930221135 0.00184399292394183 -0.7899258 0.612726 0.02416872 34 34 34
-0.0745745274795583 -0.0032855398170894 0.00769362256452105 -0.2476682 -0.2709922 0.930174 142 142 142
-0.0835157904399922 -0.00181467599796709 0.00461638376637957 -0.717106 0.3214193 0.6184242 163 163 163
0.07217268910274 0.0035409503467137 -0.0140282322414253 0.9005311 -0.3681067 -0.2313899 60 60 60
0.0419646975027034 -0.0351756340973323 0.00209531590863726 0.7167338 -0.6965491 0.03334668 22 22 22
-0.0199048790706685 -0.0136639005653804 0.0207593183271553 -0.2507164 -0.2904416 0.9234636 127 127 127
-0.0524749878419927 0.0362766259200627 -0.00749677016809919 -0.6196304 0.7759285 0.1182927 52 52 52
-0.0276272270454457 -0.0276376432888454 0.0138408283941414 -0.2615814 -0.3408259 0.9030021 232 232 232
-0.0198594603313497 -0.0280225700848049 0.0152731876127388 -0.2874207 -0.3153407 0.9044057 82 82 82
0.025588798187823 -0.00541145868229326 0.0273793976061013 -0.107332 0.1736643 0.9789385 162 162 162
0.0601121958719203 -0.0135583705418056 -0.00261285498217084 0.8120421 -0.580251 -0.06242066 97 97 97
-0.0438441458715489 -0.0185890919678157 0.012120280718055 -0.2629794 -0.2531668 0.9309932 110 110 110
-0.0130910548938802 -0.0264112181179469 0.0186912159673836 -0.3097357 -0.309477 0.8990483 124 124 124
-0.025601250268369 -0.0269834227077907 0.0144920389406349 -0.2420452 -0.3177398 0.9167636 242 242 242
0.0484908398614833 0.00303165845943038 0.0286396484129097 -0.1606127 0.2366946 0.9582167 87 87 87
-0.0539891842378667 -0.0390456742756313 -0.00146287276819684 -0.6989464 -0.6838598 0.2093077 83 83 83
-0.0249471190942815 -0.0162730640881008 0.0178165178053047 -0.3243359 -0.3264135 0.8878403 77 77 77
0.0639052268491694 -0.0105706579201167 0.00646502182408831 0.7890109 -0.613681 0.0292828 73 73 73
-0.0123642507566503 0.0650927596576268 0.00891945168897174 -0.3179459 0.819195 0.4773153 35 35 35
0.0450082149730632 -0.0310216969959682 0.0286706428281929 0.5880412 -0.6311686 0.5058001 87 87 87
-0.0390290442480138 0.0106839113719517 0.021984223579612 -0.3150541 -0.2575822 0.9134508 139 139 139
0.0239913341031978 -0.0174236125462001 0.029682878708091 -0.1393439 0.2135715 0.9669387 123 123 123
0.0533210810647914 -0.0227110213749355 0.0108988623373177 0.7638395 -0.6450234 -0.02222655 38 38 38
-0.0846817094458631 -0.00932048029827531 -0.00360557034090497 -0.7631737 -0.6395394 0.09249438 48 48 48
0.000582027100176519 0.0307656102664525 0.0267794470541146 -0.05548681 -0.1269854 0.9903514 134 134 134
-0.0235843482984593 -0.0171705014221614 0.0182770232908394 -0.33299 -0.3372717 0.8805484 112 112 112
-0.0216159198059133 -0.0232384628765529 0.0168078582040932 -0.2955169 -0.3470124 0.8900855 127 127 127
0.00489746298655958 0.000954257775073686 0.0271723310701515 -0.03373247 -0.0243484 0.9991342 207 207 207
0.0700830992685267 -3.425545620378E-05 0.00885823771878741 0.8858708 -0.4584871 0.07087017 136 136 136
0.0703329619394252 0.000382112789874711 -0.0112127025373314 0.8448918 -0.5241808 -0.1067348 74 74 74
0.066433924101443 0.0147312753684575 0.0290754179708626 0.3315138 0.2424082 0.9117768 154 154 154
-0.0112740371002248 0.0571215026862675 0.0202486555330422 -0.6198466 0.5226493 0.5853443 22 22 22
-0.0383325192703298 0.0305520766265446 0.016715292190757 -0.2004193 0.6973947 0.6880936 67 67 67
0.0186841067300746 0.0533774965293461 0.0120313803903725 0.496998 0.8673925 -0.02496441 112 112 112
0.0539343532548854 -0.00185201830791887 0.0308497886411812 -0.2445467 0.1907737 0.9506852 114 114 114
0.0563191648946711 -0.0202711350433772 0.0223262648336556 0.7243289 -0.6868386 0.06000361 40 40 40
0.0186159786210963 -0.0241615600101894 0.0288940112344887 -0.2342225 -0.2019971 0.9509664 172 172 172
-0.00841222438946276 0.0604750686175877 0.0197350423090126 -0.5729687 0.6741947 0.4660133 21 21 21
-0.0520661595834783 0.0370974414832646 -0.00945517017916181 -0.6288317 0.7657384 0.134964 129 129 129
0.0746938165651271 0.017290102768665 0.00260472700521014 0.8523475 0.4960497 -0.1656454 71 71 71
-0.0678742650522283 0.00493033461642806 0.0111672322504189 -0.2001507 -0.2876363 0.9365923 97 97 97
0.00707789029941053 0.0528999143130833 0.0301504175417092 -0.1771957 0.1202092 0.9768068 229 229 229
0.0264064547048518 -0.0434597558491176 0.0219678621046211 -0.09590069 -0.4814834 0.8711928 91 91 91
-0.0105017993225148 -0.0152493543140834 0.0226145426981118 -0.3116564 -0.2561902 0.9150065 86 86 86
-0.0219036165250829 -0.01897407836842 0.0187886099569466 -0.3277896 -0.3267707 0.8864394 152 152 152
0.0314259704576442 -0.0448810286037868 -0.0148961205728386 0.6660872 -0.7445776 -0.04395422 60 60 60
-0.0323742005600026 0.0166314416415745 0.0247287194482949 -0.1342938 -0.04330148 0.989995 194 194 194
-0.00970685217514544 -0.0828998214714473 0.00464630529805682 -0.2728657 -0.4714702 0.8386061 154 154 154
0.00739586617812604 -0.0154930479042476 0.0276605229131844 -0.1495317 0.06974331 0.9862942 154 154 154
-0.0121371123565724 0.0187165313251073 0.0254333953611519 0.01808721 0.02912294 0.9994122 211 211 211
-0.0625367585195592 0.0251958840377385 -0.0140808929450844 -0.7539859 0.652315 0.07739833 106 106 106
-0.0322000655902913 -0.0173783130161708 0.0154671411268379 -0.2641052 -0.274297 0.9246673 108 108 108
0.0521854635702083 -0.024076206158871 0.00468632981702349 0.7407855 -0.6712344 0.02609862 66 66 66
0.0528214153276393 -0.0234099156372493 0.00684360072537921 0.7629483 -0.6458772 0.02743014 37 37 37
0.0533664998041102 -0.014663261842007 0.0328156094305184 0.1085423 -0.07213401 0.9914712 122 122 122
-0.00788981948032885 -0.0117945498936122 0.0247451405279305 -0.2180837 -0.1597204 0.9627715 140 140 140
0.0596238848195979 0.0285353534705693 0.00849217579289935 0.4570113 0.8736741 -0.1668359 45 45 45
-0.0648761663211873 -0.0282470709793514 -0.0108327676303718 -0.6782073 -0.7340856 0.03395695 82 82 82
-0.0439009192956975 0.0190479331500584 0.0226948301546242 -0.2462714 -0.1418628 0.9587624 172 172 172
0.0196834680067012 0.0521394782550389 0.00664887235089801 0.4806827 0.8637148 -0.1514626 128 128 128
0.0064116444812724 -0.0636147088520473 0.00902823016568682 -0.1882103 -0.3105679 0.9317319 82 82 82
0.00121799375876874 0.0638366215713078 0.0085223357431557 0.3644394 0.9208798 -0.1384349 139 139 139
0.0565462883935878 0.0131784253604466 0.0277774076215889 -0.1898899 0.2267769 0.955256 85 85 85
0.0624243792520472 0.0160896354205662 0.0281378667108681 -0.1111956 0.201561 0.9731437 100 100 100
-0.0165131065620473 0.0520682805068547 0.0192804972879555 -0.5020332 0.5929304 0.6295999 48 48 48
0.0376946952568004 0.0351982288844639 -0.013364743138108 0.4760018 0.834006 -0.2790276 93 93 93
-0.0262190226091435 -0.0677641160004085 -0.00113144114092328 -0.7671887 -0.6189763 0.1681957 77 77 77
0.0544870075212428 -0.0118196434490627 0.0324180166475441 -0.1442845 0.1682538 0.975127 91 91 91
-0.0336960825695088 0.0465059154517705 -0.00502761795595624 -0.6021525 0.7787091 0.176138 61 61 61
-0.00648162994518786 0.0576957338340336 0.0243632833711769 -0.5474383 0.4136051 0.7274903 79 79 79
-0.0714855912698796 0.0128871970660741 0.00645530626698992 -0.7396807 0.6598608 0.1321218 85 85 85
0.0123018201814601 -0.0276025063507503 0.0259503464452889 -0.2598398 -0.3637423 0.8945249 165 165 165
0.0173667695747325 0.0460155480392033 0.0299716930143502 -0.03438309 -0.1311719 0.9907632 170 170 170
0.0158223089204738 0.00982253484798018 0.0252729694597389 0.08496797 -0.04769115 0.9952417 93 93 93
-0.00714030597343951 0.055870013762241 0.0247241000883248 -0.5269904 0.3583673 0.7706193 82 82 82
-0.0492043617738774 -0.0156108564846462 0.0111485163919594 -0.2828873 -0.2632759 0.9223126 176 176 176
0.0143732305990169 0.0148046784884984 0.0250127057783272 -0.01806081 -0.04076016 0.9990057 94 94 94
-0.00850307676926165 -0.0401580161564296 0.0152710716478493 -0.2784857 -0.3883373 0.8784303 163 163 163
-0.0253408077730229 0.0468707256801182 0.014165345882621 -0.8014321 0.4869696 0.3472277 38 38 38
-0.0699979040397695 -0.0232694572918361 -0.00850516154840925 -0.7204648 -0.6917775 0.04872636 58 58 58
0.00353469219073743 -0.0768464631550258 -0.00941587581709363 0.6821473 -0.706904 -0.1869808 36 36 36
0.0504365738855311 0.0268653505332524 0.0263912718050148 0.02543631 -0.108781 0.9937403 119 119 119
0.0284733202682445 0.00471450619769637 0.0256544093839791 -0.1453582 0.2862903 0.9470527 105 105 105
-0.005414140559583 0.0594815485961491 -0.011042099142823 0.3548451 0.8016073 -0.4811556 125 125 125
0.0170715030656764 0.0539556615836674 0.00905117795392535 0.4790151 0.8684688 -0.1276966 83 83 83
-0.0172247711195043 -0.036614162396664 0.0142366926424172 -0.3166486 -0.3301811 0.8892211 64 64 64
-0.0579563501848271 0.0284312837607915 -0.000734205985817693 -0.7707967 0.6345431 0.05681085 97 97 97
-0.06947929892674 -0.00511966414379533 0.00834659144803546 -0.2298924 -0.2801191 0.9320315 100 100 100
-0.067192864753156 -0.0242874152176326 0.00269145176335833 -0.4944167 -0.5459768 0.6763589 170 170 170
-0.0359401080383351 0.00135992698741499 0.0202956537954476 -0.2745833 -0.244418 0.9299806 150 150 150
0.069371449612231 0.000711935091739335 0.0161679129354622 0.8855022 -0.4106039 0.2174634 80 80 80
0.0478700276838252 -0.026532751988644 0.0311317186109688 0.5719309 -0.4085867 0.711303 78 78 78
-0.0212449404968312 0.0559138529784733 -0.00179084732607343 -0.7204925 0.6931765 0.01992016 49 49 49
-0.0337142470850041 -0.0339592523090785 0.0093906264059212 -0.2781177 -0.300117 0.9124584 147 147 147
-0.00207535658016711 0.0120257609374577 0.025174890016761 -0.01190454 0.1037826 0.9945288 141 141 141
-0.00373339388504534 -0.0207065171711391 0.0240432064287331 -0.2858395 -0.3072664 0.9076801 185 185 185
-0.0321243527902654 -0.0608427948467677 -0.000701483035836004 -0.684732 -0.691941 0.2288228 39 39 39
-0.0281723413242391 0.0412034862525517 0.0149096290819313 -0.7021672 0.5836716 0.4077852 18 18 18
0.0437022325025508 0.0347705953605229 -0.00342532589510419 0.497261 0.8520936 -0.1633037 106 106 106
0.00682047273978681 -0.0594139224998897 0.0107856135122444 -0.2058285 -0.4143249 0.8865492 54 54 54
-0.0178380135072759 0.0608321600444371 0.00798878476544879 -0.7883859 0.562723 0.2485769 96 96 96
0.0283597585187861 -0.0489191538803523 -0.00437447025850751 0.7725353 -0.5951226 -0.2214008 89 89 89
0.0437362965570399 -0.0335327810757106 0.00056016848012469 0.7138497 -0.6993718 0.03602459 56 56 56
0.00831572975978345 -0.034754437875027 0.0219968895666268 -0.2025225 -0.3345873 0.9203455 95 95 95
0.00354983177051038 0.046868013668781 0.0291824381105568 -0.0594399 -0.1202004 0.9909686 174 174 174
-0.0261736038698247 -0.0199741847031062 0.0162457864038613 -0.2801854 -0.2857392 0.9164329 137 137 137
-0.0465923968328527 0.0383939617164189 0.00969657704755328 -0.1421885 0.9213568 0.3617791 134 134 134
-0.0113194558395436 -0.086526853512997 -0.0153434832342003 -0.378026 -0.8274001 -0.4153378 91 91 91
