ply
format ascii 1.0
comment File exported by Rhinoceros Version 7.0
element vertex 475
property float x
property float y
property float z
property float nx
property float ny
property float nz
property uchar red
property uchar green
property uchar blue
end_header
0.0157062225613296 -0.013268720432934 0.0121105175197679 0.810296 -0.1701206 0.5607846 71 71 71
-0.0156799144473374 0.0306886322053106 0.0247970681369859 -0.6030018 0.7743212 0.1918736 112 112 112
0.023111265209645 -0.00407124690693306 0.00540007759934247 0.6703973 -0.1742531 0.7212512 90 90 90
0.0318502598080337 -0.0276736133543818 -0.0154757637798232 0.9132283 0.04327364 0.4051437 111 111 111
0.014418523815602 -0.0671505444495051 -0.00136509428614795 0.3637131 -0.7764422 0.5146361 94 94 94
-0.00985487172272803 -0.0593569987265437 -0.0148064632236403 -0.8962167 -0.4246877 -0.1282029 100 100 100
0.0160051994595229 -0.0700148456541865 -0.0117502499639434 0.3912281 -0.8816773 0.2637911 113 113 113
-0.00706084439423682 -0.00535584621113228 0.024675161737259 0.3243709 -0.0490798 0.9446558 242 242 242
-0.0306096858706773 0.00663458175975395 0.0338035534799653 0.4608241 0.1043326 0.8813375 134 134 134
-0.0223308391299546 -0.0356137865034907 -0.00114385674590289 -0.6817321 -0.7183316 0.1387121 93 93 93
0.0247978382382095 0.00835858650523735 0.013394490975197 0.3912608 -0.1450237 0.9087811 146 146 146
-0.0169494933810532 0.0325831062348516 -0.00880551229113757 -0.7500314 0.6599072 -0.04444579 19 19 19
-0.0338061637606919 -0.0133540742842524 0.0246976773918229 -0.897595 -0.2469436 0.3651603 19 19 19
0.0277797394070327 -0.00883103542011665 -0.00348274300688922 0.9845599 -0.0460914 0.1688708 33 33 33
0.000781219509571773 0.00652657814342095 0.0234192620695192 0.3915032 -0.1379539 0.9097769 218 218 218
-0.0135229415622056 0.00226961441356255 0.0276798616827089 0.2874309 -0.1331936 0.9484951 135 135 135
-0.01720245549348 0.0325540191682012 0.000944198268707397 -0.6967725 0.711579 0.09035198 42 42 42
-0.0355361289706528 0.0105556137116583 0.0164726238430101 -0.7264486 0.675408 0.126872 104 104 104
0.0362104587826431 0.0146947986634405 0.00821259726887524 0.6979354 -0.3542775 0.6223935 109 109 109
-0.0351630038943589 -0.0192868822066157 0.0139877360046464 -0.9239246 -0.2736043 0.2674022 44 44 44
0.0196618252072036 0.0528662092240484 0.0160648684681016 0.201087 0.3026299 0.931654 48 48 48
0.00420777132841943 0.0225276834519537 0.0227896433055955 0.3200904 0.01812034 0.9472137 64 64 64
-0.0201230830874741 0.0296308881791265 0.00750005354290784 -0.5774586 0.8159426 -0.02791488 84 84 84
-0.045649606677562 -0.00744022063892769 -0.000946475964729188 -0.993027 -0.04621712 0.1084496 115 115 115
0.0343031101498306 0.00442551441508843 0.00228972842102826 0.7079976 -0.5835433 0.3977645 96 96 96
0.0208574943813979 -0.0627316348997919 -0.0118696231662673 0.9278779 -0.3716077 0.03082811 109 109 109
0.0379213505062759 0.0261660701783331 0.00976923217182935 0.6132689 0.01790942 0.7896712 55 55 55
-0.00154145428803565 0.0346575862916143 0.0254743408144075 0.30242 0.2644234 0.9157633 90 90 90
0.0168906860623061 -0.0552877896277277 -0.00129020104998767 0.7634754 0.02147795 0.6454796 70 70 70
0.0410336666378677 0.0201008207352789 -0.00527167211169421 0.9645947 -0.08461439 0.2497949 58 58 58
-0.035714942904979 -0.0157342069594233 0.0179179321706849 -0.9148554 -0.3008531 0.2693086 32 32 32
0.00643841555449365 -0.0198291652647822 0.018812091249283 0.561049 -0.2739911 0.7811228 148 148 148
-0.0153165645327866 -0.0486698263136713 -0.00579203556174457 -0.886713 -0.4382108 -0.1473475 92 92 92
0.00291983416411279 -0.0743878596274226 -0.0126100320636672 0.08070755 -0.9830841 0.1644135 118 118 118
0.0426818542751968 0.0448610670121343 -0.00186638424987018 0.9842407 0.1439882 0.1026531 57 57 57
0.0238012485775649 0.0413842088730962 0.0156518529832917 0.402278 0.09070121 0.9110135 54 54 54
-0.0243545360293687 -0.0358393304793208 0.0193168829858857 -0.2997392 -0.8803107 0.3677084 14 14 14
0.0203515701565444 0.0648429281266363 -0.000722884041015504 -0.6171883 0.7025641 0.3542347 19 19 19
-0.0398391074862778 -0.0219892375914423 0.000742302435691955 -0.8659567 -0.3455271 0.3615661 146 146 146
0.0137929134640395 0.0589616186173589 -0.00155240188235461 -0.6842165 0.6951407 0.2205158 15 15 15
0.0164422207150161 0.0592723972352178 0.00542742123013318 -0.5710847 0.7573546 0.3166643 80 80 80
0.0182475261959731 0.00439690418559624 0.0161164115846711 0.4549586 -0.2220964 0.8623723 228 228 228
0.0379029922756851 0.0131695158036382 0.00413443257218182 0.8759792 -0.3157432 0.3646458 69 69 69
-0.0030592269625962 0.0436166412385137 0.0039581667364198 -0.5937651 0.7765555 0.2107238 21 21 21
-0.0164435691561997 0.0220621711762579 0.0297532539547044 -0.03824912 -0.05400512 0.9978078 80 80 80
0.0241691284451186 0.0283383018525274 0.0159735988557893 0.5146867 -0.1066932 0.8507139 52 52 52
0.00466768076750634 -0.0677616112677424 0.0069101463735658 0.3023661 -0.7514095 0.5864798 95 95 95
-0.00565798947480323 -0.0689576380698054 -0.00928853343123615 -0.7120589 -0.6783512 -0.1811404 130 130 130
0.00639240076872705 0.0548336393387945 -0.0132698703824919 -0.739755 0.6187752 0.2643477 33 33 33
-0.0327714271273911 0.0186536199601324 -0.000747858387176392 -0.7994059 0.5851273 -0.1362944 104 104 104
-0.00250728795197608 -0.0716185086218684 -0.00955338667029559 -0.6003031 -0.799771 -0.001581409 106 106 106
-0.0401304549899399 -0.0267059915510981 -0.0056681920110625 -0.8610134 -0.4371965 0.2598368 130 130 130
0.0203515701565444 -0.0621380322424738 -0.0149023968994063 0.8965543 -0.442925 -0.002795335 103 103 103
0.038813751247853 0.0146218425782354 0.000795499581153991 0.9088582 -0.2518357 0.3324991 65 65 65
-0.0246764011111558 0.0255234128983648 0.0166888098896104 -0.7091062 0.7003249 0.08193528 107 107 107
0.0065535717281997 -0.0332665555922358 0.0135418485582429 0.56897 -0.1435796 0.8097271 118 118 118
0.00812880328032373 0.0489458925278814 0.0107530515373307 -0.6299112 0.7527062 0.1914296 95 95 95
-0.0159989185061753 -0.049616228863415 0.00900839378243268 -0.7707856 -0.4174539 0.4812711 136 136 136
-0.0337372607913315 -0.00969649486225532 0.0272981535375673 -0.8650289 -0.4125423 0.2855413 26 26 26
0.000535886791676266 -0.0575118773428767 0.0144983242929536 0.3060859 -0.4003716 0.8637211 113 113 113
-0.0232230014529526 0.0263274795563848 0.0185188661993104 -0.6381099 0.750174 0.1733627 136 136 136
-0.0380376167025864 -0.0316367261854975 -0.00891931245917499 -0.6105488 -0.790377 -0.05034223 151 151 151
-0.0065549201693833 0.0254824049027593 0.0277403901994783 0.4053321 0.09442118 0.9092802 88 88 88
0.0184084587368667 -0.0295750015227167 0.00342245509033978 0.6002392 -0.3294325 0.7288259 93 93 93
0.0249051265988052 0.0688165313752325 0.000155464905555847 -0.6436992 0.6350849 0.4269878 30 30 30
-0.0320125407901108 0.0193563587220342 5.11418760377191E-05 -0.7754049 0.6271556 -0.07364192 85 85 85
0.0385040455136001 0.014353383258167 0.00271844972973645 0.8955282 -0.2758374 0.3492034 71 71 71
0.0429653339657485 0.0387203580887945 -0.0138173688470763 0.9553724 0.2792536 -0.09633825 49 49 49
0.0435442142758071 0.0348625070603521 -0.0058258611976546 0.997445 0.008385347 0.07094392 47 47 47
-0.0334766692843735 0.0039179212601812 0.0358837853849489 0.2295043 0.04332265 0.972343 84 84 84
-0.0131779498782456 -0.0566586964575617 0.00635269393330395 -0.6808051 -0.5695983 0.460502 112 112 112
0.02830855181548 0.0032075531037481 0.00967039276963055 0.4759444 -0.6282981 0.615401 120 120 120
-0.00756676861909034 -0.0596730225531428 0.00792999674683392 -0.5721774 -0.5955702 0.5638344 147 147 147
-0.0358069724765122 -0.0318545215575068 -0.0125059027492446 -0.3242727 -0.8933988 -0.3109434 125 125 125
-0.0080035514560044 -0.061912428661999 0.00510031093960583 -0.6353889 -0.6059756 0.4786173 107 107 107
-0.0440858192172349 -0.0209144466368525 -0.0118240256130141 -0.9338859 -0.2994811 0.195367 129 129 129
0.0235711746487319 -0.019859206005749 0.0022242229164201 0.7531037 -0.1307692 0.6447746 74 74 74
0.0412098579678237 0.0245712883027227 0.00394591798191846 0.9522645 -0.1657537 0.2563554 107 107 107
-0.0126720256533921 -0.0534575098006098 -0.0145146239816588 -0.9133653 -0.4069426 0.01270834 119 119 119
-0.0167654342379868 -0.046130310818371 -0.00426083694094836 -0.8637583 -0.4611982 -0.2030219 87 87 87
0.0265914612087905 0.0652490741761358 0.00883300711518109 -0.4928834 0.7565086 0.429838 58 58 58
0.000221651104420406 0.0224094278367193 0.0242788057506639 0.4079553 0.04761265 0.9117596 49 49 49
0.00883023074004052 -0.0718690269438593 -0.0134262878715438 0.2636685 -0.8957027 0.3580442 108 108 108
-0.0351401157107651 0.010668981746021 0.0356608044088441 0.02657598 0.1922714 0.9809819 94 94 94
-0.0238419360843003 -0.00568617515247749 0.0304858397424775 0.3880377 0.00281839 0.9216392 106 106 106
-0.0404523200717271 0.00667654342967583 0.00756697465782941 -0.7863721 0.617597 0.0138927 25 25 25
0.0263079815182388 -0.0268398635832636 -0.00338068495387256 0.8955461 -0.2461189 0.3707056 66 66 66
-0.0348871535983384 -0.015277039333996 0.0210455219925004 -0.9174612 -0.2424638 0.3153987 15 15 15
-0.024998504611522 0.025899398997608 0.00855094303494275 -0.7018346 0.7109615 0.04429347 119 119 119
-0.0250902957644761 0.016093958094898 0.0314218710840303 0.3496369 0.05333923 0.9353657 41 41 41
0.0290905647549331 -0.0317049138991206 -0.0106147218763274 0.7700396 -0.1935048 0.6079431 112 112 112
0.00899116328093408 -0.0620153062788813 0.00697231401806653 0.5101019 -0.3080401 0.8030612 105 105 105
0.0203413181576431 0.01469491787273 0.0164408247650224 0.3776235 -0.1024126 0.9202783 119 119 119
-0.0233057326999009 -0.0333684795348017 0.0248106132925111 -0.2436167 -0.7456186 0.6202449 29 29 29
0.000206392315357906 0.0169325954468877 0.0245411257923204 0.4327194 -0.01267911 0.9014395 88 88 88
0.0254570656094253 -0.038520824238476 -0.00815278182620227 0.6053741 -0.1385537 0.7837889 82 82 82
-0.00425513455536963 -0.00340081386249946 0.0239369284093934 0.3059134 -0.06305883 0.9499687 35 35 35
-0.0454426593509019 -0.00707806281727241 0.00076706816559613 -0.9814923 -0.1413233 0.1292303 123 123 123
-0.0389805621829331 -0.00340069465320991 0.0201406787813264 -0.8095897 -0.4110539 0.4190455 36 36 36
0.00397769739958642 0.0052449590714605 0.0216777782619554 0.3818175 -0.1683917 0.9087682 224 224 224
0.0106469803127944 0.0484703666718633 0.0186892609775621 -0.1715173 0.5180489 0.8379781 154 154 154
0.012385528591603 0.0544266588242681 0.0088032047927934 -0.6849022 0.6572148 0.3146073 97 97 97
-0.0193870849337876 -0.0426015966383784 -0.00348189364070117 -0.8746514 -0.4702348 -0.1177464 116 116 116
0.0250047855648696 -0.00928534202259468 0.00289191414719403 0.8263531 -0.1665341 0.5379656 49 49 49
-0.0109241790499985 0.0337743646653326 0.0263770233572084 -0.2498337 0.8343191 0.4914212 90 90 90
0.0255488567623794 -0.0131847970930903 0.0012396882951814 0.8543856 -0.1211992 0.5053079 124 124 124
-0.0318699664798081 -0.00335384540241646 0.0343304138362962 0.2061926 -0.2944095 0.9331707 89 89 89
-0.0311730689730942 0.00429521866160942 0.0343951444805223 0.4187579 0.09345393 0.9032764 37 37 37
0.0414168052944839 0.0425060874970586 0.00749524046784222 0.9199007 -0.05544334 0.3882124 66 66 66
0.0134064369473159 -0.0666777008025019 0.00018619109993756 0.4735668 -0.7436916 0.4718658 115 115 115
-0.033001262637645 -0.0346497409788935 -0.00137226174468219 -0.3503809 -0.9327914 0.08446001 107 107 107
-0.0408969707217515 0.000201452449146045 0.0203712146461564 -0.8967586 -0.2625054 0.3562514 38 38 38
0.0103985481533706 -0.0674590580908625 0.00270433833008588 0.5143622 -0.7669927 0.3836062 36 36 36
-0.0389345473971665 -0.0126586072890131 0.00846164037590802 -0.8561097 -0.4342304 0.2802145 133 133 133
-0.0175934619632065 0.018521297648731 0.0291078846633989 0.04122373 -0.04921831 0.997937 81 81 81
-0.0252650565829575 -0.0130714290587275 0.0303026299655992 0.2628667 -0.1692694 0.9498679 81 81 81
0.00416175654265283 -0.0687007420508234 0.00498396267300427 0.1679157 -0.9066544 0.3870171 103 103 103
0.0108768158230483 0.0585431940110357 -0.00935637841815173 -0.7532626 0.5895698 0.2915524 38 38 38
-0.00890048215058448 0.034405577853504 0.0233177702606279 -0.3931733 0.8944782 0.2128931 110 110 110
-0.0095752067294419 -0.049828779026684 0.015100480216797 -0.5005445 -0.4191603 0.7574694 93 93 93
-0.0344272441592515 0.0150352603943975 0.0314357142627794 -0.7123225 0.6698236 0.2096018 100 100 100
0.0267218761715591 0.0379245168717535 0.013812051314171 0.4428508 0.05226717 0.8950706 52 52 52
0.0174080543789565 0.0635609514268072 -0.00366383681887805 -0.704099 0.6616759 0.2577396 18 18 18
0.0269056968960464 -0.0492735021559565 -0.010766207081024 0.7032608 -0.2255922 0.6741902 53 53 53
0.00223008921477197 -0.00803006820362495 0.0215140294015962 0.3157632 -0.02668889 0.9484626 84 84 84
-0.020481903049022 0.0288464910538824 -0.0092806507169646 -0.6474915 0.7501915 -0.1340433 132 132 132
0.037231367138356 0.0600355751069219 0.00938947607880414 0.5925727 0.02323105 0.8051819 92 92 92
0.0146943741116226 0.0104513055833013 0.0177474032819825 0.3337903 -0.1085023 0.936382 210 210 210
0.014533441570729 0.00638758011180474 0.0177666704834062 0.3920367 -0.06948205 0.9173219 202 202 202
-0.0299351997103989 -0.00131250552814888 0.0341650854528505 0.4297132 -0.1332062 0.893086 108 108 108
0.00899116328093408 0.0364383346589239 0.0209314834058839 0.3763978 0.02474706 0.9261276 69 69 69
0.0165065937313735 0.0050005800278814 0.0166307698667604 0.4234079 -0.1396512 0.8951107 228 228 228
0.0302519016537368 0.0109712965043218 0.0105836849392015 0.5425997 -0.1880799 0.8186645 95 95 95
-0.0157132930484116 0.00878201790172173 0.0278637867153245 0.1488377 -0.01166346 0.9887928 219 219 219
0.0340854339871108 0.00918911762553765 0.00822858621483624 0.6730399 -0.3280585 0.6628687 79 79 79
-0.0395785159793198 -0.00732160739582466 0.0163664977729875 -0.810065 -0.3624624 0.4608858 34 34 34
0.0182358436855972 -0.0336316936461298 0.00283223499661267 0.7217978 -0.2814242 0.6323041 80 80 80
-0.0406823940005601 0.00569974251109673 0.01185354699498 -0.7853891 0.6006258 0.1497085 25 25 25
-0.00727923581269385 -0.031047474667248 0.0208520006120759 0.546706 -0.1885632 0.8158165 64 64 64
-0.024078447314769 0.00891064472514702 0.0307773809612352 0.3480279 -0.01216279 0.9374053 241 241 241
0.0015632324490249 0.0101597196610601 0.0237872462452012 0.3590362 -0.07916273 0.9299604 155 155 155
0.0236171894344985 -0.00576533012073921 0.00602963675862134 0.7137658 -0.1343921 0.6873697 29 29 29
-0.0375088042941392 -0.0093567483870356 0.0182296644628602 -0.8523275 -0.3023463 0.4267605 29 29 29
0.0221223049435317 0.00479399032908989 0.0144029121578294 0.3897553 -0.4269251 0.8159814 108 108 108
0.0413250141415298 0.0253783351929815 -0.00278001914614856 0.9611412 -0.2317845 0.1499449 74 74 74
0.0118657760891616 -0.0629322045294611 0.00488990654354871 0.7281735 -0.3223452 0.6048611 76 76 76
-0.0448218173709214 -0.00433255366962837 -0.00448273013228595 -0.9258822 0.3719232 0.06644674 134 134 134
0.0393010788235366 0.053379286006275 -0.0147773314535063 0.9051984 0.3979312 -0.1492199 17 17 17
0.0205539875302017 0.016734827235523 0.0163152228773195 0.3657313 -0.1048709 0.9247933 103 103 103
-0.033921319934398 0.0132185108216436 0.00943134834175885 -0.7205552 0.6813037 0.1289394 18 18 18
0.00480572512480615 -0.0407052152602045 0.0140798400819856 0.4941273 -0.0413557 0.8684054 67 67 67
-0.0318976230349839 -0.004680287167248 0.0339477818191606 0.17655 -0.3470529 0.9210778 134 134 134
0.0444616489681899 0.0307772047074468 -0.0114602137624663 0.9461454 0.05000799 0.3198563 55 55 55
-0.0134538001742661 0.0252921468766363 0.0293083648861009 0.0809449 0.06068828 0.9948693 106 106 106
-0.00610144803193213 -0.003917347714123 0.0244931440532762 0.3326214 -0.06221996 0.9410057 243 243 243
-0.0277186221804917 -0.00950862102192329 0.032235370177086 0.1624793 -0.2027365 0.9656596 135 135 135
0.0175229721340835 -0.03098059825581 0.00372259427910626 0.6648625 -0.2905853 0.6881265 60 60 60
-0.0402224845614731 0.00529240436870171 0.021025807756241 -0.8866431 0.4566778 0.07286558 101 101 101
0.0246521644863784 0.0671571380646856 -0.0146580923616332 0.1771823 0.8296863 -0.5293647 15 15 15
0.00370184710356591 0.0519554502518804 -0.0130443562089843 -0.6444436 0.7502979 0.1474634 52 52 52
-0.0441318340030015 0.000888217166248095 0.00573469807511151 -0.9101889 0.3968247 -0.1186855 60 60 60
0.000523250606983883 0.002666223719898 0.0228173594654161 0.3943721 -0.1419205 0.9079258 223 223 223
0.0174080543789565 -0.0429556482283442 -0.000308408242408631 0.8227829 -0.2008384 0.531688 76 76 76
-0.00178678700593116 0.0384179241212042 0.0243844400823671 -0.04908527 0.5583311 0.8281648 165 165 165
-0.0370212382998765 -0.0292158239333002 -0.000842838388625977 -0.8542769 -0.4744558 0.2123739 120 120 120
-0.0150636024203599 -0.0496821516005366 -0.0153433073579711 -0.9054751 -0.4226238 0.03878112 92 92 92
-0.00908454129365088 -0.003581654354748 0.0254982422769624 0.3028648 -0.04355302 0.9520378 246 246 246
0.0384272747311294 0.055946458056751 -0.00809158275717914 0.9268109 0.3304053 -0.1784765 19 19 19
0.0169481449398696 -0.0294941776244013 0.00472943593865216 0.6281099 -0.2735499 0.7284562 85 85 85
-0.015878517123729 -0.00517989329975532 0.0270605843246537 0.2859696 -0.07099587 0.955605 244 244 244
0.00908319285246728 -0.00993062190693306 0.0193457614362794 0.3944823 -0.1183276 0.9112532 107 107 107
-0.0157383269992173 -0.00951720409077095 0.0266471069038469 0.3215186 -0.01711453 0.9467486 63 63 63
-0.0218249149051011 -0.0110503547636835 0.0294504474580842 0.3609464 -0.07109953 0.9298723 59 59 59
0.0164882355007827 -0.0541475527731745 -0.00110834727877795 0.7771469 -0.004784955 0.6293011 48 48 48
0.0185119324001968 0.0681224948914678 -0.0112881053506774 -0.5299875 0.8479674 -0.008035485 49 49 49
0.0324634723934829 0.0587812549622686 0.01109691073304 0.3044642 -0.03163858 0.9519982 81 81 81
0.0318960361752212 0.0391673929246099 0.0120751421630937 0.3664928 -0.05468241 0.9288126 241 241 241
0.0196618252072036 0.0686267501862676 -0.0122897167026442 -0.4035967 0.8971959 -0.1793021 58 58 58
0.0274347477230727 -0.0269428604094355 -0.00468604157561481 0.8842656 -0.2298534 0.4064994 61 61 61
0.0163594894680679 0.0162075645478399 0.0179796974838334 0.3379479 -0.1008432 0.9357467 100 100 100
0.0164882355007827 -0.0122673624007075 0.011335672038849 0.8201992 -0.1528286 0.5512864 39 39 39
0.0346404724392593 0.00658570595103813 0.00328175832634747 0.7635087 -0.4869096 0.424233 45 45 45
0.0320250206265151 0.0107660181077154 0.00994220485096753 0.5385894 -0.2353059 0.8090442 87 87 87
0.00489775469633935 -0.0710268133131831 -0.00327736030215442 0.2174217 -0.9386113 0.267837 95 95 95
0.0388411693844497 0.0189159996064336 0.00647224594956219 0.8992876 -0.260251 0.3514987 52 52 52
0.00887624552580712 0.0562181360276373 -0.0102230597555083 -0.7727659 0.5812333 0.2549523 32 32 32
0.00868455698820947 -0.0175722949950068 0.0182363997877198 0.5902065 -0.2801866 0.7570679 134 134 134
-0.0145119018283189 -0.049701940342602 -0.00877755771273792 -0.8962815 -0.4406527 -0.05004764 99 99 99
-0.0356689281192124 -0.00579858951252388 0.026523814696129 -0.8976918 -0.4281433 0.1041284 21 21 21
-0.00425513455536963 0.0445009357484014 -0.00349706302279651 -0.6231567 0.7565871 0.1981204 11 11 11
0.00428668787810205 -0.0170431249586909 0.020842016834076 0.404026 -0.1296857 0.9055079 100 100 100
0.0163730793270767 -0.0153852813689082 0.010820717710312 0.8051257 -0.08615679 0.5868132 63 63 63
-0.00379522511628272 0.0340613014252813 0.0266250233829576 0.1560997 0.3266372 0.93217 82 82 82
0.027066867855519 -0.0030790679900019 0.0012152056873399 0.7288087 -0.6005547 0.328895 19 19 19
-0.0298393554416001 -0.0108792894331782 0.0321513425291139 -0.06027665 -0.2903925 0.9550073 125 125 125
-0.0448907203402817 -0.0134129636732905 -0.00427986572379291 -0.9584067 -0.231592 0.1667983 128 128 128
-0.0183983630862534 -0.0460020416228144 0.00667163838749707 -0.9030831 -0.3889228 0.1821534 159 159 159
0.0288604908261001 -0.0155001991240351 -0.00964417944544971 0.9479561 0.1437942 0.2840819 38 38 38
0.0238472633633315 -0.0368840806929438 -0.00598637650603473 0.6923764 -0.1889634 0.6963532 40 40 40
0.00471917918059228 -0.00536884002369331 0.020481796163376 0.3081506 0.01745125 0.9511775 105 105 105
-0.00339658925202491 -0.00353647403400825 0.0234511803567964 0.2972043 -0.07398003 0.9519436 91 91 91
-0.0289538688388169 0.0202959663422735 0.00941921879654706 -0.8157282 0.5726013 0.08194656 79 79 79
-0.033461410495311 0.0145316011460455 0.00861993541127026 -0.7485306 0.6379355 0.1809427 23 23 23
-0.00393326947358252 0.0426875240357549 0.00303724517231763 -0.5947028 0.7739756 0.2174638 25 25 25
-0.0267461127963364 0.021600115969959 0.0210239749134141 -0.7148426 0.696471 0.06267455 75 75 75
0.0260733776364028 -0.0432896726576655 -0.00943139086360156 0.5938277 -0.1597932 0.788565 126 126 126
0.0435325317654311 0.0284430868180425 -0.000662281018440125 0.9729137 -0.1319355 0.1898208 44 44 44
-0.0112806148257554 -0.0436104648558466 0.0183032761991578 -0.2460259 -0.546001 0.8008459 163 163 163
0.0117968731198013 -0.0726435296980708 -0.0142872620641631 0.2231323 -0.900423 0.3734306 105 105 105
-0.0300424880709946 -0.034917365833935 0.000165731805618408 -0.08651276 -0.9959679 -0.02373563 142 142 142
0.0289525203976333 -0.0336600654570429 -0.0112354744493407 0.7493396 -0.1403619 0.6471388 133 133 133
0.0212256126675308 -0.0302643888441889 0.00150337924366772 0.5723178 -0.4182074 0.7053757 89 89 89
-0.0389345473971665 0.00811265774089409 0.00936837603455365 -0.7746085 0.6314951 0.03457819 15 15 15
0.016801040676564 0.0640890485795171 -0.00711732993716419 -0.7107936 0.6316002 0.3096026 32 32 32
-0.0241552180972398 0.0191185361893804 0.0304185460985261 0.2216161 0.402066 0.8883858 61 61 61
-0.0345650500979722 -0.026139985844311 0.0117611597955781 -0.8953457 -0.2541848 0.3657133 107 107 107
-0.0101652927127183 0.03343271084148 0.0198969255865175 -0.4595236 0.8842595 0.08320522 86 86 86
0.0161048584255874 0.0604140646012457 0.000762389200981262 -0.6322678 0.7247824 0.2737295 43 43 43
0.0100673847469985 -0.0702138059584467 -0.00707745442980945 0.3537421 -0.9106553 0.2134792 96 96 96
0.0202137642178237 -0.0572550409285395 -0.00492532442206561 0.801909 0.05501829 0.5949076 82 82 82
0.0226456337246597 -0.00580121211689399 0.00675790120964825 0.6998839 -0.1465753 0.6990553 62 62 62
0.00271860888335107 0.0463981515916021 0.00642274429207623 -0.5074179 0.8345401 0.2146389 25 25 25
0.0184830837521255 0.00647507973033501 0.0161726038635331 0.382812 -0.1821523 0.9056906 233 233 233
-0.0265622920718491 -0.0205351226775019 0.0296379487693864 -0.2276082 -0.2481654 0.9415989 112 112 112
-0.0402530021395981 0.00508152313548638 0.0143318634212571 -0.7916918 0.5903431 0.1572228 29 29 29
0.0191559009823501 0.0554978735001714 0.015169278878029 -0.1488314 0.5992862 0.7865782 171 171 171
-0.0264011211123765 0.0228285676987798 0.0148170005262452 -0.7940515 0.602078 0.08357213 97 97 97
-0.0186973399844468 -0.0430667512862055 -0.00574156532878101 -0.867622 -0.4792968 -0.1323125 90 90 90
0.0300103836331069 -0.019944917484936 -0.0113252241432112 0.9403664 0.1329765 0.3130945 73 73 73
0.0223409347805679 0.0352007038148077 0.017134473818596 0.4063803 0.106214 0.9075096 142 142 142
-0.00411709019806983 0.0362053997071417 0.0258756290853578 -0.09459268 0.5898276 0.8019698 156 156 156
0.0138205700192153 -0.0180168264357417 0.0138345818698961 0.6670084 -0.2670022 0.6955642 153 153 153
-0.00168855855134131 -0.0156961791960566 0.0231513242900926 0.3174182 -0.02751892 0.9478863 122 122 122
0.0237552337917983 -0.00645495586079048 0.00600871552830518 0.7144982 -0.1530809 0.6826848 56 56 56
-0.0176852531161606 -0.043523322865185 -0.0129843939363402 -0.8938053 -0.4458082 -0.04865409 92 92 92
-0.0301037616458237 0.019009578898731 0.0108679841936189 -0.8237879 0.5567135 0.1069753 81 81 81
0.0371393375668227 0.0625222808869512 0.00932693590527356 0.6070772 0.1264494 0.7845175 101 101 101
-0.0115221328463853 0.0356492883713873 0.00630229820614636 -0.634708 0.7576504 0.1520252 46 46 46
0.009681146648854 -0.0294723623244135 0.0126999329507905 0.6218336 -0.1362499 0.7712062 32 32 32
0.00425378611418603 0.0089077837021978 0.022587360042389 0.3924153 -0.1511524 0.9072834 240 240 240
0.0281707458767593 -0.013319145962414 -0.0113515097915572 0.9594679 0.1760034 0.2201 16 16 16
-0.0209508723941148 0.0265661365540655 0.0224600892246324 -0.6227715 0.7420479 0.2480334 81 81 81
0.020960968044728 0.0599971897156866 0.0102741133153993 -0.5365247 0.6977366 0.474663 105 105 105
0.00869981577727197 0.000444520190540088 0.0192691098630983 0.351867 -0.06380057 0.9338732 220 220 220
0.0149933510098159 0.00880323715526177 0.0175432126701432 0.3431558 -0.08653895 0.9352834 216 216 216
-0.00757821271088721 -0.0273217075316279 0.0228701393783647 0.4477351 -0.2919925 0.8451471 112 112 112
0.0400830917629897 0.0244494564088018 0.00629052628880322 0.8850316 -0.1193899 0.4499613 49 49 49
-0.00159676739838721 -0.0072137229887812 0.022514329451378 0.2937461 -0.03317217 0.9553077 80 80 80
-0.0316675491061509 0.01660560436565 0.0248756419599611 -0.7451851 0.6289775 -0.2215545 50 50 50
-0.0397165603366196 0.00512014694530083 0.0245775293291169 -0.9168642 0.3957262 0.05254351 99 99 99
0.00463477900359033 -0.0237796419112055 0.0186325471580583 0.5062876 -0.3466729 0.7896143 124 124 124
-0.0036860294070542 -0.0116529577223627 0.0234586011350709 0.3257692 0.05761918 0.943692 242 242 242
0.043900650051564 0.0221131927521856 -0.00981822500819385 0.8934595 -0.08715148 0.4406072 69 69 69
-0.0135458297457993 -0.0489760749785273 0.012475893992241 -0.6018794 -0.5345103 0.5933295 89 89 89
0.0120841675076186 -0.0509839170424311 0.00646516789799512 0.7900859 0.04543955 0.6113096 64 64 64
0.00573317339751123 -0.0438426845518916 0.0140566687763292 0.5181702 -0.06923804 0.8524703 82 82 82
-0.0435798949923814 -0.0102397315947382 0.00214815248852551 -0.8412807 -0.4158185 0.3454588 136 136 136
0.0381054096493423 0.0658079273255499 -0.00158934186095416 0.8294287 0.4912443 -0.2659456 53 53 53
0.0442456417355239 0.034023154452625 -0.0116745520650786 0.9820366 0.1597601 0.1004032 71 71 71
0.018028896358937 0.0634060985596807 -0.00144599269026935 -0.6544951 0.6963799 0.2944336 24 24 24
-0.0177772826876939 -0.0481175296751826 0.00602300574189008 -0.9037316 -0.3842362 0.1887635 170 170 170
0.00291983416411279 0.0499935037644537 -0.00632129500502765 -0.5325713 0.8423508 0.08254088 40 40 40
0.0274347477230727 -0.0108149164168208 -0.00194623957270801 0.9575979 -0.1183753 0.2626662 23 23 23
0.0165399723324477 0.0304558164628179 0.0192428540170747 0.3079482 0.03959402 0.9505789 75 75 75
0.00158612063261865 -0.0441448801009028 0.015825213092621 0.4012105 -0.03635927 0.915264 49 49 49
-0.00325473019745948 0.0427547580750616 0.00672972311383069 -0.5744585 0.7820662 0.2415986 52 52 52
0.0405122452053726 0.0392595417054327 0.0065177689970094 0.8286398 -0.05556399 0.5570177 54 54 54
-0.044637758227855 -0.00431812934559272 0.0108039390028077 -0.8770695 -0.3184619 0.3596262 105 105 105
0.0130385570797622 -0.0555761568991511 0.00525358428364575 0.8569108 -0.0176638 0.515162 36 36 36
-0.0103953666415513 -0.0618593805281489 -0.00255729148978412 -0.8888782 -0.4580311 -0.01015248 109 109 109
0.0113827400479019 -0.0686056130377619 -0.00239398966426074 0.3368639 -0.8988209 0.2804348 105 105 105
-0.0355923957553208 0.0124457962067754 0.0287680040777284 -0.8642439 0.4863579 -0.1286024 56 56 56
0.0286459141049087 -0.0171781890837519 -0.00939142594927966 0.9510037 0.1154107 0.2868315 62 62 62
0.00233737757536767 0.0505708343537481 -0.0153319377719802 -0.6118447 0.7778149 0.1437009 42 42 42
0.0279866867336929 -0.0470460765807001 -0.0114449251710814 0.738968 -0.2296597 0.6333899 113 113 113
0.0391172580990493 0.054466236308399 -0.00859668741816699 0.923027 0.3421126 -0.1760116 36 36 36
0.015890281704396 0.065498460009876 -0.0111008573591155 -0.679774 0.6701398 0.2980265 38 38 38
0.0347363167080581 0.00243865318614556 -0.00986570010775745 0.7040852 -0.6915801 0.1611863 17 17 17
0.0253650360378921 0.0578036195786626 0.0134906928718644 0.1880636 0.1645411 0.968276 84 84 84
0.0261205845150649 0.0426552183182867 0.0143639009178239 0.3700145 0.04710969 0.9278308 231 231 231
0.0102461986813247 0.0344889051469 0.020832867521103 0.3211174 0.05008619 0.945714 91 91 91
-0.00363882252839209 0.046280611232105 -0.00752180705660999 -0.5819332 0.8094013 0.07888795 34 34 34
0.0276493244442642 -0.00778068236988472 -0.00983621070975482 0.9953716 -0.07968859 0.05371223 8 8 8
-0.0244923419680894 0.0251781827958257 0.0141198944032747 -0.7079507 0.7004826 0.09016623 114 114 114
0.0306312256130874 -0.032925497814831 -0.0128490168868941 0.8054153 -0.1086383 0.5826696 125 125 125
0.0101026706967056 0.0504701025040777 0.0105147968710023 -0.6732804 0.7002671 0.2373172 102 102 102
0.0237552337917983 0.071256745532337 -0.00767277072066486 -0.2833232 0.9478925 -0.1456971 41 41 41
0.00646726420256494 0.0223321802170904 0.0220343630493242 0.2935246 0.009187301 0.9559074 133 133 133
0.00430886080595849 0.0350575334580572 0.0230614851892549 0.3460366 -0.03859819 0.9374267 77 77 77
0.0142573528561294 -0.0511758439986079 0.00263548006420911 0.8504714 -0.04092776 0.5244267 30 30 30
0.0381054096493423 0.0541322118790777 0.00983144451981366 0.4784551 0.03499467 0.8774144 69 69 69
0.0286766701016128 -0.0474728458372919 -0.0124831188737792 0.754528 -0.22091 0.6179695 115 115 115
-0.00359209248688819 0.00439082451182915 0.024626732963379 0.2822382 -0.1637524 0.9452654 119 119 119
-0.0354851073947251 0.00255476303416802 0.0360977809608537 0.001631877 -0.07361489 0.9972854 80 80 80
-0.0169034785952866 -0.0515292995421259 0.00684894730454266 -0.8268173 -0.4336123 0.3582646 160 160 160
-0.0133963412967026 0.0361344701798589 -0.00104078541392505 -0.6449993 0.7522237 0.1346677 37 37 37
0.00225774576994775 -0.0715594404188959 -0.00476969669455707 0.133869 -0.9415043 0.3092713 111 111 111
-0.0173083133426011 -0.0456975810973017 -0.0132372517406386 -0.8935751 -0.4487676 -0.01145137 121 121 121
0.0192019157681167 -0.0133245103804438 0.00735546757584393 0.6974247 -0.1338171 0.7040539 29 29 29
-0.0178416557040513 0.0027277357133062 0.0287465911090928 0.2585953 -0.08161759 0.9625316 46 46 46
-0.0220087356295884 -0.0361330621687739 0.0162617426097947 -0.5225896 -0.8402928 0.1442502 21 21 21
-0.0217879600253403 0.0142336971314581 0.0300088684738237 0.3650475 -0.02085344 0.9307553 220 220 220
-0.0320354289737046 -0.0349965208021967 0.00716681887512982 -0.4800254 -0.8693466 0.1175252 160 160 160
0.0182267837795913 0.0024908668549688 0.0143587302148896 0.5966781 -0.3806672 0.7064473 94 94 94
0.0146714859280288 0.0640064365418584 -0.0110633362352294 -0.7318917 0.5984015 0.3259605 43 43 43
-0.00588782498505713 -0.0552625768629877 0.0141716610372621 -0.5534029 -0.5311286 0.6415977 121 121 121
-0.0105562991824448 -0.0295245759932368 0.0238156031549531 0.5230222 -0.1476317 0.8394359 128 128 128
0.0299030952725112 0.0647849924119146 0.0121964227140504 -0.01143406 0.3901987 0.9206597 121 121 121
0.0336438827786147 0.0708633548768194 0.00687448789482892 0.2819116 0.7280768 0.624844 102 102 102
-0.00117357442048194 0.0474839098008306 -0.00328072796458423 -0.5185298 0.8270118 0.2172055 30 30 30
0.0211795978817642 -0.0529745929686396 -0.00647491107577503 0.7607231 0.03990852 0.6478485 22 22 22
0.0120267086300552 -0.0655776970831721 0.00265532841091931 0.6751316 -0.5111981 0.5318588 55 55 55
0.00685254862639306 -0.0354558341948359 0.0127483319223481 0.5152867 -0.08363621 0.852927 117 117 117
-0.0378766841616929 -0.0144614093748896 0.0108549009740907 -0.9090213 -0.3599889 0.2099722 117 117 117
0.00150934985014795 0.0162992364915044 0.0238540183485109 0.387462 -0.01519379 0.9217604 63 63 63
-0.0182371921267808 -0.0426932685820429 0.0162098269641954 -0.5974384 -0.6833288 0.4196774 66 66 66
-0.00792535016205909 0.0422341711075933 -0.00767779241198718 -0.7196568 0.686856 0.1016023 31 31 31
0.00195400050017236 0.0453244335206182 0.0074243258417207 -0.5090446 0.8257514 0.2429162 20 20 20
-0.0153921432223618 0.0203405506165655 0.0292132507742006 0.06414168 -0.09488925 0.9934193 86 86 86
-0.00908454129365088 -0.0653385036436884 -0.00542384276980579 -0.8614088 -0.5072712 -0.02551095 108 108 108
-0.0387507266726792 0.00496398277598931 -0.0102928865968627 -0.7931504 0.5780956 -0.1916193 121 121 121
-0.00890048215058448 -0.0644716732947199 -0.0115451205789489 -0.8539566 -0.4824385 -0.1949646 137 137 137
-0.0255504436221421 0.0229508764298589 0.0209453414857942 -0.660359 0.7354859 0.1516132 105 105 105
0.035989683178395 0.0675989276917608 0.00671096255188763 0.5728804 0.7055314 0.4171732 66 66 66
-0.0318055934634507 0.0146413929017217 0.0346485238254625 0.181103 0.4149164 0.8916536 107 107 107
0.028278034237355 -0.0413775556532709 -0.0104543704807204 0.6638322 -0.1354422 0.7355149 96 96 96
-0.0277579612460435 -0.0327245109526484 0.0219054680049974 -0.5998991 -0.6719254 0.434324 22 22 22
-0.027482110950023 0.0210176593812139 0.0243722956359941 -0.5469105 0.8284514 0.1206532 105 105 105
0.014303367641896 0.0585043317826421 0.00101885308628857 -0.6628466 0.7187191 0.2099458 41 41 41
-0.014833766910106 0.0240362770112188 0.0296015303314286 -0.01746047 0.04788651 0.9987001 33 33 33
-0.0447297877993882 -0.0069383495299189 0.00707997490769208 -0.8269106 -0.4939665 0.2687303 134 134 134
-0.0401304549899399 0.0040475017579229 0.034442857998665 -0.8828129 0.03195043 0.468637 118 118 118
0.0168675594601333 -0.0681272261587946 -0.00519098232382953 0.2622214 -0.9264297 0.2701257 82 82 82
0.00832430651518701 0.0471494085343511 0.0188500892103273 -0.2682219 0.7394258 0.6175002 138 138 138
0.0115667991909683 0.0607954151185186 -0.0129093963920516 -0.7540639 0.5840306 0.3004927 54 54 54
-0.00926836201813819 0.0406833774598272 -0.00764390717143237 -0.7389765 0.6675452 0.09108865 47 47 47
-0.0304027385440171 0.0165357477219732 0.0170233409584123 -0.8073015 0.5894768 0.0279539 87 87 87
0.0365690403256118 0.0191135293992193 0.00992874910240948 0.580488 -0.2479371 0.7756036 125 125 125
-0.0262401885714829 -0.0340988748518793 0.0113998811424333 -0.1504677 -0.976028 -0.1572539 48 48 48
-0.00995834538605811 0.0385961420090826 -0.00133876393431842 -0.6639103 0.7377034 0.122543 26 26 26
0.0375994854244888 0.0252243167908819 0.00986948718434155 0.6180841 0.04038946 0.7850737 55 55 55
0.0064460449490249 -0.0273485296217768 0.0157983313978273 0.5758028 -0.2990392 0.760938 48 48 48
-0.0372787303653062 -0.0258387439696162 0.00471617390518964 -0.914163 -0.2983665 0.2743784 158 158 158
0.0290812664303481 0.0648240930588873 0.0119589429081041 -0.1251806 0.5291014 0.8392745 131 131 131
-0.00719865033295752 0.0424523241074712 -0.00301168749922931 -0.6670794 0.7235668 0.1773588 20 20 20
0.00590960314604638 -0.070897054001507 -0.00573064277762592 0.2814254 -0.9299682 0.2365562 85 85 85
0.0242995434078872 0.022672761157337 0.0147953938425142 0.4900229 -0.02404827 0.8713778 79 79 79
-0.0102113074984849 0.0395222789796026 -0.00865466783637225 -0.7303725 0.6779199 0.08355061 33 33 33
0.0201446228298843 -0.0516442172972529 -0.00558322558993518 0.8212678 -0.0005533368 0.5705426 12 12 12
0.0377372913632095 0.0658436901124151 0.00693376471405804 0.7796211 0.5051399 0.3701683 76 76 76
-0.0446837730136216 -0.0178483837096064 -0.00914487133616626 -0.9561777 -0.226639 0.185362 99 99 99
0.00481716921660302 -0.0453690402952998 0.0140855025232393 0.5151133 -0.08556383 0.8528406 67 67 67
-0.0401993579593003 -0.025418173596081 -0.00443728159064471 -0.8522888 -0.4448004 0.2752385 138 138 138
0.0259629898342788 -0.0466789119688837 -0.00983612130278766 0.6045323 -0.1104498 0.7888862 94 94 94
-0.0312228984561265 -0.029270302578625 0.0183689903200227 -0.8697732 -0.3864265 0.30687 87 87 87
-0.00944479176667334 -0.057577859684643 0.00853659321671307 -0.5463209 -0.5793956 0.6048424 146 146 146
-0.00492962071564795 0.0401413328202398 0.0102088611305314 -0.5595443 0.7478069 0.3573444 95 95 95
-0.0214625186648667 -0.027285587116894 0.0284264247596818 0.1314134 -0.2382679 0.9622676 80 80 80
0.00651900103422998 -0.0455238931624262 0.013125986951645 0.5902415 -0.09964947 0.8010524 48 48 48
0.00294296076628564 -0.0657274239508479 0.00980918218499005 0.2344376 -0.5996153 0.7651801 124 124 124
0.0341958217892349 0.052539098933521 0.0109242658794481 0.2503815 0.06197707 0.9661614 81 81 81
0.0127627067837417 -0.0666804426161616 0.00058183183079541 0.4786029 -0.7420137 0.4694197 60 60 60
0.00733534624907373 0.0500917322190435 0.00468851735001385 -0.6628914 0.7083827 0.2424231 18 18 18
-0.0355311221804917 -0.0323811881987421 -0.0121353704749984 -0.2786567 -0.9193785 -0.2776575 113 113 113
-0.023857671710521 -0.0191475265471308 0.0294039856374818 0.1583517 -0.04520739 0.9863473 50 50 50
0.0144645386013686 0.0422561056168707 0.0186094801605302 0.3138056 0.1056411 0.9435921 164 164 164
0.0398990326199233 0.0619804746659429 0.00807726492291272 0.8888495 0.1060289 0.4457628 64 64 64
-0.037416774722606 -0.0304962509123652 -0.0132929224788588 -0.5134162 -0.8389973 -0.1802422 126 126 126
-0.0380607433047593 -0.00142539672535347 0.0243466060340959 -0.8602598 -0.4642357 0.2108039 15 15 15
-0.0345650500979722 -0.0182511918989985 0.0189765553653795 -0.9242491 -0.2828197 0.2564694 26 26 26
-0.0267000980105698 0.0111317522080572 0.0314828913391191 0.4156938 -0.04931515 0.9081666 177 177 177
-0.0182832069125474 0.0142209417374761 0.0287918310344774 0.1730697 -0.08796883 0.9809732 227 227 227
-0.00784261891511084 -0.0647866242377131 0.00231427063351453 -0.7184059 -0.5913448 0.3663391 121 121 121
0.0301024132046401 0.0484530813248785 0.0122105639160234 0.319039 0.1256 0.9393821 57 57 57
-0.0466845817294419 -0.010897647663769 -0.0158913571655196 -0.9830008 -0.05848749 0.1740363 118 118 118
-0.037980157825023 0.0079009420426519 0.0211165111244279 -0.7641429 0.6448188 0.01715282 70 70 70
-0.000713664981395024 -0.0741315596548884 -0.0110469598590773 -0.3278709 -0.9402341 0.09198136 124 124 124
-0.00499113270905616 0.0207750684769781 0.0272845934808809 0.4006497 0.05282554 0.9147072 239 239 239
0.0154763870510757 -0.00294066600483345 0.016358391541298 0.7079229 -0.09318652 0.7001153 146 146 146
0.00260559847685693 0.0105410701783331 0.023303405541237 0.3662778 -0.09416493 0.9257286 155 155 155
0.0103480034146011 -0.0112823360411494 0.0186341266811448 0.5362087 -0.1736096 0.8260387 122 122 122
-0.0396397895541489 -0.024854790493664 -0.00157184789771259 -0.8518515 -0.4419635 0.2811003 133 133 133
-0.0251954383578599 -0.0271177404372065 0.0285493593395311 -0.2732747 -0.3293574 0.9037946 74 74 74
-0.0395325011935532 -0.0144611709563105 0.00629940738087476 -0.8519261 -0.3377527 0.4001813 117 117 117
0.0218924694332778 0.0335163957627447 0.0178977858007509 0.3742802 0.07348488 0.9243994 120 120 120
0.0159668140682876 -0.0493440740553706 0.000296772617157104 0.8116806 -0.04933525 0.5820143 45 45 45
0.0238472633633315 -0.00352801017445015 0.00569266189938367 0.6594517 -0.2249082 0.7173142 57 57 57
-0.00988944241669776 0.0111340171845586 0.027769507068451 0.1816497 -0.1644817 0.9695097 71 71 71
0.0464071445736587 0.0273426658661993 -0.0147349376499099 0.9131489 0.003137849 0.4076141 87 87 87
-0.019916135760814 0.0289603359254034 0.0149594556272584 -0.5566259 0.8180448 0.1448109 109 109 109
-0.0179613418307603 -0.0419391506163447 -0.0146895040094298 -0.8881564 -0.4580436 -0.03707167 82 82 82
0.0417617969784438 0.0227105505021246 -0.00357425103778064 0.9675121 -0.1058736 0.2295889 44 44 44
0.0297803097042739 -0.0243708007780878 -0.012260257106964 0.9206338 0.09632935 0.3783571 114 114 114
-0.00928385922577979 0.0272934324296148 0.0282095234573442 0.2963327 0.03979576 0.9542553 63 63 63
0.0120152645382583 0.0221849567444952 0.0201766352832872 0.3176628 -0.1065336 0.9422001 64 64 64
-0.00744398305085303 -0.00725318126362251 0.0247494589269716 0.3175777 -0.037786 0.9474791 214 214 214
-0.00292142102387549 -0.0389890783278315 0.0173714171827394 0.4251466 -0.04664473 0.9039218 151 151 151
0.00657645991179345 -0.0694486015288203 0.000364349383171203 0.2794855 -0.9192364 0.2772944 109 109 109
-0.041590768786937 -0.0255149715391962 -0.0109490592300338 -0.8686408 -0.4773646 0.1326125 139 139 139
0.0139891319546401 0.0531114227326543 0.0146550696075517 -0.5010722 0.75306 0.4264121 150 150 150
-0.0192185229983628 -0.0438091867415278 0.00820304562454999 -0.8754502 -0.4430351 0.1931498 126 126 126
-0.0390725917544663 -2.44491545526859E-05 0.033371285694893 -0.7594538 -0.4234269 0.4939025 118 118 118
-0.0383826083865464 -0.00616098575275825 0.0192147802293855 -0.8382371 -0.3351498 0.4301549 25 25 25
-0.0332542247500718 0.0145586616547735 -0.00349043200606525 -0.7924451 0.5516136 -0.2602946 89 89 89
0.0338739567074477 0.00265799827891899 -0.00405880699748218 0.7224147 -0.6904901 0.03661144 45 45 45
-0.00402506062653663 -0.0422741287199824 0.0181643973768312 0.3973729 -0.09956573 0.9122398 122 122 122
-0.00414021680024268 0.039065468982044 0.0127561103284913 -0.5846119 0.7519087 0.304733 90 90 90
0.0201906376156509 0.0365011579545171 0.0173442076623994 0.3603806 0.1589286 0.9191667 83 83 83
-0.0223768539157212 0.0240074283631475 0.0223670910776216 -0.6249444 0.7426986 0.2405063 97 97 97
-0.0271142310824692 -0.0360891931502192 0.0164839487255174 -0.3469307 -0.9314307 0.1098906 14 14 14
0.00263969233366845 -0.0632940047232478 0.0109242658794481 0.3024559 -0.3992528 0.8655158 131 131 131
-0.00599368283417823 0.0221414453538091 0.0279316317022401 0.3960678 0.07887613 0.9148272 234 234 234
-0.0154710597720444 0.00250934429484917 0.028077603477295 0.2382437 -0.1034156 0.9656838 79 79 79
0.0294124298367202 -0.0447269790617792 -0.0128967006027144 0.7535936 -0.202248 0.6254538 125 125 125
-0.0170183963504136 -0.0450180881468623 0.0107876520336229 -0.7865887 -0.515235 0.3403103 174 174 174
-0.00194009015229346 -0.0331788175551264 0.0178760599077302 0.3350511 -0.1634344 0.927917 86 86 86
0.013521593121022 -0.0386595838515131 0.0061169128597337 0.788895 -0.2232465 0.5725431 72 72 72
0.0415548496517837 0.0423459894211919 0.00518959869747937 0.9565607 0.007572248 0.2914349 51 51 51
-0.0194791145053208 -0.0434920900313227 0.00220614780789197 -0.934423 -0.3551144 -0.02733974 133 133 133
0.0270053558621108 0.0564936286957891 0.0129877041757661 0.3152278 0.05539795 0.9473978 81 81 81
-0.0361748523440659 0.00931583710033013 0.0176323961198884 -0.7342073 0.6706107 0.1059289 105 105 105
-0.0159099883761704 0.0288478023560674 0.0289267014444429 -0.5066046 0.5144556 0.6918723 167 167 167
0.0424746685299575 0.0256360656769903 -0.00369247685069263 0.9499891 -0.2190754 0.2225458 47 47 47
0.00296584894987939 0.0297790653260381 0.0235362212837297 0.3694417 -0.02267983 0.9289771 237 237 237
0.0162765198025405 -0.0273807161299555 0.00636915971642316 0.6127917 -0.2488994 0.7500236 89 89 89
-0.0418628043856919 0.00280438728648735 0.0185022663057405 -0.9376993 0.2871412 0.1956268 56 56 56
0.0386573486599624 0.00729285545665337 -0.00242721925372302 0.876886 -0.4457061 0.1800473 27 27 27
0.0407959633145034 0.0551836378129156 0.00445199121838391 0.9750144 0.1472431 0.1663323 28 28 28
0.0240542106899917 0.0692266113312872 -0.001126645904724 -0.6408657 0.6441134 0.4176231 25 25 25
0.010660093334645 0.00201546020824028 0.0188806067884523 0.3652373 -0.08510919 0.9270157 234 234 234
0.024583023098439 -0.0160038583723872 0.00254833807354748 0.7793072 -0.1270505 0.6136273 78 78 78
-0.0392795390811265 -0.00884259872120308 0.0150840442360002 -0.8144051 -0.4226955 0.3975836 43 43 43
0.0413250141415298 0.0149118787797125 -0.00390764961833179 0.9465441 -0.1515656 0.2847495 27 27 27
0.0125326328549087 0.0601704008134039 -0.00960147271746814 -0.7383932 0.612126 0.2829793 10 10 10
0.00652591517302392 0.0309351570161016 0.0220141719759065 0.3332964 -0.0009093489 0.9428217 77 77 77
0.0224212818417251 0.0146478302033575 0.0153991888940889 0.3726561 -0.08468606 0.9240972 116 116 116
-0.0440398044314683 -0.00281633071583198 -0.0131979871808928 -0.8717273 0.4850451 0.0694462 120 120 120
0.000850122478932125 0.0309603101761968 0.0243359219015199 0.3906598 -0.04389884 0.9194878 46 46 46
0.018275421169728 0.0127061492951543 0.01703854014283 0.35233 -0.0910667 0.9314346 234 234 234
0.0283545666012466 -0.025169264599499 -0.00748051593894183 0.9145039 0.002861068 0.4045671 60 60 60
-0.029275733920604 -0.0032537095991938 0.0333376835764009 0.407176 -0.1590667 0.8993917 136 136 136
-0.020352918597728 0.0292465574296148 0.00591464449768841 -0.6100453 0.7921724 -0.01754294 64 64 64
0.00640622904631494 -0.0396789424864619 0.0133802901685792 0.4968635 -0.03607041 0.8670788 102 102 102
-0.00360353657868506 0.0383927709611089 0.0222838382900316 -0.4919642 0.79308 0.3591591 103 103 103
-0.0337718314853013 -0.0175190084425776 0.0225948851287919 -0.8889942 -0.2780249 0.3638566 20 20 20
-0.00929911801484229 -0.0158726089445917 0.025354386466797 0.2045027 -0.04344662 0.9779013 247 247 247
-0.0427060908999741 -0.00100148849171089 0.0158374767482835 -0.8971067 -0.1187519 0.4255556 43 43 43
-0.0335455722537339 -0.0336178653685419 0.00101351847058118 -0.5718172 -0.8188962 0.04933742 155 155 155
-0.0289538688388169 0.0197477228196294 0.0138353865326005 -0.817804 0.5641802 0.1135663 61 61 61
-0.0355771369662583 -0.00757600001972603 0.0238377462804872 -0.8874117 -0.3610626 0.2865908 20 20 20
-0.0078657455172837 -0.0602683537451594 0.00717721988564313 -0.5607239 -0.597362 0.5733649 142 142 142
-0.0237105674472153 0.0241168624909551 -0.0148835022270125 -0.7031589 0.6817518 -0.2019454 80 80 80
0.0241600685391128 0.00698732204753472 0.0139393966377336 0.3856066 -0.2406104 0.890738 105 105 105
-0.0156615562167466 -0.00174082450550483 0.0274608146131593 0.2758535 -0.1241751 0.953145 134 134 134
0.0244297199520767 -0.0170368068663447 0.00257220973378003 0.7506453 -0.1221839 0.6493094 91 91 91
-0.0263322181430161 -0.0359283798186152 0.0167925219715196 -0.3684823 -0.9224129 0.1156516 23 23 23
0.00818173220488427 -0.00380266837757515 0.0198330592096406 0.2871278 0.04605103 0.9567847 197 197 197
-0.0370028800692856 0.0106614715607793 0.00847482790356457 -0.7386327 0.6730608 0.03756061 26 26 26
-0.00149543950226905 0.0439274198563726 0.00667789687519849 -0.5265208 0.8077174 0.2652705 32 32 32
0.0185233764919936 -0.0412412994353144 -0.00152866433257282 0.8168603 -0.2027328 0.5400357 112 112 112
-0.0309499091830552 -0.0112820976225703 0.0313269506872255 -0.3226764 -0.3469533 0.8806267 116 116 116
-0.00867064664033057 -0.0157481544463007 0.0256511430919725 0.2070155 -0.04359664 0.9773658 250 250 250
0.0245064907345474 -0.0454291217772333 -0.00876591990584552 0.5544562 -0.1189203 0.8236725 95 95 95
0.030458848980397 0.00449358291942192 0.0084210049093324 0.6348935 -0.5253551 0.5664912 93 93 93
0.0422579460415542 0.03050302334148 0.00042703856831372 0.962917 -0.1272352 0.2379119 71 71 71
-0.0421849078860581 -0.0138065927473872 0.00120852996712506 -0.8509853 -0.3100868 0.4238751 138 138 138
0.0100950413021743 -0.0513378494231074 0.00812016536598981 0.7040169 0.02111719 0.7098691 86 86 86
-0.011329013797313 -0.0357072465864985 0.0231493275344926 0.4226049 -0.3219801 0.8471918 101 101 101
0.0462922268185317 0.0204207784684332 -0.0131826985895079 0.9216958 -0.1359813 0.3632986 95 95 95
0.0110148601803481 0.0576571113618047 -0.00805805514449298 -0.7694495 0.5942096 0.2342271 41 41 41
-0.0198469943728745 -0.0372700803725092 0.0197611909092027 -0.5437082 -0.7250206 0.4227605 30 30 30
0.00167815020415185 -0.0290721767393916 0.0177047114551622 0.3376635 -0.2956212 0.8936394 102 102 102
-0.0271602458682358 -0.0344095342604487 0.0107186149538118 -0.08791039 -0.993834 -0.06757055 72 72 72
0.000551145580738766 0.0243883020432623 0.0240673880756456 0.3851006 0.003423245 0.9228683 138 138 138
-0.00899251172211768 -0.0638154261557429 -0.0128504622995299 -0.8330631 -0.4930929 -0.2507294 122 122 122
