ply
format ascii 1.0
comment File exported by Rhinoceros Version 7.0
element vertex 467
property float x
property float y
property float z
property float nx
property float ny
property float nz
property uchar red
property uchar green
property uchar blue
end_header
0.0581243580623303 0.00263600205141512 0.0169961970431048 0.3333219 0.006133382 0.9427931 216 216 216
0.0536692267268335 0.00384930103318504 0.0168984927469499 -0.0007476061 0.007233986 0.9999735 175 175 175
0.0514027144572164 -0.00426439195783224 0.0170471417816466 -0.002822779 0.003982832 0.9999881 184 184 184
0.0548138663061386 0.00332285123074016 0.0170300594373955 0.02314102 0.0110061 0.9996716 158 158 158
0.0525936830818505 0.00457003811354584 0.0170726333819986 0.006041905 0.004025048 0.9999737 164 164 164
0.0604261760483058 -0.00404696587059705 0.0112149695689792 0.999536 0.01430517 0.02688949 92 92 92
0.0604164535459621 -0.00481095291541012 0.00962649597038992 0.9997397 0.02281316 -0.0003492413 104 104 104
0.0605513329560012 -0.00714614910401412 0.0118787705346583 0.9953759 0.03251175 0.09038646 104 104 104
0.0604217461993724 -0.00559702487111391 0.0101161325074696 0.9998514 0.01561093 0.007312521 117 117 117
0.0604859275484602 -0.00838738507786152 0.00958678123754578 0.9997429 0.02084502 0.008923612 116 116 116
0.0602650850576421 0.00512843388339412 0.0111995861308045 0.9999709 0.00717607 -0.002588154 134 134 134
0.0602621778240509 0.00598824408833631 0.0124518820127943 0.9915705 0.01720533 0.1284207 129 129 129
0.0603379848542658 0.00288151248185886 0.0093862231463511 0.9997081 0.02407642 -0.002001493 136 136 136
0.0604526965296595 0.00413168605592529 0.0132373937274361 0.993429 0.01367442 0.1136304 130 130 130
0.0603714840248348 0.00237756800691402 0.0108674244731189 0.9996842 0.02414145 -0.006986742 117 117 117
0.0604143995921991 0.000377927347755769 0.0130381723700748 0.9814022 0.05367452 0.184306 123 123 123
0.0599419126620542 0.000866571423685736 0.00886636487973155 0.9997593 0.02167582 -0.003382555 133 133 133
0.0603172502118552 -3.95761536342576E-05 0.00709571088719488 0.9997106 0.02405434 0.0002114069 133 133 133
0.0605155111801041 0.000896364055657628 0.0148364477705983 0.9384101 -0.002991004 0.3455105 102 102 102
0.0598728020080745 -0.00116360786363834 0.016625969078708 0.6366394 0.04316771 0.7699525 182 182 182
0.0589382707952315 -0.000505784739881943 0.0169194846333656 0.4516131 0.03901863 0.8913603 204 204 204
0.0604379217598745 -0.00241330015901675 0.0157355958645047 0.8393383 -0.02481146 0.543043 138 138 138
0.0598981769253726 -0.00410678309945811 0.0164566100544876 0.7244269 -0.04727899 0.6877283 181 181 181
0.0515184985953909 0.00286299438786797 0.017029544771153 0.00633189 0.007502597 0.9999518 162 162 162
0.0527403900828216 0.000310077992978997 0.0171211094967504 0.004381028 0.006812813 0.9999672 178 178 178
0.0537522433202566 -0.000652214001397144 0.0169064061707192 0.01151242 0.005051981 0.999921 185 185 185
0.05396340597727 -0.00193824634593032 0.0170647672964242 0.00367929 0.005930524 0.9999756 200 200 200
0.0514857227629193 0.000281727796693776 0.0170196401345596 0.0009002315 0.01031179 0.9999464 202 202 202
-0.0254838427431818 -0.0296124921331791 0.0170126003899609 0.008195471 -0.1679182 0.9857669 176 176 176
0.0605331792191168 -0.00377852060466144 -0.00333133673267161 0.9998583 0.01493271 0.007773845 117 117 117
0.0605257601964455 -0.00305177981619109 -0.00543284748955317 0.9998838 0.01142714 -0.01008483 89 89 89
0.0602876297535464 0.00909833412512229 -0.00375383157080506 0.9997643 0.019232 -0.01007279 145 145 145
0.0605152022752202 0.00676429587819016 -0.00703015491614026 0.999657 0.02075023 -0.01597492 153 153 153
0.0603598360531876 0.00582027936794804 -0.00126306578970992 0.9999412 0.01056481 0.002466389 154 154 154
0.0602687802225761 0.00466256508837071 -0.00325667040941424 0.9999035 0.01170606 -0.007479433 151 151 151
0.0602186888031082 0.00568716494254073 -0.00905917348870017 0.9996974 0.0181663 -0.01658849 135 135 135
0.0603855454317936 0.00404311199022622 -0.00910792948832348 0.9997274 0.01379772 -0.01883619 135 135 135
0.0603286575925082 0.00273319820604079 -0.00959680073583549 0.9996828 0.01443133 -0.0206426 122 122 122
0.0605058118277273 0.00272079139092996 -0.00434457640327746 0.999854 0.01175404 -0.01240426 126 126 126
0.0603732504787771 -0.000978067081157441 -0.00247613596588192 0.9999329 0.01135419 0.002293078 113 113 113
0.0604796207114706 0.00193697797144465 -0.00600943723351038 0.9999053 0.009775819 -0.009679392 150 150 150
0.0604364410566847 -5.80261732219256E-05 -0.0062324082996264 0.9998409 0.01459221 -0.01025794 133 133 133
0.0604028543736153 -0.000593515487864238 -0.00694106595276262 0.9998493 0.01506754 -0.008630402 110 110 110
0.0605229311502726 -0.00301966622698258 -0.0107092245030764 0.9997414 0.01339995 -0.0183715 111 111 111
0.0603423191933214 -0.00455561844801178 -0.0105813496985324 0.9997841 0.01307875 -0.01614722 113 113 113
0.0605284472968126 -0.007611279989439 -0.00994038378144463 0.9995558 0.02622293 -0.01416063 108 108 108
0.0604732837324682 -0.00272236326100406 0.00125766231736638 0.9999791 0.006081909 0.002207563 112 112 112
0.0606038567766962 -0.00350621946676499 0.000262066498320807 0.9997711 0.02136957 0.001025164 103 103 103
0.0605082585318293 -0.00270754383723548 0.00389178888195771 0.9999132 0.01266453 0.003624846 115 115 115
0.0604234944871633 -0.00571319408761051 0.00248549136062839 0.9998111 0.01937532 -0.001525768 101 101 101
0.060534103282071 -0.00648124783896797 -0.00365177950613901 0.9998816 0.01497379 -0.003543722 104 104 104
0.0605657455175201 -0.0082277475178274 -0.000299782690545675 0.9998626 0.01618947 -0.003567725 106 106 106
0.0605568811839405 -0.00919645505431133 0.00286892798514268 0.9996632 0.0255671 -0.004446484 108 108 108
0.0605291583947993 -0.00854991998753984 0.00678784623510967 0.9997141 0.0238267 0.002014729 86 86 86
0.0606455045588374 -0.00899815856717301 0.00561893495806884 0.9996914 0.02474782 -0.002172618 107 107 107
0.0600339752190067 -0.0102163902488717 0.00365827428941032 0.9996566 0.02612271 -0.00205107 104 104 104
0.0606560545793675 -0.0114817822578595 -0.00014606139252224 0.9997965 0.02005826 -0.00217495 113 113 113
0.0606135235433332 -0.012950859743321 -0.00201101658236527 0.99995 0.00988025 0.001550058 114 114 114
0.060571598225069 -0.0138588898925796 0.00327649410935418 0.9997803 0.01371274 -0.01585206 125 125 125
0.0606477024942365 -0.014244079136523 0.00158981488205331 0.9998928 0.01307789 -0.006576751 124 124 124
0.0607342330947307 -0.0145988769101166 -0.000654335520900801 0.9998747 0.01377449 0.00780256 112 112 112
0.0606488008033783 -0.013881211840606 0.000705209009710245 0.9999402 0.01093299 -0.0002356186 130 130 130
0.0604395765061199 -0.00122815759292649 0.0030033704425598 0.9998949 0.01441284 -0.001564836 111 111 111
0.00665706154460688 0.0138218325466051 0.0168639154784852 0.0009037823 0.00493526 0.9999874 241 241 241
0.060600931887433 -0.00821906194524158 -0.00769749476195153 0.9997165 0.01970228 -0.01337316 96 96 96
0.0604793102277008 -0.00962471664220255 -0.00855577975444954 0.9996163 0.02767004 -0.001283868 103 103 103
0.0602011281826607 -0.00964919108924822 -0.00792112026868208 0.9996163 0.02767004 -0.001283868 126 126 126
0.0604764135475486 -0.0110863887483086 -0.0105177887179422 0.9996375 0.02688652 -0.001412026 127 127 127
0.0605705261683678 -0.00985283137578774 -0.00476011189832509 0.9998404 0.01662163 -0.006548013 128 128 128
0.0605211311404066 -0.0125924965359767 -0.00934741445684933 0.9996367 0.02676144 0.003215571 123 123 123
0.0607137471267345 -0.0135594928065319 -0.00771883328005443 0.999667 0.02579517 -0.0006937772 127 127 127
0.0606176932685765 -0.0138753571540169 -0.00363029134637238 0.999759 0.02130872 0.005285949 108 108 108
0.0609676571951354 -0.0148234674360783 -0.00797350955834653 0.9997126 0.02381379 0.002753265 134 134 134
0.0609309759978198 -0.0160427967987871 -0.00791257825025379 0.999742 0.02245748 0.00339898 116 116 116
0.0606657583424717 -0.015045544149658 -0.0093214329761262 0.9997432 0.02266105 -0.0001647126 158 158 158
0.0607265676421536 -0.0174240047634111 -0.00856380483562427 0.9998272 0.01620085 0.00911346 134 134 134
-0.0567516700647066 0.0378697992122714 -0.00290599226003951 -0.9959646 0.08821081 -0.01653297 43 43 43
0.0398172636237493 -2.56848050257386E-05 0.0171011117336465 -0.006000827 0.0006366327 0.9999818 184 184 184
0.0483218160007906 0.0438402715084478 -0.00655292429563128 0.1838176 0.9730369 -0.1393211 22 22 22
0.0471366015757058 0.0440590575108915 -0.00647964847521265 0.1728207 0.9766653 -0.1275061 15 15 15
0.0432868763755665 0.0450727228027725 -0.00525242584834512 0.09830987 0.9912774 -0.08777437 23 23 23
0.0560727990052494 0.041621306116111 -0.00934215348167999 0.5843486 0.7770441 -0.2339639 16 16 16
0.0595980060085588 0.0374133540151491 -0.0110505929655265 0.9334254 0.2553231 -0.2520458 121 121 121
0.0511455813851605 0.0428686446710915 -0.0102448519215046 0.268019 0.9430422 -0.1970717 19 19 19
0.0502216691908051 0.0430019741079033 -0.00861877638088659 0.1976472 0.9694675 -0.1451497 13 13 13
0.0474946169865702 0.0439413374037185 -0.00782070974447982 0.1541557 0.9709786 -0.1828567 19 19 19
0.0426058181375852 0.0443654948383851 -0.00781910171719094 0.09265513 0.9853883 -0.1429154 17 17 17
0.0393857587436592 0.043121924587463 -0.0106662115352599 0.1036335 0.9819261 -0.1583705 21 21 21
-0.0455309726310413 0.0394070051325282 0.0167180616951327 0.0002008656 0.0263874 0.9996518 184 184 184
0.0341756992954179 0.0444320133403147 -0.0111831918607261 0.1583589 0.9744782 -0.1591062 15 15 15
0.0279966580924738 0.0463193522679477 -0.00970682043518731 0.1658516 0.9716504 -0.1684895 20 20 20
0.0260186395271624 0.0462723268404837 -0.010805468618343 0.1509842 0.9700977 -0.1900376 18 18 18
-0.0220111955774485 0.0163696333941972 0.0168746204993561 0.0008459892 0.007983348 0.9999678 178 178 178
-0.0507326769957217 -0.0383192430964048 -0.00308220243597146 0.02351832 -0.9841997 0.1754933 96 96 96
0.029502534484374 0.0327410864552515 0.0170022091330159 -0.008774296 -0.003182965 0.9999564 149 149 149
0.0512201675429558 0.0449130058283489 0.00722052053833835 0.007346971 0.9995913 0.02762785 23 23 23
0.0588248817061423 0.0423226677428861 0.0138787531069652 0.7737603 0.2564754 0.5792369 94 94 94
0.0573028305672438 0.0430549086955601 0.0162233530371331 0.4627099 0.2670121 0.8453426 208 208 208
0.0579564075654737 0.0426197846558674 0.0151285490411626 0.626336 0.212027 0.7501652 135 135 135
0.0513751948023748 0.043084773395339 0.0170306368296247 0.03468772 0.2513871 0.9672648 199 199 199
0.0595139332634558 0.0403659786790023 0.00653115669696555 0.9809365 0.1857631 0.05705924 143 143 143
0.0596037358101547 0.0359289586760343 0.0101399727771666 0.9994978 0.03159338 -0.002441003 118 118 118
0.0525967118335675 0.044204745270928 0.00999262041185531 0.1104131 0.9802323 0.1641756 13 13 13
0.0463426192265679 0.042911043300222 0.00789148519472341 -0.1372089 0.9840497 0.1132245 10 10 10
0.0435652915967548 0.0433709851708222 0.00872781982154044 -0.08098017 0.9960672 0.03595 22 22 22
0.0405155914732687 0.0429934740126316 0.00990809566654219 0.08488896 0.9774977 0.1931116 35 35 35
0.0595601166471291 0.037584617065527 0.0148426338575124 0.8842157 0.09441445 0.4574369 125 125 125
0.0585021243743684 0.039741404839293 0.0162799028730649 0.6485624 0.1059099 0.7537571 229 229 229
0.0559978806065216 0.0389984628513331 0.0168739306357382 0.2721669 0.08634874 0.9583679 205 205 205
0.059295356988327 0.0359938737562937 0.015911677370375 0.7547128 0.02482781 0.6555853 161 161 161
0.0582119671729004 0.0359397080811088 0.0167613750288086 0.4598885 -0.009117185 0.8879299 205 205 205
0.0561226989275094 0.0369668177563556 0.0169977891480051 0.2118943 0.02866076 0.9768723 195 195 195
0.0549070744249072 0.041174725631975 0.0168487969266054 0.1622764 0.104173 0.981231 198 198 198
0.053257404474949 0.0422903712366092 0.0168830952529742 0.1318315 0.09619176 0.986594 196 196 196
0.0507493419382614 0.0415282396554131 0.0170082512464987 0.0185625 -0.004000703 0.9998197 199 199 199
0.0544423858004821 0.0371571571644098 0.016950910234867 0.05040791 0.008692986 0.9986909 194 194 194
0.0496219909777662 0.0389110003993041 0.0168142994214217 0.008668878 -0.008735028 0.9999242 182 182 182
0.0597780512793431 0.0358297096069466 0.0132323370341139 0.9492341 0.01415947 0.3142516 114 114 114
0.0597082917057143 0.0345342530372021 0.0144801013126037 0.8983692 0.03679487 0.4376974 109 109 109
0.0595413362895165 0.0353244125461405 0.0110671467939089 0.9994993 0.02062859 0.02399298 124 124 124
0.0570630265132364 0.0346352493795066 0.0168220675333533 0.3845013 -0.01011074 0.9230691 207 207 207
0.0532955417265826 0.0353805807185936 0.0169497744181951 0.01299491 0.0006330408 0.9999154 173 173 173
0.0508459600898563 0.0363024610340592 0.0168757668318744 -4.136452E-05 0.0006112268 0.9999998 179 179 179
0.0493129371378815 0.036799364280411 0.016975964067981 0.001490002 0.000870496 0.9999985 177 177 177
0.0565135123034137 0.0331129539194011 0.0169830189841542 0.3401489 0.009507907 0.9403235 208 208 208
0.0558625020603722 0.0325308592915621 0.016958270733614 0.1910134 0.01513873 0.9814707 187 187 187
0.0559467359569026 0.0287317947612149 0.0170196562494214 0.1840557 0.01767437 0.9827569 194 194 194
0.0554178073717044 0.0283527394674752 0.0169632846585685 0.1706312 0.02518461 0.9850131 194 194 194
0.0527524880798 0.0279221940255323 0.0170175715895669 -0.002105126 0.003776441 0.9999906 193 193 193
0.0500511947496953 0.0325440380397226 0.0169850283316037 0.002184076 0.003401539 0.9999918 182 182 182
0.0332370683821166 0.00566982865075882 0.0169689425800936 -0.00934752 0.00858671 0.9999194 164 164 164
0.0516360353401546 0.0313993110874766 0.0169652947693084 0.0009853214 0.01217853 0.9999254 173 173 173
0.0495141996178448 0.0296657356816139 0.0170322931646185 -0.00753953 0.002640615 0.9999681 193 193 193
0.0476219950912897 0.0298406605460282 0.0169179198260478 -0.007929907 0.001628865 0.9999672 193 193 193
0.0498009894180309 0.0435273813549331 0.0171190370658474 0.02246274 0.2452825 0.9691914 204 204 204
0.0492607979921176 0.0429512749785663 0.0171070638333105 0.02344852 0.2415841 0.9700965 204 204 204
0.0470044839683035 0.0423660911891608 0.0170997809729843 0.000119895 -0.0227299 0.9997416 187 187 187
0.0473017093237078 0.039363899982588 0.0168656781162334 -0.005743832 -0.01413392 0.9998836 192 192 192
0.0431529856773052 0.0409336269683391 0.0168796848368976 -0.005055361 -0.0130675 0.9999018 197 197 197
0.0452596646497598 0.0375772842313926 0.0170549171195308 -0.005415815 -0.002450511 0.9999824 180 180 180
0.0421421848231764 0.0390912307524496 0.0168897962831343 -0.005760233 -0.01366512 0.99989 182 182 182
0.0437985702578056 0.0374022418812807 0.0168107719791236 -0.008604313 -0.002350166 0.9999602 182 182 182
0.0463559712292292 0.0332051919559135 0.0169274811155465 -0.01126852 -0.002956349 0.9999321 187 187 187
0.045679332840177 0.0328486547189064 0.0169457399027069 -0.01236485 -0.001954252 0.9999216 191 191 191
0.0443240984004971 0.0325050808652734 0.0171371663886457 -0.01458097 -0.005288724 0.9998797 166 166 166
0.0436969227225101 0.0306438120357311 0.0169889961463056 -0.007173355 0.007049475 0.9999494 156 156 156
0.0417398271077358 0.0313537966669735 0.0168479232881355 -0.009094984 0.00377995 0.9999515 163 163 163
0.0393474968717031 0.03789980469762 0.0169726308166079 -0.01124921 -0.009629617 0.9998903 174 174 174
0.0401754890850534 0.0352753615246095 0.0168695245672977 -0.0145769 -0.001568267 0.9998925 172 172 172
0.0410754269502984 0.0337459693250939 0.0167488485949473 -0.007735185 -0.002337491 0.9999673 174 174 174
0.0408142885297411 0.0330507206201369 0.0168052433521896 -0.008771148 0.004682009 0.9999506 196 196 196
0.0399867689785438 0.0323563896868406 0.0168778481461746 -0.008284952 0.00360778 0.9999592 167 167 167
0.0383596428916317 0.0344771595501296 0.0168424505048363 0.001605701 0.0003324586 0.9999986 164 164 164
0.0356349507165814 0.0354246395551383 0.0168282112856534 -0.0004173432 0.001950915 0.999998 151 151 151
0.0358820236442785 0.0335622965528926 0.0168722951780758 0.003829608 0.004677328 0.9999817 148 148 148
0.0333352447728998 0.0446352961997158 0.0102933044194937 0.3761041 0.8765451 0.3003571 28 28 28
0.0271967342396082 0.0475338915314036 0.00994914400444472 0.2542683 0.9397287 0.2285994 17 17 17
0.0287014647774102 0.0472449481146218 0.0107938036815855 0.3236969 0.9059083 0.2730394 19 19 19
0.0262145769507454 0.048059157582071 0.00961465564080952 0.2111154 0.9716716 0.1062287 21 21 21
0.0263856765287356 0.0477542893004703 0.00879641772784659 0.234579 0.9671051 0.09838936 17 17 17
0.0237728594752928 0.0485388751093474 0.00855457916394889 0.06642507 0.9944066 0.08211748 21 21 21
0.0257230858252289 0.0477874518575803 0.0105105153303029 0.1642712 0.936316 0.3103665 32 32 32
0.0231928176451111 0.0492438757998208 0.00932195353339951 0.0547518 0.9943152 0.09132072 26 26 26
0.029423640569163 0.0427338445512822 0.0169488123318022 0.159835 0.4382104 0.8845475 208 208 208
0.0309099295045692 0.0419524828776987 0.0166091755110513 0.1903508 0.4059419 0.8938556 196 196 196
0.0317431671131607 0.0383779036987542 0.0168032436433057 0.0026365 0.009556037 0.9999509 166 166 166
0.0321011749540392 0.0363811799919855 0.016872049541573 0.003393681 0.01655902 0.9998571 166 166 166
0.0323931205265056 0.0343903679683026 0.0167453957561139 0.008821583 0.006540304 0.9999397 163 163 163
0.0309114042904999 0.0361952894931077 0.0168965647093111 -0.001363047 0.01454204 0.9998933 163 163 163
0.00816330747331806 -0.0286276220737702 0.0171049175266369 -0.01341977 -0.05387623 0.9984574 182 182 182
0.0297938212001885 0.034871579600342 0.016860343897224 -0.0006048303 0.01369385 0.9999061 142 142 142
0.0296085432894704 0.0403211422265135 0.0168286963952921 -0.00231534 0.009542444 0.9999518 160 160 160
0.0268482332666378 0.0402692491091534 0.0167908528708489 0.000351594 0.0126918 0.9999194 155 155 155
0.0267148797280838 0.038393378322515 0.0167627277618677 -0.001268881 0.01315401 0.9999127 156 156 156
0.0283165495291766 0.0357460105582668 0.0169442171006992 -0.00458796 0.009107562 0.999948 150 150 150
0.0256989252531583 0.0391187974302041 0.0168647963713566 -0.0005563346 0.01236279 0.9999234 133 133 133
0.0255495758002287 0.0372374317348507 0.0167604294519265 -0.004640192 0.007006738 0.9999647 162 162 162
0.0253075333582542 0.0458950720386766 0.0129209222359537 0.07290642 0.7943442 0.6030771 40 40 40
0.0253778813570946 0.0426290484872487 0.0167068709574848 0.04347046 0.3231754 0.9453402 173 173 173
0.0237560219169044 0.0416770438671776 0.0168450692407632 0.0188841 0.1347215 0.9907035 163 163 163
0.00202966586719899 -0.00197800526440162 0.016989463043757 -0.008528973 0.006488144 0.9999426 232 232 232
0.0221347990472771 0.0408606716359368 0.0168966346644658 0.001990353 0.006444853 0.9999772 169 169 169
0.0198465748339598 0.0429977245232345 0.0167780086384152 -0.005499046 0.3567482 0.9341844 165 165 165
0.023769433326748 0.0362444965718087 0.0169788763755541 0.003911442 0.00522218 0.9999787 161 161 161
0.0206546645966248 0.0399019138045165 0.0168401257685099 0.001052494 0.007735294 0.9999695 164 164 164
0.0192346446807936 0.0401061025671561 0.0168785543513593 -0.001476452 0.00415032 0.9999903 163 163 163
0.0171731000210302 0.0414623036697079 0.0168242574428739 -0.004511144 0.0002691807 0.9999898 181 181 181
0.01604103775836 0.0432150509812264 0.0168052086849304 -0.04228132 0.3389004 0.9398717 194 194 194
0.0155967235895509 0.0424132430897011 0.0168131926454128 -0.0356675 0.2231317 0.9741356 179 179 179
0.0169397308563903 0.0385821719169057 0.0167955632197852 -0.0034266 -0.001739825 0.9999926 153 153 153
0.0141157610152396 0.0391256747224604 0.016824422807197 -0.003551172 0.0001377553 0.9999937 157 157 157
0.0139126511667369 0.0420588744401627 0.0168818452454722 -0.02525489 0.2292529 0.9730392 149 149 149
0.0562644839151991 0.0243652295517647 0.0170276685658515 0.2305758 -0.02660172 0.9726906 198 198 198
0.0523778328175895 0.0271639972457496 0.0171555848411349 -0.004864998 0.002975511 0.9999837 190 190 190
0.0464738465978245 0.0288693936831124 0.0167941974183365 -0.003232966 0.002840133 0.9999908 181 181 181
0.0414063837091088 0.0305804488299968 0.0169076606265352 -0.01141416 0.006004309 0.9999169 155 155 155
0.0296499322252006 0.0345551904409243 0.0169273841617932 -0.007181835 0.01031535 0.999921 146 146 146
0.00826025911952533 0.0457878701208478 0.0153432708626613 -0.0002572863 0.7018605 0.7123144 127 127 127
0.0110677542260604 0.04246764794157 0.0167924749339862 0.003901303 0.337702 0.941245 157 157 157
0.00904089043774459 0.0422490254642978 0.016639110618265 0.03474893 0.2535457 0.9666991 143 143 143
0.00737664246875136 0.0459630381713991 0.0146530036264183 -0.005094205 0.6903497 0.7234579 97 97 97
-0.0320176503530405 0.0332984417422575 0.0167685115289697 -0.005889473 0.003808153 0.9999754 211 211 211
0.00638980556407365 0.0463484889651673 0.0147978726033562 -0.07031018 0.742126 0.6665624 50 50 50
0.0595858564665219 0.0414252685528569 0.00122417896888008 0.8490736 0.5238734 -0.06804975 100 100 100
0.0594021880228937 0.0406830625501231 -0.000487108472897735 0.989069 0.1371615 -0.05412275 47 47 47
0.0595304339514398 0.0385792577836257 0.00199824287964154 0.9997585 0.02164361 -0.003795312 124 124 124
0.0537094220605492 0.0451634763733317 0.00340167361554847 0.2316801 0.9726024 -0.01920609 25 25 25
-0.0156253570558991 0.0307471326470037 0.0169270556335953 -0.0009504975 0.002483253 0.9999965 145 145 145
0.0537146072796548 0.0441754635583473 0.0016649012986408 0.2405784 0.9673079 -0.08023454 18 18 18
0.0513232114515341 0.0437927593407614 -0.000109482330119509 0.05442497 0.9948516 -0.08548848 23 23 23
0.0593956456362048 0.0408609670073175 -0.00254580706263549 0.9867457 0.1517334 -0.05753085 101 101 101
0.0592174018149541 0.040683681772969 -0.00344941231888748 0.9317618 0.3199902 -0.1715409 116 116 116
0.0594938190673258 0.039462700302316 -0.00312474017413619 0.9889008 0.1383751 -0.05410688 100 100 100
0.0596116893939267 0.036749778289545 -0.00400286658523716 0.9996712 0.02563684 0.0005138331 103 103 103
0.0596321093616003 0.0356200596395686 -0.00187965313003677 0.9994384 0.03342127 -0.002423218 88 88 88
0.0514844109075612 0.0436516034977004 -0.00214201161506158 0.1868213 0.9779012 -0.09384617 19 19 19
0.0595197136260137 0.0387797435640149 0.00614825817371809 0.9995699 0.02236287 0.01897079 106 106 106
0.0595465433918028 0.0376404554141121 0.00670006547514299 0.9996608 0.02581712 0.003425367 125 125 125
0.0596643792077582 0.0353205833964241 0.00876104985071166 0.9995598 0.02942225 -0.003806157 138 138 138
0.0595348948206182 0.0346458469360991 0.00654954036636338 0.9992231 0.03783792 0.01101989 114 114 114
0.0455572664834181 0.0455813442644748 -0.000749516321010196 0.0508988 0.9958767 0.07509235 28 28 28
0.0481385379562855 0.0438952126467942 0.00532957909483842 -0.13107 0.9873295 0.0894495 21 21 21
0.044711851700042 0.0433297612896191 0.00229241282692585 -0.0739532 0.9781808 0.1941476 40 40 40
0.0413036202655079 0.045665406518574 -0.00182482687630767 0.03130717 0.9840106 0.1753368 27 27 27
0.0411533653097105 0.0454320010723817 -0.00363556572733714 0.08863824 0.9888753 0.1194524 17 17 17
0.0419390459965707 0.0449792904646402 -0.004164992424255 0.08418125 0.9964114 -0.008823334 22 22 22
0.0423762607152707 0.044586334977446 -8.86478792516687E-06 -0.01019037 0.9731565 0.2299186 38 38 38
0.0440412238917758 0.0434040513179867 0.00492790064610996 -0.1098085 0.982316 0.1516487 35 35 35
0.0451143818987205 0.0431897575605105 0.00671265573893795 -0.1207861 0.985531 0.1189086 21 21 21
0.0435468308711759 0.0431088249232714 0.00543150510704674 -0.09890088 0.9853577 0.1388844 23 23 23
0.0423882603366796 0.0431754185422863 0.00689350916882811 -0.05385768 0.9925159 0.1095971 28 28 28
0.0394981800287062 0.0438976271492471 0.00286034738160981 0.07605585 0.972755 0.2190049 23 23 23
0.0390060232861802 0.0429973039674696 0.00376685522089185 0.1178237 0.9789476 0.1666706 30 30 30
0.0406069853748035 0.0431569862925993 0.00764194135447879 0.04155745 0.9981573 0.04421593 29 29 29
0.0596152338439131 0.0369281440082421 -0.00707448556110843 0.9903144 0.1179748 -0.07320695 115 115 115
0.0378922389034417 0.0456932098141234 -0.00158993344915134 0.1403863 0.9691794 0.2024426 35 35 35
0.0330710417370312 0.0466622729021682 -0.00334095183638497 0.1909003 0.9802361 0.05190715 38 38 38
0.0332524919100998 0.046189637366495 -0.00369318083989595 0.1901766 0.9816211 0.01590091 21 21 21
0.0324503111067309 0.0464184270413837 -0.0022110003619604 0.1988518 0.977641 0.06838211 33 33 33
0.0358250194943226 0.0448400541120009 -0.00138619367499362 0.1372371 0.9727885 0.1866775 41 41 41
0.0339880462201352 0.0449114433932105 0.00101423811062876 0.2391992 0.9602965 0.143577 34 34 34
-0.0577241329746263 0.0344727850679287 0.00125505863186706 -0.9927611 0.1196233 0.01075213 36 36 36
0.0265882385431198 0.0473637862368266 -0.00462914912810025 0.1286028 0.988768 -0.07615142 27 27 27
0.0294534683533372 0.0466845875253834 -0.000256153878294779 0.2402084 0.9707208 0.0009848616 26 26 26
0.0264268057348911 0.0474310943099656 0.000584023168526543 0.1560786 0.9858526 -0.0611073 19 19 19
0.0360664635262462 0.0440373311699922 0.00610642503003808 0.2414544 0.9666528 0.08533555 38 38 38
0.0329729371258405 0.0452600239532639 0.00625090372457279 0.3706912 0.9264222 0.06580317 27 27 27
0.0367413749293899 0.0438656362841303 0.00300360691171644 0.2203579 0.9656413 0.1377656 34 34 34
0.034391653438369 0.0449211118524253 0.00230740573944158 0.2773745 0.952839 0.1231315 33 33 33
0.0331405619222136 0.0453249148883064 0.00311232311965878 0.3185471 0.942055 0.1051673 36 36 36
0.0330005722445752 0.0451259616953719 0.00532866131204754 0.3481836 0.9342212 0.07745252 20 20 20
0.0288959011660448 0.0473046707674201 0.00456529448138801 0.3197049 0.9473269 -0.01898663 18 18 18
0.031113071460525 0.0459184642722108 0.00828300723671963 0.3790311 0.9223843 0.07444951 21 21 21
-0.0495134236791333 0.00605463332048028 0.0171417540401227 -0.008409819 0.004843223 0.9999529 202 202 202
0.0316365028523085 0.0455557286363226 0.00208196180018369 0.30366 0.9489536 0.08530896 21 21 21
0.0225187319840212 0.0478525043690949 -0.000487258584110417 -0.01102552 0.9987245 -0.04927264 26 26 26
0.023576195549925 0.0477351488739246 -0.00265436579238368 0.04766971 0.9980136 -0.04118754 41 41 41
0.0202100619509902 0.0478693806125385 -0.00281272466289925 -0.02493517 0.9995769 0.01497913 42 42 42
0.0195542443588952 0.0475008682607119 -0.000761231180780336 -0.0454987 0.9989244 -0.008935126 18 18 18
0.0234393433591493 0.0487382948798829 0.00663977474574737 0.03198895 0.9992221 0.02306352 24 24 24
0.0213234469128301 0.0489858893773401 0.00595967767832697 -0.01570398 0.9991555 -0.03796861 15 15 15
0.0247099603666876 0.048695176431796 0.00437727398662471 0.07139497 0.9946518 -0.07463625 14 14 14
0.0249433071619141 0.0484146404487071 0.00539285873337844 0.1172187 0.9929138 -0.01954282 12 12 12
0.0232129845727886 0.0479019018047318 0.00366294870206771 0.008700047 0.9961632 -0.08708072 15 15 15
0.0215495000970849 0.0481575381908452 0.00916097581555955 0.04020508 0.9946384 0.09527794 41 41 41
0.0193609558885646 0.0485487106505691 0.00618096201937676 -0.06253134 0.9963323 -0.0584109 18 18 18
0.016633036940533 0.0477032459201328 0.00600092607257366 -0.03028389 0.9959727 -0.08438762 22 22 22
0.0152101481750839 0.0477221041301525 0.00503143044216744 -0.04454881 0.9926334 -0.1126691 23 23 23
0.0201201604813059 0.0474515809927221 0.00253538953463192 -0.07085871 0.9950479 -0.06970514 23 23 23
0.0165626889819754 0.0472622441413761 0.000929524377319552 -0.07905316 0.9965221 -0.02635051 18 18 18
0.0344123417562114 0.0454970271378867 -0.00618487245891924 0.1499294 0.9846007 -0.08990361 33 33 33
0.0300342803977416 0.0463003294464817 -0.00592805856723605 0.2036961 0.9771575 -0.06059023 25 25 25
0.028710524968802 0.0468117470170037 -0.00664929404599857 0.1646992 0.9803739 -0.1083571 21 21 21
0.0260632071344316 0.0470983201604638 -0.00815185304695995 0.1301771 0.9829612 -0.1297738 28 28 28
0.0236698566258342 0.00120368304044272 0.0169864818222975 0.004194178 0.002868333 0.9999871 209 209 209
0.0223445013884258 0.0474869056921838 -0.00739093897584697 0.04034096 0.9953213 -0.08779589 21 21 21
0.0208836017249086 0.0477590992249721 -0.00578731738721927 0.01086026 0.9985195 -0.05329971 31 31 31
0.0184471145597112 0.0477655943778537 -0.00743765846983574 0.0402256 0.9986139 -0.0339434 29 29 29
0.0194943993004086 0.0479300059130958 -0.0039686845792975 -0.009233929 0.9999571 0.0007187917 43 43 43
0.0158193624898337 0.0479758731260358 -0.00466855124991497 -0.01841289 0.995884 0.0887472 14 14 14
0.0140466256995255 0.0476517309792774 -0.00734320904986635 0.01554832 0.9941118 0.1072375 35 35 35
0.0150761376191859 0.0482313401123282 0.00982746323235281 -0.04169619 0.9960157 0.07882958 25 25 25
0.054208286245514 0.0235677026581098 0.0170266133673501 0.04459636 -0.006287747 0.9989853 204 204 204
0.0532218112081662 0.0205521943820741 0.0167762015627231 0.01460743 -0.004624527 0.9998826 184 184 184
0.0517668382198653 0.0237985687559832 0.0169315330468282 0.001658031 -0.002170599 0.9999962 173 173 173
0.0509811059218626 0.0232912541041208 0.0168756315770972 -0.001761386 -0.003819895 0.9999912 165 165 165
0.0494876433653588 0.0264154955723597 0.0170060762977605 -0.005244551 0.003464253 0.9999803 189 189 189
0.0492392899784484 0.0236199308162233 0.0168937257009456 0.0009409374 -0.001918073 0.9999977 167 167 167
0.0465164798930875 0.0246153541391179 0.0169320470266429 0.003784856 0.006355953 0.9999726 180 180 180
0.0454391686457871 0.0254966668207408 0.0170044563729496 0.01227733 0.01694359 0.9997811 191 191 191
0.0446694739130935 0.0219071630908718 0.0170144279490881 0.008917695 -0.008195576 0.9999266 177 177 177
0.0446862277505953 0.020505668784687 0.0169750818770381 0.005647396 -0.009497976 0.999939 176 176 176
0.0454188681111836 0.0187306824038695 0.0167517700068778 0.003210385 -0.01320447 0.9999077 173 173 173
0.0431933165896039 0.0185226927368285 0.0171094748785492 0.006348065 -0.01049879 0.9999247 191 191 191
0.0513962312694094 0.0139665127306774 0.0169748770551597 -0.009264156 0.003277896 0.9999517 171 171 171
0.040474351241421 0.0297569967008091 0.0168357917416676 -0.01427425 0.007644292 0.9998689 155 155 155
0.0425187931184072 0.0239721884609656 0.0169938661605709 -0.005174323 0.008368059 0.9999516 172 172 172
-0.0611438258593833 0.00413260943082228 0.00797898873809058 -0.9983226 -0.05605945 0.01446926 32 32 32
0.0412685206371188 0.0268369230275856 0.0170396207412029 -0.01214953 0.02281805 0.9996658 163 163 163
0.0391867349951318 0.0251098878887535 0.016898681530908 -0.01643697 0.01591435 0.9997382 161 161 161
0.0364149410927563 0.0301573592655946 0.0168411452644265 0.001715048 0.005294449 0.9999845 157 157 157
0.0379458199669753 0.0282025137504816 0.0169225424527373 0.0009936549 0.007540734 0.9999711 167 167 167
0.0384230436141326 0.0271718732093029 0.0168861006008607 -0.01047843 0.01990313 0.999747 160 160 160
0.0370312375886765 0.0257387178676589 0.0170141034554875 -0.01182984 0.01590972 0.9998034 150 150 150
0.0334734432126642 0.0280168318999383 0.0169676943406753 0.006557133 -0.001124138 0.9999779 148 148 148
0.0334192638545918 0.0267475827635675 0.0169585224946303 0.002204556 -0.001164172 0.9999969 165 165 165
0.0421400325124548 0.0194687548077159 0.0169127607689461 0.001326735 -0.01015496 0.9999475 199 199 199
0.0350364426580412 0.0239553779874235 0.0170005100967857 0.003264859 0.01306375 0.9999093 159 159 159
0.0367630781608241 0.0224186054609155 0.0168922493863498 -0.01693344 0.006548412 0.9998352 149 149 149
0.0324768295670279 0.0244833757795035 0.0168820464280214 0.003919081 0.01032197 0.999939 159 159 159
0.0338370047897834 0.0211774664615905 0.016994749776452 -0.001248893 -0.0002196517 0.9999992 247 247 247
0.0371155961991647 0.0178539157976514 0.016879353703782 0.004399871 0.01069051 0.9999332 242 242 242
0.0312441232803424 0.0198159427451845 0.0170539619318101 0.0008302206 0.009842588 0.9999512 241 241 241
0.0310445004167663 -0.0373289264048304 0.0121660607537354 -0.1186168 -0.9665083 0.227578 83 83 83
0.0501033799431023 0.0111655223548182 0.0170420871057887 -0.002487691 0.002963888 0.9999925 172 172 172
0.0508765344597468 0.00902011309478756 0.0170220611656333 0.002949762 0.0005398992 0.9999955 146 146 146
0.0493992902924458 0.00951250033149198 0.0170151565952014 0.006926003 1.56738E-05 0.999976 170 170 170
0.0507194500123092 0.00679775849046194 0.0169508598587009 0.01023048 -0.0008372333 0.9999473 181 181 181
0.0487042535840483 0.00752306635138034 0.0171307333974594 0.01226587 0.001621483 0.9999235 189 189 189
0.0464692941907208 0.00936264505309392 0.0170223781582234 0.007077832 0.008899201 0.9999353 243 243 243
0.046688511114481 0.00738617966557986 0.0170434293252474 0.01170071 -0.00103003 0.999931 244 244 244
0.0417353623363632 0.0137330957760702 0.0169816950555096 -0.001247709 0.006816082 0.999976 246 246 246
0.0449690549914745 0.0081548350763565 0.0169804338270112 -0.001450383 0.008613144 0.9999619 247 247 247
0.041400838516287 0.0123087084013542 0.0169992977242754 -0.001857861 0.004436661 0.9999884 248 248 248
0.0428199802764122 0.0101271992142467 0.0170277704159424 -0.004923928 0.01335325 0.9998987 244 244 244
0.0410624635561567 0.0106956635321924 0.0169523580654704 -0.003319169 0.007153186 0.9999689 204 204 204
0.0494929297655839 0.00532518635592716 0.0169599240130369 0.009092906 0.004014992 0.9999506 153 153 153
0.0458738557560818 0.00669793590593848 0.0173501951897074 0.008742254 -0.002725994 0.9999581 245 245 245
0.047134866434881 0.00563904596111775 0.0171823872566501 0.008565607 0.002592665 0.9999599 245 245 245
0.0433971497710117 0.00713959768837014 0.0171289100363031 -0.003653386 0.004682922 0.9999824 232 232 232
0.0417191209415386 0.00765665288779926 0.0170127208472454 -0.007087097 0.006465411 0.999954 209 209 209
0.0382131124172531 0.0144405125658202 0.0169854013032046 -0.006382971 0.00724142 0.9999534 208 208 208
0.0367189606752962 0.0151245346673203 0.0169902740705328 -0.002050173 0.004125492 0.9999894 203 203 203
0.0392426415923208 0.0114669428889418 0.0170032422299349 -0.002508348 0.003569236 0.9999905 176 176 176
0.0369477451747673 0.0103407120343764 0.0169853333002355 -0.004532873 0.009002095 0.9999492 159 159 159
0.0381918162381538 0.0101453354963337 0.0170247091358019 -0.006967875 0.007444888 0.999948 171 171 171
0.0360279615348311 0.012837359266975 0.0169512242566557 -0.006249172 0.004499639 0.9999704 148 148 148
0.0312066038534935 0.0188004696000603 0.0169185802930824 -0.001041425 0.005971262 0.9999816 236 236 236
0.034584842626777 0.0145675379422634 0.017011477583365 -0.00416615 0.001361438 0.9999904 171 171 171
0.0335058425713282 0.0113320719075489 0.0170145232732109 -0.008662081 0.0046005 0.9999519 179 179 179
0.0319519794837873 0.0135527088249832 0.016917659051105 0.001666327 0.0001420533 0.9999986 149 149 149
0.0301375361172127 0.0128753241206101 0.0170358277318151 0.0009558146 -0.0059587 0.9999818 158 158 158
0.0287360321181782 0.0121228915969249 0.0169414868992976 -0.003341683 -0.007166786 0.9999687 147 147 147
0.0471548770576757 0.00275468982295712 0.0169545414267073 0.002861743 -0.003038132 0.9999913 238 238 238
0.0480513674461207 -0.00063446587795557 0.0170813807038024 -0.002426058 0.003689418 0.9999902 239 239 239
0.0444562268110658 0.00244593179238084 0.0170568422373166 -0.0008561792 -0.00554471 0.9999843 239 239 239
0.0448036610601328 0.000911447612151228 0.0170736087565981 0.001289719 0.004245293 0.9999902 244 244 244
0.0401704287064732 0.00663204744843093 0.0169578847184133 -0.001803929 0.005171204 0.999985 183 183 183
0.0412749480817043 0.002615515765924 0.0170659941699147 0.000444893 0.001294197 0.999999 188 188 188
0.0394027731535842 0.00523347199092083 0.0170200500311368 -0.005126024 0.001167966 0.9999862 198 198 198
0.0397709912414328 0.00391592381938755 0.0171073129959178 -0.002486202 -0.003380682 0.9999912 196 196 196
0.035320878831826 0.00960356785301242 0.0169990183744129 -0.008811524 0.009158665 0.9999192 191 191 191
0.0383825440213466 0.0052873286357229 0.0170496153169325 -0.008145432 0.004182578 0.9999581 191 191 191
0.0346131750802026 0.00667775249486535 0.0170734030441722 -0.007306025 0.006848546 0.9999499 150 150 150
0.0325093506330321 0.00893878189326847 0.0170010450377372 -0.004769787 0.008109911 0.9999557 149 149 149
0.030563530824276 0.0114386420827517 0.0169216938609866 -0.001711634 -0.003112876 0.9999937 168 168 168
0.028880910075149 0.0100826030753993 0.0170199265489411 -0.003259328 0.005082389 0.9999818 156 156 156
0.0293294622556326 0.00734786880063854 0.016933789829107 -0.005100764 0.008964778 0.9999468 171 171 171
0.0272468201972886 0.0062735438535646 0.0170221014589696 -0.008998045 0.001473257 0.9999585 163 163 163
0.0308292614495183 0.0320190328101801 0.0169017933640992 0.0008876189 0.004690896 0.9999886 143 143 143
0.0300683529379415 0.0298561514368696 0.0168737711428733 -0.004952955 0.003165276 0.9999827 154 154 154
0.0297179547132482 0.0308550084084986 0.0170407704987721 -0.009475917 0.002910789 0.9999509 166 166 166
0.0282719755422751 0.0298426328393255 0.0170662077937965 -0.01194541 0.00572951 0.9999123 149 149 149
0.0311168610464252 0.0265688177325418 0.0168643816661528 0.006579003 -0.004190539 0.9999696 166 166 166
0.0313488719679329 0.0277948650407891 0.0168106738822939 0.006709924 -0.001059694 0.9999769 147 147 147
0.0276324063701598 0.0280186933131381 0.0169248838359047 -0.01136948 0.003022129 0.9999308 140 140 140
-0.0603404565801715 -0.00902128794542367 0.0140511275959261 -0.7692129 0.1075408 0.6298782 60 60 60
0.0267978592350531 0.0350195606179033 0.0168320195606449 -0.003838523 0.006134795 0.9999738 180 180 180
0.0251783500054832 0.0337933331348477 0.0168937467813015 -0.00748874 0.004093508 0.9999636 151 151 151
0.0236462778375688 0.0340788021740996 0.0169196462810407 0.002233514 -0.001019282 0.999997 148 148 148
0.0245002595352113 0.0317333857484217 0.016688807258242 -0.008382969 -0.000908165 0.9999645 124 124 124
0.0225746103089506 0.0312518217442672 0.0169856803792733 0.0008203654 -0.0007316887 0.9999994 140 140 140
0.025290824141269 0.0295162696218261 0.0167799738382441 -0.01033686 0.006120115 0.9999278 156 156 156
0.0239300963878528 0.0294813191144547 0.0168318605691399 -0.008214097 0.001057434 0.9999657 170 170 170
0.0230932796590095 0.0288365494879814 0.0168890065154128 -0.003368907 0.004567217 0.9999839 152 152 152
0.0274840303081438 0.025431696262052 0.0170355401212515 7.050556E-05 0.01125317 0.9999367 172 172 172
0.0286719095362891 0.0238968102645489 0.0167530599827805 0.002406289 0.009126405 0.9999555 190 190 190
0.0252869598995917 0.02668112553122 0.0168600130524363 -0.004915631 0.009174092 0.9999458 179 179 179
0.0258036563714263 0.0213841029080426 0.0169839012687865 -0.008492139 -0.001003782 0.9999635 243 243 243
0.0249414310704026 0.0239914399299406 0.0169248478244082 -0.008801538 0.008193073 0.9999277 132 132 132
0.0204468620050031 0.0249380359713149 0.0168784752968275 0.004855677 0.006470182 0.9999673 142 142 142
0.0212298962151665 0.0348509859384849 0.0169194284768473 -0.002144454 0.005240908 0.999984 150 150 150
0.0205589418478733 0.0324699024889508 0.0169059150526367 -0.002383933 -0.001973448 0.9999952 146 146 146
0.019089019192351 0.0331472401654695 0.0168928710944246 -0.003245006 0.0008747107 0.9999943 139 139 139
0.0181569057877295 0.0311757937718879 0.0169208713601594 -0.0033437 0.0002233369 0.9999944 131 131 131
0.014889858493869 0.0359905909130587 0.0169609473292968 -2.167159E-06 0.004841092 0.9999883 138 138 138
0.014519902628535 0.0318846349084727 0.0168383447737169 0.003572953 0.001673913 0.9999922 146 146 146
0.0121507791189823 0.0324755056502171 0.0168463333417942 0.004271471 0.0002027849 0.9999909 202 202 202
0.0182179068573505 0.0286924775174393 0.0168829761011595 -0.002404686 0.01198159 0.9999253 131 131 131
0.0189618901691566 0.0271467894014013 0.0168264090152742 0.003959924 0.002845648 0.9999881 168 168 168
0.0153318815211061 0.029354967073387 0.0168361911935767 -0.003696278 0.01059552 0.9999371 152 152 152
0.012354633068457 0.0306772562019231 0.0168817331127941 0.0008993911 -0.003196661 0.9999945 211 211 211
0.0119871766931201 0.0290569872752455 0.0167439449967861 0.002286892 0.005288677 0.9999834 158 158 158
0.0185927742956227 0.0257457792279698 0.0169250327969909 0.002794581 0.004208218 0.9999872 141 141 141
0.0180724450951373 0.0244110791627141 0.0169322694493438 0.001411137 0.007256555 0.9999727 149 149 149
0.0159315668648312 0.023345033439381 0.0168710122805112 -2.454869E-05 0.003506893 0.9999939 158 158 158
0.015024709623606 0.024522877132432 0.0171612092691091 -0.008004673 0.007807188 0.9999375 123 123 123
0.0124458196465542 0.0290230582540041 0.0168286292030737 0.002839509 0.007216488 0.9999699 138 138 138
0.00906906055260182 0.0295024695927231 0.0167868975804709 -0.001261623 -0.001647999 0.9999979 225 225 225
0.0105863834330289 0.0281983026939796 0.0168282967260539 0.003034818 0.001965942 0.9999934 183 183 183
0.027787326034292 0.0193735122357175 0.0169102846755557 0.003591239 0.005381743 0.9999791 225 225 225
0.028160359631582 0.0176542124119146 0.0169461574815612 -0.003274043 0.005157038 0.9999813 161 161 161
0.0252309428667914 0.0205439386515605 0.0169943172956184 -0.00838101 0.004140837 0.9999563 248 248 248
-0.0199056404561064 0.0150515506104472 0.0169587083667501 0.008197577 0.003343821 0.9999608 213 213 213
0.0248812472432784 0.0187450863012706 0.0170078959270676 -0.01204572 0.005717353 0.9999111 237 237 237
0.026892150515776 0.0138766209223844 0.017077263295395 -0.004784151 5.653116E-05 0.9999886 144 144 144
0.0259805943828146 0.0143715005278022 0.0169965570902309 -0.003484057 0.004222341 0.999985 156 156 156
0.0256086386821441 0.0172421343904163 0.0168954483500682 -0.003223706 -0.002992293 0.9999903 118 118 118
0.0245401383067798 0.0145737162117989 0.0167764533146275 -0.008898574 -0.001585082 0.9999592 169 169 169
0.0207364195632711 0.0198024173827189 0.016925172470679 -0.006885642 0.001393232 0.9999753 243 243 243
0.0189727835213764 0.0209089365444002 0.0170095935676713 2.042164E-05 -0.002287386 0.9999974 159 159 159
0.0226683648024171 0.0191220706206459 0.0169951203302473 -0.005215818 -0.001429204 0.9999854 242 242 242
0.0188225986629931 0.0182417377111215 0.0169185349342248 0.002195052 0.01116414 0.9999353 147 147 147
0.017446081225406 0.0163488125770772 0.0170572498737412 -0.005733597 0.0007027547 0.9999833 153 153 153
0.025289402003017 0.0129324164608413 0.0168056224588471 -0.007531871 0.0001705523 0.9999716 129 129 129
0.0169797317648737 0.0228278711543333 0.0169072421466378 -0.003258794 0.0008324115 0.9999943 168 168 168
0.013962030508782 0.0237652754264519 0.0168822719997505 0.0005158613 0.01155282 0.9999331 167 167 167
0.0173689372756693 0.0209347884926256 0.0169109556118542 0.003428776 -0.00343576 0.9999882 162 162 162
0.0157994040824669 0.0212126009848601 0.0168666949860317 0.001837251 0.0009691146 0.9999979 146 146 146
0.0167193049605121 0.0205058577326427 0.0168301130529261 0.002330054 -0.00388353 0.9999897 186 186 186
0.0164163306638736 0.0182774807373887 0.0167865393174625 0.001844593 0.009965278 0.9999486 152 152 152
0.0137866699911733 0.0166271926084949 0.0169014776495394 -7.190223E-05 0.002902944 0.9999958 161 161 161
0.0225705978837052 0.0137239136992635 0.0169838494324569 -0.002149031 -0.003728144 0.9999908 158 158 158
0.0234782330079719 0.0108074788697181 0.0169094668368809 -0.002937544 0.003591931 0.9999892 166 166 166
0.0236860775687999 0.00771972227829254 0.0169910011030744 0.0016342 0.008573107 0.9999619 173 173 173
0.0202616604026336 0.0120276519113198 0.0169998915038647 0.004263896 0.003238943 0.9999856 136 136 136
0.0186869609930063 0.0132583462321187 0.017008886640354 -0.001098933 0.0002945501 0.9999993 140 140 140
0.0196650748686031 0.00869226268420364 0.0169481291401636 0.000731123 0.00598268 0.9999818 170 170 170
0.0184256831295104 0.00928881672191118 0.0169603580945288 -0.000378486 0.007743328 0.99997 155 155 155
0.0173487155760417 0.00814254563141592 0.0169874706896968 -0.001540456 0.007449263 0.9999711 156 156 156
0.0173535331297248 0.0105155946577324 0.0168675267499654 0.001728961 0.0002500825 0.9999985 140 140 140
0.00592997502480852 0.0192221978793821 0.0168424600201558 -0.01368922 0.003579853 0.9998999 203 203 203
0.0108609519597658 0.0126210964897024 0.0169039254763249 0.003580203 -0.00361599 0.9999871 244 244 244
0.0136642455947862 0.00970937846305264 0.0169540024578685 -0.002372016 0.008691995 0.9999594 134 134 134
0.0113929309380478 0.00944802374211196 0.0170036101576651 -0.0003355533 0.009704174 0.9999529 240 240 240
0.00731263811599758 0.016822063671309 0.0169403042257352 -0.001388093 0.00821057 0.9999653 245 245 245
0.00484631428015714 0.016354494614792 0.0169278998791745 -0.001616652 0.01655277 0.9998617 196 196 196
0.00880701704445963 0.0138677772605322 0.0168628744879582 0.009392534 0.002958015 0.9999515 221 221 221
0.00812962303054654 0.0115819231177536 0.0169961797137238 0.008678024 0.001711367 0.9999609 178 178 178
0.00402603208019103 0.0125851572887579 0.0169412583204651 0.001163908 0.004261031 0.9999902 175 175 175
0.013680800852732 0.0476181947800773 0.00499835550383884 -0.06399969 0.9903346 -0.1230507 23 23 23
0.0131597551716678 0.0481695868341112 0.00852018519164657 -0.09176864 0.9952591 0.0322146 33 33 33
0.00969778347918338 0.0479154454731965 0.00593281325669612 -0.1169885 0.9899547 -0.07939437 33 33 33
0.0103383106979384 0.0469460106045334 0.00184328025715888 -0.06714543 0.9967505 -0.04449646 17 17 17
0.0103648908207283 0.046727728730888 0.000140519979135639 -0.0502342 0.9986986 0.008809024 13 13 13
0.00198295829919504 0.0466596534827595 0.00180171183433189 -0.06224425 0.9979842 0.0123808 18 18 18
0.0102638546380933 0.0479831585749815 -0.00759762592453961 0.04445381 0.9742711 0.2209519 38 38 38
0.0138021584181178 0.0473890322263295 -0.00311585137181572 -0.03868676 0.9934423 0.1075904 16 16 16
0.0135796464367948 0.0479594376331187 -0.00676582277720458 0.02584285 0.993076 0.114596 35 35 35
0.00403364637463444 0.0495896991757352 -0.00816521272000989 0.1330802 0.8652118 0.4834234 36 36 36
0.00734640779285112 0.0483131960547172 -0.00741648727088548 0.08287959 0.9465908 0.3116036 32 32 32
0.00292854252261909 0.0495008808833253 -0.00761775680199311 0.08708256 0.8674863 0.4897797 41 41 41
0.00382060845179133 0.0491453982679178 -0.00639749865979963 0.0704251 0.8896927 0.4510957 41 41 41
0.0112397616821203 0.0483303145843197 -0.00975435366534008 0.08447956 0.9841424 0.1559707 35 35 35
0.0100071428059696 0.048056769654186 -0.00941283808211563 0.08315247 0.9669375 0.2410758 49 49 49
0.00412773756493978 0.0489049801339629 -0.00979054750855521 0.123889 0.8826882 0.4533354 36 36 36
0.00915510158982791 0.0472912712250046 -0.00417184360952116 0.02189503 0.982304 0.1860092 32 32 32
0.00813395038590858 0.0463685070496651 -0.000544701302342104 -0.05516846 0.9972309 0.04986947 33 33 33
0.00171422553959388 0.0488876218271206 -0.00597952234085072 0.1050921 0.8623433 0.4952977 32 32 32
0.00365696664455051 0.0470259355179967 -0.00559617709680982 0.06190148 0.9066671 0.4172805 28 28 28
0.00290451959716131 0.0465963193525769 -0.00426267747793521 0.06471155 0.9361537 0.3455846 17 17 17
0.0017449614952163 0.0475506493476012 -0.00527497471455929 0.1083032 0.8914125 0.4400615 36 36 36
0.00626109165938393 0.0464926161655672 -0.00150723783166354 -0.05328864 0.9852505 0.1626094 12 12 12
0.00309325972679497 0.0466669949935448 -0.000289675678781326 -0.04751709 0.991417 0.1217969 14 14 14
0.001550555820653 0.046602686203292 -0.00117926604902296 -0.02681885 0.9689855 0.2456581 16 16 16
0.000461572430268564 0.0501144150354498 -0.00767249362149106 0.0667839 0.8663931 0.4948766 43 43 43
-0.00446659163967622 0.0497808989061825 -0.0081626725804497 -0.07095689 0.9203635 0.3845726 33 33 33
