ply
format ascii 1.0
comment File exported by Rhinoceros Version 7.0
element vertex 474
property float x
property float y
property float z
property float nx
property float ny
property float nz
property uchar red
property uchar green
property uchar blue
end_header
-0.00220066889201248 0.00232381585184882 -0.0140276667071494 0.1192704 0.04615618 0.9917884 160 160 160
-0.0052513951180736 0.0102777513388206 -0.01286571016961 0.1900895 0.1277023 0.9734259 159 159 159
-0.00399268232883476 0.0034855091239141 -0.0137455295287898 0.1788685 0.05946306 0.9820744 149 149 149
-0.00603194839505217 0.00265073459889997 -0.0133794322749249 0.1855997 0.1121072 0.9762093 141 141 141
-0.00675346259983434 0.000453604678442909 -0.0133402494470103 0.1168973 0.1473323 0.9821549 130 130 130
0.0087049073854788 0.0450251811177902 0.00153498633877325 0.02452274 0.9986495 0.04580122 60 60 60
0.00705677109897368 0.0453381424927277 5.01484076171343E-05 -0.03175542 0.9988219 0.0366924 77 77 77
0.0049121088226593 0.0457923931060147 0.00121209144068829 -0.04388826 0.9934242 0.1057456 74 74 74
0.00310381244081348 0.0464383429383251 0.00908859040971488 -0.04121165 0.9953052 0.08757361 56 56 56
0.00323996387113273 0.0464443639384298 0.00682672798040729 -0.09786906 0.9937033 0.05454721 47 47 47
0.00460217751924896 0.0460239270063805 0.00489397014777626 -0.09530519 0.9952368 0.0205096 36 36 36
0.00270347808517624 0.0461411310783484 0.00547921942508667 -0.04938354 0.9976778 0.04690727 58 58 58
0.00177857447726099 0.046628931631236 0.00725435452324341 0.05182802 0.9967538 0.0616089 56 56 56
0.00147278069429602 0.0466682361711865 0.00580480568933817 0.05390377 0.9964779 0.06423555 55 55 55
0.000607117730623496 0.046468600691103 0.0155910400736329 0.07123109 0.9970524 0.02850651 47 47 47
-0.00127628298384386 0.0470380996499187 0.0154202754798898 0.08523124 0.9962854 0.01228827 46 46 46
0.00170654019900746 0.0466349794568806 0.011639384806242 0.05864603 0.9959464 0.06820115 53 53 53
-0.000422223241653474 0.0468135158484175 0.00982798694973752 0.07190347 0.9952547 0.06555929 58 58 58
-0.00431078521697204 0.0465079371512482 0.00874131837868819 0.1553474 0.9780637 0.1387752 49 49 49
-0.00572643058696037 0.0463293656472825 0.0125317499745357 0.1131396 0.991593 0.06279123 68 68 68
-0.00504004757782173 0.0460067396222361 0.0101543734262126 0.1326362 0.9805195 0.1448761 53 53 53
0.00669749332571873 0.0460459002211262 -0.00400144122626656 0.08082835 0.9967217 -0.003564749 57 57 57
0.00157071513837059 0.0458803245707387 -0.000133893595545054 0.01376898 0.9882924 0.1519493 57 57 57
0.00236868755587111 0.0462873782203115 0.00139508536829047 -0.01997463 0.9945226 0.1025951 59 59 59
0.000142182870398799 0.046335655407745 0.00383474630119668 0.09230732 0.9928643 0.07549775 61 61 61
-0.000266133108104138 0.0461870455167075 0.000157064962468645 0.05868734 0.9924793 0.107427 53 53 53
0.00149210643597147 0.0454815238126156 -0.00441628314064735 0.04111949 0.9942431 0.09894391 77 77 77
-0.00371474851377596 0.0446341138741095 -0.00799353006359871 0.09358924 0.9430338 0.3192624 88 88 88
-0.00344689024436262 0.0455242155146132 -0.0024739834593151 0.06518016 0.9900842 0.1244379 67 67 67
-0.00299068214005438 0.0462094488125799 -0.00118786654109515 0.06485596 0.993174 0.09694908 65 65 65
-0.00608310176200744 0.0453258999012951 0.000863151173531251 0.07936954 0.9961772 0.03648948 58 58 58
-0.00425844342218745 0.0441624058953072 -0.00346616135076733 0.05560442 0.9933471 0.1008449 101 101 101
-0.00338177920747862 0.0447949208828142 -0.00540273751933995 0.05875066 0.983806 0.1693342 98 98 98
-0.00776238220295983 0.0451920844361056 -0.00304783327058283 0.1111361 0.9856335 0.1271824 84 84 84
-0.00276803649834223 0.046227610234485 0.0062292542078326 0.1665661 0.9817938 0.09130494 53 53 53
-0.00329522372063085 0.0463652603735689 0.00509784453366346 0.1550663 0.986471 0.05319212 45 45 45
-0.00529515675669712 0.0445075638257084 0.00630342819128327 0.06022482 0.9958774 0.06783234 43 43 43
-0.00539126892640779 0.0456251897428024 0.00479237867898269 0.07841135 0.9962432 0.03675929 42 42 42
-0.00569885833790573 0.0456104165668827 0.00256122610588044 0.06020047 0.998168 -0.006041891 57 57 57
-0.00501063568454402 0.0445911503082794 0.00565859742282493 0.07656454 0.9964483 0.03505222 44 44 44
-0.00765597419761926 0.0457766419470225 0.00502581864258544 0.04840224 0.9977493 0.04640616 37 37 37
-0.00857118679745045 0.0461019375561826 0.011433254753874 0.05100161 0.9923191 0.1127016 44 44 44
-0.0104754464514293 0.0463413147847207 0.0113562933360771 -0.02872634 0.996623 0.0769246 57 57 57
-0.00899758753037727 0.0452320426773949 0.00811208215044784 -0.003454707 0.997208 0.07459405 50 50 50
-0.0104192791300521 0.0460642645918399 0.00741037477913215 -0.04981221 0.9975134 0.0498566 77 77 77
-0.0113844096219762 0.0455981045096461 0.00741144325806209 -0.01307877 0.9974402 0.0702997 54 54 54
-0.0130047101774425 0.0460064046225488 0.00980999979510705 -0.013825 0.9960392 0.08783364 73 73 73
-0.0131927715698405 0.046108234979815 0.00815959284952472 -0.0216058 0.9964086 0.08187252 85 85 85
-0.0129110177918279 0.0463504214120694 0.00949678700935008 -0.02294176 0.9927621 0.1178861 76 76 76
-0.0126934770570647 0.0447373440526468 -0.000388870930188967 0.07374069 0.9828988 0.1687373 79 79 79
-0.0157643752155049 0.0458320804656784 0.00618827586879728 0.01522825 0.9954357 0.09421249 95 95 95
-0.0164783822074548 0.0455475441293005 0.00281432549369903 0.02632455 0.9850131 0.1704586 94 94 94
-0.0180471189443573 0.0458624656106614 0.00481628454763605 0.1151911 0.98738 0.108682 89 89 89
-0.0174460383751908 0.0449673810124867 0.0046020106638997 0.09230387 0.9880928 0.1230954 78 78 78
-0.000204375934421519 0.0418652158801942 -0.0114794926278429 0.1080331 0.3988621 0.910625 192 192 192
-0.00141774242288589 0.0409659636013731 -0.0116357463136733 0.0847306 0.3316352 0.939595 139 139 139
-0.000175402548435011 0.0385214242504375 -0.0120503691211625 0.1429489 0.1765696 0.9738526 156 156 156
-0.0015584570531173 0.0387911316315361 -0.0119149622220406 0.08642157 0.1850201 0.9789274 108 108 108
-0.000336646809214747 0.0361589675199112 -0.0125317095303331 0.0812539 0.07838612 0.9936063 185 185 185
-0.00262139489094404 0.0346538624836827 -0.0123134182562312 0.02249162 0.08131664 0.9964345 156 156 156
-0.00386543657392074 0.0308974811738076 -0.0125479170975054 0.005075554 0.0512718 0.9986718 190 190 190
-0.00413166092213946 0.0290831922102743 -0.0127221050477977 -0.002236739 0.06279537 0.9980239 172 172 172
-0.00322005096035677 0.0244467770786561 -0.012704823908716 -0.02806108 0.002820385 0.9996023 157 157 157
-0.00526306099789597 0.0254738688177136 -0.0127328804127769 0.03349187 0.03049987 0.9989735 154 154 154
-0.00380393610099472 0.0218406134365354 -0.0129946772138761 -0.001371479 -0.03116464 0.9995133 160 160 160
-0.00481194611571523 0.0189982589075444 -0.0121854089633111 0.05517767 -0.0392793 0.9977037 138 138 138
-0.00582557265611383 0.0179265943019593 -0.0115064960271914 0.05412001 -0.02961327 0.9980952 126 126 126
-0.00600737414529529 0.0114566884641871 -0.0125211930324423 0.1717228 0.1260193 0.9770519 178 178 178
-0.00772342645017338 0.00689486574705223 -0.0125316747057999 0.2001928 0.07233891 0.9770824 94 94 94
-0.0090595055813768 0.00780740652747181 -0.0119952010345742 0.1413938 0.07563924 0.9870595 78 78 78
-0.00755590194119632 0.00512676821624192 -0.0124976030278917 0.2153806 0.09128568 0.9722542 97 97 97
-0.0101296617395197 0.00365923726763495 -0.0123439541029541 0.06275244 0.1499256 0.9867038 100 100 100
-0.000372760877086598 0.0427085655367434 -0.0110465083151287 0.08220585 0.5541419 0.8283532 195 195 195
-0.00210652839354109 0.0431218322046387 -0.010801202790252 0.08404527 0.5694195 0.8177395 138 138 138
-0.00427920849877883 0.0436995816515955 -0.0100164652162953 0.08540644 0.7476992 0.6585223 101 101 101
-0.00475425932528245 0.0428334177270273 -0.0108375345777815 0.05119319 0.5709779 0.8193677 105 105 105
-0.00389478960681017 0.0394233043349519 -0.0114368103852472 0.06401415 0.2440536 0.9676467 104 104 104
-0.00423181834950409 0.0368611109767856 -0.0119544544835644 0.04594736 0.1487392 0.9878084 152 152 152
-0.00522284535288042 0.041076982308093 -0.0109393542264498 0.06430306 0.4499334 0.8907441 96 96 96
-0.00658905798391957 0.0376174106422036 -0.0121622140251537 0.05527794 0.1827216 0.9816095 183 183 183
-0.00617273580056105 0.0424622875817087 -0.010435691214594 0.04713899 0.5557706 0.8299982 90 90 90
-0.00569567075217242 0.0390046538986877 -0.0111640464745919 0.04879396 0.228751 0.9722614 113 113 113
-0.00768214805911049 0.0446696693879696 -0.00724810546459703 0.06655207 0.9682951 0.2407808 94 94 94
-0.00890048799673115 0.0446119530482383 -0.00494638244019602 0.1093014 0.9889145 0.100505 69 69 69
-0.00852464039080814 0.0442435573791322 -0.00911584942641874 0.03794505 0.8609259 0.5073133 123 123 123
-0.0119153614671746 0.044419428973473 -0.00788244647450115 0.09801221 0.9553489 0.2787509 89 89 89
-0.00937687412831767 0.0419273068987247 -0.0109101987051807 0.1375626 0.4487952 0.8829833 209 209 209
-0.0097548741008282 0.0402386379447084 -0.0115169472119891 0.1374786 0.2730418 0.952128 209 209 209
-0.0113551297590606 0.0408843604817024 -0.0107323300158523 0.1607559 0.4286652 0.8890465 129 129 129
-0.0121939773747679 0.0392336900488208 -0.0106684795045344 0.185589 0.2452794 0.9515223 150 150 150
-0.0113931824467211 0.0438026798200908 -0.00960223038531521 0.09543548 0.8238378 0.5587338 92 92 92
-0.0113958960017056 0.0425635073291073 -0.00995664423785525 0.1141655 0.5438123 0.8314051 137 137 137
-0.0129957815492241 0.0431235844346498 -0.00985172645782106 0.1727045 0.6187537 0.7663661 105 105 105
-0.0139812035033516 0.0395461754719624 -0.0102920811474672 0.2079132 0.2598178 0.9430094 108 108 108
-0.0159539021198829 0.0398545890094957 -0.0100518034426964 0.1036163 0.3140139 0.9437473 112 112 112
-0.00543992218624528 0.0311660204675139 -0.0125490308226966 0.04105273 0.0767287 0.9962065 166 166 166
-0.00599178197096911 0.0296055581263692 -0.0128196774098508 0.03560827 0.08520212 0.9957272 187 187 187
-0.00810546008394297 0.0300633735085321 -0.0120730717522401 0.2509026 0.07989156 0.9647099 136 136 136
-0.00728476201428208 0.0257037366430595 -0.0130902809142956 0.1684064 0.05328729 0.9842762 179 179 179
-0.00890444018456132 0.0281926369793029 -0.0124148465151113 0.2843831 0.09837428 0.9536502 144 144 144
-0.00982580580714015 0.0305305181966395 -0.0113065071395698 0.2890901 0.06541691 0.9550642 144 144 144
-0.0111360261056253 0.0263707202227976 -0.0116506373702763 0.2919783 0.1082011 0.9502848 167 167 167
-0.0116622935092748 0.030582397243244 -0.0105216677258288 0.2491945 0.01227514 0.9683757 116 116 116
-0.0143957681566231 0.0294327628155258 -0.0100808707172854 0.09464029 0.0484441 0.9943321 85 85 85
-0.0132049388064874 0.0289817773403067 -0.00999866794407062 0.1866276 0.06826705 0.980056 73 73 73
-0.0143687352440024 0.0277762185353321 -0.0100981993266465 0.1139239 0.08848924 0.9895408 85 85 85
-0.00920655405481347 0.0374910268259916 -0.012184005578838 0.1546868 0.1278995 0.9796498 199 199 199
-0.0129723487559663 0.0352714397755181 -0.0109336124631714 0.1988002 0.02352026 0.9797578 110 110 110
-0.0132752212195983 0.0333251593334403 -0.0107213600122807 0.1916402 -0.02020955 0.9812571 99 99 99
-0.0148502023227899 0.0356221273065127 -0.0105740559291207 0.1396517 0.02498204 0.9898855 110 110 110
-0.0154096254370168 0.0319279540179507 -0.0103573406004159 0.06793428 -0.001631043 0.9976885 99 99 99
-0.0157863483761476 0.0300210415783146 -0.0102522411321095 -0.004851278 0.008355656 0.9999533 92 92 92
-0.0173123951187094 0.0322853678094721 -0.010320108339752 -0.01775531 0.0145208 0.9997369 111 111 111
-0.0180486322291908 0.0301505648908369 -0.0103007505894325 -0.05887748 0.05631084 0.9966757 111 111 111
-0.0166116182243184 0.0281289324429779 -0.0101530564140199 -0.06019321 0.1195453 0.9910024 68 68 68
-0.011122167889607 0.0446005906733391 -0.00219784445116206 0.1401716 0.9819158 0.1272525 70 70 70
-0.0128780246213863 0.0447066365281743 -0.00138264629986401 0.08431812 0.9872553 0.1349717 64 64 64
-0.0134822975890099 0.0437952141971105 -0.00232818813528224 0.07916619 0.98894 0.1254211 73 73 73
-0.0126153168263297 0.0440620671994825 -0.00621767618455921 0.1548607 0.9788718 0.133522 78 78 78
-0.0137284563802021 0.0438296271481768 -0.00472409351863312 0.08866714 0.9916472 0.09366965 66 66 66
-0.0158498714172818 0.0437368674097154 -0.00391354590821746 0.07291233 0.9919539 0.1034949 75 75 75
-0.0160049890888227 0.0437760823128086 -0.0059546126897761 0.03396313 0.9921132 0.1206558 74 74 74
-0.0162102502674333 0.045721271007676 0.00129110103077507 0.04727422 0.9821209 0.1822187 104 104 104
-0.0188851325811881 0.0450240391517998 0.00260935958165293 0.1069104 0.9826997 0.1512334 84 84 84
-0.0204218283924925 0.0444594480201985 0.000770046150993187 0.1088338 0.9815475 0.1572249 84 84 84
-0.0195805266800701 0.0441995187807034 -0.000675080948560502 0.08540751 0.9797299 0.181204 74 74 74
-0.021569980159443 0.0442664221157469 0.000783363329207587 0.08971508 0.9824299 0.1636545 85 85 85
-0.0149376617202122 0.0432784558876169 -0.00944901051489244 0.08238603 0.8021743 0.5913789 85 85 85
-0.01672077521143 0.0424760071925008 -0.00981879208016745 0.1946945 0.5967472 0.7784516 88 88 88
-0.0192622387211844 0.0407924947108089 -0.00965773672484788 0.003149536 0.3906569 0.920531 122 122 122
-0.0199447735408522 0.0440912678854835 -0.00781093075666633 0.1101675 0.9451611 0.3074633 94 94 94
-0.0205898622420395 0.0434114870903239 -0.00914714610042883 0.1226114 0.8028379 0.5834533 86 86 86
-0.0198265752884957 0.0443100902638029 -0.00586369580647483 0.09238248 0.9882184 0.1220246 90 90 90
-0.0206608335901364 0.0442546433490052 -0.00209066413414488 0.06978428 0.9903494 0.1197429 91 91 91
-0.0217315052880773 0.0438326774230922 -0.00301548741606067 0.1018852 0.9878357 0.1174735 70 70 70
-0.0241942874649256 0.0436512618373088 -0.00236753920374894 0.06783652 0.9864796 0.1491854 75 75 75
-0.0249216116811681 0.0434072220784358 -0.00607800136210845 0.1342999 0.9675409 0.2140751 90 90 90
-0.0167185568630402 0.0377336582771068 -0.0101258841280419 0.05343743 0.1247373 0.9907497 127 127 127
-0.0180726668337939 0.0384131649380406 -0.00988381125087417 0.01360997 0.1482757 0.9888524 131 131 131
-0.0194052937811714 0.034593545145065 -0.0102774880613836 -0.005553748 0.06092115 0.9981271 145 145 145
-0.0210284611799398 0.0351650628551061 -0.0103055992823524 -0.01833117 0.06608241 0.9976458 153 153 153
-0.0194204646054644 0.0327911209563359 -0.0102641344562738 -0.02747965 0.04410304 0.998649 114 114 114
-0.0197351998499464 0.0305979127470599 -0.0101949910702977 -0.07503748 0.08709616 0.9933698 112 112 112
-0.0230950353692482 0.0430619870023763 -0.00858580875292009 0.0536212 0.8212018 0.568113 97 97 97
-0.0276087275787664 0.0419402720157769 -0.00941502769479652 0.1145311 0.6217698 0.7747805 115 115 115
-0.0220216428622316 0.0397655094122649 -0.00986736187608983 -0.008699817 0.2657126 0.964013 136 136 136
-0.0225018313609156 0.0395456315975027 -0.0102780007838467 -0.003629392 0.2103852 0.9776118 138 138 138
-0.0217866352786082 0.037966858711729 -0.0100276709690253 -0.02258004 0.1004873 0.9946821 123 123 123
-0.0226882110312894 0.0374045499670814 -0.0103844340497825 -0.01389495 0.08701322 0.9961103 153 153 153
-0.0235666859303864 0.03955307313138 -0.00969897330539987 0.002685419 0.2398117 0.9708157 120 120 120
-0.0246096659662707 0.0381045067729473 -0.0102680946732881 0.03296823 0.09693977 0.9947441 118 118 118
-0.0234595218004601 0.0358656733288563 -0.010480830452696 0.004414862 0.085623 0.9963178 142 142 142
-0.0249961892910093 0.0359853597705238 -0.0103434342112994 0.02371432 0.08981473 0.9956761 134 134 134
-0.0239127838126609 0.0319857215505124 -0.0106616276772293 -0.04848459 0.1383544 0.9891953 135 135 135
-0.0267113747363238 0.0366135700499928 -0.0101307180291629 0.03960239 0.1034308 0.993848 124 124 124
-0.0283439404682778 0.0386987796136633 -0.00979913225840551 0.0623351 0.2068776 0.976379 105 105 105
-0.0304774704721241 0.0395135463282479 -0.00959311804415713 0.1113913 0.3145559 0.9426805 120 120 120
-0.0307761722818429 0.0371466264815912 -0.00977543040152645 0.09160788 0.158837 0.9830457 149 149 149
-0.0278078358908452 0.0330809107188914 -0.010680249358985 -0.01178762 0.1882033 0.9820594 168 168 168
-0.0285119023395331 0.0310332411106191 -0.0112241125118345 -0.0259364 0.1895405 0.9815303 156 156 156
-0.0329506469141885 0.0309906323080233 -0.0111514777047095 0.05423181 0.2234412 0.9732075 196 196 196
-0.0346920623442122 0.0321877631941536 -0.0107956546151723 0.08012514 0.2575673 0.9629325 188 188 188
-0.00825940704227052 0.021489920641109 -0.0123823375186002 0.1240723 -0.0390414 0.9915048 162 162 162
-0.00838851129450485 0.0234190692368053 -0.0124760946514958 0.189093 -0.003503734 0.981953 156 156 156
-0.0113712001908398 0.0245827031817849 -0.0112948637758294 0.2270655 0.1223496 0.9661635 139 139 139
-0.0124746174009735 0.0210718399546843 -0.0116000362831103 0.05882338 0.1277035 0.9900665 162 162 162
-0.00733826462141135 0.017463642003277 -0.0121127197936409 0.07450476 -0.006347237 0.9972004 148 148 148
-0.00883642548835473 0.0176710382793908 -0.0120340590807116 0.06607722 0.009587441 0.9977685 150 150 150
-0.0104315610813639 0.0178084569523533 -0.0119742354094277 0.05682358 0.01029173 0.9983312 157 157 157
-0.0118796831852476 0.0141392039898145 -0.0117593914514006 0.05292975 0.0128112 0.9985161 149 149 149
-0.012832116424577 0.0187752680212556 -0.0117062957266172 0.02873342 0.06264706 0.997622 149 149 149
-0.0136358509442019 0.0230793867300561 -0.0111862870236948 0.07341245 0.188496 0.9793262 170 170 170
-0.0143160404870356 0.0210658281394913 -0.0116554480817663 -0.01289701 0.1692049 0.9854965 161 161 161
-0.0150433320711199 0.0174049310083835 -0.0118101523867448 0.03828458 0.007374338 0.9992397 116 116 116
-0.0165043661160598 0.0222831296500707 -0.0118849735534036 -0.003183721 0.1772813 0.9841551 221 221 221
-0.0187722789727316 0.0266564694577949 -0.0105261663501537 -0.08842487 0.1667573 0.982025 119 119 119
-0.020461312175377 0.0242914429514629 -0.0112662242231871 -0.002934942 0.1141305 0.9934614 127 127 127
-0.0204848445143557 0.0222135552198541 -0.011211982420175 0.03757871 0.1070235 0.9935461 132 132 132
-0.0165844910469139 0.0195924358502828 -0.012171664580992 0.0403732 0.060418 0.9973564 222 222 222
-0.0175439997919944 0.0175172381671875 -0.011739458474361 0.07080022 -0.003055413 0.9974858 130 130 130
-0.017410827337862 0.0176106788141288 -0.0121668821652265 0.07080022 -0.003055413 0.9974858 169 169 169
-0.0186445843244161 0.0204628560693871 -0.0118126580380006 0.08659296 0.06160056 0.9943375 202 202 202
-0.0195021657372711 0.0159721687235412 -0.0113083145031581 0.09165521 0.001163168 0.9957901 113 113 113
-0.0193328234032419 0.0204373155711355 -0.0113761032960267 0.1111694 0.05788169 0.9921144 201 201 201
-0.0212728443581393 0.0166556089140593 -0.0111569867551515 0.05634196 0.006127378 0.9983927 110 110 110
-0.0110233305992011 0.00793906919585674 -0.0119842495523503 0.06165574 0.07161678 0.9955248 121 121 121
-0.0131017043997844 0.00860704045973315 -0.0120059190724164 0.029664 0.1054129 0.993986 121 121 121
-0.0147551974009265 0.00308060286566159 -0.0131260040674815 -0.01253705 0.1808066 0.9834388 134 134 134
-0.0156478759852693 0.00697219232317847 -0.0120144174749516 0.0198047 0.1245036 0.9920215 127 127 127
-0.0156772740232202 0.00486722938421869 -0.0122398236705072 0.007237357 0.1643807 0.9863704 140 140 140
-0.0287897766509724 -0.0666712149110982 0.00330101450128611 0.5673056 -0.5990772 0.5650406 76 76 76
-0.0163079843418234 0.00321681305739552 -0.0125108036014873 -0.006449549 0.1751862 0.9845142 129 129 129
-0.0172082308030785 0.00496696703127064 -0.0121572638082239 0.01663522 0.1828703 0.9829963 157 157 157
-0.0595091781149266 -0.00344992610727757 -0.00178189792386946 0.9819167 0.05852534 0.1800402 133 133 133
-0.0176890504385966 0.00276263374414842 -0.0127099924233305 -0.002770524 0.1837448 0.9829701 140 140 140
-0.017715409238782 0.0134303982562958 -0.0116693839706141 0.05826512 0.01641688 0.9981661 123 123 123
-0.0216354386822846 0.014899854749062 -0.0111707037102675 0.05470876 0.02236875 0.9982518 113 113 113
-0.02265296132311 0.0110838600624046 -0.0112789129927592 0.04053896 0.05539608 0.9976411 143 143 143
-0.0223234575519413 0.0127726352202473 -0.0112520257086418 0.03741304 0.0515497 0.9979694 130 130 130
-0.0230910916588265 0.0121355302437538 -0.0114959372282092 0.03210557 0.05153304 0.9981551 135 135 135
-0.0213462471200503 0.00592561901497346 -0.0120164463533277 0.05282705 0.1604862 0.9856234 147 147 147
-0.0195392737883253 0.00455746135953961 -0.0121891209313358 0.04932234 0.2000888 0.9785355 147 147 147
-0.0186997192486055 0.00276126748597116 -0.0125642420359859 0.05994229 0.1904885 0.9798577 122 122 122
-0.0577287696631149 0.0174137273602974 -0.00424097731465273 0.9786639 0.05488642 0.1980014 137 137 137
-0.0221099375408313 0.00483036347079935 -0.0122427142041721 0.07178935 0.146971 0.9865322 163 163 163
-0.0238789548702604 0.00663794820545682 -0.0116834057899842 0.05848121 0.1483158 0.9872094 166 166 166
-0.0230269104143124 0.00739718471645512 -0.0115051037014909 0.05745151 0.127325 0.9901958 167 167 167
-0.0211981515525221 0.0247228407672646 -0.0109061649209568 -0.04503858 0.09550156 0.9944099 140 140 140
-0.0216673028845721 0.0253374737726564 -0.0110542180204873 -0.04899115 0.09350503 0.9944127 158 158 158
-0.0233352434164961 0.025373171515962 -0.0111654262722186 -0.08198724 0.07918685 0.9934825 133 133 133
-0.0215112167479798 0.0219217757542463 -0.0107132688608558 0.01547436 0.04801303 0.9987268 138 138 138
-0.0220112753176324 0.0224835538150543 -0.0112980641995314 -0.01790472 0.06726156 0.9975747 152 152 152
-0.0232529661107906 0.0166249345023268 -0.0108739669950885 -0.01792729 -0.005444114 0.9998245 113 113 113
-0.0250580446581112 0.01798341867868 -0.0114017946426522 -0.04303889 -0.02670884 0.9987163 151 151 151
-0.0238188911795466 0.0133020539163786 -0.0113716489172676 0.01368751 0.03392315 0.9993307 129 129 129
-0.0257448523730166 0.01416658264905 -0.0112874154276458 0.005992616 0.01550597 0.9998618 149 149 149
-0.0236112064330985 0.012160353026897 -0.011190519866316 0.02870972 0.04574339 0.9985406 143 143 143
-0.0251646895915519 0.0118995430136337 -0.0114403092960936 0.03121532 0.04308836 0.9985835 124 124 124
-0.0257394006258382 0.00933953359100226 -0.0113653985436953 0.03395988 0.06279551 0.9974484 143 143 143
-0.026449477054457 0.00742513451089333 -0.0113584223618865 0.06408595 0.1082102 0.9920602 170 170 170
-0.0272709305813663 0.00970837581846218 -0.0112824764758144 0.02993143 0.0473059 0.9984319 127 127 127
-0.0278412588155302 0.00804499191284136 -0.0111134018607266 0.03516773 0.07154446 0.9968172 151 151 151
-0.0250188366752193 0.0279719899326083 -0.0112866841605927 -0.08988875 0.1076517 0.9901167 149 149 149
-0.0254132265432115 0.0257504316567894 -0.0113033639783209 -0.09242947 0.07333389 0.9930151 122 122 122
-0.0279706229567582 0.026045968489572 -0.0115121093451948 -0.06056406 0.08813921 0.9942653 147 147 147
-0.0268955083461593 0.0198433903450592 -0.0116620554010223 -0.04011206 -0.05180015 0.9978516 170 170 170
-0.0295437773313224 0.0186573464175108 -0.0116239650293804 0.01550301 -0.07532611 0.9970384 162 162 162
-0.0285455398443022 0.0226287130727392 -0.0120541441517444 -0.04009918 0.020334 0.9989888 199 199 199
-0.0280393176324776 0.0295491236447756 -0.0114005676676603 -0.05118135 0.1540277 0.9867401 202 202 202
-0.0293325128747469 0.0270020080829168 -0.0114854789513473 -0.03232699 0.1068461 0.9937499 164 164 164
-0.0311166023018999 0.0290287873613393 -0.0115242752379703 0.009193599 0.1431932 0.989652 182 182 182
-0.0312099452925563 0.0296047775357939 -0.0111765210155602 0.01456742 0.1642851 0.9863054 171 171 171
-0.0315448107275139 0.0276449148029239 -0.011588772754739 0.02459084 0.112476 0.9933501 179 179 179
-0.0297369099125127 0.0250682829521294 -0.0118757108035672 -0.01697337 0.07008282 0.9973968 185 185 185
-0.0317948259836653 0.0255514353875175 -0.0117301493255509 0.03782187 0.06518976 0.9971558 161 161 161
-0.0304790718843803 0.0228864610331769 -0.0118795039384404 0.02441075 0.01227536 0.9996266 194 194 194
-0.0306639005903703 0.021722763418071 -0.0119560309707941 0.02797067 -0.02265898 0.9993519 198 198 198
-0.0316944954439441 0.0198524340595487 -0.0117468602683788 0.05432133 -0.0574747 0.996868 193 193 193
-0.0330841158152172 0.0186722615098704 -0.0113704386242847 0.06388706 -0.05878683 0.9962242 171 171 171
-0.0331768385579758 0.0201258466405254 -0.0116118728833379 0.06673373 -0.06319928 0.9957673 154 154 154
-0.0330957885199309 0.0292930856250688 -0.0114993598575555 0.06588621 0.166832 0.9837815 155 155 155
-0.0344934031598526 0.03032128448141 -0.0113707842223628 0.09046579 0.2038131 0.9748211 197 197 197
-0.0353228614658835 0.0279886958811753 -0.0115035588451285 0.08694921 0.1373634 0.9866971 183 183 183
-0.0339196459856255 0.0257576661633327 -0.0116622003496157 0.06430647 0.07129047 0.9953805 153 153 153
-0.0344195384673102 0.0238677482097802 -0.0116277503869445 0.07792457 0.01248378 0.9968811 147 147 147
-0.0373632603966231 0.020180097705824 -0.0113984271290077 0.05563837 -0.05730438 0.9968052 149 149 149
-0.0270825748970639 0.0120965365010877 -0.0111919979470618 0.01505371 0.02148812 0.9996558 143 143 143
-0.0278566332302453 0.0157788691556411 -0.011277775045534 -0.006877678 -0.03651441 0.9993095 138 138 138
-0.0299096257737584 0.014404637353771 -0.0111187418201988 0.002830571 -0.01325577 0.9999081 125 125 125
-0.0308517500094244 0.0126846313914821 -0.0111096434876879 0.01154529 0.01443183 0.9998292 120 120 120
-0.0293100907276962 0.010000880322373 -0.0110082058954649 0.01048484 0.03734148 0.9992476 115 115 115
-0.0318414971183651 0.0171613499600487 -0.0111951337418888 0.05522937 -0.0628688 0.9964924 108 108 108
-0.0320933776729345 0.0154387612022455 -0.0110739981285344 0.03344245 -0.01871983 0.9992653 110 110 110
-0.0335191585615867 0.0176021692986328 -0.0112270783616737 0.05685657 -0.0526318 0.9969941 155 155 155
-0.0362018157743149 0.00839442393024581 -0.0108998777695166 0.04229329 0.002767598 0.9991014 107 107 107
-0.0363952646810054 0.016274480452743 -0.0111149154643378 0.06570415 -0.004356031 0.9978296 144 144 144
-0.0367591753296737 0.0162629846732654 -0.0109236261448757 0.06570415 -0.004356031 0.9978296 154 154 154
-0.0374450628527936 0.018799055787033 -0.0111865778102878 0.05745003 -0.06085186 0.9964921 155 155 155
-0.0367210328967398 0.0144569080069612 -0.0112738134984066 0.0729427 0.0231595 0.9970672 134 134 134
-0.0388803383364638 0.0128755031326813 -0.0106974000714357 0.0233612 0.04222183 0.9988351 123 123 123
-0.0382803232933854 0.00891670602127737 -0.0108641848707746 0.009480288 0.004714021 0.999944 94 94 94
-0.0236735667430517 0.0447811035506984 0.00299026075638581 0.03663642 0.9901506 0.1351278 71 71 71
-0.0119641947501867 0.0471212334973516 0.0163251497777318 -0.05333721 0.9960431 0.07108644 81 81 81
-0.026631626815909 -0.04580352252168 -0.0111177946355434 0.004414781 -0.07008405 0.9975313 113 113 113
-0.0135958628378454 0.0471101118572104 0.0178044626963371 -0.05013158 0.9952092 0.08393811 59 59 59
-0.0133506333545512 0.0470753087411291 0.0137748823902203 -0.0671088 0.9953322 0.06935621 104 104 104
-0.0161357036577975 0.0467833487539819 0.0144850679873386 -0.009717078 0.9933775 0.1144846 77 77 77
-0.0289176425713078 0.0451215256471051 0.00403327564540223 0.002169319 0.990707 0.1359958 77 77 77
-0.014223108148713 0.0467321400608371 0.0124876455891849 -0.06196074 0.987284 0.1463938 86 86 86
-0.0163317986074609 0.0464568588240322 0.0130755190033688 -0.00290224 0.9911292 0.1328705 67 67 67
-0.0184176361142844 0.0467659335217059 0.0127963898999939 0.01713731 0.985595 0.1682522 84 84 84
-0.016567423188202 0.0459818195531021 0.0178081981304474 -0.002709681 0.9952681 0.09712881 72 72 72
-0.020388151447363 0.04702994160329 0.0154902682383816 -0.004070677 0.9929948 0.1180874 82 82 82
-0.0220721412818159 0.0472138147643635 0.0156839238391986 0.01390268 0.9940349 0.1081721 69 69 69
-0.0164936341541241 0.0462134084816377 0.0106008878101744 0.0419193 0.9864997 0.1583069 62 62 62
-0.0176057453616549 0.0460195119109206 0.00842650116213994 0.06083103 0.9934501 0.09672874 80 80 80
-0.0188675794359209 0.0465881488077073 0.011072188594398 0.03781025 0.9831331 0.1789401 101 101 101
-0.0177301774711975 0.0460807563500434 0.00666033145296219 0.1067743 0.989082 0.1015683 92 92 92
-0.0216051414072307 0.0457024606132861 0.0095271167245955 0.03672291 0.9829144 0.1803623 92 92 92
-0.0227600656216896 0.046769732371893 0.0131906457597126 -0.03477977 0.9895723 0.139775 73 73 73
-0.0239517748736798 0.0474659876163641 0.015748323192855 -0.02537724 0.9970119 0.07296094 100 100 100
-0.0244925126405979 0.0473870841668353 0.0139994546915401 -0.05722961 0.9920195 0.1123482 109 109 109
-0.0220949365805427 0.0460913190413403 0.0134122382933251 -0.001318379 0.987935 0.1548635 61 61 61
-0.0223651761753501 0.0460356644452622 0.0109149589707621 -0.00932083 0.9764426 0.215576 95 95 95
-0.0234222636342573 0.047531682647306 0.0174934704372118 -0.01254902 0.9977749 0.06548125 81 81 81
-0.0259687749319982 0.0477763425255537 0.0165412331319662 -0.04137099 0.9979814 0.0481818 78 78 78
-0.0280097198860377 0.0480751543689284 0.0198622655683399 0.02420421 0.9993041 0.02838078 89 89 89
-0.0263191654124384 0.047713659682582 0.0144767089597948 -0.0190002 0.9967722 0.07800172 100 100 100
-0.0254025338863152 0.0459296968369012 0.0168701407373528 -0.0476693 0.9976602 0.04900861 87 87 87
-0.0284853275628446 0.0462624469360573 0.0187706616180793 0.02420421 0.9993041 0.02838078 80 80 80
-0.0273956189620232 0.0477795159855672 0.0153047997192061 -0.02094527 0.9972659 0.07086641 113 113 113
-0.0298035010105929 0.047517381443126 0.0169030311339805 0.07141006 0.9962397 0.0490624 54 54 54
-0.0295263705232717 0.0479063101842656 0.0198319480392367 0.04205845 0.9982762 0.0409344 63 63 63
-0.0338126871259046 0.0469703502153036 0.0175732075759852 0.08927345 0.9923255 0.08555952 56 56 56
-0.0409784543426813 -0.0403759125417116 -0.0120735866987298 0.05388279 -0.09381775 0.9941302 208 208 208
-0.0205263836992478 0.045038889772187 0.00348295366626594 0.09823878 0.9833646 0.1527844 90 90 90
-0.0206443645506686 0.0462630962824737 0.00501063935256757 0.07287022 0.9905667 0.11605 95 95 95
-0.0226347768531499 0.045040136787031 0.00385835232524578 0.04832888 0.9915246 0.120595 80 80 80
-0.024811277278478 0.0444543904325327 0.0015737940813027 0.0168335 0.9843065 0.1756629 77 77 77
-0.0239305149339914 0.0444868572168022 0.00467636016335382 0.04530076 0.9916166 0.1210138 83 83 83
-0.0241661943343745 0.0449818952146961 0.00441623566435034 0.04530076 0.9916166 0.1210138 72 72 72
-0.0246026001214697 0.0452092267231941 0.00547906481845162 0.03927172 0.9910378 0.1276781 89 89 89
-0.0247004850618384 0.0447628817175445 0.00766557494436881 0.07875393 0.9800667 0.1823928 83 83 83
-0.0266380333588528 0.0451997517968721 0.00800982063964856 -0.0136107 0.9804164 0.1964649 73 73 73
-0.028129993762452 0.0436880509018593 0.00602374687469076 -0.01914091 0.9907598 0.1342704 78 78 78
-0.0301326185368459 0.0455733801220504 0.00667836140638217 0.0007286738 0.9877567 0.1560007 87 87 87
-0.0239475192086558 0.0441124650177365 -0.0011055667694545 0.03388133 0.9844147 0.1725683 83 83 83
-0.0272768781356167 0.0447988175537053 0.0022365777901619 -0.008034212 0.9869736 0.1606812 89 89 89
-0.029294387254725 0.0448261165477657 0.00246079638795382 -0.01789369 0.9814967 0.1906411 86 86 86
-0.0258846940330499 0.0436689419734475 -0.0023565370153894 0.08128812 0.9828605 0.1654613 77 77 77
-0.0296522884022952 0.0438214669380419 7.97078172011245E-05 -0.02075396 0.970354 0.2407953 83 83 83
-0.0305507966129884 0.0452231685687274 0.0044036477104975 0.01864869 0.9894782 0.143475 77 77 77
-0.0310998255873372 0.0449672123765741 0.00257386126554443 -0.006983283 0.9876345 0.1566185 78 78 78
-0.032313401380601 0.0453967128971813 0.00650901718472185 0.04318079 0.983345 0.1765447 64 64 64
-0.0325521296932978 0.0451188956360926 0.00494356278296859 0.04459954 0.9890076 0.1409782 77 77 77
-0.0334316254208273 0.0449155340124714 0.00554725102808645 0.05088631 0.9878729 0.1466894 94 94 94
-0.0332766462894913 0.0443812817793952 0.000722551938111105 0.06815169 0.9837941 0.165845 87 87 87
-0.0322753790498119 0.0441412940697934 0.000306918597076877 -0.01652607 0.9723853 0.2327954 99 99 99
-0.034637209514134 0.0447704034882155 0.00537116982816216 0.1047872 0.9832736 0.1489722 73 73 73
-0.0287606766697264 0.0419909899812141 -0.00297371931804552 -0.0002050958 0.9931794 0.1165961 99 99 99
-0.0289968692960745 0.0418431448697933 -0.00188936735736273 -0.005117144 0.9826173 0.1855725 94 94 94
-0.0290808966101723 0.046828232838952 0.012760683400889 0.03818502 0.9717888 0.232741 92 92 92
-0.0298010445921819 0.0471618047088276 0.0136303803182355 0.08564247 0.9837111 0.1580442 105 105 105
-0.0314158236900581 0.0464521224577414 0.0110785547050278 0.05233692 0.9747245 0.2171934 73 73 73
-0.0336245188362785 0.0458248359425344 0.0093589783443036 0.09240329 0.9753547 0.2003619 54 54 54
-0.0337456663131033 0.046011485010899 0.0113006937556526 0.09310438 0.977804 0.187699 55 55 55
-0.0332607490053197 0.0469507769512085 0.0159720769389791 0.09439087 0.991506 0.08947705 65 65 65
-0.0373467416178723 0.0462401572954627 0.0118029476222223 0.1321266 0.973363 0.1873689 86 86 86
-0.0382713120686239 0.0463216761996266 0.0149395985490322 0.1050933 0.9886442 0.1074149 67 67 67
-0.0356588305386987 0.045297840522001 0.0110662841042604 0.09993767 0.9719079 0.2130906 58 58 58
-0.0370256660023421 0.0455457621974884 0.00933922633601553 0.1003592 0.968215 0.2291021 82 82 82
-0.0385413791361948 0.0450652808589114 0.00791771263803981 0.160237 0.9722972 0.170183 72 72 72
-0.0373906090940472 0.0458318080553777 0.0112937130677519 0.1316599 0.9732849 0.1881015 110 110 110
-0.0395883284429669 0.0461935990433091 0.0124798841228175 0.1902236 0.9600119 0.2054073 93 93 93
-0.0396063637153833 0.0451809927356519 0.0101258149809044 0.1906462 0.9609491 0.2005766 75 75 75
-0.0414931036304468 0.0456739807973725 0.0145383814326619 0.2062456 0.9684631 0.1397927 48 48 48
-0.039972733112839 0.0445540393757422 0.00962780252157153 0.2008679 0.9566666 0.2108104 74 74 74
-0.0424450720526086 0.04408933458859 0.00880179926858715 0.222988 0.9605966 0.1659235 68 68 68
-0.0443980971509724 0.0444978344451801 0.010757795646852 0.2580561 0.941076 0.2185932 64 64 64
-0.0336306920495281 0.0441148864642733 -0.000727346759347325 0.04057291 0.9783926 0.2027358 86 86 86
-0.0354314233518894 0.0444207206600833 0.0012235761388974 0.1257981 0.9787431 0.1619775 81 81 81
-0.0362254933791261 0.0429382568102346 -0.00471431051880766 0.205004 0.945848 0.2516839 64 64 64
-0.0369392011062338 0.0436107245261543 -0.00113106436280619 0.1717824 0.9635265 0.2052011 106 106 106
-0.037695286020793 0.0438524308664201 -5.6211322149502E-05 0.1908682 0.9582722 0.2127996 90 90 90
-0.0323773678782506 0.039493290596101 -0.00965404981130613 0.08521775 0.3305885 0.9399198 118 118 118
-0.0342010800172787 0.0398563286549241 -0.00949963659387854 0.07572169 0.3650856 0.9278894 95 95 95
-0.034767234411979 0.038283183060442 -0.00930884363017054 0.07820889 0.2255628 0.9710844 126 126 126
-0.0373530410160872 0.0391270452787171 -0.0095439409460859 0.08778268 0.3122084 0.9459493 101 101 101
-0.0384404252661142 0.0397136642302047 -0.00919058885086055 0.1950329 0.4701459 0.86077 116 116 116
-0.033150713098649 0.0363027250510746 -0.00953042918914732 0.06817789 0.1780669 0.9816537 123 123 123
-0.0350313100109617 0.0367377774056523 -0.00915607508531535 0.06251773 0.1793098 0.9818043 113 113 113
-0.0361050421508178 0.0328008535945048 -0.00995053722614159 0.08695142 0.241691 0.9664496 149 149 149
-0.0392186353154199 0.0361847125990515 -0.00967452825794884 0.05925782 0.1695793 0.9837334 128 128 128
-0.0399366914331356 0.0328956621870509 -0.00991832858450881 0.07936149 0.1849081 0.9795462 209 209 209
-0.0419034966129943 0.0335676670117977 -0.00976867501817613 0.07750101 0.1923181 0.9782676 188 188 188
-0.0377143901369195 0.0426699397685875 -0.00637109125718571 0.2292056 0.9097837 0.3460614 71 71 71
-0.0407039123783003 0.0397278924702138 -0.00866169681234547 0.2583185 0.5911886 0.7640468 139 139 139
-0.0421480746730796 0.0411094750143755 -0.0056042810042421 0.3243557 0.8461276 0.4229202 61 61 61
-0.043607843394426 0.040967480832371 -0.00361527000906003 0.3449685 0.8952115 0.2821226 40 40 40
-0.0408464989999177 0.0382554043249956 -0.00913049434789631 0.2007526 0.3929338 0.8973859 164 164 164
-0.0411306375242225 0.0355252900057541 -0.0092992172464913 0.1038788 0.1865619 0.976936 156 156 156
-0.0370080091867231 0.0445262041997063 0.00182871273250435 0.1501973 0.9754707 0.1609277 84 84 84
-0.0394659603517863 0.0441021652373201 0.00387812503125989 0.1813342 0.9750739 0.1278621 62 62 62
-0.0408999954862831 0.0444228776218014 0.00620460350068419 0.2023151 0.969148 0.140786 81 81 81
-0.0422642227223862 0.0432482036879389 0.00255410195171157 0.2613774 0.9412543 0.2138275 82 82 82
-0.0450351485636996 0.0439277775579006 0.00956045491041763 0.3107162 0.9307379 0.1928274 57 57 57
-0.0455448999763212 0.0430594332788403 0.00687282283825097 0.3578673 0.9263405 0.1175771 52 52 52
-0.0455944276096918 0.0429275453396698 0.00488325469597845 0.3486252 0.9268932 0.1390304 68 68 68
-0.0454954975611311 0.0423536489581229 0.00358578236667906 0.3296126 0.9246238 0.1908567 45 45 45
-0.0484183933564837 0.0416669856714773 0.00671524536037482 0.489375 0.8653793 0.1078464 45 45 45
-0.0451596927255223 0.0412691636790063 -0.00100949633654684 0.3481494 0.8971748 0.2717894 40 40 40
-0.0470556977439741 0.0414495152429779 0.00113753902099706 0.3962337 0.8843169 0.2469463 57 57 57
-0.0460903533187451 0.0394970215791015 -0.00496107722167671 0.4050936 0.7992337 0.4439873 58 58 58
-0.045821939176332 0.0399418999010102 -0.00420689057486551 0.3893549 0.8387501 0.3806587 58 58 58
-0.0477315144288201 0.039557438897285 -0.00301284244500072 0.4466298 0.8325979 0.3275706 54 54 54
-0.0461999924295651 0.0420592606425347 0.00145449064395992 0.3587835 0.8970255 0.2581081 45 45 45
-0.0486113207741166 0.0411200151396802 0.00303975342245277 0.4826123 0.8535846 0.1961601 44 44 44
-0.0494039024494715 0.041630081461812 0.00495772266037209 0.531038 0.839922 0.111936 52 52 52
-0.0493315250526455 0.0404367940775128 0.00141955763914392 0.517127 0.8262329 0.2234251 56 56 56
-0.049831150228664 0.0408677795351735 0.00422670855662782 0.5423164 0.8302618 0.1286789 65 65 65
-0.0518867313676132 0.038618073427811 0.00398275999420539 0.6904284 0.7073057 0.1517473 63 63 63
-0.0522654362587194 0.0382756144877325 0.0015422888696402 0.6892332 0.6980878 0.1939871 83 83 83
-0.0369546535291784 0.0304018967593886 -0.0109369693552851 0.1102944 0.2072476 0.9720512 181 181 181
-0.0407305384826216 0.0295927733451811 -0.0101854036080119 0.06383285 0.2062659 0.9764116 194 194 194
-0.0420054091029775 0.0281249734982161 -0.0104533380956645 0.05109632 0.178378 0.9826344 159 159 159
-0.0381245192684094 0.0249671266047162 -0.0113739903553418 0.04756046 0.07715102 0.9958844 170 170 170
-0.0426209449755097 0.0239090211329589 -0.0113847191750083 0.03250789 0.07309896 0.9967948 197 197 197
-0.0427249439643889 0.031801164934381 -0.00973183907599756 0.04791603 0.1992397 0.9787786 169 169 169
-0.0396902710084297 0.0187790516651893 -0.0110340396126772 0.03993369 -0.06153842 0.9973055 184 184 184
-0.0403105652360123 0.0167785349371037 -0.0108437117382103 0.03001475 -0.03782398 0.9988335 134 134 134
-0.0414757786964242 0.0194940801108472 -0.0110388876763169 0.02556221 -0.07118533 0.9971355 165 165 165
-0.0439085139424895 0.0194337082875069 -0.0108611036928302 0.03162446 -0.04669442 0.9984085 114 114 114
-0.0441433171007867 0.0161849360466328 -0.0106202113156332 -0.007383048 0.0270456 0.9996069 150 150 150
-0.0394102383585179 0.0113638511865708 -0.0104882498243425 0.001306161 0.05306347 0.9985903 122 122 122
-0.0413691533753984 0.0132407064822295 -0.0107384558878697 -0.001878021 0.06359334 0.9979742 127 127 127
-0.0405527689838919 0.00905263545470025 -0.01113937795299 -0.01049914 -0.004823463 0.9999332 124 124 124
-0.0430597734369871 0.0135710496507697 -0.0110355477734654 -0.01089253 0.07171706 0.9973655 146 146 146
-0.0439856986714628 0.00990093375741852 -0.01123111425423 0.03619545 -0.02761631 0.9989631 197 197 197
-0.0463371455445843 0.0102751399211305 -0.0111747615266022 0.07356852 -0.03375648 0.9967187 198 198 198
-0.0558575566334447 0.0309559976827101 0.001502344837015 0.9304121 0.2520841 0.2660582 94 94 94
-0.0567043356472488 0.0275091420703422 0.00156659130041731 0.9147702 0.2428911 0.3227992 69 69 69
-0.0581327158911354 0.0214993748074799 0.00139926667698587 0.9709213 0.1190425 0.2077032 111 111 111
-0.0580423480354904 0.0163829153125987 -0.000200022598309479 0.9838415 0.04442943 0.1734413 108 108 108
-0.0584099961886297 0.0138588598638025 -0.000572212109482939 0.9812627 0.05221071 0.1854654 117 117 117
-0.0382630735930594 0.0467665520424514 0.0187138094144709 0.1476492 0.987893 0.04761488 63 63 63
-0.0407176754854529 0.0466528656969396 0.0162604070226425 0.1921927 0.9744412 0.116303 28 28 28
-0.0442072051556551 0.0449495270342852 0.0183818796641292 0.2224407 0.9677311 0.118392 73 73 73
-0.0432940862143417 0.0454160021111365 0.0152131464201105 0.2382717 0.9628219 0.1272815 35 35 35
-0.0454536580086362 0.04528230436129 0.0169185691765465 0.2346889 0.9540388 0.1863629 53 53 53
-0.0469507680773962 0.0440417432847375 0.0126185629925701 0.3108926 0.9101834 0.2737006 54 54 54
-0.0486765904671898 0.0435150217066373 0.0134307483446164 0.3463561 0.8916942 0.2914083 73 73 73
-0.051436940342672 0.0438166528977808 0.0167766915033316 0.3416749 0.8639757 0.3698705 69 69 69
-0.0587122964445485 0.0256918304957505 0.00539021802289613 0.9622173 0.1726024 0.2105857 117 117 117
-0.0471360012998467 0.0434702408357102 0.0112377346209002 0.3613103 0.891217 0.2742026 61 61 61
-0.0494455640477108 0.0423169462691964 0.0115893133586947 0.4230701 0.8417363 0.3353979 50 50 50
-0.0510979498009485 0.0420139642278063 0.0120725045009585 0.4192742 0.8334054 0.3600619 41 41 41
-0.052241409547106 0.0415128118059458 0.0121008397437729 0.4264927 0.8185456 0.3848208 80 80 80
-0.0517343909661118 0.0403242914996016 0.00978414000300021 0.4904113 0.8065955 0.3300008 53 53 53
-0.0507095831582858 0.0404458225696589 0.00776574830465149 0.5695036 0.7950307 0.2087865 63 63 63
-0.0534332180466832 0.0409049031681166 0.0123311093202537 0.4058972 0.8121653 0.4190882 65 65 65
-0.0529937041387173 0.0402040139279984 0.0108457688376391 0.4640505 0.7950716 0.3905359 77 77 77
-0.053145218778977 0.0393339044248762 0.00943776962350146 0.5131657 0.7863455 0.3439791 51 51 51
-0.0518396892624243 0.0432802467138136 0.0146575833118531 0.3684818 0.8354148 0.407803 71 71 71
-0.0526102672351779 0.0421364389904246 0.014301965321536 0.3854765 0.811514 0.4391503 60 60 60
-0.0528838321869756 0.0428508576513056 0.0157882439866703 0.3428929 0.8577346 0.383035 55 55 55
-0.0558455175337265 0.0428197377474342 0.0162856484706025 0.4353328 0.7894086 0.4328042 96 96 96
-0.0566176025084645 0.0413569938339027 0.0163680554973044 0.4668322 0.7572081 0.4568409 80 80 80
-0.0576246036688319 0.0390044588804661 0.012953995520429 0.615673 0.6296301 0.4738276 72 72 72
-0.0524420899809596 0.038536616907608 0.00445902180345387 0.6911483 0.6988828 0.1840567 66 66 66
-0.0537259152553082 0.0373552948533349 0.00563044914667704 0.6908563 0.6872398 0.2245419 70 70 70
-0.0541359815426127 0.0378561804953839 0.00655882734760416 0.6413746 0.7132432 0.282706 97 97 97
-0.0550264101845148 0.03702855154995 0.00787220738503364 0.6423954 0.6891166 0.3353305 74 74 74
-0.0569816553395859 0.0375008074668144 0.0102263434200727 0.7125721 0.5354574 0.4533502 79 79 79
-0.058463560354214 0.0368587940251905 0.0114749040603409 0.8006057 0.3489638 0.4870881 82 82 82
-0.0574306580067858 0.0419184117218305 0.0184977459162661 0.4837921 0.7258871 0.4889102 90 90 90
-0.0587438802321287 0.0402129648596532 0.0170643437707632 0.6369869 0.6278363 0.4472911 108 108 108
-0.0019854194936274 -0.00463118783074745 -0.0143838041321713 0.2090559 0.1273797 0.9695721 211 211 211
-0.0580974542481508 0.0317932049530216 0.0102919524537673 0.9608636 0.07275592 0.2672968 226 226 226
-0.0592760531308484 0.0356524808374423 0.0143485022342049 0.9322112 0.1879759 0.3092689 128 128 128
-0.0597588107459744 0.0361669792531449 0.0148468358235306 0.9209306 0.2538851 0.2956844 161 161 161
-0.0594999304487283 0.0355591798688246 0.0128922081916435 0.9197088 0.1420304 0.3660096 126 126 126
-0.0592443304089053 0.0314309762487721 0.0142974077886515 0.9553862 0.02925041 0.2939076 103 103 103
-0.0602665068921561 0.0330906934064865 0.0149366610380417 0.9565085 0.01675518 0.291223 197 197 197
-0.060380183007464 0.0256539409610625 0.0169478353444324 0.9805839 0.08672778 0.1758792 102 102 102
-0.0604206782098224 0.0252770167607652 0.0152431614494361 0.9816291 0.09791208 0.1637606 141 141 141
-0.0593955386970984 0.0277954298436038 0.0124963203038215 0.9688665 0.1525111 0.1950337 120 120 120
-0.0590846274063973 0.028748646627959 0.013883884551036 0.9749345 0.1086313 0.1941697 73 73 73
-0.0601514702137698 0.0277797567255422 0.0152503045184167 0.9739942 0.1035742 0.2015136 116 116 116
-0.0574658405456179 0.034987401374911 0.0087572206323035 0.8263439 0.3929556 0.4034126 126 126 126
-0.0560774027682396 0.0352113411982862 0.00594285239775211 0.8034562 0.5023178 0.3195856 138 138 138
-0.0569720052621269 0.0312631777974617 0.00601587440195306 0.9280348 0.2561626 0.2704296 119 119 119
-0.0553579767349658 0.0354638117386428 0.00380349742805902 0.8215187 0.5192451 0.2355665 122 122 122
-0.0561833214605736 0.0335973943434831 0.00435380300004617 0.8809016 0.4032439 0.2478038 135 135 135
-0.0548818598618923 0.0346996573566203 0.00258290594234528 0.827926 0.4863559 0.2792787 81 81 81
-0.0557609145492194 0.0329167717438259 0.00172325296970754 0.904722 0.3313119 0.2677882 169 169 169
-0.0565700125998937 0.0312140820025566 0.00246712187571752 0.9209462 0.2725126 0.2785588 106 106 106
-0.0583785532746647 0.0288336028919509 0.00779219108947882 0.9587015 0.2291324 0.1684927 59 59 59
-0.0589956729709148 0.0256921589753634 0.00854191874222365 0.9807444 0.1435366 0.1324304 115 115 115
-0.0590491791912021 0.0249285348383395 0.00747568001997145 0.9810029 0.142635 0.1314863 117 117 117
-0.0569492408932182 0.0295844847203142 0.00499977896449311 0.9331409 0.2409246 0.2668396 94 94 94
-0.0567248020723499 0.0300391571327987 0.00257349307471683 0.9195002 0.2700232 0.2856692 87 87 87
-0.0576342229161484 0.0271855453587526 0.00248250457249249 0.9202824 0.2459528 0.304282 87 87 87
-0.0582907773276133 0.0252806726786734 0.00247238983026249 0.9339302 0.2193215 0.2822632 130 130 130
-0.0587520319953676 0.0269806822546093 0.00584067436964925 0.9599553 0.2241137 0.1681038 115 115 115
-0.0586796646096527 0.0355440755755796 0.0108686631692971 0.901784 0.2191166 0.3725232 124 124 124
-0.0578237084937365 0.0331798782193879 0.0103842457047287 0.9448389 0.08568682 0.3161283 139 139 139
-0.0603726621104477 0.0131605710321265 0.00981898039787243 0.9880625 0.06598964 0.1392042 156 156 156
-0.0605299508321924 0.0210743643926417 0.016684133661039 0.988784 0.08508953 0.1227433 97 97 97
-0.060653744228664 0.0199499928492302 0.0158163605121848 0.9917557 0.05779952 0.1143667 70 70 70
-0.0601274085177231 0.0235367077609618 0.0126798444715154 0.9847013 0.113924 0.131851 131 131 131
-0.0602005388480846 0.0217282324788628 0.0121717162986822 0.987813 0.09078652 0.1264248 112 112 112
-0.0598297318029309 0.0223052457063251 0.0107912112056127 0.986955 0.0974146 0.1281799 102 102 102
-0.0604876179160683 0.0195192285897037 0.01128820460198 0.981619 0.1093809 0.1563969 152 152 152
-0.0608037365219589 0.0177547114573167 0.0128849560335018 0.990285 0.08137812 0.1127526 188 188 188
