ply
format ascii 1.0
comment File exported by Rhinoceros Version 7.0
element vertex 470
property float x
property float y
property float z
property float nx
property float ny
property float nz
property uchar red
property uchar green
property uchar blue
end_header
0.0268760473986793 0.128851042244252 0.051961837381693 0.008655215 0.5481292 -0.8363489 159 159 159
0.030869184503679 0.130707746864093 0.0530808635124702 0.01986179 0.5598698 -0.8283425 155 155 155
0.0283371663398917 0.130813802860865 0.0531285857470907 0.02092838 0.5566665 -0.8304724 134 134 134
0.0279702930245755 0.134928019631106 0.056077527968214 0.02047081 0.5622221 -0.8267329 134 134 134
0.0251547538485295 0.114988204975882 0.0425421003945674 0.01407994 0.5436929 -0.8391661 122 122 122
0.0169768233029695 0.114910948631349 0.0423733604921014 0.02671132 0.571591 -0.8201038 115 115 115
0.0170373852377792 0.116063271734861 0.0431863960199216 0.01858177 0.5714816 -0.8204044 123 123 123
0.0251330175500244 0.119147487412889 0.0450584638035787 0.005035227 0.5523738 -0.8335813 82 82 82
0.0234644619034903 0.121395976170792 0.0464844624008361 0.01362885 0.5558113 -0.8311968 125 125 125
0.0171303059298591 0.118783248777821 0.045040177473949 0.01115126 0.5483048 -0.8362042 109 109 109
0.0151327675073931 0.121265901436541 0.046343637311663 0.02105561 0.5424674 -0.8398129 74 74 74
0.017352957410508 0.123237449088887 0.0479212135816695 0.01105945 0.5440155 -0.8390023 140 140 140
0.0120239129459381 0.113719079863005 0.0413882687813214 0.0260021 0.5582842 -0.8292422 102 102 102
0.00706569204822838 0.114543053253978 0.0418876349242745 0.01444754 0.5485164 -0.836015 114 114 114
0.0140102096403347 0.116038188153646 0.0429381966835415 0.04026669 0.5702221 -0.8205031 94 94 94
0.00692180100697604 0.116070374144144 0.0428704898585155 0.01292038 0.5521596 -0.8336383 91 91 91
0.00494598761125831 0.116990446452111 0.0434147235081012 0.007084911 0.5561511 -0.831051 122 122 122
0.0113842407026157 0.121012660572208 0.0462676772131849 0.02469966 0.5482566 -0.8359454 113 113 113
0.00890309658833655 0.120502080555291 0.0457044091348887 0.03172562 0.5609679 -0.8272294 96 96 96
0.00742545044704324 0.123121449990289 0.047547231703579 0.02295834 0.5428803 -0.8394962 112 112 112
0.0210612726907957 0.124689356746818 0.048758037067579 0.01548776 0.5629461 -0.8263485 149 149 149
0.0246709905637861 0.126980451061169 0.0505219501218462 0.01183707 0.5562327 -0.8309423 104 104 104
0.0231638847132047 0.125290376273827 0.0492809104962358 0.01890368 0.5635981 -0.8258328 144 144 144
0.0242378294398784 0.12859807220711 0.0512289236444701 0.01542728 0.5451416 -0.8382021 75 75 75
0.0150387447710667 0.125154310217058 0.049081651387706 0.01662508 0.5525779 -0.8332955 109 109 109
0.0208433271030888 0.127495149013117 0.0510514627272085 0.03497571 0.5462168 -0.8369133 118 118 118
0.0164342076470851 0.128155266283888 0.0508468545854334 0.01525983 0.544185 -0.8388264 126 126 126
0.020804729239897 0.130765860171962 0.0526712153674782 0.02883213 0.5453994 -0.8376802 149 149 149
0.0248658718808255 0.133204580149351 0.054505308837728 0.02676986 0.5557944 -0.8308887 169 169 169
0.0165267041593662 0.129828186416524 0.0520218616591515 0.01331907 0.5504142 -0.8347855 165 165 165
0.0249418858940058 0.134753884209217 0.0554728942502216 0.02651996 0.5576427 -0.8296573 128 128 128
0.0148378694172857 0.133007208402839 0.0542404936994903 0.001871954 0.5610649 -0.8277697 82 82 82
0.0133663619154478 0.127121158367033 0.0503051389096676 0.02731222 0.5528745 -0.8328168 107 107 107
0.00946837913753118 0.124474943168586 0.0483777496939833 0.03498062 0.5501508 -0.8343323 78 78 78
0.00677267364705614 0.124323227459538 0.0483972673646883 0.01589539 0.54529 -0.8380967 102 102 102
0.00458315922371755 0.124086534835828 0.0481957569425372 0.01184782 0.546332 -0.8374849 120 120 120
0.00469302034026642 0.126245476027756 0.0494143327624339 0.01471987 0.5466747 -0.8372157 125 125 125
0.0134852462035053 0.130607819905343 0.0525205821070957 0.01554286 0.5635748 -0.8259188 119 119 119
0.00703655789647861 0.131500777233414 0.0529240088868408 0.01210272 0.5667379 -0.8238092 128 128 128
0.0130672255689253 0.134132453000591 0.0552958692840552 0.02093549 0.5602941 -0.8280291 61 61 61
0.00866324041316613 0.132763779642322 0.0537722307304625 0.01749713 0.5623589 -0.8267081 123 123 123
0.00618594213761847 0.134361980923596 0.0550531210236851 0.02850475 0.5608688 -0.8274138 131 131 131
0.00584558112530686 0.135332441117562 0.0556063440725394 0.02079585 0.5646867 -0.8250433 70 70 70
-0.0006792872527428 0.0449583107015744 -0.00534435655746343 0.02984915 0.5565143 -0.8303017 132 132 132
-0.00566554991310841 0.0452117399597417 -0.00534611392097625 0.009596099 0.5560563 -0.8310892 124 124 124
0.0016823418163292 0.0490229775855311 -0.00244468475846857 0.02494153 0.5641968 -0.8252636 136 136 136
0.000585381954555597 0.0510264803317786 -0.00107238784724115 0.01975098 0.5672139 -0.8233337 149 149 149
0.00303095792541797 0.050934838356946 -0.000693397171548454 0.0332199 0.5710174 -0.8202655 124 124 124
0.0025434854594546 0.0526422673307354 3.19309909832255E-05 0.03372618 0.5700713 -0.8209027 143 143 143
-0.00553317897975347 0.0522268267406296 -0.000344673160978942 0.01891942 0.5678347 -0.8229252 145 145 145
-0.00704425954966714 0.0451715643182792 -0.00544744793162785 0.00657412 0.5520637 -0.833776 140 140 140
-0.00616804748370292 0.0470752935401803 -0.00407072204139089 0.01059442 0.5602143 -0.8282799 154 154 154
-0.0128901691217318 0.0452427519117996 -0.00541714659997691 0.008859917 0.5473001 -0.8368895 109 109 109
-0.0140914666540088 0.0475727154909701 -0.00361780081981797 0.02434819 0.5527944 -0.8329619 129 129 129
-0.015446815880602 0.0474137017839352 -0.00388554023097962 0.03123172 0.5494435 -0.834947 66 66 66
-0.00673329685202972 0.0531534951493657 7.11026420554817E-05 0.02550675 0.5541626 -0.8320175 123 123 123
-0.0141006067313483 0.0515707999247014 -0.00100414109999888 0.02127905 0.5668949 -0.8235152 129 129 129
-0.0149758649305198 0.0536551391755657 0.000562345861809171 0.01826906 0.566959 -0.8235434 76 76 76
0.00264949016532023 0.055426137800163 0.00209745776658957 0.01958213 0.56036 -0.8280176 217 217 217
0.000568843737110747 0.0567442611245194 0.00306335035597285 0.01014166 0.5715601 -0.8204976 149 149 149
-0.00231029752267231 0.0541475245466927 0.000963734925064436 0.03569911 0.5652331 -0.8241584 182 182 182
-0.0013438862170112 0.0586724262196942 0.00437009792336265 0.04121978 0.5545595 -0.8311226 92 92 92
-0.0038406377759026 0.0585910326610445 0.00428367427191859 0.05493995 0.5515881 -0.8323054 216 216 216
-0.00283823076435441 0.0612249770281134 0.00599408758306921 0.05707747 0.5469767 -0.8351997 71 71 71
0.00245833496207526 0.0646954280227753 0.00834743413841124 0.01980746 0.5411273 -0.8407074 110 110 110
-0.00572656423216067 0.063647571279958 0.00706629678166884 0.04799266 0.558647 -0.8280158 110 110 110
-0.0076703896525343 0.0554458132223468 0.00161452617536553 0.0306312 0.5524645 -0.8329734 182 182 182
-0.0072792191644222 0.0596018678760297 0.00440342092238269 0.04226026 0.5487709 -0.8349039 222 222 222
-0.0108098603043487 0.0579939891010327 0.00330029609543628 -0.004487908 0.5401164 -0.8415784 193 193 193
-0.0158328544322197 0.0549352565358966 0.00167755606906742 0.01910267 0.5608338 -0.827708 89 89 89
-0.00967349828477726 0.0607480231777461 0.00506280548771756 0.008665201 0.5438477 -0.8391392 216 216 216
-0.0825384475100845 0.148869604290098 0.0814949755560102 -0.9510125 -0.09675626 0.2936213 151 151 151
-0.011594404262552 0.0622054760856628 0.00595036824129261 0.01139249 0.5513068 -0.8342248 226 226 226
-0.0135268706450926 0.06311323549115 0.00658306275531143 0.01988113 0.5559622 -0.8309698 212 212 212
-0.0129788989954509 0.0647277812252326 0.00773800313874975 0.01317689 0.5666828 -0.8238307 217 217 217
-0.0183294338190421 0.0653609985886602 0.00793653974411193 0.01537723 0.5562502 -0.8308726 104 104 104
-0.0256660788923329 0.0441122678828182 -0.00663854640035075 0.05088348 0.5474646 -0.8352804 142 142 142
-0.0277687167060021 0.0426388874118563 -0.00746167538479378 0.03740431 0.5451424 -0.8375086 126 126 126
-0.0204175873767154 0.0472720845190234 -0.00406646238260297 0.02502256 0.5478802 -0.8361825 91 91 91
-0.02419413185237 0.0449265696638835 -0.0058041017698742 0.03604694 0.5412769 -0.8400714 142 142 142
-0.0288316568271791 0.047658329994002 -0.00425426278091676 0.03410403 0.5581003 -0.8290724 171 171 171
-0.0213103001315766 0.0512540957574028 -0.00155340158640013 0.03370107 0.564119 -0.8250054 114 114 114
-0.0233099889200159 0.0530392486889081 -0.000353552644519611 0.03206755 0.5659865 -0.8237906 166 166 166
-0.0273359054642004 0.0523602510829524 -0.000874003074951418 0.03745081 0.5562242 -0.830188 142 142 142
-0.0327639511745574 0.0428883931911225 -0.00770834413720076 0.02453532 0.5368754 -0.8433047 140 140 140
-0.0373392288338832 0.0451594689393853 -0.00606259576066667 0.02148595 0.5535825 -0.8325171 158 158 158
-0.0307668576689761 0.045403799359698 -0.00574765963397203 0.02237218 0.5508221 -0.8343228 139 139 139
-0.039280267977341 0.0472945446645561 -0.00490889782361689 0.02781234 0.5566432 -0.830286 173 173 173
-0.0324189296474522 0.0486775429692802 -0.0035182754747782 0.01822131 0.5574906 -0.8299832 189 189 189
-0.0334037813417751 0.0509179406130135 -0.00216790387584284 0.02259223 0.5612372 -0.8273466 169 169 169
-0.0372978705489846 0.0506657353907858 -0.00235404659496416 0.01868244 0.5696317 -0.8216878 154 154 154
-0.0400042908731062 0.0524024875420085 -0.00135114821305524 0.02301609 0.5634571 -0.8258247 152 152 152
-0.0190844817391742 0.0570211926885694 0.00255174339308176 0.04169094 0.5418131 -0.8394644 110 110 110
-0.0213912368697131 0.059116970418698 0.00350212271754038 0.02596277 0.5409287 -0.8406676 120 120 120
-0.0254288679489361 0.0542937626348764 0.000342305180122043 0.03866002 0.5512589 -0.833438 165 165 165
-0.024747731622607 0.0578432789032133 0.00276909675936701 0.03051919 0.5527442 -0.832792 134 134 134
-0.0241561813772657 0.0613535307051006 0.00516050705081897 0.01594353 0.5701936 -0.8213556 145 145 145
-0.0292680524428452 0.0608848428337757 0.00437337036004817 0.03322373 0.557128 -0.8297618 120 120 120
-0.0193761823621186 0.0656236061816214 0.00820735744537873 0.01048927 0.5528235 -0.8332323 99 99 99
-0.0265422590407445 0.0621198600063582 0.00580651702706217 0.03190378 0.5673008 -0.8228924 131 131 131
-0.0327009651691728 0.0581544678158794 0.00265864276023456 0.01507273 0.5616275 -0.8272529 223 223 223
-0.0381855678590211 0.0557802338491705 0.00108138981236519 0.01942709 0.5591974 -0.8288069 198 198 198
-0.0383721417816467 0.0593293721796421 0.00368059890410513 0.02610988 0.5525334 -0.8330817 189 189 189
-0.0311124535783955 0.061862204655133 0.00509437924387704 0.02134084 0.5576257 -0.8298181 203 203 203
-0.0338576176179402 0.0621920051839545 0.00571569944951758 0.01219792 0.5536458 -0.8326629 151 151 151
-0.0309581132244032 0.0645328198313093 0.00708552352876382 0.03562042 0.5618942 -0.8264418 217 217 217
-0.0402074019249521 0.0620554034007698 0.00524708821822487 0.02917192 0.5537919 -0.8321439 180 180 180
-0.00138987928770984 0.0698650447129545 0.0114126859424535 0.03060784 0.5455817 -0.8374985 112 112 112
-0.0107382832049923 0.066832310587599 0.00918785097179967 0.003092794 0.5657698 -0.8245575 194 194 194
-0.010547140491048 0.0673499368624505 0.00954332214007816 0.004527106 0.5600703 -0.8284327 160 160 160
-0.00797156638158381 0.0690565267652111 0.0104549060979065 0.007739429 0.5574635 -0.8301654 63 63 63
-0.0139301879340934 0.0686415047849153 0.0104996213469627 0.02061226 0.555297 -0.8313966 214 214 214
-0.0149367466451835 0.0693036022796353 0.0108426968093464 0.02730519 0.5541788 -0.8319497 218 218 218
-0.0240216664879247 0.0675097247961542 0.00946202264391263 0.011567 0.5546947 -0.8319736 123 123 123
-0.0236049720447746 0.0691249005442911 0.0104118372939217 0.001690427 0.5563393 -0.8309535 70 70 70
-0.0280078355465325 0.0664092187961006 0.00840468652389373 0.03717756 0.5542458 -0.8315223 101 101 101
-0.0252635764269615 0.0690710782360294 0.0104239819532726 0.01854864 0.5556169 -0.8312315 81 81 81
-0.03166249663902 0.0664224577600542 0.00824576313641737 0.02752418 0.560326 -0.8278147 228 228 228
-0.0310561331485726 0.0694037712482333 0.0105303249614393 0.03690239 0.5587085 -0.8285427 205 205 205
-0.0316504286548915 0.0702496074554434 0.0109807472913855 0.0337101 0.5578737 -0.829241 234 234 234
-0.0386271514760077 0.0659835988084623 0.00793519682134305 0.03215877 0.5575279 -0.8295351 126 126 126
-0.0380745360114529 0.0675729115775007 0.00891197808990621 0.02706011 0.5552949 -0.8312132 158 158 158
-0.0414540470070066 0.0702015148865925 0.0104751365855893 0.03367509 0.5622482 -0.8262826 118 118 118
0.00395304923202522 0.0716599692296319 0.0128012651331207 0.02908699 0.5531411 -0.8325796 139 139 139
-0.00576827441530092 0.0715684127250035 0.0123490041285891 0.02265301 0.5507081 -0.8343905 135 135 135
-0.000103592078539272 0.074585972195352 0.014680536968376 0.03070538 0.5556805 -0.8308287 105 105 105
-0.00212054127223338 0.0753715334000024 0.0150992077098464 0.03500843 0.5452062 -0.8375707 118 118 118
-0.00578240225864812 0.0765949433067402 0.0157147275938238 0.02120003 0.5560051 -0.8309084 137 137 137
-0.00787971180922398 0.0718013540664512 0.0121915014046406 0.007198342 0.5484591 -0.8361464 76 76 76
-0.0117820622670703 0.0726673535788984 0.0130112690168981 0.009459894 0.5572796 -0.8302709 113 113 113
-0.0182451953292904 0.0719099676972187 0.0122940628742311 0.02445309 0.547985 -0.8361307 229 229 229
-0.0170535762411261 0.0732008223945287 0.0132660449733245 0.02654492 0.54563 -0.8376057 236 236 236
-0.0156047132564576 0.0774591921716168 0.0160956155519009 0.03456217 0.5544842 -0.8314762 183 183 183
-0.00166306188682164 0.0789160902591995 0.0173837195732506 0.02625853 0.5522373 -0.8332733 153 153 153
-0.00560583876335485 0.0786043241505677 0.0170470514823332 0.02058658 0.5527905 -0.8330659 162 162 162
-0.000406533495386441 0.0835886290207988 0.0200371514770229 0.02528539 0.561283 -0.8272376 161 161 161
-0.00382256020438998 0.0811129426436804 0.0187746651809015 0.01868504 0.5601271 -0.8281959 176 176 176
0.00294041763615427 0.0855599821005396 0.0218205068069146 0.02364333 0.5686341 -0.8222507 151 151 151
-0.000392132580715021 0.0845625301517009 0.021247713385873 0.01052658 0.5664904 -0.8240011 131 131 131
0.00195412467621159 0.0866080266018644 0.0227334629645722 0.02100546 0.5668667 -0.8235417 155 155 155
-0.00280389696424166 0.0841353970320163 0.0212179923081575 0.01255342 0.5776445 -0.8161919 143 143 143
-0.00376824321170588 0.0847335775000888 0.0214084266966445 0.01618966 0.5819526 -0.8130615 129 129 129
-0.00340753701215979 0.0868352439078159 0.0226087880978796 0.008276206 0.561015 -0.8277643 111 111 111
-0.00694710267967924 0.0880727456440805 0.023788491864753 0.02064264 0.560372 -0.8279837 86 86 86
-0.0133175345157959 0.0780609941744778 0.0166603881816801 0.02353028 0.5454565 -0.8378088 128 128 128
-0.0102602959706091 0.0829011284293605 0.019945274284018 0.02462459 0.5597871 -0.8282706 115 115 115
-0.0173950245686685 0.0820339944865562 0.0193164104075633 0.01578451 0.545962 -0.8376612 160 160 160
-0.00969785908104015 0.0859351472375147 0.0218453420890643 0.02983383 0.5650184 -0.8245387 143 143 143
-0.012847119668645 0.0846972138717484 0.0209924977150596 0.03160303 0.5626327 -0.8261027 133 133 133
-0.0142295919220441 0.0866102063637024 0.0223042193626027 0.02295538 0.5758057 -0.8172643 140 140 140
-0.0120774050937329 0.088345441996554 0.0234790311675433 0.02621686 0.5633036 -0.8258339 118 118 118
-0.0255523241856968 0.071431555680436 0.0120642102288413 0.01070487 0.5557486 -0.8312815 90 90 90
-0.02041016707682 0.0749131656719334 0.0142277917374823 0.01061541 0.5591189 -0.8290195 196 196 196
-0.0199717965950019 0.0771664619431095 0.0159088680002409 0.001370409 0.5569627 -0.8305364 225 225 225
-0.0258817070524038 0.072777981229697 0.0129572706145642 0.01602757 0.5447537 -0.8384429 59 59 59
-0.0281829183541045 0.074899368217891 0.0142829919610102 0.04036614 0.551662 -0.8330904 203 203 203
-0.0257315915793903 0.0777496704416807 0.0158293180989133 0.02374043 0.5621023 -0.8267269 142 142 142
-0.0305150502504139 0.0738240672479999 0.013410052967815 0.02827082 0.5463688 -0.8370674 226 226 226
-0.0316895127417802 0.0772847625078125 0.0155583957756658 0.009872068 0.5545601 -0.8320851 208 208 208
-0.0402876160995427 0.0718676716893576 0.01171646945215 0.03339691 0.5680912 -0.8222877 113 113 113
-0.0387457303307182 0.0741191094679591 0.0134954944330059 0.02259031 0.5678406 -0.8228285 104 104 104
-0.0205833386613499 0.0798544647381475 0.0176246214391908 -0.004842132 0.5594256 -0.8288664 181 181 181
-0.0190997017843944 0.0825570401263199 0.0191476238314439 -0.003099426 0.5353907 -0.8445988 157 157 157
-0.0216913096814628 0.0822340311185236 0.0193073932855594 -0.01524121 0.5348415 -0.844815 89 89 89
-0.0242201158771058 0.0835094290178667 0.0200320194249044 -0.01094268 0.5310966 -0.8472406 113 113 113
-0.0199656252015075 0.0868349254588771 0.0223095170752979 0.03358417 0.5579725 -0.8291796 159 159 159
-0.0278779133295979 0.0881242707354023 0.0229488404570564 0.0108007 0.5448619 -0.8384562 118 118 118
-0.0359980017065111 0.0792142738785898 0.0168003836206247 0.009290867 0.5546251 -0.8320485 116 116 116
-0.0323574033220915 0.0807689408340949 0.0180397280057181 0.02369945 0.5588207 -0.8289498 141 141 141
-0.0341993607488695 0.0822186115201717 0.0191052212372189 0.01899674 0.559104 -0.8288798 107 107 107
-0.0351002823223494 0.0827106346561665 0.0192186059438923 0.0191258 0.5578639 -0.829712 121 121 121
-0.0420920608625561 0.0807270778714453 0.0178043969979435 0.04416623 0.5406355 -0.8400968 143 143 143
-0.0341571339819589 0.082960533312162 0.019584336310224 0.02019757 0.5580583 -0.8295559 88 88 88
-0.0355014223846384 0.087856075107238 0.0225728272726962 0.0202253 0.5452503 -0.8380293 113 113 113
-0.0403697202700015 0.0873304626932551 0.0220627297319893 0.03038245 0.5578977 -0.8293534 134 134 134
-0.0215363113836555 0.0889162155259305 0.0235126735055143 0.02553944 0.5685028 -0.8222848 159 159 159
-0.0379050969148782 0.0885734626341329 0.0233373573660118 0.02545625 0.5437807 -0.8388411 140 140 140
-0.0430548968473556 0.042817414304714 -0.00779948422514062 0.02746296 0.5365905 -0.8433958 155 155 155
-0.0432789620523266 0.0479484818827115 -0.0045573877129462 0.007984919 0.5695336 -0.8219293 193 193 193
-0.0475334696843777 0.0466100222682216 -0.00539975775098264 0.003448656 0.5681366 -0.822927 150 150 150
-0.043056918021195 0.0497498381149047 -0.00315326556504678 0.01492256 0.5680001 -0.8228932 164 164 164
-0.0470233965934019 0.0512917247345449 -0.00197340492628803 0.004069087 0.5712759 -0.820748 162 162 162
-0.0476932929027236 0.0529085118004741 -0.00119075131650279 0.003962954 0.5636281 -0.8260192 122 122 122
-0.0534779248646915 0.0444870656398377 -0.00684888596052022 0.01938762 0.5483234 -0.8360416 179 179 179
-0.0575961890752401 0.0453180570365254 -0.00662406191243167 0.03444859 0.5446544 -0.8379528 196 196 196
-0.0645095001483922 0.0453372001495899 -0.0067222995441045 0.01687978 0.5621449 -0.8268664 135 135 135
-0.0610379357195066 0.0472502445658293 -0.00536256635603102 0.02373097 0.5633997 -0.8258436 173 173 173
-0.0638225080321808 0.0460922771486674 -0.00628776626358848 0.0136592 0.5596506 -0.8286161 142 142 142
-0.0533299068365563 0.0491690168001058 -0.00348226501991464 0.02950393 0.5700824 -0.8210576 198 198 198
-0.059499218169865 0.048614054155378 -0.00436195216692378 0.02640789 0.5627365 -0.8262144 191 191 191
-0.063324155317293 0.0509416841059683 -0.00281373102007573 0.02940401 0.5520086 -0.8333198 153 153 153
-0.0603972791139866 0.0521988659967032 -0.00179786896213671 0.0321986 0.5488179 -0.8353215 188 188 188
-0.0450405593894234 0.0530700369241014 -0.00101027285746677 0.008766981 0.5680467 -0.8229496 99 99 99
-0.0411678778883844 0.0552746492494088 0.000567413776918962 0.01576504 0.5554066 -0.8314295 207 207 207
-0.0428280631575806 0.0563163573412427 0.0011682092782658 1.81867E-05 0.5592359 -0.8290086 165 165 165
-0.0492907071543245 0.0547627298599968 0.000254393820664195 0.01693332 0.5627287 -0.8264682 90 90 90
-0.0476009379478328 0.0559078433288004 0.00135082139930601 0.001937892 0.5531811 -0.8330588 126 126 126
-0.0510385375496369 0.0547805605379479 0.000172574359247474 0.0292266 0.5617045 -0.8268215 139 139 139
-0.0492330648685897 0.0575690332147566 0.00243234296577835 0.02307418 0.5381082 -0.8425599 101 101 101
-0.0455332445154628 0.0606409612497593 0.00425815728751114 0.02189239 0.5369189 -0.8433498 133 133 133
-0.0416907528821149 0.0649300917834061 0.00722935137914485 0.02461557 0.5550085 -0.8314804 164 164 164
-0.0520621756167183 0.0619687475549557 0.00499476070425833 0.02220528 0.5358689 -0.8440091 138 138 138
-0.0593334662431193 0.0569932595404287 0.00125228932316093 0.0274201 0.5667146 -0.8234578 149 149 149
-0.0572663487870706 0.058493408059907 0.00227667887296815 0.02154928 0.5563203 -0.8306885 125 125 125
-0.0630155485209167 0.057583721457522 0.00168867363736638 0.02203287 0.5711248 -0.8205675 139 139 139
-0.0619631665324443 0.0602549351291662 0.00350804323939705 0.01911267 0.5636472 -0.8257945 125 125 125
-0.0558561734859251 0.0648629946020297 0.00668132956171832 0.001009847 0.5536454 -0.8327519 154 154 154
-0.0578466023468005 0.0651241884722263 0.00682735509039636 0.01268478 0.5569271 -0.8304645 129 129 129
-0.0674423579466072 0.0445232490538859 -0.00728656213814657 0.01867217 0.5527292 -0.8331518 158 158 158
-0.0684387118500207 0.0468672024915658 -0.00551184919957001 0.02026293 0.5576113 -0.8298548 160 160 160
-0.0748203486177603 0.0453607720784109 -0.00696030677176082 -0.2153934 0.4739701 -0.8537904 227 227 227
-0.0663995823419623 0.0492492386766397 -0.00428227075144447 0.01508488 0.5552505 -0.8315463 175 175 175
-0.0668595223021264 0.0530440455917209 -0.0017442630003783 0.01861002 0.5509211 -0.8343498 157 157 157
-0.0737424980279227 0.0482861908673039 -0.00472922310331811 -0.01503082 0.5702755 -0.8213159 182 182 182
-0.0727842600475399 0.0527263815987956 -0.00187882225022726 0.01124332 0.55074 -0.8346012 138 138 138
-0.079596015438212 0.0423455027091997 -0.00409672888466636 -0.9586183 0.03180213 -0.2829126 137 137 137
-0.079491477375714 0.0424066270146376 -0.00585818190501683 -0.850216 0.162204 -0.5008218 125 125 125
-0.0763527786684239 0.0443062119512149 -0.00801624490635053 -0.2796183 0.4978767 -0.8209339 173 173 173
-0.0803674517685846 0.047136733465354 -0.00291028764309673 -0.9070479 0.149356 -0.3936456 109 109 109
-0.0802896204068935 0.0482599557945081 -0.00369795859844321 -0.8378852 0.1581187 -0.5224432 123 123 123
-0.0785576347571317 0.0519516192547733 -0.002458271125484 -0.370034 0.4437822 -0.8161692 149 149 149
-0.0809243237061295 0.0453022601231675 0.00516096099941102 -0.9909493 -0.04776942 -0.1254494 77 77 77
-0.0807311249223703 0.0457505969227906 0.00307752400542174 -0.989728 -0.06483728 -0.1274155 97 97 97
-0.0812561896114374 0.0497337099928131 0.00573198857539739 -0.9973632 -0.01473098 -0.07106088 113 113 113
-0.0816575356363143 0.0486248363740961 0.0128343394333865 -0.9984675 -0.03876272 -0.03949826 59 59 59
-0.0809443282142897 0.0495814499309734 0.00481935535510994 -0.9960336 -0.02674231 -0.08486409 96 96 96
-0.0811361734956488 0.0535734146463324 0.00930224521563763 -0.9964736 -0.02728549 -0.07934623 122 122 122
-0.0811253373272045 0.0552552367495768 0.00460920956280456 -0.9708841 0.09371771 -0.2204563 68 68 68
-0.0687309324782635 0.0532935915728461 -0.00150789837063001 0.0123952 0.5507411 -0.8345841 148 148 148
-0.0809149616741522 0.0537356264418386 -0.0014980150170831 -0.6412646 0.3470311 -0.6843604 96 96 96
-0.0671175618519255 0.0561146954092323 0.00024022404296567 0.02522203 0.5643156 -0.8251738 135 135 135
-0.0691121768090057 0.0557423992714484 0.000166629705983939 0.01565403 0.5552616 -0.8315284 136 136 136
-0.0697286948170892 0.0583747467235842 0.00210256273783452 0.01806571 0.5652868 -0.8246967 139 139 139
-0.0735538379789675 0.055269732984188 -0.000156334655995488 0.01543656 0.5509945 -0.8343661 152 152 152
-0.071269728410098 0.0583802491605969 0.00193316900656218 0.01119311 0.5654436 -0.824711 131 131 131
-0.0695658182396945 0.061034481038348 0.00375364637094514 0.02428725 0.5693245 -0.821754 167 167 167
-0.066044924023906 0.0621110750764425 0.00433975329031969 0.03448587 0.5601358 -0.8276827 121 121 121
-0.0711881090597464 0.0628310524462535 0.00512362942492053 0.01870569 0.5588563 -0.8290535 148 148 148
-0.0735144083810511 0.062669235119552 0.00479249216558367 0.005297753 0.5567928 -0.8306345 144 144 144
-0.0811664121031836 0.0551868946032388 0.00079436759275256 -0.7001856 0.3869965 -0.5999782 110 110 110
-0.080959138742398 0.0571763760466718 0.0027269724183169 -0.7415761 0.3627148 -0.5643605 69 69 69
-0.0797126680565663 0.0588568128063922 0.00196128476044802 -0.4981072 0.527357 -0.6883195 139 139 139
-0.0811602530560389 0.0586557397428337 0.00481192708448366 -0.8226606 0.2806474 -0.4944355 81 81 81
-0.0796366716997756 0.0604772704274174 0.00320706901585613 -0.4236501 0.5205581 -0.7413096 140 140 140
-0.0768266754014131 0.0642798624270309 0.00583500001187368 -0.05349647 0.5283799 -0.847321 146 146 146
-0.0459652566757454 0.0671186941000768 0.00838445968473792 0.03319814 0.5531914 -0.8323924 178 178 178
-0.0475186353867558 0.0693059262832941 0.00977046065540868 0.02473983 0.567103 -0.8232753 144 144 144
-0.0276699866312682 0.181951457042589 0.0857156984541411 0.01159608 0.5446155 -0.8386057 189 189 189
-0.0449524195960631 0.0701044854647916 0.0104653310587715 0.02170645 0.5633816 -0.8259116 177 177 177
-0.0520696612568998 0.0662007718916916 0.00746133818437403 0.008958522 0.5653383 -0.8248104 148 148 148
-0.0527177797865486 0.0683290609337427 0.00901598529241057 0.01252718 0.565021 -0.8249814 155 155 155
-0.0598704173364792 0.0686737398150959 0.00913601446255455 0.02149624 0.5505024 -0.8345568 144 144 144
-0.0631867446019312 0.0675407092495052 0.00811136547194383 0.0306203 0.5509501 -0.8339762 156 156 156
-0.0821155530680286 0.0501082797829889 0.0170285060999482 -0.9930821 -0.09860522 -0.06375656 81 81 81
-0.0824519332712148 0.0515350384546022 0.0172597893702611 -0.9916872 -0.108957 -0.06844669 70 70 70
-0.082558446510876 0.053952269941413 0.0170342252820484 -0.992698 -0.09835012 -0.06984252 47 47 47
-0.0818436275159216 0.0517465875545734 0.0207518525163494 -0.9955959 -0.08924235 0.02871744 53 53 53
-0.0819084436050783 0.0552152690859952 0.0233554066910329 -0.9858181 -0.01008639 0.1675138 49 49 49
-0.082772512717411 0.0504798806056906 0.0195637301175521 -0.9951988 -0.09284677 -0.03096329 62 62 62
-0.0821443534956576 0.0588950322812273 0.0150777765366873 -0.9820901 -0.05057275 -0.1814976 100 100 100
-0.0831833795668064 0.0567072225777868 0.0192633773301738 -0.9981768 -0.0602115 0.004202771 29 29 29
-0.0813216302300739 0.0544628454243601 0.0274469133260715 -0.9631113 0.0408106 0.2659906 67 67 67
-0.0792129781460762 0.0568854149026706 0.035016045946679 -0.9954591 -0.05224386 0.07957265 39 39 39
-0.0819991994119631 0.0584539511139763 0.024034646715222 -0.9674882 -0.02860092 0.2512938 51 51 51
-0.0825098051662181 0.0622576770865478 0.0231192688585016 -0.9733589 -0.05802172 0.2218239 27 27 27
-0.0804804557959957 0.0600751302902608 0.0294098497247416 -0.9600185 -0.1237321 0.2511072 51 51 51
-0.0806371965446808 0.0628796814979798 0.0316809152117161 -0.9749185 -0.1390271 0.1737972 27 27 27
-0.0823101259440366 0.0658196480598831 0.0275468144974345 -0.970786 -0.08059609 0.2260062 53 53 53
0.0795685959377352 0.186348265577199 0.0985831093032677 0.7328447 0.4912037 -0.4708052 69 69 69
-0.0661755128704002 0.0668153465179949 0.00793539857800399 0.02196084 0.5470361 -0.8368209 140 140 140
-0.0681051051036001 0.068957879876213 0.00893035769359288 0.01760746 0.5554532 -0.8313614 129 129 129
-0.0699789519847243 0.0699195999216804 0.00992798731872538 0.02567596 0.5550837 -0.8313981 194 194 194
-0.0709734189100737 0.0661924192993352 0.00736950493992264 0.02463263 0.5485996 -0.8357223 112 112 112
-0.0753512638903153 0.0671889244818311 0.00761628230985847 0.0198519 0.5488698 -0.8356721 126 126 126
-0.0821241036900338 0.0606120517242531 0.0118235110147492 -0.9937381 -0.09273592 -0.06232803 70 70 70
-0.0823858782363365 0.0632389008590512 0.00862412378902758 -0.9239877 0.04426472 -0.3798516 101 101 101
-0.08258108622953 0.0621821795588358 0.0154888688396778 -0.9951711 0.005700357 -0.09799002 89 89 89
-0.0826005304234978 0.0651429551376735 0.0147675270310901 -0.9983315 -0.009662823 -0.05692898 79 79 79
-0.0821383040356429 0.0651311942023652 0.010795564685128 -0.9599297 -0.02346056 -0.2792571 88 88 88
-0.0826871984367061 0.0643451231272202 0.00938446881762992 -0.9430636 0.03776406 -0.3304616 88 88 88
-0.0825972851940255 0.0666993602062029 0.0104223235371212 -0.9780784 0.0141922 -0.2077528 60 60 60
-0.0834997324409201 0.068835974932267 0.00940472211597257 -0.8609857 0.2556687 -0.4397012 84 84 84
-0.0826123113288397 0.0692619950549583 0.0137837660171309 -0.9979895 0.05989172 -0.02073695 103 103 103
-0.0824880468015134 0.0681382172130436 0.0219910687754991 -0.9973017 0.06775398 0.02826097 97 97 97
-0.0832612685845504 0.0674188758329967 0.0222698171364746 -0.9974975 0.06365964 0.03075939 84 84 84
-0.0816398107378857 0.0676183395594653 0.0301142287370059 -0.9676263 -0.03195247 0.2503563 92 92 92
-0.0824904639711814 0.0722610541567056 0.0224592060358117 -0.9954451 0.08679774 0.03943531 136 136 136
0.0499299357339695 0.167205282009859 0.0779945862046497 0.02138436 0.5463071 -0.8373119 114 114 114
-0.0820497482520044 0.0723701142246449 0.0266378871191571 -0.9870657 0.0546114 0.1507277 57 57 57
-0.0821225116887279 0.0734431810486813 0.0246108567375487 -0.9945021 0.05908453 0.08645539 68 68 68
-0.0446071800971057 0.0710167378087775 0.0108818594904272 0.02179438 0.5643585 -0.825242 123 123 123
-0.0443741538471567 0.0759337985444835 0.0143989561792112 0.03604244 0.5603682 -0.827459 114 114 114
-0.0476328887434261 0.0752478390828625 0.0141002632845319 0.02159513 0.5512194 -0.8340808 110 110 110
-0.0525712857808101 0.0714436493417987 0.0111660542461816 0.02186426 0.562252 -0.8266768 145 145 145
-0.0553630976747974 0.0703803465529103 0.0104966080686592 0.01953909 0.5583468 -0.8293775 165 165 165
0.00501124495366323 0.175971247118932 0.135255119946037 -0.2108032 0.9105734 0.3555534 40 40 40
-0.0536433629999897 0.0761739432299503 0.0142313979105488 0.02113116 0.5497229 -0.8350798 112 112 112
-0.0600597880568299 0.0729135634852203 0.0120621818786852 0.01595973 0.5645158 -0.825268 164 164 164
-0.0618836703861794 0.077289944647242 0.0150242048944656 0.0349752 0.5565124 -0.8301029 119 119 119
-0.0513375285191042 0.078385709965597 0.0157614449514714 0.0242127 0.5469053 -0.8368443 124 124 124
-0.0456980469235351 0.081969651429134 0.0179949022732951 0.03638848 0.5560415 -0.8303576 138 138 138
-0.0521890505937832 0.0796079432918696 0.0166792765487781 0.0223996 0.5539611 -0.8322412 173 173 173
-0.0499514418484308 0.0810720725617073 0.0175593661763077 0.0259505 0.5575519 -0.8297364 154 154 154
-0.052141816800229 0.0814062301218214 0.0178005736535971 0.01331531 0.5632226 -0.8261979 177 177 177
-0.0422728916201893 0.0844698500479815 0.0201012608290528 0.0354054 0.559999 -0.8277364 133 133 133
-0.0443572322426102 0.0868617875337153 0.0217510377476844 0.03122836 0.5653954 -0.8242286 101 101 101
-0.0528012087288938 0.08412886358743 0.0195989759559815 0.005732825 0.5737559 -0.8190063 113 113 113
-0.0526650679558998 0.0876107081210916 0.0220385335265102 0.004641357 0.5655762 -0.824683 171 171 171
-0.0587575347672029 0.0779184947510051 0.0154990708706247 -0.006460606 0.5590821 -0.8290871 134 134 134
-0.0557356743507316 0.0800241388479458 0.0166012378206034 0.005336071 0.5529819 -0.8331762 169 169 169
0.010717102267694 0.186511985496611 0.108547601282814 -0.3181544 0.8223117 0.4717851 33 33 33
-0.0602701581108374 0.0812334376951471 0.0175919567308344 0.01371091 0.5447878 -0.8384619 118 118 118
-0.0642117632021861 0.0824967019834238 0.0184785125226783 0.02092538 0.5459765 -0.8375391 149 149 149
-0.0550135807976853 0.085228987871963 0.0204552180072414 0.01011574 0.5766582 -0.8169228 143 143 143
-0.0586410640300872 0.0849837211021517 0.0202081093763377 0.02919684 0.5662857 -0.8236917 193 193 193
-0.0546199568999333 0.0857118502254354 0.0209049291068429 0.007369654 0.5702208 -0.8214584 159 159 159
-0.0587496046475167 0.0875397107565224 0.0218455917698691 0.02390537 0.5586309 -0.8290718 162 162 162
-0.042439483240226 0.08823066859571 0.0227357089023613 0.02471027 0.5596632 -0.8283517 101 101 101
-0.0551791974660851 0.0881274454756521 0.0224404687576256 0.01638769 0.5629517 -0.8263273 107 107 107
-0.0706808808465218 0.0765066530719666 0.0139023950187093 0.03935347 0.5587953 -0.8283714 173 173 173
-0.0731511003180105 0.0743094431242216 0.012583314784307 0.04671253 0.5524182 -0.8322572 125 125 125
-0.0763088253697441 0.0728400847016527 0.0112357816258568 -0.05021112 0.5652494 -0.8233905 155 155 155
-0.0713861862591916 0.0753080912718901 0.0134474540468843 0.04658174 0.5607007 -0.8267073 135 135 135
-0.0780016565822086 0.0712689462618782 0.0104159599683457 -0.2498868 0.5362418 -0.8062266 147 147 147
-0.082357715709938 0.0754092147739234 0.0145309509667493 -0.8756704 0.2125345 -0.4336247 122 122 122
-0.0829161739895627 0.0705520789068742 0.0109204545099303 -0.8809329 0.3176551 -0.3507884 222 222 222
-0.0830435095816409 0.0757662338160902 0.0142044997939705 -0.8756704 0.2125345 -0.4336247 70 70 70
-0.071283920436549 0.0776856859568541 0.0148946171877586 0.0351801 0.5467721 -0.8365421 169 169 169
-0.0660720960172156 0.0827981627891924 0.0182502038152564 0.02585566 0.5499909 -0.8347703 166 166 166
-0.0703445510616949 0.0829389295967315 0.0182173375646802 0.03553112 0.5447636 -0.8378366 169 169 169
-0.0743716079969969 0.0834035028101345 0.0182531838863263 0.03835875 0.5598013 -0.8277385 154 154 154
-0.0677239602673114 0.0850715669515727 0.0199125563192556 0.0169235 0.5545856 -0.8319546 162 162 162
-0.0661191823078866 0.0870524787160599 0.0210840164139413 0.02663395 0.5435099 -0.8389801 168 168 168
-0.0740107277263324 0.0859011542098614 0.0202239785245993 0.03027454 0.5625916 -0.8261805 154 154 154
-0.0717019290572898 0.0869640568432258 0.0211261245950233 0.02243357 0.5565116 -0.8305369 175 175 175
-0.0826152361092407 0.0769255567986906 0.0185102014769474 -0.9957665 0.09180186 0.004629834 86 86 86
-0.0826003656505909 0.0785946470503538 0.0173201278634776 -0.9375289 0.2978932 -0.1797197 212 212 212
-0.0832317847898261 0.0788917245287816 0.0188527444165556 -0.9854884 0.1695624 -0.007828949 127 127 127
-0.0819498684645472 0.0786742032546787 0.0218471771807367 -0.9861489 0.1658413 -0.002651919 78 78 78
-0.0819777059178146 0.0803535753076202 0.0218239990402398 -0.9857528 0.1635849 -0.03913449 103 103 103
-0.0771521254898877 0.0797238720107935 0.0159194674757996 -0.08950678 0.5284757 -0.8442168 158 158 158
-0.0772750848708279 0.0830529338403386 0.0181692293556656 -0.1016031 0.5697552 -0.8155096 135 135 135
-0.0790132642731995 0.0826074291250557 0.0178626338941071 -0.419906 0.5201459 -0.7437252 137 137 137
-0.0823423565400287 0.081695684288725 0.0177303436149624 -0.6398478 0.4892919 -0.5926114 140 140 140
-0.0816926314243829 0.0829818026563007 0.0243620159258403 -0.998073 0.03243861 -0.05289578 126 126 126
-0.0810851426298749 0.0855135392950125 0.0197411186352273 -0.6213466 0.4631464 -0.6319999 157 157 157
-0.0758162702945739 0.0887504893832226 0.0223800238894772 0.002067197 0.5593737 -0.828913 138 138 138
0.00326818899970993 0.0919891715714728 0.0264813498442723 0.0261293 0.558943 -0.8287943 144 144 144
0.00127847769279876 0.0948443911801472 0.0281206787465999 0.02262673 0.559921 -0.828237 215 215 215
-0.00192787266866246 0.0893074553373013 0.0243758041069036 0.01811068 0.5554191 -0.8313733 93 93 93
0.0774317551779213 0.156978359935649 0.0763616491224051 0.8592498 0.2131386 -0.4650394 68 68 68
-0.00471906725075888 0.0918103758932368 0.0260822134328031 0.01340924 0.5552738 -0.8315595 165 165 165
-0.00689635397021338 0.0944670701111899 0.0277171304488895 0.02205016 0.5713384 -0.8204184 212 212 212
0.00169772144389091 0.0966765578682741 0.0295011218300042 0.02235142 0.5588998 -0.828934 163 163 163
0.00360811878857303 0.0988902367473409 0.0310930352814596 0.02863571 0.5540234 -0.8320085 164 164 164
0.00194412058333526 0.100567530138477 0.0322325769959781 0.01679223 0.5602829 -0.8281311 106 106 106
-0.00406389634499904 0.0980812402908654 0.0304244872210633 0.02423838 0.5571854 -0.8300343 120 120 120
-0.00885316434602013 0.0905684875114486 0.0252357902691403 0.0280936 0.5522401 -0.8332116 98 98 98
-0.00981683606200878 0.0938191299492249 0.0275107363289904 0.02175209 0.565402 -0.8245286 229 229 229
-0.016418638673346 0.0909538189141327 0.0253434726572709 0.01706207 0.5478244 -0.8364193 125 125 125
-0.0136623648305676 0.0935242928494574 0.0269086647366825 0.02790045 0.5602962 -0.8278223 129 129 129
-0.0081836872964911 0.0953089679147942 0.0280181275594956 0.02125583 0.5753718 -0.8176157 206 206 206
-0.0165581426754438 0.0965824309641782 0.0289710233110121 0.02711302 0.5820739 -0.8126837 192 192 192
-0.0112725256213717 0.0974478239055386 0.0299420883281311 0.014191 0.5781615 -0.8157989 134 134 134
-0.0128915323070875 0.0996144064630914 0.0312313199029617 0.02269629 0.5644272 -0.8251708 118 118 118
-0.0146762487063685 0.0974247679776873 0.0297561807457557 0.04306712 0.5885862 -0.8072865 216 216 216
-0.00135509738068684 0.101594065357406 0.0326534804850298 0.01961713 0.5562625 -0.8307751 106 106 106
0.00153919129012348 0.105155262731458 0.0351754197248401 0.01374975 0.5631452 -0.8262435 128 128 128
-0.00161172730510994 0.10510604467096 0.0353401648983473 0.008725337 0.5662594 -0.8241809 116 116 116
-0.006321207810569 0.103108749769181 0.0335288307961179 0.0140283 0.5594046 -0.828776 130 130 130
-0.00521002791742786 0.104003610507739 0.034220818020356 0.02014467 0.5655788 -0.8244482 145 145 145
-0.00896274228107075 0.101598853324067 0.032459318008765 0.002417398 0.545067 -0.838389 116 116 116
-0.0104565130485499 0.103037616203847 0.033539293926259 0.01375324 0.5458569 -0.8377655 116 116 116
-0.0136153533201004 0.100543575137228 0.0316842457386343 0.03486462 0.5519759 -0.8331309 117 117 117
-0.0189467954686751 0.103011762029816 0.033209612349894 0.04121688 0.5445054 -0.8377441 213 213 213
-0.0201724719017555 0.0911414472758333 0.0251498436337793 0.02263419 0.5487407 -0.8356861 151 151 151
-0.0214379422781086 0.0918558843934268 0.0258330683592725 0.03036356 0.5382895 -0.8422128 138 138 138
-0.0268108052573734 0.0945226089509882 0.02712643552983 0.03482144 0.5509662 -0.8338007 108 108 108
-0.0219909755854304 0.0957478066091623 0.0284263087367223 0.02416394 0.5620487 -0.8267511 130 130 130
-0.0284182007176947 0.0951783885965386 0.0275699396656497 0.02966182 0.5539484 -0.8320224 133 133 133
-0.030100141929156 0.0971398389395636 0.0287216069619505 0.005493187 0.5662601 -0.8242083 202 202 202
-0.0304340344680685 0.098895871038969 0.0299564122387171 0.01085823 0.5737453 -0.8189618 207 207 207
-0.0323646304001963 0.0897058909833829 0.0237113704551916 0.01038259 0.5460669 -0.8376772 111 111 111
-0.0340357629762016 0.0907795377134345 0.0247419101999871 0.01412095 0.5477381 -0.8365307 122 122 122
-0.0360791554380762 0.0945356603046718 0.0270046756723699 0.01238683 0.5464031 -0.8374308 130 130 130
-0.0384371845351725 0.0944623378372761 0.0268203375226234 0.01612389 0.5427951 -0.8397104 139 139 139
-0.0327388724549342 0.095509280202568 0.0275794467318767 0.01100543 0.5464328 -0.8374307 144 144 144
-0.0394605567645461 0.0953664027641209 0.0274476510305424 0.01420752 0.5525997 -0.8333257 119 119 119
-0.0387291551972884 0.100277410444164 0.0310306618673305 0.01426596 0.582265 -0.8128739 114 114 114
-0.0421589106013709 0.0979590615231637 0.0290452491073159 0.01103833 0.5622786 -0.8268742 98 98 98
-0.0193854657091053 0.100569843911046 0.0316073969133745 0.04680405 0.5551128 -0.8304572 189 189 189
-0.0245325492279433 0.103193219004793 0.0329746346609071 0.01672908 0.5465147 -0.8372824 221 221 221
-0.0281989629022292 0.10244422055711 0.0326414372240174 -0.003558829 0.565985 -0.8244079 227 227 227
-0.0335265325483114 0.102859251161746 0.0329072365564346 0.01503089 0.5762261 -0.8171521 211 211 211
-0.0344577773900676 0.103788480287227 0.0334773422942693 0.01434749 0.5680792 -0.8228488 201 201 201
-0.0359133446164739 0.103894573553954 0.0334899965492882 0.01703114 0.5726184 -0.8196451 206 206 206
-0.0394247907834195 0.101197777257789 0.0312663981141972 0.01559591 0.5811322 -0.8136597 146 146 146
-0.0391391784534711 0.103799916241995 0.0334869006602448 0.02104028 0.5683326 -0.8225299 71 71 71
-0.0428799762720842 0.104612433764045 0.0337671724328323 0.04123009 0.5458179 -0.8368888 130 130 130
-0.0790732263510865 0.0594788011145099 0.0394527830753096 -0.9920165 -0.1260879 0.002262677 36 36 36
-0.0791217976187899 0.0593059713442595 0.0359769600116609 -0.991224 -0.1140665 0.06681212 41 41 41
-0.0793235541617316 0.0592317918504877 0.0432188832724098 -0.9873217 -0.158035 0.01485932 29 29 29
-0.0801542355115248 0.0619505950352939 0.0445952831138789 -0.9640079 -0.2657823 -0.006972341 39 39 39
-0.0800937411780094 0.0653790457490661 0.0363655198792668 -0.9923626 -0.1208891 0.02454402 57 57 57
-0.0811903126790106 0.0665401408081121 0.0441244882010441 -0.970802 -0.2188208 -0.09828985 69 69 69
-0.082073234764156 0.0689964203135472 0.0415944951776107 -0.9669499 -0.2309306 -0.1080686 62 62 62
-0.0806715324473872 0.0648570497832938 0.0470105148977644 -0.9556943 -0.2907564 -0.04592569 47 47 47
-0.0818090208575977 0.0658217746324644 0.0467224555083147 -0.974418 -0.2174128 -0.05693188 33 33 33
-0.0817341618493681 0.0647313319885453 0.0514169530021456 -0.9727449 -0.2314936 -0.01334427 25 25 25
-0.0814967721245332 0.0660430216083512 0.0532890354558643 -0.9809063 -0.1857977 -0.05746342 40 40 40
-0.0814716022683672 0.0683026528347477 0.0533054194303375 -0.9874036 -0.1504511 -0.04897433 40 40 40
-0.0815882398859071 0.0672457954399778 0.0464781676077846 -0.9753281 -0.2177043 -0.03660543 55 55 55
-0.0818652657723793 0.0691867160265124 0.045966593580391 -0.9781756 -0.2037067 -0.04093881 72 72 72
-0.0820137550418334 0.0702564684305931 0.0431480709611185 -0.976255 -0.1988224 -0.08599882 54 54 54
-0.0821462432523821 0.0720026586449759 0.0538491245552961 -0.9868619 -0.1452381 -0.07077768 55 55 55
-0.0809913923451746 0.0677411030589637 0.0314114773390099 -0.9832714 -0.04827412 0.1756329 83 83 83
-0.0804905745765661 0.070303134717668 0.0323002207096406 -0.9953018 -0.07269125 0.06395516 34 34 34
-0.0814606805643328 0.0699832409135749 0.0385392487960329 -0.9669313 -0.2204584 -0.1282262 67 67 67
-0.0819736693529167 0.0712733737266372 0.0422708400417916 -0.9700926 -0.222078 -0.09798835 64 64 64
-0.0812303757270438 0.0725462874206256 0.0301835875025875 -0.9898553 -0.08313901 0.1152145 53 53 53
-0.0823904955937125 0.07599457768755 0.0360320347385425 -0.9777833 -0.1495873 -0.1468447 69 69 69
-0.0829618916795947 0.0798095345555063 0.0369492752647336 -0.9797785 -0.1090529 -0.1677547 79 79 79
-0.0828441117216188 0.0759172341610751 0.0421269076850922 -0.9706121 -0.2150505 -0.1080064 59 59 59
-0.0833317903544568 0.075921500795793 0.0459042284385675 -0.9765123 -0.2153406 0.007226394 38 38 38
-0.0829472724253848 0.0737499056857939 0.0476606511795857 -0.9813719 -0.1920268 0.005902595 50 50 50
-0.0836036611014066 0.0798581537413392 0.0513439044866644 -0.9848738 -0.1567699 0.07380281 69 69 69
-0.0841758453774362 0.0802037931925196 0.0417743772093191 -0.983281 -0.1165081 -0.1399443 130 130 130
-0.0842060631081436 0.0835549765669522 0.0436357760233315 -0.9907441 -0.03168249 -0.131994 102 102 102
-0.0846424499518763 0.0843072739097368 0.0458456761087681 -0.9963388 -0.07487367 -0.04126747 75 75 75
-0.0823129624347514 0.0680118259075717 0.0595359623187174 -0.9850384 -0.1336226 -0.1088317 61 61 61
-0.0826600331580223 0.0700506106277387 0.0575405967012488 -0.9845217 -0.1315537 -0.1158043 37 37 37
-0.0827907901998253 0.0716359874894122 0.0613320547862093 -0.9983966 -0.04500647 0.03433113 62 62 62
-0.0839916908228808 0.0690560461968489 0.0621056784509869 -0.9956473 -0.09158479 0.01728167 18 18 18
-0.0828228825078359 0.0728831630547634 0.0563844628571064 -0.9921834 -0.1000173 -0.07462341 38 38 38
-0.0828568953328888 0.0739413676996121 0.0625665269471407 -0.9993728 -0.01630731 0.03143506 51 51 51
-0.0826737027798004 0.0752437477790839 0.0626593650576079 -0.9976422 -0.06591891 0.01909629 47 47 47
-0.0829118738021455 0.0766845419998898 0.0592340433074001 -0.9960028 -0.0893113 0.00140413 50 50 50
-0.0830634438998326 0.0763517262291541 0.0678991000930226 -0.9719242 -0.2100017 0.1061251 66 66 66
-0.0834124698767176 0.0786131540622046 0.0677317724211839 -0.9660359 -0.2254373 0.1263036 72 72 72
-0.0838293146698108 0.0808673656868554 0.0678610721723437 -0.9665436 -0.1686854 0.1932322 94 94 94
-0.0818173982386186 0.0844735299873727 0.0738734267922916 -0.9368454 0.03308173 0.3481758 57 57 57
-0.0832449208458357 0.0789074792476023 0.054165418164093 -0.989531 -0.1394133 0.03731217 44 44 44
-0.0839987802343876 0.08059255778438 0.0534229310608902 -0.9839656 -0.170093 0.05366621 42 42 42
-0.0829994863196761 0.0800617694262785 0.0585172604807294 -0.9798416 -0.1905144 -0.0601231 73 73 73
-0.0844073470083115 0.0814346558474063 0.0607355952477846 -0.9354001 -0.3357703 -0.1108377 107 107 107
-0.0848754313662305 0.0827172947398366 0.0599149568613113 -0.9341505 -0.3301169 -0.1355941 62 62 62
-0.0842286588469925 0.083345906260163 0.0501140402636588 -0.9881597 -0.1356149 0.07175685 65 65 65
-0.0841228065568269 0.0838783145287766 0.0561874340020049 -0.9631268 -0.2362392 -0.1287544 121 121 121
-0.0852074474237372 0.0878317999862205 0.0550013285968756 -0.9865006 -0.1430611 -0.07968777 68 68 68
-0.0837923446654658 0.0839680911870732 0.0675630686307301 -0.9666312 -0.05037713 0.2511698 67 67 67
-0.0853761276773248 0.0842550979953891 0.0626960692139852 -0.9788101 -0.1489114 0.1405568 80 80 80
-0.0835015586049228 0.0853129992778826 0.069102617068685 -0.9512197 0.01383746 0.3082038 61 61 61
-0.0838141050075234 0.0873149429158812 0.0683982278547686 -0.9430951 0.02792693 0.3313482 55 55 55
-0.0822214947217712 0.0884059376778065 0.0718235352682638 -0.9335496 0.06145937 0.35314 60 60 60
-0.085598905292894 0.0864999947978774 0.0620893130012243 -0.9864315 -0.1176753 0.1144787 85 85 85
-0.0841654518717831 0.0878657792439431 0.0661074482208784 -0.9466534 0.01650029 0.3218307 58 58 58
-0.0861591760152209 0.0902220212465413 0.0613709003946599 -0.9982163 0.04014805 0.04418465 93 93 93
-0.0829912737187035 0.0897885321823145 0.0696507086686165 -0.9409572 0.03884368 0.3362896 58 58 58
-0.0830877045503637 0.0913462560326009 0.0687995722487678 -0.9398423 0.02249557 0.340867 63 63 63
-0.0838422680365816 0.0927982195104019 0.0665993369365274 -0.9329131 -0.01235409 0.3598897 60 60 60
-0.0827497808135367 0.0942161005765624 0.0699948229032441 -0.9359341 -0.01359652 0.3519127 56 56 56
0.0227440816374127 0.195617139280799 0.095920731501739 -0.1274806 0.7206016 -0.6815292 115 115 115
-0.0478135559739501 0.0898517261066268 0.0235303972876993 0.02133212 0.5554139 -0.8313004 165 165 165
-0.0465244004491479 0.0925271137712534 0.0255764416886756 0.02912161 0.5558893 -0.8307461 128 128 128
-0.0490653802348286 0.0917086989936159 0.0247871237200819 0.02459335 0.5550267 -0.8314689 154 154 154
-0.0492949832596987 0.0945452547076687 0.0266240723309663 0.03879242 0.5461922 -0.8367611 182 182 182
-0.0478346688739641 0.095765333532858 0.0277811085116084 0.04747043 0.5467187 -0.8359697 137 137 137
-0.0523723048965379 0.0958824271634114 0.0274550417718011 0.0217577 0.5484906 -0.8358736 196 196 196
-0.0442197804543847 0.10010313430914 0.0307500247489405 0.03129909 0.5571667 -0.8298106 124 124 124
-0.0504171902568356 0.0986680341240836 0.0291784338744623 0.02807699 0.5567928 -0.8301768 160 160 160
