ply
format ascii 1.0
comment File exported by Rhinoceros Version 7.0
element vertex 471
property float x
property float y
property float z
property float nx
property float ny
property float nz
property uchar red
property uchar green
property uchar blue
end_header
0.0379251667040414 -0.0163029086387101 -0.0129695084950324 0.3624986 -0.9291003 -0.07326173 73 73 73
0.00132946453271576 -0.0361103665625992 0.0333987626174096 0.2942137 -0.01403801 0.9556366 33 33 33
4.80838793344152E-05 0.0668813336098251 0.025237918172181 -0.3266701 0.8994386 0.2903391 136 136 136
-0.0908184222203665 -0.0381124865806046 0.00656968382388393 -0.9026348 0.3200784 0.2877503 108 108 108
-0.0682243279439383 -0.0426774871146622 -0.0268841830155249 -0.06763382 -0.8389225 -0.5400321 131 131 131
-0.0176190606576376 0.0174516785347518 0.0383801611998681 0.06697925 0.04471116 0.9967521 39 39 39
-0.000461267612593685 -0.0292998206412736 -0.0224537846705314 0.3739873 -0.8804376 -0.2914845 68 68 68
-0.0665040782910757 -0.0403229844367448 -0.0313193944355842 -0.07958736 -0.8543429 -0.5135797 61 61 61
-0.045721547983306 -0.0581982981955949 0.0145222994425897 0.3097032 -0.8756367 -0.3706 107 107 107
0.00514159879861542 -0.0333072793281022 0.00815540579348842 0.2220612 -0.9700224 -0.09871851 112 112 112
-0.0255876950246268 -0.0215586077964249 0.0377314540484552 0.1001288 0.002966845 0.9949701 89 89 89
-0.030801372907775 0.0354552614891586 0.0355931523182992 -0.5992853 0.528999 0.6008471 146 146 146
0.0561729200857706 0.0491021025383529 0.0226671251395349 -2.017648E-05 0.7144623 0.6996739 26 26 26
-0.0664560071450644 -0.0637483250892106 0.0113268348315362 0.2934712 -0.8670126 -0.4026957 51 51 51
0.026957256414277 0.053618942519432 0.0306918325760965 0.1265444 0.1330061 0.9830035 117 117 117
0.0281585582274027 -0.0186273705756608 -0.0183213052412864 0.319969 -0.9461405 -0.04937702 80 80 80
0.10677180967508 0.0194539177620467 -0.0159187016150351 0.6823301 -0.7310289 -0.00474017 86 86 86
0.00184662423310944 -0.0334446084296647 0.00306187597304622 0.2445078 -0.9696308 -0.005656245 110 110 110
-0.0680897704583578 -0.0622827660834733 0.00661772516757289 0.2590043 -0.8860216 -0.3845549 84 84 84
-0.00776039280714325 -0.00440391419290931 0.0360736700633172 0.1611947 -0.03561378 0.9862798 38 38 38
-0.06374906220259 -0.0712844979560319 0.0353048297503595 0.01556169 -0.987786 0.1550376 139 139 139
0.0578227170485086 0.0185408938133773 0.028625592861474 0.09434504 0.06572198 0.9933679 102 102 102
0.0561569162386484 0.00761703135610192 0.0289539548495416 0.1912653 0.01058112 0.9814813 166 166 166
0.0130221375006265 0.00345257403493493 0.0349204095938806 0.0236313 -0.015323 0.9996033 240 240 240
-0.0755859188062125 -0.0578778636252824 0.0418078902104501 -0.4476966 -0.2371547 0.8621632 147 147 147
-0.00627075352491668 -0.0410437238013688 0.0219463559725885 0.3923759 -0.8375438 -0.3802124 68 68 68
-0.0660427681428366 -0.0640895020759049 0.040571347151101 0.1323432 -0.2764406 0.9518749 109 109 109
0.0470430382269449 -0.013125385025734 -0.00851868065804204 0.4065369 -0.9135121 -0.01494755 115 115 115
0.0788535305040903 0.00556686999440759 0.015411258015931 0.707664 -0.6984234 -0.106848 140 140 140
0.0913711019533701 0.0125342953407821 -0.00277645858734807 0.4757918 -0.8276464 0.2976972 143 143 143
-0.0891846589070731 -0.0372956645286027 -0.0187057253977652 -0.8048097 -0.4585723 -0.3768192 120 120 120
0.00778446874795624 0.0639020550453719 0.0287697466948632 0.4508677 0.2683533 0.8512959 79 79 79
0.0598773189562387 -0.00614043591379554 -0.0151280311009284 0.4427619 -0.8964076 0.02037854 122 122 122
-0.0718738905412131 0.000196968337303094 -0.00115470560997685 -0.8318865 0.3671392 0.4161415 83 83 83
-0.0161695054990225 -0.0337878119742814 0.0365782084801797 0.05612101 -0.08623744 0.9946927 149 149 149
-0.0823131970387869 -0.0427735698020402 0.026927754555047 -0.7095565 0.5836636 0.3947991 124 124 124
0.101614219762666 0.0589206564629134 0.00378266004115382 0.1390825 0.5792843 0.8031723 71 71 71
0.0372644492167062 0.0145526278221664 0.0323496314623956 0.1736534 -0.010534 0.9847505 190 190 190
0.0958159097212381 0.0157538998329696 -0.00159917744606694 0.5072832 -0.8446583 0.1709276 116 116 116
0.00216237983880707 0.0640942204201278 0.0313405397275094 0.08595566 0.5413552 0.8363888 120 120 120
-0.0353182426911764 0.0503994572365341 0.0144021662810449 -0.6073063 0.5611005 0.5624457 74 74 74
-0.0519682935697012 -0.0141346108710709 0.0405665340760354 -0.02271074 0.04101351 0.9989005 185 185 185
0.0536742337721414 -0.0110110890662614 0.00702618089705745 0.4444479 -0.8931479 -0.0689406 127 127 127
0.00480524978814789 0.0163785565102157 0.0357373061516885 0.07893898 -0.00520182 0.9968659 219 219 219
-0.0861813894730978 -0.0431339394843522 -0.0142368820568915 -0.7662997 -0.5377937 -0.351515 62 62 62
-0.0300805739385062 0.0585363257134017 0.00948484269171992 -0.4434052 0.8384208 0.3169265 64 64 64
-0.0382013789636069 0.030569945594078 0.0289779755213861 -0.7465521 0.4640226 0.476805 125 125 125
0.095191253043992 0.0263253796303329 0.0240606370308999 0.2543699 0.05509696 0.9655362 91 91 91
-0.0759703389626913 -0.0204293381965104 0.00777098563700954 -0.7850516 0.4568662 0.4182907 130 130 130
0.0198775955217905 0.0499830591881332 0.0314286353924874 -0.03333754 0.2242177 0.9739687 61 61 61
-0.0180355183106833 0.044104610701805 0.0371628555396203 -0.1246931 0.182113 0.9753392 102 102 102
0.0473313458937235 -0.0115637433326188 0.030499622497857 0.4249412 -0.4404614 0.7908342 160 160 160
0.11616597852884 0.0502072918617782 -0.00258424850910863 0.8516453 0.5035058 0.145541 31 31 31
-0.0534579328519278 -0.0639645707404557 0.0214898439982537 0.4460523 -0.8168587 -0.3657584 98 98 98
0.109727007963044 0.034325991889244 -0.0173122135064002 0.6479848 -0.3346026 -0.6842198 36 36 36
-0.0177984706384116 -0.0419277798926774 0.00896267620116512 0.3814288 -0.8905805 -0.2477468 71 71 71
-0.000720756433623349 0.0395557034218368 0.0352407696583871 0.1772655 0.08080996 0.9808398 102 102 102
0.0337806471365518 0.0102759945595321 0.0329022261241082 0.156024 -0.06447416 0.9856468 136 136 136
0.0298323758619852 0.0340377438271102 0.0311803671458367 0.08048007 0.1308427 0.9881311 191 191 191
-0.011855112693923 -0.00976177571176917 0.0366640242674951 0.0736783 -0.006461086 0.9972611 73 73 73
-0.0520243517381125 -0.0466177117621842 0.0375312420466546 0.1242742 -0.004929897 0.9922357 77 77 77
-0.0197013191205435 0.0520812618935165 0.0287216904500131 -0.6121228 0.6133335 0.4991269 138 138 138
-0.0184199384671622 -0.0495168816840592 0.0352407696583871 0.2704524 -0.5787686 0.769339 74 74 74
0.00230653367219635 0.0315790522301254 0.0349204095938806 0.1441704 0.02337821 0.9892767 50 50 50
0.0722583659666605 0.0119697201454696 0.0270278605559472 0.1294631 -0.07662185 0.9886194 168 168 168
-0.0105618111115866 -0.0257727753913346 0.036016002569497 0.01962567 -0.01028729 0.9997545 124 124 124
-0.000272261284010922 -0.0371834885871354 0.0191913696864251 0.3990487 -0.8872474 -0.2314135 75 75 75
-0.0446884206754141 0.044152652045494 0.00985324409991542 -0.6851597 0.4403514 0.5802127 115 115 115
0.066179794885499 0.0518890965187606 0.0205528440812234 -0.05212886 0.4951336 0.8672516 29 29 29
0.0749132462519235 0.0728878128731307 0.0109424146750573 0.3931314 0.5158961 0.7611169 118 118 118
0.052264703132493 0.00377288939595788 0.0299870672562722 0.1703058 0.03823762 0.9846491 81 81 81
0.0139543541449136 0.0414328921043929 0.032777294788659 0.166712 0.0604832 0.9841488 97 97 97
0.0580409594553537 0.0719688284599838 0.015447303924859 -0.05464484 0.1243264 0.9907355 111 111 111
0.0789015718477792 0.0431915867531356 0.0225710275509957 0.287081 0.4122384 0.8646641 24 24 24
0.013646823980195 0.0160901892387924 0.0351846965888147 0.1080488 -0.03328858 0.9935881 106 106 106
-0.0433910063725882 0.0295688259804305 0.0233398529627923 -0.7045184 0.4220529 0.5705481 133 133 133
-0.0799586645585471 -0.0542820346152726 -0.00842256816834172 -0.4533397 -0.7581398 -0.4687293 111 111 111
-0.0740562550050192 -0.0559558522498551 -0.00665265294522008 0.08787136 -0.8223647 -0.5621341 83 83 83
-0.0724945537072592 -0.056011880615944 -0.00654053660839757 0.1093762 -0.8087277 -0.5779242 89 89 89
-0.0865417889577322 -0.0564924132621232 0.00680993524581233 -0.9573612 -0.2420516 -0.1577041 82 82 82
-0.0860132149678641 -0.0598320615088883 0.0167567285636071 -0.7578443 -0.3662645 0.5399281 96 96 96
-0.0862534812909537 -0.0553632628714982 0.0156034680941705 -0.883738 -0.3093279 0.3511743 74 74 74
-0.0833703450185233 -0.0596879374778214 -0.00135891112297734 -0.5612844 -0.5655716 -0.6042255 120 120 120
-0.0793339780789786 -0.0583904635703507 -0.00390568348377904 -0.1366482 -0.7492481 -0.6480389 103 103 103
-0.0781566969376974 -0.0577418458259049 -0.00429008873909673 -0.1227246 -0.7757666 -0.6189709 103 103 103
-0.0743846169930868 -0.0573333155906144 -0.00448229881733617 0.07423238 -0.8174393 -0.5712115 76 76 76
-0.0780846051198416 -0.0592074048316422 -0.00188748511284551 -0.03697564 -0.7740195 -0.6320812 63 63 63
-0.077796297453063 -0.0604086768424454 -0.00131086977928838 -0.01820903 -0.8144287 -0.5799778 71 71 71
-0.0744806996804648 -0.0592554461753312 -0.00256021293610295 0.07679767 -0.8312523 -0.5505649 99 99 99
-0.0754417649728232 -0.0604327571189347 -0.000974490966498459 0.1260943 -0.8388855 -0.5295011 77 77 77
-0.0579748026353293 -0.0448639046943131 -0.02156482609719 0.1288389 -0.8713695 -0.4734087 93 93 93
-0.0735917560082846 -0.0602165114676896 -0.000590070810019577 0.11366 -0.85479 -0.5063748 110 110 110
-0.0826015047055655 -0.0607450854575577 -0.000493973221480454 -0.4279415 -0.6798042 -0.5955941 108 108 108
-0.081928776882308 -0.0639645707404557 0.0055125358441476 -0.4559247 -0.8087935 -0.3714644 101 101 101
-0.0796222857457571 -0.0649255168235245 0.00440733161956111 -0.2056208 -0.8553575 -0.4754826 147 147 147
-0.0798785559159689 -0.065518225411171 0.00560863343268672 -0.2823098 -0.8699489 -0.4043391 122 122 122
0.0161215194243021 -0.0287904393470231 0.00683397081881801 0.4030271 -0.910068 -0.09667218 119 119 119
-0.0836106113416129 -0.0615139853751603 0.00298979905635158 -0.6532991 -0.6654 -0.3611691 160 160 160
-0.0772196821195059 -0.0610333335196915 0.000226795945465957 0.02533733 -0.8062609 -0.5910172 39 39 39
-0.0770755282861166 -0.0621385228431168 0.00166836408168117 0.06751936 -0.8146365 -0.5760283 66 66 66
-0.0733274690133505 -0.0606009614264909 0.000851482425034439 0.1335132 -0.8481309 -0.5126872 100 100 100
-0.0779645017606192 -0.0652379643714371 0.00536836710959712 -0.1088751 -0.886168 -0.4503915 83 83 83
-0.0737359098416739 -0.0645892274177018 0.0056326541045312 0.2667701 -0.828469 -0.4924153 55 55 55
-0.0831300786954337 -0.0604567181861344 0.000274852190316116 -0.5615831 -0.6245407 -0.542746 139 139 139
-0.0826976171952658 -0.0585345876014176 -0.000590085711180771 -0.6273511 -0.5095995 -0.5888454 122 122 122
-0.0720780960542136 -0.0574054372107926 -0.00436218055695256 0.08153336 -0.7959253 -0.5998794 75 75 75
-0.0705115965825491 -0.0566509616172257 -0.00507815154999455 0.1279466 -0.7920467 -0.5969017 69 69 69
-0.0669845811349326 -0.0549307715690079 -0.00630828711003026 0.1485544 -0.7954683 -0.5875047 39 39 39
-0.0727988950234824 -0.0593275677955094 -0.00164721878975591 0.1067784 -0.8501186 -0.5156517 163 163 163
-0.0700599125844412 -0.058726872185463 -0.00150307985752782 0.1280603 -0.8490635 -0.5125347 114 114 114
-0.069867717407363 -0.0579099309241715 -0.00366541716068944 0.1369603 -0.8171979 -0.5598478 67 67 67
-0.0684581867677145 -0.0579099309241715 -0.00291259559601506 0.1560182 -0.8186771 -0.5526537 80 80 80
-0.06765730895819 -0.0585345876014176 -0.0016472336909171 0.1496775 -0.8435637 -0.5157489 101 101 101
-0.0658313206654959 -0.0556275498664323 -0.00498685213535985 0.1637317 -0.8051744 -0.5699878 90 90 90
0.0573261805552072 0.0800476420128402 0.00536838201075832 -0.1441824 0.9681596 0.2046425 72 72 72
-0.0636689833623343 -0.0561800849235001 -0.00352126332730016 0.1667459 -0.8173729 -0.5514502 21 21 21
-0.0622274450284415 -0.0578739297187272 -0.000962480630576218 0.2133006 -0.8313389 -0.5132042 58 58 58
-0.0696394614201956 -0.0626071345603409 0.00560863343268672 0.2583886 -0.852919 -0.4536127 75 75 75
-0.0666001609784537 -0.0611294162070695 0.00368654755145351 0.1766368 -0.9111965 -0.3721834 43 43 43
-0.0649183563214712 -0.0610574137961808 0.00380668071299831 0.1934466 -0.9059947 -0.3764997 86 86 86
-0.0644538275224142 -0.0606970441138688 0.00455148545295039 0.1736688 -0.9182778 -0.355816 72 72 72
-0.0700599125844412 -0.0600242268836442 -0.000686183299719895 0.1386728 -0.8759263 -0.4620855 81 81 81
-0.0718378595334463 -0.0603606354987565 0.00128394392520229 0.1500523 -0.8739567 -0.4622597 78 78 78
-0.0691469184380942 -0.059447611550087 -0.000590085711180771 0.1293821 -0.8746317 -0.4672041 108 108 108
-0.0695794097405844 -0.0606970441138688 0.00238914814978877 0.1601244 -0.8889074 -0.4291898 89 89 89
-0.0669365397912436 -0.059495652893776 -0.000590085711180771 0.1294117 -0.8764911 -0.4636982 99 99 99
-0.0659514538270407 -0.058774913529152 -0.000229701127707566 0.186004 -0.8554546 -0.4833218 129 129 129
-0.0643176905137472 -0.0598081004416886 0.00118784633666316 0.1988529 -0.8906841 -0.4088269 43 43 43
-0.0632845632058554 -0.0589670789039078 -6.15117213126071E-05 0.2177514 -0.8479066 -0.4833618 41 41 41
-0.0610261134129935 -0.0573573958671036 -0.000109567966162766 0.2400279 -0.8414564 -0.4840845 56 56 56
-0.0639212600213461 -0.0604086768424454 0.0027855786421899 0.2036291 -0.8975189 -0.3911458 102 102 102
-0.0623956195336752 -0.0598561417853776 0.00282160964995662 0.2199417 -0.8914811 -0.3960898 95 95 95
-0.0783008507710867 -0.0671360146796647 0.0102216455081109 -0.2377617 -0.9605433 -0.1443116 128 128 128
-0.0762394241315298 -0.0674531113898698 0.0114037248232965 -0.03487416 -0.9661573 -0.2555855 88 88 88
-0.0781967512589865 -0.0667194974219742 0.0130887481310968 -0.4248247 -0.9047692 0.03027429 59 59 59
-0.0774118772965842 -0.0672080170905534 0.0130326899626855 -0.4032629 -0.9149502 -0.01565794 83 83 83
-0.0760183803063803 -0.0679769170081559 0.0131768437960748 -0.1143378 -0.9687787 -0.2199878 133 133 133
-0.0748170784932547 -0.0673762213981095 0.0119034650662545 0.01956774 -0.9573712 -0.2881969 78 78 78
-0.0741683713418417 -0.0679769170081559 0.0135132077077035 -0.06518029 -0.9518591 -0.2995259 85 85 85
-0.0772677234631949 -0.0669437300956193 0.0157956781724099 -0.4956092 -0.8674319 -0.04396963 52 52 52
-0.0748170784932547 -0.068961943367714 0.0155554267504815 -0.2186539 -0.9593616 -0.17837 115 115 115
-0.0743045083505087 -0.0690259587562028 0.0169969799855355 -0.2426583 -0.9562339 -0.1635043 117 117 117
-0.0726227036935263 -0.0692983519828263 0.0176857265570764 -0.06444945 -0.984742 -0.1616461 106 106 106
-0.0308494142514639 0.000160967131858758 0.0383801611998681 0.0516721 -0.08894126 0.9946957 88 88 88
-0.0730631820184164 -0.0673522603309098 0.0131287875512246 0.09184852 -0.9217906 -0.3766509 92 92 92
-0.0724024645310812 -0.068145121315712 0.0155674370864038 0.0838746 -0.9513468 -0.2964866 66 66 66
-0.068125831268447 -0.0677246701514664 0.0169849696496133 0.1890926 -0.8938196 -0.4066086 83 83 83
-0.0848119131547385 -0.0613217007911149 0.00676189390212337 -0.8054972 -0.558791 -0.197299 127 127 127
-0.0825054220181876 -0.0643969428336564 0.009885266695321 -0.5854906 -0.8064202 -0.08298952 76 76 76
-0.0817365817052298 -0.0649736773765031 0.00868396488219539 -0.5020339 -0.8489556 -0.1650343 102 102 102
-0.0781566969376974 -0.0661269080436173 0.00705020156890193 -0.0298544 -0.953263 -0.3006632 86 86 86
-0.0781807176095419 -0.0667996060645524 0.00834760097056667 -0.06232373 -0.9535614 -0.2946803 131 131 131
-0.0738560430032187 -0.0644931447303239 0.00661772516757289 0.2525887 -0.8551641 -0.4526513 74 74 74
-0.0815924278718405 -0.0645651471412125 0.0132248851397637 -0.5454541 -0.8101387 0.2148375 48 48 48
-0.0853404871446066 -0.061946357468361 0.0124320390561227 -0.7907588 -0.5895888 0.1645769 108 108 108
-0.0828177503568106 -0.0641086947715226 0.0155674370864038 -0.586528 -0.7065399 0.3959625 98 98 98
-0.0804631880742483 -0.0652138840949479 0.0169729593136911 -0.6642656 -0.6485241 0.371709 91 91 91
-0.0799266270619803 -0.0641967904365006 0.0172612669804696 -0.6758258 -0.64599 0.3549033 125 125 125
-0.0837547651750021 -0.0632917535102311 0.0150268527606134 -0.6548622 -0.6406924 0.4008352 94 94 94
-0.0820569268685751 -0.0614819180762711 0.0177738222220544 -0.6606412 -0.5132025 0.5478836 142 142 142
-0.0781206659299307 -0.0658745419776383 0.0146304222682122 -0.5378492 -0.8373743 0.09758336 78 78 78
-0.0786452166062765 -0.0655502927100602 0.0165645184853677 -0.6755959 -0.7121192 0.1909357 39 39 39
-0.0841031543237143 -0.0600483071601334 0.0177297743895654 -0.729001 -0.3931694 0.560335 79 79 79
-0.0700599125844412 -0.0629554641044083 0.00560863343268672 0.2583886 -0.852919 -0.4536127 61 61 61
-0.0689547232610159 -0.0632437121665421 0.00786708322554866 0.2993504 -0.8688481 -0.394325 65 65 65
-0.0707326404076987 -0.065838540772194 0.0112787934878472 0.2922377 -0.8677486 -0.4020069 68 68 68
-0.0649423769933157 -0.0612015378272477 0.005752787266076 0.1985249 -0.9086981 -0.367227 37 37 37
-0.0643417111855917 -0.0616340291297379 0.00685800639182368 0.1968231 -0.9171312 -0.3465991 20 20 20
-0.0619871787053519 -0.0621385228431168 0.00825150338202754 0.2067987 -0.9299996 -0.3038667 36 36 36
-0.0655910841447287 -0.0632437121665421 0.0102216455081109 0.2814566 -0.8752794 -0.3932788 49 49 49
-0.0643417111855917 -0.0624749314582291 0.0100774767735604 0.2687621 -0.8855343 -0.3789405 21 21 21
-0.0617565087300711 -0.0623980414664689 0.0107598158457879 0.2812464 -0.913239 -0.2947796 28 28 28
-0.0654469303113394 -0.0653580081260148 0.0144021662810449 0.3276903 -0.8267186 -0.4573351 48 48 48
-0.0619967750531607 -0.0632149827277604 0.0132104757168893 0.3285655 -0.8808867 -0.3407102 31 31 31
-0.0611702970487051 -0.062715138176674 0.0137774947026376 0.3135435 -0.8682141 -0.3845709 17 17 17
-0.0592241755944662 -0.0552190196311417 -0.00416995557755193 0.1831929 -0.8483421 -0.4967455 37 37 37
-0.0581430069428854 -0.0565164935386124 -0.000926449622809494 0.2385456 -0.8587682 -0.4534459 32 32 32
-0.056220906160491 -0.055651510933632 -0.00227190526932439 0.1945337 -0.8784145 -0.4365141 32 32 32
-0.0535059741956168 -0.0544982802665177 -0.00289659174889287 0.1714907 -0.8842709 -0.4343454 49 49 49
0.0555162259119577 0.0678264248573837 0.0157796594241265 -0.03086399 0.1155268 0.9928247 35 35 35
-0.052088426731246 -0.0553344142234269 -0.000993713464438523 0.2011198 -0.8919845 -0.4048634 76 76 76
-0.0504867009145193 -0.0550268542563859 -0.000477954473197068 0.2989679 -0.879806 -0.3695397 78 78 78
-0.0553559831601553 -0.0567086589133683 0.00162030783683101 0.2156652 -0.8778553 -0.4276197 52 52 52
-0.0607618264180594 -0.0603366744315568 0.005272269521058 0.2097005 -0.9037043 -0.3732884 32 32 32
-0.0543228558522635 -0.0563243281638566 0.00166836408168117 0.2146174 -0.8843058 -0.4146597 20 20 20
0.0921639629381723 0.0157538998329696 0.0154593142607812 0.5328466 -0.8461249 -0.01212745 138 138 138
-0.0488929621201926 -0.0550748956000748 0.000202775273621475 0.3819096 -0.849938 -0.3629745 177 177 177
-0.0516559652310782 -0.0569489848411027 0.00291772213965694 0.2971445 -0.8962626 -0.3292697 89 89 89
-0.0518001190644675 -0.0568527829444352 0.00306187597304622 0.2985901 -0.895497 -0.330044 111 111 111
-0.0480640701276236 -0.0540598284995499 -0.000794306125342453 0.4548687 -0.8168256 -0.3548103 171 171 171
-0.0480280391198569 -0.0555795085227433 0.00304986563712398 0.4494281 -0.8452156 -0.2891797 149 149 149
-0.0463894478303366 -0.0540753257071915 0.00285044339686671 0.5075229 -0.8057643 -0.3052283 145 145 145
-0.056689428470748 -0.0603125941550675 0.00749467340499202 0.2957896 -0.907532 -0.2981514 99 99 99
-0.0576144329530173 -0.0602165114676896 0.00608915117770473 0.2921641 -0.8928659 -0.3426816 118 118 118
-0.0554040245038443 -0.0593515288627091 0.00604110983401576 0.2914406 -0.895997 -0.3350399 82 82 82
-0.0542187563401633 -0.0603046071326676 0.0114870074132089 0.3230777 -0.9103937 -0.2584649 163 163 163
-0.0543949476701193 -0.0597359788215104 0.00731448856383601 0.336459 -0.9041646 -0.2632141 143 143 143
-0.0504354409200125 -0.0579484355246964 0.00750188556700984 0.3897432 -0.8803911 -0.2702068 155 155 155
-0.0496698192578726 -0.0573653828895035 0.00556059208899776 0.3943921 -0.8826454 -0.2557187 149 149 149
-0.049205320261138 -0.0565164935386124 0.00632941750079433 0.3926312 -0.8828184 -0.2578223 125 125 125
-0.0493975154382162 -0.0578859698569718 0.00950086144000331 0.3728067 -0.8765157 -0.304525 134 134 134
-0.0505027047616415 -0.0585226666724625 0.011266783151925 0.3413098 -0.8856303 -0.3149073 100 100 100
-0.0569897464734488 -0.0610333335196915 0.0118554088214044 0.2791571 -0.9237299 -0.262287 42 42 42
-0.0559806696397238 -0.0607931268012467 0.0128645005562905 0.2847087 -0.9163281 -0.2815736 114 114 114
-0.0556923321706229 -0.0614658248221818 0.0142580124476556 0.2822654 -0.887452 -0.3643559 35 35 35
-0.0587676934224539 -0.0628113400733414 0.0149787965157632 0.3097402 -0.8515024 -0.4230895 40 40 40
-0.0592001549226218 -0.0632437121665421 0.015411258015931 0.3217638 -0.8306398 -0.4544288 112 112 112
-0.0564131311398917 -0.0637242448127213 0.016708672318757 0.3270864 -0.8274525 -0.4564393 48 48 48
-0.0554040245038443 -0.0625710141456071 0.0167567285636071 0.3298751 -0.8368685 -0.4368451 38 38 38
-0.0538663736802512 -0.0607931268012467 0.0142580124476556 0.2877535 -0.8913384 -0.3503053 133 133 133
0.00860135040460297 -0.0266761433875504 -0.0167355832716819 0.3678623 -0.9041833 -0.2170941 70 70 70
-0.0517040065747671 -0.0602725398337784 0.0136813822129373 0.2868657 -0.8957531 -0.3396093 126 126 126
-0.0518241397363119 -0.0619063031470719 0.0175896289685372 0.3324962 -0.876982 -0.3469135 109 109 109
-0.0500153175813132 -0.0614384066855851 0.0173402133324746 0.3281544 -0.8841758 -0.3324873 106 106 106
-0.0498643092137747 -0.0601066005027238 0.0153151604273919 0.3058084 -0.876454 -0.3718999 87 87 87
-0.0519923440438681 -0.0601684701240006 0.0148826989272241 0.3027063 -0.8779261 -0.3709646 39 39 39
-0.0486671201211386 -0.0601011168754044 0.0157188030818109 0.3157992 -0.885501 -0.3408209 100 100 100
-0.0460218659860068 -0.0551349770820084 0.00697812465220729 0.4063185 -0.8527582 -0.3281899 42 42 42
-0.0453130773526602 -0.0548106086051408 0.00714631405860225 0.3886786 -0.8566223 -0.3393039 22 22 22
-0.0446884206754141 -0.0552190196311417 0.0075787755587701 0.3540325 -0.8637019 -0.35872 51 51 51
-0.0404598287564688 -0.0551229369437638 0.0101735892632608 0.3022164 -0.821351 -0.4837849 51 51 51
-0.0379771462899618 -0.0540817630088273 0.0106701257565621 0.4384842 -0.7554419 -0.4868667 124 124 124
-0.0462901464921408 -0.0585186135566178 0.0132649394610528 0.3176955 -0.8701521 -0.3767028 76 76 76
-0.0461139551621847 -0.057557667473549 0.011839390073121 0.3249864 -0.8671744 -0.377349 62 62 62
-0.0447124413472586 -0.0575015198981705 0.0132969769576196 0.2584877 -0.8804923 -0.3973882 25 25 25
-0.043823467872756 -0.0581022155082169 0.0152190479376916 0.2469606 -0.9173825 -0.3121213 141 141 141
-0.04442413368048 -0.0592074048316422 0.0169729593136911 0.2929829 -0.9187963 -0.2645268 107 107 107
-0.0423819295388632 -0.0575736415183488 0.0155554267504815 0.2492354 -0.9127814 -0.3235921 32 32 32
-0.039690988443511 -0.0572852742469254 0.014450222525895 0.2883067 -0.8936329 -0.3439468 111 111 111
-0.0382206014615469 -0.0558629882132951 0.0130182656386499 0.4026274 -0.8179055 -0.4110009 140 140 140
-0.0366276673299246 -0.0550869357383195 0.0132248851397637 0.4897151 -0.7692199 -0.410463 127 127 127
-0.0379130712968283 -0.0561320435798112 0.0143541249373559 0.4132438 -0.8411095 -0.3489476 117 117 117
-0.0386098197919302 -0.0571171891486588 0.0148346277812127 0.3646747 -0.8672457 -0.338965 88 88 88
-0.0401234797460013 -0.0580421340262833 0.0175015333035592 0.275993 -0.9422104 -0.1899144 109 109 109
-0.0376968256455832 -0.0568768632209244 0.0172612669804696 0.3867238 -0.8857042 -0.2568516 116 116 116
-0.0361111036759787 -0.0563243281638566 0.0170330258944635 0.4525641 -0.8471107 -0.2785482 138 138 138
-0.0356546215039664 -0.0544342648780289 0.0147385301926736 0.5155398 -0.7772051 -0.3607922 101 101 101
-0.0341289512139731 -0.0554113042151871 0.0176456871369485 0.5090392 -0.8008031 -0.3155844 106 106 106
-0.0321347884160452 -0.0541138303077164 0.0172973128893975 0.5398004 -0.7623731 -0.3569352 126 126 126
-0.0776401332837515 -0.0676525485312882 0.0190872403720025 -0.7085733 -0.7042904 0.04357663 101 101 101
-0.0759943596345358 -0.0685695063865128 0.0213456901648645 -0.5501747 -0.8350461 0.002406371 110 110 110
-0.074000196836608 -0.0688018452918473 0.0187909307816629 -0.1973282 -0.9780989 -0.066213 99 99 99
-0.0743205419999533 -0.0691969048774186 0.0215298983195428 -0.2909805 -0.9549412 0.05846196 82 82 82
-0.0741923920136862 -0.068538154343361 0.0254628959038858 -0.3400615 -0.9313145 0.1304285 156 156 156
-0.0757300726396017 -0.0677606713569108 0.026671469483674 -0.6403469 -0.7415792 0.20004 163 163 163
-0.0742055050355368 -0.0678523433005753 0.0295735302308206 -0.5135883 -0.8532391 0.09060958 186 186 186
-0.070309805057662 -0.0698653113639298 0.0215331020691995 -0.05107956 -0.9968377 -0.06087203 124 124 124
-0.070091950081008 -0.0693704736030045 0.0229474308827523 -0.07668807 -0.996855 0.01997405 133 133 133
-0.0705164245587759 -0.0687697779929581 0.0236041399577264 -0.1148003 -0.9923553 0.04529643 151 151 151
-0.0684261492711478 -0.0697067630088273 0.0228593352177743 -0.01762628 -0.9986664 -0.04852563 125 125 125
-0.0642936698419028 -0.0688178193366471 0.0200242700913552 0.194298 -0.9274765 -0.3194304 144 144 144
-0.0641975573522025 -0.0687697779929581 0.0204567315915231 0.1860256 -0.946306 -0.264385 127 127 127
-0.0657472483140402 -0.0695385587012711 0.0216940793135766 0.09369663 -0.9835067 -0.1547111 140 140 140
-0.0643777719956808 -0.0692141902244034 0.0215138795712594 0.1327108 -0.9692709 -0.2071276 137 137 137
-0.0618189743977957 -0.0692262303626481 0.0231236222127084 0.2889647 -0.9491662 -0.1248311 112 112 112
-0.0677396825772696 -0.0699916732108536 0.0274517538884286 -0.07130873 -0.996186 -0.05028483 115 115 115
-0.0722823313695364 -0.0686255347526017 0.0253340157607202 -0.236935 -0.9665226 0.09846802 112 112 112
-0.0697836152535849 -0.0700190913474503 0.0296106639245156 -0.1852752 -0.9819184 -0.03885033 124 124 124
-0.072390454195159 -0.0691301476752701 0.0275684448817376 -0.279339 -0.957878 0.06662966 122 122 122
-0.0697716049176627 -0.0692983519828263 0.0274603220561151 -0.1741927 -0.9845373 -0.01852657 96 96 96
-0.0720300547105246 -0.0691541087424699 0.0292983206847314 -0.3459801 -0.9381867 0.01017336 172 172 172
-0.0633486381989889 -0.0692822587287369 0.024973631177247 0.2142218 -0.9750299 -0.05853 121 121 121
-0.0624196402055197 -0.0692822587287369 0.0249415936806802 0.2428361 -0.9684042 -0.05677941 105 105 105
-0.0660235456448965 -0.0698215615546647 0.0292128923276071 0.03972799 -0.9958755 -0.08156993 112 112 112
-0.0638612083417349 -0.069682682732338 0.0283372851946954 0.1039509 -0.9923702 -0.06629956 64 64 64
-0.0608339182359152 -0.0692022692954484 0.0269437733033303 0.2120324 -0.9696321 -0.1218849 107 107 107
-0.0825054220181876 -0.0609852921760026 0.01858270195514 -0.6919765 -0.4454442 0.5681091 156 156 156
-0.0792859069329672 -0.0634840380942765 0.0192554297783975 -0.7893142 -0.5560175 0.2604373 56 56 56
0.0567014940756387 0.0407410013878402 0.0282411727049951 0.1232926 0.1315149 0.9836172 141 141 141
-0.0793820194226675 -0.0631956708228532 0.0204567315915231 -0.8317565 -0.5054567 0.2295529 97 97 97
-0.080567317388671 -0.0625871073996964 0.0210493805745248 -0.8441666 -0.4787484 0.241211 114 114 114
-0.0780365637761526 -0.0664631974494401 0.0204086753466729 -0.7914731 -0.6064851 0.07580363 111 111 111
-0.0785891584378653 -0.06466134903788 0.0199281576016549 -0.8357618 -0.5220093 0.1703187 112 112 112
-0.0789015165788107 -0.0640445601737443 0.0211775156596307 -0.8402447 -0.4959473 0.2191462 142 142 142
-0.0774919859391623 -0.0656944167411271 0.0232597741225366 -0.8346354 -0.5326439 0.140265 118 118 118
-0.0784570149403983 -0.0635921609198991 0.0229674580433969 -0.8915514 -0.4215064 0.165736 115 115 115
-0.00234250941099456 0.0602140772545394 0.0344759377577905 0.1227563 0.4445848 0.8872853 127 127 127
-0.0837667755109244 -0.0591593634879533 0.018450558457673 -0.7482715 -0.3828954 0.5417387 73 73 73
-0.082577484033721 -0.0595917355811539 0.0188469889500741 -0.6983158 -0.4485618 0.5578058 105 105 105
-0.0837627819997244 -0.0583424222266617 0.018750891361535 -0.7653868 -0.3788632 0.5202363 70 70 70
-0.0839309565049582 -0.0564043175971451 0.0186948182919625 -0.7856119 -0.3762667 0.4911591 105 105 105
-0.0828657917004996 -0.0560840022361222 0.0195917936900262 -0.8366239 -0.4058221 0.3679251 119 119 119
-0.0821690432053976 -0.0564204108512345 0.0204086753466729 -0.8440729 -0.4204848 0.3327664 36 36 36
-0.0813041202050619 -0.0601803910529557 0.0236041548588876 -0.7883803 -0.5963041 0.1512547 112 112 112
-0.0838989190083914 -0.0539457452094498 0.0217781665661935 -0.8773702 -0.4765467 0.05589924 101 101 101
-0.0795261732560568 -0.0609372508323136 0.0290580543616418 -0.8502032 -0.4988987 0.1680914 67 67 67
-0.0786612502557211 -0.06511780140757 0.0250697287657861 -0.8895785 -0.417625 0.1850391 117 117 117
-0.0780125431043082 -0.0632918727195206 0.0267275425532464 -0.8952127 -0.4114135 0.1712693 73 73 73
0.0912509687918253 0.0153694498741683 0.016540482912362 0.5310949 -0.8473013 0.004332609 133 133 133
-0.0773638359528952 -0.065742458084816 0.0288658442834024 -0.8523484 -0.5091668 0.1193784 137 137 137
-0.0783729425889426 -0.0609372508323136 0.0277606549599771 -0.8378919 -0.5115826 0.1903167 89 89 89
-0.0826495758515768 -0.0582943808829728 0.0276165011265878 -0.7185143 -0.6618589 0.2137289 56 56 56
-0.0819528273564749 -0.0580781352317277 0.0291181209424142 -0.6917342 -0.6668085 0.2772549 118 118 118
-0.0840430728417807 -0.0553632628714982 0.02684766081363 -0.8314933 -0.553948 0.04195682 59 59 59
-0.0741374961358481 -0.0674448859488908 0.0310076030829553 -0.6055014 -0.7867463 0.1199929 187 187 187
-0.074132340334075 -0.0672921788489762 0.0331785234549646 -0.6363024 -0.7505774 0.1781933 150 150 150
-0.0740482381802969 -0.0674174678122941 0.0348860922196511 -0.6829232 -0.6614367 0.310028 175 175 175
-0.072390454195159 -0.068499411324257 0.0354790243247155 -0.5688679 -0.7612951 0.3111576 160 160 160
-0.0661436788064413 -0.0697067630088273 0.0325658622124795 -0.04147867 -0.9896626 -0.1372861 95 95 95
-0.0705164245587759 -0.0699650895392838 0.0356111678221826 -0.3851456 -0.8984872 0.2106744 155 155 155
-0.0682339242917471 -0.0705597054755631 0.0356772395709161 -0.2416147 -0.9561248 0.1656731 105 105 105
-0.0659875146371298 -0.0704636227881852 0.0351246300080423 -0.09891932 -0.9915944 0.08339984 113 113 113
-0.0730872026902609 -0.0686255347526017 0.0329983386138085 -0.5082704 -0.8517827 0.1269941 193 193 193
-0.0718618802052908 -0.0691781890189591 0.0350285324195031 -0.5371051 -0.8069522 0.2456548 165 165 165
-0.0624196402055197 -0.0703475129401627 0.0331104549506311 -0.02271566 -0.9970191 -0.07373521 104 104 104
-0.064418601177352 -0.0694616687095109 0.0313357266524438 -0.006953266 -0.9797206 -0.200248 43 43 43
-0.0651105514985495 -0.0703074586188737 0.0352087321618203 -0.06571375 -0.9902861 0.122536 141 141 141
-0.0678110889417105 -0.071162666062111 0.0368905517199639 -0.2232453 -0.9426404 0.2481744 144 144 144
-0.0721208325845175 -0.068027580956215 0.0367410632708673 -0.587883 -0.6628403 0.46372 178 178 178
-0.0706685654145651 -0.0677766454017106 0.0380117597916726 -0.4327962 -0.5912035 0.680563 170 170 170
-0.0701216927987509 -0.0673418891227189 0.0386547448971871 -0.3703312 -0.5678896 0.7350892 171 171 171
-0.0680717698556357 -0.0678267133033219 0.039323196087182 -0.2192608 -0.5397335 0.8127807 158 158 158
-0.0663118533116751 -0.0711563479697648 0.0369546267130975 -0.1084865 -0.9610065 0.2543563 174 174 174
-0.0641083291989737 -0.0697993886268082 0.0386272969582681 0.1052746 -0.6490506 0.7534259 171 171 171
-0.0639161042195731 -0.0678978812491837 0.0394579025843743 0.1024575 -0.5220934 0.8467119 134 134 134
-0.0761625341397696 -0.0661388289725724 0.031328514490426 -0.7324108 -0.6606185 0.1647955 149 149 149
-0.077952491424697 -0.0636161219870988 0.0312083813288812 -0.8910331 -0.4201193 0.1719301 90 90 90
-0.0775800816041403 -0.0637002837455216 0.0333346876242761 -0.8403254 -0.4385581 0.3186222 131 131 131
-0.078132676265853 -0.0625710141456071 0.0307238700726632 -0.8966934 -0.4078793 0.1719753 68 68 68
-0.0767151288014822 -0.0640366923606339 0.0334308001139764 -0.8336909 -0.4512213 0.3183689 126 126 126
-0.0764268211347037 -0.0640726935660783 0.0345600250104074 -0.8128428 -0.4758292 0.3359658 134 134 134
-0.0755859188062125 -0.0655262124335709 0.0348483326771859 -0.7450439 -0.5360615 0.3969227 142 142 142
-0.0747882298451834 -0.0658770453727189 0.0356123599150781 -0.7226821 -0.5511739 0.4170587 147 147 147
-0.0763427189809256 -0.062258685806984 0.0354850294926767 -0.8236904 -0.4461209 0.3500146 127 127 127
-0.0780846051198416 -0.0602302205359879 0.0351538064816598 -0.83722 -0.4607882 0.2945115 82 82 82
-0.079406040094512 -0.0593155276572648 0.0314006063082818 -0.7834407 -0.564932 0.2589836 69 69 69
-0.0399792961102896 0.0569104302132186 -0.000830337133109177 -0.4549251 0.8552384 0.2482143 60 60 60
-0.0799970797521048 -0.0579579722678605 0.0311339053252343 -0.7235425 -0.6255686 0.2918049 103 103 103
-0.084699796817916 -0.0540097605979386 0.0316208454707269 -0.8107285 -0.4066574 0.4211282 91 91 91
-0.0806473962289267 -0.0564523589408341 0.0331264736989144 -0.7529595 -0.5217108 0.4010858 87 87 87
-0.0801028183919363 -0.0577418458259049 0.0330944362023477 -0.7565147 -0.5789051 0.3042275 70 70 70
-0.0740542582494192 -0.0657485377585831 0.0369446131327752 -0.6786009 -0.5493789 0.487528 148 148 148
-0.0743685833436423 -0.0634840380942765 0.0376113357880715 -0.6801702 -0.5349537 0.5011917 124 124 124
-0.0721582046967917 -0.0637403380668107 0.0406386109927301 -0.3540936 -0.5270402 0.7725583 163 163 163
-0.0755378476602011 -0.0610333335196915 0.0404464009144906 -0.6272647 -0.494288 0.6018458 138 138 138
-0.074400620840209 -0.0603766095435563 0.0414074513056878 -0.5088425 -0.4085364 0.7577448 180 180 180
-0.0738920740109854 -0.0615919482505265 0.0410170259812478 -0.5355777 -0.5003473 0.6803008 160 160 160
-0.0736638180238181 -0.0629554641044083 0.0408308210709695 -0.5142586 -0.5364373 0.6691585 155 155 155
-0.0796222857457571 -0.0572372329032365 0.0375152232983712 -0.8481886 -0.3948064 0.3531345 136 136 136
-0.0778924099427634 -0.0592554461753312 0.0372429343798761 -0.8034496 -0.4815636 0.3500931 129 129 129
-0.0783633164388113 -0.0579195868766251 0.0374479594567422 -0.8198703 -0.4325218 0.3751501 132 132 132
-0.0781206659299307 -0.0575916421210709 0.0392571094372872 -0.7869704 -0.3841546 0.4828072 154 154 154
-0.0760504178029471 -0.0596718442237321 0.0406546297410134 -0.6551281 -0.4156527 0.6309041 159 159 159
-0.0772196821195059 -0.0592554461753312 0.0399658831694726 -0.7331503 -0.4052977 0.5460993 178 178 178
-0.077171640775817 -0.0578618895804826 0.0404704364874963 -0.7040997 -0.3409221 0.6229091 130 130 130
-0.0763753227216177 -0.0541687857901993 0.0418330582717065 -0.3674684 -0.0129268 0.9299462 167 167 167
-0.07078071155371 -0.0648294341361466 0.0400619956591729 -0.2995916 -0.5451202 0.7829999 167 167 167
-0.0506468585950308 -0.0119001519477311 0.0404704364874963 0.05274567 0.0890917 0.9946259 176 176 176
-0.0700972846967154 -0.0636815678870621 0.0412899854519967 -0.1613389 -0.4640427 0.8709961 175 175 175
-0.0691949895841055 -0.06511780140757 0.0403503033259515 -0.1370342 -0.4593379 0.8776277 133 133 133
-0.0246987513524466 0.054748092910057 0.0201443883517388 -0.5005575 0.6640562 0.5554021 182 182 182
-0.0643417111855917 -0.0642528188025895 0.0402862283328179 0.1708478 -0.2053908 0.9636523 100 100 100
-0.0624917022210532 -0.0659106623923722 0.0395094009974603 0.1799859 -0.2841907 0.9417222 64 64 64
-0.0604254774075919 -0.065742458084816 0.0393492135146264 0.1403201 -0.2645405 0.9541114 83 83 83
-0.0614586047154837 -0.0644690644538346 0.0397736730912332 0.1820324 -0.1587448 0.9703939 71 71 71
-0.0636209420186453 -0.0633399140632096 0.0401100370028619 0.2052929 -0.1405182 0.9685605 124 124 124
-0.0601062647324972 -0.0636968266761246 0.039608925853074 0.1927921 -0.138969 0.971349 122 122 122
-0.0663530401212149 -0.0578618895804826 0.0416133853533868 0.2779939 -0.004559368 0.960572 131 131 131
-0.0684261492711478 -0.0557636868750992 0.0420000853875283 0.2079101 0.04906225 0.9769167 101 101 101
-0.0643897823316031 -0.0601925504004899 0.0406386109927301 0.2664056 -0.08006028 0.9605303 123 123 123
-0.0626759103757315 -0.0581181895530167 0.0403983595708017 0.2668595 -0.03819914 0.9629781 153 153 153
-0.0622754863721304 -0.05483468888163 0.0401580932477121 0.2679011 -0.003579783 0.9634398 109 109 109
-0.0738560430032187 -0.0591593634879533 0.0424165281394128 -0.3602495 -0.2614253 0.8954759 132 132 132
-0.0745960346681052 -0.0558821809089127 0.0425895306208734 -0.244426 -0.06166538 0.9677052 173 173 173
-0.0756339601499014 -0.0558918368613663 0.0424645992854241 -0.3805018 -0.1170574 0.9173418 180 180 180
-0.0720540753823691 -0.0602565657889786 0.0425526949504022 -0.191352 -0.2690338 0.9439307 156 156 156
-0.0702713600617819 -0.059803212860817 0.0426183494666223 0.05871328 -0.1490131 0.9870906 148 148 148
-0.0538543633443289 -0.01306542275309 0.0399298372605447 -0.2095742 0.08458652 0.9741272 141 141 141
-0.0722382835370474 -0.0583904635703507 0.0427689406016473 -0.0886011 -0.1009063 0.9909429 149 149 149
-0.0690508357507162 -0.0575256001746598 0.0423684867957238 0.1541795 -0.01363232 0.9879488 114 114 114
-0.0583352021199637 -0.0672801387107316 0.022971466455758 0.385764 -0.8959591 -0.2200988 89 89 89
-0.0600570610982352 -0.0684013020789567 0.0271600040534143 0.1922367 -0.9657441 -0.174308 63 63 63
-0.0564611724835806 -0.0678567540442887 0.0280009212830667 0.2672576 -0.908505 -0.3212351 46 46 46
-0.0520163647157126 -0.0670879733359757 0.0294424745181207 0.4048215 -0.852316 -0.3311751 71 71 71
-0.0576144329530173 -0.0652619254386368 0.0179099741318826 0.3497826 -0.8132823 -0.4649991 92 92 92
-0.0543708971959525 -0.0632437121665421 0.0179340097048883 0.3608267 -0.8245518 -0.4357963 120 120 120
-0.0572780541402274 -0.0666074406897965 0.0219463559725885 0.4089464 -0.8513001 -0.3287111 100 100 100
0.0904020496386118 0.0401323187553939 0.0215459170678262 0.2230882 0.5604551 0.7975724 86 86 86
-0.0550676754933768 -0.0654540908133927 0.0217060896494989 0.4369044 -0.8292058 -0.3486148 112 112 112
-0.0573741666299277 -0.0667996060645524 0.0231476577857141 0.3929118 -0.8792648 -0.2692836 93 93 93
-0.0554040245038443 -0.0659827840125504 0.0225470068791513 0.435271 -0.8396896 -0.3247469 108 108 108
-0.0490130952817374 -0.0611774575507584 0.0178619178870324 0.3334586 -0.8927748 -0.3029168 142 142 142
-0.0515118113976889 -0.0626191746985856 0.0206969830134515 0.3954143 -0.8512931 -0.3448878 96 96 96
-0.0539144150239401 -0.0652619254386368 0.0231836887934808 0.4313001 -0.833786 -0.3446465 84 84 84
-0.0522005430680685 -0.0643649947440568 0.0231796803811196 0.4141284 -0.8321129 -0.368898 67 67 67
-0.053943233869689 -0.0659250867164078 0.0250697287657861 0.4164284 -0.8378159 -0.3530606 102 102 102
-0.0526170007211142 -0.0656463753974381 0.025237918172181 0.4239326 -0.827225 -0.3687547 151 151 151
-0.0498299769383841 -0.0638844620978776 0.0247814210990075 0.3886802 -0.8500022 -0.3555614 76 76 76
-0.0483884088021689 -0.0639325034415665 0.0252939763405923 0.3849095 -0.8469123 -0.3668573 69 69 69
-0.0502528420907431 -0.0658673894202653 0.0291926118472222 0.412354 -0.8473381 -0.3346375 101 101 101
-0.0501903764230185 -0.0655382525718156 0.0279168191292886 0.4102903 -0.8425006 -0.3490768 111 111 111
-0.049253361604827 -0.0648294341361466 0.0283853265383844 0.3705675 -0.8619017 -0.3461289 77 77 77
0.0505508311766214 0.0023954260551986 0.0300671609976892 0.1637265 0.03995832 0.9856962 45 45 45
-0.0478918723088675 -0.062715138176674 0.0237402918675546 0.3912771 -0.845404 -0.3635853 34 34 34
-0.0445122293454581 -0.0605047595298234 0.0231476577857141 0.3722776 -0.868001 -0.3286085 48 48 48
-0.0423338583928519 -0.0592074048316422 0.0196398499348764 0.290276 -0.9329805 -0.2128081 76 76 76
-0.0443160108548575 -0.0598079812323991 0.0214778336623315 0.3594895 -0.893459 -0.2692552 73 73 73
-0.0437754265290671 -0.0584865462577286 0.0211775156596307 0.3201894 -0.9118997 -0.2567443 41 41 41
-0.0409403316003256 -0.059087241867775 0.0190391990283136 0.2608942 -0.9483635 -0.1803908 88 88 88
-0.0398191384297781 -0.0580861222541276 0.0191112759450082 0.2778834 -0.9469982 -0.1611681 98 98 98
-0.0385473541242056 -0.0577802312171403 0.0191497209408883 0.346586 -0.9209564 -0.1780938 81 81 81
-0.0156169108373099 0.0661124336922225 -0.000878393377959336 -0.2064274 0.9630516 0.1729718 99 99 99
-0.0381893686276846 -0.0581982981955949 0.0212255570033197 0.324528 -0.9257553 -0.1940587 41 41 41
-0.0370000771504813 -0.0571891915595475 0.018102184210122 0.4085473 -0.8827569 -0.2320115 98 98 98
-0.0366637281400137 -0.0569970261847916 0.0188229682782296 0.4039511 -0.8870464 -0.2235446 78 78 78
-0.047955947302001 -0.0628113400733414 0.0248775335887078 0.3812793 -0.8466827 -0.3711531 41 41 41
-0.0469468704682761 -0.0628593814170304 0.0239645394423608 0.3622335 -0.8548763 -0.3714476 34 34 34
-0.0425580910664969 -0.0620745074546281 0.0270398708918695 0.4091556 -0.8449672 -0.3444156 129 129 129
-0.0481481722814017 -0.0648294341361466 0.0294664951899652 0.3543889 -0.8632557 -0.3594415 40 40 40
-0.0442399255258017 -0.0628113400733414 0.027584463630021 0.3928853 -0.8488311 -0.3537327 34 34 34
-0.0432468525391989 -0.0625229728019181 0.0283372851946954 0.3999257 -0.8462659 -0.3519851 97 97 97
-0.0398351422769003 -0.0600483071601334 0.0259827229121331 0.3760709 -0.8766817 -0.2999995 86 86 86
-0.0405078701001578 -0.0605047595298234 0.0275684448817376 0.3966117 -0.8575664 -0.3275349 67 67 67
0.00371207080064484 0.0115373480522689 0.0359054955580835 0.08981396 -0.1246755 0.9881242 203 203 203
-0.0405559412461691 -0.0605768811500016 0.0286496135333184 0.3988323 -0.84746 -0.3503491 14 14 14
-0.0586715809327536 -0.0702592980658951 0.031460657987893 0.1047568 -0.9465383 -0.3051086 25 25 25
-0.0547312966805868 -0.069009984711403 0.0308359864094857 0.3604738 -0.8619153 -0.3565959 127 127 127
-0.0586042872888022 -0.0715471160209122 0.0351606759169702 0.02133021 -0.9350513 0.3538701 143 143 143
-0.0576384536248618 -0.0706678283011857 0.033502877030671 0.1548643 -0.9868615 -0.04605912 52 52 52
-0.0555001369935446 -0.0710281979834977 0.0347762557604913 0.2555222 -0.9608641 0.1069985 153 153 153
-0.0521845392209463 -0.0670879733359757 0.0309320988991861 0.4007736 -0.8464742 -0.3505168 21 21 21
-0.0506308547479086 -0.0677126300132218 0.0329663011172418 0.4157733 -0.8921 -0.17689 72 72 72
-0.0537462405187064 -0.0702113759314957 0.0344399067500238 0.3855875 -0.9216796 -0.04276578 77 77 77
-0.0518962315541678 -0.068913902024025 0.0352087321618203 0.4225471 -0.895814 0.1377361 72 72 72
-0.0583111814481192 -0.0698108327186051 0.0372989925482873 0.1525923 -0.6822159 0.7150504 153 153 153
-0.0564227274877005 -0.0701343667304459 0.0374383482077722 0.1102894 -0.7046852 0.7008958 122 122 122
-0.0576624742967062 -0.0709801566398087 0.0370347055533532 0.1230346 -0.7103299 0.6930324 193 193 193
-0.056509243629592 -0.0688658606803361 0.0383801611998681 0.1253737 -0.5569165 0.8210515 55 55 55
-0.0560707620603018 -0.0677606713569108 0.0380558225253228 0.1716087 -0.4582782 0.8720846 52 52 52
-0.0574222079736166 -0.0677846324241105 0.0385243150332574 0.1167976 -0.390225 0.9132813 68 68 68
-0.0522325805646353 -0.0696346413886491 0.0360736700633172 0.4037581 -0.8514013 0.3348062 140 140 140
-0.0522445909005576 -0.0677486312186661 0.0374191257098321 0.303541 -0.5121893 0.8034457 133 133 133
-0.0476836434823447 -0.0674723040854874 0.0352247509101037 0.42206 -0.8825423 0.2073273 91 91 91
-0.0467066041451865 -0.0671119344031754 0.0366262647250299 0.4239438 -0.7227859 0.5457584 137 137 137
-0.0587580672723227 -0.0660019767081681 0.0389471801856164 0.1311531 -0.2620928 0.956089 69 69 69
-0.0569897464734488 -0.0655983340537492 0.0385723712781076 0.1441673 -0.1789604 0.9732363 70 70 70
-0.0584953896027975 -0.062346781471962 0.0393091740944986 0.1959904 -0.07981067 0.9773526 102 102 102
-0.0542748145085745 -0.0636042010581437 0.0385002943614129 0.1537993 -0.0562755 0.9864983 65 65 65
0.0835946627634592 0.0107564079964217 0.00455148545295039 0.3929688 -0.8860274 0.2460305 148 148 148
-0.0562329164964133 -0.0603005540168229 0.0387285503485803 0.1926695 -0.03347846 0.9806924 115 115 115
-0.0543709269982748 -0.0661990296637955 0.0380918535330896 0.1849398 -0.2437467 0.9520424 38 38 38
-0.0503489545804434 -0.0657040726935807 0.0376497807839517 0.2215645 -0.3569322 0.9074737 65 65 65
-0.050118314407485 -0.0643008601462784 0.037979737196267 0.1972025 -0.1682734 0.9658133 104 104 104
-0.050118314407485 -0.0641567361152116 0.0384762736895684 0.1972025 -0.1682734 0.9658133 106 106 106
-0.0483163467866354 -0.0644210231101456 0.037803545866311 0.2898513 -0.2291347 0.9292381 98 98 98
-0.0543789140206747 -0.0618021142280045 0.0384121986964349 0.1670883 -0.00830508 0.985907 67 67 67
-0.0547312966805868 -0.0560599219596329 0.0390288683512811 0.2060322 -0.02742283 0.9781609 123 123 123
-0.0558004549962454 -0.0560239207541886 0.0389087351897363 0.1829675 -0.0210875 0.9828928 133 133 133
-0.0597046784383231 -0.0557636868750992 0.0397015961745385 0.2074329 -0.0191974 0.9780608 120 120 120
-0.0598248115998679 -0.0547145259177628 0.0394853654244546 0.2164497 -0.01423506 0.97619 112 112 112
-0.0301045946103506 0.0528260815346298 0.0168287905791406 -0.5850814 0.616381 0.527024 110 110 110
-0.0586235097867422 -0.0553151023185197 0.0395814630129937 0.195372 -0.01276116 0.9806462 87 87 87
-0.0518962315541678 -0.0586307894980851 0.0378275665381555 0.2281492 0.0005147878 0.973626 41 41 41
-0.0499933532697134 -0.0574870955741349 0.0372941943743829 0.2357899 -0.02340709 0.9715222 64 64 64
-0.0480712822896414 -0.0597551715171281 0.0372173043826226 0.1635149 0.09625851 0.9818336 40 40 40
0.113066626407487 0.0315630781853256 -0.0146213022133704 0.6429948 -0.3288391 -0.6916809 29 29 29
-0.0485874883157187 -0.0579168450629655 0.0369797947743539 0.1727652 0.01695172 0.9848171 40 40 40
-0.0518289379102164 -0.0560840022361222 0.0378419759610299 0.2158528 -0.05174634 0.9750538 83 83 83
-0.0501363150102072 -0.0562401664054337 0.0373530539610986 0.2426407 -0.06870143 0.9676805 71 71 71
-0.0455053023320608 -0.0647813927924576 0.0309320988991861 0.3687499 -0.8682414 -0.3319342 49 49 49
-0.0481721929532462 -0.0662229907309952 0.0331424924471978 0.3859598 -0.9121002 -0.1382327 79 79 79
-0.0446884206754141 -0.0641567361152116 0.0302593561747674 0.3823623 -0.8604508 -0.336784 19 19 19
-0.0422697833997183 -0.0639805447852555 0.0328862073758248 0.5069067 -0.8567391 -0.09509872 113 113 113
-0.0477157107812338 -0.0668476474082413 0.034632101927102 0.4727907 -0.8345038 0.2829705 106 106 106
-0.0436793140393668 -0.0647813927924576 0.0342957380154733 0.5962706 -0.7913834 0.1348094 121 121 121
-0.0389221779328757 -0.0609852921760026 0.0302593561747674 0.4407648 -0.8663543 -0.2348544 23 23 23
-0.0392104855996542 -0.0610813748633805 0.0303554686644677 0.4491025 -0.8615161 -0.2368478 17 17 17
-0.040291654251235 -0.0632437121665421 0.0331665131190423 0.4522274 -0.8918553 -0.009188983 96 96 96
-0.0399792961102896 -0.0628113400733414 0.033238590035737 0.5220091 -0.8459692 0.108824 159 159 159
0.0153526791113443 -0.0227598798072282 -0.0207479444405433 0.3581818 -0.9249198 -0.1273935 104 104 104
-0.0394026807767325 -0.061850274780983 0.0346801581719522 0.5376951 -0.6684568 0.5138574 101 101 101
