ply
format ascii 1.0
comment File exported by Rhinoceros Version 7.0
element vertex 460
property float x
property float y
property float z
property float nx
property float ny
property float nz
property uchar red
property uchar green
property uchar blue
end_header
-0.0716746009543139 -0.0450728063117272 -0.0089071052147314 -0.3989514 -0.08757901 0.9127802 204 205 211
0.0240585815781491 0.0838615508932186 -0.00871413045528555 0.08229562 -0.01174782 0.9965387 187 189 191
0.0437929313574614 0.158535179750992 0.00592839099447265 0.9295315 -0.2199983 -0.2959257 161 164 158
0.0165403103912296 0.16237307654597 -0.0021386370380557 0.1599037 -0.9726788 0.1683058 179 180 176
0.0556853496382879 -0.135065938268485 -0.0168551412181118 0.04496722 0.3979878 0.916288 212 214 220
0.000814976298864067 -0.136925265507417 -0.00828255832563105 0.0408555 0.998272 0.04223534 204 208 215
0.0205922517001267 0.0563678118780209 -0.00972903275486783 -6.522892E-05 -0.03631982 0.9993402 188 190 191
0.00566533134386216 -0.073690865865087 -0.0131975622419088 -0.02453765 -0.05921464 0.9979436 203 206 207
-0.0172234651327066 0.0921779766342259 -0.00676925490361793 0.06474298 -0.05323549 0.996481 190 192 195
-0.0407032053803116 -0.0373412609580928 -0.0100180814590618 0.04260758 -0.003086755 0.9990871 192 193 196
0.0403635156504829 0.0857328768449612 -0.00943662345502413 -0.0295588 -0.04618726 0.9984954 187 187 189
0.011678638870722 0.142766113815526 -0.00620879054982859 0.02371789 -0.03462702 0.9991188 192 194 197
0.0437040964435016 -0.00386326352461208 -0.0129161148581191 0.06800751 0.01326763 0.9975966 191 193 196
0.0121923648996107 0.0565029601660858 -0.00912904828180752 0.03069222 -0.02477444 0.9992218 198 196 201
-0.0125443294986036 -0.0940693020828866 -0.0135737757791122 -0.01202146 -0.06160431 0.9980283 171 176 176
0.00537314800556099 -0.126683856473352 -0.0151334159217099 0.01248558 -0.01367484 0.9998285 200 202 206
-0.0921351119066547 -0.125211570552379 0.000396834916063321 -0.9835706 -0.1341233 0.1208292 188 193 199
-0.0471667894411871 -0.135822524889133 -0.0119764159166424 0.101005 0.6582374 0.7460037 206 209 216
-0.031012185335566 0.106375766410765 -0.00531345022181859 0.00325995 -0.05110752 0.9986879 187 193 192
-0.0315538678527143 0.162891616909683 0.000106963323254522 -0.9529347 -0.2017774 0.2262769 215 217 221
0.0616900441535972 0.162656444931345 0.00542378066569058 -0.08092587 -0.9944916 -0.06661472 140 141 131
-0.0740887989549668 -0.125769497780211 -0.0110584076588036 0.05154517 -0.01123036 0.9986075 204 207 210
-0.0351280683633566 -0.00918439537162707 -0.00899884773612056 0.02081412 -0.07376847 0.9970582 194 197 199
-0.0923104004724227 -0.127472375998731 0.00521713602502663 -0.968133 -0.1563542 0.195632 181 188 187
-0.0392207303869363 0.0740425872618995 -0.00629910997268426 -0.07907788 -0.03440357 0.9962746 188 190 191
0.0377840089226269 -0.137280095527419 -0.013476448695773 0.02814887 0.9780298 0.2065558 213 218 226
0.0193225171135243 0.0454277647634032 -0.00987908433914428 0.02448169 0.001764895 0.9996987 245 185 229
-0.0272850600363044 0.0093523534302884 -0.00921265680348815 0.02330108 -0.05207329 0.9983714 193 194 199
-0.049521424102176 -0.000288676444621716 -0.00846680104055869 0.02224422 -0.0141992 0.9996517 200 202 207
-0.0541105891352867 -0.136502566422946 0.00234571452322846 0.05335759 0.9985566 -0.006145669 201 204 214
-0.0320348956618075 0.158956675574702 0.00761048897106406 -0.9830474 -0.02117586 0.1821247 167 174 174
0.0636660475800357 -0.0193106465124013 -0.0143139386373355 0.361956 -0.1157901 0.9249759 178 181 184
0.0331476922382141 -0.137947473025776 0.0008234532588062 0.05093236 0.9987004 0.001844747 204 208 214
0.032287486802008 0.0595957807870291 -0.0104864570787795 -0.01923036 -0.03934003 0.9990408 180 183 182
0.0555715096538771 0.0811278435280314 -0.011037061891512 0.03439131 -0.02237307 0.999158 184 186 189
0.0441460346457634 0.0455339915171222 -0.0108288923847525 0.07736004 -0.01454672 0.9968971 190 191 193
-0.000678849876221355 0.100560270419146 -0.00705048839979025 0.05384745 -0.02796747 0.9981574 188 190 191
-0.0926815803873899 -0.137441028458135 0.00510950590584616 -0.2980885 0.9543799 0.01738761 207 211 221
0.0578743123146708 -0.0106386144144275 -0.0136246029574331 -0.006594286 -0.0459275 0.998923 184 186 188
0.0366117443595808 0.151024703417321 -0.00711781932886077 0.03032856 -0.0343771 0.9989486 189 191 194
0.0607469943086105 0.163453762276998 0.0037422013378032 0.1136532 -0.9927006 0.04035486 145 145 133
-0.0223327044102453 -0.0945427074811493 -0.012781290653035 0.04317743 -0.02507639 0.9987527 207 208 213
-0.0369445140754989 0.116905455868785 0.000952577576407182 -0.9806802 -0.1498309 0.1257663 194 196 204
0.0565534499448486 0.145430852292446 -0.00787380872537322 -0.01354138 -0.06656793 0.99769 190 191 193
0.0530322605863107 0.109642304867767 -0.00926399789466273 0.06687717 -0.07005098 0.9952991 188 190 191
0.0441397374192396 0.00474209773212375 -0.0134708763323423 0.043343 -0.01672723 0.9989202 168 169 172
0.00623312820584387 0.15598287774005 0.00784073638688562 -0.2391969 0.5144159 -0.8235054 174 176 170
0.0252730572163893 0.0779482612983085 -0.0090522375779887 0.04911953 -0.0488454 0.9975978 184 186 188
0.0283446406018151 -0.0324341255404208 -0.0131690721602834 0.03521732 0.01676799 0.999239 188 190 193
-0.0351792411530327 -0.00842473843450375 -0.00927725700162435 0.02188972 -0.05817001 0.9980667 191 193 197
-0.0148987328959211 0.112155912089703 -0.00644967815715797 0.007975016 -0.0380941 0.9992423 186 185 189
-0.0146015557380808 0.0825847354392508 -0.00709355777851781 0.06636583 -0.0009785498 0.9977949 187 189 193
-0.0532179648541222 0.0360464302665386 -0.00568413769676671 -0.8357116 -0.1432272 0.5301623 187 193 195
-0.0829612460725859 -0.0746052370987602 0.00593001699467252 -0.9243984 -0.1875311 0.3321443 179 181 188
-0.0389797215599783 -0.0804541966211116 -0.0119572940795511 0.05031609 -0.02752557 0.998354 193 196 198
-0.0540823583187386 0.0367879358082921 0.00486107351651027 -0.9687926 -0.1941099 0.1541501 185 189 192
0.0141835615485548 0.0154900599869916 -0.0107389369193167 -0.001581397 -0.03458948 0.9994004 250 189 238
-0.0369263183834887 0.0469515705596912 -0.00741329832296592 0.008158271 -0.04600558 0.9989079 198 198 204
-0.0014349676006995 -0.137084449268669 -0.0081759650076226 0.01451778 0.9985715 0.05142317 184 188 197
0.0549741741373539 0.0584350449788706 -0.0111150500685287 0.05606053 -0.0208847 0.9982089 187 190 191
0.0594077402762385 -0.0249710753626255 -0.0141834466648609 0.006215307 -0.04335537 0.9990404 195 198 200
-0.0591825103014982 -0.0622366818673561 -0.010042306965081 0.01905939 -0.005080651 0.9998055 203 205 207
-0.0338545508411205 0.141927904659412 0.00585450112340405 -0.9814949 -0.04687389 0.1856627 177 180 186
-0.0816504050684228 -0.0847019033493301 -0.00714741433646279 -0.9093227 -0.1631262 0.3827821 185 189 196
0.0459433000173526 0.164285611071056 -0.00239434618938997 -0.3147322 -0.9455416 -0.08303481 142 144 137
-0.00658188773812296 0.0826004374106892 -0.00750414965271537 -0.006097873 -0.05203749 0.9986265 192 193 196
-0.019981716562248 0.112350881338506 -0.00584541952096293 0.02505465 -0.0812376 0.9963798 189 191 195
0.0725227058612548 0.117333329572753 0.00362042141144872 0.8844352 0.005796557 0.466627 171 170 165
0.0539331753169927 -0.138279170692902 -0.000871100347839521 0.05152091 0.9976605 0.04493443 200 206 211
0.0550847228063684 0.00896512993054466 -0.0127567183693777 0.03213609 0.01015013 0.999432 192 193 195
0.0377788505521501 -0.0215457436106676 -0.013122036495166 0.1088881 -0.009910444 0.9940046 188 191 193
-0.0533581620719681 0.00503144121043109 -0.00805216452373528 0.03674861 -0.0456595 0.9982809 201 202 207
0.0433034048110172 -0.0349901160671811 -0.0141165778045405 0.01935106 -0.01222439 0.999738 184 186 189
0.0614059376049081 0.13228040828932 -0.00889492528313254 -0.002581311 0.00895804 0.9999565 188 189 191
0.0692815602074968 -0.0569871950989715 -0.00896783346788879 0.6904289 0.1502169 0.7076318 184 187 189
-0.0342947676539342 0.127223893194257 0.00303389991887446 -0.9736668 -0.09019471 0.209375 181 186 188
0.0669805393807914 0.0820245712136065 -0.0102922495611469 0.421473 -0.1409096 0.8958265 172 176 173
-0.0256704437928517 0.102147751826766 -0.00591333325550389 0.005816859 -0.01111533 0.9999213 190 192 196
-0.0345606372113347 -0.136510416600241 -0.0111225318624236 0.1044744 0.9271709 0.3597767 207 211 218
-0.00344895396437916 -0.0441563449632671 -0.0128592986453883 0.02281151 -0.0254557 0.9994156 233 184 221
0.0309904440687592 0.112560700394829 -0.00850849248623867 8.484049E-05 -0.05089209 0.9987041 181 184 184
-0.0325876645228127 0.0633614585102766 -0.00701396853519035 0.03857446 -0.0352097 0.9986352 193 195 198
-0.0319217480933911 -0.038997079956143 -0.0105257604332452 0.04422555 -0.01969646 0.9988274 192 192 196
-0.0375137493326454 0.0748086751096138 -0.00634639397634604 0.002397225 -0.03480609 0.9993912 183 185 188
0.031898810457627 0.159188427898528 0.00820684528416579 -0.01593979 -0.966989 -0.2543189 127 132 112
-0.0270836975888267 0.158016144745267 -0.00388469826843221 -0.2103036 -0.1501544 0.9660363 189 191 196
0.0307295050463789 0.0568490932755776 -0.0104902286847214 -0.01140933 -0.08744336 0.9961042 177 179 179
0.00322422597847627 0.035883037088452 -0.009720459747879 0.000556984 -0.041781 0.9991266 184 187 190
-0.0634005187711653 -0.00233043603032757 0.00453230147946063 -0.9700866 -0.1660178 0.1771162 183 189 195
0.0445204026790891 0.109597367174636 -0.00872230181611569 0.08743229 0.01781561 0.9960111 184 186 187
0.00941925625862039 0.0859891542222431 -0.00878673553370882 0.03990202 -0.04969838 0.9979669 185 185 188
-0.0245795325878786 0.00358683171287 -0.00952293647826633 0.0278406 -0.04513681 0.9985928 183 187 190
-0.0614251193443089 -0.0711127623864944 -0.0103683250727192 0.02342901 -0.02392193 0.9994392 201 203 207
-0.0302616728081408 -0.0637784005213591 -0.0116927972111724 -0.005740847 -0.06545419 0.997839 196 199 201
-0.0125665947917433 -0.123370687175671 -0.0130993342787624 -0.009925451 -0.01393428 0.9998537 200 200 208
0.0463054446982698 -0.0981144992572013 -0.0157837055254328 0.05715583 0.0202264 0.9981604 196 198 200
0.00832399378519932 -0.00713847512691834 -0.010648760246914 0.05299639 -0.06105214 0.9967266 180 182 186
-0.000400578016941822 0.0716388669236074 -0.00862525975566594 0.03230477 -0.04390023 0.9985135 182 183 185
0.0124680980997869 0.16261497186633 0.00918324548438146 -0.03333994 -0.998664 0.03947998 177 184 179
0.0438589258693964 0.0950140106326496 -0.00917563534532231 0.06814655 -0.04894102 0.9964742 191 192 192
-0.0525278181427868 -0.131086455358154 -0.0125329538541784 -0.003113644 -0.03763789 0.9992866 212 215 221
-0.0170990172823047 0.159853572802123 0.004012552558219 0.5763637 -0.2072996 -0.790463 165 172 159
0.0213010728461596 -0.0715481073552522 -0.0147858924660357 0.03204425 -0.001196111 0.9994857 196 196 196
0.0430492760851742 0.0248167816916702 -0.0113556205528363 -0.01808383 -0.07526146 0.9969999 194 189 196
-0.0186621259299766 0.00570287486096377 -0.00998306628752291 0.005771406 -0.03637878 0.9993214 196 198 202
-0.00677740508374902 0.135561837012932 -0.00540456625451891 -0.008078812 -0.04530685 0.9989405 188 190 190
0.0130366670455089 0.0240967242403882 -0.0112769450080377 0.0117589 -0.05214951 0.9985701 188 189 193
0.0312685320327044 0.0134031854600782 -0.0118235107672572 0.008240297 -0.06677807 0.9977338 188 191 195
0.0562561877514849 0.0450021447024516 -0.0117239491321598 0.001252545 -0.04011074 0.9991944 195 196 198
-0.0144258003144462 -0.127416229738118 -0.0136824453721023 0.01678722 -0.04772213 0.9987196 203 205 210
-0.00894273584891248 0.160049141381462 -0.00476932130036209 -0.01774524 -0.3168888 0.9482967 189 191 195
0.0168476876265795 -0.0127436839049222 -0.0116360205289888 -0.008944872 -0.04745241 0.9988335 246 187 235
0.0159676955705135 0.10674328191669 -0.00771063688996862 0.02745058 -0.07475369 0.9968241 185 186 190
0.0249858557539167 0.0140657221579275 -0.0113977422194061 0.0358796 -8.047265E-05 0.9993561 183 185 189
-0.0236136141013128 0.154523616807101 -0.00422610308982288 0.03688825 -0.04036396 0.9985039 186 189 192
0.0150628032056725 -0.0803333096170045 -0.0148647391762877 0.02724075 -0.06759667 0.9973408 182 183 184
0.0321185229893608 -0.0971868744511809 -0.0156337041266304 -0.02117066 -0.07347041 0.9970726 175 177 183
-0.0489245244012337 -0.0787814985309918 -0.0111976461097922 -0.004734882 -0.07408999 0.9972403 196 199 204
-0.00376018153914859 0.113661532510632 -0.00664432144803664 0.02224382 0.01872993 0.9995771 197 199 203
-0.03790970532406 -0.106662236724488 -0.0123668581003578 0.01955646 -0.00372735 0.9998018 205 208 213
0.0543490682969616 0.00278857936498067 -0.0129616943596428 0.04900237 -0.01395114 0.9987012 187 188 190
0.0697985643406549 -0.0628902109289697 -0.00744885806437781 0.7871921 0.2523428 0.5627182 167 175 169
0.0496524942145824 0.164557365619489 -0.00321750902905735 -0.05914613 -0.9974892 -0.03895004 153 155 149
0.0509158371355363 0.0596196005548018 -0.0107189465502371 0.09003605 0.01161516 0.9958708 189 190 192
-0.0527137001894709 0.0412039753146538 -0.00355625716540811 -0.9576433 -0.1714357 0.2313637 184 187 191
0.0139941834953667 -0.0587254160821434 -0.013326396068966 -0.01461738 -0.04954934 0.9986647 190 192 195
0.0464539734808012 -0.0381134064061057 -0.0147189280786516 0.001216021 -0.05359841 0.9985619 176 179 182
-0.0281523830235355 0.0376150924905245 -0.00795213323078386 0.01408153 -0.0354269 0.9992731 196 198 201
0.0724950347919866 0.126934370255422 0.00666299260089567 0.981165 -0.07431599 0.1783042 167 171 166
-0.0755578304043873 -0.135426367961309 -0.0101790378518725 0.1178797 0.8230076 0.5556644 213 217 229
-0.0353615938072955 -0.017328340034285 -0.00957233328773346 0.003635948 -0.06530739 0.9978586 204 206 210
0.00881395535913354 -0.0621734209221242 -0.0131750574236398 -0.01165727 -0.03877005 0.9991801 188 190 193
-0.0202688950311463 -0.0860073268143159 -0.0123105241355187 0.03875621 -0.01289587 0.9991655 185 187 190
-0.0423979754400166 -0.0637671994693717 -0.0100994787456416 0.03252049 -0.005363511 0.9994567 179 185 187
-0.0514690734704373 -0.100109402879864 -0.011540142869916 0.05200285 -0.01388557 0.9985504 205 207 212
-0.0861202737395219 -0.12059591854964 -0.010337705490094 -0.2050924 -0.06602605 0.976513 202 203 208
-0.00144905738465551 -0.136334530171339 -0.0142669570787627 0.01554824 0.7593659 0.6504781 207 207 215
0.0484265748187351 -0.0500658065082731 -0.0156748023853837 6.646482E-05 0.01293864 0.9999163 188 187 191
0.059436428635695 -0.0681252675617194 -0.014532776252196 0.5365137 0.0197023 0.8436615 183 185 187
0.067110090849078 0.0266446781049683 -0.012824445874305 0.4141906 0.06415419 0.9079264 189 191 191
-0.039215986509564 -0.0285127632468809 -0.00816197041049296 -0.008187113 -0.0188564 0.9997887 180 180 186
0.0201023675736711 0.0140305208781131 -0.0103640313163288 0.07480096 0.008225577 0.9971645 219 170 206
-0.0343988061782814 0.0986768074369815 -0.00542222525837369 -0.0633852 -0.05415304 0.9965189 201 202 205
-0.0271152202209568 0.106304964262097 -0.00562659225624734 -0.01576297 -0.07098632 0.9973527 190 194 196
-0.0385908555761194 -0.0116123900901879 -0.00935919760778572 0.03017017 -0.04300964 0.998619 191 193 196
-0.0337837658872462 0.130772120867112 0.0017104799300828 -0.9827561 -0.02697096 0.1829291 171 174 177
0.0406639814483429 0.0756237545312612 -0.00950847770307275 -0.004503857 -0.04991016 0.9987435 190 192 193
-0.0580456051314684 -0.00213805777784071 -0.00810717152258036 -0.1504469 -0.04427443 0.9876262 200 202 207
0.0349744960827434 0.022528856072213 -0.011644158741173 0.03478426 -0.03967243 0.9986071 199 191 201
-0.0130798757863648 0.0169438861279261 -0.00962584008169085 -0.00654116 -0.03421965 0.9993929 189 190 193
-0.0518958673526955 0.048873468624874 0.00796014669415684 -0.9599055 -0.1705742 0.2224542 184 187 193
0.0630843918226431 0.0934715711434102 -0.010828951297288 0.01905464 -0.06549195 0.9976711 180 181 182
0.00087840078108381 0.128713104375915 -0.00707617944061964 0.005340022 -0.07597617 0.9970953 177 181 180
0.0518311653416066 0.146348031338031 -0.00819021288180979 0.03031071 -0.02970447 0.9990991 182 184 182
0.0477205075283771 0.0300953862298083 -0.011475196307922 0.02169723 -0.07201901 0.9971672 208 192 206
0.047286012620734 -0.137833004844237 -0.00451981063908455 0.02878046 0.9985714 0.04502019 202 206 215
-0.0371042996165727 -0.0614179073500475 -0.0105359156444255 0.02935944 -0.04252097 0.9986641 188 191 193
-0.0724821973658474 -0.0414208610762148 -0.00333227331493915 -0.9558894 -0.221439 0.1929772 181 185 189
-0.0321110678072607 0.149465628911114 0.00125731292821271 -0.9817113 -0.03600963 0.186939 185 187 193
0.0173646544662787 0.059553903057038 -0.00850461476889544 0.007412255 -0.02369227 0.9996918 182 182 185
-0.0746810449791986 -0.0452898423340671 0.00526788627925198 -0.9483088 -0.1986139 0.2475136 185 190 197
0.0488380140753157 0.124795338027074 -0.00819706612455415 0.04354231 -0.01583634 0.998926 185 186 186
-0.0914063690584586 -0.124360948471998 -0.00564500731651482 -0.9595204 -0.1630186 0.229664 183 190 194
-0.0190252864135205 -0.136852207395921 -0.00871531595957559 0.05858026 0.9929168 0.1033661 198 202 208
-0.0207482568023805 -0.137188627399434 0.00395184997902029 0.04769563 0.9982501 0.03495583 209 213 220
-0.0401102094382666 0.0944736653720946 0.00534994899203287 -0.9378721 -0.2145128 0.2727274 180 184 185
0.0481186517249081 0.0530902379849345 -0.0109081371676107 0.04279822 0.007012352 0.9990591 191 193 194
-0.0475037418162794 -0.0655313142792442 -0.00973233182394503 0.07444891 -0.02418618 0.9969315 194 197 199
-0.015205894931942 0.018415125283072 -0.00933109063883411 -0.01008566 -0.02906754 0.9995266 197 198 201
-0.0505056167782445 -0.10536718138086 -0.0117842574067135 0.02437934 -0.03172762 0.9991992 206 208 213
0.0211018183867371 0.119981496784228 -0.00756569646049385 0.02749627 0.005756565 0.9996054 185 188 191
0.0439698728747775 0.119645031262124 -0.00837851783057411 0.06394487 -0.02931978 0.9975227 183 185 186
0.0459473300324058 -0.0878536403115104 -0.0155073059346826 0.03666202 -0.02248093 0.9990748 198 200 203
0.0603276431294364 0.0289603211112148 -0.012208918540999 0.02387703 -0.0301367 0.9992605 192 194 197
-0.062858316808911 -0.0472747921387402 -0.00961564336925672 -0.01332115 -0.03581691 0.9992696 199 200 204
-0.00616873549942865 0.13829270497987 -0.00528771390745938 0.01132348 -0.04978318 0.9986959 184 186 187
0.0386006744651501 0.000611134121593748 -0.0123351221928624 0.002766159 -0.03129711 0.9995063 184 187 190
-0.0301357557395181 0.120124111085942 -0.00531766839076864 -0.03185652 -0.0482797 0.9983257 199 201 207
0.00498147044609665 0.136874123856774 -0.00611081382304093 0.01495401 -0.04408053 0.998916 189 190 193
0.0597912044469731 0.159695268404618 -0.00166086928385142 -0.2864145 0.4613782 0.8397005 145 157 137
0.0197640188072183 -0.104869153036658 -0.0146766317253473 0.002761646 -0.06144692 0.9981065 194 197 202
0.0469512953375961 -0.065170428036417 -0.0142565925128245 0.0552181 -0.02415494 0.9981821 183 184 186
0.0608202337373815 -0.00586570896708127 -0.0136670708653275 0.009021604 -0.001306204 0.9999585 190 192 195
-0.0297383669102222 0.0354820435754091 -0.00793831032070261 0.04469132 -0.03067727 0.9985297 198 200 203
-0.00671139512881225 0.0762296449451143 -0.00782083068506054 -0.006213261 -0.038321 0.9992462 181 184 185
0.0255239088923347 -0.113653419953117 -0.0152552644777738 0.09078779 -0.01485879 0.9957594 205 206 210
0.0325589730493936 0.0158332798063021 -0.011156624040414 0.004488261 -0.08322448 0.9965207 193 183 193
0.0459644071289451 -0.0281822720975367 -0.0140276674093066 0.0003529787 -0.06973406 0.9975656 178 181 183
-0.0192084559894259 0.124938146698634 -0.00555888566009924 0.04849717 -0.03532559 0.9981984 190 191 195
-0.0043243472183121 0.0995278424707 -0.00694804718039402 0.02587868 0.01105127 0.999604 188 190 191
-0.0505078210649803 -0.130372164382671 -0.0123067450981648 0.004574282 -0.05666788 0.9983826 207 211 214
-0.0336946710397916 0.0513241529222281 -0.00745431450686088 0.002178842 -0.03469915 0.9993954 196 198 201
0.0260821121729462 0.0761074328117692 -0.00916860387875965 0.03787774 -0.046959 0.9981784 188 191 191
-0.0624091141442658 0.00350852562628345 0.00504316440207242 -0.9738343 -0.1717733 0.1487974 191 195 199
-0.0630663699383487 -0.136088180381963 -0.00929285819190967 0.06117131 0.9410986 0.3325531 204 210 218
-0.032992103186084 0.139496989507806 0.00532392238289123 -0.9744373 -0.05672273 0.217381 164 169 174
0.0412929730230924 0.0978147868670354 -0.0082092333185487 0.02543265 -0.01013357 0.9996251 181 182 183
-0.000356353698238943 0.141824989644699 -0.00580355641338851 0.0001918369 -0.04621769 0.9989313 188 190 195
-0.0509237894559373 0.0515534747448549 0.0075118380095483 -0.9489799 -0.1948072 0.2479663 187 191 194
0.0421660460009428 0.143872224898464 -0.00766497023820475 0.007527541 -0.0358943 0.9993272 193 195 198
-0.0367030304577411 0.114994926039911 0.00675721631486867 -0.971257 -0.1114874 0.2103105 176 179 181
0.0702491176470341 -0.000795762100800568 -0.0033951940457739 0.9288113 0.1954216 0.3148334 184 184 184
-0.0153845999332582 0.0431019500104031 -0.00818513220903708 0.02970114 0.01203308 0.9994864 188 191 193
-0.0816759581872826 -0.0861091555942858 -0.00922248004509038 -0.7539594 -0.1363212 0.6426211 188 194 198
0.0127839352720518 -0.0201055406146671 -0.0118932722971092 -0.0006067231 -0.05627652 0.9984151 204 205 210
0.0663949360098142 0.152919816426453 -7.33729368037339E-05 0.6133901 -0.6551985 -0.4409846 188 189 190
-0.0448406426250716 0.0758931340114199 0.00855481086087176 -0.966134 -0.1498722 0.2100556 177 181 183
-0.0312224109810402 0.117257525875923 -0.00516913324531701 -0.05138536 -0.001699543 0.9986774 191 192 195
-0.0628120567220083 -0.13627892581065 -0.000672996461899639 0.03417144 0.998609 0.04015359 205 209 220
-0.0618057686608102 -0.127676725279765 -0.0112373971624657 0.03953783 -0.01801179 0.9990557 203 202 203
0.0620459571769454 0.0575173439778178 -0.0109379165172017 0.007010888 -0.05023062 0.998713 183 183 189
0.0681367825020018 -0.0174684840449042 0.000468909934547207 0.9987509 -0.02877771 -0.04084575 172 171 168
-0.00294531734091841 0.0922152488207462 -0.00668596241716676 -0.03131991 -0.04092404 0.9986712 180 183 184
0.0311371560756992 -0.136744721780059 -0.015059037146889 0.002060638 0.6648284 0.7469932 205 207 213
0.0484120426193235 0.135355373774332 -0.00856102081212304 -0.001461639 -0.05595037 0.9984325 186 188 191
0.0654703937312451 0.148297796118871 -0.00935076917650166 0.3402179 -0.07959403 0.936972 181 182 184
-0.0245404687094291 0.162594341046379 -0.0034830150087419 -0.1026979 -0.3185038 0.942342 188 191 193
-0.0542271198052486 0.0351993755464208 0.00429963415900095 -0.9709237 -0.1846398 0.1523657 185 189 192
0.00123942743392447 -0.137295616852442 -0.00445330436948496 0.03515572 0.9984537 0.04306105 206 210 219
0.057991885484435 0.0550793906600977 -0.0114953846480514 0.005988647 -0.03324741 0.9994292 187 189 192
0.0188457828330126 -0.103049324495546 -0.0145007165291746 0.02569318 -0.05619709 0.9980891 192 195 196
-0.0419208252634911 0.0889613038779515 0.00738265166932911 -0.9703949 -0.1185464 0.2104293 179 183 185
-0.0472456070253728 0.0659081972974325 0.00583565709328657 -0.9708638 -0.1818866 0.1560155 181 185 187
0.0617276799957407 -0.102896648376405 -0.0107365359646034 0.922307 -0.2012436 0.3299255 136 144 142
-0.00276514430249919 0.163211599318549 0.00341042636051711 -0.2729964 -0.9537115 -0.1261245 139 141 133
-0.0427917448249389 -0.112115890455134 -0.0122401751159803 0.02730679 -0.01501467 0.9995143 201 203 209
-0.0444370346371892 -0.0894816000320103 -0.0116651247850878 0.04765196 -0.02532216 0.998543 207 209 213
0.0647986052274729 -0.0234297822599527 -0.0139693899334692 0.6572792 -0.1146784 0.7448711 187 190 192
0.00228333455552931 -0.127402721510172 -0.0151156918777036 0.000665379 -0.02027698 0.9997942 192 196 201
0.0182187384074795 0.0906141284641528 -0.00820548921563871 0.03234924 -0.03313273 0.9989273 181 184 184
-0.00620610125463039 -0.0849028539035174 -0.0128441886985948 -0.002857736 -0.06718688 0.9977363 191 194 198
0.0600941106676796 -0.0895034144469198 -0.0107543366271949 0.8327937 -0.01605935 0.5533504 203 202 203
0.0420001339632572 -0.0619995946560464 -0.014460499851149 0.09953998 -0.04781185 0.9938842 186 188 189
0.00872483283762615 -0.0722760715994062 -0.01370218951852 0.01871507 -0.06046267 0.997995 179 183 185
-0.0187210224806653 -0.00254673990244703 -0.0105624478650318 0.0108256 -0.07328605 0.9972522 191 193 199
0.0505727854838729 0.10287280266505 -0.00924329630178025 0.03085349 -0.02180389 0.9992861 194 196 197
0.0273338942152652 0.0107144956005336 -0.0109931889482735 -0.02378903 -0.08599448 0.9960116 178 179 182
0.0715857735742151 0.155617932539319 -0.00562068619043135 0.6198655 -0.5632348 0.546382 179 181 174
0.0481952218838921 -0.137746557394913 -0.0109292182057828 0.04960901 0.9987349 0.008221451 193 197 204
0.0338075036312153 -0.0871599271165817 -0.0145984641326544 0.006966091 -0.05868505 0.9982522 194 197 197
-0.0330096818561603 0.144645006779106 0.00227308656911482 -0.9756408 -0.08480428 0.2023195 170 175 177
0.030664916633633 -0.0668898769274612 -0.0143019285286727 0.04287679 -0.03789497 0.9983614 192 193 196
0.0424214561178564 0.00156894939409247 -0.0125514531671624 0.01918418 -0.05183754 0.9984713 188 190 193
-0.0324771098116177 -0.113172859922796 -0.0128835503163308 0.01029696 -0.005865464 0.9999298 198 202 205
-0.0453136586473863 0.0681531004157099 -0.0071057996596102 -0.5630261 -0.126508 0.816699 188 185 186
0.0169956895190682 0.0947046214522203 -0.00853052127581919 0.02969052 -0.04694718 0.998456 176 180 180
-0.0033723489277302 0.0198319970857546 -0.00974799394044856 -0.01249813 -0.04692623 0.9988202 206 203 211
0.0678938914574969 -0.0229880446477946 -0.00129336074170741 0.998905 0.04555514 0.01065457 146 145 147
-0.0509545693398366 -0.0132327017847733 -0.00872302719029497 0.0344901 -0.01199813 0.999333 192 195 200
-0.0471903206278383 -0.0781957411072765 -0.0113282463992119 0.001111032 -0.06833547 0.9976618 210 211 217
-0.0181893942270523 -0.0273769433710613 -0.0107673678461861 0.06194601 -0.01091496 0.9980198 201 201 206
0.0219541607578317 0.0606760021577677 -0.00969820913607086 0.0618263 -0.0673006 0.9958153 192 193 197
-0.00993099150021637 0.0121484203754045 -0.0100040436471502 -0.02018418 -0.02865301 0.9993856 183 183 196
-0.00618442706621192 0.0251417521008939 -0.00923684928405452 -0.01156025 -0.05760425 0.9982725 196 196 201
-0.00586179229032413 -0.111228221385991 -0.0138470820009991 0.06271315 -0.00162677 0.9980302 207 208 214
-0.0307669274701508 0.156694031671105 -0.00103951192597526 -0.9428369 -0.03786698 0.3310962 171 176 179
-0.0303404697323018 0.162551974603663 0.00187683970340063 -0.9297607 -0.2965285 0.2182107 197 200 204
0.00836810584965941 0.161616501453519 0.0107441133915388 -0.02627323 -0.9803255 -0.1956316 164 160 158
-0.0446162613165142 -0.0546650427550426 -0.0105119665556699 0.04183672 -0.02956615 0.9986869 201 203 207
0.00614316938911985 0.0589630735766984 -0.00875100533814155 0.07561009 -0.01077223 0.9970793 183 186 188
-0.00642885829493656 -0.0349442119715151 -0.0117463012541936 -0.02461807 -0.06460451 0.9976072 239 194 231
-0.0132003405580039 -0.0816557389853301 -0.0128149549023191 0.05458813 -0.02835105 0.9981064 194 196 199
0.06575274911839 -0.00864498960899751 -0.0127040555094524 0.7935727 0.02534327 0.6079474 175 177 175
0.0242165798108047 0.0590820025258303 -0.00993077173946741 -0.01470387 -0.08433405 0.9963291 183 184 187
-0.0329114713664227 0.146208415505247 0.00555643199286421 -0.9773155 -0.116888 0.1766112 196 199 203
0.0377048073465773 -0.129162705779201 -0.0158422246494468 0.01153405 -0.01979695 0.9997375 214 217 221
-0.014095251722789 0.16320011842553 -0.000684665065888684 0.1329579 -0.938069 0.3199198 179 179 176
-0.00683534791893337 -0.0992504097972967 -0.0141237548155882 -0.001427902 0.01115253 0.9999368 178 181 186
-0.0176276604678802 0.0776432492858072 -0.00731629783897073 0.04905671 -0.03358803 0.9982311 191 194 196
-0.0806786689784991 -0.0921594413505024 -0.00983249095449382 -0.2463277 -0.1012063 0.9638879 211 214 220
0.0311211733866352 0.0707503430567582 -0.00916966987673065 0.01846358 -0.0516672 0.9984937 193 195 198
0.0401436253004026 0.0512338644703385 -0.00914409759285409 0.08445053 -0.08211358 0.9930385 184 185 188
0.06409641105936 -0.0944252141391198 -0.00644889344914965 0.9109088 0.0389685 0.4107636 182 184 180
0.0301943688739688 0.15927658465245 -0.00427948651983065 -0.09571191 -0.9060252 0.4122591 163 169 159
-0.00559858294586491 0.162870983999909 -0.00452974728681474 0.006389588 -0.7651504 0.6438199 183 187 185
-0.0191517854979952 0.164860868646526 0.00157278440205222 0.0986197 -0.9906095 -0.09469452 185 186 181
-0.0653407799829413 -0.0536296869718951 -0.00945459375399224 -0.004754443 -0.07126189 0.9974463 201 203 207
0.0115187637081338 -0.0490113459817714 -0.0127169269268952 0.08267344 -0.01780725 0.9964176 223 191 216
-0.015599134966326 0.0137573219155831 -0.00906571463725939 -0.002693751 -0.03516784 0.9993778 191 193 195
0.0148595447460249 0.161225527553126 -0.00570770490749173 0.01184963 -0.4529893 0.8914372 193 192 191
-0.0794445749076882 -0.123174511115482 -0.0107028057659921 0.01258224 -0.04176216 0.9990484 201 204 209
0.0136949392053902 -0.0568416711566775 -0.0131169873053456 0.001940766 -0.05301863 0.9985917 192 194 198
0.0451653837743347 0.162282744488013 0.0068025041149842 -0.2328836 -0.9450358 -0.229505 142 143 127
-0.0142607893603306 0.0558570103224805 -0.00793457678328222 6.047734E-06 -0.0006898934 0.9999998 191 193 196
-0.0816288056771601 -0.110603225575164 -0.0104476658679649 -0.004272387 -0.02716639 0.9996218 217 219 226
-0.0296016292631964 -0.0322635854670783 -0.0105651045241217 0.03029763 -0.0448948 0.9985322 249 188 237
-0.0835352813560852 -0.0806895562978064 0.00573771989917118 -0.9214186 -0.2326332 0.3112387 183 188 194
0.0158499134863375 0.162918616655415 0.00576549766760684 0.1179987 -0.9924594 0.03317499 144 147 131
-0.0576160492787907 -0.0846929899014726 -0.0110300434562184 0.01355031 -0.0430239 0.9989821 203 205 210
-0.0369925737238679 -0.118719931516308 -0.0124189857835054 0.05184074 -0.02172174 0.9984191 202 204 208
0.0214916202792244 -0.00496708359498244 -0.0120860610563181 -0.02040518 -0.07374576 0.9970683 236 172 221
0.0186959602096728 0.088683824888997 -0.00829461443075988 0.05684757 -0.03994729 0.9975834 186 188 190
0.0303683589664194 -0.0156117446836486 -0.0126038135728744 0.03703958 -7.01046E-05 0.9993138 246 180 230
0.0354496925792749 0.146336644997403 -0.00697584963729822 0.03008825 -0.02775042 0.999162 183 185 187
-0.0370261497407736 -0.110796688962197 -0.0121378337345175 0.00792111 -0.02123234 0.9997432 201 204 208
-0.0341748546936751 -0.0699529538006922 -0.0116791472330315 0.003614343 -0.0457026 0.9989486 209 211 220
0.00992745228881442 0.163377523864178 0.0100385309222387 -0.003653871 -0.9957433 -0.09209736 155 156 153
-0.0188123562969076 -0.0596585130550442 -0.0122412865470635 0.04642368 -0.05044608 0.9976472 195 198 199
-0.0836805438063206 -0.0858649171496231 0.000784050661811947 -0.9154359 -0.1864061 0.356693 186 192 199
-0.0681107866366182 -0.0932530652496646 -0.0106244689689814 0.02326054 -0.03338196 0.999172 208 211 216
-0.0170530797434232 0.0181197511092883 -0.00910188786501984 0.001886567 -0.03148125 0.9995025 197 199 201
0.057178039905265 -0.1075611009951 -0.0164711546261498 0.008690459 -0.03723722 0.9992687 196 198 202
0.063242014984066 -0.00723852257551205 -0.0134688010850076 0.2120236 -0.1059819 0.9715008 187 189 187
-0.0514664759777073 -0.118127392290449 -0.012014005255642 0.0422237 -0.02322534 0.9988382 200 202 207
-0.078673901094231 -0.132968294160535 -0.0108975218701606 0.06980286 0.2703314 0.9602336 200 203 207
0.0261177981308998 0.100798775079463 -0.0082946163266622 -0.02021486 -0.04037553 0.99898 186 188 190
-0.00860668697784694 0.162690349108664 0.00980742335042836 -0.2705469 -0.945109 -0.1832302 166 169 154
0.0469553943010612 -0.0668345736551066 -0.0148586422332955 0.04269326 -0.03985916 0.9982928 187 190 191
0.00699996452440543 0.163416329014758 0.00985812569709829 -0.0009401022 -0.9372039 -0.3487806 133 137 120
0.0504406526011505 0.118996784487176 -0.0086427867755747 0.03979072 -0.003909369 0.9992004 186 187 188
-0.0049868732865026 -0.0139358666735727 -0.0109487004345286 -0.01039999 -0.01642319 0.9998111 195 196 199
-0.0489905842586376 -0.136443264720532 -0.00763018707704152 0.02505086 0.9967794 0.07617964 202 208 216
0.0351229643015958 -0.0844017017665548 -0.0149754723699465 0.0106731 -0.04256772 0.9990366 194 197 199
0.00290771745296925 -0.137055859677053 -0.014453320467796 0.08327918 0.823424 0.561282 191 194 199
-0.00950507343806262 -0.0400664672977544 -0.0114551522035139 0.0002284663 -0.05455201 0.9985109 250 190 237
0.0651472049602113 -0.0357801372683406 -0.0122966718049109 0.8875707 -0.1831296 0.4227078 167 170 170
-0.00330388982927632 0.148737827154582 -0.00453768641183241 0.05069315 -0.0118373 0.9986441 178 178 185
0.0551706706141164 0.124338956078123 -0.00878322445158727 0.09472651 -0.07621885 0.9925812 188 190 191
0.018828774449863 -0.127827785082016 -0.0150873158477648 0.09940723 -0.009660354 0.9949999 198 201 205
0.0450740490025692 -0.051214813856431 -0.0143165649633383 0.03362842 -0.0009364294 0.999434 192 193 194
0.018972774258263 0.16087299530326 -0.0062484704871465 0.09363917 -0.3452457 0.9338292 173 176 171
0.0119004323845608 -0.116963784147368 -0.0149663109745126 0.02241479 -0.02060008 0.9995365 180 183 188
-0.000223819493520683 0.141127768556329 -0.00506213328439395 -0.008881345 -0.06729177 0.9976938 181 182 185
0.0415491162362285 0.135598472979834 -0.00753668426651835 -0.006617378 -0.05774176 0.9983096 179 183 187
0.00745476591652849 -0.00682608815708008 -0.0113189138212106 0.05544036 -0.05576161 0.9969037 185 187 189
0.0179349487993599 0.0161543216951274 -0.0110079723502231 0.04697756 -0.05153312 0.9975657 234 177 220
-0.0115597573630386 -0.0174947520769604 -0.0119152781303869 0.03057261 -0.02452374 0.9992316 213 149 200
-0.0533678986655617 -0.0779049277371893 -0.010381231268159 0.0276809 -0.04883487 0.9984232 189 196 198
-0.0254798150837756 -0.082617679740657 -0.0119912522737403 0.04381251 -0.05657981 0.9974363 192 194 196
-0.00396514721830932 0.00701539772876192 -0.010374362981749 0.04138269 -0.04414938 0.9981675 243 190 232
0.0342968950038589 0.15887953649332 -0.00414595075501814 -0.2604001 -0.9140503 0.3109724 178 182 178
0.0309547971038844 -0.0174005853321122 -0.0129022859729346 0.04612127 -0.009712572 0.9988886 241 188 229
-0.0470713601565662 0.0438127571002869 -0.00641178584175298 -0.1157728 -0.02638407 0.9929252 179 183 186
0.0654459126364169 -0.071493671143769 -0.00912879125873592 0.7456692 0.1620856 0.6463016 184 184 185
0.00277581259630821 0.0459242534769306 -0.00907860703227342 0.05698181 -0.05438076 0.996893 196 196 198
-0.0459023921272195 0.016968509668172 -0.00801454053548384 0.04165699 -0.03095021 0.9986525 198 201 204
-0.0673049707615274 -0.0147801259060787 0.0087160846614289 -0.9645478 -0.1509934 0.2164452 188 194 198
-0.025216111288815 -0.0028846768450943 -0.00935961728449589 -0.02069421 -0.04980151 0.9985447 195 200 203
-0.0130974785218587 -0.0850530878336225 -0.0124147470807473 0.02927588 -0.0188382 0.9993938 207 207 214
0.0463302671686738 0.0442970217736522 -0.0111557805884107 0.04145369 -0.003686589 0.9991336 191 191 194
0.0334917201405123 -0.0292039560385511 -0.0131806691473481 0.08798141 -0.02602636 0.9957821 192 194 198
0.0660849042139893 -0.0351607166329724 0.0013528339824446 0.9961464 -0.03976005 -0.07817538 134 135 123
0.00969291215870305 -0.137396121154 -0.0011656300571852 0.03026152 0.9992197 0.02538382 205 210 217
0.0650656967873138 0.0178589933334317 -0.0131038420633418 0.1135172 -0.01551556 0.9934149 192 193 194
-0.0354699292806941 0.0901074911902082 0.00583975379660923 -0.4059344 -0.5994142 0.6898694 131 138 130
-0.0015680571080039 0.0746277832691151 -0.00838253031977915 -0.001877247 -0.0544246 0.9985161 178 181 183
0.0382420756276076 -0.106184162637322 -0.0154020309887441 0.02944624 0.02912635 0.9991419 199 201 204
-0.0512457336109144 0.0481795681331145 0.00295520606508154 -0.9619845 -0.1817853 0.2038137 188 194 198
0.026208659391687 0.0926580514256181 -0.00868691902043781 0.03792938 0.001223901 0.9992797 186 188 189
0.0289853205018418 0.10078330646596 -0.00935703297708415 0.03908649 -0.04014019 0.9984293 182 181 184
0.0722509075616276 0.0925381480584822 0.00476629345874893 0.974143 -0.07893962 0.2116931 174 171 170
0.0509197938336576 -0.0826522100467356 -0.0162894791334668 -0.01178942 -0.02522479 0.9996123 182 185 191
-0.0091065662051828 -0.105677444793096 -0.0134944693585718 0.03844877 -0.02367136 0.9989802 196 199 203
0.0649723232380661 -0.0882377088389623 -0.00456076560962601 0.9680576 0.07161137 0.2402839 186 188 186
0.0676032842704617 -0.024082669722957 -0.000177436857032059 0.9993951 0.03476191 0.0009826628 159 157 157
-0.0776032624056169 -0.0632124849509623 0.00273049967465722 -0.9500111 -0.1874726 0.2496656 174 178 181
-0.0420429786605305 -0.0730757787014225 -0.0109787473652057 -0.004205436 -0.0520039 0.998638 203 205 207
0.0570959802412765 -0.0648098486947973 -0.0149853027537535 0.08733394 -0.009809037 0.9961308 192 194 196
-0.00677542113743357 0.162642194607511 0.00397127363687574 -0.07476442 -0.9711783 -0.2263249 182 184 180
-0.0670295787937005 -0.0523406212276174 -0.00888963391885975 -0.006759289 -0.04929473 0.9987614 192 195 199
-0.0518270674710453 0.025642888533707 -0.00710779915125234 -0.05162926 -0.06626154 0.9964657 199 202 207
-0.0851964329971557 -0.115989905736767 -0.0100032031540048 -0.2545518 -0.1159335 0.9600848 205 208 212
-0.039696334823246 0.09624668508378 -0.00219078606204046 -0.9629467 -0.1829258 0.1981714 182 185 187
-0.0549619899102325 0.0359323876684208 0.00834088963249599 -0.975282 -0.1782669 0.13056 172 177 178
-0.0517463186976352 -0.0745436286407979 -0.0109392325363979 0.05143606 -0.02403808 0.998387 202 205 209
0.000857130566400022 0.0455942411272954 -0.00903285369685489 0.05342313 -0.02497981 0.9982595 184 186 189
0.0538980898974644 0.0664628171451089 -0.0122843259955082 0.1257449 -0.04163455 0.9911886 181 181 183
-0.0665880376120598 -0.0581694969727969 -0.0095865544649599 -0.007540738 -0.01240444 0.9998946 202 204 208
-0.0775523349036298 -0.107871074933197 -0.0106329228341553 0.005195627 -0.05643425 0.9983928 202 204 207
-0.0722901432191005 -0.100379991952399 -0.0103168651192948 0.004562347 -0.044476 0.999 209 212 217
0.0620452104106057 0.130281181287021 -0.00902491845787243 0.02355282 -0.04820611 0.9985597 187 189 190
0.0368334442861042 0.140841681025467 -0.00748579856883277 0.0671209 -0.03930226 0.9969705 190 192 195
-0.0420661567957179 -0.0643698070909628 -0.0110993043110889 0.01830869 -0.01404629 0.9997337 195 197 200
-0.0179970002039298 -0.0290979291674329 -0.0109210098213337 0.07589128 0.009053497 0.997075 190 192 196
0.0396661995901992 0.137336586160128 -0.00780008465550122 0.002753763 -0.0583177 0.9982943 186 188 191
0.0696636538250244 0.112484222467732 0.00120150021930063 0.9239232 -0.04593861 0.37981 168 169 162
-0.00348997078028113 0.0211758293543518 -0.00962154836514192 -0.00957017 -0.04394758 0.998988 190 193 198
0.0171376439255055 0.154377825437745 0.00625755827836239 0.1603299 0.7653409 -0.623336 173 179 170
0.0269509921357531 0.0394062507221973 -0.0106120991790569 0.01686595 0.01404628 0.9997591 244 184 231
0.0127524717411684 0.0622661566935512 -0.0089690869413826 0.06377513 0.01484232 0.9978539 188 190 192
0.0134278129960188 -0.104458906037937 -0.0140717954318256 0.02087827 0.01186985 0.9997116 187 192 192
0.0551771155995864 0.162035825910912 0.00820106959900549 -0.2296869 -0.3508913 -0.9078102 146 145 132
0.0517284252632286 0.0698164157416075 -0.0115508364113204 0.08343331 -0.06791767 0.9941962 186 189 191
-0.030856482953159 0.15846164384692 0.0032539490637816 -0.9746145 -0.03806706 0.2206298 176 180 182
0.0693455162722809 0.0434389894795495 -0.0120104376845781 0.6430856 -0.2334195 0.7293533 184 186 184
-0.00793134654581751 -0.137393903409877 0.00223469640837104 0.0356372 0.9992482 0.01526356 203 206 212
-0.0295624350425014 -0.0158372541279597 -0.00977724923636156 0.0116379 -0.03885777 0.999177 197 199 203
0.0235022394915705 0.104368138914552 -0.00782928074084296 0.003523701 -0.03763839 0.9992852 183 185 187
-0.00883992419020552 -0.0744560136166416 -0.0126412278210429 0.003682352 -0.0263696 0.9996455 194 196 200
0.000421634440092467 0.146019742329451 -0.00563420273004389 0.00336407 -0.05052777 0.998717 180 183 187
-0.0528343041113013 0.0136953252794321 -0.00780756756655335 0.005542189 -0.04530069 0.9989581 199 199 202
-0.0841832673648231 -0.0917598415266794 -0.00544629127311155 -0.9302447 -0.249151 0.2693855 186 192 198
-0.0373513426061378 0.11458472805252 0.00888848639941325 -0.9712068 -0.1370984 0.1948367 173 176 180
-0.0607357618857758 -0.00492758613898769 -0.00810027651503906 -0.3501451 -0.1220668 0.9287078 207 210 216
0.0233888713347259 0.0412403646574111 -0.0107991674432542 -0.03792996 -0.0287919 0.9988655 235 178 221
0.041326463770827 -0.0355987646224181 -0.0134300053552096 -0.01522157 -0.02952117 0.9994482 199 200 202
-0.0426090130794834 -0.0792454783284023 -0.0117127027482597 0.001059238 -0.02844505 0.9995948 190 194 197
0.0673528750958152 -0.0259064464933922 0.00133168081623461 0.9988027 0.04889786 0.001437374 180 182 174
-0.074232079553366 -0.0516774787117438 -0.00776661149227259 -0.7795358 -0.2001186 0.5935289 209 213 220
-0.0799378265452801 -0.0748398348185139 -0.00127635286707059 -0.9567373 -0.09943436 0.2734347 190 195 201
0.0217784231784843 0.00372455097517199 -0.0109925483716242 0.01337706 -0.03118143 0.9994242 248 185 237
0.058923985001599 -0.0739253585245684 -0.0147167344377777 0.6221986 0.03238826 0.7821892 197 197 200
0.0239860917184427 -0.124505335264088 -0.0151709847706547 0.06544201 0.0322489 0.9973351 197 199 202
0.0160569837038218 -0.074947461612802 -0.0143967050708821 0.06728785 -0.04356529 0.996782 182 185 188
-0.0316399269750831 0.153410048056994 0.00872640677683503 -0.9843692 -0.04346535 0.1706692 174 178 179
0.0206337295419301 -0.0530413982166529 -0.0134096906188044 0.01164472 -0.05114423 0.9986234 193 195 198
-0.0482840867128378 0.00991036971093062 -0.00811493639701941 0.002062676 -0.03128564 0.9995084 201 203 208
0.034965122909326 0.0145243821832197 -0.0118867925835448 -0.00279531 -0.05287782 0.9985971 211 186 206
0.0442741697438542 0.144466308203071 -0.00780295915216719 0.0159753 -0.04329393 0.9989346 198 200 204
-0.0750716388699089 -0.0806279478684033 -0.00999085368560701 -0.07098053 -0.03381264 0.9969044 208 210 214
-0.0795008610401191 -0.104702218769836 -0.00993966656113468 0.008405309 -0.03863028 0.9992182 202 206 210
-0.0213179658862961 -0.0592013907554426 -0.0121321430175375 0.004641941 -0.04106766 0.9991456 193 194 198
-0.0254963663126513 -0.0990519482757143 -0.0129436625575497 0.03312899 -0.006815285 0.9994279 201 204 208
0.0191732475026052 0.103540575596411 -0.00770719221221708 -0.008893266 -0.07505769 0.9971395 187 188 189
0.0545665499343568 0.0768478433063917 -0.0102637453103491 0.01184975 -0.05505079 0.9984133 188 188 191
-0.034600935616016 0.1319401827477 0.00795227569420306 -0.9728267 -0.08941112 0.2135742 172 175 176
-0.0324793344738834 -0.0786362640507547 -0.0117955533514882 0.07732317 -0.007879335 0.9969749 195 197 201
-0.0383904960471464 -0.112833523881742 -0.0124936554857723 0.01646973 -0.0409608 0.999025 202 205 212
0.0418541123406302 -0.122163732563956 -0.0161830266683682 0.04489397 -0.0339745 0.9984139 201 202 208
0.0217409811740499 0.110009118007421 -0.00798549469758139 -0.01171559 -0.03145781 0.9994364 195 197 201
0.0458799547731841 -0.0630173538614373 -0.0147602818996442 0.0506836 -0.03587716 0.9980701 184 186 189
-0.0594837789252827 0.0118818626328252 -0.00274695232983138 -0.952481 -0.2376006 0.1905933 183 189 191
0.00367266994693138 0.107491481039225 -0.00704950370325849 -0.0215943 -0.0388785 0.9990106 186 188 190
0.0021741439874845 -0.0285815744528271 -0.011618711237552 0.02153799 -0.05297672 0.9983634 217 189 212
0.0648129859354241 0.0344759276452504 -0.0131538526314072 0.009076092 -0.06393812 0.9979126 184 187 189
-0.0315013749969431 0.133939639679698 -0.00445328817851121 -0.4153638 -0.08996648 0.9051955 189 191 195
-0.051572578135743 0.0137823747650947 -0.00781695967028689 0.001686649 -0.03816602 0.99927 201 202 208
0.0253466807639247 0.154056229337882 -0.00636888135068295 0.04800219 -0.03209681 0.9983314 186 188 188
-0.0389210385029306 -0.1046142182597 -0.0121706951297454 0.05645151 -0.02583877 0.998071 200 203 207
-0.000933745609619674 -0.0313015000093733 -0.0120462830200574 0.00472724 -0.04291752 0.9990674 249 188 237
0.0590355754485463 0.127615173289432 -0.00885754309322853 -0.06014186 -0.04663618 0.9970998 188 189 190
-0.0368293102356583 -0.00343667422907923 -0.00912614268610457 0.01905295 -0.01147818 0.9997526 195 197 202
-0.0186192048495939 -0.00477996857996943 -0.0105171697540656 0.01044462 -0.02386696 0.9996606 190 189 196
0.0441803955402931 -0.00562487577309656 -0.0128343515119106 0.08146556 0.006820646 0.9966528 193 195 197
0.0365783039243099 -0.0425991964577115 -0.0140542355986901 -0.01006914 -0.05696174 0.9983256 191 193 197
0.0238876900870399 0.00143558582639569 -0.0119234642131808 -0.004258782 -0.05177503 0.9986497 217 179 209
-0.0128244380607856 -0.136926172619597 -0.0049612281504737 0.0826597 0.9956638 0.04267438 209 213 223
-0.0263413342189684 0.0796111449883956 -0.00647942596967818 0.02675109 -0.04700698 0.9985363 189 191 193
0.0460518519385691 0.136599757909485 -0.00772327835494049 0.02034165 -0.04616616 0.9987267 193 195 197
-0.00902163113331955 0.0427853192727563 -0.00868340264406128 0.02824412 -0.01392952 0.999504 195 196 200
0.0322905213619498 -0.10363852036031 -0.0161766319872478 0.04441057 0.04647841 0.9979316 185 185 193
-0.00809582872419146 -0.0986728595392041 -0.0139100547949218 -0.01020059 -4.291118E-05 0.999948 183 186 190
-0.00367083388008416 -0.00358212791686974 -0.0107548428120721 0.05267622 -0.02186197 0.9983723 246 189 237
0.0341444429815427 -0.0474759374794662 -0.0141003657381752 0.01613162 -0.07834417 0.9967958 186 187 190
-0.0588239685785596 -0.036562505539371 -0.00900592702640854 0.01540136 -0.04184574 0.9990054 190 192 198
0.0303166735503111 -0.0898069047083804 -0.0149773744370962 0.002688325 -0.05208113 0.9986392 197 198 201
-0.027022643112437 -0.0669595376732911 -0.0115913707578282 0.01687178 -0.001381273 0.9998567 197 198 203
-0.0280269446178649 0.100310683000776 -0.00628651909827352 -0.002825454 -0.05320079 0.9985799 183 185 189
0.0233955113375475 0.0381654255658022 -0.0105063273714002 0.004438117 0.01063206 0.9999336 194 186 196
0.0428878006339419 0.133777837323863 -0.00808126752157448 -0.01385434 -0.05490249 0.9983956 193 194 197
0.0147446730702363 -0.134986149700004 -0.0152482882998876 0.0595371 0.4094403 0.9103922 204 206 212
0.00394006731050833 0.140579461437318 -0.00585431004763104 -0.02786615 -0.06156219 0.9977142 189 190 194
0.0158825271044478 0.0507737371312074 -0.00979564788432399 -0.001813244 -0.06753404 0.9977153 231 179 219
-0.00817202008015272 0.0222504654927751 -0.009668102136106 -0.001863145 -0.04771918 0.998859 177 179 183
-0.0247231860745678 0.0223348959546963 -0.00887227584609535 0.0405064 -0.02451601 0.9988785 198 200 204
0.0187627908507622 0.0369040556534068 -0.0107032800028958 0.04549209 -0.06161308 0.9970629 178 180 185
0.0080910129563101 -0.0106893759059818 -0.0115683661774307 0.008202754 -0.03019725 0.9995103 200 201 204
0.0687535101501306 -0.00277008639076315 -0.00442735528830443 0.9264087 0.187164 0.3267056 174 175 167
0.0328881665504386 0.159775236034775 0.00226446104042868 -0.05423214 -0.9974675 -0.0460159 151 152 144
-0.0662505943068439 -0.0332993949448321 -0.00884729579497281 -0.131336 -0.0694486 0.9889023 200 203 207
