ply
format ascii 1.0
comment File exported by Rhinoceros Version 7.0
element vertex 470
property float x
property float y
property float z
property float nx
property float ny
property float nz
property uchar red
property uchar green
property uchar blue
end_header
-0.0280498303279406 0.0208036832651614 -0.0037001583064592 -0.9562163 0.1250538 -0.2645979 86 86 86
-0.0272528967240875 0.0208067141186785 -0.00586751301349039 -0.951343 0.1234656 -0.2823167 103 103 103
-0.0281294443564917 0.0203681334857885 -0.00196863436776912 -0.9628291 0.122865 -0.2405501 78 78 78
-0.0281704063374066 0.0226638009926304 -0.00134001291888794 -0.9556621 0.1781228 -0.234483 81 81 81
-0.0279077877685396 0.0184662577245518 -0.00224657468682821 -0.9606743 0.1264574 -0.2472112 102 102 102
-0.027854620905388 0.0195244949056561 -0.004299675642573 -0.9582397 0.1280257 -0.2557071 69 69 69
-0.0278155387144237 0.0207130632616011 -0.00402055131771156 -0.956806 0.1293252 -0.2603792 75 75 75
0.019900631621774 -0.0125605097633363 -0.0276315730235105 0.00273123 0.002702688 -0.9999926 112 112 112
-0.0268490691222987 0.0226493151253085 -0.0059262264930704 -0.9365915 0.2032863 -0.2854314 118 118 118
-0.0283884800277889 0.0249246779713572 0.000218919309733112 -0.954113 0.2065753 -0.2167833 80 80 80
0.053750031996368 0.0834807785724279 -0.0272846113248678 0.1634514 0.03843567 -0.9858024 85 85 85
-0.0271817442430498 0.0266025154683865 0.000180159870586172 -0.9484997 0.2151797 -0.2324779 107 107 107
-0.0276294915878545 0.0145411239812064 -0.00741089692853306 -0.9555426 0.2026865 -0.2141416 77 77 77
-0.0269187624131912 0.0266941553576302 -0.00149158555158632 -0.9304671 0.2483182 -0.2693865 108 108 108
-0.026540480303429 0.0292338850479938 0.000112941599722416 -0.9375009 0.2322011 -0.2591809 106 106 106
-0.0269210111076328 0.0247658070278467 -0.00325000938619016 -0.9342735 0.2325505 -0.2702838 110 110 110
-0.0262069187035019 0.0248691601537636 -0.00579602215640224 -0.9413292 0.2165474 -0.2588561 99 99 99
-0.0306150060029311 0.0310277540163352 0.0141978565291759 -0.8926308 0.2447081 -0.3785872 98 98 98
-0.0300470458112989 0.0306026990187183 0.0123428015485953 -0.8860384 0.2510894 -0.3897308 105 105 105
-0.0288595420015902 0.0309819174112624 0.0105153511589301 -0.8954769 0.2523623 -0.3666529 135 135 135
-0.0281007040730041 0.0305719549884608 0.00871270103366947 -0.933697 0.2471631 -0.259076 136 136 136
-0.0299810702429866 0.0329629982990172 0.0141895578249352 -0.888041 0.2594907 -0.3795364 79 79 79
-0.0291726032264095 0.0348295250363075 0.0144161075352795 -0.8832566 0.2619721 -0.388881 84 84 84
-0.0228854047644851 0.0347462447192357 -0.0118601878924706 -0.9130194 0.3761713 -0.1577682 127 127 127
-0.0281035117748609 0.0392177921264592 0.0141455151553103 -0.8987504 0.2708946 -0.3447665 124 124 124
-0.0278243884665261 0.040820395930987 0.0146504793988302 -0.9041189 0.3006288 -0.3036301 88 88 88
-0.028720463229797 0.0331937394215815 0.0118324315408741 -0.8788651 0.2746574 -0.3900762 121 121 121
-0.0109626645993686 0.0658097313036772 -0.0142171862382622 -0.9611152 0.269915 -0.058339 51 51 51
-0.0269717625776287 0.0331052084689463 0.00811257026999565 -0.9598101 0.2198422 -0.1744533 94 94 94
-0.027480936846892 0.0318138592979312 0.00956516813838343 -0.9112115 0.2717077 -0.3096265 143 143 143
0.000499751538983073 0.097404266869874 0.00371944907021732 -0.8790855 0.4758381 -0.02805182 66 66 66
-0.0277371323082052 0.034821581070953 0.0106742373090546 -0.9072353 0.2443401 -0.3423769 106 106 106
-0.0277442287064966 0.0336172306732272 0.00896868841480175 -0.9439646 0.2537378 -0.2110638 93 93 93
0.00551676587772665 -0.0366702460921581 -0.0279218577530424 0.08743162 -0.008314062 -0.9961358 155 155 155
-0.0275098797882782 0.0346984223061758 0.00889908254025029 -0.9457569 0.2378328 -0.2213131 133 133 133
-0.0279505874405648 0.037027768888736 0.0123637225681421 -0.8979184 0.2475036 -0.3639842 117 117 117
-0.0275220136904195 0.03881462055098 0.0129151751938308 -0.9090314 0.258626 -0.3267637 117 117 117
-0.0268799326557287 0.0391448671523861 0.0118609671786588 -0.9167274 0.2618271 -0.3017571 115 115 115
-0.0269815318426976 0.0370590291665303 0.0103383565795121 -0.9278892 0.2268768 -0.2958859 102 102 102
-0.0264061171282175 0.0432734409743933 0.0141130398442448 -0.8896734 0.3637059 -0.2760421 117 117 117
-0.0257749055631971 0.0447674662054722 0.0140921612746149 -0.8864698 0.3667281 -0.2822798 107 107 107
-0.024381452182219 0.0469151603745577 0.0140079203773314 -0.8822874 0.3809043 -0.2765516 123 123 123
-0.0252757918112152 0.0443592996128287 0.0123635656234744 -0.8816518 0.3764609 -0.2845477 127 127 127
-0.0245816010342668 0.0455420898677533 0.0133603872050626 -0.8760361 0.388076 -0.2862827 109 109 109
-0.0253848407513171 0.0426969173304593 0.0103621600718165 -0.8946986 0.3534371 -0.273124 116 116 116
-0.0249274977567422 0.0432820234939465 0.0100554112838834 -0.8891299 0.3706171 -0.2684976 113 113 113
-0.0244147220833786 0.0446632259777181 0.00978913342129736 -0.8850957 0.3789204 -0.2702311 106 106 106
-0.0252034145940632 0.0429464376934262 0.0111105737119463 -0.8865777 0.3752162 -0.2705417 123 123 123
-0.0246942719673255 0.0448525228435294 0.0117739394548612 -0.8838388 0.3798461 -0.2730308 107 107 107
-0.0237107442254563 0.0472182767299182 0.0121638559443181 -0.8798485 0.3790613 -0.286669 72 72 72
-0.0232137196640116 0.0508906025484006 0.0140189017449471 -0.8980843 0.3470328 -0.2702088 115 115 115
-0.0227110992476174 0.0491522326664634 0.0112383360823623 -0.8956052 0.3677803 -0.2502577 68 68 68
-0.00125031999837644 0.0952149824450851 -0.00231477625127594 -0.8836966 0.4638458 0.06266853 69 69 69
-0.0229837700997946 0.0506231579961226 0.0129662347131895 -0.8992046 0.3531461 -0.2583002 96 96 96
0.0158323066290327 0.0144622196647182 -0.0276474691141457 0.007634104 0.01118214 -0.9999083 128 128 128
-0.022475565488145 0.0511695201527018 0.013762310532931 -0.8978979 0.3474693 -0.2702673 99 99 99
-0.0230096794045671 0.0522128678783461 0.0145300461130051 -0.8980089 0.33145 -0.2893457 113 113 113
-0.0222044591402026 0.0529147924862998 0.0141901676038616 -0.8926728 0.3286982 -0.3083709 110 110 110
-0.0213659629119825 0.0526742472619617 0.011820477898922 -0.8967689 0.3499482 -0.270817 101 101 101
-0.0212689941651609 0.0523372483287836 0.0102789678437605 -0.8999947 0.360087 -0.245656 82 82 82
-0.0270238097277355 0.0330257835308049 0.00656347917188849 -0.9661431 0.2260865 -0.1243078 65 65 65
-0.0278096959909175 0.0303614927734923 0.00599532169715217 -0.9675506 0.2195696 -0.1250405 110 110 110
-0.0279942016267967 0.0322774558192714 0.00440335663585692 -0.9618213 0.2368145 -0.137181 75 75 75
-0.0265453070779327 0.0347537444897359 0.00639883194280619 -0.9563059 0.2517722 -0.1486268 65 65 65
-0.0277444541571499 0.0308102733517149 0.00397656984102993 -0.9663904 0.2175339 -0.1369987 53 53 53
-0.0277257037165319 0.0302612508407056 0.00267917760606481 -0.9593883 0.2045743 -0.1942255 104 104 104
-0.0268155868264528 0.0330567504210117 0.00209979437308874 -0.9287136 0.2794462 -0.2437229 100 100 100
-0.0257355547483802 0.0349318622067517 0.00216064660893445 -0.9167958 0.3201434 -0.2387334 123 123 123
-0.0256258533768399 0.038806147204564 0.00621359223796944 -0.9268304 0.2929935 -0.2348199 85 85 85
-0.0256875000543231 0.0377758463337029 0.0035514681472508 -0.9081728 0.3344329 -0.2517474 71 71 71
-0.0243911023358958 0.038246847762005 0.00195057552463848 -0.9027232 0.3442807 -0.2579954 133 133 133
-0.0246364945724611 0.039250082290484 0.00388788406803531 -0.9090688 0.3192873 -0.2676742 123 123 123
-0.025908583958522 0.0307585428585828 -0.00155558752798571 -0.9377083 0.2301053 -0.2602974 95 95 95
-0.0264684977021028 0.030887139122361 0.000357622489431886 -0.9273735 0.2297557 -0.2952808 116 116 116
-0.0256448089785719 0.0343582313935342 0.000331815470552249 -0.9192147 0.2875587 -0.2689877 119 119 119
-0.00701759141876757 0.0758113521862605 -0.0147776426445515 -0.935182 0.3487244 -0.06185319 53 53 53
-0.0250613328195097 0.0349863643672107 0.00017698406435751 -0.9235921 0.2880138 -0.2530329 94 94 94
-0.0256077061616038 0.0332935669872664 -0.000985567463455989 -0.9340896 0.2674371 -0.2365459 128 128 128
-0.0169303878911877 0.0528390499654191 -0.0100700932394448 -0.8830181 0.4391456 -0.1656208 102 102 102
0.0197014758792864 0.0311121326155405 -0.0274698749628763 0.01401023 0.0002491461 -0.9999018 184 184 184
-0.0248716110122171 0.0345400719727453 -0.00222811563449282 -0.9282111 0.2916668 -0.2309862 100 100 100
-0.0250810790508056 0.0307207201001486 -0.00360369565140151 -0.9522134 0.2084364 -0.2232575 91 91 91
-0.024820656617432 0.0326118481258151 -0.00400406064358946 -0.940811 0.2607379 -0.2165421 97 97 97
-0.0253111215263817 0.0316053398603966 -0.00211941554067305 -0.9425796 0.2361458 -0.2361752 111 111 111
-0.0243596706819125 0.0348413931696639 -0.00379559039977664 -0.934846 0.2839404 -0.2131685 95 95 95
-0.0237297360246298 0.0385600294634109 -2.21000959041429E-05 -0.9121024 0.347726 -0.217154 92 92 92
-0.0236980886142728 0.0403026656722713 0.00197242042175949 -0.903877 0.3348421 -0.2662465 88 88 88
-0.0243423202764161 0.0363130510700886 -0.00208842324774186 -0.9263441 0.3176945 -0.2023778 96 96 96
-0.0240401265486614 0.0366794825621403 -0.00378964804947193 -0.9311017 0.3023332 -0.2040692 106 106 106
-0.0236157520953324 0.0380179948455066 -0.00362425493188798 -0.9365054 0.3019795 -0.1782302 77 77 77
-0.0227630957576035 0.0392309915450532 -0.00391093931913225 -0.9424286 0.2941256 -0.1591181 107 107 107
-0.0225518211136408 0.0407305002533523 -0.0022891358880795 -0.9430357 0.2935978 -0.156474 81 81 81
-0.0225348625885 0.0404525806480388 -0.00377095796194163 -0.9451004 0.2937266 -0.1432131 90 90 90
0.0482348815013065 -0.00288143856637901 -0.00916148424944213 0.9353701 -0.2560818 -0.243936 98 98 98
-0.0219950830291922 0.0425651312343261 -0.00398160295403371 -0.9532084 0.2736914 -0.1284009 73 73 73
-0.021776864836726 0.0438921091026738 -0.0019333395943564 -0.9440798 0.3025863 -0.1309769 66 66 66
-0.0254248719183741 0.0410164851639718 0.00838243219117732 -0.9088476 0.3220651 -0.2650851 87 87 87
-0.0251838662867265 0.0411910169289077 0.00796767908279922 -0.9127336 0.3137287 -0.2617093 75 75 75
-0.024599607025819 0.0412048861451425 0.00639034401025951 -0.9199347 0.3230135 -0.2222213 89 89 89
-0.0247839415441988 0.0392900469491898 0.0055550439667563 -0.9233572 0.2964719 -0.2439588 97 97 97
-0.0240987649337225 0.0408582628981847 0.00400028468496016 -0.8994876 0.3270297 -0.2897819 111 111 111
-0.0246644148844797 0.0425713422383476 0.00787301441030683 -0.9179795 0.3172488 -0.2380478 109 109 109
-0.0236712209560068 0.0450060261382974 0.00833984588862238 -0.902827 0.3687692 -0.2211623 90 90 90
-0.0235096150090623 0.0444895149029459 0.00645436610600597 -0.899388 0.3646227 -0.2411464 70 70 70
-0.0230165046996385 0.0449548569351259 0.00655400807980019 -0.9004119 0.3606243 -0.243328 50 50 50
-0.0222514318376974 0.0470937753454986 0.00590233982215602 -0.9066933 0.3577727 -0.2233966 107 107 107
-0.0236418594860348 0.0428208226007878 0.00423779192316456 -0.9094597 0.3149008 -0.2715154 87 87 87
-0.02336867896034 0.044409699301533 0.00443230754416843 -0.9066041 0.3378131 -0.2528861 71 71 71
-0.0222793083595318 0.0452383157776234 0.00356319293871296 -0.912174 0.3315548 -0.2408527 94 94 94
-0.0222924668016524 0.0462418874299638 0.00402843932930866 -0.9068725 0.356809 -0.224209 93 93 93
-0.02145147277383 0.0506863514380469 0.00812276285277896 -0.9113783 0.3621592 -0.1955258 80 80 80
-0.0209932506648891 0.0522405989495136 0.00794415107253738 -0.9101224 0.3736126 -0.1791394 87 87 87
-0.0215136778876108 0.0482687724979842 0.00421050003050752 -0.9107449 0.3531669 -0.2140485 89 89 89
-0.0216395053250298 0.0486284163921089 0.00611716609855661 -0.9125304 0.3502705 -0.2111843 88 88 88
-0.0208724273360503 0.0494689226353754 0.00450013254063159 -0.9047838 0.3613456 -0.2253789 51 51 51
-0.0205191242143046 0.0506917799765023 0.00428850205146042 -0.9162227 0.341826 -0.2090239 92 92 92
-0.020718147336233 0.0512514151816663 0.00608297727611723 -0.9218373 0.3341914 -0.1962959 73 73 73
-0.0206590898392707 0.053358025116864 0.00975001725374788 -0.9076812 0.3557315 -0.2226434 81 81 81
-0.0234003500038424 0.0423429987104277 0.00223134740840877 -0.9140748 0.3069364 -0.265061 91 91 91
-0.0217041471342656 0.044631851817283 0.000133073170587555 -0.929688 0.3136097 -0.1932078 79 79 79
-0.0214475045981231 0.0466122076637382 0.00209091458557653 -0.9063281 0.3512833 -0.2348817 109 109 109
-0.0206025327483599 0.0469805125249549 -0.00182791477073815 -0.9373925 0.3297623 -0.1120362 82 82 82
-0.021033534173176 0.0477113442819292 0.000763906006341075 -0.9204809 0.3325584 -0.2052311 90 90 90
-0.0205811395522038 0.0483192483869453 0.0001194934485233 -0.9268019 0.3361529 -0.1674499 73 73 73
-0.0207705749526124 0.0472918298211235 0.000328540150269258 -0.920467 0.3342021 -0.2026065 61 61 61
0.00739419319916634 -0.0512366645141277 -0.0140313367781781 0.6793949 -0.6377689 -0.3628683 122 122 122
-0.0195115483839285 0.0505478630060924 -0.00201894870717512 -0.9146778 0.3773325 -0.144861 87 87 87
-0.0191322153158562 0.0520250901373051 -0.000384495182624761 -0.9088681 0.3704727 -0.1915951 74 74 74
-0.018470171726682 0.0530977407843474 -0.000592592020203175 -0.904985 0.3829722 -0.1852959 73 73 73
-0.0284016608761479 0.00563725169619245 -0.0191868401056462 -0.9364199 0.284005 -0.2060557 109 109 109
-0.0277034993408187 0.00664461731351929 -0.0191850889348991 -0.9389912 0.2810646 -0.1982376 123 123 123
-0.027315039696751 0.0124921278276591 -0.0174905449933439 -0.9658011 0.1647531 -0.2002114 98 98 98
-0.0266690215468091 0.0145838537930204 -0.0190404348215894 -0.9634393 0.2077508 -0.1691869 114 114 114
-0.026297136948036 0.00842320433247812 -0.0214406436986761 -0.9586537 0.2117082 -0.1901652 142 142 142
-0.0262018187855972 0.0102283243835191 -0.0217662359511338 -0.9790401 0.1037549 -0.1752583 115 115 115
0.035722928692377 0.0198281070376133 -0.0273417081322413 0.01369852 0.001311347 -0.9999053 137 137 137
-0.0268147052832284 0.00644175124643198 -0.0232771400535697 -0.9484667 0.2449316 -0.2010461 115 115 115
-0.0265565245152291 0.00633075631735491 -0.0252942288111415 -0.9092404 0.1580172 -0.3851136 123 123 123
-0.0262214556072178 0.00844851429733651 -0.0229400537347671 -0.9652458 0.1892965 -0.1801871 108 108 108
-0.0259974951360524 0.00794759814573809 -0.0252123986767791 -0.9115087 0.1391567 -0.3870237 133 133 133
-0.0258755049049362 0.0103765990927779 -0.0242493556343051 -0.9722709 0.1096631 -0.2065509 108 108 108
-0.0262869174827747 0.0123188115232774 -0.0214150739747027 -0.9791284 0.09962069 -0.1771535 125 125 125
-0.0262568300344581 0.0143217761468815 -0.0214865159582417 -0.968248 0.1740885 -0.1794131 125 125 125
-0.0262500240516927 0.012696246629789 -0.0231144428734261 -0.9746029 0.1148509 -0.1922459 115 115 115
-0.0258656019529608 0.0114576657142574 -0.0217197128838644 -0.978968 0.08554964 -0.1852102 87 87 87
-0.0258217925289697 0.0117192146041303 -0.023149453542709 -0.9785234 0.09780811 -0.1814537 112 112 112
-0.0253641096381632 0.0124886339140525 -0.025664463742221 -0.8458449 0.1056217 -0.5228676 110 110 110
-0.0260820255408505 0.014388700648869 -0.0229166391022174 -0.958931 0.1894819 -0.2110636 103 103 103
-0.0251632196502525 0.01423506954148 -0.0254567250134222 -0.8806915 0.146652 -0.4504173 119 119 119
-0.026445218559044 0.00624335024451905 -0.0267356972964733 -0.8367345 0.1304772 -0.5318373 117 117 117
-0.0257032510178929 0.00688311814693243 -0.027460824900766 -0.5984911 0.1562739 -0.7857397 133 133 133
-0.0256346068443547 0.0102858741145033 -0.0269917444446593 -0.8127622 0.2105902 -0.5432029 123 123 123
-0.0261232109632892 0.00808364220651769 -0.025943149756242 -0.8956099 0.1075025 -0.431655 179 179 179
-0.0256902418884979 0.0102684398074365 -0.0257307907522704 -0.8919259 0.179275 -0.415125 100 100 100
-0.0247109190006094 0.0143421887478494 -0.027357778450849 -0.7077448 0.1391077 -0.6926372 120 120 120
-0.0218639305573551 0.0129218506469325 -0.0280070905591525 -0.2471766 0.02716512 -0.9685896 173 173 173
-0.0219524774347029 0.0140164190409729 -0.0279878851138125 -0.3302211 0.04373861 -0.9428897 169 169 169
-0.0228780772350763 0.0157080480483174 -0.0281930517867651 -0.4850459 0.1448098 -0.8624156 188 188 188
-0.0247247244957212 0.0175995264317411 -0.0230498245096176 -0.9068213 0.3630969 -0.2140931 77 77 77
-0.0240745099968138 0.0179969577101446 -0.0256151711321927 -0.8298687 0.3421378 -0.4407489 79 79 79
-0.0231825089762066 0.017758200573206 -0.0274584937959028 -0.5940766 0.2309662 -0.7705372 100 100 100
-0.0240321014149028 0.0179579506093034 -0.0265304031471924 -0.7638068 0.2937372 -0.5747326 104 104 104
-0.0225858248677646 0.0219433238032637 -0.0257167188352228 -0.8558733 0.1718662 -0.4877939 77 77 77
-0.0227863754225597 0.0239612657779532 -0.0251674137923964 -0.9346905 0.08410654 -0.3453691 63 63 63
-0.0222260960511518 0.026000522866676 -0.0266134726836793 -0.837198 0.06645956 -0.5428467 69 69 69
-0.0217695570350396 0.0299718650465922 -0.0274066876399815 -0.7831913 0.1335924 -0.6072598 74 74 74
-0.021448073339011 0.0319127537233002 -0.0273942456906079 -0.7404061 0.2074171 -0.6393567 119 119 119
-0.028455191824692 0.00830957970238411 -0.00716644805125596 -0.9681628 0.1669595 -0.1865084 73 73 73
-0.0283752083774467 0.0105947422013563 -0.00686282348783587 -0.9767696 0.12788 -0.1719531 96 96 96
-0.028554222186373 0.00833173924251196 -0.0091003569636737 -0.9860959 0.1273029 -0.106812 101 101 101
-0.0280815316517022 0.00866632495082909 -0.0117115556545175 -0.9903671 0.1235087 -0.06259979 87 87 87
-0.0283979944572614 0.0103773867159399 -0.0098945380489015 -0.990809 0.1143594 -0.07224536 84 84 84
-0.0279316712622275 0.0132353981505472 -0.00793337271565556 -0.9762517 0.153989 -0.1523809 62 62 62
-0.0281702507370074 0.0142970790199968 -0.00731655030794012 -0.9559669 0.2113586 -0.2036046 84 84 84
-0.0274798850304525 0.0142545702218584 -0.00922695855771924 -0.9669194 0.2401556 -0.08597755 79 79 79
-0.0270920498521643 0.0167797827605355 -0.00724839756563819 -0.9508058 0.1991528 -0.2372897 89 89 89
-0.0281956227700046 0.0130112852672165 -0.00930222022829788 -0.9832223 0.1652119 -0.07732333 102 102 102
-0.0266907937163912 0.016362234136822 -0.00939447474741983 -0.9574339 0.2491409 -0.145771 86 86 86
-0.0266327320876372 0.016771683445051 -0.0113953603480362 -0.9507919 0.2893736 -0.1107143 72 72 72
-0.0283569428460928 0.00605724930202256 -0.014786625847783 -0.9694397 0.2235378 -0.1010816 93 93 93
-0.027876325693766 0.0106987985380719 -0.0136589912387777 -0.9899991 0.09668595 -0.1027304 96 96 96
-0.0284078539533665 0.0119589524910838 -0.0135838268392673 -0.9866735 0.1237559 -0.1056406 89 89 89
-0.0276662187673478 0.0125964287663436 -0.013512865523477 -0.9738259 0.2043227 -0.09957531 56 56 56
-0.0264723487052423 0.0160245417967803 -0.0149582967251691 -0.9383206 0.3311521 -0.0994622 86 86 86
0.0567354066747767 0.0392159635165383 -0.00647372632022197 0.9936787 -0.09443483 -0.06070235 80 80 80
-0.0267718681743951 0.0144924393406641 -0.017708833546982 -0.9587843 0.2440894 -0.1454409 85 85 85
-0.0267229651276633 0.0204691794505958 -0.00744848950456806 -0.9531394 0.1475094 -0.2641331 104 104 104
-0.0259992207464337 0.0180871122531099 -0.0101391514750934 -0.9628089 0.2006844 -0.1809 75 75 75
-0.0261735668110727 0.0202873627488892 -0.00935172347718721 -0.9600146 0.1632751 -0.2274054 104 104 104
-0.0260557621411408 0.0189212324017763 -0.0115943832706235 -0.9582912 0.2373574 -0.1591835 88 88 88
-0.0260149173878659 0.0223198322390021 -0.00943639970746155 -0.9634621 0.1821146 -0.1964054 116 116 116
-0.0256174513879317 0.0206919818678881 -0.011354920555446 -0.9673252 0.1713433 -0.1868782 82 82 82
-0.0256241289005965 0.0206354230271668 -0.010080575163166 -0.9658528 0.1664097 -0.1985853 116 116 116
-0.0254597638688898 0.0224758036416584 -0.0103082883737625 -0.9691637 0.1532424 -0.1929727 91 91 91
-0.0257924660575832 0.0244091855969316 -0.00873119662604077 -0.9762943 0.1376777 -0.167016 102 102 102
-0.0250294239166315 0.0247687665185721 -0.00974233397414287 -0.9831285 0.1089499 -0.1469293 113 113 113
-0.0249128294572614 0.0246461091706698 -0.0117030320601479 -0.9847746 0.09376855 -0.1463779 73 73 73
-0.0249767638568514 0.0265857675451692 -0.00987354727658588 -0.9900675 0.1009002 -0.09790549 85 85 85
-0.0249113878681555 0.0281679180825302 -0.00946643924926971 -0.9873548 0.1253674 -0.09702312 74 74 74
-0.025226694261514 0.0268041312621566 -0.00576977092649619 -0.9585959 0.1947304 -0.2077833 101 101 101
-0.0251452692141869 0.0289837070281896 -0.00572597510326942 -0.9675676 0.2003681 -0.1538365 105 105 105
0.060832853278058 0.0818634804301249 0.016170324302244 0.9835732 -0.08368948 -0.1599368 67 67 67
-0.0256097799010191 0.0185379848148275 -0.0139025888187676 -0.9497063 0.2816369 -0.136889 83 83 83
-0.025866910374593 0.0181551984875316 -0.0147641881844292 -0.9418353 0.3161491 -0.1139997 105 105 105
-0.0256415464542989 0.0173942679698847 -0.0143359758472349 -0.9446604 0.3121709 -0.100827 81 81 81
-0.025401961565704 0.0206582427620675 -0.0132818066398883 -0.9662802 0.2031926 -0.1581626 68 68 68
-0.0249601009899982 0.0226968472377368 -0.0133070943743122 -0.9759256 0.1395603 -0.1676073 70 70 70
-0.0258172616818249 0.0170580756391671 -0.015050771851959 -0.9398044 0.3256055 -0.1036765 100 100 100
-0.0250430686374885 0.018507304335586 -0.0153314868707247 -0.9345538 0.3258322 -0.1429775 80 80 80
-0.0246247925117409 0.020648380542825 -0.0155939871993063 -0.9548937 0.2344289 -0.1822665 97 97 97
-0.0258030383364323 0.0171284002237663 -0.0166539753993365 -0.9289911 0.3435771 -0.1375876 113 113 113
-0.0249618421846594 0.0185589121761269 -0.0175422189755166 -0.9266805 0.3464858 -0.1456395 76 76 76
-0.024190661344544 0.0223116397228853 -0.0175798122362169 -0.9721858 0.1228074 -0.199432 96 96 96
-0.024414086553616 0.0225085965581965 -0.0154675755365022 -0.9698946 0.1261261 -0.2083186 105 105 105
-0.0249712398179738 0.0284878441926019 -0.0135150574305079 -0.9801268 0.1288711 -0.15081 101 101 101
-0.0243592047954544 0.0244002210321304 -0.0175225720933846 -0.9781513 0.05944763 -0.1992137 102 102 102
-0.0238678704116935 0.0265753501725309 -0.0176597607598809 -0.9778534 0.06847578 -0.197772 111 111 111
0.0560230748812793 0.0413405760996728 -0.017352971953467 0.9900715 -0.06091638 -0.1266795 81 81 81
-0.0245031331200058 0.0265693424113267 -0.0160233434585883 -0.9775921 0.06276463 -0.2009339 101 101 101
-0.0242140839920495 0.0282166863685274 -0.0157084221818963 -0.9707885 0.1109732 -0.2127311 118 118 118
0.0359501992305866 0.088293811423515 -0.0276344299204741 0.006630446 -0.002842961 -0.999974 97 97 97
-0.0261972874093614 0.0162376015786079 -0.0193133716502222 -0.9312881 0.342037 -0.1253521 79 79 79
-0.0192479607934906 0.00601739670635359 -0.0280166338665692 -0.02468692 0.01182754 -0.9996253 156 156 156
-0.0206418849826191 0.00802798786759484 -0.0278858406067849 -0.1478532 0.03433519 -0.9884132 143 143 143
-0.0194289448353204 0.00787233655702158 -0.0281320024890325 -0.04534706 0.001383469 -0.9989703 168 168 168
-0.0200132742923254 0.0161719314191119 -0.0280914457850055 -0.1587426 0.06083224 -0.9854442 145 145 145
-0.0256596849809261 0.017272266695508 -0.0193590108704729 -0.919668 0.3730941 -0.1225217 92 92 92
-0.0252071510599925 0.0184084995769686 -0.0199610716399819 -0.9211617 0.3659382 -0.132478 97 97 97
-0.024263495380509 0.0212486944172636 -0.0180008449319414 -0.9627013 0.1947881 -0.1877867 82 82 82
-0.0238000696184406 0.0220969171087623 -0.0198587760120324 -0.9740175 0.1204385 -0.1917928 159 159 159
-0.02343147866539 0.0218552741152043 -0.020295094294681 -0.9700326 0.1688966 -0.174673 121 121 121
-0.0236130343979442 0.0223825499410267 -0.0214352336244004 -0.9694815 0.1478272 -0.1955829 147 147 147
-0.0231884585097022 0.021817521446316 -0.0216826576563175 -0.9696072 0.1542872 -0.1898875 122 122 122
-0.023210005110774 0.0212773037411232 -0.0213845193548705 -0.9581742 0.2033436 -0.2013795 139 139 139
-0.0238311494106034 0.0198525179662822 -0.0230491351390222 -0.9356501 0.2876589 -0.2044779 124 124 124
-0.0230282932032155 0.0218282052698927 -0.0237370683421706 -0.96391 0.1761146 -0.1996526 94 94 94
-0.0235964294283415 0.0246176009704342 -0.0210158358558198 -0.979336 0.07468954 -0.1879428 84 84 84
-0.0235496601334928 0.0248692157366328 -0.0199349697290166 -0.9757868 0.04947305 -0.2130552 70 70 70
-0.0233514591906208 0.0277320837690174 -0.0183171570893009 -0.9739487 0.1239838 -0.1898736 143 143 143
-0.0230612966414938 0.0283925919528314 -0.0202076462945286 -0.9744012 0.1069826 -0.1977295 79 79 79
-0.0232672174316966 0.0242607611382339 -0.0218520994439695 -0.9805079 0.06977034 -0.1836749 93 93 93
-0.0228467286917782 0.0242384201544141 -0.0236535707312628 -0.9723167 0.08168549 -0.218924 66 66 66
-0.0226200300319386 0.0263115064695684 -0.0233704008398285 -0.9718353 0.06078459 -0.2276872 82 82 82
-0.0186356297728847 0.0178380728090967 -0.0280636109946207 -0.1027371 0.04939979 -0.9934811 153 153 153
-0.0208063916287651 0.0191909865934499 -0.028014845832969 -0.3744051 0.1187177 -0.9196342 178 178 178
-0.0204689384989603 0.0189393382693741 -0.028141318297197 -0.2897022 0.09784553 -0.9521024 161 161 161
-0.0207571215662341 0.022083504311856 -0.0279551581118169 -0.4549877 0.06278708 -0.8882815 155 155 155
-0.0189781122016199 0.0198963857199731 -0.0280926243250809 -0.210099 0.03280297 -0.9771296 147 147 147
-0.020746982154866 0.0242427271897345 -0.0278638566630141 -0.4659432 0.05662794 -0.8830007 134 134 134
-0.0188527742645421 0.0231489518144025 -0.0280845261962876 -0.2333063 0.0178314 -0.9722398 162 162 162
-0.0198023542672501 0.0263877504278999 -0.0279775171952673 -0.3886307 -0.001238967 -0.9213928 165 165 165
-0.0248549349375062 0.030294711917 -0.00966579195575976 -0.9733923 0.2183298 -0.06956657 123 123 123
-0.0254840572015629 0.0291566873353403 -0.0108545324577213 -0.9880564 0.1274052 -0.08667394 148 148 148
-0.0257793410109122 0.0303952356080631 -0.00490469222491929 -0.9625211 0.205019 -0.1775396 106 106 106
-0.0248480089176013 0.0307264757841513 -0.0058055804004071 -0.9633774 0.2244817 -0.1466693 91 91 91
-0.0245289803114843 0.0325792876525798 -0.00552170178581496 -0.9482753 0.2687162 -0.1690132 109 109 109
-0.025623798432072 0.0291863968102071 -0.00763566106831012 -0.9803934 0.159771 -0.115335 111 111 111
-0.0245347537862515 0.0307820728423034 -0.00764743474795559 -0.9696273 0.2262132 -0.09300831 90 90 90
-0.0242600939946436 0.0345677022172826 -0.00559010380096436 -0.9434954 0.2743076 -0.1859348 101 101 101
-0.023146546422844 0.0349707210040014 -0.00744670020016916 -0.9415482 0.3001326 -0.1529949 84 84 84
-0.0236050404751571 0.0345498104522525 -0.00966600396872944 -0.9310738 0.3440858 -0.12127 116 116 116
-0.0232207703701841 0.0371369571323455 -0.00445874092123733 -0.9398317 0.2879979 -0.1837762 65 65 65
-0.0219804547068769 0.0409855014005698 -0.0062202106276826 -0.9521115 0.2662799 -0.150262 85 85 85
-0.0229678143164314 0.0358843853788642 -0.00828347886018599 -0.9373748 0.3085472 -0.1616386 96 96 96
-0.0226870542170976 0.0368674782090915 -0.00924478935023365 -0.9300323 0.3279904 -0.1657174 105 105 105
-0.0154173401742077 -0.00219935769559532 -0.0279023739858435 0.01196322 0.005440407 -0.9999136 147 147 147
-0.022297916524592 0.0386552424254327 -0.0102764791516508 -0.9310519 0.2989109 -0.2092716 102 102 102
-0.0214912004786343 0.0408450654894974 -0.00962739068184437 -0.942348 0.2572491 -0.2140168 103 103 103
-0.0248040897708381 0.0304822087227034 -0.0120509802531761 -0.9670659 0.2292161 -0.1106507 105 105 105
0.0487352693721586 0.00591800523015096 -0.010522479123405 0.9706763 -0.0465581 -0.2358387 94 94 94
-0.0238008353091608 0.033488634099941 -0.0119638315991075 -0.9240863 0.3609594 -0.1255896 163 163 163
-0.0228430436380767 0.0345854621351838 -0.0134105855535079 -0.898848 0.399085 -0.181117 134 134 134
-0.0241119533452914 0.0301901148010264 -0.0156341331974245 -0.9510553 0.2215728 -0.2154052 140 140 140
-0.0238237876970333 0.0303780318482012 -0.0175449953370407 -0.95753 0.209925 -0.1976558 105 105 105
-0.0234781599044656 0.0324789379874355 -0.0152342164967869 -0.9089658 0.3711211 -0.1898691 122 122 122
-0.0236055868739722 0.0322161685720672 -0.0172603147639682 -0.9271883 0.3180443 -0.1979133 127 127 127
-0.0222267916047139 0.0347922095720027 -0.0160181827170126 -0.8994069 0.3942368 -0.1887978 120 120 120
-0.0214774877579718 0.0362501299973622 -0.0158936231379893 -0.9073961 0.3827157 -0.1736694 125 125 125
-0.0206877983863056 0.0386787403053389 -0.0160081565940171 -0.9447196 0.2898335 -0.1533015 151 151 151
-0.0221780815748092 0.0365085687534129 -0.0121465877633981 -0.9146457 0.3614412 -0.1810619 92 92 92
-0.0215420858422946 0.0381197829114686 -0.0117209162493387 -0.9267107 0.3183684 -0.1996215 109 109 109
-0.0212988130736036 0.0382327029199995 -0.0136045763309215 -0.9227151 0.3275568 -0.2032322 103 103 103
-0.0206875163275912 0.0407608295412183 -0.0121944869527666 -0.9459507 0.2471934 -0.209935 129 129 129
-0.0208200186238665 0.0370762606131961 -0.015199505861604 -0.9203209 0.345943 -0.182573 109 109 109
-0.0209865303532648 0.0386250562109932 -0.0135504474197247 -0.9318618 0.3099826 -0.1885323 95 95 95
-0.0201424951850324 0.0399865698989769 -0.0136547372700341 -0.9501952 0.2573035 -0.1758523 102 102 102
-0.0216792408732318 0.044386189847387 -0.00433008675907293 -0.9491633 0.2929414 -0.115215 81 81 81
-0.0217121752242537 0.0422205961430158 -0.0054308498913378 -0.9553326 0.2545851 -0.1500868 70 70 70
-0.0213412371611601 0.0442115611160374 -0.00564661198211977 -0.9502413 0.278835 -0.1388973 85 85 85
-0.0210604181485681 0.0460646263267184 -0.00368177836932776 -0.9394952 0.3215548 -0.1181154 79 79 79
-0.0204093872839601 0.0467759984796999 -0.00576451014073412 -0.9266344 0.3516893 -0.1329034 71 71 71
-0.0206465186717237 0.0468412227068565 -0.00379471132573134 -0.9337352 0.3323524 -0.1329677 78 78 78
-0.0205416535999545 0.0445329956497107 -0.00805803227483651 -0.9371266 0.2842969 -0.2024077 73 73 73
-0.0210731669629052 0.0446270429796493 -0.00890867429384246 -0.938386 0.2819652 -0.1998181 99 99 99
-0.0204679103765806 0.044512262911044 -0.00963582160852661 -0.9397339 0.2836261 -0.1909354 75 75 75
-0.0197500363718921 0.0482811457375698 -0.00629197856304803 -0.910293 0.3901334 -0.138429 109 109 109
-0.0193906814015665 0.0482976267584715 -0.00807969938210229 -0.9128413 0.3754618 -0.1604655 91 91 91
-0.018519481656271 0.0504478356972963 -0.00598907124250542 -0.8942395 0.4228027 -0.1468796 77 77 77
-0.0206507366768356 0.0424208573225298 -0.0102658738246192 -0.9474298 0.2417161 -0.2096428 87 87 87
-0.019304252860741 0.0461863378504827 -0.0121438794600467 -0.9385836 0.296809 -0.1759698 70 70 70
-0.0200133200598502 0.0426504623212203 -0.0140921637251197 -0.9583373 0.234074 -0.1637039 114 114 114
-0.0196418919222361 0.0444935957531249 -0.013901809941531 -0.9535885 0.2507614 -0.1666962 111 111 111
-0.019231337775192 0.0461108274036076 -0.0139876611573733 -0.9390759 0.3047305 -0.1589837 125 125 125
-0.0188240056948372 0.0494609301452444 -0.00993278788950533 -0.9049694 0.4005069 -0.1436126 128 128 128
-0.0184094243740525 0.0484767643325522 -0.0123248076082721 -0.9103156 0.3687235 -0.1880653 86 86 86
-0.0179067531987167 0.0501149888390889 -0.0119362263110525 -0.8881519 0.4261229 -0.1720622 83 83 83
-0.0174100018137837 0.0513300948368784 -0.0114604334809906 -0.8846581 0.4370707 -0.1623245 111 111 111
-0.0179701786300202 0.0481032595183422 -0.0158673218779154 -0.905129 0.3888009 -0.1719751 94 94 94
-0.0183024950542874 0.0487236271708301 -0.013522744022249 -0.9081145 0.374224 -0.1878415 94 94 94
0.0453741749697061 -0.0116351063163898 -0.00534356646855544 0.7904841 -0.5298904 -0.3071663 49 49 49
-0.0176731114552566 0.0500830823522753 -0.013937002511707 -0.8935342 0.4088035 -0.185678 76 76 76
-0.016770650813001 0.0520122492704373 -0.0142031261426286 -0.8846295 0.4313743 -0.1770505 88 88 88
-0.0190715686683831 0.0503562634834599 -0.00540222596099177 -0.9015445 0.4105138 -0.136733 100 100 100
-0.0182242743054501 0.0522343837495928 -0.00378460992704618 -0.9013557 0.4001792 -0.1655729 85 85 85
-0.0176085616125297 0.0526623171566507 -0.00598256292323687 -0.8876181 0.4228419 -0.1825894 87 87 87
-0.0234098115644306 0.0302019476711822 -0.019508491018068 -0.9604481 0.1997122 -0.1940476 77 77 77
-0.0232523568006646 0.0307134930008812 -0.0185322771365571 -0.957164 0.2200038 -0.1882426 86 86 86
-0.0226945062057438 0.0323202417155359 -0.0196550785693817 -0.9349957 0.3015275 -0.1867196 107 107 107
-0.0226312482621931 0.0325276507058161 -0.0183178230359426 -0.9234559 0.3261695 -0.2020956 113 113 113
-0.021594855178396 0.034272360001002 -0.0197450912434371 -0.9075722 0.3821753 -0.1739389 119 119 119
-0.0233893532548488 0.0295412680298149 -0.0211308054390593 -0.9684618 0.1431821 -0.2039136 67 67 67
-0.0223870169180846 0.0302571149279902 -0.0236230954216172 -0.9520475 0.2244564 -0.2079058 86 86 86
-0.0215917608194058 0.0336369664992257 -0.0218939337317547 -0.9095979 0.3754902 -0.1778727 92 92 92
-0.0208700954623127 0.0365771019903731 -0.017772991214067 -0.909228 0.3812245 -0.1672492 125 125 125
-0.0207645611500888 0.0362902691150377 -0.0200340087546301 -0.9206697 0.3598028 -0.1513584 140 140 140
-0.0120012137811782 -0.0920353460976252 0.00696678690122152 0.7345326 -0.487004 -0.4725346 90 90 90
-0.0201149257397166 0.0402423026872595 -0.0174129833877009 -0.9592355 0.2459405 -0.1392136 181 181 181
-0.0209994721244218 0.0346596373517323 -0.021812646592346 -0.9166007 0.364462 -0.1643489 104 104 104
-0.019285004814027 0.0402859710611478 -0.0195562605130568 -0.962814 0.2314286 -0.1393917 125 125 125
-0.0192201982819376 0.0404951309941137 -0.0216606669712002 -0.9683447 0.2173295 -0.1227862 99 99 99
-0.0219709534413797 0.0302978183536183 -0.0253587507474537 -0.8851565 0.1698725 -0.4331759 76 76 76
-0.0219160962068878 0.0321687151150559 -0.0241382668830801 -0.9261616 0.2951516 -0.2347558 61 61 61
-0.0214608681016741 0.0320885564979785 -0.0257172945938275 -0.8808278 0.2490111 -0.402661 85 85 85
-0.02146629161438 0.0332753749864991 -0.0235546863825984 -0.9220094 0.3433907 -0.1788335 66 66 66
-0.0211264265204223 0.0335680591260199 -0.0253354550053225 -0.8772824 0.2725402 -0.3950915 57 57 57
-0.0181518841229773 0.0304171673591288 -0.0279901565735132 -0.2650017 0.07785232 -0.9610999 155 155 155
-0.0201676039598648 0.0360430062999558 -0.0239714787384786 -0.9245378 0.307387 -0.2252621 100 100 100
-0.0196192782740761 0.0380461635121624 -0.0239869617865118 -0.9484773 0.2502565 -0.1943255 102 102 102
-0.019617934698227 0.0359476259694448 -0.0273868429118331 -0.7721322 0.2424182 -0.5874056 97 97 97
-0.0195198088112138 0.0360235957541518 -0.0262931740727539 -0.8256434 0.2743364 -0.4930035 108 108 108
0.0201718277924108 0.0481400539007039 -0.0277094131360438 0.0008422165 -0.0003207805 -0.9999996 165 165 165
-0.0193000332317146 0.0377538810529262 -0.0271352420669522 -0.6957541 0.2083772 -0.6873902 97 97 97
-0.0179868872917321 0.0373505503451441 -0.0278336159769169 -0.4745869 0.1739321 -0.8628528 126 126 126
-0.0177085746963905 0.0367703783930188 -0.0278726917407279 -0.50019 0.1479876 -0.8531762 157 157 157
-0.0178422404017509 0.0400478366400896 -0.0279035171341324 -0.4656301 0.1751373 -0.8674765 127 127 127
-0.0192338582082483 0.0440398359590486 -0.017744521953091 -0.9536396 0.2614059 -0.1491259 116 116 116
-0.0189511152318593 0.0444877109783207 -0.0192595450889671 -0.9482571 0.2882491 -0.1331202 138 138 138
-0.0187786846277667 0.0424348396902928 -0.0212959861058352 -0.9671924 0.2257179 -0.1165772 94 94 94
-0.0179222524922471 0.0465269195677914 -0.0198941013991577 -0.9207391 0.3635527 -0.141665 93 93 93
-0.0185555688358177 0.0439878634542634 -0.0220888931054693 -0.9576148 0.2642201 -0.1147242 93 93 93
-0.0184204113490587 0.0463958155408737 -0.016315987179175 -0.9223333 0.3444181 -0.1751498 104 104 104
-0.0187380554950016 0.0433952792164058 -0.0188263513779465 -0.9561163 0.2594055 -0.1362002 90 90 90
-0.017002912946593 0.049915024958251 -0.0162496839552317 -0.8964374 0.4091763 -0.1702198 95 95 95
-0.0167344563300615 0.0514525482437517 -0.0158528711058527 -0.8947603 0.4145716 -0.1659348 126 126 126
-0.0165792003662553 0.0502228499787016 -0.0168109173844734 -0.9020951 0.4043694 -0.1506976 63 63 63
-0.0163959245472793 0.0502720806697619 -0.017290286863405 -0.9021949 0.4014879 -0.1576446 57 57 57
-0.0172550707140868 0.0480164488326497 -0.0198089705703607 -0.9142218 0.3840639 -0.1292032 73 73 73
-0.016622555907065 0.0498233663021433 -0.0203658027759479 -0.9123637 0.3899988 -0.1244726 98 98 98
-0.00244511358970567 0.0933697207771131 -0.0227115992196355 -0.8717312 0.4881059 -0.04286413 48 48 48
-0.0164429929103409 0.0490231661930485 -0.0205620668342557 -0.9126688 0.3890585 -0.1251762 64 64 64
-0.0157622882410517 0.0522963700658562 -0.018453303293955 -0.8988244 0.4135797 -0.1451433 73 73 73
-0.0161294916137575 0.0505013628545068 -0.0200557210219711 -0.9085633 0.4010037 -0.1170848 72 72 72
-0.0189394110790206 0.0415906661583887 -0.0242197638007393 -0.9492016 0.2065024 -0.2374301 141 141 141
-0.018187038266007 0.0440257840880566 -0.0233897050498159 -0.9488329 0.2923554 -0.1193497 119 119 119
-0.0185768904188124 0.0422145532121248 -0.0259996568750032 -0.8621894 0.2182282 -0.4571716 154 154 154
-0.0179798945225313 0.0436680335054286 -0.0258222159290012 -0.890791 0.2644398 -0.3695443 159 159 159
-0.0187390186618854 0.0436471496252641 -0.0241803476704483 -0.9432043 0.2672988 -0.1972736 153 153 153
-0.0175746693033245 0.046082335365096 -0.0244311373456295 -0.9149024 0.3527396 -0.1962862 113 113 113
-0.0181255798678475 0.043768510328932 -0.0272174044804519 -0.7420723 0.1870852 -0.643683 206 206 206
-0.0172131441028904 0.0461619246570604 -0.0274537309472113 -0.7225414 0.2521187 -0.6437159 134 134 134
-0.0170043875333681 0.0477000893679883 -0.0237324940623612 -0.9201179 0.3676529 -0.1349605 90 90 90
-0.0164283822898639 0.0489136684148274 -0.0230856480469498 -0.9167426 0.3826719 -0.1146527 77 77 77
-0.0164071601469165 0.0481890371620675 -0.0254923217486132 -0.8710545 0.3697609 -0.323328 97 97 97
-0.0167310975182047 0.0473391583464831 -0.0260364173829334 -0.8196942 0.3511427 -0.4525485 102 102 102
-0.0164720047052593 0.0479721525642174 -0.0274663475393856 -0.7351101 0.3343041 -0.5897914 151 151 151
-0.0157285436724504 0.0501622235813353 -0.0259780570986481 -0.8631793 0.3236394 -0.3875293 140 140 140
0.0500334686010389 0.0113095423911117 -0.000963817344279971 0.9946949 -0.09792308 -0.03151419 97 97 97
-0.0158293634639675 0.050389238211807 -0.024102132609526 -0.904278 0.3988676 -0.152269 88 88 88
-0.0152683393758215 0.0520107135627927 -0.0240228530420153 -0.9082408 0.3823656 -0.1699858 83 83 83
-0.016180570442786 0.0494394613315124 -0.0222004405172322 -0.9147507 0.38899 -0.1091696 62 62 62
-0.0143659810928016 0.0524684534669173 -0.0260510326586095 -0.7858683 0.3745758 -0.4920406 96 96 96
-0.0107269188823325 -0.045856713319309 -0.0277359337446154 0.01373677 -0.004251704 -0.9998966 133 133 133
-0.0124108432235495 0.0702769442765423 0.00633147342765711 -0.8857701 0.4083308 -0.2206293 78 78 78
-0.00302533042669384 0.091762970783775 -0.0155227960038745 -0.9186257 0.3943862 0.02421461 65 65 65
-0.0106840431742612 0.0659841033208239 -0.0100454766958931 -0.9413829 0.3335441 -0.05046396 78 78 78
0.0442651061924664 0.0987901205154129 -0.027145008747481 0.321428 0.533138 -0.7825905 112 112 112
0.0519563701110648 0.045486036734788 -0.0272838549200253 0.4095281 -0.02736067 -0.9118871 125 125 125
0.0135295662078148 -0.0293045978847266 -0.0276589735651534 0.1471096 -0.1012128 -0.9839282 148 148 148
0.0575377607525469 0.0628944548570574 -0.0059835589758977 0.9944207 -0.02437169 -0.1026327 143 143 143
0.00897349601051012 0.0422992185643539 -0.0277508617181499 0.01251019 0.002601716 -0.9999183 156 156 156
-0.00295208105700073 0.0919202660897936 -0.0085337978479896 -0.9396256 0.3372433 0.05805826 42 42 42
-0.0095349553443238 0.0657746401707878 -0.0223236524300749 -0.9341107 0.3398699 -0.1092045 69 69 69
0.0608379705579809 0.0888993593126012 0.00720244141667942 0.9483237 -0.1388336 -0.2853199 43 43 43
0.0479065569826775 0.0875473601977611 -0.0276422425438319 0.008663007 0.0002651539 -0.9999624 87 87 87
0.0564989309243227 0.0527166640560529 -0.0167033393175572 0.994329 -0.01710719 -0.104963 66 66 66
0.00303319461707874 0.0211359024543597 -0.027760092179042 0.005318417 0.003281118 -0.9999804 133 133 133
-0.0145842316311982 0.0659165181565008 0.00774963332175246 -0.8667178 0.4030617 -0.2938393 77 77 77
0.0033064189467753 -0.0183672421931804 -0.0275215222725281 0.006055903 0.001858213 -0.9999799 136 136 136
0.00632897485818007 0.0990336457066787 -0.0277598989398281 -0.2427288 0.171312 -0.9548481 119 119 119
-0.00393447305600447 0.0897643364887545 -0.0161032341559364 -0.9675243 0.2526752 -0.007212398 65 65 65
-0.0148805739647537 0.0534536463586772 -0.0196167351654419 -0.9026105 0.4126228 -0.1226241 63 63 63
0.00837138256058445 -0.00338157031471165 -0.0278042474579774 0.005149262 0.001260872 -0.9999859 108 108 108
-0.00109298410432457 -0.0208604079096617 -0.027585207182137 0.009544298 -9.928066E-05 -0.9999545 117 117 117
0.0200268326054898 -0.0467781146738108 -9.82885477388007E-06 0.6878555 -0.571791 -0.4471128 132 132 132
0.0386921196922101 0.107053341727779 0.00712832090891266 0.4223722 0.8911229 0.165836 24 24 24
0.0474151642993397 0.0936857081352372 -0.0275707233229743 0.08718062 0.1594161 -0.9833545 84 84 84
-0.0107907363195094 0.0720553502507454 0.0016330640926841 -0.884811 0.4234666 -0.1943849 64 64 64
-0.0116248625555062 -0.0229385092904587 -0.0278749785617898 0.01053137 -0.008784768 -0.9999059 140 140 140
-0.0046297748736821 -0.038294960404234 -0.0278592259443785 0.01105188 -0.007423796 -0.9999114 143 143 143
-0.00450371721151055 0.0882251003219386 -0.0242237827790174 -0.9688764 0.2425427 -0.04951442 38 38 38
0.0341113562725182 0.0999561589319182 -0.0276236495664898 0.002451119 -0.003947354 -0.9999892 114 114 114
-0.0134332368282153 -0.0133121106230342 -0.0278050689403717 0.001795885 -0.0142601 -0.9998967 123 123 123
0.0140051144035118 -0.0547837955076024 0.00206743781226018 0.6490148 -0.607417 -0.4580657 138 138 138
0.00199984758146443 0.0896726631814135 -0.0277670555514432 -0.07357237 0.03245513 -0.9967616 127 127 127
-0.0142233077002694 0.0632173336696896 0.00156269232732534 -0.8925762 0.413305 -0.1802406 44 44 44
-0.0184397329197279 -0.0598760879957321 -0.0281195228204923 0.01454157 0.005823618 -0.9998773 190 190 190
-0.0121282299371206 -0.0691060966758769 -0.0237646345680962 0.7330898 -0.5453619 -0.4063985 110 110 110
0.0251826674123001 0.114499206675398 0.00507557481047899 0.3826625 0.7885709 0.4813786 25 25 25
0.00161418059239593 0.085286211370477 -0.0278574822851974 0.01038803 -0.001202736 -0.9999453 124 124 124
0.00318426804270322 -0.0551501761427053 -0.0134452256637623 0.7165043 -0.6017488 -0.352874 155 155 155
0.0599435145205907 0.0659890935862922 0.00868631896864178 0.9911471 0.02596541 -0.1302046 53 53 53
0.0416532889307695 0.0356433174119012 -0.0273537635516675 0.008634093 -0.006706116 -0.9999402 139 139 139
-0.00490566620763611 -0.0334190481082308 -0.0278787018279464 0.007677293 0.005186138 -0.9999571 154 154 154
-0.00634455562541247 0.0878899421277769 0.0116973347208202 -0.8268239 0.4240959 -0.3694656 79 79 79
-0.000397775655414545 -0.0819274459657124 0.0139916582735616 0.7475811 -0.4859296 -0.4527636 112 112 112
-0.00436784255233502 0.0815994007005711 -0.0207713109371298 -0.9893958 0.1446712 -0.01289168 69 69 69
-0.0172938403545395 -0.0520417637526989 -0.0279156103117752 0.01806531 0.006994933 -0.9998124 160 160 160
0.0267165627131078 0.0184224219747882 -0.0274982943280382 0.008804685 -0.0012206 -0.9999605 124 124 124
-0.0166230323919814 0.0666022805634013 0.0125655608458075 -0.8357498 0.3771622 -0.3990877 94 94 94
0.000332760383801478 -0.0700138166624318 0.00207827126488008 0.7198708 -0.5425493 -0.4329275 95 95 95
0.00941447310417631 0.0751604925408401 -0.0278707552400014 0.01901949 0.0006747156 -0.9998189 200 200 200
0.000522506981787352 0.00359942278000602 -0.0277975450178986 0.02118245 0.0078625 -0.9997447 128 128 128
0.0110052402084564 0.00483123656852946 -0.0277613690607773 0.0120066 0.00473148 -0.9999167 182 182 182
0.00216979502222192 0.0928994981100059 -0.0280462636294319 -0.1938093 0.1131138 -0.9744964 133 133 133
-0.0145596006143793 0.0532237171116784 -0.0236116005235891 -0.9066918 0.4072928 -0.1096475 70 70 70
-0.0192537100494723 -0.0178638443805569 -0.0279197896489319 0.01757463 -0.01469501 -0.9997376 145 145 145
0.0593226407060394 0.0555249450740573 0.00364041843393983 0.9977708 -0.04600645 -0.0483404 70 70 70
0.0475212562176599 0.00431333615006868 -0.0151167764508208 0.8142865 0.03659159 -0.5793087 110 110 110
-0.00370637460862655 0.091331722293318 -0.0206748324036601 -0.9355124 0.3516803 0.03372632 50 50 50
0.00519721198855261 -0.0504464562783324 -0.0195250602259507 0.6616502 -0.5981535 -0.4521409 125 125 125
0.0471840004818018 0.00919540612333603 -0.0130308659005522 0.8492481 -0.1423991 -0.5084292 151 151 151
0.0575838423279473 0.0480119540127721 -0.00904572507686399 0.9914536 -0.01702157 -0.1293446 45 45 45
0.0106358506891318 0.115201350226053 -0.00869675470804004 -0.8755595 0.4623713 -0.1400297 151 151 151
0.0208133679981399 -0.0390416019449156 -0.00881372125034283 0.6936241 -0.5816733 -0.424902 191 191 191
-0.00591522116164178 0.0798647675036926 -0.00637248730109083 -0.9744399 0.2075109 0.08605894 81 81 81
0.00996986191879312 0.111780789941978 0.00150359759836363 -0.9204379 0.3889128 0.0392532 160 160 160
-0.0126700968945794 0.0658911000011482 -0.000528466270930283 -0.896541 0.4153316 -0.1539932 67 67 67
-0.00461896800904116 0.0652624085896097 -0.0279942618206759 -0.1673872 0.07820446 -0.9827846 126 126 126
-0.0104047389269839 0.000302943758815122 -0.0280769933651953 -0.0007366874 0.00152481 -0.9999986 137 137 137
0.062426082500094 0.095086732490705 0.00833517534527187 0.9583853 -0.1212583 -0.2584453 43 43 43
-0.0135862876191035 -0.00613778118823904 -0.0279242230794132 0.005715164 -0.000423077 -0.9999835 142 142 142
0.0544871121047639 0.0391240113692815 -0.0250710250840739 0.7748727 -0.1024084 -0.6237666 121 121 121
0.0243566447917165 0.0532314195634542 -0.027534395866822 0.01226516 0.001907585 -0.9999229 123 123 123
0.0239696338669468 -0.0156604382747266 -0.0275896564360848 0.1004896 -0.04909765 -0.993726 119 119 119
0.0169658457080166 -0.0302099901486459 -0.0272968690264241 0.4087909 -0.2944052 -0.8638377 195 195 195
0.00732343019190584 -0.0437022948169622 -0.0242146651257935 0.6085168 -0.6059 -0.5124378 87 87 87
0.0429894263569361 -0.006519825914445 -0.0160084031312072 0.7626793 -0.3943727 -0.5126308 70 70 70
0.0390851102807814 -0.0251332136341497 0.00253382214644074 0.8339319 -0.461514 -0.3025928 22 22 22
0.050092264648093 0.0706779182466882 -0.0273994840196486 0.01536171 0.006823212 -0.9998587 119 119 119
0.0519373914872217 0.0213934201222936 -0.00808179094611663 0.8951514 -0.4457239 0.005841234 79 79 79
0.00118963766664892 0.0172490838220856 -0.0276804946257319 0.004321936 -0.001043096 -0.9999901 179 179 179
0.021422613747818 0.106320490976452 -0.0277941756405274 0.005763833 0.007956104 -0.9999517 104 104 104
0.0420438716484342 0.10463099564764 0.0120917710355835 0.3499364 0.9340462 0.07142942 28 28 28
0.0288977599157618 -0.0429559518179395 0.0112436999903242 0.7349556 -0.599829 -0.3162997 150 150 150
-0.0125687426067311 0.0660309100576431 -0.0022892370121442 -0.8816798 0.4274587 -0.1997993 59 59 59
-0.0135200927572636 -0.0566986193825088 -0.0277851147443125 0.03615227 0.002486657 -0.9993432 118 118 118
-0.00451201080757824 0.0821918445726157 -0.0181274523959404 -0.9821167 0.1719009 -0.0767909 61 61 61
0.0122929915877878 -0.0149564950477593 -0.0276122900406825 0.01599084 0.003406993 -0.9998663 118 118 118
0.0432535996339729 0.0503469216476604 -0.0273855461538585 0.004651104 0.002256901 -0.9999866 129 129 129
-0.00607653583369827 0.0822780253159465 0.00550062613811306 -0.8932351 0.3821779 -0.2367931 68 68 68
