ply
format ascii 1.0
comment File exported by Rhinoceros Version 7.0
element vertex 473
property float x
property float y
property float z
property float nx
property float ny
property float nz
property uchar red
property uchar green
property uchar blue
end_header
0.037033075178458 0.0277036014185772 0.0174882874740926 0.1843215 0.9594748 0.2131518 231 231 231
0.0211216152556675 -0.0176991638554707 0.00161697127955829 0.1105967 -0.9812743 -0.1576996 90 90 90
-0.0252093135468228 0.00695391327007866 -0.0161702468143138 -0.6107605 0.7875001 0.08255345 49 49 49
-0.0395137130371792 -0.0144963678731098 0.0052044556392995 -0.004970862 -0.998826 -0.04818532 83 83 83
-0.0343532621018154 -0.00186256736651802 0.0260885522617665 -0.5207023 0.8033742 -0.2888926 45 45 45
-0.0390044509522183 -0.0134629425419941 0.0226617322220174 -0.03183119 -0.9978161 -0.05787824 111 111 111
-0.00488436809699366 -0.0144170936955585 -0.0109873249278697 -0.1088814 -0.9939502 -0.01441337 77 77 77
0.0360372007735508 -0.0124488291157856 -0.0178363456473979 0.3967604 -0.9152369 -0.07016161 111 111 111
-0.00100648990790675 0.0236497703181133 -0.0122403933749827 -0.533341 0.8426011 0.07463742 77 77 77
-0.0334366618744595 -0.0133346733464375 -0.0147016479716929 0.01911222 -0.9963039 -0.0837454 51 51 51
-0.0264315663925869 0.000787693558774949 0.0167726145042745 -0.4889783 0.8719684 0.02390081 90 90 90
-0.0234288035980923 -0.00543312400714302 0.0398250983013478 0.05683113 -0.03246797 0.9978557 233 233 233
-0.0461227952591641 -0.00933508247271919 0.0255185232414571 -0.9005653 0.2837148 -0.3293754 70 70 70
0.0224569977172153 0.00561900764568901 0.0374835000290242 -0.06319429 0.3529151 0.9335188 156 156 156
0.0170702875502842 -0.0211570677174702 0.0297069714321462 -0.07422221 -0.9922833 -0.0993222 69 69 69
0.000615590895010731 -0.0182519373311176 0.0195909009231893 -0.0625354 -0.9962192 -0.06030481 109 109 109
0.0185527742751377 -0.00640265315905952 0.0388415620579091 -0.07466872 0.1207466 0.9898711 131 131 131
-0.0272463618866665 0.00428720146282768 0.0347135231746999 -0.3757806 0.9020499 -0.2123555 63 63 63
-0.0422750770203335 -0.0125735220326557 -0.0342720880256328 0.005614312 -0.9999757 -0.004143214 60 60 60
-0.0377030431381924 0.00088699489697075 0.037591712261614 -0.3835261 0.9190759 0.09059386 49 49 49
-0.00146341911475489 0.0133227887736187 0.0327918396248189 -0.009909804 0.961605 0.2742584 95 95 95
0.00131725677330663 -0.0195407089604511 0.0391577050937978 -0.08371827 -0.6994104 0.7098002 136 136 136
0.0291112602599399 0.0222014966593609 -0.0268835558639201 0.1105964 0.9908813 -0.07695922 46 46 46
0.0351318062194126 -0.00884608596698189 0.0221919880165425 0.8476775 -0.5303215 -0.01421385 81 81 81
0.00104569801170995 0.0181505265818462 0.0171039865269033 -0.5556088 0.8259704 0.09524606 46 46 46
0.0306730211623447 0.0276159825907574 0.00130285480159198 0.1801849 0.8714918 -0.4561089 111 111 111
-0.0180118142716152 -0.0131452497853413 -0.0120436682449016 -0.05572348 -0.9904614 -0.12602 85 85 85
-0.0345343410126431 -0.0133758005513325 -0.0171872212634715 -0.001498332 -0.9992254 -0.03932376 37 37 37
0.0358108223326938 -0.00252870887652779 0.0359493956817952 0.9030831 -0.1250025 0.4108712 76 76 76
0.0288246811278599 -0.0148883280171528 -0.0128494038329753 0.2275249 -0.9640656 -0.1371496 75 75 75
0.0366754473098057 -0.00604407161609077 0.0111119017853109 0.7930538 -0.6009137 0.09984172 56 56 56
0.0378931702025669 -0.00331584781543159 -0.0242865814910563 0.932713 0.1083226 -0.3439662 70 70 70
-0.0448099433533413 -0.00994603008166695 0.00566549756663715 -0.9771912 0.1721646 -0.1243251 80 80 80
-0.0346701203934414 -0.0115430769337788 -0.0375356509433421 0.1426571 -0.9883265 -0.05347585 95 95 95
0.0350866258986728 0.0044804397211895 0.037120269323763 0.5856541 0.06000287 0.8083372 210 210 210
-0.00918472400824855 0.0107594314204082 0.0332762167705861 -0.3436556 0.9375318 -0.05417434 76 76 76
-0.0427730142227871 -0.00730542510882759 -0.0191720857368144 -0.9395995 0.3253051 0.1064399 114 114 114
0.00213205226738622 -0.017052095831789 0.00108100631373798 -0.08160476 -0.9944828 -0.06591482 127 127 127
-0.0357836543671353 -0.00445513099566841 0.0233172343029348 -0.5061446 0.8407725 -0.1921437 82 82 82
0.0411863268264072 0.0039766612635479 0.0218202636494008 0.94964 -0.2208316 0.2222999 63 63 63
0.039839619482352 0.00432320266827202 0.0263992116703359 0.9247082 -0.1948536 0.3270271 74 74 74
0.0314651668914097 0.0146243157969341 -0.032759143327299 0.9322741 0.001563599 -0.3617493 47 47 47
0.00604771980126073 -0.0204401430501118 0.0311253533615438 -0.1224184 -0.9838582 -0.1305249 88 88 88
0.00454258331139257 0.0261766496287212 -0.00878293654781903 -0.406286 0.9108216 0.07304607 89 89 89
0.0109863222487705 -0.00808660358325386 0.0380506084217397 -0.09357962 -0.07033832 0.9931241 184 184 184
-0.0272010623566372 -0.0114161190404072 -0.0319878592239055 -0.04212729 -0.9956157 -0.08351427 34 34 34
0.00877129443962743 -0.0159810003651752 -0.0126737191424998 -0.07493316 -0.9736159 -0.2155389 99 99 99
0.0332834661849277 -0.00808111995593452 0.038713561083254 0.5735357 -0.2065795 0.7927052 83 83 83
-0.0329349099747402 -0.013553183974184 0.0409610138191548 -0.08398689 -0.3907921 0.9166394 162 162 162
-0.0112217723480923 -0.0126440939320698 -0.0351620747790965 0.03676295 -0.9513424 -0.3059349 75 75 75
0.0124982536681431 0.0273899617777691 -0.011055453036848 0.2709445 0.9530154 -0.135465 87 87 87
0.0410278976805942 0.00638921886547661 0.0229769811882344 0.963136 -0.1029788 0.2485244 110 110 110
0.0358561218627231 -0.00710813373462105 0.0125201509250966 0.7579467 -0.6515601 0.03140397 98 98 98
-0.0010908900849087 -0.0164528307332172 0.00114767410891925 -0.1624882 -0.9798177 -0.1164246 72 72 72
-0.0123760758988125 -0.017221134604372 0.011809514547762 -0.1092716 -0.977081 -0.1826813 82 82 82
0.0147842110045688 -0.0114220795048847 -0.0349953903899821 -0.039579 -0.961157 -0.2731495 84 84 84
-0.0155221282593472 -0.0107496199025288 0.0407294497742025 0.05571077 0.09800813 0.993625 154 154 154
0.00724720367272069 -0.0185964521779194 0.0159223840488759 -0.07528974 -0.9892311 -0.1255122 88 88 88
-0.00883770576636622 -0.0176840242756977 0.0393496618522969 0.1073725 -0.4522861 0.885386 219 219 219
0.0320084036238926 0.0168474498377666 0.0331579313530294 -0.3933689 0.5674126 0.7233974 17 17 17
-0.0346474706284268 -0.000571530760683059 -0.0171315207229289 -0.6689243 0.7433277 0.002023582 65 65 65
0.0090942324050205 0.0264192405329571 -0.0228592588649424 0.1982658 0.9760728 -0.08928942 166 166 166
0.0151237190612095 0.0247865501032696 0.0193466410888997 -0.3497837 0.8350173 0.4247321 52 52 52
-0.0430672227493984 -0.0138483461751118 0.0247552261604634 -0.4247385 -0.8876635 -0.1779066 76 76 76
-0.0290298520676358 0.00404413372143364 -0.0168848170982036 -0.6129934 0.7877474 0.06077117 76 76 76
-0.00904894462745021 -0.0048422035588398 0.0402217970146505 -0.02386961 -0.05889583 0.9979787 186 186 186
0.0383911074050205 0.0099358144389019 0.0326786504043904 0.9104133 -0.2256502 0.3467414 41 41 41
-0.0268389045349819 -0.0144129213704243 0.0133577749981252 -0.2070807 -0.9762071 -0.06432122 107 107 107
0.0331174076445835 0.000317055283628465 -0.0342905654655131 0.9200703 0.2100402 -0.3306869 34 34 34
0.0266555488951938 -0.0160494264973774 -0.00875295541149701 0.1680521 -0.9809943 -0.09699825 82 82 82
0.0414601505645054 0.00349183708294487 0.0113534794105855 0.9175258 -0.3975805 -0.008728822 69 69 69
0.0212348640807407 0.0227638068781719 -0.0365243091331157 0.09833863 0.9850991 -0.1411005 102 102 102
-0.00701189628760646 0.0196078601466045 -0.0108837916598948 -0.5660164 0.8159281 0.1178419 63 63 63
-0.0251187144867642 0.0065178456889019 -0.0187660886989268 -0.6199078 0.7836919 0.03926012 58 58 58
0.02500330814202 -0.0206633028401508 0.0195801124824849 0.4897269 -0.8583187 -0.1531551 92 92 92
0.0108799875624912 -0.0208695349110737 0.0372007355942098 0.03459439 -0.9042374 0.4256265 153 153 153
0.00308262714226415 -0.0174855408085957 0.00409232237475787 -0.01243665 -0.9990644 -0.04141939 118 118 118
-0.0233080445877774 0.0027719321833477 0.0189751551403371 -0.5297818 0.8308943 -0.1701351 81 81 81
-0.00243986240546534 0.0233897748576031 -0.0157423450694713 -0.5730535 0.8183106 0.04446799 67 67 67
0.0323162020095127 0.0296721044169292 0.0074671075596181 0.07348393 0.9945351 0.07416198 80 80 80
0.00897645362694433 -0.019846719206728 0.0386811957611409 -0.06534345 -0.6687912 0.7405731 136 136 136
-0.032610422288583 0.000272828637205125 0.00771112897532855 -0.4515493 0.8726696 0.1858788 53 53 53
0.0325063408263462 0.0302347722636089 0.00571368792193805 0.08923266 0.9919679 -0.08965124 36 36 36
-0.00352633587043116 0.014736610947691 0.0141618118538228 -0.4327112 0.8734895 0.2231079 113 113 113
0.0267271936782139 0.0236645522700176 -0.0130612089381846 0.09850114 0.9949771 0.01783411 42 42 42
0.00671910652001073 -0.0139776882542744 -0.0208090677009257 -0.03351845 -0.9895667 -0.1401225 98 98 98
-0.041550761377023 -0.0140159544362202 0.0196227298034993 -0.06607381 -0.9978041 0.004612446 86 86 86
0.0390096844084995 0.00797827869518852 -0.0191531910644206 0.8136703 0.01848073 -0.5810327 65 65 65
0.0439588964827793 0.0048389020548687 0.00117068150180255 0.7889019 -0.5333138 0.3053035 146 146 146
-0.013417249833749 0.0144474092112408 -0.00897247931820477 -0.5994149 0.7981548 0.06042146 55 55 55
-0.0304905234925015 -0.000857752264894485 0.015843288685259 -0.5013071 0.8557799 0.1277964 92 92 92
0.0429630220778721 0.02100225120648 -0.010865433429304 0.4704039 0.8735502 -0.1250205 77 77 77
0.0390248239882725 -0.00400034755603218 0.00472583034175311 0.847919 -0.524541 0.07674743 97 97 97
-0.0494905768982632 -0.0122002777470722 0.0416936145080892 -0.3277169 -0.3594874 0.8737108 139 139 139
0.0399753988631504 0.0268282476054058 0.0160013304008809 0.6195629 0.7412784 0.2581632 230 230 230
0.0306956709273594 0.0297627034769878 0.0108795926822988 0.08181071 0.9863805 0.1426902 53 53 53
0.00481795677025487 0.0134970727549419 0.0299778149380056 0.03703263 0.8269309 0.5610828 83 83 83
-0.0150921403519375 0.00813146263226128 0.0309303865684835 -0.3933657 0.9090253 -0.13761 74 74 74
-0.0288759528748257 -0.0122996982945576 0.0408570037140218 0.01373932 -0.004438839 0.9998958 220 220 220
0.0273005903609531 0.0298009696589336 0.015117095495638 0.03744802 0.9327798 0.3584962 207 207 207
-0.0102258979431851 -0.00102619499102974 0.0401471123947469 0.0185353 -0.01428701 0.9997261 218 218 218
-0.0134397803894741 0.00799961715801811 0.023520962978777 -0.3797892 0.9247155 0.0257185 107 107 107
-0.0330858289353115 -0.00251702636615181 0.0133947000755635 -0.4581268 0.8522316 0.2526285 84 84 84
-0.00930548301856349 -0.0129392561329975 -0.0332423283801707 0.06294981 -0.9532202 -0.2956495 114 114 114
0.0423746050246494 -0.00166313022509956 -0.00637878320080365 0.7277923 -0.6073409 0.3185207 75 75 75
0.00697564491112401 -0.0140455183400288 0.0382848248733846 0.05280711 0.1242131 0.9908494 143 143 143
-0.0192567168823941 0.0126279178248272 -0.0289020671592387 -0.5552288 0.826621 0.09175334 87 87 87
-0.0348900615326626 -0.000217002333559035 -0.0228486492381724 -0.6368046 0.7675672 0.07294153 60 60 60
0.0301750839598911 -0.0131224808110371 0.00487791159289752 0.7522532 -0.651912 0.09552871 76 76 76
-0.0392043649307949 -0.00614158481494331 0.0426145360721913 0.07845214 0.07775667 0.9938809 127 127 127
0.0327553690322178 -0.0133322891606464 0.0294778213753072 0.7721608 -0.6243745 -0.1180003 33 33 33
0.0328005493529575 -0.00993458598987007 -0.00453822157246198 0.7583296 -0.6233619 0.1906729 45 45 45
0.0327327192672031 -0.0136089739216938 0.0308320687069265 0.7815052 -0.6085202 -0.1376695 35 35 35
0.0106875837691562 -0.0193697628392353 0.0188954041256276 -0.0443631 -0.9929422 -0.10999 60 60 60
-0.0222216903321011 0.00344999462231255 0.0145768687977162 -0.5346525 0.8354264 0.1273157 80 80 80
-0.0349597989670498 -0.0157379326237812 0.037130491520342 -0.1574525 -0.9405758 0.3008751 122 122 122
-0.0295436441055996 -0.00620214313403511 0.0404695437206594 0.1562266 -0.009860476 0.987672 123 123 123
-0.0144356547943814 -0.00847641796008491 0.040003524805483 0.02826713 0.04821449 0.9984369 153 153 153
-0.0178307353607876 0.0124373021708355 -0.0257016851649913 -0.5506458 0.832164 0.06551493 64 64 64
-0.0137567578903897 -0.0149453100575581 0.00369517662661945 -0.02621349 -0.9800401 -0.1970643 88 88 88
0.0163006723769443 -0.0108272251500263 -0.0369869007812175 -0.02391999 -0.9571064 -0.2887475 94 94 94
-0.00775886169593165 -0.0181146082295551 0.0136508808388082 -0.04914905 -0.9873991 -0.1504242 48 48 48
-0.0134322702042324 0.0159192863093243 -0.0229912831531199 -0.6130407 0.7883325 0.0520865 56 56 56
-0.0375219642273648 -0.00344483226672554 -0.0186701252208384 -0.6152822 0.7880237 0.02112951 87 87 87
-0.00031233421485255 -0.0147966560734882 -0.0205580129371318 0.07076757 -0.994208 -0.08088531 34 34 34
0.0395680607207554 0.017493802605711 0.0195753441109029 0.9956005 -0.05430293 0.07636002 62 62 62
0.0246449650176304 -0.0216699060811176 0.0308949814094869 0.2246846 -0.9684393 -0.1078986 104 104 104
0.0382553280242222 -0.00703911155597114 -0.0108207299457225 0.6394904 -0.7153092 0.2817532 92 92 92
-0.0127759038559658 -0.00605861514941597 0.0398394034160939 0.01211919 -0.05060236 0.9986454 150 150 150
0.0432120502837436 0.00751026302441216 0.0111812219871846 0.9714641 -0.1073926 0.2114814 56 56 56
-0.0121270476929409 0.0149020734415874 -0.00908081076008405 -0.5996838 0.7951092 0.09044764 54 54 54
-0.026522046243356 0.00550742775066948 -0.00858135363918866 -0.5601242 0.827795 0.03187799 64 64 64
-0.0434972106568081 -0.00820426315204048 -0.00246177456242169 -0.9357694 0.3384474 -0.09893898 67 67 67
0.00448595889885595 0.0206431928263531 0.00720764854091083 -0.6364843 0.7254251 0.262004 60 60 60
0.0170702875502842 0.0229532304392681 -0.0348332955585154 0.08860979 0.9786916 -0.1852327 51 51 51
0.00729250320274999 -0.0144213852299824 0.0381427274002401 0.05622086 0.1168717 0.9915544 140 140 140
-0.0217237531296475 -0.0184107241047993 0.0311825440182057 -0.1742169 -0.9781719 -0.1132611 91 91 91
-0.0391515552155239 -0.0138796982182636 -0.00681839725834454 -0.09503385 -0.9943487 -0.04732019 55 55 55
-0.0215789138428433 0.00998039871319389 -0.0186983480201396 -0.5672628 0.8218513 0.05266366 78 78 78
0.0292923391707676 0.0175828519450054 -0.0384779407725963 0.8527943 0.2697885 -0.4471644 15 15 15
0.00932955154259374 0.0159141603098736 0.0285892651333181 -0.1248251 0.731128 0.6707239 79 79 79
0.0236792505629795 -0.0161450323475971 -0.00977738044125165 0.09913974 -0.9909116 -0.09091467 89 89 89
-0.00752497306983302 0.0200399938212261 -0.0232885613189372 -0.5640095 0.8218015 0.08084235 74 74 74
0.0322046221144932 0.0134837213145123 -0.0306525959716472 0.9309652 0.03832768 -0.3630906 42 42 42
0.00681721576531102 0.0277796569453106 -0.0130506589160594 -0.09346589 0.9953148 0.02475085 134 134 134
-0.0167353211991055 0.00956853061779595 0.00656800129550372 -0.5328562 0.8114119 0.2401563 123 123 123
0.0268479526885288 -0.012810152472414 -0.0289671554313334 0.1327877 -0.9640333 -0.230233 70 70 70
-0.0251187144867642 -0.0113553223027363 -0.0346829726443919 -0.05828962 -0.9876667 -0.1453159 115 115 115
0.0286586225875156 0.023265081940733 -0.0140525235877665 0.1326554 0.9911596 -0.002265158 57 57 57
0.0406745613463657 0.00195761352642632 0.021012829328951 0.9270468 -0.3033074 0.2204287 48 48 48
0.0416502893813389 0.0269825044260845 0.00572528102534686 0.6650643 0.7312385 0.1515908 53 53 53
0.0215517223723667 -0.0171055015935078 -0.00949172518116559 0.04515568 -0.9964136 -0.07156016 54 54 54
-0.03352940670173 -0.0140533861531391 0.00700520136493121 0.06218028 -0.9979634 -0.01423316 69 69 69
-0.00561988941352198 0.0127629819498882 0.0155851707710591 -0.4645471 0.834819 0.2954206 85 85 85
0.0304769218810337 -0.0139283356084003 0.000846342827257263 0.8084317 -0.5806136 0.09657147 86 86 86
0.0435515583403843 0.0100125852213726 -0.0127490296111735 0.9074766 0.06754433 -0.4146372 59 59 59
-0.0420033990494473 -0.0125662502659931 -0.0224236383186015 -0.09788908 -0.9947094 -0.0311583 80 80 80
0.0396585405715244 -0.00234858364001655 -0.00175426742893781 0.7337223 -0.6700941 0.1123629 72 72 72
0.0439588964827793 0.0253321710215435 0.00549929001468097 0.8250802 0.520827 0.2190478 119 119 119
0.0206689775832432 0.0236602607355938 -0.0308245851741465 0.1675525 0.9822894 -0.08386694 66 66 66
-0.000900870477364757 0.00279338985546684 0.0396830604328481 0.1231789 0.02033067 0.9921762 84 84 84
-0.029011732255624 -0.0135100302113667 0.00440327980655109 -0.05129061 -0.9965126 -0.06581698 51 51 51
0.00756418117363622 0.0173878255473003 0.0254850850357381 -0.2314029 0.8457607 0.4807718 93 93 93
0.000898593748404286 0.0220635715113506 0.00150202372210895 -0.4765081 0.7555984 0.4494565 88 88 88
-0.0371598064057095 -0.0133463558568134 -0.018644644235197 -0.04967442 -0.9987365 -0.00760842 75 75 75
-0.0314222632996304 0.00234063297375298 -0.00291009089809979 -0.5406249 0.8409854 0.02163869 63 63 63
0.0365691126235264 0.00826557308300591 0.0354231462730733 0.7809436 -0.1095404 0.6149212 86 86 86
0.0110497415908115 -0.0029510673894062 0.0383450553669301 -0.007290243 0.02138994 0.9997447 242 242 242
0.00724720367272069 0.0046102586375103 0.0378582344307271 0.1129673 0.06820206 0.9912552 171 171 171
0.0264857948668735 -0.0161185678853168 -0.00642497680050458 0.1957074 -0.9779107 -0.07341155 110 110 110
-0.0297360478989346 0.00256438881023979 0.0329633817924825 -0.3924512 0.8664302 -0.3086759 41 41 41
-0.00753248325507472 -0.018694203795351 0.0190578863872853 0.01454842 -0.9968024 -0.07857045 82 82 82
-0.0446288644425137 -0.0104281124486103 0.00627930619853412 -0.9866202 0.1306663 -0.09750342 59 59 59
0.00199627288658788 -0.0169928488148823 -0.000176174853864564 -0.08427823 -0.9917395 -0.09669534 85 85 85
-0.0370240270249111 -0.00230841010943794 -0.024623556350294 -0.5659442 0.8111089 0.1476803 94 94 94
0.0286586225875156 0.023205358086668 -0.0086134805427226 0.09458284 0.9953544 0.01799547 54 54 54
-0.0112500249497158 0.012153226433836 0.0113701687111226 -0.4849848 0.8297622 0.2761966 100 100 100
-0.0316371976486904 0.0023589912043438 -0.0309402777896556 -0.5612998 0.8089236 0.174886 68 68 68
0.0176587046035068 0.0294012609110699 0.0120997295631734 -0.324357 0.9163114 0.2348745 145 145 145
-0.0389629661194546 -0.00198237270251655 -0.0305898620830211 -0.550294 0.8066372 0.2156684 57 57 57
0.02440356620629 -0.0169927296055927 0.00148151972430621 0.1639747 -0.9806833 -0.106642 96 96 96
-0.00760031334082911 0.0199507060633526 -0.0167604520068797 -0.5477491 0.8273977 0.124032 41 41 41
0.0428544224150913 0.0261295619593487 0.00532783725398456 0.7229139 0.6684445 0.1748645 115 115 115
-0.0216784535996182 -0.00897340148822212 0.0402409301056234 0.0002379826 0.1530833 0.9882132 106 106 106
0.0365199983962314 -0.00605491966143989 0.0214165315880147 0.8671145 -0.4944121 0.06057226 51 51 51
0.0144447029479282 -0.0187633451832905 0.0157629416241017 -0.1490365 -0.9838597 -0.09903679 72 72 72
0.019005411947562 -0.0154015240086689 -0.016390575383726 -0.02064506 -0.9871338 -0.1585579 92 92 92
-0.0416865407578213 -0.00704364150897407 0.0230298207058278 -0.4097061 0.9049714 -0.1147508 76 76 76
-0.0340364038101895 -0.000230949820436477 -0.0277729167686137 -0.5802924 0.7999403 0.1528275 91 91 91
-0.0354698955170376 -0.0140052256001606 0.0169811115516988 -0.02902315 -0.9993038 -0.02344134 84 84 84
0.00711142429192235 0.00697250991924858 0.0373647079719869 0.1286778 0.3317638 0.9345452 210 210 210
0.0223438681014316 0.0219214740382061 -0.0402724876151713 0.04341952 0.9905413 -0.1301643 46 46 46
0.00867318519432714 -0.0182780441655293 0.0114444062961904 -0.07247817 -0.9868906 -0.144201 64 64 64
0.0342717111953037 0.00301201969250298 0.0382589564575521 0.373455 0.08612593 0.9236415 143 143 143
-0.00161004654090235 0.0154308858500347 0.0160610244526235 -0.5676681 0.8206127 0.06593607 66 66 66
0.0293376387007969 0.0193147245035992 -0.0385300948367747 0.8202165 0.3670498 -0.4387702 28 28 28
0.00467609771568944 0.0280080619440899 -0.0166441633449229 -0.2469968 0.9690081 -0.003992586 68 68 68
-0.020139342462228 0.00484784275158501 0.0131007299675313 -0.5738354 0.7985226 0.181864 108 108 108
0.040578955496146 0.00180144935711479 0.0223901436580983 0.9247519 -0.2934229 0.2423569 66 66 66
-0.0312448798767788 -0.0135052618397846 0.00333155849116717 0.03427418 -0.9986827 -0.0381847 51 51 51
0.0386966408141391 0.00633354812725639 0.029191391254839 0.9129927 -0.1792609 0.3664833 56 56 56
-0.0127608834854824 -0.0134061989201679 -0.0218079521403941 -0.178836 -0.9837548 0.01562535 75 75 75
-0.0184494315735562 -0.0144294914616718 -0.00285522482258405 -0.09477842 -0.9900244 -0.1042529 78 78 78
-0.00420535198371241 0.0214993539439068 -0.00944517395359601 -0.5998807 0.7941062 0.09766507 20 20 20
0.0317368448622959 -0.0109813627614155 0.000753836418565856 0.8089026 -0.5879114 0.006073293 65 65 65
0.0263047159560459 -0.0156733211888447 0.0132308767093984 0.7201574 -0.6924309 -0.0437362 53 53 53
0.0189564169295566 -0.0205296692265644 0.0251047179951039 -0.1327197 -0.9881575 -0.07700763 79 79 79
0.00667690643150975 0.0277162376032696 -0.00909001967770184 -0.2546901 0.9670222 0.001017767 132 132 132
0.0415598095305698 0.00191958576305962 0.00531463482516681 0.9115785 -0.3569436 0.2039996 58 58 58
-0.0372955857865078 -0.0136747774495258 -0.00636784574848737 -0.05382334 -0.9984264 -0.015737 47 47 47
0.0369063557036655 0.0197289767847881 0.0334060058845845 -0.03034918 0.6792073 0.7333187 77 77 77
-0.0425919353119595 -0.0124671873463764 -0.016994549249235 -0.2590816 -0.9647969 0.04520744 52 52 52
-0.00864148727576564 0.0112518849955425 0.0361365840687123 -0.2564247 0.9391951 0.2283832 107 107 107
-0.0172196685425503 0.00366135269268608 0.0405673847450582 -0.01253878 0.06428071 0.9978531 242 242 242
-0.0245906173340542 -0.0117937740697041 -0.0272657408462199 -0.1000844 -0.9939411 -0.04543322 89 89 89
0.0367275417693393 0.021981197892271 0.0290658936752645 0.06444218 0.868937 0.4907095 56 56 56
0.0301524341948765 0.0259394231425152 -0.00199927232128705 0.1507086 0.8572198 -0.4924034 117 117 117
-0.013983017121957 0.0147441211329327 -0.0247748925433787 -0.621142 0.7780286 0.09409617 60 60 60
-0.00515592685859034 -0.019164722861208 0.0355511770500508 -0.002548335 -0.9848957 0.1731297 93 93 93
-0.0507626592270596 -0.0152206835164204 0.0366854236378041 -0.2464474 -0.9543951 0.1685043 101 101 101
-0.0132361709229214 -0.0135310110463276 -0.026445312713209 -0.1049413 -0.9942229 0.02254175 88 88 88
-0.0446440040222866 -0.0064680990590229 0.028797583366808 -0.4675674 0.8518019 -0.2362504 57 57 57
-0.050423151170419 -0.0149192032231464 0.0317494437946645 -0.1993186 -0.9711009 -0.131283 95 95 95
0.010769122923209 0.0221293750391827 0.0196451709522573 -0.5531852 0.7893376 0.2663311 57 57 57
-0.0232175647370083 -0.0152391609563007 0.0108914242042867 -0.1983015 -0.9741193 -0.1084806 84 84 84
0.0320084036238926 0.0131151261912212 -0.0323102011428508 0.9336613 0.03597222 -0.3563462 53 53 53
-0.0146017133347256 0.00956316619976616 0.0355138049377767 -0.3577345 0.9268783 0.1136775 40 40 40
-0.0100901185623867 0.0185483279810772 -0.0292070045219096 -0.6176249 0.7823303 0.0806158 70 70 70
-0.0333913623444302 0.000495869217954636 -0.0145218803630504 -0.6340737 0.7732725 0.0005003645 54 54 54
-0.0450136720291836 -0.00999836295977974 0.00255228736537372 -0.9903356 0.1378436 0.01531524 68 68 68
-0.00932050338904689 0.0144464555369244 0.00778888323443805 -0.5052106 0.8191876 0.2714661 67 67 67
-0.005020147477792 -0.0146409687413349 -0.0208880736575755 0.01199424 -0.9987655 -0.04820407 92 92 92
0.0193788946517246 0.0243815961466656 -0.0168513192878398 0.2241004 0.9745162 -0.009854661 95 95 95
0.0426688135512607 0.00636287361248589 0.0134490893139211 0.9840462 -0.1484867 0.09800444 46 46 46
0.0329137981780308 -0.0137967285527363 -0.0128952696071299 0.4060093 -0.9120423 0.05775282 79 79 79
-0.0166537820450527 -0.0131478723897114 -0.0308305754409465 -0.1048611 -0.9905702 -0.0881749 43 43 43
0.0308314503081577 0.0269773784266338 0.0225281582130757 -0.1907351 0.835339 0.515586 57 57 57
0.0299713552840488 0.0219152751551495 -0.0318960680709514 0.2632087 0.9430263 -0.2035253 45 45 45
0.0108346880324619 0.0215110364542828 0.0212717519058553 -0.5233307 0.770559 0.3638184 79 79 79
-0.0429087936035855 -0.00931791633502388 0.0421953068031636 -0.03838361 -0.1227059 0.9917005 97 97 97
0.00859391101677587 0.0225899997340069 0.0134013757957784 -0.5074227 0.7986972 0.3234267 97 97 97
0.00050246127922704 -0.0197313246144428 0.0331111119045583 -0.1389922 -0.9877761 -0.07056588 109 109 109
-0.000968700563119151 0.0116060557947979 0.0365240738643972 0.1621172 0.8415232 0.515322 66 66 66
-0.0290570317856533 0.00515075355633354 -0.0309517814860972 -0.5904566 0.7941548 0.1438025 99 99 99
-0.0408781825653775 -0.00644819110766792 0.0112528369678823 -0.6113868 0.7819989 0.1211773 69 69 69
0.0211895645507114 0.0239317002879009 -0.0189539327369365 0.1810369 0.9821367 -0.05131353 38 38 38
0.0247354448683994 0.00383408695324516 0.0383280680431691 -0.05287976 0.2139582 0.9754105 152 152 152
0.0184916199095981 -0.00797597736255073 0.0392662153496114 -0.0761499 0.09226208 0.9928187 106 106 106
0.00124942668755224 -0.0161946234120502 -0.0061783625827464 -0.1599606 -0.9763225 -0.145626 81 81 81
0.00930690177757909 0.0100947204218731 0.0352337525142995 0.05741917 0.6597033 0.7493294 131 131 131
0.00579869159538915 0.0270480695353374 -0.00294135353428449 -0.3882298 0.9169448 0.09214038 78 78 78
-0.0159974156967861 0.0127011123286114 -0.00894887587887372 -0.5754035 0.8152949 0.06484701 58 58 58
-0.0207052289597256 0.00592716365917778 0.0399755702270833 -0.1525058 0.6836983 0.7136517 85 85 85
0.015531176412894 -0.0171709474934711 -0.00027255556446637 -0.1072863 -0.9823166 -0.1534399 67 67 67
0.00457655795891454 -0.0142770227803364 -0.0172377958045634 -0.04178935 -0.9841647 -0.17226 56 56 56
0.0064324081786411 -0.012865346373476 -0.0261654093013438 0.005661192 -0.9765987 -0.2149949 71 71 71
0.0421482265837925 0.0272306981669292 0.00339631893771564 0.65002 0.7598672 0.008709635 33 33 33
0.0295187176116245 -0.0133427795781269 -0.0190340413795146 0.2353426 -0.9582549 -0.162362 76 76 76
0.0351771057494419 -0.00324813693896675 0.0357900426639882 0.8994194 -0.1104596 0.4228989 109 109 109
-0.0231949149719937 -0.0174773153676167 0.022847728516039 -0.2202509 -0.9578154 -0.1846055 61 61 61
-0.0155221282593472 0.0090115848170147 0.0331738457931844 -0.3836817 0.9080315 -0.1681284 46 46 46
-0.0372880756012661 0.000134665070615769 -0.0387863948093089 -0.5963079 0.8027123 -0.008359572 54 54 54
0.0386174858458774 0.0215708795176373 -0.010710997794691 0.1324918 0.9907382 -0.02972784 86 86 86
-0.0514868556610806 -0.0149634298695698 0.0331067309631673 -0.3491939 -0.9332328 -0.08449902 90 90 90
0.0324158609755771 -0.00372568935290718 -0.0378148987041148 0.8326469 -0.09158733 -0.5461784 44 44 44
0.0332456768401401 0.00198717743023491 0.0381107793106404 0.3336876 0.07115199 0.9399946 119 119 119
-0.0450136720291836 -0.0107049164189472 0.0419507787479726 -0.04355465 -0.184979 0.9817768 120 120 120
-0.0272010623566372 -0.0138819631947651 0.0406755075706807 -0.03831935 -0.2185064 0.9750829 168 168 168
-0.023552542840646 -0.0160960373295918 0.0175203547729817 -0.2677266 -0.9461482 -0.182006 77 77 77
-0.00533700576941798 0.0226472201929913 -0.0218537285075816 -0.5115967 0.8552128 0.08294518 80 80 80
-0.0117650090805752 -0.0111984428776875 0.0401410923256246 0.07573968 0.04406612 0.9961534 230 230 230
0.00806211837608983 -0.00155310005084419 0.0379740462555257 0.01663632 0.004018676 0.9998536 131 131 131
-0.0171290694824917 -0.0129437860860004 -0.030420823310438 -0.1345669 -0.9886997 -0.06606619 47 47 47
0.0249543131240146 0.0223702970133648 -0.0307595267043742 0.1591723 0.9852247 -0.06321768 68 68 68
0.0202389896758335 -0.0137368854893818 -0.0263840689407023 -0.06405769 -0.9740942 -0.2168807 114 114 114
-0.0417431651703579 -0.00612203449145698 0.00333328702586566 -0.6605646 0.7507551 -0.004607987 31 31 31
-0.0310336410156948 0.0054797711954937 -0.0389002694831523 -0.5333941 0.8449664 0.0390192 78 78 78
0.00302612193901708 -0.0185579475773945 0.0189762578262654 -0.07921534 -0.9944438 -0.06932797 92 92 92
0.0327225864775913 0.0293764653788433 0.00881983497279559 0.08795123 0.9883671 0.1240763 85 85 85
-0.0304377137772305 0.00372787147625542 -0.0270911290393504 -0.6361114 0.7693496 0.05884991 80 80 80
-0.000964170610116222 0.0221057715998516 -0.000829084132734192 -0.4985456 0.8072006 0.3160372 85 85 85
0.0115250290282505 -0.0139514622105732 -0.0228629245505961 -0.03470026 -0.9812806 -0.1894313 90 90 90
0.00534605392296483 0.00594909816845512 0.0381918118252126 0.18905 0.1949016 0.962431 156 156 156
-0.0215653239838345 0.0093407216654644 -0.0128404035316142 -0.5523563 0.8272476 0.1027815 71 71 71
-0.00488436809699366 -0.0164934811009541 0.00491731026309405 -0.1655694 -0.9649014 -0.203843 122 122 122
-0.0187361299149258 0.0131485047922955 -0.0319467618213328 -0.5922852 0.7988765 0.1048554 90 90 90
-0.0146470128647549 0.0118678393946514 0.00376437761920367 -0.5637585 0.7880983 0.2471384 67 67 67
0.00876366504509618 0.0265764775858746 -0.0208196475253734 0.1885895 0.9754461 -0.1137492 103 103 103
0.0144296825774448 0.0225482764826641 -0.039910091374937 0.01728348 0.9560119 -0.2928183 107 107 107
-0.0468469916931851 -0.007741850317873 0.0427495405926076 -0.2000467 0.1782908 0.9634281 127 127 127
0.0256256998427646 -0.0174774345769062 0.00883911707538043 0.5943268 -0.8001539 0.0808054 106 106 106
0.0445474327452915 0.00149996906384087 -0.00809626123768414 0.9341484 -0.3529037 -0.05315801 93 93 93
-0.0428634940735562 -0.00763241619006538 0.00314285018580829 -0.8508354 0.5251634 -0.01680673 53 53 53
-0.0406453668228848 -0.000355165900148391 0.0390141175045339 -0.4378188 0.8613313 0.2577269 59 59 59
-0.0151373206726773 0.0143558564768658 -0.0232182278381022 -0.5772625 0.8146582 0.05567805 49 49 49
-0.00368476501624415 0.00205166965588188 0.0396497414364186 0.1248994 0.07169636 0.9895756 121 121 121
0.0393416822798984 0.0208087745295391 -0.0149298443542155 0.1215809 0.987968 -0.095589 114 114 114
0.0112308205016391 0.0232573333369122 0.018556968952593 -0.5737996 0.7855578 0.2316312 97 97 97
-0.0030585586182339 -0.0136543926610126 -0.0288180842147502 0.1000019 -0.9740691 -0.2029506 49 49 49
-0.0196867047898037 0.0125361266718731 -0.0351099803195628 -0.6316545 0.7751808 -0.01036232 92 92 92
0.0445021332152622 0.00691230922802544 0.00452654221194659 0.8606386 -0.4272046 0.2771235 79 79 79
-0.0136208593003018 0.00373919635876274 0.0404023394836751 0.01276198 0.07419074 0.9971624 88 88 88
-0.0471547900788052 -0.0148528036488667 0.0130137071861592 -0.724098 -0.6740715 -0.1459785 91 91 91
0.0330495775588291 -0.0135745224370136 -0.0148929192767772 0.3291436 -0.9418862 -0.06719205 78 78 78
0.0124982536681431 0.0290371957407818 0.00771267869609271 -0.4660814 0.8664036 0.1792009 63 63 63
0.0414421499617832 0.021773416100584 0.0149540469898549 0.9287847 0.08588753 0.3605305 84 84 84
0.0107630432494419 0.026757079659544 -0.0149319305167827 0.2316662 0.9694716 -0.08034664 135 135 135
0.0306503713973301 0.0144018712626324 0.0338480339302388 -0.3611446 0.5201523 0.7739613 90 90 90
-0.000674492036507823 -0.0135274347676411 -0.0268346800552043 0.1076088 -0.9819059 -0.1558238 37 37 37
-0.00498998752753566 -0.00381867259875679 0.0403156147255269 0.0524134 -0.0307575 0.9981517 201 201 201
0.0325063408263462 0.013167459069334 -0.028920693610731 0.9147733 0.004891525 -0.403938 41 41 41
-0.0206372796646817 0.0115159335718975 -0.0250840916381511 -0.5692226 0.8203043 0.05555621 76 76 76
-0.026612526094125 -0.0165585693730488 0.0227984652771321 -0.2290194 -0.9481443 -0.2203918 109 109 109
-0.0256619512192471 0.00249846607311821 0.0119550988926259 -0.4884693 0.8427201 0.2263196 87 87 87
0.0313973368056553 0.00556953579052544 -0.037443472360197 0.9144136 0.2337643 -0.3304573 47 47 47
0.0338190735228794 -0.0104427751912251 0.0207403466953603 0.7792177 -0.6204006 -0.08901008 57 57 57
0.01897143730004 -0.0212779459370747 0.0313757822765676 -0.07896914 -0.9933889 -0.08332114 64 64 64
0.0230002344496982 0.00426812797649956 0.0379557476295797 -0.06457745 0.2525664 0.9654222 188 188 188
0.00475763686974218 -0.0200107511891499 0.0390585527672139 -0.0566612 -0.6642031 0.7454017 112 112 112
-0.0410165845505459 -0.00640920966998482 0.0250723526729909 -0.3876664 0.9060884 -0.1694655 95 95 95
-0.0396344720474942 -0.00605062812701607 0.021146433140215 -0.3624204 0.9317688 0.02140776 60 60 60
0.0407336891539829 0.0208634915934429 -0.015147729133192 0.1925072 0.978409 -0.07521186 166 166 166
0.00611554988701513 0.0207013669596539 0.012775854851183 -0.5338574 0.817505 0.2160599 109 109 109
0.0268253029235141 0.0304355207072124 0.00872306683200275 0.06352543 0.9921056 0.1081248 97 97 97
-0.0370580016724331 -0.0139642176045551 0.0190062389625875 -0.05875428 -0.9982501 0.006675912 93 93 93
-0.00563884369056056 -0.0173105415715351 0.00936691620486652 -0.09516758 -0.9705113 -0.2214746 90 90 90
0.0324385107405918 -0.00830165714160347 -0.0361028148875865 0.5945504 -0.4705983 -0.6519563 76 76 76
-0.0231043159119351 -0.0183018860234394 0.0406112239612905 -0.1207402 -0.6012916 0.7898546 161 161 161
-0.00111210933844874 -0.0135381636037006 -0.0290467872367534 0.1081962 -0.969527 -0.2197976 51 51 51
-0.0168688356034024 0.0135577502833233 -0.022838933681074 -0.5363902 0.8430825 0.03869545 67 67 67
0.046380752409293 0.0098285260783062 0.00162796833651935 0.9045132 -0.2243959 0.3626326 104 104 104
0.0449699104674595 0.0132122817622051 -0.00865290901524152 0.9255128 0.1120419 -0.3617633 49 49 49
0.00872599490959813 -0.000339191855348586 0.0379714236511556 0.0001791919 -0.01042435 0.9999456 140 140 140
0.00575339206535985 0.0274997535334454 -0.00789959571224774 -0.3566483 0.932144 0.06252621 116 116 116
-0.0346474706284268 -0.00367669433490181 0.0213077233089772 -0.5031473 0.8592612 -0.09226551 61 61 61
0.000532621229483388 0.0243043485270367 -0.00814886233669843 -0.5053768 0.8577647 0.0939896 100 100 100
-0.0437462388626797 -0.0051250872029438 0.0325175986542073 -0.4563397 0.8202226 -0.3449478 36 36 36
0.0226607263930576 0.0300163808451519 0.014832751537737 -0.1013625 0.9430355 0.3168748 223 223 223
-0.020365720903085 0.0101704183207378 -0.00676239869457806 -0.5795463 0.814687 0.02027938 72 72 72
-0.0268162547699673 -0.014993351401247 0.0186216101898519 -0.229747 -0.9532826 -0.1961342 78 78 78
-0.0121270476929409 0.00293071895702934 0.0401947663082448 0.05904637 0.04416954 0.9972776 119 119 119
0.0225928963073032 0.0223259511576519 -0.0380966200576457 0.07039351 0.9924034 -0.1008967 53 53 53
0.0413107813246982 -1.76844014301292E-05 -0.000871969674650086 0.8073084 -0.5558985 0.1980655 77 77 77
-0.0250735341660244 -0.0151774105443134 0.0149651334537831 -0.2226837 -0.9700379 -0.09715177 101 101 101
0.025037282789542 0.0182855907069073 0.0279510782017079 -0.2509956 0.7325197 0.6327844 95 95 95
-0.0424108564011318 -0.00698451370135689 -0.00513942382198895 -0.7862713 0.6178755 0.002707896 36 36 36
-0.0212031661621792 -0.0125953373326435 -0.0308306648479136 -0.1648145 -0.9830195 -0.08067778 74 74 74
0.0145126522429722 0.0250356975184307 0.0194392965092031 -0.3493594 0.8448516 0.4051837 53 53 53
-0.00111210933844874 -0.00251952976123238 0.0396454499019948 0.186547 0.02323065 0.9821714 148 148 148
-0.0113937913529141 -0.0152819570912495 0.00379829266208087 -0.02739621 -0.9691148 -0.2450834 62 62 62
0.0432799995787876 0.00411554008587456 -0.000256968949857606 0.80736 -0.4963266 0.3191078 114 114 114
-0.0179665147415859 0.0107194963084087 -0.00526799104076947 -0.5558882 0.8277026 0.07679085 91 91 91
0.00899457343895604 0.0239452901469097 0.0111896858467427 -0.5388546 0.7690734 0.3437467 106 106 106
-0.035220867311166 -0.0141078647984638 0.00343112805026446 0.08762469 -0.9950415 -0.0470551 68 68 68
0.0402108372100132 0.0178746762858257 0.0219501719726888 0.9837214 -0.1677998 -0.06430788 55 55 55
-0.0291475116364224 -0.0142755922688618 0.0150428877128926 -0.1470205 -0.9851283 -0.08892169 92 92 92
-0.00852084747474025 0.0118847671137676 0.0275700257076589 -0.4886913 0.8724543 0.002101304 40 40 40
-0.0191284476868374 0.00672503143414116 0.00878383376735126 -0.4840476 0.8458414 0.2241657 108 108 108
-0.030940180932687 -0.0155431446446552 0.0247813925995198 -0.2710599 -0.9501303 -0.154204 131 131 131
-0.0310789405457241 -0.013561409415163 -0.000773681615415467 0.02379608 -0.9997132 0.002677377 48 48 48
0.0324610412963169 0.0174296680079327 0.0328055784954396 -0.3671414 0.6010324 0.7099065 72 72 72
0.0101896465667026 -0.0165479597462788 -0.00048772833210553 0.01640087 -0.9960278 -0.08751893 88 88 88
-0.01659346214454 -0.0166205582036152 0.0109837219967214 -0.1612236 -0.9739114 -0.1596983 98 98 98
-0.0279705583206875 -0.0172264990224018 0.0269547567619649 -0.2578134 -0.9570756 -0.1324335 132 132 132
-0.034971958314584 -0.0145886358632221 0.0266181693329183 -0.1750304 -0.9678742 -0.18051 54 54 54
0.0375763119109409 -0.00391415923968697 0.019843863035616 0.8503851 -0.5216688 0.06860596 36 36 36
0.0303335131057041 -0.0150462803258076 0.0245439574970571 0.734367 -0.6551145 -0.1775671 25 25 25
-0.01101804367225 -0.00804821819201851 0.0397865340961782 0.03001023 0.004559131 0.9995392 212 212 212
0.000623220289541981 0.0182913127528057 0.00678213098185931 -0.379733 0.8515337 0.3615152 51 51 51
-0.011085992967294 0.0191338840113506 -0.0321589841590556 -0.5961428 0.7995417 0.07312254 84 84 84
-0.0298446475617153 -0.0013556894673481 0.0172787473453847 -0.5152037 0.8569375 0.01494428 52 52 52
-0.0332474767319424 0.00031324058636284 0.00347902038234149 -0.519471 0.8466335 0.1155922 71 71 71
-0.0236928521744473 0.00435419708355522 0.00935711124080096 -0.5184088 0.823992 0.2286691 84 84 84
-0.0451721011749966 -0.00995997756854439 0.0124723181976644 -0.8944615 0.4392093 -0.08386793 55 55 55
0.0250916422255771 0.0226957383738384 -0.0252254738555583 0.1684668 0.9811664 -0.09450687 60 60 60
0.00489341625054052 -0.017282169760622 -0.000194622491422547 0.005559486 -0.9981793 -0.06006035 69 69 69
-0.0133040010086758 0.0157069745646343 -0.0167178346858653 -0.5983809 0.797289 0.07918694 75 75 75
-0.0193698464981777 -0.0193243440999165 0.0348892376674977 -0.08043721 -0.9963192 -0.02962819 94 94 94
-0.0139378368012173 0.0164188924418316 -0.0350104107604655 -0.6023659 0.798107 0.01343995 138 138 138
0.0323886812575596 -0.014062446059145 -0.0108598305926951 0.5311279 -0.8253171 0.1917158 84 84 84
0.0303108633406894 0.0225425544367657 -0.0206614567981395 0.1701151 0.980558 -0.09781031 39 39 39
0.0148521602996128 -0.019071024359621 0.0160336659206716 -0.1485703 -0.984094 -0.09739532 91 91 91
0.0122266949065464 0.0226863208399639 0.0193988249554006 -0.5169497 0.800743 0.3026115 98 98 98
0.040156477773978 0.0145682874308453 0.0169598028911916 0.9572097 0.1738665 0.2313439 60 60 60
0.0331853569396274 -0.0107634481801167 -0.0320027901874217 0.5301291 -0.7320033 -0.4279419 52 52 52
0.0394096315749424 0.0270690503702984 0.0144511924042073 0.5105255 0.8252798 0.2414061 221 221 221
-0.00171566597144435 0.0140837016688213 0.0259750948204366 -0.3943988 0.9055997 0.1560089 110 110 110
-0.00336790672461817 -0.0159342703236713 -0.000558270429197205 -0.2009631 -0.967895 -0.1509736 48 48 48
-0.0127608834854824 -0.0169951137913837 0.01098807313579 -0.114221 -0.9746471 -0.1923969 37 37 37
0.0145579517730015 -0.0177359995259418 0.00330059387820636 -0.1310673 -0.9761417 -0.1731147 84 84 84
-0.0388709365479214 -0.00169174045459175 0.0334512756122914 -0.4694992 0.8010236 -0.3713915 34 34 34
0.025037282789542 -0.0119518455876484 -0.0309772326694163 0.05792047 -0.9551535 -0.2903913 72 72 72
0.0344980896361606 -0.00573233932391548 0.0388189122928945 0.7227623 -0.1312729 0.6785147 101 101 101
0.0447624863036411 0.0197026315317974 0.00726525643008624 0.9084207 0.06404336 0.4131226 89 89 89
0.0091484726317661 0.00139518409832573 0.0383964047684041 -0.00935795 0.001697169 0.9999548 146 146 146
-0.0186364709488613 -0.0182452616109028 0.0233688519253102 -0.1293381 -0.98376 -0.1244505 86 86 86
0.0309129894622104 0.0224818769083843 -0.0105200245128306 0.179762 0.9829758 0.03800151 44 44 44
-0.00712502590339015 0.0207300963984356 -0.0205666556106242 -0.5401495 0.8359769 0.09685677 73 73 73
-0.0150694905869229 -0.0149085935963764 0.00145898916858112 -0.02110056 -0.9938078 -0.1090911 50 50 50
0.00116633781273534 -0.0146673139943256 -0.0150855912910136 -0.03538281 -0.9920695 -0.1206074 72 72 72
0.0266895235427158 -0.0136555847539082 -0.0225588514552745 0.2019451 -0.9757171 -0.08481883 32 32 32
0.013765686834647 -0.020948809088625 0.0333189533008901 -0.05671386 -0.9977626 -0.03540126 77 77 77
-0.0153410493485195 0.0094170156107769 0.0152064428581563 -0.4981459 0.8577156 0.1271795 98 98 98
0.0348904074080723 0.00790949493511772 0.0373349056495992 0.339114 0.06033029 0.9388088 131 131 131
0.016863340223624 0.0256901565180645 -0.00701145670277203 0.3426858 0.9277564 -0.147765 198 198 198
0.0286436022170322 -0.016448658408083 0.00275840022700702 0.5641699 -0.8218885 0.07881338 73 73 73
-0.0316371976486904 -0.0115927872075214 -0.0290044083343181 0.05242064 -0.9945918 -0.08966124 64 64 64
-0.00373006454627345 0.023254710732542 -0.0265894963489207 -0.5353567 0.8444931 0.01498608 75 75 75
-0.0331649839035733 -0.0136182722462788 -0.000743074630323304 0.03246584 -0.9994386 -0.008269415 61 61 61
-0.00447691074530909 -0.0189984259022846 0.031842725063738 -0.01434159 -0.9996775 -0.02095776 99 99 99
0.0168439091094272 -0.0190760311497822 0.00702960946696674 -0.1023561 -0.9790794 -0.1758603 94 94 94
0.0363734901793735 -0.00627796024218941 -0.00256322166782941 0.6927294 -0.6990053 0.1775319 74 74 74
0.028160685385062 -0.0155474361790791 0.0201977656139699 0.7484387 -0.638015 -0.1810426 40 40 40
0.0162856520064609 0.0161237302409039 0.0289675162090627 -0.09466862 0.6551227 0.7495679 111 111 111
0.000864619100882313 0.0179445329295025 0.0149549410595265 -0.5666135 0.8236083 0.02486741 60 60 60
0.0250599325545566 -0.0169127401723042 0.00305573799746905 0.271469 -0.9599619 -0.06912135 88 88 88
-0.0408717452637417 -0.013905328215517 0.015124397064623 -0.1734574 -0.981652 0.07919563 65 65 65
0.00023090251763036 0.0258358302698956 -0.0268494620071086 -0.3999339 0.9154862 -0.04402212 38 38 38
0.00649284728844335 -0.0176477846516743 0.0109109149231282 -0.03859881 -0.9885275 -0.1460259 89 89 89
0.0393530071624058 0.0141084972010479 0.0309035942806569 0.9800237 -0.03779408 0.1952566 57 57 57
-0.011704569970773 0.0144325080500469 0.0013238654388753 -0.5904433 0.7781101 0.2142928 115 115 115
-0.0279027282349331 0.00457115799053764 -0.0165741278873118 -0.6122158 0.7881688 0.06310086 60 60 60
0.0341132820494907 0.00931842952831841 -0.0267229213462504 0.8847985 0.1225055 -0.4495821 41 41 41
0.0322799623854892 0.01128705173596 -0.0304223432288798 0.9319497 0.04310483 -0.3600164 44 44 44
0.00747358211357763 0.0230671945200787 0.0118929312481252 -0.5594987 0.7744403 0.2953024 114 114 114
-0.0208183585755093 -0.0171138462437763 0.0192498729481069 -0.2249933 -0.9585378 -0.1748811 108 108 108
-0.0229911862961514 -0.0120475706471577 0.0409014389767018 -0.01947022 0.1229409 0.992223 240 240 240
0.0051649750121372 -0.0127561506642475 0.0384688244118062 0.1251244 0.1040486 0.9866701 160 160 160
0.0276627481826084 0.0226614060984478 -0.0261740519748362 0.1453879 0.9848176 -0.09485074 72 72 72
0.0143542230971592 -0.0130137619389668 -0.026614113067213 -0.05014048 -0.9789381 -0.1979044 66 66 66
-0.0239870607010586 -0.00210158199206734 0.0403475330128041 0.07593498 -0.1427067 0.9868478 218 218 218
0.00828837760765722 0.00401886135204887 0.0380789504303304 0.07276539 0.1096839 0.9912995 153 153 153
0.0107780636199253 -0.0192859587086811 0.0176209078087178 -0.06503731 -0.9893646 -0.1301067 68 68 68
-0.0407208263031704 -0.00223605007068062 -0.0376605524764689 -0.604772 0.7944484 0.05570086 41 41 41
0.0153500975020664 0.0187418046580181 0.0281290576710073 -0.1068848 0.6724519 0.7323825 129 129 129
0.0234076918013828 0.022937614022337 -0.0135469271884593 0.1070407 0.9942541 -0.001002248 58 58 58
-0.0158389865509732 0.00399132400616264 0.0404468045486776 -0.04197253 0.1289131 0.9907672 225 225 225
-0.00225890270392726 0.0225485149012432 -0.0376998617396983 -0.2036579 0.9418976 -0.2671186 133 133 133
-0.0212711154572232 0.0103936973200665 -0.0283047094092997 -0.610581 0.7889023 0.06945477 50 50 50
0.0378025711425083 -0.0102603849782124 -0.0143952204929026 0.703743 -0.6690122 0.239099 67 67 67
-0.0050654470078213 -0.0145625290288105 -0.0169089271770152 -0.03659686 -0.9993255 -0.003042049 69 69 69
-0.00502658477942775 -0.0163977560414448 0.0393450722946492 0.007215553 -0.3528313 0.9356591 247 247 247
0.0390474737532871 -0.00440756648913765 -0.021505071137968 0.9379493 0.01552319 -0.3464248 47 47 47
-0.0270834027878506 0.000659185944639207 0.0151053235782949 -0.4965215 0.8578604 0.1324462 113 113 113
-0.00722313514869044 -0.0176574406041279 0.0392297373070088 0.09965785 -0.4201141 0.9019825 226 226 226
-0.00544047943274806 0.0144594493494854 0.0115730927242604 -0.3350216 0.8886247 0.31322 115 115 115
0.00493859657128026 -0.0204024729146137 0.0330469177021352 -0.1444577 -0.9864852 -0.07732302 112 112 112
0.0125163734801548 -0.0167031702412739 -0.00716511747700299 -0.007271188 -0.9996098 -0.02696926 83 83 83
0.0369764507659214 0.00596972137554741 0.0336044595493642 0.9074724 -0.1742306 0.3822795 52 52 52
0.0331853569396274 -0.010598820151247 0.0188601777805654 0.7295449 -0.6661267 -0.1550468 24 24 24
-0.0197018443695767 0.0117432656870708 -0.0306127800689372 -0.6145509 0.7866513 0.05921907 102 102 102
0.046275132978751 0.013895112572752 0.00326590397494708 0.8944938 -0.1891215 0.4051097 123 123 123
-0.0369222222916348 -0.0118954595936909 0.041513340259966 0.09190977 -0.3115785 0.945765 153 153 153
0.0271195114501255 -0.0157648739232197 0.0172829792751638 0.7477007 -0.6395506 -0.1786579 69 69 69
0.00367116340477636 -0.00235776275531197 0.0384822056545583 0.133101 0.005061657 0.9910896 237 237 237
0.0449209154494541 0.014334041176878 -0.00701145670277203 0.914045 0.2044132 -0.3503383 55 55 55
0.00570821174462011 0.0272365394221172 -0.00732846400600995 -0.3722389 0.9252895 0.07264748 87 87 87
0.021913880194022 0.0298090758906231 0.0112615392460195 -0.1432855 0.9827721 0.1167398 202 202 202
0.0351318062194126 -0.00682060092822456 0.000382380272325622 0.7264392 -0.6806713 -0.09472395 31 31 31
-0.0154768287293179 -0.00920335620776558 0.0400703714145986 0.04083782 0.07257694 0.9965264 177 177 177
-0.0352473317734463 -0.0139489588154926 0.0213165745987264 -0.1386367 -0.9885784 -0.05909722 93 93 93
0.0404914558776157 0.0219490113840923 0.029110597158846 0.4990275 0.7846508 0.3678242 73 73 73
0.0179302633651035 -0.0160926994694843 -0.00694043776852216 0.01308114 -0.9980482 -0.06106294 57 57 57
-0.00108194938819239 -0.017330211104311 0.00717492559092914 -0.06814712 -0.9864208 -0.1494325 123 123 123
-0.0387079774491055 -0.0140059408558979 0.0169853136791555 0.02116083 -0.9992047 0.03379671 70 70 70
-0.0190680085770352 -0.0101637062443867 0.040540234829363 0.009222393 0.1694937 0.9854881 177 177 177
-0.00109696975867579 0.0242974343882427 -0.030966831658903 -0.3626957 0.9088827 -0.205874 40 40 40
-0.0116064607254727 -0.00477914184466743 0.0399566457523671 0.01507636 -0.05800942 0.9982022 145 145 145
0.0307409704573887 0.0284887137995586 0.0155790910972921 0.1729987 0.9386783 0.2982524 190 190 190
-0.00535965553443263 0.012258845864378 0.0367854402317372 -0.107781 0.9047353 0.4121133 89 89 89
-0.0451269208542568 -0.00707284778491402 0.0266974733127919 -0.438131 0.878673 -0.1896706 35 35 35
0.00260733970482518 0.0202608886347637 0.00532011845248614 -0.5272624 0.7597311 0.3805299 87 87 87
9.50039275424697E-05 -0.0149031099690571 -0.0125811531291636 -0.08096568 -0.9874122 -0.1358742 74 74 74
