ply
format ascii 1.0
comment File exported by Rhinoceros Version 7.0
element vertex 472
property float x
property float y
property float z
property float nx
property float ny
property float nz
property uchar red
property uchar green
property uchar blue
end_header
0.154306419501035 0.262160369602158 -0.0340330175375447 -0.143498 0.08114244 -0.9863185 180 180 180
-0.00897479275097127 0.0551211448766284 -0.0706600630542856 -0.1119227 0.05077868 -0.9924187 191 191 191
-0.109103586020718 -0.066350455360116 -0.0623267518974678 -0.870679 0.4540639 -0.1890611 172 172 172
0.0185715787943768 0.112922686278786 0.0399220697599559 -0.8417746 0.4985529 0.2070279 160 160 160
0.243802494920274 0.374927021655182 0.0112127752750153 0.4915583 0.8702678 -0.03169181 179 179 179
-0.264269095889435 -0.337199123986375 0.0134233765731539 -0.8345481 0.5196875 0.1829052 162 162 162
-0.259031233856226 -0.308487074196594 -0.0557705496417051 -0.8248593 0.5299266 -0.1969388 150 150 150
0.0482765677930106 0.172174017189942 0.00916578917712665 -0.849615 0.5018851 0.162067 103 103 103
-0.159167977012121 -0.373432411963894 0.0549197782011284 0.8226236 -0.513205 -0.2447675 64 64 64
-0.0668975549481835 -0.209783731517071 0.0135283921654892 0.8304101 -0.517983 -0.2052137 202 202 202
0.0189503918924775 0.126794130878754 0.00108947052307443 -0.843511 0.5105904 0.1666929 130 130 130
-0.0369410474167845 0.0323656779555237 0.00968759636613151 -0.8394943 0.5149015 0.1735677 142 142 142
-0.186955963732297 -0.232235125932903 -0.0179590445164803 -0.1439569 0.06157992 -0.9876661 196 196 196
0.153364078875359 0.359481658454844 -0.0671772764532834 -0.8465933 0.5241963 0.09218453 164 164 164
0.177680639286399 0.195145208273878 -0.00454252997045165 0.839205 -0.5230839 -0.1487218 174 174 174
0.231128431129171 0.27617138340293 0.0226334307850698 0.8480939 -0.5043473 -0.1623903 149 149 149
0.176079217222369 0.393232780039201 -0.0501607513385131 -0.8527888 0.5142081 0.09133101 203 203 203
-0.10908584427484 -0.0841092801285999 -0.0650245304100406 -0.1158953 0.02964617 -0.9928189 186 186 186
0.0461164510980445 0.183054538997201 -0.0515273110881844 -0.8455022 0.5234803 0.1053299 130 130 130
0.0919566185425574 0.0619531444035235 -0.0256866818602245 0.8335124 -0.5352115 -0.1371339 138 138 138
-0.105307294471988 -0.203908317434667 -0.0291635697932068 -0.1528815 0.08592686 -0.9845018 184 184 184
-0.210187718031949 -0.399337412066872 0.0457888498548874 -0.5162572 -0.8555725 0.03839518 123 123 123
-0.0908112661595576 -0.0682655813170625 0.0461292450449066 -0.8281289 0.5114669 0.2293561 170 170 170
-0.222201336301663 -0.357552519390288 -0.0670506040605756 -0.1454271 0.08647785 -0.9855824 228 228 228
-0.259164364120568 -0.32411606782983 -0.00113686728479132 -0.8463072 0.5086163 0.1583462 150 150 150
-0.104075284139255 -0.0669209743318155 -0.0257544009516469 -0.8438346 0.5258952 0.1066651 150 150 150
0.122850945863609 0.111815879342775 -0.023802579726618 0.8344051 -0.5295756 -0.1527019 170 170 170
-0.126993369714738 -0.134772628287214 -0.0655542142864149 -0.1242764 0.07707823 -0.9892493 198 198 198
-0.15541749906096 -0.308387906127904 -0.0297188223466085 0.2710303 0.6895956 -0.6715657 121 121 121
0.0570652244760919 0.178307358985338 0.0335813808330896 -0.8328614 0.5124829 0.2090531 132 132 132
-0.0723537460231309 -0.121212493774164 -0.073040546752868 -0.1399575 0.07559104 -0.9872679 203 203 203
-0.0505745325765482 -0.00263795826248425 0.0438718034577621 -0.8251694 0.5235338 0.2121504 169 169 169
0.0309043980752741 0.124603446850651 0.0605235236177644 -0.8286231 0.5215212 0.2034683 152 152 152
0.123313132270265 0.170490738608691 -0.0806416074789704 -0.1432231 0.0610844 -0.9878036 186 186 186
-0.059580316205358 -0.183211725477887 -0.0291019549340978 0.8681727 -0.4772261 -0.1361303 98 98 98
-0.00581689920741205 -0.115463524156131 0.0321306634717039 0.8210736 -0.5379144 -0.1910138 165 165 165
-0.127456371190626 -0.304558686401569 0.0113030530104399 0.8331248 -0.5011596 -0.2339706 157 157 157
0.0569803803316851 0.00162529529680588 -0.0177788067601383 0.826234 -0.5339834 -0.1794409 139 139 139
-0.0236736975984647 -0.134745219045812 0.000509801090827794 0.8504927 -0.5005031 -0.161737 182 182 182
0.157871632977912 0.318725726995869 -0.068338315706396 -0.5126779 -0.8584833 0.01295713 133 133 133
-0.176368327536986 -0.399072118186171 0.0501804793834493 0.8295777 -0.5096937 -0.2280639 104 104 104
0.264187264938882 0.357882748007366 -0.0679287587639675 0.9864795 0.1277568 -0.1026474 62 62 62
-0.223426758215987 -0.298441593559451 -0.0622942981871511 -0.1586331 0.07892685 -0.9841779 195 195 195
-0.180883545930796 -0.293803982774444 -0.0318612335019364 0.4998282 0.8660582 0.01072172 143 143 143
-0.177527482339863 -0.214662028900801 0.0573987529858501 -0.8450773 0.4773238 0.2408451 157 157 157
-0.0164340176919394 -0.101389497273868 -0.0598303695334331 0.8520769 -0.5035354 -0.142888 129 129 129
-0.237869485204636 -0.299981119669529 -0.0605127974638016 -0.1330651 0.05536673 -0.9895596 203 203 203
-0.090254768282703 -0.0466360451679431 -0.0176940398260073 -0.8336868 0.536455 0.1310813 160 160 160
0.147320528676285 0.35109682076986 -0.0721587585376952 -0.7641308 0.5223153 -0.3785377 152 152 152
-0.152578765782804 -0.144029491545308 -0.0294087534303544 -0.8463016 0.5112191 0.1497618 101 101 101
0.155598108632233 0.165951088446072 -0.0275069723148174 0.8417419 -0.5105148 -0.1756281 164 164 164
-0.118154466958714 -0.0972048976175222 -0.0648136538286241 -0.1185539 0.06404353 -0.9908801 176 176 176
0.171210906155497 0.19101301859682 -0.0229110034212839 0.8447934 -0.5090333 -0.1649522 111 111 111
-0.0771400124521679 -0.0183725630089218 -0.0487096880247127 -0.8389009 0.5305158 0.1216478 160 160 160
-0.132593308544678 -0.106039218199929 -0.0542695069629059 -0.8383376 0.5359953 0.09949432 142 142 142
0.128617752796949 0.286265414000799 0.0569461402118636 -0.8303406 0.5135155 0.2164169 144 144 144
-0.104686967367353 -0.285350545466225 0.053370571698772 0.8286122 -0.5255897 -0.1927621 138 138 138
-0.0493000607435502 -0.00167037529640335 0.0460284523273241 -0.8146169 0.5344666 0.2252661 174 174 174
0.184772544312026 0.399864453736283 -0.00661965986078797 -0.8467161 0.5172709 0.1245097 185 185 185
-0.0226861625553386 0.0339929861616948 0.0648315428772329 -0.8474996 0.4995193 0.1795127 164 164 164
-0.220797983510525 -0.39627852796537 -0.0622693211834727 -0.5162711 -0.8560316 0.02596436 116 116 116
-0.0883745901232195 -0.166858834858755 -0.0739837758481659 -0.1685407 0.04530987 -0.9846528 178 178 178
-0.110720385241067 -0.290396676628519 0.0413744558283356 0.8288199 -0.5180345 -0.2114185 183 183 183
-0.0690353297355117 -0.0212226386522787 0.0140531526425438 -0.8452469 0.5022394 0.1825193 127 127 127
0.201778780823071 0.296194110759755 -0.0829846906876656 -0.03531956 0.2017867 -0.9787924 203 203 203
-0.241265829763858 -0.365635042765278 -0.0646853090178064 -0.1436167 0.08045031 -0.9863579 193 193 193
-0.257792596492953 -0.368426087381312 0.0598480048499692 -0.549494 -0.8348472 0.03296338 162 162 162
-0.0965275422816453 -0.0847470673839015 0.0628994848568637 -0.8359526 0.5056117 0.2134013 139 139 139
0.043457844428676 -0.0220225565432304 -0.00777383715574195 0.8419685 -0.5059709 -0.1873035 101 101 101
-0.182382137730612 -0.410755087876039 0.0543151422952277 0.5778493 -0.7809283 -0.2371522 102 102 102
-0.0158467517280939 0.0497313803044848 0.0542508705009424 -0.8351526 0.5195286 0.1805829 155 155 155
-0.263342384088963 -0.367393646658443 -0.00629270835609416 -0.5410185 -0.8409599 0.009240275 155 155 155
-0.136431339318496 -0.119418322959818 -0.0217168723891994 -0.842445 0.5221896 0.1326821 136 136 136
-0.0257523796812346 0.0634041942111379 -0.0436960673929402 -0.837665 0.531599 0.125379 162 162 162
-0.202690473340358 -0.250716630578602 0.0463931649822198 -0.8205885 0.5222886 0.2320543 151 151 151
0.048885387268168 -0.0214144914622738 0.0123770320091594 0.8434772 -0.5070367 -0.1773698 146 146 146
0.0177058179264425 0.0967836237374506 -0.0713904389895038 -0.1311413 0.05992543 -0.9895509 199 199 199
-0.262201632424052 -0.348414512003341 0.0477338491053682 -0.8318313 0.4931796 0.2546185 147 147 147
0.0929258566971433 0.194616595108619 -0.0759494498747429 -0.01880685 0.1962856 -0.9803664 161 161 161
-0.074460747773432 -0.228168405847516 0.0321531818306437 0.8247884 -0.5258437 -0.2078761 151 151 151
-0.147271409908772 -0.231315777241524 -0.0244344784065036 -0.1521624 0.099306 -0.9833539 178 178 178
0.161511249313696 0.240090155266997 -0.036832518743057 -0.1180333 0.07204348 -0.9903928 159 159 159
0.0192456616464361 0.0699765926912501 -0.0732689718422863 -0.1398138 0.06724185 -0.987892 206 206 206
0.0757625534731043 0.162418576805343 -0.0748723535081165 -0.1445522 0.08436466 -0.9858941 181 181 181
-0.0906529906772597 -0.237325505006483 -0.0119622404355896 0.827153 -0.5297027 -0.1877046 153 153 153
-0.0981860557987607 -0.0732113210505372 0.0284725141861215 -0.8294647 0.5166787 0.2122062 171 171 171
-0.0528049889523067 0.0207535871931681 -0.0483543618227304 -0.8511418 0.5066888 0.1372012 154 154 154
0.161635114315616 0.372397915062557 -0.064061583281497 -0.8490314 0.5200903 0.09301402 134 134 134
-0.274691733892098 -0.339155909577966 -0.058354315563165 -0.4187081 0.2370884 -0.8766257 181 181 181
-0.0252717636111909 0.0344734550233219 0.0507670123305007 -0.8293874 0.5173052 0.2109785 133 133 133
-0.149028993942164 -0.13394709614891 -0.04611116332337 -0.8344185 0.5377892 0.1205345 133 133 133
0.0582371274021985 0.205178664303064 -0.0639463516559712 -0.8607014 0.4949075 0.1194139 137 137 137
-0.0544944859240554 -0.191540086607424 0.0197060888170678 0.8357794 -0.5118353 -0.1987392 152 152 152
0.2632586266316 0.332729633429852 0.00143498952329693 0.841962 -0.5220493 -0.1362517 162 162 162
-0.0589670560440022 0.0138631146988297 -0.0607823558926743 -0.8386533 0.5309422 0.1214952 156 156 156
0.0446963864174693 -0.0255874257041175 0.00836864433247284 0.8331656 -0.5317634 -0.1518644 116 116 116
-0.171292985815863 -0.178082842452647 -0.0165831034272877 -0.7290469 0.3879678 -0.5638897 170 170 170
-0.183738646049615 -0.402996983123514 0.0332455859909337 0.8328929 -0.5234326 -0.1797436 91 91 91
-0.101229701871149 -0.0886958939531193 0.0554642304443581 -0.8333943 0.5015699 0.2321241 168 168 168
-0.0315478938261075 0.0445632661673618 -0.00320352546619737 -0.8492008 0.5152573 0.1156193 141 141 141
-0.0911849460256845 -0.0392640717313408 -0.0548562169458325 -0.8499703 0.515778 0.1073473 158 158 158
-0.0853755109453037 -0.24714970750632 0.0368677264109262 0.8392916 -0.5069614 -0.1964173 164 164 164
-0.111896506052287 -0.113725824686503 -0.0667367070062273 -0.1456091 0.07208058 -0.9867129 181 181 181
-0.115805528982089 -0.284147418988592 0.00563684074754364 0.8407671 -0.5148532 -0.1674421 159 159 159
-0.121754363431163 -0.288265459422194 -0.00819304676177676 0.8395606 -0.5086253 -0.1908883 137 137 137
0.0853368189638023 0.0802155184037678 -0.0815765029255718 -0.1386793 0.06036698 -0.9884958 205 205 205
-0.0406408764109755 0.0316579674581234 -0.00734348443661101 -0.8492954 0.516594 0.108756 150 150 150
0.150483964426929 0.13899273546434 0.0346105037120779 0.8480962 -0.4999233 -0.1755266 105 105 105
-0.057521886259485 -0.00990910453893523 0.0353592073342669 -0.8289222 0.5142115 0.2201696 156 156 156
-0.0674597582955391 -0.0125324753592608 -0.0668557222660481 -0.1191264 0.05053016 -0.9915925 184 184 184
-0.155260278831823 -0.159539878844568 0.0141703482302011 -0.8394771 0.5087476 0.1909296 182 182 182
0.244226541034619 0.375337290021663 -0.0652148492935836 0.5741996 0.8183607 -0.02409501 166 166 166
0.094977446101991 0.0450051533407603 0.0433539082011571 0.8523656 -0.5059227 -0.1323444 107 107 107
-0.263269727255865 -0.326179726337125 -0.0132719905230429 -0.8238695 0.5413263 0.1679433 164 164 164
-0.145016986669331 -0.135115547881032 -0.0154442551181138 -0.8390697 0.5257888 0.1396713 151 151 151
0.128231434787301 0.299633657327045 0.0194212993933821 -0.8325807 0.5130586 0.208759 155 155 155
0.24966931334046 0.308008318533898 0.017173228379301 0.8298603 -0.523679 -0.1925935 167 167 167
-0.207133294764997 -0.24318011568081 -0.0162090832868364 -0.2538154 0.1361082 -0.9576285 152 152 152
0.0124619963401807 0.127141434312308 -0.0498457112234388 -0.8465387 0.5200225 0.1137929 135 135 135
0.00187979913898237 0.0389808586628348 -0.0730892776203734 -0.1359241 0.06685468 -0.988461 177 177 177
-0.131443941235821 -0.209775265574016 -0.025196600558766 -0.1657199 0.07003272 -0.983683 198 198 198
-0.185575428784908 -0.230096472560828 0.0622157401155159 -0.8324953 0.5150851 0.204056 184 184 184
-0.259306650629366 -0.368920932705914 0.0174850259415357 -0.5421082 -0.8402727 0.007773335 152 152 152
-0.0832239650564394 -0.0800977432961929 -0.0684802514276177 -0.123293 0.06114577 -0.9904847 170 170 170
-0.0263446469301107 0.0607013138883528 -0.0369458130322886 -0.8480604 0.5145181 0.1267464 156 156 156
0.00689610713947028 0.085591085986398 0.0575108078355762 -0.8464631 0.4942192 0.1981102 132 132 132
-0.0577502778976066 -0.179763849993458 -0.0291114712606492 0.8617796 -0.4861976 -0.1447334 133 133 133
-0.124644212603776 -0.192844646603307 -0.0245093601106812 -0.1503054 0.08876433 -0.9846467 210 210 210
-0.248226702150551 -0.291549476697985 -0.0570136582669042 -0.814455 0.3983688 -0.4218595 184 184 184
0.162505054580374 0.357219482771366 0.0133738402912331 -0.8326889 0.5171271 0.198012 173 173 173
0.113479303725571 0.150858286694717 -0.0806478701088858 -0.1163671 0.07268715 -0.9905429 209 209 209
-0.0385365740288985 -0.175175156785194 0.0486524840668609 0.8127372 -0.5077079 -0.2858164 165 165 165
0.0520049549196385 0.00996477163325804 -0.0635902990989594 0.8433471 -0.5132367 -0.1592285 133 133 133
-0.0528467158555909 -0.063423781758404 -0.0715520662178752 -0.1581501 0.04778419 -0.9862582 169 169 169
0.244551318231558 0.374310738574581 0.0385383464335686 0.5762016 0.8173062 0.001518577 152 152 152
-0.0413915215945574 -0.0166008853196293 -0.0702346267409844 -0.1166648 0.05468142 -0.9916649 222 222 222
-0.0136165428371397 0.064040348040878 -0.0697762725543935 -0.1366221 0.06411983 -0.988546 180 180 180
-0.187113301654177 -0.390101586997197 -0.0186371061728623 0.8383693 -0.5036669 -0.2084624 131 131 131
0.279372316855258 0.350822685094284 0.0381703445806173 0.9733897 0.176318 -0.1463708 99 99 99
-0.0224758643913029 0.0722603758797222 -0.0615058842774124 -0.8444463 0.524903 0.1067109 159 159 159
0.183827916303798 0.38638064441779 -0.0755821806107051 -0.1000712 0.05952339 -0.9931982 212 212 212
-0.169260080342267 -0.373490799449004 0.0121665009887253 0.8368211 -0.5183329 -0.1762427 145 145 145
-0.0989264973044776 -0.266831114783629 0.0306686237517504 0.8493951 -0.5095842 -0.1373023 177 177 177
0.0549609032277814 -0.0071536595671442 0.00159999352787046 0.8441612 -0.5088676 -0.1686585 128 128 128
-0.108420344303431 -0.102309001568951 0.0589488263712165 -0.8286878 0.5166838 0.2152077 160 160 160
-0.140549161871338 -0.300220200761839 -0.0307957169276582 -0.06976458 -0.003878818 -0.997556 189 189 189
-0.0901350356077039 -0.0532389637722288 -0.0660259939972553 -0.1215845 0.05497531 -0.9910575 160 160 160
0.249574324911042 0.323430909136792 -0.0367854376423928 0.8427876 -0.5177341 -0.1471752 139 139 139
0.179969185900419 0.401752200337143 -0.0592769882866033 -0.846603 0.5228564 0.09942169 191 191 191
-0.210713790189686 -0.274855957437733 0.0684907756410648 -0.8287337 0.4996791 0.2520341 139 139 139
-0.081022473501908 -0.19830769681995 -0.0545357268066484 -0.3699451 -0.9287077 0.02535002 123 123 123
0.0895147250551771 0.16518242657036 -0.07705495496098 -0.1272616 0.05427026 -0.9903834 176 176 176
-0.250986500808332 -0.374170335010597 0.0150303987413837 -0.5414078 -0.8382683 0.06468239 197 197 197
-0.231865392372785 -0.29260969722168 0.033248138860187 -0.8265105 0.5050729 0.2485592 138 138 138
0.0811661869845926 0.151133450819045 -0.0766899298131738 -0.126995 0.0545515 -0.9904022 188 188 188
-0.04444633288097 0.0252473328757452 -0.00917447571658395 -0.8405592 0.5291339 0.1160931 171 171 171
-0.157235794643115 -0.336685178139967 -0.0328334900787615 0.8253083 -0.5280783 -0.1999987 127 127 127
-0.0412619852116793 0.0188134523164203 -0.0685993484513652 -0.1180404 0.06382605 -0.9909555 218 218 218
-0.180849441372212 -0.294323883148134 -0.0418467277191236 0.5612411 0.8276286 0.006268707 129 129 129
0.0744693406854255 0.212442463534894 -0.0720335175427719 0.4522114 0.6315345 -0.6298167 141 141 141
0.136588137789029 0.173778833766303 -0.0564883159840545 0.5249466 0.8510842 0.009312685 112 112 112
-0.0106655454469839 -0.0886724578053981 -0.0713537728398691 0.8393037 -0.5345616 -0.09906171 143 143 143
-0.240530861791086 -0.32611083565574 -0.0618361672763869 -0.1426713 0.08163112 -0.9863981 212 212 212
-0.168135210335363 -0.301949147404989 -0.0360251807187809 0.5106324 0.8587689 -0.04207767 105 105 105
-0.143581411322528 -0.159031063432409 0.0540423853012999 -0.8139336 0.5267159 0.2451175 134 134 134
-0.00776655646218707 -0.085715878087717 -0.0652000305862246 0.839471 -0.5232517 -0.1466158 126 126 126
-0.234789684577261 -0.276217897037793 -0.0332623768805726 -0.8515202 0.5052441 0.1401492 150 150 150
0.0100715713465663 0.122255161153443 -0.0465144068879964 -0.8558031 0.506409 0.1055987 111 111 111
-0.220949803634451 -0.262616184729745 -0.0150772755795119 -0.4871742 0.2840782 -0.8258092 202 202 202
-0.148737316148514 -0.155552780348142 -0.0280721773385008 -0.4937139 -0.8695538 0.01107909 162 162 162
0.124705103873936 0.294297237401971 0.0151943317215612 -0.8422251 0.5003182 0.2008447 137 137 137
0.126574006295596 0.292343905505432 0.03290457405918 -0.8320132 0.5202641 0.1925598 131 131 131
0.111502627326803 0.0849824192743378 -0.000379626656967419 0.8317521 -0.5353069 -0.1470881 148 148 148
0.0554180232174678 0.00401458088547568 -0.0262520805270696 0.8419561 -0.5150372 -0.1607685 88 88 88
0.0893658463564578 0.238540278176611 0.0116266305098945 -0.8334377 0.5176616 0.1934115 144 144 144
-0.0691375089690175 -0.008067681290157 -0.0382629829165974 -0.8431254 0.5213645 0.1316002 166 166 166
-0.146510520808109 -0.157252456177142 -0.0367934864750306 -0.5248191 -0.8502341 0.04082895 160 160 160
-0.104558105609826 -0.19089728112667 -0.0284025863457019 -0.183055 0.05838351 -0.9813675 188 188 188
0.189626506315145 0.212102942834097 0.00351582697526101 0.839417 -0.5186959 -0.1622763 149 149 149
0.194886085991943 0.267094402557826 -0.0389882200596224 -0.1332422 0.08242889 -0.9876497 208 208 208
-0.045739148307523 -0.16817610814495 -0.0065660125102788 0.8272559 -0.5276969 -0.1928307 176 176 176
-0.176999647552878 -0.189782995780483 -0.0171950188875664 -0.5492821 0.2739238 -0.789465 161 161 161
-0.0151162032708926 0.0258088482162813 -0.071510130162819 -0.119911 0.05175313 -0.9914348 169 169 169
0.176031951108662 0.267638745123864 -0.0366081850663252 -0.1208643 0.05816204 -0.9909637 204 204 204
-0.142306568904046 -0.136573747156123 0.00636439054055163 -0.8352556 0.5246413 0.1646192 114 114 114
-0.227813481745731 -0.364546392858553 -0.066836431736474 -0.1578298 0.06605858 -0.9852543 229 229 229
-0.0612093522807315 -0.188362676101858 -0.0163343350069755 0.8410763 -0.4996162 -0.2073025 138 138 138
-0.0666205114303967 -0.00178347676220958 -0.0478019105717147 -0.8460193 0.5229691 0.1037053 162 162 162
0.0808355429305577 0.187650269576861 -0.0745981952440305 -0.1446997 0.04263672 -0.9885566 201 201 201
0.24799290138477 0.343934801708717 -0.0853758025930863 -0.08359495 0.02905881 -0.996076 205 205 205
0.118788222684927 0.13311221199207 -0.0828227005732288 -0.1065643 0.06361536 -0.9922687 184 184 184
-0.0330315708904791 0.0559319416098885 -0.0633834211760256 -0.8515692 0.5232667 0.03196667 147 147 147
-0.146134174205852 -0.342093188582721 0.0247374447470386 0.8450562 -0.5024509 -0.1828195 152 152 152
-0.213958254696237 -0.274298292862901 -0.0438550412986962 0.5333624 0.8457342 -0.01606866 153 153 153
-0.16283291051823 -0.337456832375927 -0.0569222365887165 0.8420362 -0.5124327 -0.1684865 181 181 181
0.225223679094094 0.318887524845421 -0.0842633222466197 -0.1287762 0.04967549 -0.9904287 227 227 227
-0.0939399543472942 -0.246251835261379 -0.00253447537012072 0.8284406 -0.5217698 -0.2035742 156 156 156
-0.15387452087127 -0.139078842551646 -0.057344156791422 -0.8555863 0.5093641 0.09230582 132 132 132
0.19651965371976 0.406268568994698 -0.060105472349563 0.5075861 0.861577 -0.006440145 139 139 139
-0.00093189957827336 0.0747088508198608 0.0525348945387621 -0.8354265 0.5129311 0.1973936 104 104 104
-0.240602737156453 -0.3121464486168 -0.0610587817278602 -0.1422762 0.04354027 -0.9888689 195 195 195
0.0309267976994223 -0.0252352188011304 -0.0611909392000176 0.8409706 -0.5250939 -0.1305558 111 111 111
-0.0981917498557729 -0.209598264905791 -0.0304215306968457 -0.1377273 0.06666104 -0.9882244 182 182 182
0.0054405460281178 -0.0743051980020659 -0.035762911473342 0.835142 -0.5234174 -0.1690327 140 140 140
-0.231239033463199 -0.264626336126099 -0.0529088122566284 -0.2105664 0.9714293 0.109485 169 169 169
-0.023898602547919 -0.123720082975253 -0.0292780972631402 0.8443024 -0.504243 -0.1813627 116 116 116
-0.229522492617568 -0.382391352087642 -0.0682474339934464 -0.1364176 0.09998884 -0.9855924 199 199 199
-0.161266515812669 -0.188253816892016 0.0558779116959123 -0.8252239 0.5067905 0.2493369 183 183 183
0.0590441910790977 0.196456898634117 -0.016924923040308 -0.8393367 0.5319044 0.1122126 158 158 158
0.160475607782552 0.342646726181388 0.0441470601712266 -0.8384432 0.5030088 0.2097502 166 166 166
0.254214739117386 0.367974424967445 -0.0304461401428749 0.5738064 0.8189135 0.01126346 152 152 152
-0.0321700882115143 -0.130978680364028 -0.0469416704681592 0.8371879 -0.515079 -0.1838751 179 179 179
-0.107568013993882 -0.237634883771216 -0.0313185925217938 -0.1489748 0.07904305 -0.9856768 186 186 186
-0.0305837505606576 0.0289646060758899 0.0453477696058901 -0.843592 0.4961889 0.2053025 171 171 171
0.00905152607489454 0.119500574379043 -0.0696249232208098 -0.3796621 0.2566476 -0.8888131 195 195 195
-0.173282898370642 -0.21054035885334 0.0616757855296967 -0.8221175 0.5080504 0.2569193 188 188 188
-0.225582387561845 -0.390171690006558 0.0136055331988875 -0.5326346 -0.8452922 0.04220796 190 190 190
0.0590247367057513 0.204840923130946 -0.0580314797268412 -0.8587466 0.4988965 0.1168611 136 136 136
0.127118595679758 0.122696669182169 -0.0356461034913252 0.8363134 -0.5213387 -0.1696638 150 150 150
0.0633926650136822 0.176809931794457 0.061214538784106 -0.8319315 0.5025188 0.2352973 108 108 108
-0.188693303747835 -0.289968390943334 -0.0547897061018427 0.5152755 0.8554215 -0.05239493 126 126 126
-0.246989525842761 -0.31162716393363 0.0215947473780205 -0.8347294 0.5139539 0.1976824 140 140 140
0.193397841379986 0.312401752100529 -0.0806869067419356 -0.1206266 0.06907648 -0.9902917 200 200 200
-0.00166527816219167 -0.121206120388051 0.0467470101693443 0.7791114 -0.363523 -0.5107214 86 86 86
-0.131143550130187 -0.239175056859526 -0.0274755360017424 -0.1555317 0.0782204 -0.9847291 194 194 194
0.107284578936147 0.192711073222077 -0.0439004698899041 0.5284289 0.8467569 -0.06136558 199 199 199
-0.0144377581369061 -0.0956254294319503 -0.0688968248543204 0.842966 -0.5229733 -0.1261237 149 149 149
0.037655675955121 0.106137198131439 -0.0739419062111365 -0.1149549 0.05415938 -0.9918932 184 184 184
0.152256565378149 0.33929413181693 -0.0748505662913478 -0.1127201 0.04276185 -0.9927062 198 198 198
-0.242627057687784 -0.303554306930198 0.0200486759744372 -0.8284521 0.525032 0.1949577 144 144 144
-0.104829353006648 -0.0952766177088626 0.0560022952890008 -0.8223004 0.5260082 0.2171116 156 156 156
0.1392543722405 0.127760614023751 0.00813023601744464 0.8362939 -0.5189643 -0.1768858 163 163 163
-0.234446971007818 -0.291259349146868 0.0232299777187027 -0.8346394 0.5107536 0.2061741 170 170 170
0.00201456407954156 -0.0436784279538081 -0.07806897716347 -0.1411601 0.08317105 -0.9864869 188 188 188
0.264704047504626 0.350723326900636 -0.043314154822116 0.8679842 -0.4847528 -0.1077877 119 119 119
0.0793291641902044 0.20877567203227 -0.062047080085277 0.5410716 0.8383821 -0.06600806 133 133 133
-0.243481525588451 -0.295043316454649 -0.0152096911742361 -0.8477067 0.5170633 0.1184857 175 175 175
-0.206213325479688 -0.401781924973752 0.0306684472209652 -0.5285629 -0.8487108 0.01763948 180 180 180
0.190938379855422 0.365794349901073 -0.0773764213637134 -0.1109937 0.04052199 -0.9929947 199 199 199
-0.140558456761085 -0.286396111703238 -0.0300736683723398 -0.1614462 0.07661877 -0.9839028 159 159 159
-0.00580241211095003 -0.10802123401589 0.00719198208862817 0.8512715 -0.4968284 -0.1688145 175 175 175
0.0314880246828031 -0.0497758057543969 0.0159471511151372 0.836082 -0.5220765 -0.1685317 127 127 127
-0.251752986583902 -0.302170316940415 -0.0589327485501329 -0.4378974 0.189626 -0.8787991 178 178 178
-0.214820452893274 -0.254395102548041 0.00780999712878735 -0.8462195 0.5122553 0.146653 144 144 144
0.170409434079332 0.35436189688809 0.0553925376037425 -0.8216086 0.5208978 0.2315703 118 118 118
-0.211958982606635 -0.265236015544881 0.0454548055081836 -0.819837 0.5186776 0.2425712 172 172 172
-0.216260013734486 -0.282102645550718 -0.0622474800384658 -0.1479795 0.06364094 -0.9869407 211 211 211
0.175644423259587 0.395816158372934 -0.0676571027980372 -0.8420283 0.5350289 0.06879257 226 226 226
-0.147563104397402 -0.143603079005622 8.50617559944034E-05 -0.8441358 0.5147544 0.1498755 116 116 116
0.0989542218928961 0.256911173719547 0.00529117677087418 -0.8402704 0.5228335 0.1434947 142 142 142
-0.232076270861576 -0.307514696657662 -0.0619348708442786 -0.1376042 0.07646267 -0.9875315 170 170 170
-0.11138847890515 -0.0747853671401082 -0.0412371986906566 -0.8448969 0.5233812 0.1105507 152 152 152
-0.202591730657599 -0.406541051526198 -0.0330265779660366 -0.08151127 -0.9918905 -0.09751519 109 109 109
0.0422351290333405 0.177735780785681 -0.060064898648774 -0.8501896 0.5179749 0.0942322 145 145 145
0.139962135138107 0.33289878326197 -0.0737047822832506 -0.4860809 -0.05831556 -0.8719659 213 213 213
0.122462319144522 0.141955445885597 -0.0823000311162705 -0.1155029 0.06033098 -0.9914733 208 208 208
-0.151998287153806 -0.14514176632688 -0.0216881129589238 -0.8317264 0.5410261 0.1245872 115 115 115
-0.236835074960486 -0.286446595461092 -0.00689973182697021 -0.8381607 0.5290379 0.1326862 139 139 139
-0.140444427425566 -0.327473781923887 0.0148414183179727 0.8285382 -0.5176963 -0.2133424 159 159 159
-0.165003015028382 -0.185383633216944 -0.0183854302137996 -0.1438541 0.05155485 -0.9882551 184 184 184
-0.0502865972716101 -0.00539024040400005 0.0517814744737974 -0.8374258 0.5102575 0.1958453 168 168 168
-0.0561174477322938 -0.0182879824545563 0.060334312487529 -0.8288851 0.5276837 0.1857405 149 149 149
-0.269073849309644 -0.354425304576555 0.0356570855466248 -0.8547097 0.4748344 0.2097707 163 163 163
-0.164976936391741 -0.305050564775684 -0.068490454648749 0.4034501 0.8561852 -0.3227614 127 127 127
0.221358193097223 0.267441139608459 -0.00225670716650703 0.8464341 -0.5057252 -0.1667076 127 127 127
0.0563889155538252 0.161019257258839 -0.07307448976987 -0.08875596 0.04264392 -0.9951401 170 170 170
-0.169953342804052 -0.367063328907327 -0.00621975251500387 0.8353679 -0.5027482 -0.2222717 159 159 159
0.000731927513923564 0.09563643676356 -0.0699123556977365 -0.1283869 0.05613767 -0.990134 170 170 170
-0.263468706900501 -0.317365330716992 -0.0516872456872887 -0.8474588 0.5190544 0.111338 169 169 169
-0.267888471534917 -0.363177205189087 0.0237692463619258 -0.5420745 -0.8398249 0.02914402 153 153 153
-0.196458463205221 -0.240906094806096 0.0486013518210568 -0.8156559 0.5170162 0.2596143 146 146 146
-0.154882776232006 -0.347525083484727 0.00605356107686186 0.8371053 -0.5038102 -0.2131433 118 118 118
-0.239718527925718 -0.289286587472896 -0.0108131939020477 -0.8469602 0.5167639 0.1249541 156 156 156
-0.0469844945799544 -0.147823415907759 -0.0682270764999918 0.8353595 -0.5319427 -0.1386052 156 156 156
-0.251302298513122 -0.373750798794093 0.0478724097147285 -0.5137164 -0.8569837 0.04091874 167 167 167
0.0468941159505074 0.0484158255863767 -0.0783591362307121 -0.1345147 0.05615216 -0.9893193 136 136 136
-0.0210466677426861 0.0382273221885634 0.0611527515845869 -0.8359173 0.5217687 0.170293 161 161 161
-0.121603390500603 -0.169971643501179 -0.0683482510214306 -0.3235317 -0.1847517 -0.9280054 195 195 195
-0.109285265663022 -0.282548322611289 0.029495467826203 0.8388914 -0.5194977 -0.1624293 175 175 175
-0.272605398027245 -0.361406818218933 -0.039005999521252 -0.5859916 -0.8103093 0.003559516 171 171 171
0.13929583621605 0.335968526496586 -0.0648870336192761 -0.8497181 0.519773 0.0884036 132 132 132
-0.243355569123771 -0.292208202399163 -0.0242274178954826 -0.8405176 0.5215594 0.1466492 179 179 179
-0.103311192507357 -0.0593331606605398 -0.0507824874161101 -0.8476636 0.5191701 0.1092191 166 166 166
-0.0575894562376759 0.00947271915327863 -0.0345583400096018 -0.8477734 0.5178179 0.114651 126 126 126
0.0758994561516022 0.222072611900761 -0.025987814235763 -0.4292873 0.2046782 -0.87967 164 164 164
0.231537876158566 0.28598840286522 -0.0061946956870855 0.8342699 -0.5255517 -0.1667005 144 144 144
-0.00139273811277776 -0.0212095678514037 -0.0761695454870328 -0.1380756 0.06138781 -0.9885174 181 181 181
0.0972744231266618 0.172891953079434 -0.077660538698492 -0.1331601 0.03660258 -0.9904184 198 198 198
0.0490587750355323 0.0735170129028877 -0.0770472051701692 -0.1320398 0.06689335 -0.9889847 205 205 205
0.272499388988665 0.340361177553915 0.0369791203566038 0.8363254 -0.5096729 -0.2019738 85 85 85
-0.172345517822046 -0.259727085415319 -0.0224102720847019 -0.1729095 0.08633973 -0.9811462 211 211 211
-0.164874798142211 -0.350098168486095 -0.027318581895276 0.8310831 -0.5185854 -0.2009227 114 114 114
-0.187752619923989 -0.393519990902528 -0.0116784596831055 0.8249582 -0.5252422 -0.2087213 138 138 138
-0.00533871055386528 0.0729593309657328 0.0383523251781858 -0.8306151 0.5203316 0.1983269 141 141 141
0.17896910935441 0.306107636541124 -0.0572930570177277 -0.5170721 -0.8559054 0.007896752 109 109 109
0.0965109889359489 0.169944082778603 -0.0777503612148429 -0.1261531 0.01711925 -0.9918631 189 189 189
-0.127750048855568 -0.30123944413101 0.000226554129411 0.8286244 -0.5173618 -0.2138186 142 142 142
0.0536900449436845 -0.0166399818932732 0.020301161206469 0.8329641 -0.5352525 -0.1402701 155 155 155
-0.245887495838209 -0.290069093420404 -0.0487499330770299 -0.8353249 0.5336197 0.132221 171 171 171
0.125552236261986 0.111479697424128 -0.0112179284485394 0.8351688 -0.515712 -0.1911391 155 155 155
-0.0881713650386907 -0.04827249537672 0.00447253434338116 -0.843155 0.5106838 0.1682011 135 135 135
-0.236640497116927 -0.384216036332744 -0.0192430346872874 -0.5441482 -0.838319 0.03352623 144 144 144
0.00778643110208418 0.117650075403812 -0.0429846319577547 -0.8526706 0.5097567 0.1144594 144 144 144
-0.167253187509337 -0.362767509512548 -0.00244579823586752 0.8422501 -0.4885164 -0.2279615 134 134 134
-0.158884144252167 -0.334273549926778 -0.0462408133205651 0.8433023 -0.5022652 -0.1912353 137 137 137
-0.172988342758205 -0.299965906573788 -0.0511994497845552 0.548939 0.8356087 0.02059207 122 122 122
0.103054121694836 0.234829878124076 -0.0285483701998126 -0.1202237 0.03240919 -0.9922177 194 194 194
-0.174422489322103 -0.355453863645935 -0.0581335657634906 0.8262463 -0.5275739 -0.1974408 200 200 200
0.200948284547048 0.235580354075879 -0.0119977567915863 0.8564573 -0.4982245 -0.1351044 139 139 139
-0.178362363003471 -0.222948004714951 -0.0189800343523313 -0.1501007 0.0591125 -0.9869019 185 185 185
-0.0559739150982078 -0.0168518947960152 0.0534336827470179 -0.8293587 0.5159587 0.2143614 151 151 151
0.14485407747078 0.249556698789659 -0.03359209565865 -0.1506296 0.06694137 -0.9863212 177 177 177
0.182390451698994 0.40162231260082 -0.0342022757929411 -0.8437855 0.529063 0.09010161 203 203 203
-0.234687001528104 -0.385435563867548 -0.0369985542612979 -0.5298555 -0.8474443 0.03303452 102 102 102
-0.151054617523586 -0.154679719068554 -0.0347449574914287 -0.4838331 -0.8749703 0.01823416 130 130 130
-0.273842627535343 -0.360461979407146 -0.0116134994920244 -0.5215378 -0.8529676 0.02108605 184 184 184
-0.152983428000384 -0.145144396700475 -0.0250278823226902 -0.8384396 0.5305276 0.1247373 148 148 148
-0.24949034555651 -0.293602114234375 -0.0542778574754142 -0.8390917 0.540112 -0.06483994 167 167 167
-0.113196071370836 -0.0939340330875913 0.0182386129903123 -0.8430647 0.4977136 0.2037725 124 124 124
0.0679812796976235 0.00356037978122914 0.0343475229745358 0.8261378 -0.5240874 -0.206951 117 117 117
-0.171944322320708 -0.338781482237658 -0.0734847830207059 0.1891968 -0.1090231 -0.9758681 196 196 196
-0.157892901179387 -0.346079940853627 -0.00940185074395225 0.8412426 -0.5052426 -0.1924598 121 121 121
0.134127902339631 0.312543304273592 0.00858375292856037 -0.8368914 0.5228474 0.1619979 104 104 104
0.154463757814248 0.16352133188411 -0.0253512123047853 0.8356981 -0.5292157 -0.1467631 150 150 150
-0.171133761073291 -0.185618171877663 0.014326938348368 -0.8328288 0.5242792 0.1775596 164 164 164
-0.237931993943737 -0.293659966580401 0.015162688274731 -0.8392878 0.5124813 0.1815461 149 149 149
0.131887641247803 0.14021551004276 -0.0718154174724585 0.8411391 -0.5210505 -0.1448842 153 153 153
-0.077513774435687 -0.179838657791578 -0.0766602455661407 -0.1488753 0.038816 -0.9880939 164 164 164
0.165433509194047 0.375772787438851 -0.047999089125592 -0.850482 0.5172852 0.09537455 166 166 166
-0.242094087485741 -0.379273468010556 0.0519020950887368 -0.5074835 -0.8616582 0.002381116 136 136 136
-0.111845735348649 -0.0801858375900226 -0.022112569996118 -0.8407635 0.5287736 0.1162549 145 145 145
-0.0628115604644438 -0.067062651796078 -0.0704879766856044 -0.118223 0.064595 -0.9908838 198 198 198
-0.186071194547389 -0.252974791798406 -0.0197285038769836 -0.1392542 0.07146257 -0.9876747 209 209 209
0.0854550612328113 0.0393867167893516 0.00770515699873045 0.8437549 -0.5012487 -0.1919046 146 146 146
0.0167237840916604 -0.0485146365062392 -0.059402819252801 0.8324104 -0.5269375 -0.1715511 121 121 121
-0.181128001602087 -0.211630766291862 -0.0176654829981003 -0.1316525 0.05866076 -0.9895588 157 157 157
-0.0461910119825441 0.0354002124959925 -0.0662823524267306 -0.6144937 0.4771932 -0.628239 175 175 175
-0.0794199456235442 -0.0532536139455282 0.0536280932469397 -0.8427344 0.4993056 0.2012279 146 146 146
-0.138042718053252 -0.261206540162146 -0.0282282275186896 -0.1665191 0.08000788 -0.9827869 166 166 166
0.179372148087946 0.18856003334262 0.024383403764872 0.8363114 -0.5146905 -0.1888832 165 165 165
-0.0758580131095471 -0.111929848563565 -0.0716490298623586 -0.1336294 0.06283282 -0.9890375 178 178 178
0.154064011642236 0.328812896876932 0.0526578941351113 -0.8322638 0.5100346 0.2172594 168 168 168
-0.230941823974824 -0.387425475664327 -0.0682117153870061 -0.5318762 -0.422665 -0.7337997 191 191 191
0.0127316926976837 0.102113669557666 0.0410236614066331 -0.8483638 0.493959 0.1904818 159 159 159
-0.259785546864307 -0.321307406875557 -0.0135811124333707 -0.8330978 0.5352525 0.1394732 188 188 188
-0.255374892881086 -0.371715308814425 0.0118373047982779 -0.5138228 -0.8570024 0.03915311 202 202 202
0.258260871270296 0.364543911180351 -0.0727532758307429 0.5475856 0.8364571 -0.02212562 187 187 187
-0.138864341855441 -0.1581329274275 0.0685799430049466 -0.8390852 0.4953374 0.2248929 120 120 120
-0.255724566248932 -0.321053812920675 0.00737930823876073 -0.8393873 0.5217153 0.1524538 148 148 148
-0.0323955750703765 -0.154128792517104 0.0152911250442369 0.8302023 -0.5236192 -0.1912777 175 175 175
0.219395222486904 0.391562286383707 -0.0619136434487645 0.5199017 0.8535323 0.0344209 158 158 158
0.234952325660753 0.288242970287877 0.00290241813225031 0.85067 -0.5046826 -0.1471599 136 136 136
-0.261055423979117 -0.31294610772719 -0.054168243911328 -0.853724 0.5186144 -0.04684426 170 170 170
-0.08139889993209 -0.141647608582924 -0.0735067594333291 -0.16725 0.1027609 -0.9805446 170 170 170
0.0720846572835043 0.214080421069595 -0.0345519964410455 0.3530783 0.935522 -0.01159326 142 142 142
-0.119915161176743 -0.279399686865658 -0.0240509133041944 0.8310754 -0.5280287 -0.1746407 137 137 137
0.16755849353312 0.181722280493488 -0.0158012886632183 0.8451606 -0.5070901 -0.1690065 154 154 154
-0.126828147547547 -0.0981064417778026 -0.0482257748909617 -0.83891 0.5321549 0.1141974 152 152 152
0.164592225223531 0.377125156366239 -0.063844595841488 -0.8368325 0.5411109 0.08312827 164 164 164
-0.0335531472363479 -0.0738097272267113 -0.0752107216842129 -0.1416106 0.06000276 -0.9881023 163 163 163
-4.2762027001958E-05 0.00460957437905463 -0.074682240107673 -0.1251282 0.06256384 -0.990166 190 190 190
-0.0926122912471589 -0.237928584615953 -0.0178704316504109 0.8318403 -0.5268887 -0.1744419 156 156 156
-0.184109751968928 -0.327296210561912 -0.0706214154402907 -0.1648507 0.07630894 -0.9833622 191 191 191
0.0979934446939353 0.0561392800219815 0.0226042046459538 0.8474395 -0.5167401 -0.121762 156 156 156
0.148787962326855 0.201073195416577 -0.0368923034702847 -0.1262843 0.05519524 -0.9904574 224 224 224
0.0867755424780725 0.0875979253602226 -0.0811089693408368 -0.1441437 0.06385568 -0.9874943 196 196 196
-0.0855312705897181 -0.0681920928150901 0.0660321605793611 -0.8170837 0.5306422 0.2253734 123 123 123
-0.0727968590937453 -0.0278449110186441 -0.0666846865672445 -0.1285909 0.05416539 -0.9902174 172 172 172
-0.044133458358968 -0.14186021287881 -0.0744249120213667 0.747039 -0.5317634 -0.3989491 126 126 126
0.0318531147787302 0.102086919726531 -0.0730728905201105 -0.10216 0.03227197 -0.9942443 198 198 198
0.134130178030395 0.269083977984332 -0.0305865750816972 -0.1261523 0.06837561 -0.9896516 234 234 234
-0.118759901979149 -0.297706140240023 0.0312837128048194 0.8382193 -0.499472 -0.2188974 176 176 176
-0.104373844149696 -0.0601669612836639 -0.0571964430053853 -0.8372247 0.5352827 0.1119252 147 147 147
-0.0489052921924635 0.0268234719102536 -0.0475214654909009 -0.8418258 0.5262845 0.1198075 148 148 148
-0.0874370190949529 -0.0461990022830789 0.000803480131041839 -0.8431808 0.5221104 0.1282452 104 104 104
0.0123183863194704 -0.0253798321705119 -0.0781258753209041 -0.1388742 0.08511247 -0.9866458 185 185 185
0.179973455351694 0.403406485924011 -0.0684837387903931 -0.8567039 0.5105119 0.07372951 173 173 173
0.166085369177373 0.178550836118561 -0.0119927205817573 0.8351171 -0.5287416 -0.151696 178 178 178
-0.245023088242236 -0.289895567980334 -0.0588068849032992 -0.5373994 0.3550345 -0.7649525 214 214 214
0.224419581406644 0.273888055562854 -0.00989833959925765 0.8480504 -0.5030398 -0.1666175 142 142 142
-0.195998099532006 -0.394513783102373 -0.0429415099107101 0.8375471 -0.5130076 -0.187984 118 118 118
-0.25997618891467 -0.342590347007827 0.0436682115845994 -0.8196258 0.5320498 0.2124536 161 161 161
-0.260288615366303 -0.340391793198807 0.0367888380633335 -0.813858 0.5150076 0.2690768 163 163 163
-0.146307900186654 -0.157967356860931 -0.0554508737070263 -0.5393286 -0.8418562 0.02006966 107 107 107
-0.26864699588345 -0.343805490134579 0.0125726533428134 -0.8299176 0.520391 0.2010721 135 135 135
0.0171805583617769 -0.048475411511659 -0.0575590168703215 0.833499 -0.5258523 -0.1695844 116 116 116
0.133925661641693 0.141182976623758 -0.0601394243415869 0.8316627 -0.5373538 -0.139957 148 148 148
-0.181022819475556 -0.255955427793616 -0.0204845757463322 -0.159529 0.07557979 -0.9842958 214 214 214
-0.190555335721221 -0.237517418420382 0.0614966253511189 -0.8286315 0.5203277 0.2064675 153 153 153
-0.261076645733745 -0.366675695091099 0.0580551923057951 -0.5175282 -0.8546139 0.04242305 144 144 144
-0.265614935405151 -0.352046357375412 0.0436169307362162 -0.8060648 0.5235548 0.2759528 156 156 156
0.0458366694802495 0.17464005533192 -0.0142903029384202 -0.855634 0.5070347 0.1039529 167 167 167
-0.116486684610882 -0.0860180141245406 -0.0291883381926771 -0.8476044 0.5177065 0.1163907 148 148 148
-0.270090665938605 -0.362009667127765 0.0165697302998899 -0.5293225 -0.8480236 0.02595455 157 157 157
0.267175935109886 0.360117910778524 0.0152877804377256 0.5503276 0.8342212 -0.03484996 153 153 153
-0.0599274380142495 -0.00751343762570422 0.0157463629279183 -0.8318414 0.5167505 0.2025064 137 137 137
0.144749224410859 0.334036126457288 -0.0084004377791396 -0.8476566 0.5163711 0.1218161 161 161 161
0.205117217248318 0.402905704633738 0.0555012937302023 0.1460903 0.8937964 0.4240112 82 82 82
-0.0217222561368457 0.0447523210398659 -0.0696153193252844 -0.1154952 0.06221206 -0.9913579 207 207 207
-0.233631981965009 -0.383623773236119 0.0613360287005606 -0.525214 -0.8505452 0.02688922 133 133 133
-0.0984224748636483 -0.066820997500691 0.00836788341253017 -0.8431215 0.514095 0.1576465 148 148 148
-0.255429303430201 -0.305613446992646 -0.045469208825631 -0.8417651 0.5281403 0.1118004 146 146 146
0.00812685197078297 0.119143617495974 -0.0455436783941917 -0.8567895 0.504262 0.1078503 114 114 114
-0.100976455543047 -0.18558597502592 -0.0488590207533779 -0.5146031 -0.8567207 0.03483116 154 154 154
-0.00368275655215325 -0.108761855387823 0.0191053304724121 0.8325917 -0.5177864 -0.1966935 162 162 162
-0.13543518977876 -0.334773221578837 0.054027729119425 0.813058 -0.5143481 -0.2727317 87 87 87
-0.0682932118144172 -0.171381539170071 -0.07746148791376 0.2420152 -0.1322636 -0.9612154 191 191 191
0.0900591962968953 0.0542295611382961 -0.0137288578784884 0.8495011 -0.4960805 -0.1795885 132 132 132
-0.0230384036455104 0.0483405334990319 0.0257167636666808 -0.8268222 0.5235428 0.2055916 158 158 158
0.195934049021389 0.401663453986891 0.0405279044944876 -0.8374721 0.5077103 0.2021652 172 172 172
-0.247966195424664 -0.307413603496137 -0.0593851091665051 -0.1326651 0.04749329 -0.9900224 214 214 214
-0.0349918703472799 0.00406376162969857 -0.0700379420114865 -0.1403948 0.05082501 -0.9887902 157 157 157
-0.136271436697605 -0.325577701985201 0.0237017021590816 0.8345068 -0.509599 -0.2095404 155 155 155
0.258437486493366 0.321247917686469 0.0185517068329935 0.8487208 -0.5013369 -0.1683282 170 170 170
0.267765090113834 0.344277660146456 -0.0076857298715852 0.8395924 -0.5159122 -0.1700562 122 122 122
0.122776242797104 0.239531349024948 -0.0309900578669287 -0.1412293 0.07506926 -0.9871266 186 186 186
0.0731636170854836 0.189446608965404 -0.0733661424535905 -0.1253073 0.04116738 -0.9912635 203 203 203
0.00579941352571764 -0.0862781150270908 -0.000964644022882516 0.835153 -0.5128055 -0.1988715 166 166 166
0.12010016014552 0.182962743054413 -0.0744366462896374 0.5570492 0.8114993 -0.1765366 87 87 87
-0.142765324465749 -0.123647799057589 -0.0470984317317563 -0.8489441 0.5139238 0.1231917 126 126 126
0.187652523473477 0.27176071056527 -0.0377312071014011 -0.1201463 0.07764231 -0.9897154 200 200 200
-0.0247908753154077 0.0644599917339153 -0.0401796676632048 -0.8319628 0.538803 0.1323979 146 146 146
-0.0623959944048088 -0.0181731346138563 0.0349660847882819 -0.8373684 0.5204372 0.1672106 148 148 148
0.142859664591337 0.338850768370516 -0.0500865929101814 -0.8543466 0.505051 0.122537 156 156 156
0.254680135350529 0.325882840163677 -0.0124745186245385 0.8420818 -0.5135579 -0.1647922 134 134 134
0.218396936533602 0.252554241831049 0.0276713534376406 0.8405193 -0.509894 -0.1831268 145 145 145
0.0127779401916407 0.0994694812446422 0.048957728528351 -0.8483366 0.491405 0.1970943 156 156 156
-0.0326883215491917 -0.143803005574039 -0.0123766858062706 0.8349842 -0.5115063 -0.2028858 125 125 125
-0.0487428995836194 0.0296190801582921 -0.0569833746191067 -0.856983 0.5040204 0.1074408 153 153 153
0.0664324711788555 0.0317893129555473 -0.0606489586699226 0.8537789 -0.4895636 -0.1771697 123 123 123
-0.1174104103157 -0.287544036552841 0.00790292395665868 0.8348922 -0.514807 -0.194753 155 155 155
-0.0963718681314115 -0.186042892586016 -0.0737112103331142 -0.3678768 -0.2250492 -0.9022303 222 222 222
-0.00705889514989569 -0.0963845550645677 -0.0299499368099094 0.838685 -0.5149086 -0.1774168 109 109 109
-0.123862501292996 -0.0914784901178789 -0.0555494391306 -0.8481658 0.5196481 0.1028629 158 158 158
-0.0806061555329841 -0.215510213039864 -0.0304348352778095 0.7784746 -0.4839692 -0.3996889 163 163 163
-0.215077611047174 -0.290649686105945 -0.0632374676656725 -0.1421031 0.06758052 -0.9875422 220 220 220
0.0910826898133417 0.138009084625459 -0.0786457530197765 -0.1231819 0.05430488 -0.9908972 178 178 178
-0.114899857388657 -0.292082104892257 0.0311699990967483 0.8352671 -0.5189208 -0.1817971 177 177 177
0.0417583364932052 -0.0103505289870531 -0.0505488989704241 0.8310857 -0.5239803 -0.1863896 118 118 118
-0.10263503283409 -0.0916644106629161 0.0560670571293107 -0.8330753 0.5057377 0.2240868 156 156 156
-0.0468186122579136 0.00400112475716852 0.0425181283088722 -0.8255131 0.5178327 0.2244492 152 152 152
0.142551127518053 0.340676865456628 -0.0610489827583768 -0.856061 0.5072895 0.09907996 144 144 144
0.0490389494001431 0.0364094511991881 -0.0794635537510052 -0.1433343 0.06183845 -0.9877405 191 191 191
-0.0824326300467148 -0.0248820445313618 -0.0557702320323518 -0.8455316 0.5223874 0.110398 171 171 171
-0.120746233171668 -0.261538896260855 -0.0309699670958139 -0.1681681 0.06769621 -0.9834311 183 183 183
-0.170767491971156 -0.195110106391706 0.0394567916890693 -0.8363879 0.5069356 0.2084983 148 148 148
0.128183557141278 0.178642546882078 -0.0422184813555777 0.5213675 0.8533317 0.0009480193 120 120 120
-0.0850001944869251 -0.0262853462955484 -0.065084832410251 -0.7624061 0.416289 -0.4954194 100 100 100
-0.0989456581490228 -0.0530189901549154 -0.0501864189566445 -0.840953 0.5288234 0.1146463 147 147 147
-0.148860132562077 -0.324749681777014 -0.032209780432911 0.8269714 -0.5236778 -0.2046456 132 132 132
-0.252281709404692 -0.375860310286127 -0.0420265849849696 -0.5245745 -0.8512755 -0.01231239 122 122 122
-0.196366832058443 -0.243654714100418 0.0539999110651152 -0.8220823 0.4983526 0.275364 179 179 179
-0.282723959238748 -0.349854072500906 -0.0417403967966289 -0.9044912 0.4067838 0.1281508 133 133 133
-0.261636605394112 -0.324617867211982 -0.0111846873985244 -0.8362266 0.526362 0.1538447 195 195 195
-0.0467735879744417 0.026244265165565 -0.0291377443646956 -0.8457779 0.5207196 0.1162359 170 170 170
0.0382162907704804 0.127037354292244 -0.072506267838092 -0.1230721 0.04542769 -0.9913574 185 185 185
-0.074954547201264 -0.0269976451120302 0.00426049846561252 -0.8407741 0.5205954 0.1485908 138 138 138
-0.0890015321107177 -0.134911491859016 -0.0716061854752824 -0.1597255 0.07652037 -0.9841912 188 188 188
0.120984661713129 0.285393610270703 0.0226959921427725 -0.8503533 0.5090812 0.1331748 180 180 180
-0.196910090044415 -0.351293613786668 -0.0714367734217183 -0.1590968 0.09402467 -0.9827754 176 176 176
-0.0645952278849788 0.00457238594479992 -0.0595574336303083 -0.8436746 0.5278573 0.09787662 166 166 166
-0.021428422088874 -0.140550365386667 0.031850801632659 0.8307568 -0.5238262 -0.1882798 154 154 154
-0.0868352561008948 -0.19456810855344 -0.0539365652868004 -0.497556 -0.8667985 0.03314295 132 132 132
0.263191660582953 0.327917146688359 0.0214443795272622 0.8500485 -0.5004309 -0.1642756 152 152 152
-0.21144154229423 -0.324780119030491 -0.0662036748453992 -0.1567239 0.07083999 -0.9850986 194 194 194
-0.00353546891171966 -0.0247836733710365 -0.0759623110722151 -0.1537519 0.06225226 -0.9861466 165 165 165
-0.166496795958652 -0.186909351925416 -0.0182655016952394 -0.1443031 0.03773445 -0.9888138 179 179 179
0.0486184653811663 0.186904656751531 -0.0537585291425271 -0.8469055 0.5245616 0.0870982 112 112 112
-0.268310298171196 -0.363345230395409 0.0151408258456518 -0.5205421 -0.8527821 0.04240954 128 128 128
0.10201168191825 0.0620106600203885 0.0255940939547183 0.8371691 -0.5126911 -0.1905145 127 127 127
0.0587248234545799 0.180632471057054 0.0356742035034484 -0.8354366 0.5148194 0.1923708 143 143 143
-0.0164939978267168 0.0447110483386675 0.0639060170279716 -0.819326 0.5267549 0.2263495 170 170 170
