ply
format ascii 1.0
comment File exported by Rhinoceros Version 7.0
element vertex 478
property float x
property float y
property float z
property float nx
property float ny
property float nz
property uchar red
property uchar green
property uchar blue
end_header
0.0892833444037122 0.0709414155392497 0.0148782298952128 0.1562032 0.9438518 0.2911089 118 118 118
-0.0432812002740222 0.0509751112370341 0.042159424820521 -0.2951472 0.8229653 0.4854031 76 76 76
-0.0154403475365954 -0.0673200814814717 0.020291538634875 -0.1821416 -0.7239642 0.6653573 112 112 112
0.024599668637721 -0.00882426191283769 0.0713958607107188 -0.1798613 -0.6643396 0.7254673 131 131 131
0.114279625073878 0.0610196263699382 0.0476034001499201 0.2341036 0.8587202 0.4558454 111 111 111
0.111250993863551 0.0607512862591594 -0.0297469927877401 0.9672024 -0.1008218 -0.2331406 38 38 38
0.0500868531622571 0.0820287139324992 -0.0194877966255163 0.1246104 0.9335156 0.3361857 27 27 27
0.0476025315680189 0.0825807721524089 -0.0173715486139272 0.03386373 0.9466905 0.3203598 55 55 55
0.0516048642553968 0.0822587878613322 -0.0170495047182058 0.1928647 0.9145631 0.3554963 28 28 28
0.0572174760260267 0.0802115471272319 -0.0181306435674642 0.2306145 0.9084581 0.3485984 44 44 44
0.0606678697027845 0.0811776788143962 -0.0202468766778921 0.2615759 0.9066915 0.3308906 42 42 42
0.0590578290381116 0.0806945831684917 -0.0161294027179693 0.2603441 0.9135592 0.3124588 41 41 41
0.0698691579260511 0.077106145134434 -0.0193957819551443 0.07261068 0.9617085 0.2642808 37 37 37
0.0645323964514417 0.0775202186016887 -0.0159913881629919 0.2313047 0.9492809 0.2129879 35 35 35
0.0491665574469251 0.0792684228329509 -0.010148702463529 0.1072187 0.9746759 0.1962422 142 142 142
0.0532611581244153 0.0790384085087626 -0.0135530962556814 0.1586484 0.9456016 0.2840214 78 78 78
0.057976600781886 0.0799355180172771 -0.0141971691459631 0.2383452 0.9278253 0.2869351 23 23 23
0.0504547330298108 0.0786703498272746 -0.00757239600124107 0.09228051 0.9661332 0.2409792 125 125 125
0.0492125722326917 0.0802345545201152 -0.00651427944602714 0.07187603 0.9682672 0.2393584 88 88 88
0.0568724843420667 0.077106145134434 -0.00451303859653221 0.1043734 0.9689115 0.2243137 87 87 87
0.0618180009283704 0.0777042181401103 -0.0132770671457265 0.1971158 0.9656976 0.1690367 28 28 28
0.0671087476172132 0.0773821742443889 -0.0130010380357717 0.1195153 0.9904674 0.06848686 35 35 35
0.0712031098761243 0.0782102615742534 -0.023490263423345 0.04450465 0.9527586 0.3004505 33 33 33
0.0806802483954114 0.0796364815144389 -0.0218800737470602 -0.2917731 0.9018858 0.3185444 16 16 16
0.082566616193263 0.08085557531403 -0.0220870955795263 -0.3771653 0.8552912 0.3552791 26 26 26
0.0819684239782972 0.0792684228329509 -0.0213280155271505 -0.3659198 0.868477 0.3344404 44 44 44
0.0833486291327161 0.0803725392727702 -0.0210519715160345 -0.4192605 0.8375034 0.3504408 36 36 36
0.0825206014074964 0.080142524948582 -0.0185216798395132 -0.4084188 0.8470093 0.340249 55 55 55
0.070674059049098 0.0772671372799724 -0.00426001687946068 -0.1467165 0.9726474 0.180087 20 20 20
0.0891224118628187 0.0808785827069133 -0.0145422055334066 -0.3409627 0.8743554 0.3453217 32 32 32
0.0847288342871351 0.0791303784756511 -0.00633025010528313 -0.09887059 0.9668112 0.2355859 97 97 97
0.0934697362341566 0.0804415614514201 -0.00821648379268394 0.1684432 0.9418254 0.2908466 91 91 91
-0.0293339518151599 0.0350879104046672 0.0837482974916483 -0.2501596 0.8958963 0.3671377 78 78 78
0.0273600789465589 -0.0465103714556844 0.0373518631845499 -0.04235961 -0.8060472 0.5903335 173 173 173
0.0480624410071058 0.0747598678974956 0.000133501091578142 0.05210573 0.8622041 0.503874 91 91 91
0.0503858300604505 0.0757720143704265 0.000156508484461443 0.009881678 0.8808719 0.4732516 96 96 96
0.0548711987890882 0.0765540869145244 -0.00214375396671043 0.08141414 0.9450202 0.3167153 116 116 116
0.0511449548163099 0.0771981747059672 -0.00301787098350273 0.08967202 0.9218388 0.3770574 122 122 122
0.058321592465846 0.0771981151013225 -0.00241979797782646 0.06036417 0.9599254 0.2736777 87 87 87
0.047004339353053 0.0734142334370463 0.00591868320999397 -0.01943164 0.8333288 0.5524359 90 90 90
0.0498796674170179 0.071907547226414 0.00781640569267525 -0.05255825 0.9027988 0.4268395 96 96 96
0.0551472875036878 0.0754039556889384 0.00227275649605049 -0.01255135 0.8735172 0.4866315 109 109 109
0.0583523484625501 0.0728276641278117 0.00721067349014534 -0.06086077 0.9121902 0.4052221 113 113 113
0.0649465295233411 0.0750704080967753 0.00161717990932717 -0.08776445 0.9377263 0.3361053 90 90 90
0.0683969232000989 0.0783022911457866 -0.00379995842876182 -0.1510493 0.9551088 0.2548555 43 43 43
0.0610176297583265 0.0749070913700908 0.00381854335365547 -0.01546506 0.9100415 0.4142285 118 118 118
0.062554237500636 0.0745298535733073 0.00461903373298897 -0.03493973 0.8973175 0.4400006 104 104 104
0.0602844926275892 0.0735330850987285 0.00665860036907448 -0.01482969 0.8593662 0.5111457 140 140 140
0.0605760785498304 0.074506846180424 0.00530912140903725 -0.04689452 0.896125 0.4413173 139 139 139
0.0665336820044202 0.0743918092160075 0.00578066865501656 -0.2966287 0.8543464 0.426736 117 117 117
0.0474413606085462 0.070688453426823 0.00951861003933205 -0.08834402 0.9406952 0.3275483 108 108 108
0.0542424889959974 0.0710027487187236 0.0117958650976206 -0.008202619 0.9252315 0.3793145 134 134 134
0.0485225888647718 0.0688482196240275 0.0158903465658213 -0.1210778 0.9513578 0.2832992 128 128 128
0.052187559262721 0.0687791974453776 0.0159363613515879 0.063493 0.9518235 0.300001 127 127 127
0.0507768365301771 0.0694232852368205 0.0185126529127146 -0.005572539 0.9714807 0.237053 105 105 105
0.0551704141058607 0.0689631969837993 0.0161663756757761 0.03683062 0.9287115 0.3689694 139 139 139
0.0577236386694593 0.0674450070767253 0.0192487404733683 0.06987827 0.9616953 0.2650645 145 145 145
0.0594948502936048 0.0710104377178996 0.0116578505426432 0.05287454 0.8992637 0.4341992 145 145 145
0.0620251866736097 0.0685261161236613 0.0135670767217661 -0.06265278 0.9139154 0.4010402 127 127 127
0.0647624703802747 0.0695613295941203 0.013452069559672 -0.156602 0.9041935 0.397379 133 133 133
0.0634282800116224 0.0691472561268657 0.0151082591205622 -0.1350895 0.9087772 0.39481 135 135 135
0.0687924596228284 0.0709690124897807 0.0141145453840281 -0.3031351 0.878686 0.3688089 140 140 140
0.0705705853857679 0.070826438179478 0.0159478650480296 -0.2588031 0.878345 0.4019094 134 134 134
0.0482465001501722 0.0711254746823161 0.00965662459430947 -0.07876357 0.9435183 0.3218221 95 95 95
0.0582758160986585 0.0723216206936687 0.00894354442653908 0.03780058 0.9155506 0.4004224 120 120 120
0.0646935674109144 0.0730806858448833 0.00806944231090798 -0.2300678 0.8674306 0.4411723 114 114 114
0.0729974481024427 0.0773361594586223 0.00167468349037422 -0.08467925 0.964264 0.2510467 36 36 36
0.0810483666815442 0.0774051816372722 -5.05133480046827E-05 -0.03834629 0.9438587 0.3281162 97 97 97
0.0708812447943372 0.0764620573429912 0.00599919418392433 -0.1813155 0.9166553 0.356185 98 98 98
0.0821984979071302 0.0762780578045695 0.00468804101047768 -0.06675175 0.9016576 0.4272678 81 81 81
0.0823518010534925 0.0734870703129619 0.00806942740974678 0.08483683 0.8837491 0.4602068 114 114 114
0.0930098267950696 0.0756799847988933 0.0014446542650248 0.1795325 0.8566003 0.4837396 105 105 105
0.086860296384303 0.0794371039776652 -0.00235844989719139 -0.03871585 0.9630048 0.2666887 95 95 95
0.0900424691595716 0.0793374450116008 -0.00317887803020225 0.01414265 0.9450892 0.3265065 94 94 94
0.0933319302954358 0.0789463789372294 -0.00172971030177818 0.1756123 0.9003111 0.3982466 105 105 105
0.0846596928991956 0.0759790213017314 0.00390593866405739 -0.03006834 0.8869728 0.4608418 68 68 68
0.0871671410956067 0.0752812893299907 0.00555446902809395 0.1374809 0.8272116 0.5448119 95 95 95
0.0932859155096692 0.0737477810292094 0.00443500439224495 0.1398658 0.85273 0.5032783 121 121 121
0.0924669476904554 0.074999120941624 0.00424179593620552 0.1825231 0.833261 0.5218826 112 112 112
0.0885013314642591 0.0748289496807902 0.00586117962894692 0.1306587 0.8194435 0.5580688 125 125 125
0.0929177972235364 0.0745298535733073 0.00590717951355232 0.1326152 0.851561 0.5072052 109 109 109
0.0717092725195569 0.069883313885197 0.0176845655828501 -0.2043451 0.8858659 0.416515 150 150 150
0.0790702077307386 0.0704967052845805 0.0177765653520609 0.02510721 0.9304785 0.3654851 127 127 127
0.0803736421026868 0.0705120236782878 0.0165957675367381 0.04106095 0.9310077 0.3626826 123 123 123
0.0867530080237073 0.0710947782902568 0.0136054174095179 0.1952333 0.9158878 0.3507615 123 123 123
0.0929177972235364 0.0701133282093852 0.0123249308258082 0.1080079 0.9186769 0.3799568 119 119 119
0.0862930985846204 0.070251372566685 0.0169024632364298 0.1361091 0.9349096 0.3277473 115 115 115
0.0893293591894788 0.0693772704510539 0.0152922884613062 0.1737013 0.9506522 0.2570763 103 103 103
0.0879951688208265 0.068365123978123 0.0180065945774104 0.05816996 0.9577038 0.281815 117 117 117
0.0732735368170423 0.075449970474705 0.00797742764053597 -0.0362565 0.8878431 0.4587158 91 91 91
0.0730434628882093 0.0732723743824809 0.0117191986232783 -0.08911636 0.903277 0.4197009 128 128 128
0.0720773908056898 0.0745298535733073 0.0112898067623164 -0.1664816 0.8949446 0.4139542 100 100 100
0.0815545293249769 0.0733797223477214 0.00802342752514137 0.06216694 0.8753704 0.4794392 114 114 114
0.0803583833136243 0.0748058826832622 0.0091275588661219 0.09531768 0.9109057 0.4014542 118 118 118
0.0812324258246107 0.0725516350178569 0.0133140550046946 0.1053946 0.9331912 0.3435785 101 101 101
0.077874061719386 -0.00938394952727861 0.0766634807973887 -0.3278982 -0.3545052 0.8756762 109 109 109
0.084625360623805 0.0729657084851115 0.0102201865106608 0.1605416 0.8778561 0.4512151 115 115 115
0.0879722806372327 0.0725285680203288 0.00938059548435463 0.1719528 0.8422061 0.5110001 125 125 125
0.0823825570501966 0.0716775329022258 0.014602200785258 0.115629 0.9231325 0.3666829 101 101 101
0.112676975385158 0.0596471102146953 -0.0234672560304617 0.9669384 -0.1493196 -0.2067215 50 50 50
0.114333269254176 0.0658348472027629 -0.0257905258745168 0.9056957 -0.2769084 -0.3209938 40 40 40
0.115322467938868 0.066708949318394 -0.0225241466373418 0.8976625 -0.3361844 -0.2849247 36 36 36
0.114287254468409 0.0610272557644694 -0.0179005994409536 0.9124256 -0.2541125 -0.3207902 81 81 81
0.116012451306788 0.0631512076763957 -0.016466765007398 0.923717 -0.2563587 -0.2846526 56 56 56
0.116012451306788 0.0656737954525798 -0.0181536360591863 0.9284995 -0.2908227 -0.2308914 64 64 64
0.117277500287501 0.0688942344097941 -0.0164054318279241 0.9809922 -0.145461 -0.1284346 73 73 73
0.0981854173102064 0.0827878386883586 -0.0164974464982961 0.1463995 0.9471647 0.285388 112 112 112
0.10292398656985 0.0825348169712871 -0.0198098256200765 0.08714475 0.9726915 0.2151209 127 127 127
0.105477211133449 0.0816147000698894 -0.0180846287816976 0.04753042 0.9830869 0.176864 121 121 121
0.115168926373927 0.0736097366719096 -0.0262199177354787 0.9087496 -0.2089353 -0.3612756 108 108 108
0.107409355298488 0.0825807721524089 -0.0191657527297948 0.03642987 0.9875137 0.1532634 93 93 93
0.112470028058497 0.0814996631054729 -0.0194877817243551 0.2662056 0.9449149 -0.1904481 118 118 118
0.111549970761744 0.0820747287182658 -0.0166354610532735 0.07304201 0.9786937 0.1918948 109 109 109
0.116610643521754 0.0637645990757792 -0.0139211400360082 0.9497904 -0.1724354 -0.2610828 61 61 61
0.117369529859034 0.0623844535260051 -0.0114828481286977 0.9715317 -0.1312557 -0.1972257 47 47 47
0.117392656461207 0.0595320732502788 -0.0086765273422216 0.9580971 0.06482592 -0.2790117 50 50 50
0.0963772508063001 0.0828107864765971 -0.0145008101076101 0.04728622 0.9324334 0.3582346 140 140 140
0.102394935742824 0.0812466413884013 -0.0153473152727102 0.04324696 0.9633441 0.26476 137 137 137
0.0999566289343519 0.0798664958386271 -0.00990333994331108 0.06581105 0.9199072 0.3865742 100 100 100
0.104511139050929 0.0797744662670939 -0.0114828481286977 -0.06820199 0.9436595 0.3238136 95 95 95
0.0954941483893079 0.0800044805912822 -0.00918258567752586 0.1937059 0.9262626 0.3232889 127 127 127
0.0989674302496595 0.076968160381779 -0.00396098037662254 0.1258074 0.9303563 0.3443975 124 124 124
0.101183292523829 0.0774588854222148 -0.00657561262550102 -0.004797378 0.9172332 0.3983217 114 114 114
0.117346641675441 0.0746372015385478 -0.0161294027179693 0.9926391 -0.1206893 0.01008792 76 76 76
0.11283814634463 0.0819827587513774 -0.013507096371076 0.1003658 0.9642568 0.2452255 114 114 114
0.115046379224269 0.081660714855656 -0.0149792714923833 0.4832182 0.856375 0.1819945 81 81 81
0.112531301633326 0.0774281890301555 -0.00452071269454704 0.03444567 0.9375033 0.3462673 95 95 95
0.108237621442286 0.0804645688443034 -0.00817046900691734 -0.01239899 0.9177196 0.3970353 91 91 91
0.106424924985377 0.0786703498272746 -0.00589780350627647 -0.06169512 0.9083402 0.4136566 89 89 89
0.110836860791652 0.0776122481732219 -0.00577817698421226 -0.006361672 0.9236043 0.3832944 118 118 118
0.112193939343898 0.0782103211788981 -0.00660627921523796 0.0228962 0.9482331 0.3167486 121 121 121
0.11776077474734 0.0760480434803813 -0.0218800737470602 0.9739603 -0.006206073 -0.2266334 77 77 77
0.117898580686061 0.0786703498272746 -0.0214660300821279 0.8805056 0.4350108 -0.1883493 103 103 103
0.117530700818507 0.0594401032833903 -0.00982665856780754 0.9509526 -0.03575087 -0.3072639 81 81 81
0.117944595471827 0.060935285797581 -0.00603122850360618 0.9932296 0.08598051 -0.0781176 69 69 69
0.117469188825099 0.0632125408558696 -0.00442869802417503 0.99814 0.0005808444 0.0609603 69 69 69
0.117852565900294 0.0682731540112346 -0.00835449834766136 0.9989365 0.02268302 -0.04014025 32 32 32
0.11831271375796 0.0707459123043864 -0.00584719916286217 0.9964128 -0.07050286 -0.04680759 34 34 34
0.119324800626246 0.076968160381779 -0.0143811984867071 0.9693859 0.2155702 0.1175606 47 47 47
0.0962990495123548 0.0846970350651591 -0.0196258111804937 0.07076739 0.9651258 0.25204 67 67 67
0.096276161328761 0.0832938821225017 -0.0159913732618307 0.05561789 0.9515035 0.3025688 145 145 145
0.0459002229132337 -0.0503287642092854 0.0346375570684458 -0.2197182 -0.8773834 0.4265235 53 53 53
0.117116567746608 0.0662488610653728 1.84939294840258E-05 0.9986729 -0.03373439 0.03891608 47 47 47
0.0959311696448011 0.0754039556889384 0.000248523154833452 0.2384221 0.8376859 0.4913627 124 124 124
0.0997265550055189 0.0738397509960979 0.00153666893539681 0.1047803 0.8835861 0.4563953 118 118 118
0.104143020764796 0.0753579409031718 0.000133501091578142 -0.1833334 0.9164653 0.3556406 92 92 92
0.0962301465429944 0.0778422624974101 -0.00384595831336723 0.2336766 0.9041295 0.3576941 85 85 85
0.0981162759222669 0.076968160381779 -0.000533579191586836 0.23321 0.8949428 0.3803821 120 120 120
0.0939758988775892 0.0738397509960979 0.00438900450763954 0.1852971 0.851508 0.4905089 118 118 118
0.0963221761145276 0.0731497080235332 0.00599919418392433 0.1526091 0.883215 0.4434431 131 131 131
0.0978862019934339 0.0714934737591594 0.00806944231090798 0.03451632 0.8834441 0.4672635 132 132 132
0.0945049497046155 0.0746448905377238 0.00625221590099587 0.144805 0.8867515 0.4389799 125 125 125
0.104235050336329 0.0753579409031718 0.00241077105102791 -0.2006453 0.8780234 0.43453 98 98 98
0.104004976407496 0.0728736789135783 0.00632122317848458 -0.1162008 0.924543 0.3629293 76 76 76
0.112907049313991 0.0755419404415935 0.00169769088325752 0.2323655 0.9018303 0.3642915 61 61 61
0.108306524411647 0.0776582629589885 -0.00163771053256737 -0.05229458 0.9636431 0.2620252 103 103 103
0.112439272061793 0.0775815517811625 -0.00194440623225914 0.06520198 0.9515761 0.300419 88 88 88
0.110353824750392 0.0766921312718242 0.00282481471596016 -0.0541821 0.9367488 0.3457831 105 105 105
0.108030435697047 0.0746218831448405 0.00535510639248146 -0.2170744 0.8852068 0.4114458 92 92 92
0.115092394010035 0.0760940582661479 0.00498707751331581 0.4149019 0.8567966 0.306196 63 63 63
0.09765636648318 0.0700673134236186 0.0147402153402354 -0.1847885 0.9526417 0.2415096 112 112 112
0.103591081754176 0.0702053577809184 0.0177765653520609 -0.1825912 0.9286673 0.3228582 107 107 107
0.10805356229922 0.0696993143467753 0.0189727113634135 -0.1238215 0.9436663 0.3068586 120 120 120
0.0973342629828138 0.0727816493420451 0.00889752964077248 0.04295438 0.8791441 0.4746163 106 106 106
0.102256891385524 0.0720915467648356 0.00898954431114449 -0.03553839 0.9696786 0.241786 114 114 114
0.102118847028224 0.0716775329022258 0.01202589432297 -0.08828766 0.9797566 0.1796729 102 102 102
0.106236335889308 0.0723675758747905 0.00921957353649391 -0.1988691 0.9567876 0.2121519 101 101 101
0.116978523389308 0.0728276641278117 0.00931158820686592 0.5971484 0.7866945 0.1566067 144 144 144
0.112362739697902 0.0731650264172404 0.0117805318027522 0.02701131 0.9672959 0.2522082 96 96 96
0.105707285062282 0.0713095338253825 0.0140961424499537 -0.1467247 0.973683 0.1743939 121 121 121
0.108789560452907 0.0714934737591594 0.0180986092477824 -0.07476864 0.950036 0.3030532 102 102 102
0.118108865872828 0.061313179245457 -0.00199259658756004 0.9865003 0.1624405 -0.0207449 37 37 37
0.117576715604274 0.064684715977177 -0.00228178342284904 0.9991522 0.0007605603 0.04116287 60 60 60
0.117843505994288 0.0624948413281291 2.76879459406298E-05 0.9880295 0.142417 -0.05928836 47 47 47
0.117990610257594 0.0670540006069987 -0.00195973952712761 0.9975418 -0.03986557 0.05762804 73 73 73
0.118151781217067 0.0708034307865947 -0.0019367470354055 0.9909235 -0.09477215 0.09533607 38 38 38
0.117990610257594 0.0685951383023112 -0.000119520625493391 0.9992884 -0.02452681 0.02865477 66 66 66
0.119242069379298 0.0612895162014812 0.0082350538164164 0.9750797 0.1256184 -0.182865 60 60 60
0.117737648145167 0.0705964238552897 0.00408996800480141 0.9798686 0.1907424 0.05894838 44 44 44
0.118818876401393 0.0757720143704265 -0.00232778330745445 0.8562597 0.4868528 0.1726085 81 81 81
0.117576715604274 0.0745758683590739 0.00130663971004738 0.892826 0.3474406 0.2866125 124 124 124
0.119324800626246 0.0627218158154338 0.00978697995243324 0.9792435 0.09823318 -0.1772921 69 69 69
0.120198843137233 0.0610502631573527 0.0117958650976206 0.9682534 0.1239452 -0.217078 45 45 45
0.117668745175807 0.0694692404179423 0.00806944231090798 0.8894179 0.4525482 0.06431106 79 79 79
0.121487018720118 0.0593020589260905 0.0173625216871287 0.9501542 0.251945 -0.183659 57 57 57
0.119554874555079 0.0655358106999248 0.0140041277795817 0.9684597 0.2247301 -0.1076203 57 57 57
0.117530700818507 0.0706193716435283 0.0154763029008891 0.6375195 0.7521538 0.1668339 90 90 90
-0.0293645886025744 0.0375261576084941 0.0743478701501872 -0.4127534 0.8344036 0.3652468 86 86 86
-0.0136076239190417 -0.0308454959483296 0.0436315999418284 0.1359184 -0.6397605 0.7564607 128 128 128
0.0728594037451429 0.0428551704792827 0.0776525900751139 -0.1183487 0.8887669 0.442817 23 23 23
0.0342723103918714 0.0528037817387431 0.050118358531573 -0.03074289 0.8591494 0.5108006 159 159 159
-0.0134774473748522 -0.0533651440234334 0.0304893867164637 -0.1075286 -0.4792616 0.8710603 111 111 111
0.040149566785304 0.0291685731320231 0.085968063870051 0.3091518 -0.4509913 0.8372766 89 89 89
-0.00548780237057978 0.00427964042709761 0.0770775244623209 -0.09720276 -0.4746208 0.8748067 61 61 61
0.02903163160464 0.0531373293309062 0.0497196481615092 -0.2163831 0.807085 0.5493562 107 107 107
0.0205358239569349 -0.000780972728267382 0.0775682495027567 -0.1170757 -0.6078215 0.7853956 118 118 118
0.0230816575445814 0.0561276943592875 0.0365467683464075 0.06508645 0.7487088 0.6596961 85 85 85
-0.0222797421059924 0.0198754341511577 0.0831502244859721 0.1942484 -0.5325491 0.8238076 103 103 103
0.0282455655493421 0.0351032287983745 0.0856460199743296 -0.08535761 0.9339022 0.3471898 67 67 67
-0.0155538347802477 -0.0209496944041402 0.0517837570100809 0.1121922 -0.6411882 0.7591381 117 117 117
0.111319896832911 0.0244300038723796 0.0740411595493342 0.9690993 -0.2438499 -0.03719854 63 63 63
0.0203326913275403 -0.0194936721415669 0.0621027664333369 -0.1844461 -0.7228069 0.6659803 87 87 87
0.117783662930934 0.0117785007862895 0.0211809740453745 0.9116414 -0.3996476 -0.09587356 136 136 136
0.109433767453639 -0.00317320514632768 0.065852211514094 0.9619334 -0.2212911 0.1603573 53 53 53
0.103775140897242 -0.0243817298503072 0.0332803891092326 0.944995 -0.1813263 0.2722228 75 75 75
0.0187264653601331 0.00277676891373091 0.0803285704046275 -0.1895214 -0.4564138 0.8693492 117 117 117
-0.0414409664712267 -0.0483275382609517 0.0344075129419352 -0.22132 -0.5999252 0.768835 133 133 133
0.123764392987697 0.0484908492474406 0.0417913959413554 0.9625145 0.1123433 0.2468699 74 74 74
-0.0331715372643786 0.0611422927288859 0.0202608571439768 -0.3127913 0.8885674 0.3355736 86 86 86
0.0984996529974622 -0.0109635322184712 0.075835378566363 0.305982 -0.6093689 0.7314674 116 116 116
0.0955861779608411 -0.0524910419078023 0.0307960973173167 0.9779099 -0.15387 0.1414789 51 51 51
-0.00983536516049677 0.0175521643071025 0.0813330129772211 -0.3731136 -0.5472183 0.7492252 86 86 86
0.105247137204616 -0.0143525331111104 0.040319220820048 0.9145814 -0.3952445 0.08557219 103 103 103
0.108421680585353 0.0590720446019023 0.0517515406995799 0.03663583 0.949209 0.312506 120 120 120
-0.0438792732796984 0.0442813308148234 0.0532237307220484 -0.09303201 0.8453334 0.5260765 71 71 71
0.110767957822291 -0.00298920560790605 0.0561910734563853 0.9619598 -0.2688704 0.04839554 87 87 87
0.0669246884741468 0.0591640145687907 0.0505094097047831 -0.08109964 0.884304 0.4598143 163 163 163
0.0187455388464612 0.0611653001217692 0.0344305203348185 0.078637 0.7844079 0.6152402 179 179 179
0.119692918912379 0.0463285715489238 0.0707287804275538 0.9988091 -0.02282588 0.04312005 49 49 49
0.0448881360449476 0.0454084546475261 0.0701307074218775 -0.4826055 0.8325441 0.2719602 70 70 70
-0.00663793359616571 -0.0241057007403523 0.052418635883906 -0.364179 -0.6705698 0.6463047 194 194 194
0.00852095808169073 -0.0255088536830098 0.0538217888265635 -0.01682477 -0.5728399 0.8194945 202 202 202
0.0978249284186048 -0.049147996196285 0.0426808164506937 0.8670884 -0.4449289 0.2240447 53 53 53
0.0884321900763196 0.0610272557644694 0.0482091472536112 -0.2205094 0.8809241 0.4187461 159 159 159
0.0864194604315442 0.0657198102383464 0.031934724846461 0.01126729 0.9485675 0.3163746 137 137 137
0.124078628674952 0.0437982351689189 0.031363503733256 0.9971806 -0.06790843 0.03192648 54 54 54
-0.00754273210385614 0.0164173514752238 0.081885086098292 -0.4053903 -0.5128326 0.756744 104 104 104
0.117530700818507 0.0092482240109294 0.0341851578146006 0.9760518 -0.1222775 0.1799198 109 109 109
-0.0416480330071765 0.0235467226414531 0.088054405251124 0.02886683 -0.2261765 0.9736585 109 109 109
0.12323534216067 0.0399338276295512 0.0422054396062876 0.9475055 -0.01550083 0.3193634 62 62 62
-0.0458345440469103 0.0425561339764445 0.0551559493928934 -0.120158 0.8582719 0.4989302 102 102 102
0.026209947720973 -0.0604039757342488 0.025367455282786 0.05661567 -0.4801757 0.8753433 180 180 180
0.124362346784083 0.0531834037213176 0.0281507835775401 0.9376435 0.2842532 0.2000616 48 48 48
0.0901573869146985 0.0680890948681682 0.0229291782766367 -0.003568739 0.9914946 0.130099 131 131 131
0.0718473168768567 0.0532293589024394 0.0635519341617609 -0.06434645 0.8676111 0.4930623 73 73 73
0.0423577996649427 0.0236938865094035 0.0827821956068064 0.3001166 -0.3455072 0.8891315 101 101 101
0.112999078885524 0.0263852150349467 0.0819540933757807 0.9090754 -0.3986496 -0.1210802 37 37 37
0.119876978055446 0.039979782810673 0.0539368108898188 0.9963243 0.03033498 0.08011033 13 13 13
0.00647365774294562 0.0670540006069987 0.0214800105482127 0.05817595 0.9324134 0.3566803 119 119 119
-0.00571787629941278 -0.0271267025561482 0.0498960034042384 -0.3809197 -0.6558366 0.6517503 111 111 111
0.0148235532202405 0.00020810674713545 0.0775375829130198 -0.2532107 -0.5805004 0.7738886 87 87 87
0.0454400750555677 -0.0547913043589742 0.0295539514213587 -0.1967657 -0.6844198 0.7020347 104 104 104
0.0327979298987073 -0.0269120066256673 0.0558230296760584 -0.20578 -0.6468804 0.7343026 91 91 91
-0.0196421173653918 -0.00737509418441362 0.0653768197685267 -0.04418813 -0.6095351 0.7915266 110 110 110
0.0292693349280042 -0.0484655230136067 0.0346145496755625 -0.01001151 -0.751654 0.6594816 207 207 207
-0.0308827189050036 -0.0192291467280538 0.058951394358256 0.181511 -0.628281 0.7565162 99 99 99
0.00883519376894659 -0.0108868210406453 0.0665576175838496 -0.07670698 -0.7052046 0.7048422 118 118 118
0.101831314221827 -0.0315240948290975 0.0504864023118998 0.9918909 -0.1239183 0.02822613 93 93 93
0.0444165440954847 0.0369549662976115 0.0896139905839945 0.3041341 -0.233392 0.9235966 124 124 124
0.119784948483912 0.0437982351689189 0.0496583149820353 0.9644065 0.01241724 0.2641321 114 114 114
0.0854648324408216 0.0620624096302836 0.0471740231901194 -0.118672 0.8972023 0.4253762 151 151 151
0.0708657475866956 0.0667856008915751 0.0338937954097773 -0.01357884 0.9889081 0.1479068 125 125 125
-0.00755799089291864 -0.0593113033862264 0.0285418347507502 -0.1757858 -0.4635574 0.8684549 94 94 94
0.100232479230372 -0.00232211042357988 0.0833572612195994 0.03683252 -0.5703576 0.8205703 187 187 187
0.0444356175818128 -0.0468477337451131 0.041707040467837 -0.3462063 -0.8435878 0.4104885 109 109 109
0.0329726907171888 -0.0519849388690145 0.0307500974327113 -0.04475363 -0.6335785 0.7723829 200 200 200
0.106267091886012 -0.00714502025558061 0.075927393236735 0.6955882 -0.5532894 0.4582881 187 187 187
0.0547333928503675 -0.0368031590075643 0.0491982565313364 -0.04399659 -0.5213535 0.8522059 111 111 111
0.08725917066714 0.0673989922909587 0.0265176014095332 -0.002813878 0.9769528 0.2134371 135 135 135
-0.00284254823544794 0.0223367483525126 0.0864856110006358 0.01860051 -0.5351453 0.8445552 110 110 110
0.125995752469508 0.0501929790882915 0.0196167842536951 0.9386997 0.3117507 -0.1471539 78 78 78
0.111688015119044 0.00957026790665083 0.0563750878959681 0.9903123 -0.05307003 0.1283166 99 99 99
-0.0150569704614001 -0.0493012993426473 0.0332497225194956 -0.03035396 -0.4932068 0.8693823 133 133 133
0.0969432565130872 -0.048718604335323 0.0278057471900965 0.9752137 -0.1922161 0.1095956 82 82 82
0.0486489507116956 0.0574963958172648 0.047611074247935 -0.08107264 0.9153056 0.394516 152 152 152
0.0919285985388441 -0.0250028102488667 0.0695096419244791 0.2319254 -0.543869 0.8064845 136 136 136
0.0788401338019056 -0.0572755663485677 0.0425428018957163 0.05034525 -0.5735829 0.8175989 169 169 169
-0.0219577578149157 0.0594861180691569 0.0337864474445368 -0.2860528 0.8687345 0.4043193 78 78 78
0.0206893655218763 0.0232108504681438 0.0897980199247385 0.05351181 -0.4421314 0.8953527 107 107 107
-0.0401988056741076 -0.045176181087032 0.0375128851324107 -0.2404662 -0.6076804 0.756902 127 127 127
-0.0218887356362658 0.0482607753186076 0.0595034525781657 -0.02690062 0.905676 0.4231162 185 185 185
0.109755632535426 0.0114104421048015 0.0857265458494212 0.949115 -0.0854864 0.3031051 46 46 46
0.0853728028692884 0.00782206367538862 0.0834262684970881 -0.3452026 -0.1584155 0.925062 102 102 102
0.120843050137965 0.0196454198269694 0.0215950177103068 0.9566056 -0.273347 -0.1009313 119 119 119
0.106075403348414 -0.0126503436656148 0.0702457294851328 0.7539667 -0.4817789 0.4465684 120 120 120
0.0201679440893812 0.00903352808044844 0.0836562828212763 -0.2101177 -0.4774579 0.8531615 113 113 113
-0.0276738432488757 0.0531028182415813 0.0467254684358622 -0.3335077 0.7971074 0.5033811 72 72 72
0.0267466279425306 -0.043520006427303 0.0419600621849085 -0.08160166 -0.8895511 0.4494887 135 135 135
0.0159968110479993 0.046190527191624 0.056927161017039 0.109664 0.953851 0.2795388 147 147 147
-0.0393707779488879 0.0379785568623393 0.0681294665723826 -0.2562805 0.8618918 0.4375647 73 73 73
0.0248068543829603 0.0508141190914958 0.0513835118204142 -0.2452694 0.8275757 0.5049369 106 106 106
0.106550571576564 0.00268479894684248 0.085879893699267 0.3237777 -0.5129821 0.7949952 101 101 101
0.107547399655787 0.0622003943829387 0.0467139647394205 0.09394057 0.8699926 0.4840332 97 97 97
-0.00502765451291376 -0.000964972266689013 0.0736156121879603 0.0593841 -0.5317872 0.8447934 131 131 131
0.0322366925635023 0.0469725997357219 0.0587673799186732 -0.1200384 0.9215573 0.3692194 104 104 104
-0.0131245878777819 0.0639025838284343 0.024769397178271 -0.01807802 0.9157749 0.4012848 146 146 146
0.0135585042395276 0.0478927166371196 0.0483241544157053 0.03222714 0.9392653 0.3416754 141 141 141
0.0928372117438001 0.0584509642033427 0.059434445300677 -0.1448624 0.8730554 0.4656062 118 118 118
-0.00157726083615595 0.00575181554840498 0.079101757803538 -0.1053389 -0.5748591 0.8114436 46 46 46
0.123062727109401 0.0526197822003215 0.0380189434677149 0.9236327 0.3474309 0.1618467 108 108 108
0.0759264203467054 -0.0634709923358113 0.0391384081035639 -0.05512087 -0.613865 0.7874842 129 129 129
-0.0434882668099719 0.0513661773114055 0.0429645196586634 -0.2915311 0.8197127 0.4930322 40 40 40
-0.0134190348229724 0.0250740916638225 0.0864626185089137 -0.2034255 -0.6997585 0.6848037 113 113 113
0.0167788239874525 0.0343671710400432 0.0870146916299845 -0.001775676 0.9532785 0.3020875 56 56 56
0.115276453153102 0.00607385944412642 0.0415153519302393 0.9154072 -0.231164 0.3295343 77 77 77
0.0348130437292737 -0.0685469238848836 0.0206749157100703 -0.3091908 -0.4257448 0.8503778 211 211 211
0.0188490125097913 -0.0557574360461385 0.0283808277040507 0.145648 -0.5816665 0.8002816 158 158 158
0.0505927773871107 -0.0471359818072469 0.0463091150909449 0.07913724 -0.5167906 0.8524463 113 113 113
0.11817466940066 0.0672149927525371 0.0238492802768732 0.7195495 0.687623 0.09707303 121 121 121
-0.0193123844704943 0.0463745863346904 0.0631838903814341 0.05155741 0.9170769 0.3953627 168 168 168
0.0646935674109144 0.00368156742142134 0.072568999329188 -0.2137397 -0.1011148 0.9716435 178 178 178
0.0767239304938001 -0.0134784309954793 0.0739031449943568 -0.4842305 -0.5041354 0.7151002 202 202 202
0.0438760491766614 0.0614183218388408 0.0343385056644465 -0.1547018 0.9146672 0.3734318 161 161 161
0.0303963395514173 0.0232614548115581 0.0894621775537516 0.2941753 -0.4453598 0.8456451 92 92 92
0.10801899160525 -0.00909641672088213 0.0394566074996973 0.8690935 -0.4541788 0.1959542 89 89 89
0.100186702863185 0.0613492996601909 0.0499113366991068 0.1839952 0.8745546 0.4486646 166 166 166
0.12364947523257 0.0336770684628337 0.0273917035251643 0.9990645 -0.03771468 -0.02115866 50 50 50
0.111503955975978 -0.00763574529601641 0.0286108420282389 0.8079922 -0.4898373 0.3274265 34 34 34
0.110848304883449 0.00884565424011641 0.0620222554594065 0.9976203 0.009756857 0.0682525 53 53 53
-0.0030955103478747 0.0268529326824992 0.0895909831911112 -0.04628599 -0.5383305 0.8414618 120 120 120
0.00679576124331183 -0.0517779915423543 0.0353966371208216 0.1983689 -0.5676124 0.7990406 129 129 129
0.056504604474513 -0.0385053484530599 0.0467829720169093 -0.03055951 -0.5168847 0.8555093 48 48 48
0.043691990033595 0.0437982351689189 0.0766634658962275 -0.5485619 0.7921405 0.2675691 68 68 68
0.0355030270971937 0.0159189970402568 0.0844383851676966 0.4430361 -0.2010896 0.8736601 97 97 97
0.0559524270453138 -0.0573445885272176 0.0313941703229929 -0.5815191 -0.6731623 0.4568239 77 77 77
0.0525480481543226 0.0111344129948466 0.0777906046300913 0.2302831 -0.3460762 0.9095059 82 82 82
-0.0444543388924914 -0.0129723875613362 0.067094357410052 0.05663422 -0.5984074 0.7991878 89 89 89
-0.0335510996423083 0.0436832578091472 0.058192299404719 -0.2042646 0.8624666 0.463063 40 40 40
0.0766779157080335 0.0574618251232951 0.0538678036123301 -0.07392215 0.916917 0.3921719 159 159 159
0.0301939221777601 0.0656231911091655 0.0222942994028117 -0.09502014 0.8926677 0.4405855 90 90 90
0.106420395032374 0.0365523965267985 0.0885328666358973 -0.2589336 0.1170411 0.9587777 104 104 104
0.0518809529699964 0.00408026289032393 0.0745165512949015 0.3648946 -0.4787062 0.7985564 127 127 127
0.059931871549098 0.0464665563015788 0.0749152616649653 0.1572218 0.5818549 0.7979512 72 72 72
-0.0155169991097766 0.0637185842900126 0.023527251282313 -0.1222963 0.9181629 0.3768559 104 104 104
0.018205043927638 -0.0348709552378804 0.0502563879877116 0.0008045947 -0.4815539 0.8764161 121 121 121
-0.0313887623391467 0.0359773309140056 0.0780896411329295 -0.3338233 0.9080349 0.2530507 80 80 80
-0.0470767048440295 -0.0158247082324178 0.0647940800577189 -0.02982734 -0.562718 0.8261106 147 147 147
0.0752285691656751 -0.026888999232784 0.0650471166759516 -0.6040421 -0.3964065 0.6913718 69 69 69
-0.00983536516049677 0.0571168334393352 0.039744155207255 0.1230822 0.897394 0.4237155 186 186 186
0.119554874555079 0.0617403657345622 0.0342465058952357 0.8789683 0.4565824 0.1376489 83 83 83
0.0058754655279798 0.0592560441403239 0.0339704618841196 -0.2598702 0.4861639 0.8343334 188 188 188
0.024254676953761 -0.00547352720214433 0.0745472178846384 -0.1251832 -0.6457418 0.7532242 77 77 77
0.045072195188014 -0.0221734969706685 0.0589974091440226 0.04823725 -0.6361836 0.7700284 198 198 198
0.102210876599757 0.0656048328785747 0.0387090311437632 0.0440302 0.9451553 0.3236401 145 145 145
0.0241626473822278 -0.0309604733081014 0.0512685046583201 0.001748576 -0.4681977 0.883622 123 123 123
0.0105911466040296 -0.0524450271220357 0.0336714402824427 0.2929965 -0.5141828 0.8060825 169 169 169
0.000999090329615537 -0.00142506051971025 0.0737651304393794 -0.08901474 -0.5204183 0.8492592 96 96 96
0.0123795243658704 -0.0486898152918965 0.0356209144979502 0.2609127 -0.6458085 0.7175346 120 120 120
-0.0408428934655505 -0.0648204414935262 0.0211809740453745 -0.1508586 -0.746618 0.6479223 180 180 180
-0.0448377159676867 -0.0625201790423543 0.0213496551900889 -0.3502604 -0.6903652 0.6330194 72 72 72
-0.0440173176369982 -0.062727245578304 0.0215490029245402 -0.2754157 -0.7053515 0.6531656 49 49 49
-0.0468926457009631 -0.0585330455393941 0.0251834408432032 -0.3585792 -0.6945907 0.6236703 80 80 80
-0.0352532890878039 -0.063654991874233 0.0226071343809153 -0.1217818 -0.7460226 0.6546903 98 98 98
-0.0390256670556384 -0.0604039757342488 0.0256204919010188 -0.07384846 -0.6823327 0.7273023 115 115 115
-0.0416809347710925 -0.0592537849040181 0.0263072864204432 -0.1026201 -0.6943889 0.7122451 139 139 139
-0.0411764410577136 -0.058241698035732 0.0270006523519541 -0.07645656 -0.695437 0.7145081 125 125 125
-0.0273633030495959 -0.0663041203112752 0.0210889593750025 -0.01966967 -0.9341182 0.3564215 123 123 123
-0.0269401100716906 -0.0651148884387166 0.0233064160734202 2.121525E-05 -0.9272249 0.3745049 108 108 108
-0.0329805639825183 -0.0631550877185018 0.0238676832109476 -0.2078687 -0.7364526 0.6437609 103 103 103
-0.0351612595162707 -0.0604039757342488 0.0251834408432032 -0.1553895 -0.6424488 0.750409 119 119 119
-0.0335204628548937 -0.058962437400356 0.0272996888547923 -0.2260957 -0.6245408 0.747549 103 103 103
-0.0271869925103503 -0.0628115861506612 0.0278670952707316 -0.283191 -0.6827176 0.6735722 129 129 129
-0.0249480036340075 -0.061922106036678 0.0285878346353556 -0.1152266 -0.6909909 0.7136207 132 132 132
-0.0236023691735583 -0.0613010256381185 0.0292894111066843 0.02920906 -0.6699855 0.7417993 140 140 140
-0.00338304315427118 -0.070525142440334 0.0212959812074686 -0.2960389 -0.7045472 0.6449607 99 99 99
-0.0196881321511584 -0.0658786027522237 0.0206442491203333 -0.1263012 -0.8454968 0.5188286 126 126 126
-0.017633202417882 -0.0644830792040975 0.0251834408432032 0.03196077 -0.8360353 0.5477441 105 105 105
-0.0131706026635485 -0.0665686457247884 0.0218020395427729 -0.157069 -0.7468768 0.6461458 110 110 110
-0.0131608275018054 -0.0652772514910848 0.0238657162576701 -0.09580555 -0.7613606 0.6412109 134 134 134
-0.0129865435204821 -0.0639923541636617 0.0251834408432032 -0.03189952 -0.7298056 0.68291 98 98 98
-0.0190824297509509 -0.063302311191097 0.0272306815773035 0.1193937 -0.6960239 0.7080225 174 174 174
-0.0208995369515734 -0.0588627784342916 0.0307960973173167 0.2733599 -0.4703197 0.8390911 137 137 137
-0.0155078199944811 -0.0611124365420491 0.0274193004756953 0.08454762 -0.5610163 0.8234758 113 113 113
-0.00734532152036005 -0.0682881205172688 0.0217617915063883 -0.2619015 -0.7044351 0.6596809 96 96 96
-0.00461375985959345 -0.0703870980830342 0.0215030030399348 -0.2850082 -0.7174464 0.6356422 123 123 123
-0.00353706155637079 -0.0673783748240621 0.0241897271066691 -0.2595122 -0.6104186 0.7483599 117 117 117
-0.01082432542661 -0.0644984572024495 0.0251834408432032 -0.1012301 -0.6934975 0.7133117 121 121 121
-0.00263536249020868 -0.0664306609721333 0.0255054847389246 -0.2447782 -0.5751675 0.780555 152 152 152
-0.0107783106408434 -0.062152179965511 0.0270696596294428 -0.06896392 -0.5471035 0.8342193 103 103 103
-0.011713865145238 -0.0592231481166036 0.0282964722305323 -0.04147252 -0.4306393 0.9015707 160 160 160
-0.00134718690732294 -0.0624282090754659 0.0277137325197245 -0.1752119 -0.515443 0.8388202 68 68 68
-0.00378549371579462 -0.0608640043826253 0.0287718639760996 -0.1941481 -0.5101914 0.8378611 164 164 164
-0.0456964996896105 -0.0578736393542439 0.026609601178744 -0.2946203 -0.6537352 0.6970145 87 87 87
-0.0453285006127673 -0.0527440636248738 0.0297149584680582 -0.2665808 -0.5576534 0.7861026 106 106 106
-0.0369554785332995 -0.058241698035732 0.0269316450744654 -0.08871654 -0.6688073 0.7381234 80 80 80
-0.0405899313531237 -0.0544692604632527 0.0305200682073618 -0.1868367 -0.5974864 0.779809 102 102 102
-0.0356596735558825 -0.0548220007510335 0.0314861700922038 -0.1203702 -0.698767 0.7051494 90 90 90
-0.0318489101968127 -0.0575746624560506 0.0286568419128443 -0.2471609 -0.6421099 0.7256765 63 63 63
-0.0330910709939318 -0.0554813473315389 0.0304050461441065 -0.1088639 -0.6824738 0.7227573 152 152 152
-0.045305493219884 -0.0473383991809041 0.0346375570684458 -0.1856754 -0.623875 0.7591473 70 70 70
-0.0354373482308703 -0.0515095918269307 0.0341851578146006 -0.107621 -0.6193717 0.7776866 121 121 121
-0.0351817635140734 -0.0470777480693013 0.0375997887044932 -0.2259444 -0.6375295 0.7365496 121 121 121
-0.0263282087884265 -0.0556193916888387 0.0331883744388606 -0.01988572 -0.405396 0.9139249 107 107 107
-0.0307906893334704 -0.0517549245448262 0.0340624765544917 -0.06686589 -0.6548542 0.7527914 138 138 138
-0.0269032744012194 -0.0516399471850545 0.0351896152883555 0.07397572 -0.5351339 0.841522 119 119 119
-0.0238208798013049 -0.051179918536678 0.0340394840627695 0.2319357 -0.4015813 0.8859674 163 163 163
-0.0300546911797839 -0.0483965604396016 0.0379729435831095 0.06017418 -0.5984131 0.7989248 97 97 97
-0.0277888802132922 -0.0482585160823018 0.0374093816667582 0.1821115 -0.5282017 0.8293602 115 115 115
-0.0433502224526721 -0.0441640346141011 0.0373288706928278 -0.2015595 -0.6100405 0.7663057 148 148 148
-0.0450984266839343 -0.0407749741168172 0.0395064518838908 -0.1621936 -0.6909403 0.7044818 152 152 152
-0.0377376106820422 -0.0460042684168965 0.0375588850170161 -0.2643116 -0.616697 0.7415013 89 89 89
-0.0389950302682238 -0.0410203664393575 0.041131974855044 -0.2475045 -0.6639827 0.7055979 102 102 102
-0.0452364710412341 -0.0379993050189168 0.0428955123811747 -0.1595171 -0.7740391 0.6127134 148 148 148
-0.0394244221291857 -0.0382677047343404 0.0432098821788813 -0.1926645 -0.7603109 0.6203287 80 80 80
-0.0316878584466296 -0.0452221958727986 0.0399281696468378 0.1202871 -0.5597478 0.8198862 134 134 134
-0.0269032744012194 -0.0427608816714437 0.0393300966411616 0.2015134 -0.5117681 0.8351561 134 134 134
-0.0256243971429186 -0.0389930336566121 0.0417315826803233 0.06051367 -0.7612099 0.6456761 132 132 132
-0.0191054371438342 -0.0529970853419454 0.0312561557680155 0.2468384 -0.372492 0.8946064 137 137 137
-0.0125266340813952 -0.0586557715029866 0.0286798493057276 -0.02951232 -0.4149043 0.9093863 151 151 151
-0.0149189261041003 -0.0548373191447408 0.0295539514213587 0.04076756 -0.3807775 0.9237676 172 172 172
-0.0117906359277087 -0.0572295515628011 0.0290018932014491 -0.0888721 -0.4194028 0.9034395 129 129 129
-0.00783407960751825 -0.0574136107058675 0.0292779223114039 -0.1921765 -0.476429 0.8579532 87 87 87
-0.0227857855401354 -0.0582877128214986 0.0314401702075983 0.1894302 -0.469008 0.86264 128 128 128
-0.0200715092263537 -0.0542391865344197 0.0316932068258311 0.331969 -0.3171129 0.8883895 148 148 148
-0.0193814066491442 -0.0492552845568807 0.0334337369590784 0.2264469 -0.4935511 0.8397197 138 138 138
-0.0214171436868029 -0.0466713636012227 0.0355001554876353 0.2396342 -0.5383009 0.8079651 144 144 144
-0.0131477144799548 -0.0472234218211324 0.0343385205656077 -0.1053796 -0.4573061 0.8830437 165 165 165
-0.00100219522336298 -0.0547452895732076 0.033234374323466 -0.2061378 -0.5072688 0.836771 103 103 103
-0.00970876489499384 -0.0505357711405904 0.0334874109416987 -0.2128802 -0.4572578 0.8634798 98 98 98
-0.0116065767846423 -0.0478138058276326 0.034323172369578 -0.1690697 -0.4114725 0.8956036 70 70 70
-0.00534975801327997 -0.0491019218058736 0.0351819411903407 -0.2051439 -0.4139873 0.8868656 133 133 133
-0.00509679590085321 -0.047407421359554 0.0362247393518473 -0.2200533 -0.4021476 0.8887372 125 125 125
-0.00212943826535517 -0.0477984874339253 0.0358106807857539 -0.2374112 -0.4218316 0.8750395 65 65 65
-0.017403128489049 -0.0440720646472127 0.0363627539068247 0.2258664 -0.5923585 0.7733665 101 101 101
-0.0162529972634631 -0.0428759186358602 0.0365467683464075 0.3038158 -0.5740397 0.7603778 69 69 69
-0.0207768705926257 -0.0412963955493123 0.039920495548823 0.1051942 -0.6556752 0.7476792 112 112 112
-0.0178172615609484 -0.0422318308444173 0.0393531040340449 0.3524072 -0.6203727 0.700676 126 126 126
-0.0234528807244616 -0.038321408519283 0.0431945488840128 0.06862318 -0.7645003 0.6409603 111 111 111
-0.0118135241113024 -0.039747509250179 0.0371908412366892 0.1240524 -0.4209821 0.8985461 110 110 110
-0.0162069824776965 -0.037723275908962 0.0411013082653071 0.4844276 -0.458884 0.744819 162 162 162
-0.00737393174985224 -0.0460042684168965 0.0360867247968699 -0.2150663 -0.3816199 0.8989509 118 118 118
-0.00774205003598505 -0.0438880055041463 0.0366387830167796 -0.2578062 -0.3711112 0.8920832 120 120 120
-0.00392353807309442 -0.0431979029269368 0.0384559945255305 -0.3623396 -0.4765017 0.8010345 81 81 81
-0.0121125010094958 -0.0401615827174336 0.0370988414674784 0.107941 -0.4629204 0.8798031 125 125 125
-0.00556457315305048 -0.0403149454684407 0.0393071041494395 -0.4125415 -0.4535915 0.7899773 102 102 102
-0.0115605619988757 -0.0364811747164876 0.0393991039186503 0.1068673 -0.538544 0.8357929 125 125 125
-0.0079029825768786 -0.0346754520030171 0.0419064031034495 -0.3517224 -0.5969639 0.7210585 133 133 133
-0.0457079437814074 -0.0353885023684651 0.0461619065195109 -0.177617 -0.747112 0.6405278 137 137 137
-0.0411016968331652 -0.0354518025012166 0.0474960521846796 -0.1301704 -0.75877 0.6382191 145 145 145
-0.0365874794564562 -0.0385513632388265 0.0451957897335078 -0.1108226 -0.7242162 0.6806094 83 83 83
-0.0359433916650134 -0.0370332329363973 0.0465299353986765 0.009043111 -0.6765257 0.7363636 211 211 211
-0.0313887623391467 -0.0390114514918477 0.0435396001726176 0.1317659 -0.7009169 0.7009659 126 126 126
-0.0284904268822985 -0.0384133784861714 0.0433555708318736 0.1542617 -0.7696645 0.6195319 99 99 99
-0.0252356556496935 -0.0374817578883321 0.0439076290517832 0.08332559 -0.7994462 0.5949308 140 140 140
-0.0215436247430163 -0.0385054080577046 0.0432865486532236 0.1249019 -0.6782914 0.7240996 109 109 109
-0.0237978724084216 -0.0371252029032857 0.0449657605081583 0.1347603 -0.7528645 0.6442318 144 144 144
-0.0173505571923571 -0.034522625693813 0.0437104717880274 0.4982658 -0.479073 0.722648 108 108 108
-0.00321042810300165 -0.0361820786090047 0.0430565343290354 -0.4785937 -0.5647711 0.6722959 138 138 138
0.00320732320925421 -0.0724849431605489 0.0217606441169764 -0.01126284 -0.8615413 0.5075625 105 105 105
0.00492465223452276 -0.0707602827639729 0.0238850728660609 0.07781105 -0.7644621 0.6399555 139 139 139
0.00877654279848761 -0.0708742468447835 0.0218656376987482 0.07721413 -0.8424785 0.5331679 141 141 141
0.0147315236487073 -0.0718362658114583 0.0204218790918375 0.0143755 -0.8626412 0.505612 141 141 141
0.0167788239874525 -0.07158902574493 0.0203241274744059 0.02607217 -0.8367855 0.5469097 137 137 137
0.0229896279730482 -0.0708471863360555 0.0209969447046305 0.2763418 -0.6043426 0.7472651 203 203 203
0.0083335610785169 -0.0694538681597859 0.0240530238538767 0.08779309 -0.7752606 0.6255105 136 136 136
0.0108212205328626 -0.0685296385378987 0.0255629883199717 0.1049286 -0.6640748 0.7402666 129 129 129
0.0004745694555921 -0.06506887365295 0.0271984801679636 -0.2301418 -0.5237561 0.8201916 136 136 136
0.00708710874697394 -0.0673507778735311 0.0260728762537028 0.04290454 -0.6681855 0.7427565 153 153 153
0.0086227628149671 -0.0654185144992024 0.0281475053220774 0.1310643 -0.5577157 0.819619 106 106 106
0.000953075543848936 -0.0637853472323567 0.0281967983633067 -0.2033425 -0.5018287 0.8407258 116 116 116
0.00664221967837042 -0.0627808897586019 0.0298146472364451 0.03375749 -0.4842574 0.8742741 93 93 93
0.00707161153933233 -0.0607259600253255 0.0309341118722941 0.1112681 -0.4520792 0.8850107 95 95 95
0.00946390356203741 -0.0598059027285726 0.0303360388666178 0.3298618 -0.3858041 0.8615953 166 166 166
0.0120862695135755 -0.0689149229617269 0.0250454262882258 0.1281257 -0.6457031 0.7527624 138 138 138
0.0166867944159192 -0.0664766757579 0.0249074117332484 0.2649755 -0.4001395 0.877312 162 162 162
0.0184119912542982 -0.06640765357925 0.0242403314500834 0.2592808 -0.3673374 0.893217 156 156 156
0.022552606717555 -0.0627042381854207 0.0244243607908274 0.1682217 -0.3659267 0.9153137 103 103 103
0.0123623582281751 -0.0628882377238423 0.0276907251268412 0.3456787 -0.3359728 0.8761441 153 153 153
0.0147546502508802 -0.0623821942896993 0.0269316450744654 0.3469134 -0.3030026 0.8876038 127 127 127
0.00275861944338507 -0.0589087932200582 0.0313941703229929 -0.129551 -0.5214506 0.8433895 128 128 128
0.037297365323512 -0.0742975800128133 0.0211809740453745 -0.3519333 -0.5685817 0.7435441 149 149 149
0.0419439050116224 -0.0744815795512349 0.021411003270724 -0.0817119 -0.5629423 0.822447 170 170 170
0.0462375852026624 -0.0756470291705281 0.0205522344499613 0.05012577 -0.5619229 0.8256695 220 220 220
0.0247837277807874 -0.0682708947749288 0.0210429594903971 0.2801323 -0.5191243 0.8074874 231 231 231
0.0253819199957532 -0.0646364419551045 0.0231821999937083 0.1088459 -0.4573418 0.8826047 185 185 185
0.0301779481329603 -0.0656370847315938 0.0222620979934718 -0.03314015 -0.5342517 0.8446755 203 203 203
0.0248872014441175 -0.0613700478167684 0.0246888862043406 0.06782529 -0.4314306 0.8995929 159 159 159
0.0267466279425306 -0.0624282090754659 0.0238952950626398 0.03156144 -0.4538592 0.8905143 162 162 162
0.029261705533473 -0.0603119461627156 0.0250454262882258 -0.05206449 -0.459316 0.8867458 179 179 179
0.0300284596838636 -0.0610940187068135 0.024769397178271 -0.05747559 -0.4579998 0.8870923 175 175 175
0.0346518727698011 -0.0590467779727132 0.0261495576292063 -0.02824841 -0.493593 0.8692341 215 215 215
0.0405482026495618 -0.0687156050295979 0.0232818887620951 -0.1236932 -0.277884 0.9526177 95 95 95
0.0380333634771985 -0.0679488508792073 0.0230211929470087 -0.1509304 -0.2929053 0.9441538 128 128 128
0.040724632398097 -0.0664536087603719 0.0237572656065012 -0.1243594 -0.268281 0.9552801 127 127 127
0.0358251305975599 -0.0631796448321492 0.0241406575828577 -0.1168151 -0.3976377 0.9100761 153 153 153
0.0421737405218763 -0.0626812307925374 0.0245623753458048 -0.0533707 -0.2936421 0.9544244 112 112 112
0.0405636998572034 -0.0591962664218099 0.0260000393777872 0.008446586 -0.4506949 0.8926381 125 125 125
0.0460842820563001 -0.0591158001513631 0.0260115430742289 -0.2160286 -0.4219274 0.8805163 102 102 102
