ply
format ascii 1.0
comment File exported by Rhinoceros Version 7.0
element vertex 462
property float x
property float y
property float z
property float nx
property float ny
property float nz
property uchar red
property uchar green
property uchar blue
end_header
-0.117533961392409 0.0419933481084054 -0.000382333166712961 -0.9220512 0.1142995 0.3698071 203 203 199
0.0543886847312632 0.0236151024891214 -0.0300185898883697 -0.2445518 -0.02140727 -0.9693999 180 182 179
-0.130507338982328 -0.0233137156760483 -0.0204617171120959 -0.6816643 0.006201474 -0.7316387 175 183 187
0.0502895499742657 -0.0396558575301151 0.0017151236978423 0.1813203 -0.9471962 -0.264466 243 241 252
-0.0517767419228096 -0.0291345528738252 -0.0241876955591059 -0.008731932 -0.0504589 -0.998688 188 191 196
-0.111843495842553 0.0412910441308469 0.0163893171778236 -0.9315216 0.1640922 0.3245631 197 197 198
-0.0395721195362504 0.0303099172236969 -0.0262223363936906 0.05379255 -0.0004751099 -0.998552 190 192 197
-0.0529094315141056 0.0257195651899638 -0.0266506755450396 -0.0234416 -0.09297803 -0.9953921 182 187 190
-0.00955025202917054 -0.0293244492917366 -0.0250151060698435 0.05190071 0.04222214 -0.9977593 168 174 172
0.116780439477274 0.0182416252508142 -0.0320412179960405 0.04270319 -0.02195201 -0.9988466 179 180 172
0.0298744172710951 -0.0387573837177129 -0.0246383410521667 -0.1988 -0.1449386 -0.9692633 187 191 194
-0.113378891490588 0.00767873046720369 0.00375489414086724 -0.7257757 0.05097403 0.6860403 169 173 167
-0.0869923048692031 0.0328363817767132 -0.0271064903739949 0.03521473 -0.1136075 -0.9929014 179 181 181
0.00367063492220515 0.0433070341356041 0.0317807804704708 0.07283036 0.9969352 -0.02856473 141 146 119
0.160786453733084 0.00948363780198269 -0.0136158092219027 0.4338855 0.8959959 0.09452327 125 132 109
-0.117191051910487 -0.0235306899321488 0.00297534075385292 -0.6990106 0.197043 0.6874288 160 172 154
-0.0622101406882361 -0.0560447232360084 0.00534318388667887 0.289861 -0.9285102 -0.2320545 183 181 185
0.0331402273833996 0.0152219252999135 -0.0289720410994442 -0.03959043 0.1137533 -0.9927199 207 209 211
0.0394085462251589 0.0439392597798676 0.0292424768750112 -0.04783611 0.993673 0.1016156 191 198 193
-0.024537657378572 -0.0539526953650631 0.00545905534573821 0.01075324 -0.9232342 -0.3840874 220 219 229
-0.133093885821186 -0.0170677599742632 -0.015493508953384 -0.9747797 0.01375141 0.2227453 183 188 188
0.0932514552847893 -0.00739672065303365 -0.0292812638404361 -0.08854683 -0.1155871 -0.9893427 179 183 180
0.0134820166061216 0.0450352743511222 0.00127502543424018 0.03084982 0.9965871 0.07656689 165 164 134
0.106446648252298 -0.0235121612877023 -0.00913923740311495 0.1205088 -0.9914715 -0.0496176 127 135 128
0.0810924819877484 -0.0121933425950511 -0.0283311589621168 -0.02840211 -0.05005623 -0.9983425 190 190 194
0.0726828608482264 -0.0276029207960029 -0.0281219754507477 -0.021765 -0.07495842 -0.9969491 206 208 209
0.127079288023096 0.0164036624941879 -0.0310236465471356 0.1351419 0.08526661 -0.9871506 185 185 180
0.0716416164843713 -0.0220491594011056 -0.0275976754985362 -0.09691205 0.1844247 -0.978057 191 192 190
0.137891273630566 -0.0200661027305167 0.00377261720167066 0.2910453 -0.9465654 -0.1389481 145 147 145
0.0274773719472127 0.0342797023412287 -0.0280243392623306 -0.1593553 0.08592452 -0.9834749 188 190 187
-0.0282652716333331 -0.0329403861933697 -0.0239515931273778 -0.04336625 -0.1132578 -0.9926188 194 196 202
0.153544356956301 -0.0046323302274518 -0.0223379691757294 0.2882575 -0.9567641 0.03885892 124 127 109
-0.0272432264901555 0.02083125455525 -0.0264781541846187 -0.02484805 0.08014052 -0.9964738 182 190 191
0.083269595485841 -0.0314947069332971 -0.0115675155066584 0.2453336 -0.9689379 -0.03115737 199 202 207
0.136088557873523 -0.00836096945112508 -0.0297169126257128 0.0372392 0.01056182 -0.9992506 178 180 176
0.0567639032810111 0.040142454329458 -0.0250698133967411 0.2607242 0.9375106 -0.2304272 144 145 123
-0.0366754809103946 -0.0117285988447762 -0.0260574664112186 0.03843012 -0.1238479 -0.9915568 188 192 198
-0.123056556504456 0.0357717159312494 -0.0200772443778056 -0.746558 0.2776478 -0.6046179 181 186 179
-0.0186700487239292 -0.0101501949706577 -0.0263678180182698 -0.08092208 -0.1292464 -0.9883051 196 201 205
-0.120288083844012 0.0257818047739589 -0.0232066246196011 -0.1983202 0.03583607 -0.9794819 189 192 192
-0.0666454226743212 0.05437461787494 0.0043215506158111 0.1211424 0.9776734 -0.1716951 127 142 115
-0.120360967055153 -0.051840627703533 -0.00442005774401358 -0.8638482 -0.3232623 0.3863518 177 180 180
-0.0700442795132637 -0.048821032075697 -0.0241631631487812 -0.02561033 0.002409762 -0.9996691 190 193 195
-0.0296340471251521 -0.050223206434916 -0.0182185704063924 -0.208582 -0.9512805 -0.2270659 215 219 224
0.0570642781048569 0.0402078816427294 -0.0211924867806932 0.2536588 0.9601918 -0.1169997 126 135 114
-0.0725274467829506 0.0562405507700328 0.0213282796155349 0.2173896 0.9704128 -0.1050749 120 132 108
0.121927607293975 -0.015421612292652 -0.0297629185599252 0.06823148 -0.1183509 -0.9906248 178 182 182
0.0334305735276704 0.0440051327676949 0.0127264704053619 0.05114374 0.9985749 0.01524709 151 162 147
-0.104552519008883 -0.0281949199873073 -0.0261920596361663 0.04755342 0.02607697 -0.9985282 180 185 189
-0.101614190889363 0.0115747628428367 -0.0260120245883893 -0.049547 0.01452042 -0.9986662 174 178 179
-0.0840344532175925 -0.0586355730488286 -0.0186365159114558 0.3885537 -0.8901022 -0.2382102 212 214 221
-0.104393478899731 0.0480421328621703 -0.0138182195464125 -0.2905923 0.8527196 -0.4340799 187 190 184
-0.0432983560362165 0.0472610945334091 -0.0219348721156243 -0.1713423 0.9594501 -0.2238244 160 165 145
-0.0487892006456457 -0.0132268106465812 -0.0255959945142026 0.02065663 -0.09003846 -0.995724 204 206 213
0.0093012609521218 -0.0493959956395029 -0.00144500008856421 0.05045976 -0.9400654 -0.33724 222 222 228
-0.0846052863665965 0.0490292821194847 -0.0206966345291714 -0.173559 0.9238824 -0.3410552 164 170 148
-0.0807542863569684 -0.0634398355207502 0.0161177880286837 0.121706 -0.9864041 0.1104298 210 209 214
-0.0875844802668371 0.0463683007137876 -0.0255342818898464 -0.1599663 0.8426649 -0.5141271 178 183 176
0.0180221234547486 0.0199663323985477 -0.0271022817097761 0.0008285625 0.06783202 -0.9976964 174 178 177
-0.105861160326776 0.0503274196318599 -0.00894273117005354 -0.252796 0.9158967 -0.3118133 182 185 179
-0.132915051055736 0.00522968154740711 -0.0203950329807915 -0.9922426 -0.0002278581 -0.124316 179 183 184
-0.0623691693840077 0.0535234795227553 0.00400547739116866 0.1500356 0.9750378 -0.1636788 179 180 170
-0.0392730493071519 0.0481818634501243 -0.0219466724070757 -0.2040944 0.9732888 -0.1051399 146 151 115
-0.106473933548007 -0.010522402666 -0.0263520700887657 0.06487337 0.00341352 -0.9978877 188 190 196
-0.100570670169712 0.0549086578813829 0.00913193732847833 -0.1115955 0.9887379 -0.09971799 188 191 186
0.122969918293157 -0.00252576630308776 -0.0292233512761517 -0.03234888 -0.05597689 -0.9979079 189 190 186
0.0463803659881175 -0.0292551578865909 -0.0257241332571695 0.01929343 0.02810018 -0.9994189 185 187 190
-0.014184762685691 0.028788824296895 -0.0265818928126265 -0.02667774 0.004431756 -0.9996343 184 186 182
0.096871771581824 -0.0336127932565955 0.0215410660489478 0.400659 -0.9016967 -0.1625286 188 195 186
0.0842141564945006 -0.0229718118644742 -0.0283437052545108 -0.07196043 0.007903528 -0.9973761 192 193 192
-0.12980195673682 -0.0149866617268746 -0.0218713593477617 -0.4586052 -0.1789714 -0.8704312 178 182 188
-0.0539612057082849 -0.0527449058511829 -0.022277701187533 0.1510909 -0.366552 -0.9180475 209 209 214
0.000485299555885499 0.000971768728138755 -0.0264870115465828 0.03804375 -0.1364682 -0.9899137 238 241 250
-0.0688193774980966 -0.0236241946845708 -0.0238460420726554 0.1525224 -0.06515847 -0.9861497 194 192 199
-0.0573929510151713 -0.0134816224425585 -0.0258660379700905 -0.04748498 -0.1021842 -0.9936315 191 195 204
0.142383208025623 0.00104495483120526 -0.0298100181904613 0.1151076 0.02870396 -0.9929382 184 186 182
0.00425027265205535 0.0333602325650035 -0.0280790721236874 0.03011172 0.02675909 -0.9991883 189 190 192
-0.0890651210429436 -0.0471501845822513 -0.0269838116074711 0.05362465 0.1079942 -0.9927042 189 188 195
0.142029050088913 0.0158088379509878 -0.0191564389034463 0.3002798 0.9529182 0.04217711 106 106 68
-0.0903230845482892 0.0305170582646199 -0.027118130150323 0.01350574 -0.09217913 -0.9956508 189 189 191
-0.0579493914269544 0.0468738433819293 -0.0227892153153066 -0.002069736 0.9294748 -0.3688798 150 167 135
0.0122083933778125 0.0436411518798265 0.0223538539004426 -0.1085303 0.993773 0.02522831 145 160 108
-0.0651967849306863 -0.0596720905469801 0.0204385447514533 0.2725214 -0.933011 -0.2349947 208 210 213
0.088957103163958 -0.03533717548814 0.0251613389955422 0.3977089 -0.9160657 -0.05149103 211 210 214
0.147425691370637 -0.00203668893877529 -0.0294677673244427 0.2145059 0.09147537 -0.9724297 183 183 183
-0.12591973935067 0.0312561905251618 -0.0177014771854705 -0.9302834 0.3595322 -0.0728648 192 196 193
-0.0301479824301906 0.0241294653748521 -0.02587274636075 -0.02308067 0.1210715 -0.9923754 210 214 219
-0.0185508701446995 0.00370985612690022 -0.0269404111731929 0.02650485 0.05804611 -0.997962 188 190 194
-0.083627151247546 0.0357200118145675 -0.0272436777587906 0.03526762 -0.142254 -0.9892017 181 184 185
0.119266376210938 -0.0252890740049561 0.0125767469817812 0.2378969 -0.9693258 -0.06174501 118 137 115
0.0926263695434184 0.0253252415215923 -0.0335379586379409 0.1258814 0.2435753 -0.9616782 166 169 150
0.0734641208309872 -0.0328215246834003 -0.0138858306470891 0.3740298 -0.8798532 -0.2931895 194 199 205
0.0948658726759863 0.00325202808136371 -0.030962416033964 0.03077932 -0.3453646 -0.9379637 188 189 188
0.0403202495544982 0.044437933428477 0.0183358353052083 0.01673017 0.9981271 -0.05884219 175 182 156
0.0212010767331345 0.0450687934529046 -0.0261680504937155 -0.06804974 0.73742 -0.6719977 174 182 175
0.115717019015275 -0.00691109958875646 -0.0293094018939762 0.04482454 0.01650764 -0.9988585 186 188 186
-0.124268900182248 -0.0501628883033756 -0.0133930315557455 -0.9522587 -0.2442211 0.1831924 179 183 180
0.150111494490982 -0.00766285516781307 -0.00575343702658884 0.5240333 -0.8308274 -0.1873898 130 134 124
0.0402445206941489 0.0409433716527854 -0.0302326831092145 -0.08493972 0.6045567 -0.7920205 188 190 188
-0.0849353559611614 -0.046909140600216 -0.0268851439106272 0.08772349 0.07363533 -0.9934196 194 198 203
0.048250701953241 0.0218490912586908 -0.028671129864701 -0.1340557 0.01440937 -0.990869 184 186 190
-0.00335516580399958 0.0213801466849295 -0.0259851099609019 -0.005127515 -0.0559976 -0.9984177 209 212 218
-0.0856632340386878 -0.0116239336729651 -0.0256037973859701 -0.03154214 -0.03427085 -0.9989147 179 182 186
-0.10945017563979 -0.0606435581507574 0.0083318897907104 -0.7889581 -0.2760407 0.5489505 178 178 176
-0.0933548690262415 0.0441967236258853 -0.0273208326856537 -0.117681 0.5731283 -0.8109717 194 198 197
-0.0822064891005186 0.0540930128725869 -0.00087963700489635 -0.02390835 0.9759097 -0.2168609 163 165 146
0.0760243656579087 -0.0145035133532498 -0.0283302956183686 -0.06634089 -0.1196274 -0.9905999 192 194 193
0.158098712597689 0.0046742004438447 -0.0280198685768826 0.1230198 0.03271504 -0.9918649 176 177 175
0.0165970260929968 0.0341811817684499 -0.0277178852067774 0.008617138 0.07173687 -0.9973864 182 184 184
0.149370226520909 0.0140112678010496 -0.021239640327054 0.3124416 0.944845 0.09822491 125 128 108
0.13485349876477 -0.00093775823084874 -0.029682309903932 0.01087438 -0.1106651 -0.9937983 185 187 185
-0.0669399517925611 -0.057362369746546 0.00335034917530658 0.4596432 -0.8753672 -0.1498682 203 205 211
0.118598643811841 0.0205270191257085 0.0118986543604711 0.3778493 0.8586116 0.3464331 125 127 102
-0.0651670600372396 0.0508362123035491 -0.010175216303466 0.1277613 0.9802296 -0.1510864 151 151 133
0.0168595261178615 0.0448059820503623 0.00182301899680537 -0.06477695 0.997563 0.02592374 146 143 103
0.027930696063021 0.0457736163795694 -0.00938232326010519 0.04000548 0.999167 -0.008055991 176 179 163
0.0215239347492205 -0.0492561070037787 0.00961643277013866 0.1984855 -0.9726418 -0.1207124 220 223 225
0.0332541622183688 -0.0236261953496055 -0.025288744127604 -0.05884098 -0.1282105 -0.9899999 171 175 178
-0.0983638018641796 0.0301249107556458 -0.0271036013006245 -0.07596594 -0.0907127 -0.9929755 182 186 187
-0.0156230448979667 -0.0558901589800491 0.0262681336914844 0.2797804 -0.936857 -0.2098141 230 232 237
-0.0354514457661954 0.0197181879145081 -0.0263856883699758 -0.007203077 -0.00952778 -0.9999287 190 192 196
-0.0237311961586831 0.035837739093282 -0.0260690666179795 -0.01752096 -0.08847632 -0.9959242 171 176 172
0.0120261851181767 0.0286253043115881 -0.0273090528453712 -0.08957829 -0.1296409 -0.9875064 180 182 178
0.114001291288617 0.0250673665292873 -0.00210168562695737 0.3393579 0.9328178 0.1211906 104 110 75
-0.0559029092263208 0.0506435206351601 0.0234685988257319 0.2993951 0.9485197 0.10331 112 116 96
0.056590615502031 0.0198184706705795 -0.0302870025919619 -0.1065975 0.03455996 -0.9937015 194 196 192
-0.119222879343463 -0.016415853056462 -0.026429135367271 -0.2212821 -0.02850134 -0.9747933 185 190 194
0.111583486213674 0.026978350283043 -0.00892898441458095 0.3404108 0.9402441 0.007837046 96 102 73
-0.121306943944066 -0.0536267802218497 -0.012301228676961 -0.8762541 -0.4317133 0.2140148 190 196 195
-0.0728911891833409 -0.0478572497945184 -0.0246374999221075 0.02991653 0.02286414 -0.9992909 189 192 188
0.146722411202892 -0.0115723739817213 -0.0019195712811311 0.3938921 -0.8629643 -0.3164516 140 142 137
0.00750528869743028 0.0443449101707019 -0.0265888337965736 0.07534874 0.5948247 -0.8003163 178 180 178
0.00562064983917182 0.0114041425411324 -0.0271510771384377 -0.1933109 0.07377846 -0.9783596 203 206 213
0.117404208718538 0.00380412529511376 -0.0294560905097476 -0.05859413 -0.1048703 -0.9927583 183 183 179
0.00886414251676637 0.0139885549335281 -0.0271457192406133 -0.09861002 0.1792706 -0.9788453 204 210 215
0.165139138844012 -0.00117906343529595 -0.0195452332601948 0.2948087 -0.9537938 -0.05800936 139 138 132
-0.00892899831118549 -0.0388154723824836 -0.0242489590317165 -0.1394845 0.05421721 -0.9887389 183 186 188
0.157012905476601 0.00833135698284759 -0.0280466075220884 0.1710926 0.3029001 -0.9375387 184 184 179
-0.11319738850283 0.0436689309168974 0.00908613018683571 -0.8960363 0.3522443 0.2702642 170 173 170
0.00656712914175539 0.0458514758397774 -0.00141771182733874 0.1422864 0.9861603 0.08510283 125 134 100
-0.00827358552302326 0.0185768877795316 -0.0259919659087679 -0.01614004 -0.02841585 -0.9994659 183 186 192
0.0286768326666487 -0.0518795900679407 0.0324731635271015 0.1911188 -0.9809935 -0.03354519 214 213 215
0.068585654901451 0.0221900662861936 -0.033367657108694 -0.1922653 -0.02965454 -0.9808948 194 196 190
0.0403902941348935 -0.0230088537352937 -0.0254007759901997 -0.1403411 -0.1737642 -0.974736 183 184 188
-0.105144107317554 0.0310281847293237 -0.0257153091988606 -0.2797759 -0.02129869 -0.959829 200 203 200
-0.000145925632890398 -0.0551893085258106 0.0139018958546868 -0.1367148 -0.9902557 -0.02650816 210 209 213
0.119761404989571 -0.0208170267790948 -0.0197243149548352 0.2954053 -0.9529367 -0.06817097 183 186 188
0.0562389720571187 -0.0370127633057893 -0.0205226108860172 0.1476225 -0.9774038 -0.1512924 211 211 218
0.0340248699627218 -0.0493211418045614 0.0173297008847536 0.04104218 -0.9583256 -0.2827146 206 204 208
-0.0685676537567437 -0.059247543575921 0.00418977259213574 0.4558602 -0.8761655 -0.1566061 214 213 217
0.0429950108995679 -0.0014133272672423 -0.0282072545095873 -0.1366861 -0.1319002 -0.9817939 177 181 180
0.145402708162195 -0.00252821379511903 -0.0294281231612148 0.1658307 0.005147541 -0.9861408 181 183 181
-0.104616382968767 0.0209891175357722 -0.0261331455384787 -0.02468839 0.02441507 -0.999397 161 170 169
0.162639201230795 0.00887306870966031 -0.0194989117583104 0.4995723 0.8660954 -0.01749998 131 135 121
0.0729406728914786 0.0112865275105551 -0.0322462333768718 -0.07344602 0.0114053 -0.997234 188 189 186
0.0397509760758632 -0.0268449801655943 -0.0252318663314994 -0.1473534 -0.06087541 -0.9872088 182 185 187
0.0867095078796274 0.0358549932779542 0.0111639791159185 0.5599397 0.8283226 -0.0186842 105 111 80
0.0570661787640752 0.0098441167566643 -0.0301105090944708 -0.2092994 -0.0758846 -0.9749027 186 189 187
0.0913766204454158 0.000761115657406997 -0.0304112744530527 0.01220674 -0.1852832 -0.9826093 183 185 185
-0.0457118711415242 0.0109021879187214 -0.0263961837324938 -0.008756045 -0.007615519 -0.9999326 193 195 202
0.0677785227497713 -0.0171472660438861 -0.026269881254514 -0.03506582 -0.09893141 -0.9944762 194 196 194
-0.074732728584014 0.0488486612670318 -0.0242344868021294 0.1166223 0.8343784 -0.5387133 170 171 167
0.0115625076452389 -0.0387468896584715 -0.025179075589113 0.02480465 0.1063287 -0.9940216 188 189 191
-0.12103590935757 -0.000645403298152436 -0.00453209290007481 -0.8084272 0.04454093 0.5869086 172 175 171
0.019482492990437 0.0223043912766878 -0.0271253806159671 -0.03683242 -0.0435787 -0.9983708 177 180 182
-0.0706179669887108 0.0457627761831758 -0.0251661627659823 0.1382529 0.5821466 -0.8012437 165 174 165
0.145460870878247 0.00597006288336055 -0.0286669141758558 0.05766229 0.01552438 -0.9982154 176 179 170
0.161209651575977 -0.00195001365835323 -0.020005630061287 0.1175517 -0.9929314 -0.01639607 134 138 127
-0.112308165586769 -0.0607787799155113 0.00379446843624798 -0.8278166 -0.3326971 0.4516993 179 180 178
0.0362439871428776 0.0451991645472045 -0.00449447901715166 0.09675138 0.9936191 -0.05796739 156 158 136
-0.12068273179464 0.009617451160709 -0.00498514968020933 -0.7996147 -0.001222498 0.6005121 181 186 180
-0.0372800484412003 -0.0600442137040669 0.0263458111847152 0.1524138 -0.964694 -0.2147917 245 244 251
-0.134532211712216 -0.000876663324099525 -0.0211810609563683 -0.937014 0.003331403 -0.3492757 176 178 181
0.0677087112566729 -0.0385601174040056 0.00357207652587949 0.06003026 -0.9622633 -0.265416 217 217 221
-0.128524609783243 0.0190477312075505 -0.0231863251029097 -0.5692281 0.1495351 -0.8084669 158 165 161
0.0743193675435408 -0.0348527946827335 -0.0101108844270781 0.3311514 -0.924306 -0.189729 194 198 200
0.124259042311758 -0.0210599701304142 -0.010596084098675 0.26507 -0.920961 -0.2856025 166 170 172
0.0969119106010777 -0.0351447498548771 0.0216810305927998 0.4106978 -0.9102184 -0.05319658 193 197 186
-0.0952561075373617 -0.0617424923984307 -0.0146146736669909 -0.06942657 -0.9975349 0.01020045 208 211 218
0.0304152375816472 -0.0434054579684069 -0.0154166089640315 0.1365336 -0.9455985 -0.2953001 219 219 225
0.0688871928894431 -0.0186479772824302 -0.027124648222901 -0.05922112 0.004259002 -0.9982358 188 190 185
-0.0373871370587072 -0.0610700847369401 0.0316853765815398 0.1200362 -0.98839 -0.0931472 210 212 217
0.1616865097025 -0.000992454093706741 -0.0279996409745179 0.07820604 -0.5624046 -0.8231555 177 180 178
-0.0595303414854725 0.0474124675809882 -0.0221624640939802 0.01348482 0.9514984 -0.3073579 147 159 139
-0.0240818718452026 -0.0152876907905277 -0.0256058554878406 -0.09483383 -0.02824844 -0.9950922 211 216 222
0.0615081341799871 -0.0379874191016774 0.00590993421816419 0.0518388 -0.972946 -0.2251418 217 214 223
-0.0508003992893549 -0.0614383675884165 0.0290076835666664 0.1342157 -0.9410007 -0.3106506 221 223 228
0.116555949583731 -0.0224245115697139 -0.0132247476289213 0.1804144 -0.9806337 -0.07621098 186 189 195
-0.129159004712802 -0.0225675982283311 -0.0214304024736316 -0.5315591 0.04605799 -0.845768 180 185 191
-0.10410700842306 0.0196465165741353 0.014418033620623 -0.6001678 -0.1966203 0.7753316 187 190 189
-0.117294178726335 0.0313700914377606 0.00138496261003043 -0.945747 -0.02508611 0.3239341 169 172 173
-0.00816173571205769 0.0458605209216483 -0.0212419951507188 0.09930595 0.9713339 -0.2159833 136 145 121
-0.105535133608306 0.0526804655804223 0.0182926837169078 -0.6355951 0.6963684 0.3333015 168 169 164
0.0326992323298936 -0.0230944133552027 -0.0258951190024647 -0.0543178 -0.1194713 -0.9913507 185 186 188
-0.0165697485609991 -0.0300306858544468 -0.0251414019335635 -0.02579721 0.02060614 -0.9994548 201 206 211
0.158309579502722 -0.00163129119972805 -0.00319587770408294 0.4871277 -0.3753376 0.7885609 124 126 112
0.128260379561486 0.0123748250328675 -0.0307377524279203 -0.01774218 -0.115335 -0.9931682 183 184 177
0.0205543134746713 -0.00192565924877686 -0.0266264952311136 -0.1164786 -0.1342255 -0.9840814 190 192 195
0.16078465629711 -0.00202717212185766 -0.0178941229154958 0.04066118 -0.9987465 0.02919246 144 142 136
0.0762707855817695 -0.0347156726142193 -0.00131246313682393 0.3696478 -0.9166432 -0.1520715 198 202 208
-0.0376069926076185 -0.0181876052082981 -0.0252030105643199 -0.007851562 -0.03267653 -0.9994351 234 237 246
-0.00757645928419104 0.035064025957509 -0.0268569391663207 -0.05552284 0.01133497 -0.9983931 187 190 189
-0.125163937209002 -0.0020435016250111 -0.00871672630212356 -0.7857162 0.07069416 0.6145343 180 182 184
0.139870715698634 0.00439535978828243 0.00364841081222647 0.3735688 0.1482027 0.9156868 173 173 156
-0.11850858552495 -0.0534257951669554 -0.00270247373714763 -0.8297849 -0.3710226 0.4168924 185 187 186
-0.0224364932277294 0.0463740256323171 -0.0256663593558514 0.08597416 0.4331512 -0.8972116 185 183 186
0.0341000911231464 -0.0113477248974971 -0.0255110758013283 0.0187555 -0.08848824 -0.9959006 181 183 186
-0.10137877996404 -0.0657188254420973 0.00908781444075626 0.02777638 -0.9995928 0.006532952 214 211 225
-0.0973534913083652 0.0244362732231937 -0.0267753709235649 -0.02943083 -0.06974624 -0.9971305 188 191 194
-0.0655335558570526 -0.0405469918505377 -0.0233045400092506 0.08540424 0.05573696 -0.9947861 186 187 193
0.0304843689020806 0.045493296598593 -0.00811162750127789 0.1074638 0.9937184 -0.03122746 139 146 116
0.130356903626663 0.0189130527121157 -0.00588616778465759 0.3409979 0.9336984 0.1092139 108 114 79
0.0113145127508771 -0.0183553597421535 -0.0245340612333854 -0.0190205 -0.1024035 -0.9945611 187 191 194
-0.112532404468044 -0.0112330066712276 -0.0265251201637395 0.01552815 0.03682937 -0.9992009 185 189 192
-0.11835284515077 -0.0555402003495591 -0.0249358223050374 -0.6103638 -0.07677218 -0.7883921 179 185 191
0.0710513229006575 0.000417811847470029 -0.0308867216572304 -0.07790185 -0.2640442 -0.9613594 194 195 194
0.0695152849323769 -0.00168792931794259 -0.0297384670537939 -0.07535897 -0.1842371 -0.9799886 190 191 192
0.0758288230249849 -0.0407389307846866 0.018267519400742 0.1874184 -0.9811167 -0.04779642 204 203 206
-0.0180046064067526 -0.00585893999850207 -0.0265781570703014 -0.04204291 -0.06517322 -0.9969879 190 192 195
0.169083011731402 -0.00159824813052745 -0.0154157228924763 0.7459361 -0.6656781 0.02125861 137 136 118
-0.0958776875523387 0.0527250871950313 -0.004632779937984 -0.03656928 0.9725783 -0.2296828 169 169 154
0.0356908203286332 0.0320371153049646 -0.0288339349605267 -0.03698254 -0.07393978 -0.9965767 184 185 184
-0.116923992634861 0.0328256522200225 -0.0033696109709275 -0.976606 0.1046813 0.1878369 186 190 186
0.121423236729903 -0.022802938399153 -0.00210165111243343 0.1735576 -0.9827779 -0.06344593 182 184 188
0.0974621429218018 -0.0182724685618831 -0.0279168689830264 -0.07750553 0.04694529 -0.995886 183 185 185
-0.122493931811683 0.0375621680169294 -0.0137568004872078 -0.9086902 0.3521898 0.224153 202 203 201
-0.0564299940102002 -0.0642888148156926 0.0351195675288908 0.1254925 -0.9322691 -0.3393021 230 223 229
-0.0922582833937984 0.0277811154736298 -0.02683778500662 -0.006569189 -0.09546522 -0.9954111 182 186 186
-0.0636424057511323 0.0515200427923699 -0.00351735909739043 0.1164744 0.96201 -0.2469221 144 151 123
0.145183172466177 -0.00671799386493976 -0.00914094921415454 0.4520631 -0.8737096 -0.1796396 169 169 170
-0.0565507020532534 -0.0367139069077183 -0.0234181948265488 -0.07167669 -0.1155557 -0.9907115 184 187 192
-0.0896388571764849 0.0363187948327379 -0.0276483179237876 0.006824977 -0.1603371 -0.9870387 187 189 191
0.0751868196444065 -0.0354600078371534 0.000408223033687594 0.3797242 -0.9034844 -0.19881 200 200 205
-0.061819695557817 0.0217006316305965 -0.0263934044048437 0.04566892 -0.03474415 -0.9983522 183 186 191
-0.0649214963379046 0.0551561003268306 0.0095903683212821 0.1355966 0.9901157 -0.03583951 136 144 130
0.13406000489143 0.0185439077012586 -0.0174184755810759 0.3289602 0.9373409 0.1147926 127 129 102
0.169314013137513 0.00395858730140453 -0.0153369468221691 0.8556531 0.460912 0.23541 132 137 107
0.0848687822358268 -0.0303110411805159 -0.00319725636915535 0.2963615 -0.9546563 0.02830523 195 196 197
0.0191700193018565 -0.0530389598095176 0.026389380887737 0.16451 -0.9550911 -0.2464495 232 231 238
0.0154431186112013 -0.0181475154093207 -0.0241208813648167 -0.03886972 -0.1321021 -0.9904737 182 184 185
-0.0115132825570037 -0.0509263760860228 0.00491563330781039 0.1075427 -0.9451178 -0.3085236 233 234 242
-0.11979497097774 0.00580938877229342 -0.0247182850762834 -0.04164372 0.008713361 -0.9990945 183 188 194
-0.0604685491083971 -0.0294598963444586 -0.0242176890199731 -0.05390368 -0.03438666 -0.9979539 191 192 200
-0.0876970204669273 0.0343934787663289 -0.0271390627334695 0.02320493 -0.1268648 -0.9916486 176 180 179
0.0579973568280148 -0.0243737317768526 -0.0273396909206958 -0.1863222 0.1048421 -0.9768788 184 186 191
-0.047570749339517 -0.0519799983642519 -0.00709193647093428 0.09257974 -0.9817606 -0.1660579 228 228 235
-0.101564581674007 0.0240800318545433 -0.0265950482317621 -0.02612767 -0.04110779 -0.998813 195 196 199
-0.0564561662212101 -0.0444352904220413 -0.0233962629115803 0.02700175 -0.02263051 -0.9993792 194 196 200
0.056744028557105 -0.0448524097322482 0.0234447761708058 0.3788695 -0.9111105 0.1622823 191 189 186
-0.0213097753025113 0.0485594118230839 -0.00935066639527643 -0.01660577 0.9987208 0.04775888 177 177 165
0.0477748919832369 -0.0472138807864251 0.0339171311480898 0.355316 -0.8724896 0.3354285 203 201 199
0.098918827633601 -0.0119657486930682 -0.0281175394209644 -0.01766699 -0.1841713 -0.9827354 184 184 187
-0.0256310133234342 0.0048647386505607 -0.0267007196743351 0.02747857 0.05365406 -0.9981814 190 193 191
0.137181662506436 -0.0131584896336616 -0.0103670358740025 0.4275259 -0.8871825 -0.1735765 147 145 141
-0.0313958670032123 -0.0566807393394446 0.0106395630920576 0.02096239 -0.9056902 -0.4234216 234 236 244
0.0375451115373622 0.0424620428648863 -0.0219200521468595 0.00754509 0.988365 -0.1519134 122 129 106
0.0393662559150294 0.0243969645274675 -0.0280477869562578 -0.07986489 -0.01382785 -0.9967098 188 190 190
-0.082696223539568 0.0563817732787433 0.0259761307911328 0.006998954 0.9866078 0.1629599 159 167 143
0.0967517941388289 -0.0265274882577318 -0.0194837819952716 0.1999495 -0.9780511 -0.05862058 211 212 219
0.0327521541851636 0.0448846775977241 -0.0163004701640225 0.2031518 0.970967 -0.1263032 150 154 137
-0.0270263661198055 0.0481672529073596 -0.00788314460582523 -0.01266719 0.9973148 -0.07213045 151 158 131
0.0506483783179036 0.0338064894203653 -0.0307773984793017 -0.09283517 -0.09900331 -0.9907472 188 189 186
0.0271896010081227 -0.00677056483887228 -0.0267710234865751 -0.03321047 -0.2523042 -0.9670779 191 194 199
-0.117736111196965 -0.0347302914895986 -0.0262015879248413 -0.08002059 -0.0007391404 -0.9967929 187 189 196
0.108613722749468 -0.00390966226805789 -0.0298878970918393 0.0227558 0.009421999 -0.9996967 184 186 185
-0.111598849076251 0.0132783374661378 -0.0260825709256634 -0.1122088 0.01521544 -0.9935681 196 198 202
0.0180619514423176 -0.04122150148521 -0.023808333412519 0.1155001 -0.3852416 -0.9155592 188 190 191
-0.0187660246894759 0.0457289931245335 0.021345806751655 0.1950156 0.9800583 0.03813992 140 151 126
0.0406453087021472 -0.0407023599578151 -0.00916996943388357 0.3480428 -0.9328564 -0.09297899 206 207 211
-0.0351737911206929 -0.0299976595424327 -0.0243616250328944 -0.01364849 -0.1572345 -0.987467 184 186 192
-0.0959649479125032 0.00833362065727461 -0.0270914586206258 -0.09779494 -0.08151805 -0.9918624 178 181 185
0.0467345086642832 0.0200831082712496 -0.0286349767007707 -0.1157365 0.1130877 -0.9868213 179 182 182
0.115774413627564 -0.0217474169359038 -0.0188905569097506 0.2087691 -0.9760872 -0.0605747 191 193 199
0.113645280087322 0.0213966227112725 -0.0322288855865465 0.1483491 0.337585 -0.9295316 171 172 164
-0.0882505580535792 0.0100593025841651 -0.0273684761255636 0.0007271771 -0.07767789 -0.9969782 184 186 190
-0.0674082148853196 0.055183772184654 0.0229640762272588 0.3184344 0.9380144 -0.1368523 123 125 129
0.0816875034701293 -0.0307364442191247 -0.0118777140094727 0.1880334 -0.9795653 -0.07138063 222 223 230
-0.0651680531370253 0.0440470058557145 -0.0261290987657652 0.01108612 0.4098107 -0.9121032 188 191 189
0.0792346480409398 0.0206831507170642 -0.0341760060170698 -0.00475516 -0.174552 -0.9846365 195 194 190
-0.0145271461978651 0.0470466177189386 -0.0290919386002547 -0.06837483 0.3313802 -0.9410165 162 161 147
-0.108968816134241 -0.00904188276143714 -0.0264835710973174 0.03285876 0.02224041 -0.9992125 172 177 182
0.112013311605834 0.0213747472250347 -0.0322939721549668 0.1893147 0.299844 -0.9350153 169 172 155
-0.0635853525805312 -0.0212844575511437 -0.0247313528347916 -0.06953277 -0.1900994 -0.9792995 190 199 206
-0.12541168928273 -0.00195051532243173 -0.00966622773982526 -0.7875897 0.06962974 0.6122534 154 160 150
0.0330423595282433 0.0254252929030414 -0.027782336128148 -0.05416187 0.00344165 -0.9985262 190 193 193
-0.106230859611046 0.000182027788283134 -0.0253984868625296 0.02539043 -0.0009687534 -0.9996771 190 194 197
-0.0477180240419569 -0.0612176246298917 0.0271020310059787 0.03722456 -0.9626473 -0.2681876 231 231 240
-0.10973497189357 -0.0480801844986729 0.0117950896335692 -0.7464395 -0.1108591 0.6561543 181 182 179
-0.0821726103773998 0.0563435158483638 0.00949261585678698 0.07329825 0.978895 -0.1907665 160 167 146
0.159623825738361 -0.00299648745040559 -0.0195563130129228 0.1016134 -0.9947539 0.01180631 129 131 123
0.167820724988697 0.00409897528351166 -0.0233490176573805 0.7575725 0.5010538 -0.4183647 114 122 105
0.0673608886996759 0.0395320585516197 -0.00323384025994181 0.2556547 0.9653639 -0.05208874 124 127 103
0.0261209475675687 -0.0412597900898641 -0.0231169563992016 0.04803486 -0.7261781 -0.6858265 209 209 215
-0.0640228687546687 0.0192836167326407 -0.0265215645521633 0.04212661 0.007297835 -0.9990856 202 207 213
0.0257715032130888 -0.0399762883418797 -0.0238655142631061 0.06504241 -0.4044003 -0.9122664 202 203 210
0.0779759788670565 -0.0397977230079887 0.0263377808462105 0.1224338 -0.9904942 0.06269958 213 212 214
-0.0220224678436478 0.00712017103283524 -0.0268448437771003 0.04655362 0.139954 -0.989063 190 192 196
-0.128832704261503 -0.00465697046426761 -0.0137602630441424 -0.7852162 0.08571124 0.6132611 177 181 183
-0.107844356878835 -0.00412993830094166 -0.0259828230616136 0.06207678 0.0961941 -0.993425 178 179 184
0.123082311904067 -0.0247567318867121 0.00464004250869082 0.1274082 -0.9807478 -0.1479899 200 200 203
-0.0879858204062381 -0.0487761628062573 -0.0267196705410976 0.06133452 0.09685865 -0.9934065 175 179 185
0.14690540738399 0.0019243501963091 -0.0286146878563611 0.07773027 0.05250755 -0.9955907 178 179 175
0.0933270599592079 -0.00185980710195577 -0.030262647715092 -0.001483507 -0.101473 -0.9948372 183 187 186
-0.127903379761669 0.00785137299019323 -0.0137229336288691 -0.7516677 0.04729985 0.6578437 183 185 188
-0.0503063183217372 -0.0597376914090857 0.0251925456139364 0.05322007 -0.9488205 -0.3112994 215 213 221
0.0777473318451243 -0.0328396555779094 -0.0100521469913258 0.3858761 -0.9079837 -0.1632951 199 201 207
-0.0264937400004382 -0.057893112875979 0.0148331594999056 0.2644876 -0.9441514 -0.196531 212 210 218
-0.0868067995203238 0.0439178105103881 -0.0276785423878396 -0.02854204 0.474314 -0.8798929 160 171 139
-0.0213166191509582 -0.0168797901790201 -0.0255809883606544 -0.06340567 -0.07296878 -0.9953167 192 197 202
-0.120031510144309 -0.0415919149055319 0.000757000527193546 -0.872618 -0.1900179 0.4499234 185 187 189
-0.0724987303763016 -0.0546087578668746 -0.013730999341677 0.2437889 -0.9419794 -0.2307418 175 179 181
0.0915214489625394 -0.0345427881795963 0.00835721872962406 0.4044796 -0.8096851 -0.4252134 209 210 217
0.0359208567499228 0.0215309611169199 -0.028557151820318 -0.02572502 0.09829477 -0.9948248 187 190 191
0.0352986104712064 0.0444995928952059 -0.0144912703919758 0.1485456 0.9850798 -0.08690222 141 145 118
-0.00145536080559955 0.0472024840704193 -0.0131961735882499 0.04610117 0.9981979 -0.03841571 153 155 118
0.110134407965927 -0.0215519330196705 -0.0308301876535244 -0.008741711 -0.003615163 -0.9999552 196 196 204
0.131624123032331 -0.0161542233135352 -0.0125194952353742 0.4400932 -0.883543 0.1602176 131 131 117
0.0369033018596024 0.0446946672525508 0.0240190538932393 -0.07337587 0.9921842 0.1009279 178 183 167
-0.101537608558893 -0.0172402926938331 -0.0262015958131305 0.05320422 0.01075401 -0.9985257 173 178 181
-0.0886689133753924 0.0561271632660096 0.00947134971242536 -0.124164 0.9723392 -0.1978381 179 183 181
-0.125034420572098 -0.0222445956429764 -0.0232881469435811 -0.4376123 0.02807479 -0.8987254 201 203 207
-0.119742684833243 0.0264661538519204 -0.00542019300737906 -0.9268603 0.2286498 0.2977402 173 179 174
0.075030970430711 0.0131336366489512 -0.0328909090679587 -0.1165759 -0.06908455 -0.9907761 201 203 202
0.000900989460806911 -0.0165635308754035 -0.0248720522351242 0.008112728 -0.006903565 -0.9999433 188 190 192
0.103439110816568 0.0113041993694774 -0.0315942944225067 0.09962704 -0.1191606 -0.987864 184 185 180
0.0320352344471747 0.0212722900454814 -0.0284996983663123 -0.08426722 0.1297051 -0.9879654 185 187 188
0.0170811316503729 -0.0480196565247726 -0.00370023523014468 0.1107513 -0.9798037 -0.1664899 232 232 238
-0.0727049593659189 0.0512213651062108 -0.0141924292646337 0.06250763 0.9591302 -0.2759746 179 181 174
-0.107539534376722 0.0160127687062974 0.0111449787204966 -0.6763462 -0.09783878 0.7300571 175 178 167
0.102656466411063 0.0239151675228544 -0.0337401963877331 0.1770115 0.3089315 -0.9344668 170 173 158
0.0569143591404366 0.0180604215961635 -0.0304056860180565 -0.09615535 0.02704718 -0.9949988 196 197 195
0.140447362146124 -0.00115964562080051 -0.0300389800358633 0.0007155766 -0.07334822 -0.9973061 190 190 191
0.13001860074986 -0.0222306144316335 0.0048613235313574 0.2655308 -0.9581959 -0.1065552 177 181 176
-0.0472053911875148 0.0500227057620473 0.0236177795597053 -0.0423115 0.9834396 0.1762277 128 134 106
-0.104208769820196 -0.066485969168955 0.00963161387068306 -0.2529031 -0.9390739 0.2327664 223 220 229
0.143232119473972 0.0137771928208881 -0.00208865476133366 0.367229 0.905881 0.2110036 100 107 68
-0.121873133117722 -0.0543714094668211 -0.0146330862200437 -0.9029534 -0.4056845 0.1417577 191 196 192
0.0894941922075763 0.0281988002488947 -0.0338587828667294 0.2032836 0.5429127 -0.8148139 159 165 153
-0.115406809096728 0.0346023658587264 0.00604217746023444 -0.9387475 -0.1500373 0.3102289 194 197 195
-0.049546973605525 -0.0289814673905626 -0.0242016412765029 -0.004158268 -0.05289708 -0.9985913 192 194 198
-0.00441720929018918 0.0442532667951887 0.0168912805153921 0.04411349 0.9971936 0.06048809 153 161 138
-0.114469936523706 0.0254141810972146 0.00421335320632207 -0.8153437 -0.116235 0.5671896 181 180 182
-0.000153742071701102 0.00823184466408056 -0.0268365837864379 -0.07237401 0.05006031 -0.9961205 188 192 195
0.137748531569554 0.00387895030041707 -0.0297033504859149 0.02659084 -0.00762294 -0.9996173 179 180 175
-0.0246051867227963 -0.0575630940469822 0.0173556652247744 0.2862804 -0.9525989 -0.1029515 226 224 234
-0.0212494500039627 -0.0100565057046795 -0.0248291768315636 -0.1541803 -0.0600164 -0.9862183 180 189 182
0.146250548926158 0.0142255967943588 -0.0278516601510671 0.3087454 0.5613879 -0.767802 151 155 137
0.0162585774100094 -0.0231376268635559 -0.0242970823967276 -0.01135302 0.003035953 -0.9999309 184 184 190
0.00275657226361159 0.0440881427882063 0.0180905192295922 0.102951 0.9931238 0.05573353 160 158 129
0.129789134678824 -0.0177176346475547 -0.014574660708411 0.3800134 -0.9195393 0.1001861 131 136 126
0.145348262603181 0.013909113485876 -0.0100883531319069 0.3098445 0.9485875 0.06463802 114 118 86
0.151905437002721 -0.000478524872533859 -0.0298325722481792 0.009339225 -0.01611788 -0.9998265 187 187 187
0.0160837525441667 -0.0417573193129832 -0.0237606719187792 0.1520015 -0.4380089 -0.8860269 189 191 194
0.149764062641451 -0.00732112057635925 -0.00996889638763401 0.3667851 -0.9237513 -0.1102373 133 136 129
0.0699463390027577 -0.0333734135422139 -0.020070889007289 0.3539523 -0.8862057 -0.2989267 209 210 217
0.022672783602556 -0.0523142269097243 0.0272892558402121 0.14096 -0.9409048 -0.3079422 218 217 226
-0.0857857816220212 -0.0628019464943315 0.00820219379607454 -0.03688819 -0.9767163 -0.21134 221 222 229
-0.107527424060056 0.0345098713019409 -0.0254264874510689 -0.2242433 -0.03905044 -0.9737505 190 194 189
0.0489209687663387 0.0397810059307573 -0.0299355234288838 0.07883041 0.6914333 -0.7181266 188 186 173
-0.0737899507582672 0.0558061439034043 0.0131721281686727 0.1564041 0.9826698 -0.09948769 129 137 105
-0.0652787295602175 -0.0506792641676046 -0.0238650871547677 0.07423792 -0.1049244 -0.9917054 190 195 199
-0.038958073150191 0.00811653711487326 -0.0265775970561801 -0.006779127 0.08135021 -0.9966625 220 222 230
-0.109084245049135 -0.0562141385100645 0.0100135681384065 -0.7760958 -0.1908834 0.6010314 176 179 166
-0.0758088295508038 0.0495609026763459 -0.0203362649930972 0.05405808 0.958676 -0.279317 143 151 125
0.130566989117682 0.0193654679063875 -0.0285583541452111 0.3403286 0.7326612 -0.5893928 168 171 155
0.105534962985184 -0.0206578749520727 -0.0299136915238198 -0.1144998 0.01134072 -0.9933586 193 194 193
-0.0585799264233241 -0.0528759423213274 -0.0167619848938115 -0.05645509 -0.9944373 -0.08892237 200 202 205
0.0860788459391559 0.034260935268287 0.00154619798231889 0.3879662 0.9163105 -0.0992839 146 141 126
0.0393173003935231 0.0344088251480199 -0.0295530538356199 -0.09869168 -0.09925221 -0.990156 192 192 192
-0.00435653657471802 0.00863705485375554 -0.0265608814154396 -0.03878019 0.05441796 -0.9977649 223 229 237
-0.0159001770577628 -0.00124146544349824 -0.0261137454942577 0.04429153 0.03008344 -0.9985656 190 190 199
0.0551737251264946 -0.0111522024260131 -0.0273948015837841 -0.06413049 -0.1376694 -0.9883999 188 191 192
-0.0338791040894553 0.0438603447765278 -0.0264069147767561 -0.00204669 0.1351198 -0.9908271 171 176 173
-0.10799021195308 -0.0637877088708583 -0.0104350973361081 0.2283527 -0.9722887 -0.05009706 231 232 243
-0.0759747137594429 0.03926775019308 -0.0272134626462368 0.08360156 -0.01399952 -0.9964009 189 190 190
0.122938629349017 0.0217084882230041 -0.0199104358736841 0.2418878 0.9692935 0.0442766 136 134 108
-0.0995278514676355 -0.0051380406904622 -0.0252082041280718 0.0488881 0.0252346 -0.9984854 185 187 191
0.0657941096019107 -0.04186024242711 0.02556548741242 0.1562178 -0.9843813 0.08117561 205 204 205
-0.118258095840314 0.0406781651874892 -0.00338465989044096 -0.9308189 -0.03767823 0.3635334 184 186 183
-0.0862429517903532 0.0101494276241869 -0.0273795972438733 -0.001455794 -0.08073104 -0.9967349 182 186 187
0.000984657710016323 -0.0467549320021916 -0.0120973595631192 0.02002749 -0.9375679 -0.3472253 205 205 212
-0.111316611455056 -0.0557894434238884 0.0075821909446209 -0.7825888 -0.2185507 0.5829154 190 194 191
0.0925189766173788 -0.0352238404586414 0.0233555144601356 0.3075092 -0.9507043 0.03999322 200 203 204
0.0425238036448909 0.041485265406439 -0.0309182235061856 0.06621507 0.5597881 -0.825986 167 170 165
0.0383241967330951 0.0440461746679532 0.027643805971561 -0.06910095 0.9925183 0.1006604 173 180 158
-0.0849156596423614 0.0230326443710458 -0.0270052939474745 -0.03473509 0.04593663 -0.9983402 186 190 193
-0.00189093021312814 0.0383430593232661 -0.0270494088675207 -0.06857792 -0.03437722 -0.9970533 183 186 184
-0.121777381344018 -0.0062796935994951 -0.00506716006104296 -0.7878184 0.1079856 0.6063672 188 192 192
-0.0294564678647122 -0.0353534428826225 -0.0232996281503469 -0.02194149 -0.1154754 -0.993068 190 192 195
-0.066945011327225 0.0432052095880535 -0.0261579416748229 0.0350884 0.3494371 -0.9363025 188 191 192
0.168757189458521 0.00220229468000488 -0.0135962306918284 0.8925183 0.1999534 0.4042644 139 141 118
-0.0854838800704883 -0.0359659487455579 -0.0246061916495988 -0.02382863 0.0872782 -0.995899 187 189 195
-0.0750803871491674 -0.0545729925803515 -0.0190848638026365 0.184445 -0.9495087 -0.2537978 187 194 199
-0.0061166146023876 -0.011429318923432 -0.0259256702897431 0.08832417 -0.160129 -0.9831366 196 197 202
0.0700899814752389 -0.0357332317690466 -0.0136617201875676 0.3047071 -0.9282691 -0.213237 199 200 208
0.0226619355203187 -0.0475702033784497 -5.57916231589128E-05 0.1592537 -0.9839951 -0.07994921 210 212 218
-0.0682255173243031 0.0541702081450099 0.0155987048102888 0.2170234 0.9754608 0.03710842 114 121 94
0.031393575560965 0.0330021839319479 -0.0286446323354362 -0.1018534 -0.01194204 -0.9947277 180 184 180
-0.120692994620956 0.00279764953500616 -0.00423516645775104 -0.8166508 0.08501465 0.5708362 185 188 187
-0.094659629785692 -0.0405207302809807 -0.0263587046354226 0.07686313 0.08372398 -0.9935202 196 199 204
-0.113753682645696 0.0492529187965418 0.00240252589542014 -0.8137624 0.4799784 0.3277371 185 191 186
0.0990633711623983 0.0125181716090514 -0.0317831459924298 0.03426775 -0.1299658 -0.9909261 176 178 169
0.0357890883720619 -0.0169730795311507 -0.0254572255858389 -0.09480926 -0.01379227 -0.9953999 168 175 174
-0.0942163456800579 0.026925219393934 -0.0268103289328158 0.009292844 -0.09897235 -0.9950468 171 173 175
0.168435677466663 0.00427327281931422 -0.0159046942946504 0.8549213 0.4875293 0.1772705 152 153 147
-0.0236398197484595 -0.0253584015643531 -0.0249265749169713 -0.01944064 -0.1276048 -0.9916345 195 197 201
0.149391602317654 0.0116997587715548 -0.0040293906036514 0.3112911 0.9228214 0.2269329 129 128 111
0.0351746915512313 -0.00281556201848798 -0.0270781248003295 -0.03927487 -0.04054399 -0.9984056 186 188 191
-0.106181202264995 0.0172506104611048 0.0126312210245558 -0.6456873 -0.1283128 0.7527441 181 184 185
-0.115226822924737 -0.00212280344796678 0.00318895652133708 -0.729459 0.01975472 0.6837392 174 181 181
0.160201290344555 -0.00117448014850208 -0.00539624644258666 0.5504478 -0.2986131 0.7796392 144 147 126
-0.104816336874117 -0.0384208736302301 -0.0263776931735663 -0.01893133 0.0374886 -0.9991177 179 183 185
-0.0451948737069059 0.0187393174430754 -0.0266571686145314 -0.01637805 0.002925772 -0.9998616 225 227 237
0.0878008357260359 0.0104168681117383 -0.0320088755353364 -0.01317466 -0.0622176 -0.9979756 183 185 183
-0.133514989332698 -0.00521629233143983 -0.0207748172349578 -0.8884686 -0.122801 -0.4422029 178 184 184
0.055351675449246 0.00329791354995956 -0.0287863355660665 -0.1171008 -0.09303326 -0.9887528 188 191 187
0.0817342497888661 0.0142982704007533 -0.0322264862429546 0.03178242 -0.1961793 -0.9800528 204 204 203
0.153408737454564 0.0128931972798734 -0.0197938796414873 0.2831073 0.9532172 0.1059583 106 110 80
0.0896843962577392 -0.0203366620820273 -0.028297579113742 0.0576092 0.05980993 -0.996546 174 176 177
-0.0901009261814412 -0.0315780463513489 -0.0252002971082174 0.0419346 0.04634098 -0.9980451 189 189 192
-0.128829563172325 0.0172478498950168 -0.0181756465289606 -0.9011643 0.3602399 0.2411019 149 160 157
0.119246994341211 -0.0171311252028272 -0.0296207181509831 0.1014023 -0.2689974 -0.9577881 181 184 181
-0.0653075695323498 -0.00953264881263616 -0.0262644641141367 0.004046792 -0.1251327 -0.9921318 191 191 198
-0.0594081044632579 0.0459949847225414 -0.025960785992354 -0.08593579 0.5218968 -0.8486689 187 190 191
0.0746270863470033 0.0399628581845657 0.0199323149015618 0.2148582 0.9750029 -0.05661425 102 118 75
0.110890328642317 0.0245843896592206 0.00348970810431773 0.3590449 0.9316011 0.05662287 113 118 90
-0.11442433735564 0.0309062360889463 0.00645537187527798 -0.8668156 -0.2487662 0.4321413 180 183 184
-0.124392683639926 -0.00739670006532189 -0.00869587222097459 -0.7750186 0.1007928 0.6238485 142 149 137
-0.042612170706556 -0.0234733199146111 -0.025249045333356 0.01445718 -0.08306137 -0.9964396 195 199 203
0.0132531772695029 -0.0359698059778009 -0.0242604980733546 -0.009371128 0.02019978 -0.999752 189 190 192
0.0136503270135078 0.044375981716827 0.0067828650816659 -0.01584705 0.9947934 0.1006723 157 157 133
-0.110565928773549 -0.0190705980897807 -0.0265189883017217 0.01646693 -0.005019255 -0.9998518 182 183 190
0.0589470436737632 -0.0328772216658 -0.0271142015522662 -0.103167 -0.2912108 -0.9510798 201 201 206
0.0577968462932201 0.0420303233402675 -0.00368421386490339 0.2080518 0.9773571 -0.03856766 123 128 103
-0.0311993672931562 -0.0210687442587945 -0.0251364096049056 0.003010171 -0.01901468 -0.9998147 194 197 203
0.0393015265036631 0.0280718375991451 -0.0291748347795693 -0.06426946 -0.1397352 -0.9881009 192 192 195
-0.0561791027887208 -0.0211532613193999 -0.026042874356854 -0.07907387 -0.09309749 -0.992512 229 231 242
0.108509775750865 -0.0236310808142799 -0.0173606708237008 0.2005918 -0.9795496 0.01566678 190 192 197
-0.00107507666815171 -0.0424486535626452 -0.025321765673627 0.001874164 -0.1471915 -0.9891062 201 202 207
0.0862640203307562 0.0183989238643711 -0.0343067954517312 -0.006773409 -0.1943836 -0.9809022 187 187 182
-0.0992107875574589 0.0494533344776962 -0.0138159928076437 -0.2025225 0.8742273 -0.4412609 145 159 121
-0.0950439478041405 0.0515328439189742 -0.00950976339099147 -0.03573073 0.9632401 -0.2662551 172 174 158
-0.104739365768171 -0.0610839339392646 0.0146001475501091 -0.711873 -0.2882741 0.6404178 191 193 188
0.107329733218339 -0.00405193404471049 -0.0303393243670439 0.0930478 0.009532733 -0.995616 186 188 182
-0.0219672489605242 0.048377869637968 0.00101073326503309 0.1299924 0.9914733 -0.009094885 155 160 137
0.0718079020945815 0.0389972585492318 0.00214226778808116 0.1669681 0.981893 -0.08948618 133 135 111
0.0170171572903024 0.0240429868291627 -0.0271641848650188 -0.02566135 -0.07541586 -0.9968219 186 189 189
0.152219793158962 0.000803760423553346 -0.0286249587508284 0.001437353 -0.0001841547 -0.9999989 182 183 184
-0.0242839735542627 -0.0592694976302417 0.0351605809079162 0.1353963 -0.9808087 -0.1402933 231 232 237
-0.121010279693863 0.0411127788594945 -0.0171367460629246 -0.6620716 0.7113699 -0.2358263 191 193 191
-0.105773609744265 0.049881268694326 -0.00932103054593925 -0.2491622 0.9080172 -0.3367832 188 193 181
0.138963274490234 -0.0137917622767858 -0.00688822428708319 0.4981103 -0.8466934 -0.1870734 131 133 130
-0.0339012264826045 0.048272779083387 -0.0112809236890657 0.05639879 0.996884 -0.05515009 175 180 147
-0.0652629758074216 -0.0540256039047893 -0.00939415195186574 0.3231522 -0.9123504 -0.2513752 216 218 220
-0.0177079383181892 0.0227666413391396 -0.0262592082873461 -0.03411302 -0.001958979 -0.9994161 174 179 181
-0.0309095632070913 0.0402387582869919 -0.026363732493224 -0.009989411 -0.02801177 -0.9995577 182 186 185
-0.0274373312290114 0.0414306120976675 -0.02708550491914 0.04208269 0.01964596 -0.998921 180 185 183
-0.113832023774571 0.0199659836663275 -0.024679358072469 -0.2775332 0.1814902 -0.9434175 192 201 192
-0.0520142470483373 -0.0376302462276454 -0.0235751878340479 -0.05472735 -0.1148474 -0.9918745 190 191 196
-0.0482201646230501 -0.0531582784996054 -0.00266670385514114 -0.01688746 -0.9604778 -0.2778437 224 225 230
-0.0540544858367801 0.0113733137781604 -0.0264183774147027 0.008363277 0.001544841 -0.9999638 183 188 193
0.160855533636133 -0.00317951847765285 -0.00972477647091857 0.2590437 -0.9087733 -0.3271505 131 135 124
