ply
format ascii 1.0
comment File exported by Rhinoceros Version 7.0
element vertex 469
property float x
property float y
property float z
property float nx
property float ny
property float nz
property uchar red
property uchar green
property uchar blue
end_header
-0.0317706307726486 -0.0248175879531836 -0.0293452861942253 0.05025638 0.3814884 0.9230065 51 51 51
-0.031250007424183 -0.024249366659696 -0.0296365610668155 0.08064705 0.2263683 0.9706974 79 79 79
-0.0224618032540849 -0.0169545418889504 -0.0260886095790126 0.003845811 -0.5773201 0.8165089 86 86 86
-0.0258596758655294 -0.0155114719890392 -0.0245818861479669 0.02495194 -0.5513514 0.8338999 91 91 91
-0.0262517093587218 -0.0150570942810335 -0.0242734308318536 0.03148668 -0.5507399 0.8340828 113 113 113
-0.0278191647665418 -0.016175717689412 -0.0248494503664106 0.0335774 -0.5553541 0.8309359 108 108 108
-0.0321952104396392 -0.0202716090627136 -0.0271574075628619 0.02844768 -0.5169047 0.8555701 68 68 68
-0.0312051065069943 -0.0181337856953978 -0.0260679096894979 0.01837315 -0.5400774 0.8414148 104 104 104
-0.0305940636275617 -0.0151719566696685 -0.024215133745102 0.03168782 -0.5367346 0.8431559 86 86 86
-0.0340624776442673 -0.0170512603992021 -0.024921276259286 0.03304761 -0.5413287 0.8401614 128 128 128
-0.0312257606621555 -0.0167920297108747 -0.0253085921356154 0.02544136 -0.5413695 0.8403998 92 92 92
-0.0316956329293352 -0.0274380794135822 -0.0247252650378577 0.2116198 0.7740481 0.5967131 38 38 38
-0.0310029174613669 -0.0268394792481936 -0.0259982627345565 0.1306261 0.7603757 0.6362119 62 62 62
-0.0360541949693989 -0.0270923118776409 -0.024128238796432 0.2797343 0.7443006 0.6064366 52 52 52
-0.039244995103628 -0.0275680577288948 -0.0233117781085436 0.41172 0.8047253 0.4276725 59 59 59
-0.0402838308201656 -0.0275033484816783 -0.0237012305127039 0.455863 0.7421398 0.4913425 65 65 65
-0.0336898611830341 -0.02266198989247 -0.0284350546182683 0.0752205 -0.2759469 0.958225 70 70 70
-0.0350105807976249 -0.0228426402988283 -0.0284225173031354 -0.007147021 0.03120096 0.9994876 85 85 85
-0.0385280536152726 -0.0209719058119989 -0.0272875565468819 0.09563371 -0.3669721 0.925303 121 121 121
-0.0366799748067619 -0.0195455721684854 -0.0266024784979283 0.04417132 -0.5426983 0.8387654 134 134 134
-0.0368608174852842 -0.0195756573095035 -0.0264572722878709 0.04486131 -0.5437583 0.838042 140 140 140
-0.0531314435122736 0.0202430116249104 0.00899570519474029 -0.9683004 -0.2492828 -0.01588778 74 74 74
-0.0375884232425299 -0.0187736897847509 -0.0259188778103807 0.04785721 -0.5447366 0.8372406 130 130 130
-0.0411327996524564 -0.0207294248971306 -0.0269370563297415 0.08554897 -0.4382868 0.8947547 129 129 129
-0.0419367780641 -0.019136200017054 -0.0258070699561843 0.03474101 -0.5445465 0.8380108 112 112 112
0.0350768587993131 0.0156897402394038 -0.00943630657512119 0.01728914 -0.568967 0.8221785 190 190 190
0.0180157374349825 0.0420260649864197 0.0146863427711738 -0.1719668 -0.9300063 -0.3248318 25 25 25
0.0351976822162898 0.0169878788221675 -0.00808489258447102 0.0117702 -0.5588228 0.8292035 201 201 201
0.0337984380146259 0.0176031076633296 -0.00815621432648912 0.03875143 -0.5663377 0.8232618 165 165 165
0.0337313462125786 0.0132284857568293 -0.0111500854917102 0.02708728 -0.5689256 0.8219427 200 200 200
-0.0444084798199436 -0.0118639725074589 -0.0209900764635948 0.03996924 -0.5327246 0.8453443 113 113 113
0.0313698883970654 0.0127304976726793 -0.0113586937069679 -0.0007124015 -0.5611355 0.8277237 185 185 185
0.0301739144149362 0.0131884796763104 -0.0108411520336135 0.01515288 -0.545866 0.8377354 170 170 170
0.0300394580540182 0.0158303536487583 -0.00907913736698542 0.02958805 -0.5573335 0.8297614 107 107 107
0.0280755012650036 0.0149282042368172 -0.00935377524055682 0.02008637 -0.5403709 0.8411871 96 96 96
0.0334039983468046 0.0199280122824537 -0.00655155904320655 0.04693758 -0.5428444 0.8385206 133 133 133
0.0317723398384757 0.0205670721972041 -0.00611894237668321 0.06848854 -0.5483572 0.8334349 115 115 115
0.028326354046643 0.0175549295408929 -0.00815221211172269 0.03128199 -0.5349354 0.8443136 112 112 112
0.0267794607284264 0.017106167484995 -0.00781052967297467 0.03749565 -0.5304573 0.846882 92 92 92
0.0283045778466575 0.0195285719317606 -0.00664403013436267 0.04648593 -0.5375854 0.841927 100 100 100
0.027441583875742 0.0204768984212098 -0.00582381106584605 0.02696864 -0.5303701 0.8473371 104 104 104
0.0269060930506333 0.0178495797540188 -0.00741188644696157 0.04098944 -0.5269557 0.8489038 88 88 88
0.0247917147549797 0.0173288486148879 -0.00762007281661629 0.02527387 -0.5252913 0.850547 93 93 93
0.0260929032684483 0.0194553629779184 -0.00639407723895448 0.02909898 -0.5321971 0.8461203 90 90 90
0.0324004658110422 0.0238328099388754 -0.00437556753827879 0.05646607 -0.5435646 0.8374659 229 229 229
0.0258514781518708 0.0099516575718035 -0.012563918319965 0.004191553 -0.548933 0.8358558 189 189 189
0.0274149710725169 0.0132876391443655 -0.0103695733997059 0.007538313 -0.5453253 0.8381906 207 207 207
0.0220640243002475 0.0110770137811359 -0.0113546817295074 0.04079218 -0.5607802 0.8269592 90 90 90
0.0220272663104044 0.00792817405416246 -0.0136320039446692 0.04034936 -0.5567229 0.8297178 225 225 225
0.0207393837110965 0.00880043255267682 -0.012813990264893 0.04222121 -0.5566708 0.8296595 193 193 193
0.0231842865894207 0.0154832639221932 -0.00866968643385151 0.04014713 -0.5393872 0.8411003 209 209 209
0.0221113905467556 0.0180727685058274 -0.00691397080461063 0.03647031 -0.5331293 0.8452473 181 181 181
0.0203773535129956 0.0176405590431981 -0.00706123569135987 0.04832111 -0.5445632 0.8373267 226 226 226
0.0160180927487699 0.0372876692894738 0.0240019176497959 -0.2589837 -0.7826524 -0.5660235 51 51 51
0.0209967173655921 0.0115108561803945 -0.0111019698536529 0.05774134 -0.5611721 0.8256826 101 101 101
0.0186443269307639 0.0133784966923598 -0.0097334719784639 0.05576582 -0.5554971 0.8296463 99 99 99
0.016581779827828 0.0154399581561949 -0.00842007960636605 0.05493877 -0.5621318 0.8252209 63 63 63
0.0157437574463977 0.00650867003548838 -0.0140127234919448 0.04800875 -0.5532293 0.8316444 219 219 219
0.0162337976855493 0.00825200987060681 -0.0128165322581649 0.05264033 -0.5492486 0.8339993 162 162 162
0.0150575397331387 0.00751595506485447 -0.013290877774175 0.0440902 -0.5537266 0.8315305 170 170 170
0.0123346926337211 0.00455377474119001 -0.0151422974152751 0.02227073 -0.5298586 0.8477935 217 217 217
0.0117916508061979 0.00601024101572123 -0.0140620821098201 0.01965749 -0.5350496 0.8445919 197 197 197
0.014534009092896 0.00858413031651384 -0.012594024921126 0.03305878 -0.5518254 0.8333042 122 122 122
0.0120323365981565 0.00847806704274245 -0.0124969175395528 0.02164428 -0.550791 0.8343625 95 95 95
0.01133554265355 0.0128801680711923 -0.009560634723789 0.03622169 -0.5380151 0.8421566 54 54 54
0.0108878443807754 0.0110212120160338 -0.0106473043571432 0.01976912 -0.5477286 0.8364225 67 67 67
0.00982984633597361 0.012197095036073 -0.0098832399189311 0.02519646 -0.5335262 0.8454081 72 72 72
0.0111074934358371 0.00700155215671006 -0.0134737862498071 0.01664349 -0.543979 0.8389338 127 127 127
0.00977327584703591 0.0064458432909249 -0.0137441328197111 0.007370968 -0.5346685 0.8450297 126 126 126
0.00847282778989378 0.00698909189060015 -0.0130968994272157 5.535352E-05 -0.5433975 0.8394755 82 82 82
0.00989996542015303 0.00795852562723354 -0.0127890521038625 0.006245927 -0.547481 0.8367948 77 77 77
0.00670438572136955 0.00904734424412323 -0.0115224504728357 0.01680954 -0.5472786 0.8367817 97 97 97
0.00555671585349815 0.0011515606990492 -0.0167174991434148 0.01793647 -0.5639849 0.8255903 120 120 120
0.00720240273943729 0.00241649010905254 -0.0155212372238124 0.008872485 -0.5461388 0.8376477 105 105 105
0.00465638785099598 0.00273465119256777 -0.0153754589241231 0.02579195 -0.5498809 0.8348448 91 91 91
0.00123984734221683 -0.000495382607807349 -0.0176788676534087 0.0304734 -0.5665125 0.8234895 121 121 121
0.0053732108453759 0.00486342758846292 -0.0143756791420812 0.01746785 -0.5422281 0.8400497 97 97 97
0.00364839184861898 0.00370027026374342 -0.0148213078763568 0.03492863 -0.550703 0.8339701 96 96 96
0.0030716229632306 0.00472637295088718 -0.0140643353630058 0.03169259 -0.5428028 0.839262 126 126 126
0.00172902095388716 0.00378094506853022 -0.0145151822452306 0.02970795 -0.5462641 0.837086 135 135 135
0.00364524874708483 0.00687162517684548 -0.012835359640852 0.03527153 -0.5416206 0.8398827 118 118 118
0.00218733279662908 0.00584312379366414 -0.0133017002550091 0.03125561 -0.539139 0.8416367 148 148 148
0.000209469139464069 0.00495143990488289 -0.0136264103027091 0.02388855 -0.5438907 0.838816 126 126 126
-0.000433315859182049 0.00691643878809733 -0.0125168541757443 0.02792795 -0.5375043 0.8427984 134 134 134
-0.000373009679534686 0.00190696923175049 -0.0154530762981523 0.02220824 -0.5613318 0.8272928 96 96 96
5.13128244472583E-06 0.00296299112164267 -0.0150474591564856 0.01988815 -0.5539723 0.8322975 89 89 89
-0.0034552649371582 0.000490284568691712 -0.0161346238922071 -0.001601866 -0.5483137 0.8362712 68 68 68
-0.00332718456160563 0.00113860257237508 -0.0162245896187213 0.004988951 -0.5530155 0.833156 64 64 64
-0.00238648093938609 0.0049989835059665 -0.0133983568933421 0.01837755 -0.5464529 0.8372882 167 167 167
-0.00343546253239024 0.00504176643732346 -0.0133270430662162 0.008447624 -0.5452954 0.8382013 143 143 143
-0.0451317293758833 0.00466263165302705 -0.0105160019562734 0.04290815 -0.5458668 0.8367726 140 140 140
-0.00591730775014332 0.00312169608195034 -0.0141649285657971 0.01220409 -0.5527607 0.8332507 103 103 103
-0.00446071765124323 -0.00185410577056511 -0.0176713289633537 0.005620202 -0.538627 0.8425256 107 107 107
-0.00968620275093945 -0.00427564004789349 -0.0188519444298334 0.0282074 -0.5659261 0.8239733 98 98 98
-0.00742801161361495 -0.00246337728658019 -0.0178484565808288 0.013261 -0.5580426 0.8297063 122 122 122
-0.00933379057180961 -0.00211944959478538 -0.0173404365372613 0.02643193 -0.5620216 0.8267001 127 127 127
-0.0082951726303393 0.000886183782035754 -0.015707915172989 0.02335691 -0.5460476 0.8374285 107 107 107
-0.010251032993509 -0.000389655999524896 -0.0161165449482563 0.04244154 -0.5524379 0.8324729 133 133 133
-0.0114024308301715 0.00099927795186916 -0.0151528185873807 0.05108405 -0.5540827 0.8308928 168 168 168
-0.0123776732564496 -0.00492783594433599 -0.0191927922887329 0.04030224 -0.5676126 0.8223087 121 121 121
-0.014279696686788 -0.00451001154212016 -0.0186671323442108 0.04385787 -0.5603412 0.8270999 106 106 106
-0.0136230201354191 -0.00174908395465512 -0.0171443977385816 0.04441756 -0.5639339 0.8246245 178 178 178
-0.0126711044054382 0.000700446420071721 -0.0153280411182562 0.05171653 -0.5492999 0.8340234 206 206 206
-0.0149955198922456 -0.000694156472384355 -0.0164477001848407 0.04660274 -0.5553695 0.8302969 197 197 197
-0.0168547757467219 -0.00688153333074037 -0.0202628303984008 0.01859526 -0.5401744 0.8413476 97 97 97
-0.0192385504921813 -0.0072672639003748 -0.0200305493330772 0.01045918 -0.5286966 0.8487464 104 104 104
-0.0189167675051465 -0.00527069763321475 -0.0188997538584442 0.0250944 -0.5363249 0.8436385 124 124 124
-0.019919038728363 -0.0060219701255112 -0.0191279278352932 0.02157004 -0.5288237 0.8484576 121 121 121
-0.0192771281184361 -0.00477583915910385 -0.0185844543103718 0.02370843 -0.5409755 0.8407041 128 128 128
-0.02055615134711 -0.00469043838152405 -0.0183393097417351 0.0177674 -0.5369741 0.8434116 111 111 111
-0.0221725713930856 -0.00995506863832063 -0.0215255642075973 0.0324536 -0.5334046 0.8452374 93 93 93
-0.0251770718852233 -0.00808732921291111 -0.02023753509805 0.04759839 -0.5414433 0.8393888 126 126 126
-0.0236985947956856 -0.00764643919830088 -0.0198973381973647 0.03315737 -0.5354432 0.8439201 112 112 112
-0.025291057678178 -0.00566561428583467 -0.0186182038082533 0.03271088 -0.5432552 0.8389302 123 123 123
-0.0277806178208171 -0.0117369401196872 -0.0222916864573347 0.04576131 -0.533757 0.8443989 108 108 108
-0.0298095819483688 -0.0121515517903159 -0.0224991504184671 0.04362002 -0.5392837 0.8409937 105 105 105
-0.0269913661293066 -0.00952203838275212 -0.0208412866692777 0.04278425 -0.5425389 0.8389404 101 101 101
-0.0298088821819418 -0.00833633570539472 -0.0200910524232471 0.02844509 -0.542916 0.8393051 129 129 129
-0.00177384425003568 0.0233282323269945 -0.00180829607193524 0.03025284 -0.5501083 0.8345451 226 226 226
-0.0328691548535147 -0.0144772713024939 -0.0236670602370947 0.03047927 -0.5312234 0.8466834 121 121 121
-0.0349158547918007 -0.0127961976822599 -0.0224151088517399 0.02614665 -0.5333092 0.8455162 96 96 96
-0.0337564714446783 -0.0100481882108366 -0.0207325105922814 0.0164743 -0.5430899 0.8395129 138 138 138
-0.0363854130961747 -0.0133067655839774 -0.0226756030316174 0.0341283 -0.5372557 0.8427287 113 113 113
-0.0378182206751965 -0.0142331213677488 -0.0230542566259464 0.04194937 -0.54015 0.8405226 115 115 115
-0.0393756167817845 -0.0162846914049608 -0.0243731692218134 0.04412184 -0.5455366 0.8369248 113 113 113
-0.0443877110556907 -0.0153730377494132 -0.0230676017193015 0.02943258 -0.5479854 0.8359699 108 108 108
-0.0354996269311765 0.00565420544744155 -0.010349409770456 0.03370235 -0.5321578 0.8459741 119 119 119
0.00725304788386083 0.0461414584466346 0.0132896082214118 0.03409152 -0.9869339 0.1574778 50 50 50
0.0100244941313044 0.0231556319768084 -0.00302960490733421 0.03212904 -0.5487189 0.8353893 92 92 92
0.0248728338476756 0.0313391123611132 0.00145965896818855 0.04121866 -0.553826 0.8316116 103 103 103
-0.0270643209881438 0.0517330988580303 0.0181506713839567 -0.01085154 -0.5760342 0.8173535 132 132 132
-0.0587186503298582 -0.0118108460565569 -0.0199876854174765 0.02020014 -0.5409068 0.8408399 113 113 113
-0.0366891929892379 0.021392231298036 -0.000978695443381541 0.01761476 -0.5391052 0.8420542 168 168 168
0.00573981890671993 0.0113879435847114 -0.0100403634564252 0.03052142 -0.5306841 0.84702 97 97 97
-0.0433671188896732 -0.0269130025300132 -0.0261439144336057 0.5285156 0.6194272 0.5805008 51 51 51
-0.00800001413084628 0.0244096748767108 -0.000654571785379268 0.02921636 -0.5397413 0.8413238 197 197 197
-0.0454549299978835 -0.0282680771119233 -0.0205221354680337 0.2029746 0.9637787 0.1730087 60 60 60
-0.0472358727908291 -0.0281456648427307 -0.0194989969342146 0.1246098 0.9799911 0.1552091 53 53 53
-0.043361197033152 -0.0278240913349277 -0.0240512227032744 0.4569835 0.7839238 0.4202732 48 48 48
-0.0443253844181486 -0.0283061909984352 -0.0237006289654632 0.3375551 0.8554409 0.3927815 55 55 55
-0.0455476397205641 -0.0279853843570373 -0.0247071862129749 0.3581206 0.8224754 0.4419093 60 60 60
-0.0474403093022424 -0.0275942286864623 -0.0273887293543949 0.3498026 0.6048152 0.7154276 66 66 66
-0.0489387386899027 -0.0252207859171456 -0.0290887404586597 0.1862757 0.06048943 0.9806337 91 91 91
-0.0486674220250976 -0.0237635523157715 -0.0284052991021301 0.2038112 -0.1451791 0.968186 112 112 112
-0.0473076641015524 -0.0212483030807993 -0.026919274720873 0.03702666 -0.5337637 0.8448227 104 104 104
-0.047639968504404 0.014961091130077 -0.00378174237655381 0.02623339 -0.5277164 0.8490154 114 114 114
-0.0488615492569311 -0.0222024364924865 -0.0273426258610397 0.08534708 -0.451034 0.8884167 106 106 106
-0.0211749533053669 0.0167315842822886 -0.00472629907694568 0.02048395 -0.5468092 0.8370066 112 112 112
-0.00678506299694703 0.0416759314591693 0.0101809060933694 -0.00185443 -0.5628424 0.8265622 200 200 200
-0.0367328237365845 0.0249879753304425 0.00161697882289462 0.008651044 -0.5480589 0.836395 111 111 111
-0.0484018674569073 -0.0197323154813448 -0.0258292829306563 0.02916939 -0.5495418 0.8349568 108 108 108
-0.0496162315918913 -0.018096419026824 -0.0244326662611973 0.02721754 -0.5516271 0.8336467 107 107 107
-0.0522316844693331 -0.0212959781479548 -0.0266219580289298 0.04256332 -0.5602834 0.8272067 110 110 110
-0.0532262704463382 -0.0206038480438953 -0.0261104183010803 0.03999979 -0.5651978 0.8239851 110 110 110
-0.0547511881803429 -0.0210791368910422 -0.026159787103225 0.03665242 -0.5620558 0.8262868 93 93 93
-0.0581776182599389 -0.0221128953400402 -0.026645683077043 -0.1312133 -0.09737583 0.9865602 90 90 90
-0.0293006808354979 -0.0330208304085098 -0.00715300296428402 0.1967062 0.9782865 0.06528502 49 49 49
-0.0284174549094445 -0.033538615507994 -0.00850876957855042 0.209214 0.974667 0.07908132 71 71 71
-0.0314068247676813 -0.0326014924505144 -0.00802496711433219 0.1748414 0.9819984 0.07148133 61 61 61
-0.0319955070554401 -0.0322925654330579 -0.00693170694198865 0.168575 0.9838407 0.06033144 38 38 38
-0.0333298297475522 -0.0325549070374093 -0.00673092543847607 0.1657191 0.9842981 0.06078189 29 29 29
-0.0406496091178368 -0.0307203710849899 -0.00977363888330644 0.1540783 0.9642009 0.2158161 25 25 25
-0.0426747401143093 -0.0311736157449995 -0.00880095842322916 0.178244 0.9508681 0.2531381 33 33 33
-0.0441163872384931 -0.0320413921059062 -0.00463811809929764 0.2091193 0.9419774 0.2625789 37 37 37
-0.045175511084552 -0.0311116084810901 -0.00538052997818074 0.2174578 0.9360409 0.2766577 34 34 34
-0.040160087008609 -0.0311509532982789 -0.0122227479075847 0.1066399 0.969147 0.2222208 41 41 41
-0.0414737599682486 -0.0309157446083439 -0.0110070976673974 0.1578404 0.9609644 0.2272307 48 48 48
-0.0441987867863545 -0.0294846414209503 -0.0154294075695604 0.1109448 0.9668114 0.2301456 48 48 48
-0.0632205135460624 -0.00483361636413648 0.0131109934902678 -0.9718813 -0.1758723 0.1565747 30 30 30
-0.0619510256440203 -0.00344298693739642 0.0153423014468431 -0.9787074 -0.1868472 0.08497005 40 40 40
0.00746685115101009 0.0235584007672587 -0.00291556199099936 0.03359966 -0.5382262 0.8421304 95 95 95
0.0314369969617765 0.025477416917025 -0.00305642351583175 0.04340858 -0.548256 0.8351833 148 148 148
0.0308556080713669 0.0259356079487646 -0.00274391443165357 0.03506366 -0.5538848 0.8318546 79 79 79
0.0288522921572096 0.0248575270173967 -0.00369503416668181 0.02990757 -0.5556983 0.830846 142 142 142
0.0283695649471167 0.0257423935693072 -0.00257739233672473 0.01162512 -0.5636048 0.8259628 107 107 107
0.0292761830391397 0.0282565890546177 -0.00109381660778814 0.01961553 -0.552084 0.8335577 102 102 102
0.0274925899182659 0.0275655827173068 -0.00136028988861529 9.160003E-05 -0.5548722 0.8319356 105 105 105
0.0263386144012121 0.024610546742581 -0.00298744071269287 0.001001426 -0.550097 0.8351002 88 88 88
0.0249373373771351 0.0243131871527426 -0.00317320349444135 0.007750448 -0.5592927 0.828934 87 87 87
0.0232830929904653 0.0224534466676759 -0.00413620128158525 0.01665921 -0.5525526 0.8333115 107 107 107
0.0236347258307736 0.0244321635062054 -0.00303828534842938 0.01222706 -0.562381 0.8267878 77 77 77
0.0223416039368627 0.0260809164783851 -0.00177213337410694 0.05235056 -0.5501329 0.8334346 70 70 70
0.0186461085190603 0.0273524793882572 -0.000881627293088508 0.04614737 -0.5372598 0.8421534 91 91 91
0.0233565129980029 0.019799900301316 -0.00616274772390778 0.02826265 -0.5213725 0.852861 209 209 209
0.021964839895634 0.0186187241797324 -0.00690217144899104 0.04150061 -0.5347701 0.8439779 204 204 204
0.020351218754918 0.0183961838827035 -0.006307072111723 0.04714239 -0.5349708 0.8435543 225 225 225
0.0180146986647309 0.0171654935061399 -0.00740055559325838 0.0464466 -0.5545788 0.830834 163 163 163
0.0187527220672776 0.0189831209522451 -0.00607096770601435 0.03434504 -0.5429496 0.8390627 130 130 130
0.0175399328118737 0.0180510973664574 -0.0067798645980451 0.04176246 -0.5481703 0.8353235 127 127 127
0.0188882160812431 0.0206363154339823 -0.00501876978951092 0.0313662 -0.5453949 0.8375921 117 117 117
0.0177473023866175 0.0212549632063105 -0.0049642961367964 0.03924903 -0.5393372 0.8411747 101 101 101
0.0182652100076286 0.0228061733143172 -0.00365257961668931 0.03521314 -0.5432835 0.8388106 102 102 102
0.0159058393715621 0.0200610663878977 -0.00529358925235389 0.04779026 -0.5473809 0.8355179 90 90 90
0.0105411366263941 0.0189326422778398 -0.0056765082609317 0.02762533 -0.5488275 0.8354791 83 83 83
0.0148984310633766 0.0213582122527698 -0.00443488084268691 0.03961819 -0.5414494 0.8397993 94 94 94
0.0133197424795295 0.0205040633328148 -0.00490010988621477 0.03694713 -0.5495904 0.8346168 78 78 78
0.0192689328048852 0.0246464445934511 -0.00257889596406709 0.04559487 -0.5511172 0.8331813 88 88 88
0.0177199280948881 0.0250855349911573 -0.00227796572353274 0.03886109 -0.5490246 0.8349022 96 96 96
0.0158048237900763 0.0232912961560641 -0.00321934099046835 0.03990767 -0.5473275 0.8359665 109 109 109
0.0148640852188628 0.0230141647240509 -0.00339811780418579 0.03629621 -0.5452442 0.8374911 101 101 101
0.0121356109582424 0.0232599302481159 -0.00320348128421778 0.0381646 -0.549216 0.8348085 60 60 60
0.0107254974464204 0.0219837504266138 -0.00385884598973864 0.0369641 -0.5431856 0.8387986 101 101 101
0.0111829559694749 0.0236944875289528 -0.0025876875208717 0.03331438 -0.5539495 0.8318834 84 84 84
0.0270699996699308 0.0322664741930563 0.0015888286151705 0.01827587 -0.5450801 0.8381848 75 75 75
0.0245001912670193 0.0329363975185508 0.00235149099555705 0.05185523 -0.5457295 0.8363554 87 87 87
0.0223202847478499 0.0304760787895147 0.000937397865130266 0.05664298 -0.5452952 0.8363281 73 73 73
0.0225550273358222 0.0314811861027572 0.00145741362443084 0.05763564 -0.553479 0.8308665 83 83 83
0.0204244330242163 0.0296588082515468 0.000304554481999439 0.04912033 -0.5440427 0.8376185 77 77 77
0.0187887753896434 0.0300300700791314 0.000830236719038743 0.04000042 -0.5468981 0.836243 68 68 68
0.0176494036168346 0.0291467306331494 0.000276923870694487 0.02898631 -0.5401987 0.8410381 70 70 70
-0.0146623976578164 0.0404341392547966 0.00996046612491124 0.04293941 -0.5378352 0.8419558 111 111 111
0.014875183961947 0.0262910375602098 -0.00114441322555638 0.02473016 -0.5424188 0.8397442 96 96 96
0.0125227912908814 0.0266226311148331 -0.000854646641011245 0.02811638 -0.5507901 0.8341701 102 102 102
0.00685587574430091 0.0242619737402302 -0.00201843016494631 0.03004867 -0.5449999 0.8378975 88 88 88
0.0250412250840251 0.0355486556346342 0.00406492269755047 0.043863 -0.5390179 0.8411515 80 80 80
0.0264096761378747 0.0349696554188687 0.00380375792470243 0.03925199 -0.5338472 0.8446695 44 44 44
0.0236162558842925 0.0337804128517696 0.00294293559439222 0.05367104 -0.5483928 0.8344967 80 80 80
0.0211616776597303 0.0337716664592396 0.00298051242579127 0.05414062 -0.5495785 0.833686 70 70 70
0.0243892180991816 0.0384490921385732 0.00565896442828072 0.02974593 -0.5515428 0.833616 101 101 101
0.0198244264319878 0.0321110787441923 0.00210180092158678 0.04693024 -0.551409 0.8329139 64 64 64
0.0215958061525758 0.0329926068866799 0.00248329552871283 0.06186115 -0.5522097 0.831407 76 76 76
0.0174797260830575 0.0350573856994238 0.00391249292079875 0.04046012 -0.5437917 0.8382444 88 88 88
0.0173514277544116 0.0359324067347777 0.00473880750231968 0.03455237 -0.5523053 0.8329256 72 72 72
0.017054031551123 0.0333400168658804 0.00298781008096637 0.03760776 -0.5462587 0.8367718 58 58 58
0.0152379950361303 0.0327315512829962 0.00279157989742214 0.04180567 -0.5366924 0.8427417 89 89 89
0.0145649062516573 0.0346476094711043 0.00392753747508152 0.03012868 -0.5488594 0.8353716 88 88 88
-0.0490342907476888 -0.0313284703500003 -0.00569716195150217 0.1852792 0.9249043 0.3319994 42 42 42
0.0227218130790496 0.0387813201444832 0.00636870969387564 0.03358291 -0.5625878 0.8260552 69 69 69
0.0183779092840246 0.0388892100682178 0.00646259077938154 0.03664168 -0.5566117 0.8299643 98 98 98
0.0207246562963341 0.0421072549085364 0.00841522596062384 0.04939831 -0.6855189 0.7263771 77 77 77
0.0195731650883721 0.040882266314083 0.00765921491273143 0.03576199 -0.5979401 0.8007426 74 74 74
0.0176433678536974 0.0392549892556378 0.00665204645421912 0.03247362 -0.55503 0.8311962 81 81 81
0.0148553136331127 0.0369874097423466 0.00548142584215659 0.02754437 -0.5528399 0.8328321 70 70 70
0.0129663155823239 0.0358625231297469 0.00484288150912869 0.03025801 -0.5508763 0.8340382 67 67 67
0.0123435401995704 0.0363901481002713 0.00503490765911176 0.02878878 -0.5502518 0.8345023 52 52 52
0.0129163682508895 0.0290525937193946 0.000803227281035254 0.02499822 -0.537331 0.8430009 75 75 75
0.0119000021365512 0.0311648210816974 0.00196555165295635 0.02427561 -0.5338396 0.8452373 79 79 79
0.00971325481255469 0.0299410118156926 0.00150903555262726 0.02171612 -0.5385934 0.8422859 73 73 73
0.0104064167645546 0.0326545480556854 0.00311717467286 0.02210202 -0.5252371 0.8506688 90 90 90
0.00810885784719817 0.027899650927168 0.000116302367384954 0.02000753 -0.5577384 0.8297756 93 93 93
0.00615160862302178 0.0267208749248783 -0.000450632400039244 0.02871977 -0.5614457 0.827015 77 77 77
0.0121876921228554 0.0339557633404264 0.00367000871651151 0.02172611 -0.5414937 0.8404241 86 86 86
0.00952769026320288 0.0321440373546387 0.00273399515718582 0.02481717 -0.526665 0.8497106 106 106 106
0.00510436294669869 0.0298884258036296 0.00197257541517505 0.02599037 -0.5454314 0.8377524 52 52 52
0.00556467568634478 0.0305036333369433 0.00218080351378576 0.02210191 -0.5443055 0.8385959 39 39 39
0.00314936722922043 0.030397893761096 0.00231598601846526 0.02571898 -0.544374 0.8384483 84 84 84
0.0055806900037032 0.0325568018021736 0.00345436549147569 0.02549933 -0.5373603 0.8429672 72 72 72
0.00925316786984176 0.0379611628107656 0.00630653715520048 0.00605173 -0.5558851 0.8312371 75 75 75
0.00666361129543391 0.0350138140039304 0.00489878197167602 0.01959639 -0.529633 0.8480005 81 81 81
0.0134997724416768 0.0390147141021057 0.0223003782917755 -0.2291886 -0.7916893 -0.5663044 41 41 41
0.00724069543484029 0.0369834455402329 0.00608910803662187 0.01087698 -0.5546654 0.8320023 94 94 94
0.00513017628269008 0.0346917376618116 0.00459071981996513 0.01414406 -0.5270095 0.8497417 90 90 90
0.00524779477514503 0.0363945364200003 0.00604421580574048 0.01432481 -0.5443861 0.8387125 87 87 87
0.0033897707134849 0.0326284478242197 0.0038381626692363 0.03029023 -0.5402648 0.8409497 114 114 114
0.00688810821187946 0.0118844085885765 -0.00974966008434565 0.02602887 -0.5313033 0.8467817 68 68 68
0.00371816045720541 0.010960253632494 -0.0101372087566036 0.03914296 -0.5411557 0.8400109 146 146 146
0.00930101345462298 0.0132435016397039 -0.0091572280521638 0.02285469 -0.5290427 0.8482874 51 51 51
0.0094272434466296 0.0163844569829492 -0.00722746742218157 0.0265249 -0.5531479 0.8326607 79 79 79
0.00785739996452728 0.0157075986353011 -0.00770087711147256 0.01901949 -0.5378602 0.8428195 52 52 52
0.00591746718815767 0.0145705014709195 -0.00815167153971398 0.02398713 -0.528026 0.8488894 96 96 96
0.00446378100652911 0.0133497274948478 -0.00854503271366198 0.03249066 -0.5408069 0.8405191 94 94 94
0.00376151404293346 0.0119796396034627 -0.00945911355590805 0.03965655 -0.536483 0.8429788 110 110 110
0.0028198115771807 0.0154527772204551 -0.00726849117141655 0.01470658 -0.5469803 0.8370163 106 106 106
0.00274361539576162 0.0129631133713901 -0.0087725902906836 0.03972041 -0.5441291 0.8380607 151 151 151
0.00274088898611025 0.0143355102312848 -0.0077938675067291 0.02114549 -0.5490398 0.8355287 95 95 95
0.00748313790856825 0.0193802929954222 -0.00500698133690673 0.03367934 -0.54316 0.8389535 45 45 45
0.00623518444456739 0.0196663395632551 -0.00489399715560619 0.0248355 -0.5440286 0.838699 74 74 74
0.00556567785145434 0.0195553470784811 -0.00472234651649024 0.02030419 -0.5346649 0.8448202 98 98 98
0.00600514182750889 0.0211709295994669 -0.00396693538878402 0.02647021 -0.5425745 0.8395905 116 116 116
0.00218931258100463 0.0182324624655347 -0.0055509809900476 0.02312595 -0.5398344 0.8414535 144 144 144
0.000501718829499342 0.0160821957150087 -0.00661116550240422 0.03463738 -0.5527561 0.8326229 215 215 215
0.000614861394357291 0.0175296739634085 -0.00506460241500602 0.02897288 -0.5503064 0.83446 234 234 234
-0.00141647850720217 0.00797037506100706 -0.0116924900277858 0.01237073 -0.5284739 0.8488594 148 148 148
-0.00669880715064286 0.00547105573490247 -0.0126653442824204 0.02879547 -0.5463011 0.8370937 99 99 99
-0.00453958545594402 0.00941908030105998 -0.0105689036652758 0.01987596 -0.5178782 0.8552234 114 114 114
-0.00633897655716487 0.0100836410778972 -0.00985040774847386 0.03807856 -0.5170329 0.8551182 126 126 126
-0.00832454699644236 0.00710284690675533 -0.0115213520684824 0.04368968 -0.5421363 0.839154 111 111 111
-0.00444214749077254 0.0163713004837257 -0.00627992451265653 0.03739351 -0.5602217 0.8274983 155 155 155
-0.00315675592533182 0.0184685043164188 -0.0050476672218422 0.04188251 -0.5502784 0.8339302 145 145 145
-0.00495549279821672 0.0175031447880362 -0.00521360794965316 0.03264322 -0.5503207 0.8343151 120 120 120
-0.00463794491807912 0.0152341022378498 -0.00672244342843976 0.0262778 -0.5538638 0.8321925 145 145 145
-0.00864387892981533 0.00983036504441603 -0.00971695820607278 0.03114942 -0.5177373 0.8549724 85 85 85
-0.0102905115734275 0.0108818685862028 -0.00928024677661941 0.03002259 -0.518449 0.8545814 220 220 220
-0.00891833098870265 0.0131074932021346 -0.00784773329707951 0.02156303 -0.5331209 0.8457642 226 226 226
-0.0125971278356833 0.0145658970156892 -0.0068324968106384 0.03293669 -0.5316581 0.8463184 134 134 134
0.00520995109575839 0.0233702777657354 -0.002491612644708 0.01489461 -0.5341038 0.8452877 91 91 91
0.00233358369197134 0.0235292991077373 -0.00186532827064449 0.005892063 -0.5375453 0.8432143 99 99 99
0.00309629398003253 0.0254397897825793 -0.00158059278167312 0.006535134 -0.5402431 0.8414836 75 75 75
0.00476341336333963 0.0262405014557334 -0.00045380512623748 0.01524152 -0.553066 0.832998 122 122 122
0.0029663620000453 0.0264456813629291 -0.000169846639486756 0.01241198 -0.546118 0.8376163 89 89 89
0.000649153100215294 0.0251722835060109 -0.000700200784132646 0.02594435 -0.5417013 0.8401706 194 194 194
0.00204787014158203 0.0277473838560728 0.000655659743901263 0.0254467 -0.5518329 0.8335664 66 66 66
-0.00101719207144457 0.0219847592556829 -0.00269725889653689 0.03563911 -0.5398384 0.8410138 229 229 229
-0.00277924609221492 0.0214679406456414 -0.0028549637408536 0.03309212 -0.5570283 0.829834 195 195 195
-0.00425972775653705 0.0233082201939443 -0.00176062067954892 0.03926012 -0.555073 0.8308746 210 210 210
-0.00313959246671747 0.0253114331976251 -0.000569353947612303 0.05189977 -0.5388783 0.8407833 223 223 223
-0.00466520578529428 0.0249604384153443 -0.000621901617273282 0.04536308 -0.536186 0.84288 223 223 223
-0.00233000469857059 0.0285181548664882 0.00134818256571144 0.03918667 -0.5494104 0.8346332 239 239 239
-0.00146836237474934 0.0334768682895761 0.00455261913127285 0.0583719 -0.5372826 0.8413799 220 220 220
-0.00161259286529347 0.0298791477517578 0.00239812158051404 0.03986567 -0.5485559 0.8351629 231 231 231
-0.00405223656215448 0.0305396913291763 0.00287672443450597 0.02865442 -0.5464901 0.8369752 228 228 228
-0.00454897925594544 0.0293870993474713 0.00210127456997337 0.03022594 -0.5483713 0.8356885 224 224 224
-0.00664690554261327 0.0305869860261319 0.00329343069157335 -0.009495099 -0.5444625 0.8387315 145 145 145
-0.00677202037399649 0.0280172964027562 0.00136648620690323 0.01818349 -0.5504264 0.8346856 213 213 213
-0.00691757494698519 0.0289314593720802 0.00175134391789132 0.0007997662 -0.5532691 0.8330022 209 209 209
-0.00658346006342736 0.028972004704408 0.00188613441307343 0.0119303 -0.5484179 0.8361194 218 218 218
-0.00487550533193648 0.0202977835326661 -0.00365847295022094 0.02872583 -0.5522972 0.8331522 141 141 141
-0.00679903929666947 0.0175377738386239 -0.00525711309507206 0.02808476 -0.5456931 0.8375143 229 229 229
-0.00617647693666656 0.0223226968078313 -0.00212848914167353 0.02719535 -0.5497183 0.8349073 211 211 211
-0.00696059142073402 0.0236381886454063 -0.00132822433401177 0.0321839 -0.5432772 0.8389363 220 220 220
-0.00911598546895709 0.0168546889815564 -0.005705692773411 0.03282468 -0.5505099 0.834183 223 223 223
-0.00989024922903248 0.0167000326148805 -0.00545626237507442 0.03911857 -0.5500451 0.8342183 202 202 202
-0.0102988323310367 0.0180476224413119 -0.00462262094530043 0.0391079 -0.559994 0.8275731 173 173 173
-0.0134252274120792 0.0159251672223486 -0.00580692628743477 0.0347441 -0.5333574 0.8451762 129 129 129
-0.0114373284335363 0.0199019159035762 -0.00341672758473176 0.04089517 -0.5537552 0.8316747 119 119 119
-0.0152672321733709 0.0175339374146798 -0.00484816785420671 0.04130878 -0.5455212 0.8370784 235 235 235
-0.00862001289005399 0.0240701486788494 -0.000796940329516563 0.03155514 -0.5408254 0.8405428 172 172 172
-0.0083762630756512 0.0253252724562759 -8.83920517046471E-05 0.02774292 -0.540599 0.8408228 169 169 169
-0.0143794078221302 0.0243852014499149 -0.000282278762402569 0.03505224 -0.5475184 0.8360592 224 224 224
-0.0179900394193608 0.0226404165544355 -0.00127847794880982 0.01906254 -0.5480376 0.8362364 197 197 197
-0.0088635945176736 0.0279755514904941 0.00163566851642559 -0.01528168 -0.5567899 0.8305128 125 125 125
-0.0119157991966659 0.0267422655286649 0.00118576679976311 0.0239816 -0.5741304 0.8184125 95 95 95
-0.0134022258450686 0.0251916426798455 7.06942016584361E-05 0.04589248 -0.5545138 0.8309082 211 211 211
-0.0160081622784602 0.0242450200821597 -0.000401390971456264 0.02451972 -0.5503844 0.8345513 237 237 237
-0.01668822523831 0.025528972094535 0.000547015643249868 0.02233135 -0.5497022 0.8350621 226 226 226
0.0182612760573551 0.0379841325210403 0.0229974892084591 -0.1998113 -0.8126119 -0.5474827 51 51 51
0.0181047062878608 0.0386461272755144 0.0220981331334664 -0.1910098 -0.8290923 -0.5254725 52 52 52
0.0145937928013637 0.033797212129424 0.0279842707098516 -0.2096042 -0.7914124 -0.5742233 35 35 35
0.0100951566334242 0.0326532999252032 0.0329651965415211 -0.01057966 -0.8655543 -0.5007033 51 51 51
0.0141756763607952 0.0353455138092668 0.0265460465584702 -0.2315266 -0.7828373 -0.5775476 38 38 38
0.0123352643060266 0.0367096259686172 0.0250221225125899 -0.1773085 -0.7820998 -0.5973957 31 31 31
0.0124326337521716 0.0348367918849192 0.0273335066406353 -0.1428652 -0.8200369 -0.5541922 34 34 34
0.00947593043609629 0.0364126112293571 0.0264260009999808 -0.09362492 -0.8197086 -0.5650771 38 38 38
0.00879448822042228 0.0356474236682065 0.0287744213343414 0.001038346 -0.8729467 -0.4878144 57 57 57
0.00665248048563649 0.0363214359609332 0.0313067163408903 0.08821885 -0.8860399 -0.4551382 85 85 85
0.0136060797250943 0.0399739396407115 0.0204806063620445 -0.1938781 -0.8511931 -0.487731 43 43 43
0.014844266100539 0.0401995899906268 0.0189623190049977 -0.1947827 -0.8605154 -0.4707153 48 48 48
0.0137863282578601 0.0401370594228193 0.0193411046473952 -0.1837398 -0.8695748 -0.4583442 61 61 61
0.00937568345489082 0.0413990987219806 0.0191024102987171 -0.1181544 -0.8356729 -0.5363678 45 45 45
0.0195754761348597 0.0434845469559713 0.0116296079558057 -0.1016788 -0.8978185 0.4284662 20 20 20
0.0173679727460336 0.0427178268523069 0.00891955737990506 0.01683862 -0.7103387 0.7036586 129 129 129
0.0160052641487756 0.042464664468197 0.00888889619360082 -0.002517358 -0.6563225 0.7544763 91 91 91
0.0115485643413296 0.0421429278810741 0.00907823963295497 0.04866502 -0.6317713 0.7736257 99 99 99
0.0110381463301259 0.0438765161972527 0.0103420950803314 0.01412325 -0.8011008 0.5983628 139 139 139
0.0131603104952527 0.0422715383804422 0.0151798480930564 -0.1027867 -0.9320843 -0.3473525 36 36 36
0.00746898927307704 0.0422929215676021 0.0179102443116444 -0.08396102 -0.8695855 -0.4865918 36 36 36
0.00921098804053067 0.0440033943475474 0.014618470566553 -0.04253575 -0.9699246 -0.2396603 45 45 45
0.00781200866091769 0.0455632194649119 0.014691503539939 0.05748779 -0.9811051 -0.1847376 27 27 27
0.0100335035225574 0.0396294552125888 0.00753713800646873 0.01226657 -0.560655 0.8279586 91 91 91
0.00828163343041588 0.0388866617572508 0.00720765897375809 0.007214436 -0.553381 0.832897 84 84 84
0.00635389360576033 0.0376954070803769 0.00655182459674249 0.01877034 -0.5569555 0.8303302 78 78 78
0.00797444682148418 0.0402986416838751 0.00821138902037837 0.0005841765 -0.5583423 0.8296105 92 92 92
0.00692654630675049 0.041255030384745 0.00913254748444121 0.007476688 -0.556945 0.8305157 85 85 85
0.00788763605314236 0.0428218841943412 0.00982857621797346 0.005002819 -0.6239712 0.7814313 98 98 98
0.00491112688059436 0.0382187287358459 0.00737669533241607 0.01430027 -0.5561103 0.8309855 103 103 103
0.00347213200162466 0.0360439256180518 0.00578570884926392 0.02990293 -0.5460255 0.8372347 92 92 92
0.00211699087179218 0.0361308111047567 0.00586154885692809 0.03966026 -0.5410897 0.8400292 151 151 151
0.000889778708391464 0.0367575348072846 0.00643309127830514 0.05100249 -0.5406036 0.83973 186 186 186
0.000708541647653327 0.0410482272891944 0.00912619097618671 0.05266942 -0.5650741 0.8233572 124 124 124
-0.000398415219774684 0.0392082662730806 0.00805036758428883 0.07182277 -0.5522667 0.8305678 107 107 107
0.00959186729356842 0.0403964919646767 0.0206787138886089 -0.160288 -0.8252965 -0.5414734 31 31 31
0.000786735383077275 0.0403572350787237 0.0262796304555723 0.1481688 -0.8607256 -0.4870292 88 88 88
0.00134587804986541 0.0415986426341063 0.0242276323465781 0.1188833 -0.8302922 -0.5445012 55 55 55
-7.77785779573215E-05 0.0410462543162335 0.027084061386338 0.16389 -0.8561779 -0.4899995 73 73 73
-0.00149967122489114 0.0345821587285425 0.00515035784353461 0.05770558 -0.5377153 0.8411494 157 157 157
-0.00456411267024404 0.0341084802756002 0.00507441364912263 0.0245776 -0.5226083 0.8522186 173 173 173
-0.00314456866696 0.0394963979250239 0.00829001228170163 0.01939098 -0.5498023 0.8350697 177 177 177
-0.00576095478108973 0.0310725981884374 0.00338926584099215 0.007199442 -0.5485803 0.8360668 187 187 187
-0.00719536354572803 0.032076334377644 0.00404892182994525 -0.01321279 -0.5345467 0.8450357 97 97 97
-0.00863448197925853 0.0310774078814015 0.00398338735119992 -0.02320877 -0.5440341 0.8387421 87 87 87
-0.0093597541412298 0.0358770207286903 0.00663888341914425 0.009993843 -0.5297437 0.8480989 149 149 149
-0.00932168047550297 0.0322120092825527 0.00469538799616746 0.002405437 -0.5291229 0.8485418 78 78 78
-0.00484979736581215 0.038286654993208 0.00781536285203287 0.01053629 -0.5422318 0.8401629 186 186 186
-0.0106110870791318 0.037579177350236 0.00804541757007542 0.02424461 -0.5437784 0.8388786 138 138 138
-0.0119330153570036 0.0350486846870358 0.00643769712651975 0.04853891 -0.5235413 0.8506166 110 110 110
-0.0121984937316175 0.036399880911904 0.00748509947525815 0.03896739 -0.535858 0.8434084 123 123 123
-0.012649026267689 0.0295467802563352 0.00324399864757678 0.05865383 -0.5778023 0.8140665 116 116 116
-0.0117490761057475 0.0308666535664843 0.0040371859584528 0.04623439 -0.5597323 0.8273827 96 96 96
-0.0130610727881066 0.0303303311250741 0.00403751937176354 0.05829243 -0.5668383 0.8217642 115 115 115
-0.0125886026269284 0.0316826881781603 0.00463097529440624 0.06011848 -0.5514863 0.8320148 108 108 108
-0.014312811784464 0.0313652151922897 0.00417649084363721 0.07095876 -0.5569323 0.8275211 153 153 153
-0.0188641427970007 0.0294080965024245 0.00336955277558341 0.01985828 -0.5448267 0.8383135 115 115 115
-0.0213117523260005 0.0279708660932432 0.00258749086201752 0.01707547 -0.5378995 0.842836 133 133 133
-0.0154433678319825 0.0330465375773923 0.00534189203268769 0.06978067 -0.5514433 0.8312888 199 199 199
-0.0168801606370472 0.032523825166962 0.00517287345858684 0.04775241 -0.5501612 0.833692 234 234 234
-0.0204645315009913 0.031276542484617 0.00454133510882442 0.01488852 -0.5436133 0.8392037 129 129 129
-0.021762735549673 0.0308460599527475 0.00450483233777714 0.02182723 -0.5470396 0.8368222 152 152 152
0.00660874258483179 0.0461399831457608 0.014341003399971 0.1323835 -0.984104 0.1183802 47 47 47
0.00261373996367897 0.0439599212075971 0.0110843708925474 0.05538352 -0.5511847 0.8325431 99 99 99
0.00168266287112306 0.0464262284467869 0.0124228804172126 0.06683976 -0.58881 0.8055031 94 94 94
-0.000472225608068477 0.043179478082753 0.0106404568970511 0.0410292 -0.5604439 0.8271754 124 124 124
-0.00173942653163772 0.0446446484799266 0.0115725141919899 0.01618947 -0.5598015 0.8284686 127 127 127
-0.00112960286613362 0.0454323902226632 0.0119303446927438 0.004702594 -0.5621233 0.8270401 131 131 131
-0.00231046746269659 0.0451214941796571 0.0122204242279605 0.006422627 -0.5671272 0.8236052 114 114 114
-0.00334953601121679 0.0435670630176526 0.0111054190675406 0.003074823 -0.5580488 0.8298025 148 148 148
-0.00503094044237207 0.0425694983182359 0.0104087504839094 -0.007258375 -0.555905 0.8312141 156 156 156
0.000384333509672707 0.0478710453538571 0.0136982771602279 0.04983265 -0.5939885 0.8029286 110 110 110
-0.00193655440121177 0.0491023515708322 0.0144454425418475 -0.0196858 -0.5492405 0.8354324 71 71 71
-0.00683740714179182 0.0454543980756743 0.0128485537824261 -0.01807107 -0.5677264 0.8230189 142 142 142
-0.00441411829473148 0.0485617099245151 0.0146447299680102 -0.04323182 -0.5693465 0.8209602 101 101 101
-0.00536693189608606 0.0477414124422102 0.0141717049114345 -0.0270693 -0.5519643 0.8334283 90 90 90
-0.00717100549867045 0.049410936668261 0.0157619599870293 -0.1020769 -0.8057613 0.5833772 78 78 78
-0.00927989078482927 0.0496747466055611 0.0195057720543628 -0.01543508 -0.9994184 0.03040869 68 68 68
-0.00902794461588474 0.0505689791520536 0.0178321352185777 -0.07836346 -0.9703817 0.2285136 51 51 51
-0.00736012627601212 0.0385574494741604 0.00831336756509889 0.001866708 -0.5410808 0.8409685 125 125 125
-0.00833934675027415 0.0395894149428816 0.00893495707995844 0.003891187 -0.5479576 0.8364971 156 156 156
-0.0101214689795484 0.0398301764876083 0.00945728425687127 0.02667441 -0.5471517 0.8366083 136 136 136
-0.00911570695820929 0.0389584397645449 0.00864369511701489 0.005993321 -0.5398449 0.8417432 95 95 95
-0.012042131206595 0.0390027763682873 0.00894360216547978 0.03235539 -0.5490302 0.8351761 106 106 106
-0.0160629914228232 0.0358410755242353 0.00709044977593963 0.04172235 -0.5499626 0.8341465 238 238 238
-0.0173130976931022 0.0363341031283838 0.00757037271412557 0.03167156 -0.5463056 0.8369869 236 236 236
-0.018345177952682 0.037672259390788 0.00845193103942572 0.03815634 -0.5502232 0.8341454 195 195 195
-0.0204300485734605 0.0338966603103337 0.00617388905032455 0.03174255 -0.5409437 0.8404596 204 204 204
-0.0220693690029816 0.0329539762525133 0.00576210848488327 0.02520719 -0.5357335 0.8440108 231 231 231
-0.0100665944492531 0.04284274473634 0.0113016057193474 0.02703454 -0.5801393 0.8140685 91 91 91
-0.0104982271217104 0.0443127071260344 0.0124267061309548 0.05571825 -0.5818676 0.8113727 76 76 76
-0.0115884466489762 0.0459927852149326 0.0134632563505272 0.07483824 -0.5768468 0.8134168 45 45 45
-0.013079870334507 0.0452150764899077 0.0128497528663486 0.05820513 -0.5622817 0.8248948 96 96 96
-0.0146900000676062 0.0396691494595802 0.00961547132467326 0.04376935 -0.5446925 0.8374928 88 88 88
-0.0115167474891287 0.0424393188388147 0.0110778313503161 0.04048644 -0.5638628 0.8248755 48 48 48
-0.0157084828394418 0.0417968177417597 0.0110202158064147 0.02767253 -0.5470709 0.8366287 112 112 112
-0.0148648936886704 0.0433962798404732 0.0119639026528346 0.02905101 -0.5521629 0.83323 123 123 123
-0.016788266877596 0.0424005669925298 0.0112839265865286 0.02328082 -0.5529691 0.8328764 136 136 136
-0.0107834121419486 0.0474712793327176 0.014728751188325 0.01217871 -0.6889856 0.7246727 85 85 85
-0.0102538397455687 0.049841327417619 0.0160967734482129 -0.01621912 -0.8867202 0.4620219 114 114 114
-0.0122882757698823 0.0499545919837696 0.0159078799546033 0.1050989 -0.7210314 0.6848853 97 97 97
-0.0159096957368994 0.0499347128231038 0.0159675747998998 0.04820067 -0.5926375 0.8040258 134 134 134
-0.0153888543591525 0.048517294786414 0.0151809282110904 0.05184719 -0.5435645 0.8377646 86 86 86
-0.0183491091070951 0.0447011570022871 0.0130761150368665 0.01732019 -0.5514401 0.8340347 119 119 119
-0.0177124591806659 0.0506907399848193 0.0167761714267684 0.03987204 -0.585467 0.8097152 79 79 79
-0.0177828864807017 0.0394031988486564 0.00942401163228111 0.03522338 -0.5414522 0.8399934 128 128 128
-0.0197519100743477 0.0398017940490611 0.00994866546665828 0.02266936 -0.5458017 0.8376077 131 131 131
-0.0205605421538912 0.0411043349890491 0.0107752842466134 0.01582634 -0.5506434 0.8345905 117 117 117
-0.0202135015814613 0.0417566516650469 0.0112304128521205 0.01533254 -0.5431293 0.8395091 108 108 108
-0.021487500469894 0.0404258160665607 0.0104978109043721 0.01568727 -0.5472508 0.8368216 114 114 114
-0.0221021145572333 0.0415818910262568 0.0112249957005674 0.02557618 -0.5434347 0.8390617 107 107 107
-0.0237724740910017 0.0366121933230497 0.00806409553247293 0.009210804 -0.5361163 0.8440939 164 164 164
-0.0263386605678519 0.0365413845836253 0.00838075615173155 0.02264573 -0.5358005 0.8440409 103 103 103
-0.0242247203114325 0.0394413436643485 0.0103468922501771 0.03272033 -0.5438315 0.8385563 114 114 114
-0.0248548078911934 0.038592014613483 0.00991739546215394 0.02649575 -0.5346256 0.8446736 98 98 98
-0.0288589848245389 0.0396798712995912 0.0104529105627301 0.0462602 -0.5461555 0.8364055 133 133 133
-0.0209231191382746 0.0455963775650109 0.0138367341101148 0.02632802 -0.547356 0.8364857 113 113 113
-0.0241374495431099 0.0440320349572958 0.0130366329100352 0.03372322 -0.5483998 0.835536 113 113 113
-0.0219740479695028 0.0469181625782191 0.0148804604845002 0.05069876 -0.536648 0.8422818 143 143 143
-0.0239236597557877 0.0464437426904974 0.0146742694964915 0.04876143 -0.5352004 0.8433166 119 119 119
-0.0244501595470328 0.0455350123209747 0.014081309311003 0.04201901 -0.5402433 0.8404592 99 99 99
-0.0265589077994695 0.0476050211772439 0.0152628700877682 0.03699629 -0.5372651 0.8426016 138 138 138
-0.0265623399052264 0.0433036140257588 0.0127494594497171 0.03879215 -0.5422231 0.8393386 134 134 134
-0.0297978448326033 0.0413022512381612 0.0115054545078885 0.04944384 -0.5453606 0.8367419 130 130 130
-0.0317738436902961 0.0436003820217703 0.0133522673828025 0.04048672 -0.545543 0.8371044 143 143 143
-0.00870314962903462 0.00455600186274907 -0.0130711828203435 0.04014836 -0.5553208 0.8306665 101 101 101
-0.00949203638149854 0.00311504192825207 -0.0141566964605977 0.03948773 -0.549768 0.8343835 123 123 123
-0.0122199102870439 0.00267946097237548 -0.0140706831549402 0.05447996 -0.5516894 0.8322684 222 222 222
-0.0138285382409911 0.00237125420351181 -0.0142667102439583 0.05054819 -0.5480382 0.8349246 206 206 206
-0.0133276182733906 0.00130873937547449 -0.0149694105882651 0.04090597 -0.5498272 0.8342762 211 211 211
-0.0171350137698831 -0.000618638462626553 -0.0160690639418192 0.02699185 -0.5519456 0.8334431 92 92 92
-0.011055467822862 0.00527332336818764 -0.0125493063649767 0.05066442 -0.5532011 0.8315057 217 217 217
-0.0122579235969242 0.00556803120328897 -0.0124756458301679 0.0498156 -0.5554879 0.830031 222 222 222
-0.0166828110849861 0.00362184877428628 -0.0135116282202538 0.02729387 -0.5398963 0.8412889 97 97 97
-0.0156608023120133 0.00562448410094962 -0.0122004681324381 0.03989392 -0.5497958 0.8343459 111 111 111
-0.0182976628978504 0.0020539872250066 -0.0139260215948602 0.02819425 -0.5411717 0.8404393 63 63 63
-0.0118432269076436 0.00962825201375528 -0.00973194100118581 0.03906466 -0.5381967 0.8419135 198 198 198
-0.012879246296285 0.0111374574982847 -0.00841948661266319 0.03690252 -0.5341013 0.8446147 83 83 83
-0.0140472393551581 0.0129756909061695 -0.00740481590490845 0.04497157 -0.5248353 0.850015 123 123 123
-0.0177583276460487 0.00898291260836059 -0.0100085623578784 0.05291034 -0.5523303 0.8319446 227 227 227
-0.0205766293588545 -0.00126290621882263 -0.0161989548399423 0.0244885 -0.5507004 0.8343437 104 104 104
-0.0224875524100607 -0.00223321381158303 -0.0165729011635527 0.0257709 -0.5487767 0.8355716 124 124 124
-0.0239504208137564 -0.00322350109857306 -0.0173687218736033 0.02288573 -0.5426358 0.8396562 114 114 114
-0.0265361083160132 -0.00350322752902921 -0.0171100091005004 0.04033463 -0.5421124 0.8393374 89 89 89
