ply
format ascii 1.0
comment File exported by Rhinoceros Version 7.0
element vertex 483
property float x
property float y
property float z
property float nx
property float ny
property float nz
property uchar red
property uchar green
property uchar blue
end_header
0.0407438842794372 -0.00697500338347479 0.0119317389484909 -0.02709823 0.09517042 0.9950921 78 78 78
0.039395865633197 -0.00937647452147528 0.0149450815674332 -0.1061117 0.4291119 0.8969969 20 20 20
0.038895901872821 -0.0116675578573517 0.0162639237400559 -0.08399544 0.1808852 0.9799109 26 26 26
0.0425611106893493 -0.00858516325743719 0.0134729064461258 -0.002139712 0.4764252 0.8792124 55 55 55
0.0456894008657409 -0.00869567026885076 0.0136385477539566 0.07244275 0.3722041 0.9253195 56 56 56
0.0451188652059509 -0.0114191256979279 0.0165920771118668 0.1427745 0.1799063 0.9732673 72 72 72
0.0475295154592468 -0.0133927546957306 0.010781607722905 0.5227121 -0.7447257 0.4149165 84 84 84
0.0488637058278991 -0.0128178082922272 0.0105515635963944 0.3098282 -0.7995343 0.51454 116 116 116
0.0516701309225036 -0.0137838803747468 0.00956245431866914 0.05067722 -0.9154436 0.3992428 126 126 126
0.0573747722646667 -0.0126337491491608 0.0103675640579727 0.1694991 -0.8034525 0.5707312 137 137 137
0.0499065486928894 -0.00915259947569891 0.0146690524574783 0.02034198 0.1413833 0.9897459 28 28 28
0.0531538097402526 -0.00936729540617987 0.0145885265823868 0.03781833 -0.03815984 0.9985558 47 47 47
0.0492961971303894 -0.00689227213652654 0.0126356101986435 0.03237739 0.3388872 0.9402697 31 31 31
0.0510259239217712 -0.0073661290624909 0.012989870404866 0.02666887 0.1927256 0.9808902 13 13 13
0.053004321291156 -0.00778014292510076 0.0133579290863541 0.0455068 0.103678 0.9935693 10 10 10
0.0508881179830505 -0.00826317896636053 0.0137489355560806 0.0880679 0.2708977 0.9585711 26 26 26
0.0475986568471862 -0.0109660111883454 0.0160952127930191 0.340387 -0.1108042 0.9337339 110 110 110
0.0472996799489929 -0.0100113831976227 0.0159112132545975 0.101628 0.3416457 0.9343179 29 29 29
0.0550008384725524 -0.0114007674673371 0.0130404747482804 0.03201636 -0.5001832 0.8653275 105 105 105
0.0566387741109802 -0.012265630863028 0.0122307754513291 0.1371644 -0.6985111 0.7023305 91 91 91
0.0590768425008728 -0.0107933961370759 0.0136339581963089 -0.05540382 -0.6917053 0.7200515 91 91 91
0.0543385116598083 -0.00817114939482733 0.0141169942375687 0.08472212 0.1166511 0.9895527 20 20 20
0.0145438282033874 -0.00435275664122625 0.0160492278095749 0.058231 -0.2007925 0.9779016 52 52 52
0.0154867736837341 -0.00564093222411199 0.0151750958916214 0.05970816 -0.2154422 0.9746895 91 91 91
0.0130103199026061 -0.00297255148680731 0.0160492278095749 0.05521455 -0.1929446 0.9796549 114 114 114
0.0143137542745544 -0.00186843504698797 0.0158651984688309 0.04607162 -0.1770543 0.9831222 250 250 250
0.0147867767354919 -0.0011783324697785 0.0161740995403793 0.04714688 -0.1607357 0.9858708 233 233 233
0.0175157157918884 -0.0037270270803742 0.0157547808643845 0.003382019 -0.2253596 0.9742697 245 245 245
0.0174880592367126 -0.00093299975188299 0.016524604653981 -0.05273253 -0.1933468 0.9797124 104 104 104
0.0215077964803649 -0.00502557387145086 0.015439651107457 -0.00588298 -0.3537067 0.9353378 240 240 240
0.0237539379140808 -0.00527281393797918 0.015248707627919 0.0175924 -0.3858243 0.9224045 237 237 237
0.0216010181447936 -0.00303692450316473 0.0163804508205918 -0.05066605 -0.3189207 0.9464262 132 132 132
0.0232387153646423 -0.00320262541564031 0.0162792421337631 -0.03341865 -0.378104 0.9251598 241 241 241
0.0213986007711364 -0.00173039068968817 0.0166012860294846 -0.07011485 -0.2757441 0.9586705 65 65 65
0.0229743091604186 -0.00158090224059149 0.0169348038193253 -0.07872592 -0.2857865 0.9550541 138 138 138
0.0157628623983337 0.00404327283112482 0.0169693149086502 0.009912826 -0.2025548 0.9792207 71 71 71
0.0171397296926452 0.00521641144959406 0.0171796298977402 -0.000499848 -0.2213604 0.975192 86 86 86
0.0195122329732849 0.00137501130310969 0.0169348038193253 -0.1197966 -0.1506515 0.9813016 77 77 77
0.0192938415548278 0.00276666054932551 0.0168888188358811 -0.1287176 -0.1467015 0.9807703 78 78 78
0.0207083789846374 0.00277810464112238 0.0172683514114884 -0.1177789 -0.1220349 0.9855129 62 62 62
0.0297484962484313 -0.00476677050383612 0.015980205630925 0.1514084 -0.5690897 0.8082156 31 31 31
0.0292654602071716 -0.00368566145690008 0.0162792719360855 0.07801544 -0.561878 0.8235331 57 57 57
0.0250697700521423 -0.00344175925047918 0.0162700332161453 -0.02574936 -0.4099334 0.9117519 241 241 241
0.0270264713308288 -0.00104028811247869 0.0172146774288681 -0.07475804 -0.287492 0.954861 184 184 184
0.0298405258199645 -0.00523824324400946 0.0147725857254532 0.1858855 -0.4915597 0.8507736 70 70 70
0.0349424449941589 -0.00496000876219793 0.0130312658306626 0.1769763 -0.319459 0.9309272 76 76 76
0.0338659851095153 -0.00435275664122625 0.0141169942375687 0.1832324 -0.5163969 0.8365167 80 80 80
0.0353842346212341 -0.00384659399779363 0.0139444685932663 0.1995293 -0.5496661 0.811206 71 71 71
0.0313127605459167 -0.00189144243987127 0.0173603809830216 0.1019501 -0.538477 0.83645 60 60 60
0.0270479290029479 0.000367454387826482 0.0175582087990311 -0.05157499 -0.1836521 0.9816374 234 234 234
0.0253353683492614 0.00278466115204767 0.0175148166176346 -0.04284162 -0.1154318 0.9923911 230 230 230
0.0270202724477722 0.0022997177621551 0.0175214029308823 -0.05949268 -0.1335908 0.9892493 242 242 242
0.0252054302236511 0.00435381303040461 0.0175673879143265 -0.03928428 -0.0816957 0.9958828 238 238 238
0.012749489977069 0.00604455838410334 0.0176134027000931 0.004093382 -0.2310106 0.9729426 247 247 247
0.0225027172109558 0.00227206120697931 0.018257490491536 -0.09929004 -0.1342826 0.9859563 107 107 107
0.0231927005788757 0.00422721276490168 0.017820409631398 -0.08296333 -0.1023357 0.9912843 155 155 155
0.0326698390981628 -0.00140840639861151 0.0179354465958145 0.1783796 -0.584457 0.7915748 75 75 75
0.0241127578756286 0.00452630887238459 0.0181654609200028 -0.03479844 -0.08433356 0.9958298 207 207 207
0.0250790683767272 0.00365226636139826 0.0178894318100479 -0.02196551 -0.1074675 0.9939659 234 234 234
0.0283914176961853 0.00323813328949885 0.0177974320408371 -0.165162 -0.126026 0.9781815 230 230 230
0.0269420711538269 0.00459533105103449 0.017820409631398 -0.06674552 -0.08900445 0.9937924 242 242 242
0.0315657226583435 0.000677160122079412 0.0182881570812729 -0.05765508 -0.342347 0.937803 73 73 73
0.0351770488759948 0.00137501130310969 0.0185105122086075 0.1316651 -0.387711 0.9123291 88 88 88
0.032991942598529 0.00321512589661554 0.0190625704285172 -0.1141765 -0.2618528 0.9583303 95 95 95
0.0127955047628356 0.00728659997193293 0.0180619574543503 0.0041889 -0.2270216 0.9738807 244 244 244
0.0129702655813171 0.0110407389184661 0.0188371456619766 0.02305398 -0.1868243 0.9821228 140 140 140
0.0155559150716735 0.0104303873559661 0.0188478744980362 0.0178422 -0.1794235 0.9836102 211 211 211
0.0171199409505798 0.0106909788629241 0.0186715341564682 0.01990668 -0.1768323 0.9840397 240 240 240
0.0185461608907653 0.00747065911499933 0.0180734611507919 -0.01631367 -0.2149384 0.9764913 111 111 111
0.0208235351583435 0.00843673119751887 0.0182344830986527 -0.04545812 -0.1777477 0.9830256 84 84 84
0.0228093235036804 0.00639717946259455 0.0183034754749802 -0.0443208 -0.1014371 0.9938542 90 90 90
0.0188682643911315 0.00902336011139826 0.0181309498306778 -0.005762525 -0.2025001 0.9792653 148 148 148
0.0187991230031921 0.0105530537149139 0.0186715341564682 0.008503955 -0.1766954 0.9842288 237 237 237
0.0132556526205017 0.0144634760400482 0.0190088964458969 0.05749232 -0.1816565 0.98168 117 117 117
0.0130103199026061 0.0170550859948821 0.020067027902272 0.1118497 -0.1860907 0.9761454 185 185 185
0.0135775177022888 0.0166947163125701 0.0196836508270767 0.07598897 -0.1700319 0.9825044 172 172 172
0.0152185527822448 0.0152916229745574 0.0192696071621445 0.03854178 -0.1572928 0.9867997 244 244 244
0.023618277742572 0.0126922644159027 0.0190050519463089 -0.02265365 -0.1660993 0.9858488 234 234 234
0.0184081165334655 0.0161886728784271 0.0195686138626602 0.01893333 -0.1675132 0.985688 153 153 153
0.0215366451284362 0.0163727320214935 0.0192465699669388 -0.026244 -0.1958113 0.9802904 81 81 81
0.0251052944204284 0.00874572167603449 0.0184152043816116 -0.02871473 -0.1294067 0.9911758 153 153 153
0.0293574897787048 0.0064585722467132 0.0184184826370743 -0.1765419 -0.04968878 0.9830381 151 151 151
0.0273254482290222 0.00905018220154719 0.018433830833104 -0.05154122 -0.1232618 0.9910348 239 239 239
0.0289204685232116 0.00912695298401789 0.0184644974228409 -0.1112802 -0.1211827 0.9863729 231 231 231
0.0285907356283142 0.0111051119348236 0.0188095487114456 -0.07150786 -0.1614139 0.9842927 244 244 244
0.0345559684774353 0.0065045870324798 0.0197296656128433 -0.08712957 -0.1052089 0.9906258 76 76 76
0.0352769462606384 0.00740938554017023 0.0201283610817459 -0.07866833 -0.0683915 0.9945521 96 96 96
0.0311055748006774 0.00940292248932795 0.0183955050465134 -0.2051987 -0.05348273 0.977258 80 80 80
0.0251248447439147 0.0129124439737029 0.0188949919697312 -0.03032313 -0.1656626 0.9857162 220 220 220
0.0278163520833923 0.0123242653390594 0.0190855778214005 -0.0671185 -0.1667383 0.9837141 238 238 238
0.0255160896322204 0.0156136072656341 0.0197756505962876 -0.03172204 -0.1935778 0.9805719 77 77 77
0.0279543964406921 0.0145094908258148 0.0197296656128433 -0.05351324 -0.1615154 0.9854183 247 247 247
0.0312896339437438 0.0126693762323089 0.019338599538472 -0.1547691 -0.1191226 0.9807428 142 142 142
0.0328538982412292 0.0113351858636566 0.0194306291100052 -0.1751588 -0.08439142 0.9809166 55 55 55
0.0335209934255554 0.0123012579461761 0.0196836508270767 -0.1761211 -0.08735018 0.9804853 41 41 41
0.0350621311208679 0.0126692570230194 0.0203123904224899 -0.1508214 -0.09134921 0.9843314 90 90 90
0.0314276783010436 0.01676373849122 0.0196376360413101 -0.0932615 -0.1246273 0.9878109 179 179 179
0.0369330017110778 -0.00527793993742987 0.012639722919133 0.04298885 -0.1241273 0.9913346 87 87 87
0.0391796199819519 -0.00476677050383612 0.0125988043304947 0.03254925 -0.08705663 0.9956715 68 68 68
0.0388806430837585 -0.00232846369536444 0.0144390381332901 0.1926948 -0.5515412 0.8115855 78 78 78
0.0393314926168395 -0.00141758551390692 0.0149634994026688 0.1860229 -0.5815049 0.7919896 75 75 75
0.0409200756093933 -0.0011323176840119 0.0143623567577866 0.2159165 -0.5309131 0.8194579 61 61 61
0.0417788593313171 -0.0044446670034699 0.0128288484570053 0.01757145 -0.09229273 0.9955769 74 74 74
0.0468855468770935 -0.00453681578429266 0.0125988043304947 0.004156755 -0.1035414 0.9946164 48 48 48
0.0432282058736755 -0.000879236362295588 0.0144850231167343 0.1069918 -0.4516746 0.8857442 65 65 65
0.0472350685140563 -0.00304610361846014 0.0134821153637436 -0.07835887 -0.3006573 0.9505078 61 61 61
0.0454593269369079 -0.00123972525389715 0.0142626679893997 -0.01678428 -0.4264573 0.9043519 53 53 53
0.0381904212972595 -0.000258275173025568 0.0162332273479965 0.26357 -0.6035721 0.7524836 68 68 68
0.0390449134847595 0.000648788311166326 0.0168378866669205 0.279292 -0.5642985 0.7768933 45 45 45
0.0450606910726501 9.44651147551934E-05 0.0147303856369522 0.008011512 -0.4294396 0.90306 55 55 55
0.0473685829183532 -0.000373312137442072 0.015083125924733 -0.05076836 -0.408766 0.911226 38 38 38
0.046701487734027 0.00109892258851008 0.0155201471802262 -0.0341315 -0.4005125 0.9156554 65 65 65
0.0471616355916931 0.00462596783844904 0.0167699671741989 0.02252532 -0.4265829 0.904168 26 26 26
0.0495768157979919 -0.00329465498717352 0.0132428921219376 -0.02510431 -0.2384751 0.9708241 68 68 68
0.0512407390615417 -0.00527281393797918 0.0124607897755173 -0.0251515 0.02032453 0.999477 51 51 51
0.0543385116598083 -0.00591690172942205 0.0124148047920731 0.002476661 0.0928719 0.995675 51 51 51
0.0562706558248474 -0.00439877142699285 0.0125528193470505 -0.0957191 -0.1444104 0.9848774 52 52 52
0.053234395219989 -0.0027424775579743 0.0138409651276138 -0.006269474 -0.3230944 0.946346 37 37 37
0.0535562603017761 -0.00260455240996404 0.0141169942375687 0.009875406 -0.3187812 0.9477769 37 37 37
0.058478888704486 -0.00373167624266668 0.0127828336712387 -0.2944913 -0.2065321 0.9330699 73 73 73
0.0493007270833923 8.68357202239434E-05 0.0152441180702713 -0.1000137 -0.4310797 0.8967538 60 60 60
0.0487256614705993 0.000615886547250311 0.0159112132545975 -0.1011813 -0.4064466 0.9080548 58 58 58
0.0490017501851989 0.00466435322968439 0.0168773151394394 -0.05425788 -0.3859277 0.9209321 36 36 36
0.0510628788015319 0.00492196450440363 0.0173741794582871 -0.06683031 -0.3312293 0.9411806 55 55 55
0.0546143619558288 -0.000718303821402033 0.0160032130238083 0.01890329 -0.4864073 0.8735277 30 30 30
0.0533722011587097 0.0048254049798675 0.0171533442493942 -0.02838101 -0.3220207 0.9463071 41 41 41
0.0543385116598083 0.00438826451508478 0.0176134027000931 0.001585852 -0.3226487 0.9465175 60 60 60
0.0576508609792663 0.00454168687073664 0.0171686924454239 -0.282517 -0.273854 0.9193411 22 22 22
0.0432050792715026 0.00535445580689387 0.0177054024693039 0.2166778 -0.4579894 0.8621464 69 69 69
0.0510950653097106 0.00606756577698664 0.0176594174858597 -0.0409123 -0.3403859 0.9393954 51 51 51
0.0569606391927673 0.0065045870324798 0.0173373735901383 -0.0956104 -0.3059766 0.9472259 52 52 52
0.0373623935720397 0.00492887864319758 0.0196031249519852 0.1337516 -0.2941787 0.9463453 80 80 80
0.0393775074026061 0.0028424776574798 0.0183586991783646 0.2772612 -0.4585848 0.8442904 50 50 50
0.0411348907491638 0.00476293931214289 0.0188292480465439 0.2634279 -0.4286873 0.864195 51 51 51
0.0428715316793395 0.00488286385743097 0.0183034754749802 0.2098459 -0.4587373 0.8634378 55 55 55
0.0554426280996276 0.00448029408661799 0.0181654609200028 0.01259085 -0.3228074 0.9463809 22 22 22
0.0371966926595642 0.00660579571930842 0.020097694492009 0.02908175 -0.1553256 0.9874352 76 76 76
0.0380063621541931 0.00681131253449396 0.0197449840065506 0.1092853 -0.1681674 0.9796818 63 63 63
0.0369482605001403 0.00530844102112726 0.0200516797062424 0.07218771 -0.2280298 0.9709744 120 120 120
0.0370863048574401 0.00915449032990412 0.0204105294701126 -0.05612131 -0.08467689 0.9948267 77 77 77
0.0449762908956481 0.00686114201752619 0.0183724976536301 0.1628382 -0.4433483 0.8814341 56 56 56
0.0432050792715026 0.0103843725701995 0.0202663756367233 0.04516946 -0.2860051 0.9571629 61 61 61
0.0393980114004089 0.0114270962259002 0.0204427159782913 -0.02348831 -0.1225905 0.9921793 82 82 82
0.0372703640005065 0.0146843708535858 0.0207325733658341 -0.08907172 -0.1116167 0.9897515 58 58 58
0.0391719905874206 0.0145555056115814 0.0205270863529709 -0.06871415 -0.1086408 0.9917033 52 52 52
0.0409048168203308 0.0146475351831146 0.0207877672668961 -0.05924896 -0.1380939 0.9886454 65 65 65
0.0398581592580749 0.0166256941339202 0.0207762635704544 -0.09380209 -0.1364681 0.9861935 43 43 43
0.0413189498922302 0.0164762056848236 0.0209257818218735 -0.08219749 -0.1381975 0.9869879 65 65 65
0.0453212825796081 0.0129529751321502 0.0207801080700424 0.01955027 -0.2412761 0.9702595 35 35 35
0.0501978961965515 0.00659661660401301 0.0179814315792587 -0.04645872 -0.3836265 0.922319 27 27 27
0.05185419006557 0.00687258610932306 0.0181194461342362 -0.04723639 -0.3305153 0.9426178 21 21 21
0.0512674419424011 0.00827579865662531 0.0186370230671433 -0.02651226 -0.3478673 0.9371688 37 37 37
0.0492547122976257 0.0110360897561737 0.0196836508270767 0.05088525 -0.3746701 0.9257608 68 68 68
0.0509646503469421 0.011074475147409 0.0196529842373398 0.02090568 -0.3588635 0.9331559 55 55 55
0.0530503360769226 0.0111203707238861 0.0196836508270767 0.01424673 -0.3268764 0.9449597 58 58 58
0.0545223323842956 0.00696461568085627 0.0181654609200028 0.01312518 -0.3394915 0.9405175 15 15 15
0.0568883983632995 0.00680690179078058 0.0182509041782883 -0.09308753 -0.2944358 0.9511268 31 31 31
0.0560405818960144 0.00825279126374201 0.0188095487114456 -0.002149126 -0.3217117 0.9468352 59 59 59
0.0568225948354675 0.0107371128579803 0.0195916212555435 -0.09274465 -0.3354227 0.9374914 51 51 51
0.0488408176443054 0.0127153910180755 0.0204657233711746 0.04250746 -0.3272744 0.9439728 79 79 79
0.0508878795644714 0.0127842939874359 0.0198676801678208 0.05199919 -0.3214887 0.9454846 57 57 57
0.0514476863882019 0.0148776091119476 0.0209487892147568 0.05351532 -0.2601802 0.9640759 59 59 59
0.047736701204486 0.0166028059503265 0.0216388619896439 -0.003925648 -0.2224376 0.974939 47 47 47
0.0495999424001647 0.0158896959802337 0.0218919135090378 0.03047062 -0.2282443 0.9731269 79 79 79
0.0585017768880798 0.0130603827020355 0.0200517095085648 -0.003124275 -0.1897728 0.9818231 53 53 53
0.0553351013204528 0.0169171608468719 0.0211098111626175 0.09491445 -0.1525925 0.9837209 72 72 72
0.0594680873891784 0.0149541414758392 0.0209334410187271 0.07590218 0.04156696 0.9962485 54 54 54
0.0594633190175964 0.0167362011453338 0.0207325733658341 0.3915804 0.1410386 0.9092705 75 75 75
0.0610321132680847 -0.0132317029455475 0.00852733025517732 0.1648774 -0.9621091 0.2171672 130 130 130
0.0656097499868347 -0.0127256595114045 0.0101145125385788 0.5185359 -0.8490373 0.1012728 100 100 100
0.0683701602956726 -0.00968927969725653 0.00758423576321871 0.8578554 -0.4405784 -0.2645274 94 94 94
0.0678179828664733 -0.00748104681761785 0.00615804562535555 0.8443541 -0.1884621 -0.5015458 78 78 78
0.066253718568988 -0.012265630863028 0.00960846910443575 0.6229175 -0.7774655 0.08672494 113 113 113
0.0673273174306823 -0.0111921512106232 0.00965448389020235 0.7823439 -0.6228049 -0.007218007 104 104 104
0.0670204727193786 -0.0109161817053132 0.0102985418793228 0.7375573 -0.6674939 0.1022794 114 114 114
0.0697041122457458 -0.00675649275572821 0.0106205857750443 0.9079618 -0.3370757 -0.2489686 81 81 81
0.0694051353475524 -0.00872320761473699 0.0109311259743241 0.8213561 -0.5524709 -0.1419514 98 98 98
0.0610857574483825 -0.00932128062041326 0.0145923710819748 -0.1354962 -0.5370668 0.8325863 63 63 63
0.0651267139455749 -0.0104714118459992 0.014140001630452 0.06642201 -0.8193206 0.5694751 114 114 114
0.0589850513479186 -0.00863117804320379 0.0142089940067795 -0.2779418 -0.1479404 0.9491375 9 9 9
0.0634382335683776 -0.00941331019194647 0.0154235578533676 -0.1123694 -0.6982853 0.7069447 104 104 104
0.0650423137685729 -0.00955135454924627 0.0149757481571701 0.0061197 -0.7809857 0.624519 106 106 106
0.0631254283925964 -0.00714368452818914 0.0171993590351608 -0.2425083 -0.6069239 0.7568574 85 85 85
0.0668058959981872 -0.0104253970602326 0.012483826970723 0.5143386 -0.8016351 0.3046917 115 115 115
0.0675418941518737 -0.00929827322752996 0.0148300744053391 0.3910273 -0.7990699 0.4567111 100 100 100
0.0691061584493591 -0.00858516325743719 0.0125988043304947 0.6900737 -0.721474 -0.05721479 107 107 107
0.0706704227468444 -0.00872320761473699 0.014899096583989 0.6942281 -0.7105665 0.1146416 89 89 89
0.0695663063070251 -0.00835520853789373 0.0160032130238083 0.4886065 -0.7721195 0.4063191 117 117 117
0.0696120826742126 -0.00738901724608465 0.0168865240570572 0.4429053 -0.6951532 0.5662128 117 117 117
0.0689068405172302 -0.00561017622740789 0.00942443976369173 0.9005861 -0.2285181 -0.3697624 61 61 61
0.0709095565816833 -0.00339586367400213 0.0113474644180802 0.9314618 -0.1662082 -0.3236568 42 42 42
0.0698881713888122 0.0048176563760467 0.00663345227208406 0.813926 -0.2877338 -0.5047114 49 49 49
0.0697041122457458 0.00259404549805597 0.00799827942815096 0.8360065 -0.2561234 -0.4852771 55 55 55
0.0620673267385436 -0.00564081301482244 0.016555271243718 -0.4757046 -0.4237375 0.7708123 52 52 52
0.0624814598104431 -0.00564081301482244 0.0171533442493942 -0.5227173 -0.4340916 0.7337105 38 38 38
0.0620673267385436 -0.00301856627257391 0.0171533442493942 -0.5870277 -0.4086518 0.6988578 24 24 24
0.0711303321859313 -0.00114769568236395 0.0105439043995407 0.9122204 -0.1821609 -0.3669761 57 57 57
0.071237620546527 0.000631145336312811 0.0106359339710739 0.9150369 -0.2124388 -0.3428953 67 67 67
0.0718319980642272 0.00280123124329523 0.0106205857750443 0.9178451 -0.2504199 -0.3079779 60 60 60
0.0731545059225036 0.00466435322968439 0.0116787172314194 0.9368069 -0.246149 -0.2486031 58 58 58
0.0720964042684509 -0.00237447848113104 0.0161412275787857 0.9831905 -0.1823077 0.01001359 27 27 27
0.0725565521261169 -0.0013623916128449 0.0174753881451157 0.9778432 -0.1861067 0.09584827 93 93 93
0.0720043746969177 0.000638893940133611 0.0137949503418472 0.974232 -0.1766256 -0.1402693 71 71 71
0.0720198719045593 0.00060050854889826 0.0149604297634628 0.978406 -0.1690758 -0.1188916 55 55 55
0.0730164615652038 0.00474481950013117 0.0125183082577255 0.9538691 -0.2327237 -0.1896667 66 66 66
0.0725718109151794 0.0034375704309173 0.0148377336021927 0.9759492 -0.1934413 -0.1005172 65 65 65
0.0715904800435974 -0.000718303821402033 0.0160032130238083 0.9904787 -0.1228355 -0.06215578 36 36 36
0.0722804634115173 0.000109843113107244 0.0173833883759049 0.9847908 -0.1716011 -0.02720482 33 33 33
0.0717745391866638 0.00213401684967951 0.0156351841446427 0.9798833 -0.1636819 -0.1141792 24 24 24
0.0719814865133239 0.00257115731446222 0.0163022495266464 0.9885557 -0.1429977 -0.04805565 42 42 42
0.0674729911825134 0.0169017828485198 0.0165322638508347 0.2912071 0.6600001 0.6925303 44 44 44
0.0694971649190856 0.0154295481225677 0.0175443805214432 0.3719134 0.6164139 0.6940564 74 74 74
0.0720043746969177 0.00673454175202326 0.00859635243382723 0.8372436 -0.3486528 -0.4212653 42 42 42
0.0721884338399841 0.00898890862671808 0.00841232309308321 0.8353531 -0.349537 -0.4242748 36 36 36
0.0720043746969177 0.00544648537842707 0.0115866876598862 0.9403433 -0.2398887 -0.2412633 59 59 59
0.07333856506557 0.00851731667725519 0.0110576368328598 0.9191025 -0.3268239 -0.2200832 49 49 49
0.0733845798513366 0.0109670675775237 0.00648008952107698 0.8097903 -0.3323802 -0.4834904 33 33 33
0.0739367572805358 0.0137733734628387 0.00634207496609956 0.8457295 -0.2201407 -0.4860862 69 69 69
0.0754433242818786 0.0125887907525726 0.0109311259743241 0.9626848 -0.2436356 -0.1178125 90 90 90
0.0758689014455749 0.0156136072656341 0.0115866876598862 0.9299998 0.3050596 0.2050342 127 127 127
0.073108491136737 0.0078386581918426 0.012046746110585 0.9372575 -0.2981613 -0.1806882 29 29 29
0.0735378829976989 0.00892751584259943 0.0151137627121475 0.9477467 -0.2709029 0.1684868 78 78 78
0.0758965580007507 0.0151904142877288 0.0129024601933029 0.8575434 0.2554117 0.4465246 130 130 130
0.0749834148427917 0.0166832722207733 0.0131738699432877 0.7171422 0.5119979 0.4728268 112 112 112
0.0750918952962829 0.0148264683267303 0.0150575555321243 0.8599998 0.2361268 0.4523765 123 123 123
0.074488696291156 0.01128917107789 0.0161412275787857 0.9105167 0.02107077 0.412935 100 100 100
0.0745807258626892 0.0124929464837737 0.0169463075157669 0.8665746 0.1242057 0.4833439 154 154 154
0.0721884338399841 0.0159817255517669 0.0159112132545975 0.4548506 0.5612658 0.6914417 95 95 95
0.0729015438100769 0.0168557680627532 0.0151981032845047 0.5390904 0.5922465 0.5988535 84 84 84
0.0747647850057556 0.0143025434991546 0.0160492278095749 0.7944104 0.2917035 0.5327487 118 118 118
0.0632327167531921 -0.00519616236479803 0.0184721566196945 -0.3590172 -0.4891044 0.7949111 55 55 55
0.0639074413320495 -0.00642294516356512 0.0178894318100479 -0.2305642 -0.6062362 0.7611293 79 79 79
0.0628493396779968 -0.00370866884978338 0.0190395630356339 -0.4970191 -0.4544478 0.739222 64 64 64
0.0632863609334899 -0.00262755980284735 0.0201436794754532 -0.4978493 -0.4618976 0.7340277 77 77 77
0.0701642601034118 -0.00398463835509344 0.0194076217171219 0.578354 -0.5169001 0.6311267 154 154 154
0.0672429172536804 -0.00307602515013738 0.0202587164398697 0.07954921 -0.5740025 0.8149804 94 94 94
0.0692442028066589 -0.00304157366545721 0.0202127016541031 0.4799695 -0.4886588 0.728589 106 106 106
0.0616071788808776 0.00241010556427912 0.0193616069313553 -0.7082266 -0.2322781 0.6666798 42 42 42
0.062021311952777 0.00319211850373224 0.0201437092777756 -0.7050459 -0.2240148 0.6728504 32 32 32
0.0235224334737731 0.0348055876275726 0.0225053049084213 0.08340409 -0.2109454 0.9739332 71 71 71
0.0624354450246765 0.00245612035004572 0.0209717966076401 -0.712986 -0.303616 0.632035 50 50 50
0.0622053710958435 0.00383620629517512 0.0215238548275498 -0.7597592 -0.2502749 0.600107 66 66 66
0.0632634727498962 0.00259404549805597 0.0230420149323013 -0.6400155 -0.3030912 0.7060565 61 61 61
0.0661156742116882 -0.000672289035635432 0.0223749495502976 -0.1627883 -0.5470694 0.821106 71 71 71
0.0707622138997985 0.00296216378418879 0.0230946160313156 0.6879862 -0.2372762 0.6858389 227 227 227
0.0668058959981872 0.00107591519562678 0.0240541614052323 -0.008380708 -0.5688385 0.8224065 124 124 124
0.0698421566030456 0.00208800206391291 0.0237781322952774 0.5192271 -0.4119714 0.7487875 210 210 210
0.0672200290700866 0.00337617764679865 0.0259863949772385 0.1511693 -0.3391878 0.9284931 172 172 172
0.070256289674945 0.00452630887238459 0.0239621318336991 0.6426385 -0.03685131 0.7652828 236 236 236
0.0722804634115173 -0.00232846369536444 0.0192235923763779 0.8153187 -0.3628733 0.4511965 131 131 131
0.0716825096151306 -0.0012473546484284 0.0207264340874222 0.7103348 -0.4220851 0.563266 199 199 199
0.0725257961294128 0.00106053719727472 0.0191775775906113 0.9751735 -0.1557966 0.1573661 50 50 50
0.0726025669118835 0.000441125728768865 0.02054854402509 0.9375162 -0.208387 0.2786363 130 130 130
0.0726485816976501 0.00241010556427912 0.0214318550583389 0.9022587 -0.1434152 0.4066464 163 163 163
0.071209248735614 0.00483518014161066 0.0231274879929093 0.7368495 -0.0191083 0.6757867 209 209 209
0.059859093858905 0.0079306877633758 0.0177514172550705 -0.4188752 -0.2171676 0.8816926 23 23 23
0.0599971382162048 0.00862079034058527 0.018257490491536 -0.4630623 -0.1343262 0.8760877 24 24 24
0.0626652805349304 0.0065506018182464 0.0225359714981583 -0.7324445 0.005386925 0.6808054 88 88 88
0.0618372528097106 0.00897734532563166 0.0223979569431809 -0.6636177 0.1287807 0.7369037 40 40 40
0.0625732509633972 0.00896578202454523 0.0231340445038345 -0.5946245 0.2628033 0.7598395 39 39 39
0.0678639976522399 0.0104456461450286 0.0233487404343155 0.2722774 0.5325184 0.8014295 107 107 107
0.0625732509633972 0.0133133448144622 0.0205424047466782 -0.1791001 0.4436279 0.8781329 30 30 30
0.0609632102987243 0.0151995934030242 0.0206037379261521 0.1487993 0.3322214 0.9313902 58 58 58
0.0628033248922302 0.0158896959802337 0.0199596799370316 0.1737245 0.4716482 0.8645043 62 62 62
0.0640915004751159 0.0124853170892425 0.0227200008389023 -0.1137716 0.4639718 0.8785136 85 85 85
0.0649195282003356 0.0124393023034759 0.0231800592896012 -0.05411743 0.5802658 0.8126272 87 87 87
0.0672736732503845 0.0141797579309173 0.0203123904224899 0.1642087 0.6635469 0.7298911 95 95 95
0.0653796760580017 0.0145785130044647 0.0210177815910843 0.1196995 0.6660994 0.7361954 74 74 74
0.0688415138265563 0.0146245277902313 0.0190050519463089 0.383046 0.6232764 0.6817641 82 82 82
0.0640454856893493 0.00664263138977961 0.0258023656364945 -0.3988113 0.164976 0.9020712 89 89 89
0.0631254283925964 0.00845973859040217 0.0241921461578873 -0.5497437 0.2781126 0.7876772 52 52 52
0.0671277610799743 0.00610583195893244 0.0264464534279373 0.2797116 0.1979549 0.9394548 141 141 141
0.0655637352010681 0.0079076803704925 0.0252733148094681 -0.05968035 0.4013233 0.9139901 93 93 93
0.0655637352010681 0.00705664525238947 0.0258483804222611 -0.06586687 0.2713847 0.9602145 107 107 107
0.0684159366628601 0.00567644009797053 0.0261244095322159 0.4176929 0.07034434 0.9058611 213 213 213
0.0654717056295349 0.0105990685006805 0.0243301905151871 -0.1036923 0.4873285 0.8670403 87 87 87
0.0658858387014343 0.0106680906793304 0.0237551249023941 -0.09172613 0.5072584 0.8568987 103 103 103
0.071436938478656 0.0124699390908904 0.0193616069313553 0.6086181 0.4662797 0.6420026 115 115 115
0.0132556526205017 0.0187879122277923 0.0200746870991257 0.09171017 -0.1871437 0.9780422 242 242 242
0.0158088771841003 0.0180979288598724 0.0195916212555435 0.04229369 -0.1720916 0.9841726 190 190 190
0.013408955766864 0.0207891977807708 0.0202127016541031 0.1185353 -0.1810049 0.9763128 241 241 241
0.0155099002859069 0.0222384251138397 0.0206497527119187 0.0476022 -0.1930958 0.9800245 108 108 108
0.0134103862783386 0.0232044971963592 0.021093092059758 0.116497 -0.1867035 0.9754846 232 232 232
0.0213525859853698 0.0188799417993255 0.0197756803986099 -0.02305618 -0.1849766 0.9824724 79 79 79
0.0192363826772644 0.0230389154931732 0.0206221557613877 -0.02737356 -0.1793241 0.9834092 98 98 98
0.0209615795156433 0.021111301281137 0.0205807603355911 -0.03100754 -0.1787491 0.9834059 70 70 70
0.0233307449361755 0.0216633595010467 0.0207647598740128 -0.03888828 -0.1764108 0.9835481 91 91 91
0.0232387153646423 0.0226984537622161 0.0205884195324448 -0.01794475 -0.1578927 0.9872932 77 77 77
0.0131636230489685 0.0279890812417694 0.0217538989540604 0.194655 -0.2552533 0.9470772 57 57 57
0.0157092182180358 0.0285871542474456 0.021615884399083 0.09240799 -0.2090683 0.9735252 227 227 227
0.0171430675527526 0.0286561764260955 0.0220069206711319 0.05888952 -0.19658 0.9787177 244 244 244
0.0194202034017517 0.0245616949578948 0.0209564484116104 -0.01244017 -0.1727223 0.984892 73 73 73
0.021313008501239 0.0232242859384246 0.0207220531460312 -0.02365382 -0.1694509 0.9852547 89 89 89
0.0231774417898132 0.0245847023507781 0.0209181226250199 -0.01537022 -0.1580501 0.9873115 61 61 61
0.0227327911397888 0.0265169657251068 0.0215238548275498 -0.007142587 -0.1481535 0.9889386 97 97 97
0.022364672853656 0.028541139461679 0.0218919135090378 0.003242176 -0.1514698 0.9884565 112 112 112
0.0264361469289733 0.0187879122277923 0.0203277088161972 -0.01592002 -0.186065 0.9824085 118 118 118
0.0284374324819519 0.0180519140741058 0.0197756505962876 -0.01438401 -0.1727315 0.9848639 233 233 233
0.0290682880422546 0.0183147705575653 0.0203408516403702 -0.004634159 -0.1534173 0.9881507 246 246 246
0.0272963611623718 0.0230112589379974 0.0210269905087021 0.02744487 -0.1561375 0.987354 73 73 73
0.0247417060872985 0.0210576571008392 0.0209871448036698 -0.01570435 -0.1617666 0.9867041 71 71 71
0.0311747161886169 0.0176839149972625 0.0200746870991257 -0.05759013 -0.1383997 0.9887006 235 235 235
0.0305996505758239 0.0184659279367156 0.0198216653820542 -0.05046718 -0.1445467 0.9882101 239 239 239
0.0338774292013122 0.0184314764520355 0.0206957674976853 -0.1265648 -0.1103395 0.9858025 60 60 60
0.0351541606924011 0.0190640009423919 0.02084910044637 -0.1245546 -0.1120746 0.9858628 55 55 55
0.0351541606924011 0.0214102781793304 0.0211098111626175 -0.1496593 -0.1077076 0.9828536 74 74 74
0.0274711219808532 0.0247495687982269 0.0210139668938187 0.02385189 -0.1403175 0.9898192 78 78 78
0.0314276783010436 0.024653724529428 0.0207417524811295 -0.01974121 -0.111856 0.9935283 231 231 231
0.0329459278127624 0.0248300350686737 0.0208951152321366 -0.05881041 -0.07129642 0.9957199 239 239 239
0.0346019832632019 0.0250907457849212 0.0208797968384293 -0.1464997 -0.08514545 0.9855395 67 67 67
0.0313127605459167 0.0270920313378997 0.0215238846298721 0.06792197 -0.09649874 0.9930129 208 208 208
0.0328078834554626 0.0275290525933929 0.0210178113934067 -0.06980874 -0.0979611 0.9927388 234 234 234
0.0333753196737243 0.0287251986047454 0.0210944629665878 -0.128458 -0.1397169 0.9818237 236 236 236
0.0137615768453552 0.0303353584787078 0.0227200008389023 0.1805879 -0.262004 0.94802 92 92 92
0.0148196784994079 0.0304503954431243 0.0222829497810867 0.1523519 -0.2622873 0.9528874 100 100 100
0.0170279113790466 0.030642083980722 0.0222292757984665 0.06670236 -0.1906207 0.979395 137 137 137
0.0147276489278747 0.0335556782266326 0.0233640886303452 0.184654 -0.3035313 0.9347575 99 99 99
0.0182700721761657 0.0291852272531219 0.0212478257175949 0.04595915 -0.1649055 0.985238 240 240 240
0.0190983383199645 0.0306164539834686 0.0221679426189926 0.05458457 -0.1892758 0.9804056 241 241 241
0.0189142791768981 0.0297372854730316 0.0223979569431809 0.05650358 -0.1795856 0.9821183 243 243 243
0.0207083789846374 0.0303353584787078 0.0218458987232712 0.02768517 -0.1611502 0.9865415 248 248 248
0.0225487319967224 0.0306113279840179 0.0218458987232712 0.03106971 -0.1400636 0.9896549 248 248 248
0.0226867763540222 0.0314394749185272 0.0220299280640152 0.01804098 -0.1532523 0.9880224 251 251 251
0.0216055480977966 0.033118776180429 0.0224669493195084 0.05722378 -0.2061298 0.97685 108 108 108
0.022928294374652 0.0370176352044769 0.0234100736137894 0.1314662 -0.246296 0.9602369 77 77 77
0.0212605564138366 0.0382942474862762 0.0234790957924393 0.2305449 -0.3068105 0.9234264 97 97 97
0.0133705703756286 0.0369830645105071 0.0248247600552109 0.2237912 -0.4070206 0.8855799 76 76 76
0.0152848331472351 0.0369550503274627 0.0244528568741348 0.1817581 -0.4065981 0.8953446 90 90 90
0.0167980758687927 0.0362930811425872 0.0237781322952774 0.1655665 -0.3985763 0.9020669 44 44 44
0.01663690490932 0.0374662197610565 0.0247902191635636 0.1794979 -0.3976121 0.899825 42 42 42
0.0195122329732849 0.0374202049752899 0.0240541614052323 0.195516 -0.34818 0.9168119 71 71 71
0.0179482070943786 0.0383862770578094 0.0244682050701645 0.2054828 -0.4009932 0.8927381 53 53 53
0.0212934581777526 0.040942958690805 0.024750820493367 0.3150615 -0.2350361 0.9195076 68 68 68
0.020984467699237 0.0392144239923187 0.0241001463886765 0.2564387 -0.3037823 0.9175813 85 85 85
0.0233536331197692 0.0393064535638519 0.0241691685673264 0.1862475 -0.217281 0.9581758 115 115 115
0.0252783863088561 0.0308490313073821 0.0222062684055832 0.02233309 -0.09818356 0.9949177 243 243 243
0.0272257892629577 0.0305960691949554 0.0220836020466355 0.03163813 -0.08226398 0.9961082 245 245 245
0.0271261302968933 0.0304503954431243 0.021799913739827 0.03163813 -0.08226398 0.9961082 248 248 248
0.0253089038869811 0.0320605553170867 0.0222829497810867 0.03824243 -0.1226194 0.9917167 239 239 239
0.0272873012563659 0.0335556782266326 0.0218458987232712 0.08621447 -0.1034659 0.9908894 71 71 71
0.0294035045644714 0.0341537512323089 0.0220759130474594 0.1326796 -0.09673312 0.9864273 60 60 60
0.0281613437673522 0.0317615784188934 0.0223979569431809 0.07653511 -0.08454499 0.993476 113 113 113
0.0352001754781677 0.0301052845498748 0.0209257818218735 -0.1796344 -0.1231444 0.9759954 116 116 116
0.0308449832937194 0.0323595322152801 0.0213704920765427 0.1256023 -0.06302073 0.990077 78 78 78
0.0315657226583435 0.0406405247232147 0.0226739860531357 -0.02137303 -0.03255575 0.9992414 26 26 26
0.0585156051656677 0.0286331690332122 0.0105745709892777 0.6351938 0.5149664 0.57562 85 85 85
0.0577428905507995 0.0290625608941741 0.0109119332787064 0.7103375 0.4634055 0.5297886 69 69 69
0.0594909755727722 0.0228088415643402 0.0150647080894974 0.6346873 0.5802863 0.5103331 75 75 75
0.0592609016439392 0.0252402342340179 0.0129553593155411 0.6091993 0.5739999 0.5471749 58 58 58
0.0590768425008728 0.0258728779336639 0.0125527895447281 0.6106684 0.5747415 0.5447535 31 31 31
0.057298001482196 0.0286331690332122 0.0133962250706223 0.787501 0.4572749 0.4132091 64 64 64
0.0588009922048522 0.024063280918283 0.0153284586426285 0.7033467 0.5604416 0.437274 66 66 66
0.0587549774190856 0.0238945997735687 0.0162792421337631 0.7106675 0.5421358 0.4483754 61 61 61
0.0590217678091003 0.0227813042184539 0.0165460921284226 0.6929603 0.5388229 0.4790365 79 79 79
0.0568686096212341 0.0261948622247405 0.0174294031616715 0.7947802 0.4757105 0.3768606 64 64 64
0.0555499164602233 0.0351352013131805 0.0089950777050522 0.749109 0.4668835 0.4699526 107 107 107
0.0554886428853942 0.0325205839654632 0.0110576368328598 0.7886553 0.4403149 0.4291219 77 77 77
0.0525441734334899 0.0399964369317718 0.0118167317863968 0.7858155 0.4878965 0.380067 98 98 98
0.0538015930196716 0.0404872215768524 0.00747688779797823 0.7765731 0.5017486 0.3810282 93 93 93
0.0536022750875427 0.0404565847894378 0.00804429421391756 0.7726288 0.5074755 0.3814621 119 119 119
0.0546880332967712 0.0363344467660613 0.0104733623024491 0.8192154 0.4396949 0.3681773 102 102 102
0.0536175338766052 0.0331262863656707 0.0166779674049881 0.8349691 0.4050259 0.3725326 97 97 97
0.0558105079671813 0.0309334314843841 0.013196877336171 0.8261271 0.4014757 0.3953876 75 75 75
0.0559485523244811 0.0296452559014984 0.0148070670124558 0.8398053 0.4176275 0.3468636 86 86 86
0.0564547149679138 0.0305194176217742 0.0124607897755173 0.8190724 0.4113028 0.3999381 76 76 76
0.0562706558248474 0.031853488781137 0.0119087315556076 0.8118395 0.4072387 0.4184175 78 78 78
0.0539703933736755 0.0304734028360076 0.0172223366257218 0.833284 0.4024698 0.3790196 116 116 116
0.0542004673025085 0.0327275312921234 0.0150371111389664 0.8346519 0.4216924 0.3543044 102 102 102
0.0544303028127624 0.0325896061441131 0.0159112132545975 0.8441127 0.4056613 0.3505891 111 111 111
0.052835520937152 0.036331347324533 0.0144543565269974 0.794212 0.4841506 0.3671858 101 101 101
0.0527742473623229 0.0386163509866424 0.0125988043304947 0.7784947 0.4876043 0.3952063 84 84 84
0.0506885616323425 0.0401191032907195 0.01298218140569 0.7690217 0.4988295 0.3997184 105 105 105
0.0530732242605163 0.03700619111268 0.0132889069077042 0.7952617 0.4812298 0.36875 88 88 88
0.0519462196371032 0.0349818981668182 0.0171226776596573 0.7950448 0.4714051 0.3816817 86 86 86
0.0509684650442077 0.036776117183847 0.0167853153702286 0.7559942 0.5299042 0.3842841 92 92 92
0.0493698684713317 0.0401344812890716 0.0158191836830643 0.753737 0.5095468 0.4150212 76 76 76
0.0484955875417663 0.0403415478250213 0.016739300584462 0.7538328 0.5180241 0.4042118 76 76 76
0.050593432619281 0.0380551136514373 0.0162700332161453 0.74624 0.5307094 0.4018376 98 98 98
0.0366952983877136 0.021916440822763 0.0212708331104782 -0.1553271 -0.1296805 0.9793143 84 84 84
0.0396473972341491 0.0200454510232635 0.021401188468602 -0.1237242 -0.155102 0.9801202 42 42 42
0.040996846391864 0.0203061617395111 0.021937898492482 -0.1079167 -0.169387 0.9796234 36 36 36
0.0432203380605651 0.0228288687249847 0.0225283123013046 -0.05254119 -0.1273006 0.9904716 58 58 58
0.0465634433767272 0.0201681173822112 0.0218458987232712 -0.0206842 -0.1243313 0.9920251 48 48 48
0.0452006427785827 0.0205706871530242 0.0225359714981583 -0.05615718 -0.1450412 0.9878306 74 74 74
0.0381904212972595 0.0244926727792449 0.0220759130474594 -0.1933039 -0.1268914 0.9728988 47 47 47
0.039846715166278 0.0235266006967254 0.0217078841682938 -0.1358455 -0.136971 0.9812161 10 10 10
0.0391567317983581 0.0242625988504119 0.0220759130474594 -0.1389704 -0.1352891 0.9810117 29 29 29
0.0373623935720397 0.0260568178674407 0.02230595717397 -0.1981049 -0.1295441 0.9715826 22 22 22
0.0456433860799743 0.0241706884881683 0.0224899567123917 0.006639431 -0.06456539 0.9978914 56 56 56
0.046816405489154 0.0248146570703216 0.0224439717289475 0.05189829 -0.04032847 0.9978378 81 81 81
0.044990119173236 0.0266595400354095 0.0223979569431809 0.005175709 -0.06466361 0.9978937 82 82 82
0.0462873546621276 0.0267010248681732 0.0221909202095535 0.06024478 -0.03947883 0.9974026 82 82 82
0.0469775764486267 0.0287251986047454 0.022696993446019 0.08315967 -0.05815043 0.9948382 50 50 50
0.0475755302450134 0.0193400896569915 0.0220759130474594 -0.005003152 -0.1470104 0.9891223 58 58 58
0.0503819553396179 0.0175458706399627 0.0220299280640152 0.04432984 -0.1957691 0.9796475 94 94 94
0.0526362030050231 0.016993812420053 0.0215698696133164 0.05994828 -0.2151604 0.974737 85 85 85
0.053004321291156 0.0187880314370819 0.0217193878647354 0.07351865 -0.1160986 0.9905131 65 65 65
0.0527282325765563 0.0189030684014984 0.0219839132782486 0.06053843 -0.1276716 0.9899672 79 79 79
0.05185419006557 0.0206589020272918 0.0216618693825272 0.06335465 -0.07877155 0.9948775 71 71 71
0.0524061290761901 0.0207201756021209 0.0218919135090378 0.08806394 -0.03371093 0.9955443 49 49 49
0.0585477916738464 0.0225834167977996 0.018395475244191 0.730077 0.465538 0.500262 68 68 68
0.0579574672719909 0.022391728260202 0.0192082441803482 0.7235273 0.4367723 0.5345449 80 80 80
0.0582027999898864 0.0215483225366302 0.0197756505962876 0.6727887 0.4003187 0.6221738 81 81 81
0.0576353637716247 0.0189719713708587 0.0214931882378128 0.3922813 0.1590488 0.9059905 72 72 72
0.0576048461934997 0.0186960018655487 0.0219839132782486 0.3034829 0.1038092 0.9471651 62 62 62
0.0552585689565612 0.0210882938882537 0.02230595717397 0.2302836 0.08019407 0.9698136 61 61 61
0.0567305652639343 0.0208237684747405 0.0220184243675736 0.3772789 0.1518178 0.913571 94 94 94
0.0569069950124694 0.0229591644784637 0.0209717966076401 0.6412237 0.3786911 0.6674018 88 88 88
0.0529428092977478 0.0248454130670257 0.02230595717397 0.3266276 0.1082045 0.9389389 51 51 51
0.0490937797567321 0.0272683418771453 0.0221679426189926 0.1249572 -0.0005839248 0.9921619 29 29 29
0.0513203708669616 0.026719383098764 0.0222047484871414 0.2843459 0.04618892 0.9576085 54 54 54
0.0568225948354675 0.0247620857736297 0.0190592921730545 0.7613816 0.4401943 0.4759486 82 82 82
0.055471715166278 0.0267679012796112 0.0187509871479538 0.7564397 0.4494434 0.4751837 85 85 85
0.0546513168355895 0.0279614246865936 0.0191499806400803 0.7697644 0.3986744 0.4985192 85 85 85
0.054706391527362 0.0228364981195159 0.022121927833226 0.2722825 0.1098213 0.9559297 67 67 67
0.0391934482595397 0.0307770288964935 0.0231708503719834 -0.07391779 -0.1309755 0.9886261 55 55 55
0.0474951831838561 0.0309794462701507 0.022915533876088 0.1583558 -0.03203418 0.9868623 43 43 43
0.044933613969989 0.0331680096170135 0.022864571904805 0.04473322 -0.0265123 0.9986471 36 36 36
0.0470696060201599 0.0345218695184417 0.0228580153938797 0.2618932 0.1900101 0.9462072 69 69 69
0.0391796199819519 0.0373281754037567 0.0234790957924393 0.04732451 -0.04086467 0.9980433 73 73 73
0.0399387447378112 0.0392604387780853 0.0234330810066727 0.05131271 -0.02081984 0.9984656 40 40 40
0.0440562335988952 0.0383403814813323 0.0232030666824845 0.3464833 0.0753236 0.9350271 19 19 19
0.041257437898822 0.0404872215768524 0.0233947552200821 0.1616494 0.2006521 0.966234 74 74 74
0.0477481452962829 0.0387198246499725 0.0207417822834519 0.6591961 0.4436399 0.6071607 97 97 97
0.0449534027120544 0.0387774027368255 0.0230420149323013 0.4257958 0.2218331 0.8772047 92 92 92
0.0370174018880798 0.032888702251596 0.0239391244408158 -0.1819971 -0.1656351 0.9692482 61 61 61
0.036304291917987 0.0359479702493377 0.0236861027237442 -0.1563713 -0.08682999 0.9838743 31 31 31
0.0381904212972595 0.0353498972436614 0.0238701320644882 0.05099633 -0.07458935 0.9959095 65 65 65
0.0387886135122253 0.040318540432138 0.0239161468502548 -0.007574433 0.09456743 0.9954897 69 69 69
0.0422850219747497 0.0381563223382659 0.0239621318336991 0.1265431 -0.04377379 0.9909948 38 38 38
0.0536771385213806 0.0307091988107391 0.0185852564331558 0.8221388 0.3585096 0.4422202 101 101 101
0.0515781013509704 0.0347426451226898 0.0186715341564682 0.7942479 0.4604932 0.3963789 90 90 90
0.0493698684713317 0.0304503954431243 0.0229730523582962 0.1969568 0.01632485 0.9802762 49 49 49
0.0516470043203308 0.0303199804803558 0.022482297515538 0.5697306 0.2295617 0.7891188 52 52 52
0.0524981586477233 0.0294153011819549 0.0220759130474594 0.594947 0.2307005 0.769945 83 83 83
0.0507500736257507 0.0326356209298797 0.0223519421574143 0.5433445 0.2337108 0.8063225 118 118 118
0.0533261863729431 0.0319455183526702 0.0181654609200028 0.8272967 0.3781524 0.4154286 79 79 79
0.0530503360769226 0.0339237965127654 0.0187175191399124 0.809428 0.4295889 0.4003494 101 101 101
0.0497072307607604 0.03700619111268 0.0192389405724075 0.7253149 0.5085563 0.4639923 77 77 77
0.0495999424001647 0.0366840876123138 0.0205347455498245 0.7005183 0.5217627 0.4868653 101 101 101
0.0155099002859069 0.0409856356164642 0.0264694310184982 0.2051158 -0.4331822 0.8776563 61 61 61
0.0176261035940124 0.0405025995752044 0.0259403801914719 0.2489243 -0.4159898 0.8746366 97 97 97
0.0131543247243835 0.0413214481851287 0.02708130249944 0.2322917 -0.4746789 0.8489526 59 59 59
0.0139916507741882 0.0422508038064666 0.0272285259720352 0.2301968 -0.4818239 0.8454911 46 46 46
0.017211970522113 0.0426188028833099 0.0267569638248947 0.3702363 -0.3743643 0.8501626 71 71 71
0.0169129936239196 0.044205955364389 0.0274585402962235 0.4619854 -0.355422 0.8125544 86 86 86
0.0185001461049987 0.0408705986520477 0.0260323799606827 0.3292505 -0.3324052 0.8837991 104 104 104
0.0197883216878845 0.0457011974832244 0.0252042926308182 0.5764382 -0.1267981 0.807243 39 39 39
0.018707331850238 0.0489215172311492 0.026630452966359 0.7167766 -0.1521713 0.6804963 97 97 97
0.0190523235341979 0.0468283213159271 0.0284246719833878 0.6915802 -0.1931703 0.69599 25 25 25
0.0187762348195983 0.050485662319345 0.0268374598976639 0.7248709 -0.1638586 0.6691133 28 28 28
0.0254624454519226 0.0422508038064666 0.0234714067932633 0.2118095 -0.09043353 0.9731179 61 61 61
0.027609166338153 0.0445970810434051 0.0235174215790299 0.1982036 -0.009167216 0.980118 56 56 56
0.0332680313131286 0.0429637945672698 0.0223749495502976 -0.04737522 0.1399187 0.989029 33 33 33
0.0297408668539001 0.0447197474023528 0.0229500151630905 0.1761775 0.03554251 0.9837165 57 57 57
0.0350254146596862 0.0444313801309295 0.0226371801849869 0.06210779 0.3242967 0.9439144 53 53 53
0.0335438816091491 0.045287064411325 0.0218458987232712 0.1358801 0.3064297 0.9421451 39 39 39
0.0351081459066345 0.046007803775949 0.0219992614742783 0.08112317 0.3562938 0.9308457 82 82 82
0.0330148307821228 0.0448730505487152 0.0224439717289475 0.1365567 0.1936763 0.9715152 61 61 61
0.0352368919393493 0.0432260550042816 0.0229316271301773 -0.04647291 0.2369712 0.9704045 51 51 51
0.0255849926015808 0.046943239071054 0.0236861027237442 0.2207756 0.001406224 0.9753236 44 44 44
0.0236988632223083 0.0429407871743865 0.0237321175095108 0.2456631 -0.1002528 0.9641572 66 66 66
0.0240207283040954 0.0464141882440277 0.0242611683365372 0.248667 -0.03636574 0.9679061 58 58 58
0.025446948244281 0.0451491392633148 0.0241461611744431 0.1896623 -0.04476053 0.9808286 62 62 62
0.0346479980489685 0.0408705986520477 0.0238241172787216 -0.1982549 0.1011351 0.9749188 48 48 48
0.0252628891012145 0.046943239071054 0.0241691685673264 0.2065424 -0.02193229 0.9781918 38 38 38
0.0208695499441101 0.0544422186395355 0.0270215190407303 0.6333985 -0.3425492 0.6938778 96 96 96
0.02613717003078 0.0522798813363738 0.023272059058812 0.3234805 -0.04802762 0.9450152 111 111 111
0.0455973712942077 0.0435388601800628 0.0177054024693039 0.7075558 0.5507151 0.4428067 121 121 121
0.0444012252828552 0.0462992704889007 0.0156811691280869 0.6357334 0.609409 0.4737761 127 127 127
0.0442631809255554 0.0467132843515106 0.0163252569195297 0.6197195 0.6155363 0.486891 115 115 115
0.0510719387075378 0.0411465681573577 0.010206542110112 0.785592 0.5034493 0.3597 98 98 98
0.0495768157979919 0.0409625090142913 0.0136109508034256 0.7562238 0.5103201 0.4095107 77 77 77
0.0479436485311462 0.0444590366861053 0.0137489355560806 0.7348706 0.5518779 0.3942031 80 80 80
0.0373855201742126 0.0408245838662811 0.0235021031853226 -0.0535752 0.1521392 0.9869059 37 37 37
0.0367184249898864 0.0426418102761932 0.0235251105782059 -0.05226987 0.243184 0.9685708 26 26 26
0.0363963214895202 0.0441829479715057 0.0223519421574143 0.03454787 0.396839 0.9172378 29 29 29
0.038895901872821 0.0446429766198821 0.0226739860531357 0.09604846 0.4150839 0.9046988 28 28 28
0.0465865699789001 0.0419287003061004 0.0191085852142838 0.6977131 0.5387638 0.4721546 83 83 83
0.0426529018423034 0.0446275986215301 0.0208031154629257 0.4411033 0.5952441 0.671649 125 125 125
0.0446312992116882 0.0443209923288055 0.0191085852142838 0.6506099 0.5560778 0.5171887 103 103 103
0.0433431236288024 0.0434928453942962 0.0213858402725723 0.4564847 0.5056778 0.7320599 152 152 152
0.0457354156515075 0.0406865395089813 0.0218919135090378 0.5859627 0.433481 0.6846473 105 105 105
