ply
format ascii 1.0
comment File exported by Rhinoceros Version 7.0
element vertex 476
property float x
property float y
property float z
property float nx
property float ny
property float nz
property uchar red
property uchar green
property uchar blue
end_header
0.106716007254286 0.0911575637962143 -0.00082728695935913 0.8836588 0.22875 0.4084368 102 102 102
0.101336926481886 0.0938932977821152 0.00105851459436707 0.0763429 0.6575555 0.7495282 161 161 161
0.10135319854991 0.0992620073463242 -0.00396761727399536 0.1370981 0.6805826 0.7197301 105 105 105
0.105107158682509 0.0987583480979721 -0.00425094795293518 0.4479094 0.6904531 0.5680245 142 142 142
0.10163590338008 0.102876194586925 -0.00816855263776489 0.1961327 0.6946586 0.6920848 131 131 131
0.103376418612166 0.101823576560191 -0.00722933244771667 0.2976265 0.6796796 0.6704133 90 90 90
0.100524336359663 0.0999701105262558 -0.00381705594129272 0.1411164 0.6710626 0.7278469 129 129 129
0.0797067585207656 0.106880196204356 -0.00493219924039551 0.07153383 0.574401 0.8154424 127 127 127
0.0758390131212905 0.110184796919994 -0.00831783247060486 0.06878528 0.6521071 0.755 109 109 109
0.0794873538233474 0.109131582846812 -0.0077018184668512 0.09447837 0.665211 0.7406539 89 89 89
0.0831681790568068 0.105674155821971 -0.0052826745516748 0.1933484 0.5316213 0.8246182 104 104 104
0.0859958830095962 0.105462559333019 -0.00511616897649475 0.2446578 0.5217718 0.8172495 122 122 122
0.0838020148493483 0.108812936415843 -0.0081925137049646 0.1905041 0.6296222 0.7531826 106 106 106
0.0793654623247817 0.111095675101451 -0.00964555573529907 0.08088522 0.6913891 0.7179406 142 142 142
0.0760014953829482 0.11386371480482 -0.0109777493483514 0.0960544 0.6740548 0.7324095 149 149 149
0.0775981846071914 0.114619024863414 -0.0122093005187006 0.1032743 0.6955905 0.710977 116 116 116
0.0860284271456435 0.110852011313609 -0.0101849181658716 0.225953 0.6951957 0.6823841 130 130 130
0.0844357910372451 0.110324867835216 -0.0090869708067865 0.2018228 0.683576 0.701421 137 137 137
0.0836069884516433 0.113137611022166 -0.0118722958571405 0.1916894 0.7127869 0.6746777 122 122 122
0.0931138696886733 0.105276831259898 -0.00764042568273254 0.1493865 0.6321947 0.760272 117 117 117
0.0998905601717666 0.104214557280711 -0.00869456362790771 0.2025955 0.6795974 0.7050549 130 130 130
0.096867889425917 0.105376728644542 -0.00918758344716736 0.2014385 0.6596298 0.7240933 123 123 123
0.0953662696100905 0.10423625337141 -0.00680789780683227 0.1751643 0.6920925 0.7002324 159 159 159
0.0917975011088088 0.110822328200511 -0.0127523286349268 0.1850734 0.6594138 0.7286434 117 117 117
0.0915537777163222 0.112127908339671 -0.0139197154051752 0.1542712 0.649849 0.7442424 131 131 131
0.0894817414499953 0.110284813513927 -0.010804836273858 0.217042 0.6805712 0.6997969 97 97 97
0.0802186432100966 0.116829999556712 -0.0163914008147211 0.1530432 0.8016476 0.5778745 109 109 109
0.0794824662424758 0.118851789107494 -0.0188550395972223 0.1080615 0.8274109 0.5511025 149 149 149
0.0760502519823745 0.116370805373363 -0.0136518521315546 0.1119475 0.7470813 0.6552383 104 104 104
0.0833144488550857 0.115750082602672 -0.014876429558465 0.1387488 0.7646694 0.6293088 149 149 149
0.0875803532816604 0.115095385184459 -0.0155267162329645 0.06285059 0.6511318 0.7563578 132 132 132
0.0873122515894607 0.117220529189281 -0.0168193919665308 -0.02693779 0.6718318 0.7402137 177 177 177
0.077000946066542 0.118744143119029 -0.0186805619008035 0.1732726 0.8428333 0.509518 156 156 156
0.0836679043986037 0.118463643660716 -0.0186873419291467 -0.0145322 0.7537854 0.6569599 150 150 150
0.0855814519144729 0.120641955008678 -0.0207264913327188 -0.05414964 0.8223073 0.5664614 145 145 145
0.0833144488550857 0.120337375273875 -0.0207031710154504 -0.08837335 0.8121377 0.5767344 115 115 115
0.0907249751307204 0.115922101607494 -0.0156857116229028 0.05735644 0.5883763 0.8065504 136 136 136
0.0974041524149611 0.113812931647472 -0.0157113118178339 0.1684835 0.6733018 0.7199153 102 102 102
0.0947714748598769 0.115792640319041 -0.0161538167006464 0.2167808 0.6344519 0.7419413 98 98 98
0.0919437709070876 0.120701082816295 -0.0205905331379861 0.1876324 0.8377999 0.5127234 100 100 100
0.103352040312453 0.104713090529613 -0.00910544824666687 0.2751134 0.6457027 0.7123066 203 203 203
0.102181941530867 0.106908925643138 -0.0117518348700494 0.1967255 0.6148691 0.7636983 100 100 100
0.101255685351057 0.108553298583202 -0.012800161362359 0.1905772 0.6063569 0.772018 113 113 113
0.100475579760237 0.11387182103651 -0.0149939103133173 0.1756282 0.6643909 0.7264568 99 99 99
-0.0145818886540696 0.115245231261424 -0.0390205873257608 0.2189272 0.9669632 0.1305874 47 47 47
-0.0144112405560777 0.115791925063304 -0.0350450469262094 0.2250766 0.9559485 0.1884223 40 40 40
-0.00843897435887309 0.113566049208812 -0.036593337178895 0.1269595 0.9849209 0.1175246 87 87 87
0.00189664985911397 0.115060099234752 -0.0388132227665872 -0.2035469 0.9718932 0.118289 30 30 30
0.00292053844706563 0.115073569884471 -0.0371362311846704 -0.1926641 0.9644559 0.1808462 44 44 44
0.00391992952601461 0.115671523680858 -0.0373791499144525 -0.1702497 0.9661875 0.1936407 43 43 43
0.00828334715144186 0.116292842497997 -0.0373175485140771 -0.1124055 0.9656113 0.234435 107 107 107
0.0151087942339614 0.116426118483714 -0.0382760210043878 -0.1052602 0.968724 0.2247091 83 83 83
0.0172539057947829 0.116600998511485 -0.0363356513983698 -0.113916 0.9661461 0.2314841 98 98 98
0.0186677875735 0.116750010123424 -0.035986755610177 -0.1181232 0.9667385 0.2268558 123 123 123
0.0191877784945205 0.116881259551219 -0.0382614774710626 -0.1094206 0.9657421 0.235307 65 65 65
0.0227630439020827 0.117466815581493 -0.0348827136761636 -0.2708549 0.9371319 0.2200484 14 14 14
0.0223242345072463 0.117421277632884 -0.0378176761872263 -0.2380669 0.9464802 0.2179435 46 46 46
0.0256004634119704 0.118253596892528 -0.0379860891110391 -0.3155823 0.9272811 0.2013893 57 57 57
0.0261270108439162 0.120620258917979 -0.0384414983994455 -0.3334615 0.9182967 0.2133885 13 13 13
0.0277520718790725 0.11879433022993 -0.0343302233225793 -0.3575447 0.9111241 0.204975 24 24 24
0.0288084449984267 0.119340785613231 -0.0344137294299097 -0.3253744 0.9193057 0.2213788 105 105 105
0.0307342114664748 0.118666418662242 -0.0306626005179376 -0.2619595 0.9292248 0.2606116 56 56 56
0.0344637932993606 0.121114977469615 -0.0346356077200861 -0.412747 0.8300589 0.3750228 35 35 35
0.0337812605120376 0.119587429633311 -0.0291098399168939 -0.1785478 0.9189205 0.3517185 70 70 70
0.0373987260081008 0.120712765326671 -0.0306891543871851 -0.2630855 0.8606574 0.4359529 96 96 96
0.034366280100508 0.122572668662242 -0.0355239404446573 -0.4435545 0.7794498 0.4423996 112 112 112
0.0392903390146926 0.119837053885631 -0.029620651722619 -0.2692979 0.8445249 0.4628784 77 77 77
0.0386565628267959 0.122323282828502 -0.0328043891198129 -0.3802079 0.7330938 0.5639286 77 77 77
0.0389491024233535 0.125955947508983 -0.0368486834771127 -0.4144667 0.6983761 0.5835137 37 37 37
0.0380227866388991 0.124598749747447 -0.0347758872515649 -0.3976307 0.7213358 0.5670666 100 100 100
0.0420205893732741 0.127599962821178 -0.03637572062082 -0.3197505 0.7284793 0.6058692 63 63 63
0.0470908584810927 0.128543027510814 -0.036087070227334 -0.2624429 0.7252069 0.6365522 133 133 133
0.0429468455530837 0.12132597791212 -0.0275065792805643 -0.365308 0.8137068 0.4521409 80 80 80
0.0461157860972121 0.123145826926402 -0.0292694909579248 -0.3398413 0.8137756 0.4714628 129 129 129
0.0476758780695632 0.123709448447398 -0.0283566458231897 -0.3264877 0.8047374 0.4957857 59 59 59
0.0490247311808303 0.122706183066539 -0.0260970039374323 -0.2996024 0.8123176 0.5003784 112 112 112
0.0486509504534438 0.127971538176707 -0.033565257311532 -0.2895889 0.7393981 0.6078064 92 92 92
0.0447994771219924 0.129550942053966 -0.0366833401925058 -0.2917373 0.7283254 0.6200253 58 58 58
0.0516249242045119 0.124795206656627 -0.0281169606453867 -0.3099495 0.795457 0.5207489 107 107 107
0.0506498518206313 0.123655446639232 -0.0266939891583414 -0.3124934 0.7859187 0.5335538 149 149 149
0.0535506310679152 0.124332793822459 -0.0262327833182306 -0.2478445 0.7799712 0.574646 97 97 97
0.0501379671313003 0.124219664206676 -0.0269440902478189 -0.33097 0.7926064 0.5120878 116 116 116
0.0587916078783706 0.12294484006422 -0.0238493425852747 -0.03138476 0.7439004 0.6675531 38 38 38
0.0591329040743545 0.126963385214977 -0.0284929467446298 -0.07699619 0.8058526 0.5870887 69 69 69
0.0598885717608169 0.125876792540721 -0.0269882125861139 -0.03574084 0.7886069 0.6138581 97 97 97
0.0501135888315871 0.128267773261241 -0.0334669841534586 -0.3187139 0.7387422 0.5938699 86 86 86
0.0565489831186965 0.127996810546092 -0.0311984611756296 -0.1471959 0.7952039 0.5882041 24 24 24
0.059230417273207 0.130552538504771 -0.0328578097826929 -0.1369034 0.784095 0.6053532 49 49 49
0.0677134695269301 0.123851307501964 -0.0238856716162653 0.02792498 0.8165066 0.5766604 115 115 115
0.0631794038035109 0.125010141005687 -0.0257715327746362 -0.01109224 0.7912163 0.6114358 56 56 56
0.0663727226473525 0.125558503737621 -0.0269413633353204 0.06149845 0.826566 0.55947 44 44 44
0.0660558643557265 0.125204452147655 -0.0261883778578729 0.05330588 0.8302844 0.554785 76 76 76
0.0715893807627395 0.123223193755321 -0.0244950546032877 0.169342 0.855821 0.4887676 56 56 56
0.0691882672526076 0.126086958518199 -0.0284325821406335 0.1118024 0.8083115 0.5780421 72 72 72
0.0633256736017898 0.130631097426585 -0.0326472414738626 0.04069893 0.7814087 0.622691 64 64 64
0.0628869238115981 0.128456123938731 -0.0300434572703333 0.03073836 0.7930903 0.6083279 78 78 78
0.0714593234278396 0.128138311972789 -0.0305927438742609 0.1132772 0.7549177 0.6459624 76 76 76
0.0715974273897841 0.130192526450328 -0.0323528243309946 0.04432642 0.7574408 0.6513974 45 45 45
0.0511861148096755 0.129581102004222 -0.0358310682780237 -0.275769 0.7610999 0.5870932 93 93 93
0.053185016176863 0.131052621474437 -0.0356238676316232 -0.2730157 0.7705992 0.5758812 58 58 58
0.0600104632593825 0.132480391135387 -0.0340514374978036 -0.05943406 0.810821 0.5822687 55 55 55
0.0656414332606032 0.131539472212962 -0.0345158768898935 0.07611564 0.8083379 0.5837775 67 67 67
0.066640883944197 0.131387599578075 -0.035376404047677 0.0783292 0.803053 0.5907372 53 53 53
0.0750021043039992 0.13183189260023 -0.0346475435502023 -0.01912051 0.6972867 0.7165372 109 109 109
0.0773178639628127 0.12271393167036 -0.0259954674250574 0.03916452 0.8242519 0.5648671 91 91 91
0.079609245321913 0.125100978484325 -0.0276906533247919 -0.03238984 0.7478095 0.6631228 114 114 114
0.0834485593058303 0.123763092627696 -0.0263715429312677 -0.05057595 0.805749 0.5900938 94 94 94
0.0869221987940505 0.122500904669933 -0.0229216558939905 -0.03033383 0.8690413 0.4938088 112 112 112
0.0813643636919692 0.125197061171703 -0.0278112037188501 -0.03234949 0.722718 0.6903855 105 105 105
0.0755626859881118 0.12806893216627 -0.032310966969201 -0.002066804 0.7154522 0.6986586 35 35 35
0.0762940349795058 0.13007272111433 -0.0339995069510431 -0.02503595 0.6880907 0.7251927 110 110 110
0.0783416333414748 0.128694423308543 -0.0324070347554178 -0.0898848 0.6838959 0.7240214 105 105 105
0.0834850969530776 0.1286104999687 -0.0310591651207895 -0.01024396 0.6961466 0.7178265 72 72 72
0.0847283306338027 0.129010566344432 -0.0311591072089166 0.05419397 0.7020967 0.7100164 104 104 104
0.0872878732897475 0.130058892836742 -0.0328570349223108 0.1794552 0.7740844 0.6071154 91 91 91
0.0920900407053664 0.128180154433421 -0.0340495301491708 0.08806725 0.865741 0.4926833 39 39 39
0.0970628562189773 0.12994516717451 -0.0350017441517801 -0.0004399731 0.8463768 0.5325844 93 93 93
0.0932601394869521 0.12181700097578 -0.0245121313340158 0.2231528 0.8020752 0.5539659 79 79 79
0.0917975011088088 0.124919899573497 -0.0272533787495584 0.04962592 0.7427334 0.6677458 85 85 85
0.0955515208460525 0.125217922797374 -0.0284059686667413 0.155278 0.6665576 0.729102 118 118 118
0.0879460277773574 0.126976140608958 -0.0295475615269632 0.01904422 0.7435526 0.6684061 62 62 62
0.0914806428171828 0.127815731635265 -0.0307611567980737 0.03863037 0.8352044 0.5485811 70 70 70
0.0891161265589431 0.128577836623363 -0.032273222327897 0.1242765 0.8032329 0.5825567 49 49 49
0.0934307875849441 0.128875025382213 -0.033919398308465 0.04623878 0.8746446 0.4825545 60 60 60
0.0996955337740615 0.127056964507274 -0.0317507727152795 0.09687576 0.7826583 0.6148667 69 69 69
0.100020557902022 0.126834400763683 -0.0308699948794336 0.09688653 0.7672258 0.634017 78 78 78
0.0963803234316543 0.128894933333568 -0.0327697141177148 0.03129246 0.8605166 0.5084604 94 94 94
0.0977941456057265 0.129234799018077 -0.0340367300517053 0.01455622 0.8689622 0.4946643 36 36 36
0.0834485593058303 0.132566460242442 -0.0364033324725122 0.09824327 0.8137014 0.5729208 56 56 56
0.0797067585207656 0.131250032057933 -0.0340663535601587 -0.06892969 0.7145307 0.6962001 63 63 63
0.0803405347086623 0.13288009988325 -0.0363454414612741 -0.0007304185 0.8010274 0.5986273 86 86 86
0.0858009162165358 0.130700477233104 -0.034465183139512 0.1300876 0.7975768 0.5890232 73 73 73
0.0897174182154372 0.130966194739513 -0.0359359575516672 0.2216142 0.7884667 0.573766 35 35 35
0.087872892878218 0.133078821768932 -0.0371138198382349 0.218404 0.8007609 0.5577469 41 41 41
0.0929675998903945 0.132336982360057 -0.0385697377926797 0.1434733 0.7924727 0.5927921 37 37 37
0.0955027642466262 0.129810818305186 -0.0352535588747949 0.02140374 0.8663906 0.498908 65 65 65
0.0941864552714065 0.132507809271983 -0.0396494908339471 0.09544588 0.7992184 0.5934139 36 36 36
0.0989154877878859 0.13219822274702 -0.0390222115523309 0.07601149 0.8585406 0.5070802 96 96 96
0.0936501326777175 0.134408005347423 -0.0424526972777338 0.1333122 0.8117524 0.5685823 48 48 48
0.1087636652209 0.109865554442577 -0.0425611926323862 0.9997852 -0.007832127 -0.01918723 51 51 51
0.10902366068141 0.116192110648326 -0.0442468864924402 0.9727505 -0.1195113 -0.1986796 87 87 87
0.108227342627211 0.118726500144176 -0.0484306706196756 0.9589877 -0.09296724 -0.267768 97 97 97
0.109811812899275 0.120609887709789 -0.0442766590125055 0.9454224 -0.1361532 -0.2960387 112 112 112
0.109592467806502 0.114343532195262 -0.0382607175118417 0.9775313 -0.2071808 -0.03884065 99 99 99
0.110567480585738 0.116933950057201 -0.0400007410056085 0.9693996 -0.2296394 -0.08677586 74 74 74
0.110616237185164 0.117340453734569 -0.0356144799000711 0.968348 -0.2482968 0.02551044 61 61 61
0.111250072977705 0.11865902768629 -0.0361799491650552 0.9697466 -0.2441052 0.00204158 76 76 76
0.110811263582869 0.120754011740855 -0.0422194643027277 0.9577667 -0.1853696 -0.2198204 118 118 118
0.111591309569044 0.123320230117015 -0.0425196332938165 0.9684818 -0.1292574 -0.2129212 137 137 137
0.109056145212813 0.121515997519664 -0.0476260526186914 0.9449332 -0.127251 -0.3015102 95 95 95
0.10934868480937 0.131118425002269 -0.0443857951170892 0.6952283 0.7097243 0.1137938 80 80 80
0.105708450339003 0.121902593245677 -0.0267378134734125 0.2732815 0.5996801 0.752131 88 88 88
0.105399638674422 0.125553496947459 -0.0293214215046854 0.1367508 0.6847008 0.7158799 71 71 71
0.107496053240462 0.124795802703075 -0.0303989095694513 0.3647562 0.6422499 0.6741424 134 134 134
0.101718813440962 0.126043685546092 -0.0307150675065012 0.07816349 0.7464832 0.6607975 98 98 98
0.103937059900923 0.125855454077892 -0.0302440567023248 0.1024092 0.7398079 0.6649786 104 104 104
0.103473931811018 0.129615315070323 -0.0347488267428369 0.0353536 0.851663 0.522896 97 97 97
0.107422918341322 0.126680978408031 -0.0319716973311395 0.2856498 0.7192568 0.6333039 115 115 115
0.102962047121687 0.132881411185436 -0.0409093244082422 0.1803974 0.8881637 0.422637 92 92 92
0.103376418612166 0.130965837111644 -0.0379508329636545 0.04700093 0.8583803 0.5108562 100 100 100
0.105082780382796 0.129275568595103 -0.0357198162085504 0.03401958 0.846025 0.5320567 87 87 87
0.105935961268111 0.131733068099193 -0.0393208159214944 0.2105066 0.8988403 0.3844126 90 90 90
0.107179194948836 0.13026619779127 -0.0365664852864236 0.06531169 0.8558664 0.5130566 102 102 102
0.106423467657728 0.131397374739818 -0.0384053630835504 0.1991835 0.906426 0.3724483 106 106 106
0.0195820687980749 -0.00358663329612563 -0.0379168144568594 -0.3267612 -0.03505602 -0.9444566 100 100 100
-0.00558626998661771 -0.0203008255835163 -0.0394455590092557 0.2880929 0.01494919 -0.9574858 231 231 231
0.0803815361096973 0.0665452224992988 -0.0449565610454735 -0.3324444 0.1310103 -0.9339792 157 157 157
-0.0531424051527088 0.107076747709606 -0.0375379329827099 0.06214733 -0.009191139 -0.9980246 140 140 140
0.00871291581445766 0.103310035511257 -0.0400085670686342 0.0333082 -0.009004551 -0.9994045 166 166 166
0.0322423361838284 -0.0537198206564916 0.0564654092039006 0.05546179 -0.9643049 0.258921 143 143 143
-0.107881929356853 -0.047335154588637 0.0195733916008564 -0.8767372 0.2906045 -0.3832504 202 202 202
0.109387368502273 0.0812951747743658 -0.0220075159515594 0.9968707 0.06943548 -0.03778317 79 79 79
0.0058507830459068 0.106257600153054 -0.00871056949606752 -0.02471194 0.9403311 0.3393622 57 57 57
-0.052641231397752 -0.0472573716577859 -0.046904276970192 0.5155835 0.1473015 -0.8440829 101 101 101
0.0938695611047382 -0.0521639233576811 0.00291316510712925 0.9739979 -0.2219124 0.04564055 107 107 107
-0.0160555674161231 0.105301212617456 -0.00435757545115006 0.3365207 0.930304 -0.1459051 68 68 68
0.0659130152954692 0.0171706031794669 -0.0455465783343692 -0.1097208 -0.1906708 -0.975503 135 135 135
0.100705028963967 0.0396624494433457 0.033758326352138 0.9828863 -0.05303467 0.1764142 86 86 86
0.0726803962560818 0.0958951252492029 -0.0422500767520126 -0.5223061 0.0004187473 -0.8527579 63 63 63
-0.0835709752185378 0.0360665617977032 -0.00508719092113397 -0.962232 0.1236717 -0.2425178 125 125 125
-0.0472214944184892 -0.0702504168487941 0.047498354813869 -0.03927335 -0.8426896 0.5369655 98 98 98
0.0109102370168193 -0.0666746594679062 0.0174891009584106 0.3317699 -0.8717511 0.3605257 117 117 117
0.105053539305213 0.0243493019719931 -0.0378814101736087 0.9357848 -0.327803 -0.1298156 138 138 138
-0.0872283445509181 0.049461122282064 0.014894009482719 -0.9723831 -0.1066703 -0.2075875 99 99 99
0.0683722867791484 -0.0696719796845953 -0.0346966682467121 -0.2746144 -0.300523 -0.9133854 129 129 129
-0.0409288656189817 0.0403258836930904 -0.0380559149247279 0.2412855 0.1222205 -0.9627271 62 62 62
0.0756129779637658 -0.0778649083589367 -0.0248714851608822 0.2003832 -0.9045701 0.3762971 144 144 144
-0.0826454829412869 0.0176396979557241 -0.0327329048485691 -0.9828889 0.1608618 -0.08973805 114 114 114
-0.0351303783111252 0.105503702606659 -0.0340201903510071 -0.1038031 0.09426556 -0.9901206 184 184 184
0.0948500195342726 -0.0128114130000423 -0.0334547627764187 0.9707901 -0.03959399 -0.2366406 133 133 133
-0.0309958668866397 0.106185803747943 -0.0352588020812796 -0.3959686 0.3415577 -0.8523774 136 136 136
0.0153071116079148 0.113326745156074 -0.0394060974609625 0.1477396 0.1677026 -0.9747045 125 125 125
-0.0993201334649764 -0.0520556382432308 -0.0137619211832851 -0.8641458 0.3744 -0.3362688 170 170 170
0.0231355904108052 -0.0319393294338587 -0.036467213664309 -0.2539016 -0.1851834 -0.9493372 136 136 136
0.0419342020575487 0.11891119704383 -0.0223229637468317 -0.2635715 0.8519119 0.4525221 59 59 59
-0.0831325146289794 -0.0215948545177709 0.0617499531780326 -0.5101084 0.2178387 0.8320671 31 31 31
0.101195540446664 0.133453632206868 -0.0437428486582993 -0.01553711 0.7107031 -0.7033204 158 158 158
-0.0228699919808795 -0.0970122911004915 -0.0134055107614581 0.4339969 -0.8949277 0.1036875 151 151 151
-0.110602856549963 -0.0527567407532485 0.0220935110967427 -0.928103 0.2014078 -0.3131448 125 125 125
0.0912668686006234 0.0179110901820407 -0.0476306962652982 -0.1876009 -0.03652714 -0.981566 98 98 98
-0.0203220751465008 -0.0953378480231543 -0.0123650160762089 0.5373389 -0.8417111 0.05281399 141 141 141
0.0744154550717391 0.0656644926602299 -0.0430383924594412 -0.1500621 0.09421243 -0.9841775 134 134 134
0.021099650194966 -0.00469607245844283 -0.0389671494024539 -0.3806707 -0.02368245 -0.9244074 244 244 244
0.101889529397172 0.0421981663352262 0.0309476776735284 0.9943389 0.01347957 0.1053961 75 75 75
0.0934634882724259 0.122530110112208 -0.0449695187601024 -0.1254677 0.2484139 -0.9604938 169 169 169
0.0960981308817643 0.00253783047332745 -0.0347992398841936 0.9512698 -0.1620694 -0.2623342 116 116 116
-0.0790790526007377 -0.0605396713481836 0.0522609872234645 -0.1977702 -0.8644246 0.4622304 64 64 64
0.105160157151837 0.0325723631858044 0.0153868480457526 0.9414839 0.008780096 0.3369438 56 56 56
-0.0911436859855719 0.123194974448456 0.00486607088911872 -0.8289824 -0.4317843 -0.3554582 236 236 236
-0.0692652709813938 0.0455173008425427 -0.0455957294596046 -0.1863526 0.4805417 -0.8569436 151 151 151
0.0754315813449502 -0.0182587024609636 0.0676464784849883 0.632787 -0.04364632 0.7730948 53 53 53
-0.0145959999837675 -0.0494688629149939 -0.0374837451516212 0.3242146 -0.1125446 -0.9392649 136 136 136
-0.0715842165900199 -0.0446625016046235 -0.0548646628784745 0.3758679 -0.21407 -0.9016082 134 134 134
0.0846592889951372 -0.00309183074426045 -0.0462806244400364 -0.1106183 0.1284005 -0.9855338 174 174 174
-0.0783480432236843 0.0822156016010265 -0.0298375285142109 -0.8042368 -0.1267655 -0.5806321 148 148 148
0.0869637035618882 0.0189805419288318 -0.0468713529761927 0.001828151 -0.02163425 -0.9997643 155 155 155
0.0984304876125037 0.0175510031416855 0.0447983751081432 0.9915208 0.03251799 0.1258133 88 88 88
0.0541922382024628 -0.0509555095671088 0.051539017903066 0.3459967 -0.915663 0.2045667 102 102 102
0.044707789338267 0.0573256912931959 -0.0444822675598457 -0.0352292 0.009431037 -0.9993348 144 144 144
-0.0525420708680993 -0.0213582480418977 -0.044622267315263 0.3439254 -0.08771604 -0.934891 119 119 119
0.0989880216152091 -0.0303819284879761 0.0169106080487961 0.9878337 -0.02104456 -0.1540836 134 134 134
0.0994135384501219 -0.0160647296703906 0.0171921636467097 0.9243938 0.03202597 -0.3800927 127 127 127
-0.00472630789052608 0.0971129027790241 0.0113813890300224 0.004456577 0.867134 0.498055 34 34 34
0.0601476022217333 -0.0779612730232231 -0.0205877427905407 0.06733263 -0.8250436 0.5610432 124 124 124
-0.0669036387733347 0.0876946118740904 -0.0415908449328921 -0.08170074 0.1328955 -0.987757 159 159 159
-0.04335607458126 0.126240498558585 -0.0369984329293719 0.4953604 0.5223827 -0.6940709 74 74 74
0.0776625756434467 -0.0529810381938299 0.0185944421174204 0.2843854 -0.8354781 0.4702141 161 161 161
-0.0463035551342272 0.0600646911677916 -0.0388430593096718 0.03804388 -0.03995553 -0.9984769 167 167 167
0.101990342303726 0.00215625713656697 0.0297715507287736 0.9431508 0.04508181 0.3292936 73 73 73
-0.00403678867478818 0.0888163478936255 -0.039168562016587 -0.1188591 -0.1895973 -0.9746411 91 91 91
0.0336722880856538 -0.0702154259671894 0.00689359917101251 -0.03850751 -0.9992494 -0.004226805 148 148 148
0.0111461389716759 -0.0747121786553837 -0.0020471319025453 0.6197919 -0.7847552 -0.004165331 153 153 153
-0.0187399282944944 0.115101347225525 -0.0407060439181979 0.1170657 0.6335108 -0.7648265 195 195 195
0.0519436480185276 0.0876645202059663 -0.0368355011601084 0.1251043 0.08765806 -0.9882636 134 134 134
0.0510442560389134 0.119022339099323 -0.0180148682875468 -0.3309152 0.8242702 0.4594276 75 75 75
0.0811037660351984 0.130053452412334 -0.0393377416603433 -0.4316705 0.3408543 -0.835152 129 129 129
0.108612410304341 0.0993177103066489 -0.0503793323365131 0.4509013 0.05534159 -0.8908565 174 174 174
-0.0582210201854428 0.0861979013705458 -0.0394554046641147 0.3289896 -0.03041317 -0.9438437 109 109 109
0.0742036078059433 0.0403667582474396 -0.0465208537614011 -0.1564161 0.1833017 -0.9705331 82 82 82
-0.0846236807492876 -0.00424268867247113 0.0550606875785573 -0.475907 0.2959104 0.8282207 37 37 37
0.091856490564999 -0.0417598272995652 -0.0258344196236378 0.9868 -0.1618712 -0.004846476 154 154 154
-0.0178994600075676 0.0792680731411564 -0.0381851896949351 0.09312261 -0.1314043 -0.9869453 92 92 92
0.0874747235541784 -0.0690340372113115 -0.0268658084063479 0.8469941 -0.5314581 0.01238355 232 232 232
0.0617245271527093 -0.048312726362586 0.0509202608934072 0.2948784 -0.9139791 0.2787273 92 92 92
-0.0745531238073737 -0.0849619266928551 -0.00745517522488059 -0.3185616 -0.8577134 0.4035421 126 126 126
-0.046278401349269 -0.043330482868712 -0.0430017038681337 0.3564567 0.08007343 -0.9308742 147 147 147
-0.0789940373950414 -0.0592199505870964 0.0542523718151697 -0.1967854 -0.8503154 0.4880976 68 68 68
0.0333843846411499 -0.0279417237706674 -0.0401586598339123 -0.2127643 -0.1681106 -0.9625332 164 164 164
-0.0635614419016355 -0.0835749331619577 -0.0461381432738791 0.1869867 0.07254578 -0.9796801 156 156 156
0.0523037935750101 -0.0791720663693992 -0.0218838990260912 -0.04461838 -0.9921736 0.1166227 128 128 128
-0.0694901661622669 0.135678174653655 -0.0316078524744567 -0.4005176 0.815482 -0.4178213 99 99 99
-0.042490340780829 0.0930743022308422 -0.0374286946445394 -0.3045936 0.493573 -0.8146217 118 118 118
-0.00389011038228004 0.0635810664681673 -0.0384296221036905 -0.05042718 0.2818421 -0.9581347 158 158 158
0.0525016300576845 0.124623172620971 -0.0383872225123201 0.02792775 0.1895088 -0.9814817 180 180 180
0.00224667744171181 0.0640569959507837 -0.0383606445247882 -0.04808828 0.4153661 -0.9083824 136 136 136
-0.0799632842487203 0.0242089866878601 -0.0402609192963594 -0.9128385 0.2350022 -0.333916 119 119 119
0.09672675379441 -0.0154612069642006 -0.010061072127323 0.9807286 -0.1396599 -0.1366255 119 119 119
-0.0653632510512971 0.03751418603768 -0.0474154743259312 0.318765 0.2940006 -0.9010841 155 155 155
0.0234909878452063 -0.0536683353329868 0.055561327221499 0.2014558 -0.9328712 0.2986082 157 157 157
-0.0252124186216991 0.107952749194943 0.00190834692491715 0.2139892 0.9541497 0.2093009 60 60 60
0.106613037480361 0.0747764295757207 0.00543532891392734 0.9870832 0.1532872 0.04658157 102 102 102
-0.0512452023229198 -0.0204717662513286 -0.0445236663568671 0.3193364 -0.09300411 -0.9430665 131 131 131
0.0721575929582937 -0.028420237144322 0.065911774271937 0.6742691 -0.3232257 0.6639927 138 138 138
0.0755346164348367 -0.0347941862839075 0.0598440876391661 0.6603159 -0.2738391 0.6992819 129 129 129
0.0891898148488653 -0.0466003959487211 0.0231210315920738 0.2760525 -0.8207288 0.5001992 139 139 139
-0.0908665725839378 -0.0171741481122691 -0.0101046889775391 -0.9267359 0.2239148 -0.3016998 199 199 199
0.105211599087721 0.06205214885927 0.01448808195728 0.9811161 -0.1379194 0.1356077 96 96 96
-0.00286367528231157 0.111895345012999 -0.0250027761803472 0.01516481 0.9542722 0.2985543 62 62 62
-0.0683478392444009 -0.00778652396118673 -0.0509769736772133 0.2816806 -0.05608716 -0.9578676 150 150 150
0.0380380638897078 -0.0550563995527478 -0.0314058760163888 -0.1097684 -0.1754689 -0.9783463 131 131 131
0.0925307010713011 -0.0390826122659724 -0.00795909965094965 0.9977356 0.007817612 -0.06680238 140 140 140
-0.0530617543926906 0.116235253260955 -0.0381898823830291 0.06008071 0.01109504 -0.9981319 95 95 95
0.0841215684559198 0.034538950521797 -0.0483370684942842 -0.01441652 0.01087454 -0.9998369 155 155 155
0.0768529229611044 0.0721533847348639 -0.0432267333582322 -0.1894731 0.09396268 -0.9773796 131 131 131
0.101407032914014 0.0138477286122496 -0.0305850614486148 0.8718524 -0.4312559 -0.232146 144 144 144
0.0714761230731892 0.0885866516147229 -0.0410300515525114 -0.4746764 -0.01759125 -0.8799846 68 68 68
0.104150381255258 0.0422854130005392 0.0190832082702882 0.9503346 -0.06794579 0.3037226 125 125 125
-0.0414138534772546 0.0782573016252177 -0.0389345992209316 0.09702377 -0.2136241 -0.972086 135 135 135
-0.0643523004982312 0.134496178917758 -0.0340105052802027 0.1271774 0.9590484 -0.2530851 96 96 96
-0.0970181974130168 -0.0644138435395137 -0.0307850820089382 -0.8808485 0.1955665 -0.4311143 117 117 117
0.0218812225026225 0.00406036768849627 -0.0403664485418183 -0.341878 -0.226539 -0.9120305 163 163 163
-0.0810386843660618 0.0824256490107493 -0.0261329854042164 -0.8644434 -0.178257 -0.470066 92 92 92
0.0752975772080691 0.101912840086589 -0.0430453203451204 -0.4965824 0.07220277 -0.8649813 84 84 84
0.0961387870033563 -0.0196360859527199 0.00270173186715883 0.9898317 -0.1421328 -0.00560187 204 204 204
0.105340205739152 0.0160551886835434 -0.00586879491035763 0.9338818 -0.3400605 -0.1105607 123 123 123
0.104459942398081 0.116730509909987 -0.0488519157989987 0.009696542 -0.002233152 -0.9999505 191 191 191
-0.0230447593142672 -0.0515045341097983 0.0718881287895027 -0.07080097 -0.5586497 0.8263763 117 117 117
-0.0988299303623941 -0.0366291391151455 0.00776232179239389 -0.9067109 0.2653207 -0.3278419 113 113 113
-0.0764750783610441 -0.092996345892672 -0.0498538469908374 0.05377722 0.09490374 -0.9940329 217 217 217
0.10940676821598 0.132020390077577 -0.0415490948117783 0.626844 0.6940778 -0.3540093 164 164 164
0.0453819527416151 -0.069181742909536 -0.00147776240579073 0.05349657 -0.9945867 0.08908092 160 160 160
0.0395327634437348 0.00767254046164978 -0.0458605265969057 0.145112 -0.002897347 -0.989411 124 124 124
-0.0745491046246901 -0.0715142448274778 0.0316938610916378 -0.2248978 -0.9390552 0.2599929 120 120 120
0.0874503817047853 0.1068696106546 -0.0468621862036291 -0.2467118 0.09973329 -0.9639432 177 177 177
0.0527416262442079 -0.0736731008125283 -0.0150639850258112 0.04851864 -0.8424958 0.5365135 163 163 163
-0.0826318899184461 0.0592767052355068 -0.00333219645663269 -0.9409271 -0.1116923 -0.3196575 100 100 100
-0.00445713862931629 -0.0606700718194588 0.0519272927945265 0.08725473 -0.9625674 0.2566135 144 144 144
0.092409662149052 -0.0226810927792596 0.049877888094485 0.6930922 -0.3538441 0.6280268 108 108 108
0.0701077879767974 0.116833389158528 -0.0397569181880383 -0.2499816 0.2408723 -0.9378111 103 103 103
0.0401211949163486 0.120609350431811 -0.0403413167029547 0.02486685 0.1049694 -0.9941645 125 125 125
-0.00118563730637478 -0.0797297902684342 -0.0326773335493162 0.4233833 0.05827542 -0.9040744 118 118 118
-0.0874314442618177 -0.059597469882657 0.0510256437475745 -0.1595197 -0.8906742 0.4257379 83 83 83
0.0951497466627327 -0.0234373299388138 0.00551763317038034 0.996485 -0.08276196 -0.01296708 151 151 151
0.0419634032905635 0.0800489226369132 -0.0397046936981903 0.1290858 0.1376653 -0.9820311 193 193 193
0.0941623330367789 -0.0546734791651523 0.00214415362250781 0.9519488 -0.3023649 0.04867079 106 106 106
0.0500704630607089 0.0174962129976348 -0.0434324438026442 0.07912455 -0.07560947 -0.9939932 109 109 109
0.0142271871366829 0.111322894565407 -0.0227954135049986 -0.1348806 0.933064 0.3334648 62 62 62
0.107922972489369 0.043371342847575 -0.035663582877758 0.9897065 -0.1143227 -0.08608985 144 144 144
0.0655373578736115 0.0965103916060943 -0.0385938359231571 -0.3240587 -0.09181221 -0.9415713 148 148 148
0.0151259830762426 -0.0653475798401374 0.0320700983847256 0.2759614 -0.9145607 0.2956755 157 157 157
0.0238522902499158 0.0836670730727305 -0.039776616904497 -0.3122386 0.2124824 -0.9259365 177 177 177
-0.0857558891757577 0.105000470964875 -0.0232666322645116 -0.9574253 0.008202883 -0.2885646 75 75 75
-0.1025631551638 -0.0561400293294408 -0.0100347348921238 -0.8712297 0.4132606 -0.2649046 114 114 114
0.0251521498354683 0.0805157703627368 -0.0408261920618952 -0.2498941 0.2032394 -0.9467031 104 104 104
-0.0590552632582012 0.0109518322841133 -0.0503598988449332 0.3500357 -0.04998384 -0.9354019 100 100 100
0.108386964488599 0.113340503429292 -0.0470530396501863 0.8814649 0.02447292 -0.471615 85 85 85
-0.0994206051436775 -0.058319498849595 0.0470566483328438 -0.2581445 -0.8813019 0.3958135 67 67 67
-0.0360662325272372 -0.100293306222923 -0.0340805768502326 0.2747368 -0.8854899 -0.3747362 227 227 227
-0.0251216610617944 -0.0869109688698729 0.0211323323925617 -0.08220408 -0.787468 0.6108492 106 106 106
0.0256585006413858 0.056727812697855 -0.043735927872724 -0.008125614 -0.1321344 -0.9911985 147 147 147
0.0302479190297368 -0.0786776751834521 -0.0238067632888248 0.04636192 -0.9514156 -0.3043993 170 170 170
-0.0247655523608712 -0.0949659605568711 -0.0029941481083785 0.3217406 -0.9141561 0.2465796 148 148 148
0.0404541395748808 0.100305441054692 -0.039100131297403 0.05969794 -0.1253948 -0.9903092 114 114 114
-0.0597787854532909 -0.0389242685371382 -0.0490530619017726 0.4764629 -0.007417941 -0.8791633 100 100 100
0.0453708109582873 -0.0690648018378331 0.00292738198668929 0.01324631 -0.9906754 0.1355974 142 142 142
-0.0840724450839939 0.0573596772266072 0.00341249693300916 -0.9146958 -0.1489814 -0.3756809 122 122 122
-0.00192785622093661 0.100625817367983 -0.0409444228219758 -0.05078481 -0.09571555 -0.9941124 143 143 143
0.0902464047854283 -0.0587234817504095 -0.0285240527801132 0.9826131 -0.08286092 -0.1661489 71 71 71
0.0858460224748249 0.110682067465262 -0.0464426179209224 -0.2917467 0.05911205 -0.9546673 130 130 130
0.0598912284172451 0.118452686370607 -0.0389631199655447 -0.02042198 0.1318604 -0.9910579 121 121 121
-0.0648406790154499 -0.027827540272562 0.0676732403600081 -0.09088912 -0.1411952 0.9858007 52 52 52
-0.0263471502585306 -0.0942955428058971 0.00433015031029738 0.3682037 -0.8994423 0.2354348 154 154 154
0.0435809741411294 0.0268571273735219 -0.0438218747091962 -0.05802359 0.08849262 -0.9943854 140 140 140
-0.0789552520771732 -0.101008630763858 -0.0413206304653697 -0.3277961 -0.9234313 0.1995605 171 171 171
0.103538269970139 0.0926171672694653 -0.0492612641221082 -0.3415539 0.01502089 -0.9397421 119 119 119
0.0674465718528258 -0.0287677099174033 0.0706338308054741 0.6564841 -0.3594349 0.6632007 116 116 116
0.0747683176029234 0.102738353517997 -0.0425827736448157 -0.5052907 0.05287421 -0.8613278 78 78 78
-0.0941046000860004 0.0242740332343703 0.0245358989777262 -0.9435746 0.2443171 -0.2235533 91 91 91
0.0685280928335836 -0.0516992472465277 0.0295055801058983 0.2848252 -0.9564713 0.06353924 223 223 223
0.0141020519235406 -0.0572545986691165 -0.0317268516911519 0.1113029 -0.1977924 -0.9739044 160 160 160
-0.103029663454273 -0.0820098741482364 -0.018012239261497 -0.3670655 -0.8484975 0.381202 153 153 153
0.104473691240345 0.0115529242002519 -0.00580988668641569 0.9231011 -0.2780717 -0.2656321 81 81 81
0.107052745163253 0.0476044929731605 -0.000184267017522166 0.9907621 0.02188582 0.1338337 57 57 57
0.064645512849873 -0.0116015573452504 -0.046133824807391 -0.07815752 0.2533743 -0.9642058 145 145 145
0.0765979065380461 -0.0451071778489787 0.0433602885871436 0.4289731 -0.8530481 0.2971379 94 94 94
-0.0561382220493429 -0.108284797071763 -0.0331056034372938 0.1860525 -0.9824194 -0.01537772 226 226 226
0.0724222370581715 0.0851226242007326 -0.0413357575237093 -0.3877966 0.0007565744 -0.9217447 116 116 116
-0.105913971391651 -0.0767930422806243 -0.0199493635411127 -0.9449639 0.1385132 -0.2964074 121 121 121
0.109268392411715 0.103252403754862 -0.0323430008136308 0.9995176 -0.02924718 -0.0104455 79 79 79
0.00499590645515591 -0.0664483641625347 0.0249720018491423 0.2472488 -0.9439701 0.2186056 127 127 127
-0.0342310987471418 -0.0902090262947721 0.0141959879824232 -0.2598014 -0.7293725 0.6328657 132 132 132
-0.00878530309903447 -0.0879470241967146 -0.022650820093996 0.4420234 -0.896773 0.02033619 188 188 188
-0.0671305785188691 -0.0746888144797158 0.0276558367811424 -0.2965042 -0.9068843 0.2994096 142 142 142
-0.0783790364353948 -0.0579433937181908 0.0563795991110865 -0.2190921 -0.846242 0.4856679 65 65 65
0.0670655909741222 0.0681225871372377 -0.0419522395800748 -0.2213899 0.2697826 -0.9371253 130 130 130
0.0590987121363493 -0.0662218197072599 0.00312367157207016 0.2419065 -0.9339762 0.2630012 116 116 116
-0.0675600720046792 0.106247834983191 -0.0381662416371313 -0.09775927 0.09746099 -0.9904264 124 124 124
0.00795692839337647 0.105629084316869 -0.0402622635417255 0.04457929 -6.256584E-05 -0.9990059 82 82 82
-0.0938986776739325 0.0123058187279221 0.0219212467576902 -0.9693499 0.1027983 -0.2231444 91 91 91
0.0649703318732044 -0.0711579702552426 -0.0113399741275184 -0.05834834 -0.8927917 0.4466749 153 153 153
-0.0889628311482528 -0.0190252849878203 -0.0152665547257889 -0.9009232 0.2690005 -0.3405526 119 119 119
-0.0353938574763244 -0.0986155587312263 -0.0105369711537554 0.01605601 -0.9408589 0.338418 152 152 152
-0.0990142495131636 -0.0887482530368816 -0.0494933099480824 -0.8830884 0.06935585 -0.4640524 92 92 92
-0.087170442002979 0.063280760892078 0.0109298960910196 -0.9915153 0.03121034 -0.1261876 83 83 83
-0.0586893089976271 -0.10540718947974 -0.0256647175961683 -0.03304444 -0.8781742 0.4771982 163 163 163
0.0846186166601502 0.11367222929919 -0.0459175594502707 -0.337218 0.08607803 -0.9374831 184 184 184
0.0690517600118629 -0.0450865182890827 0.053373958023566 0.1932723 -0.9204097 0.3398409 68 68 68
0.0693648147954821 -0.0707617428029532 -0.0115921716725675 0.06697796 -0.8666101 0.4944703 184 184 184
-0.076437966705276 0.105126664169924 -0.0343690007034967 -0.4255456 0.03469353 -0.9042717 93 93 93
0.0676152349533713 -0.0522996264972982 0.0328796653803168 0.1803413 -0.9814832 0.06455764 200 200 200
-0.0109233616858325 -0.0711467109867231 0.0353475591518167 0.48937 -0.828282 0.2728843 117 117 117
0.0407296824434868 0.0794648441416237 -0.0400738212969617 0.1391636 0.1157281 -0.9834839 171 171 171
0.0871135218691312 -0.0588432862991195 0.00201321536011045 0.1164628 -0.9514585 0.2848915 116 116 116
-0.0894574446030003 0.00584287050089216 0.00533917776088977 -0.9175174 0.1435524 -0.3708835 126 126 126
0.0712655622240314 0.0798897107117351 -0.0412702179329133 -0.2952637 0.04381374 -0.9544107 117 117 117
0.108803453583089 0.0229543957926532 -0.0148927588968955 0.9805418 -0.1580393 -0.1164536 214 214 214
0.10993277938586 0.0521685133281662 -0.0203992936227319 0.9901037 -0.1402978 0.003339778 112 112 112
-0.0950295446200693 -0.0466419699908612 -0.0158363611082655 -0.9198905 0.2333315 -0.3152107 135 135 135
-0.057268244112286 0.0248266956881062 -0.0502604341266991 0.5218212 0.1753505 -0.8348382 81 81 81
-0.0329921371937678 -0.07872731984615 0.0338107874885285 -0.01530784 -0.9327547 0.3601865 124 124 124
0.104650301677505 0.011921821937297 -0.00356709890402268 0.9262561 -0.2487873 -0.2831156 145 145 145
-0.0768805976465518 -0.0126717165226031 -0.0519895008497589 -0.006399732 0.09266784 -0.9956765 183 183 183
0.00829772939694973 0.032383846288671 -0.0418075717441481 -0.0291375 -0.1390991 -0.9898497 121 121 121
-0.0606076408554914 -0.0806716966211178 0.00921782640047758 -0.3112632 -0.8983313 0.3100259 187 187 187
-0.0614423189148026 0.115768116875139 -0.0381006295593979 -0.09134705 -0.001675517 -0.9958177 123 123 123
-0.100049613900846 -0.0918670764030984 -0.0338699652536583 -0.5130218 -0.844195 0.1553817 131 131 131
-0.0973390535799192 -0.0470147420785776 -0.0122193197869953 -0.8472059 0.3634635 -0.3874744 118 118 118
-0.0266185756571231 -0.0961093811850009 -0.00276246531558239 0.2673269 -0.9353213 0.2317549 141 141 141
0.091738663102448 0.0227302577445401 -0.0471653460221533 -0.2739968 0.01902088 -0.9615425 194 194 194
-0.0401466130944889 -0.0474382838707612 -0.0413038263591124 0.1773872 0.06127641 -0.9822316 177 177 177
0.0417837754353654 -0.071899642055377 -0.0110393663831097 0.08025582 -0.8578588 0.5075799 141 141 141
-0.0352739448113624 0.0251356016166684 -0.0383773782192741 0.2474365 -0.01762143 -0.9687439 80 80 80
0.0825805109685376 0.0995144827736327 -0.0469731224652697 -0.2622635 0.02403766 -0.9646969 139 139 139
0.0271193929969753 0.0279764060900738 -0.0420195840380587 -0.04522019 0.2853787 -0.9573475 114 114 114
0.00840766227903478 -0.0199343226261268 -0.03513381766703 -0.02617416 -0.05951401 -0.9978843 241 241 241
0.100429674873914 -0.02199511372096 0.0344454172142418 0.9799739 -0.1493169 0.1317411 181 181 181
0.108516341089645 0.0993225214724449 -0.0180228769145606 0.9996491 0.02577491 -0.00610872 77 77 77
-0.0541825589099044 -0.0701154355427409 -0.0462898852114483 0.01641931 -0.11349 -0.9934034 131 131 131
-0.0155475491587952 -0.0917467315013526 -0.0171199922544426 0.568333 -0.8227962 -0.002016429 188 188 188
0.0906456239409461 -0.0377665774681666 -0.0400104207755458 0.9743584 -0.0900503 -0.2061957 115 115 115
0.029895560415133 0.0873860199148386 -0.0400688824875365 -0.03514863 0.1052911 -0.9938201 178 178 178
-0.0798471674717426 0.0711927362171767 -0.0226415257345514 -0.9004582 -0.1800094 -0.3959441 167 167 167
-0.0622724424402338 -0.00907295549970399 -0.0481596689655245 0.3960046 -0.02727011 -0.9178435 162 162 162
0.0999955078770083 0.0258012469314188 -0.0502289444412626 0.1596245 -0.1715046 -0.9721657 220 220 220
-0.0885539765858987 -0.00396392556128 -0.00891500982326832 -0.9827964 0.1376688 -0.1231204 109 109 109
0.073693378060774 -0.0503882143403798 -0.0420355325029396 -0.04927922 -0.09328569 -0.9944191 104 104 104
-0.0854879881823019 -0.00834177140087577 -0.0221192450986308 -0.9259759 0.0377577 -0.37569 114 114 114
-0.0737416431148811 0.0695350356061497 -0.0356975666340004 -0.8008648 0.06065147 -0.5957659 202 202 202
0.0141048760675622 -0.0758127742794305 -0.0224955578012262 0.01409952 -0.9249413 0.3798484 153 153 153
-0.0268037952245419 0.109613930544697 -0.00454417861569023 0.2774481 0.9411395 0.1930779 37 37 37
-0.0293834604910408 -0.067280361961765 0.0513817591325295 0.1034466 -0.712256 0.6942552 173 173 173
0.0941008445485518 -0.0327472003884082 -0.00397860738310091 0.9588065 -0.2507288 -0.1335107 138 138 138
0.0126930886184153 -0.0360773421157768 -0.0341669345612791 0.08201531 -0.03567388 -0.9959924 113 113 113
0.0953236755649485 -0.049121164973096 0.0118859167529906 0.8413669 -0.5299863 0.1059069 199 199 199
0.0629456637217767 -0.0478934215186709 0.0502098348644383 0.2846376 -0.9175639 0.2775933 71 71 71
0.0502871279123476 -0.0480754464941673 -0.0383235466014276 -0.2345006 -0.3853408 -0.8924807 99 99 99
-0.00968225457227445 -0.0245374370966905 -0.03987471366276 0.2855169 -0.04553514 -0.9572913 146 146 146
-0.0288536345642056 -0.0430559360071197 0.0714333156019403 -0.149323 -0.1221382 0.981216 39 39 39
0.0221641570380028 -0.0126660763506317 -0.0390864515940371 -0.2926227 -0.2164592 -0.9314061 130 130 130
0.034210899244199 -0.0141596938457969 -0.0422090364054245 -0.2403759 -0.1189336 -0.9633661 115 115 115
0.0114402417430123 -0.0663176634503055 0.0250224041658474 0.05576118 -0.9957554 -0.07322464 136 136 136
-0.0396902069388706 -0.0677872173452215 0.0508510450369137 0.04934282 -0.8187556 0.572018 135 135 135
-0.0284243662291324 -0.0993641703441486 -0.0177103060046667 0.1550014 -0.9762019 0.151672 164 164 164
0.105696252397264 0.019909989472074 -0.0228206186581076 0.9100412 -0.3415179 -0.2349268 164 164 164
-0.0663173168129815 -0.0793494186204026 0.00684289965034068 -0.3166359 -0.8881677 0.3330162 136 136 136
0.0784373593190745 0.0148851540574593 -0.0467362582688857 -0.098514 -0.121714 -0.9876643 101 101 101
-0.0621653362780975 -0.0311084368503358 -0.0500140919812265 0.5304634 0.1539956 -0.833603 121 121 121
0.0694305469774376 -0.068810254232495 -0.0354669663156429 -0.2976633 -0.3062367 -0.9042211 104 104 104
-0.0684100165539515 0.016160087486174 -0.0535809355279505 0.1973086 -0.1046612 -0.9747386 134 134 134
-0.0181778121989679 0.028132574251422 -0.0371833818259577 -0.1886239 -0.2483602 -0.9501254 76 76 76
0.0240305942677643 -0.0655636526599477 0.0290359517946764 0.04271072 -0.9304008 0.3640469 168 168 168
-0.0722944314378076 0.0416568133252113 -0.0451994729800256 -0.7506221 0.2551262 -0.6094892 126 126 126
-0.0840034776329315 0.0214494680914157 -0.0134525036387762 -0.9344516 0.2758318 -0.2252043 146 146 146
0.105078451776188 0.0205809738727067 -0.0327652899736751 0.9212859 -0.3668713 -0.1289876 89 89 89
0.109417745596044 0.0296017139583031 -0.00749744446680711 0.9834577 0.0009579039 0.1811351 107 107 107
-0.0139764958747807 0.113455217615251 -0.0304162550060975 0.2165805 0.9128031 0.346242 73 73 73
0.0457078220841498 0.128018501665411 -0.0376131501895912 0.1247631 0.2454395 -0.9613499 159 159 159
0.0822361526050671 -0.0218971814471839 -0.0458003019404227 -0.051978 -0.05245958 -0.9972694 148 148 148
0.052840028663535 -0.055333208387779 0.0282032213421766 0.2351225 -0.9164747 0.3237152 172 172 172
-0.0947987977100399 -0.0806405834952844 -0.0499998475794685 -0.5692933 0.4175776 -0.7081907 203 203 203
0.0924529589518051 -0.0576483251105746 0.00327913079970488 0.6392332 -0.7484729 0.176548 78 78 78
0.089970190908565 0.132623027834707 -0.0421283711967889 -0.2520284 0.4820228 -0.839128 119 119 119
0.0360724682789932 -0.0172293765108398 -0.0420723540830594 -0.2713729 -0.1702837 -0.947291 148 148 148
-0.0996130038096243 -0.0544932365378064 -0.0168310975106279 -0.874382 0.3830702 -0.2978478 143 143 143
0.0811719676647757 0.102418709994987 -0.0462151945535527 -0.2952466 0.07400923 -0.9525503 145 145 145
0.109681137490421 0.0706518304747437 -0.0418047564084217 0.9877052 -0.1540944 -0.02633216 113 113 113
0.0970361956321736 0.129892788888561 -0.0446724564688968 -0.1487837 0.2608287 -0.953851 152 152 152
0.0810382037814678 -0.0225468145866347 -0.0453861448059835 0.0241247 -0.01744101 -0.9995568 137 137 137
-0.099900569288767 -0.0405783829012968 0.050072709951561 -0.601326 -0.006630776 0.7989763 111 111 111
-0.0430799849909707 0.0490901512621609 -0.0382940767257265 0.2271795 0.06536472 -0.9716568 202 202 202
-0.0254282674537106 -0.0414894781294916 -0.0398854570438834 0.1912277 0.1776744 -0.9653309 147 147 147
-0.0849427978832175 -0.0166530886769384 0.0593076770365929 -0.5119959 0.2309772 0.827351 32 32 32
0.0740852254261803 -0.0585455321330983 -0.0423948454417811 -0.2181245 -0.2565973 -0.9415835 110 110 110
-0.0500450642098201 0.114426066593335 -0.037388682949472 0.1185199 -0.06097918 -0.9910775 89 89 89
-0.0828659243076598 -0.0739491847964366 0.0050768946799889 -0.3598292 -0.9101988 0.2050879 97 97 97
-0.0804065798807111 -0.0748379793400502 0.00824983411548957 -0.3763986 -0.9163534 0.136457 115 115 115
-0.0217948488290592 0.116648138475267 -0.0365792183701406 -0.0006179168 0.9423443 -0.3346444 87 87 87
-0.103897308669239 -0.0224051131753151 0.0307000376210413 -0.9079366 0.3422733 -0.2418681 68 68 68
-0.0463653480642586 -0.0181972829810604 -0.042561336539555 0.3393834 0.01031401 -0.9405916 155 155 155
0.0342207455290455 0.03006839416415 -0.0410143464365428 -0.1719498 0.2309933 -0.9576405 146 146 146
-0.0865203357563983 0.00276424085584437 -0.0163385020360218 -0.9884002 0.0642108 -0.1376302 116 116 116
-0.0220695254076345 -0.0277312148530917 -0.0393112796461109 -0.1429543 -0.005879822 -0.9897118 134 134 134
0.0475908281010369 0.0201110613691007 -0.0438944185718048 0.1083826 -0.07094166 -0.9915748 137 137 137
0.0633746136784336 0.111417456024928 -0.0402445025343094 -0.01348793 0.001102657 -0.9999084 172 172 172
0.0935200193076529 -0.0539032421487947 0.00666875987277937 0.8269429 -0.4856845 0.2833303 114 114 114
-0.0999252003679169 -0.0264100844456574 0.014619663301542 -0.913801 0.1376216 -0.382136 137 137 137
0.0901793354455085 -0.02539730690439 -0.0466936695974569 0.4267556 -0.1046474 -0.898292 109 109 109
-0.0911603193960941 0.0105307636252285 0.0119237339169155 -0.9180036 0.1103783 -0.3809017 132 132 132
0.0531988077254536 -0.0542856874016776 0.0395555847346818 0.280623 -0.9543749 0.1020747 117 117 117
-0.0478091567651037 -0.0940620348484582 0.000171220707308795 -0.4439501 -0.7001329 0.5592157 108 108 108
-0.0996479531948837 -0.0824831415424794 -0.0424196253274158 -0.8611819 0.3845929 -0.3323463 158 158 158
-0.0787500455242393 -0.033102819538279 -0.0554346231058011 -0.631501 0.2758701 -0.7246394 148 148 148
-0.0788017258645136 -0.0958455720230044 -0.050008639187944 -0.05123282 0.02465554 -0.9983823 188 188 188
-0.0796924467852431 0.0496135851385255 -0.0164468919032029 -0.9897671 0.07214032 -0.1231136 79 79 79
0.0126012641368736 0.112836673060151 -0.0284200927487463 -0.1464591 0.9216424 0.3593398 97 97 97
-0.0501545725133405 0.0254908318298885 -0.0454089541822253 0.4249318 0.1507738 -0.8925807 151 151 151
