ply
format ascii 1.0
comment File exported by Rhinoceros Version 7.0
element vertex 466
property float x
property float y
property float z
property float nx
property float ny
property float nz
property uchar red
property uchar green
property uchar blue
end_header
0.0129321490730399 0.0406833898982876 -0.00182297466807868 0.704247 0.7080684 -0.05172332 201 203 204
0.0137389298114217 0.0404611452989442 -0.00215686245947855 0.663378 0.746946 -0.04473549 215 216 218
0.0144987267067429 0.0406935102845077 -0.00465150012052074 0.6546941 0.7558155 -0.01088497 192 194 195
0.00907897302413874 0.047529977287268 -0.000592803383910712 0.5095266 0.8602108 -0.02049176 181 182 186
0.00537017089618952 0.0506659687434402 -0.000460776756034398 0.5888453 0.7909505 -0.1663086 196 195 196
0.00586559209159976 0.0488578707408626 -0.000682533753561865 0.5125491 0.84794 -0.135245 213 215 221
0.00606027752039373 0.0456625210286697 0.00110440687791524 0.5610795 0.7191834 0.4098354 211 211 215
0.00482856874208526 0.0460276587001508 0.000454801668346161 0.6626981 0.4754743 0.5785804 204 207 208
0.006865866163144 0.0471375236812154 -0.00151515866370333 0.4189796 0.8987855 -0.1289985 187 187 188
0.00875260864941829 0.0456271037825445 -0.00382864676698746 0.6129699 0.7840157 -0.09791433 198 200 202
0.00611201680459672 0.0491001802505108 -0.00203665146432108 0.5167979 0.854501 -0.05242125 184 184 182
0.0063752231661387 0.0497409043441289 -0.00380761491892734 0.5527688 0.8329169 0.02638436 187 186 184
0.00477667608642873 0.047756335735114 -0.00115728217511335 0.4668406 0.6398751 -0.6104258 193 194 192
0.0064103993054927 0.0475072450811226 -0.00404447264604685 0.5133302 0.8571111 -0.04304301 191 190 189
0.00969219238645325 0.0446271250931262 -0.000236032023045285 0.6715079 0.7373795 -0.07313458 184 186 184
0.00577394640649476 0.0421228123971092 -5.79598263362735E-05 0.4694819 -0.8684593 -0.1592646 208 209 212
0.00758862559318696 0.0418200921902573 -0.000241741638231208 0.2780437 -0.5865291 0.7607071 189 195 194
-0.064501730035091 0.0606278827270793 -0.00648130442883504 0.5205107 -0.740116 0.4257898 159 163 160
0.00795863880309677 0.0435507526881421 -0.0022237332166275 0.6984999 0.6756926 -0.235664 200 203 206
0.0107027772171873 0.0411527718435182 -0.00226793865554764 0.7447323 0.6669863 0.02242788 199 199 204
0.00976508468134174 0.0424588835351022 -0.00371307648636571 0.5324855 0.8399314 0.1047592 199 199 202
0.00592493624117196 0.0449418033264396 -0.00177375005092067 0.2063471 0.9708657 -0.1218221 204 206 211
-0.00146899816525692 0.0572973803813831 0.00607134229385431 0.720619 0.5839898 0.3737167 222 216 204
-0.00331192445496442 0.0570433419859321 0.00630719887070552 0.6301869 0.5591103 0.538758 196 196 202
-0.00284932912712255 0.0552772989539018 0.00630761148460746 0.6353891 0.4855459 0.6004381 203 205 209
-0.000558081699914892 0.0535906238764577 0.00609668983249373 0.621031 0.6132344 0.4881231 197 197 199
0.00237485796853742 0.0504236749337558 0.00403933777396315 0.800534 0.5271044 -0.2851426 186 188 185
0.000132581343733618 0.0523114763847455 0.00435631623688298 0.7073351 0.7025225 -0.078353 184 186 187
-0.000794466071149191 0.0536329077980885 0.00465524013718666 0.7542849 0.5654067 0.3337209 188 189 191
-0.000541584249253546 0.0532907112821538 0.00246967309945634 0.8273061 0.555074 0.08635694 192 194 197
0.00109920182384027 0.0520822362531085 0.00369739036092787 0.7398152 0.6697081 0.06453223 174 180 168
0.000189085632720243 0.052152189179027 0.00231025018918768 0.8320688 0.547051 -0.09163329 196 197 199
0.00209806450842276 0.0506953318059539 0.00222100870080011 0.8216583 0.4982194 -0.2768666 204 206 207
-0.00180410656684882 0.0524280302431709 0.00197096827253218 0.7187195 0.693318 0.0524632 198 200 203
-0.000982487031893964 0.0510248410733695 0.00361098599042686 0.6469341 0.7573491 -0.08887389 193 196 200
-6.79320522496418E-05 0.0508947524791267 0.00225074962789906 0.8607343 0.5080538 -0.03190421 212 217 219
-0.00752295512597057 0.0588675580666064 0.00643962986275642 0.6430942 0.6797493 0.3526624 204 206 212
-0.00743369216154455 0.0587925216222022 0.00480600577147827 0.6092281 0.7469886 0.266175 195 198 203
-0.0049305957381256 0.0569750454182457 0.006677872089971 0.6167706 0.7260886 0.3039562 195 197 200
-0.0043916432984803 0.0555759613068859 0.00649670801542263 0.4891912 0.5106481 0.7070576 204 206 207
-0.00527981593540705 0.0568301270647839 0.00491749985802037 0.5582578 0.7551736 0.3436002 192 193 196
-0.00673323565925976 0.0572552879917728 0.00454183004478526 0.645644 0.7189685 0.2573482 194 195 199
-0.00938660881114117 0.0593696325434768 0.00655525861224959 0.5887491 0.5042637 0.6317378 211 212 220
-0.00475801602289083 0.0555348429386225 0.00238644423684298 0.6449226 0.7620604 0.05778285 184 186 190
-0.00716718458919807 0.0571961223478837 0.00237390073370586 0.7064757 0.7024865 0.08605116 192 196 202
-0.00907898483807745 0.0588479036534976 0.0027917568373016 0.7837517 0.4855472 0.3872689 192 195 198
-0.0044424077284384 0.0536504481980448 0.00643682709503968 0.3571323 0.1271196 0.9253632 204 201 192
-0.00863219736145715 0.0517852178955566 0.00571784702746225 0.2644156 -0.1067317 0.9584846 202 203 204
-0.00399311970255978 0.0539275154480091 0.00397115952982352 0.6833662 0.6668838 0.2971137 194 197 201
-0.00255313209719077 0.0557565562401242 -0.00151546589292134 0.7476839 0.4638134 -0.4752325 187 190 192
-0.000898819766314896 0.0565396031961481 -0.00357264363224996 0.7826233 0.5122557 -0.3536875 216 216 220
-0.00322582792794601 0.0577279200535786 -0.0036360849213436 0.8232329 0.4133206 -0.3891706 204 204 209
0.00243086863007291 0.0511036230685226 3.38716174832498E-05 0.6078084 0.6876793 -0.397072 202 202 207
-0.00122884276375279 0.0535001977418964 0.00111100132342229 0.7931471 0.573325 -0.2054655 193 191 198
-0.0023104059676804 0.0533905846711659 0.000451695079988101 0.7642869 0.6133546 -0.1991524 202 202 206
-0.00302387646087965 0.0553267416433646 4.47613375471612E-05 0.7234729 0.5064907 -0.4690993 181 179 184
0.000168751952484225 0.0508147527096 -0.000715131397445612 0.992137 0.1066985 0.06541888 195 198 198
0.000109275758496175 0.0534179579945578 -0.00125070600546678 0.664084 0.5313969 -0.5259371 208 209 209
0.00156744264858433 0.0545241654658056 -0.00345132147576566 0.6423956 0.7172401 -0.26999 207 207 212
-0.00608204649676081 0.0587300374517402 0.00260540068903947 0.6566044 0.7292058 0.1926899 188 186 195
-0.0048894768444061 0.0558032357303845 -0.00114100092528008 0.707572 0.4910827 -0.5081137 194 196 199
-0.0068641006432173 0.0573199314091498 -0.00124850506711627 0.8334599 0.5176119 -0.1934491 185 188 190
-0.00994555534762664 0.0598654601721212 0.00136271004635191 0.7364018 0.6446415 0.2053038 179 179 183
-0.00853106632205902 0.057567690104526 0.00180011788939527 0.8651793 0.4873079 0.1183035 199 204 208
-0.00929503713537594 0.0583911979819304 0.000838922209461246 0.8862934 0.4592314 -0.05992154 189 193 197
-0.00845815564717034 0.0578366625538144 -0.000765838244248918 0.8033062 0.5919108 -0.0658851 176 179 182
-0.00510484176063897 0.0570931173115076 -0.000983192685447276 0.8515226 0.4973695 -0.1659304 177 179 179
-0.00547972234472871 0.057404327377817 -0.00272947384989786 0.8792988 0.372981 -0.2961736 184 187 187
-0.00653109347774716 0.0577121016689573 -0.00332186163583992 0.845016 0.4784139 -0.2388894 196 199 201
-0.00950148420375796 0.0590813700277789 -0.00169973055281153 0.7674441 0.6241861 -0.14636 188 193 195
-0.00907161914733656 0.0593975149331262 -0.00274220815474935 0.7060518 0.7061448 -0.05339006 188 193 196
-0.00736625665093493 0.059078653313316 -0.00335216251226378 0.8402051 0.4649548 -0.2790564 186 189 190
-0.0100148066087329 0.0604912397849114 -0.00304144451533278 0.5845597 0.8004352 -0.1326404 188 191 196
-0.00395019913116923 0.0527180307315872 0.00101213565190883 0.7884834 0.5512032 0.2728901 200 201 202
0.0277488540793365 0.0212679015929177 -0.0113330946827996 0.1257042 0.05750095 0.9904 198 201 206
-0.00389374431313172 0.0514674370091285 0.00129587574698653 0.2312744 0.07145927 0.9702607 196 197 196
-0.00756539323052441 0.052455248246816 0.000891727280513954 0.1396848 0.3594989 0.9226314 201 203 206
-0.00604414969635014 0.0516263836525895 0.000711305018356256 0.07323813 0.3927917 0.9167066 201 201 206
-0.00636686566867417 0.0518334877392285 -0.000924348972826727 -0.2199244 0.4389533 0.8711792 188 190 190
0.00247708805429236 0.047590662797906 0.00571083013308271 -0.07335814 -0.04265469 0.9963931 206 206 211
0.000135641138795162 0.0479892381180301 0.0063172974122131 0.04221058 0.1371814 0.9896462 206 204 199
-0.00147648243929699 0.0457436581348377 0.00231549098751116 0.2263164 -0.4978442 0.8372168 214 219 222
0.0038241861640147 0.0406020071655578 0.00393890276915487 -0.5031809 0.1330776 0.8538732 208 201 187
0.00475099540039925 0.039393270269854 0.00169862372475416 0.2111766 -0.8224385 0.5282039 210 213 215
0.00157612609514035 0.0386953687941808 0.00202265195398782 -0.5784466 -0.5640278 0.589298 194 196 188
-0.00575231422160516 0.0438007338258878 0.00610513368386484 -0.02881006 -0.02728941 0.9992123 202 204 205
-0.00375977226250579 0.0450271973803734 0.00232211845482533 0.101693 -0.5212231 0.8473399 218 223 222
-0.00607270259499537 0.0477238740021363 0.00451181116535659 -0.235734 0.1503657 0.9601144 212 206 194
-0.00756273332675983 0.0473147042660772 0.00408277748185282 -0.19954 -0.1732109 0.9644593 211 206 195
-0.00776460492862618 0.0450898494222757 0.00405475459736804 -0.06792489 -0.02789221 0.9973004 206 208 212
-0.00721267390518632 0.0418312001218896 0.00358440378500141 0.09896416 -0.1640731 0.9814714 201 201 203
-0.00611757227574872 0.0394717645708852 0.00215441903501989 -0.5560522 0.8058699 -0.2034196 204 204 204
0.00315567515124404 0.044913946001136 -0.00120550377564255 0.3040397 -0.2618275 0.9159728 206 209 208
0.000500037317135327 0.0471166052420201 -0.000892331725068807 0.4510339 -0.367248 0.8134478 192 194 192
0.000161905533078155 0.0414617002800605 -0.00127263159393526 -0.1748578 0.5857646 0.7913941 221 221 228
-0.00796863009051751 0.0482627083496704 -0.000744444014241896 0.4827677 0.3110547 0.8186454 223 228 235
-0.00677420574957055 0.0480198926651968 -0.00121520997493157 0.7251167 0.342239 0.5975602 206 209 211
0.00400890918514474 0.0513235052965199 -0.00540625009803475 0.4730286 0.8800775 0.04132242 192 193 192
0.0034456254839117 0.0549900324481564 -0.00670482595490024 0.5199844 0.8539581 -0.01927855 185 185 190
0.00334949595217937 0.054726480643191 -0.00856043984995297 0.4599077 0.8185564 0.3441662 179 181 167
0.0038737765179504 0.0527387628014554 -0.00787791602239968 0.5421757 0.8168134 0.197133 179 181 176
0.00374684367976719 0.0514335094934194 -0.00938507932208593 0.4268081 0.6735888 0.6034178 194 195 195
0.00398686799995285 0.0534124385814488 -0.0100132161841091 0.4766566 0.6399433 0.6027197 184 187 186
0.0140367346415222 0.0410768498664865 -0.0082779115396559 0.4751016 0.8478817 0.2353191 196 197 201
0.0142914444307523 0.0407806896819333 -0.00622656224019835 0.5441127 0.83639 0.0662809 184 185 187
0.0122408922980104 0.0431838588616938 -0.00841747380382762 0.6429783 0.7109002 0.2849556 191 193 194
0.0115549415242939 0.0444667501496231 -0.0100396214834723 0.5549188 0.6607623 0.5054288 202 203 206
0.0135841501136844 0.0423260357887781 -0.00809570412522925 0.5323005 0.7918193 0.2994637 189 190 190
0.012436921426612 0.0412231537232614 -0.0103014169052953 0.4110763 0.5517597 0.7256566 209 210 215
0.00511873465125467 0.049636105318179 -0.00592996713714733 0.5816168 0.813377 -0.01182102 188 189 188
0.00629308149637087 0.0494626630101996 -0.0060874899378654 0.5580428 0.8281208 -0.05295474 183 185 180
0.00736922397314821 0.0467737516496248 -0.00773049613389443 0.5447289 0.8178866 0.1852887 194 194 196
-0.0256194991471344 -0.0383892666578814 -0.0112824068564552 0.05164358 -0.01474563 0.9985567 221 170 209
0.00895846486131191 0.0459602892491661 -0.00972756830685312 0.5722299 0.6676555 0.4762237 199 200 202
0.00853348143288857 0.0478208695402712 -0.00852871811370592 0.6866384 0.7187596 0.1091439 170 170 167
0.00699982522566178 0.0463597041182785 -0.0102346312361808 0.1994817 0.3496741 0.9153879 203 203 208
0.00605558088678593 0.0496329899278255 -0.00800687680242362 0.5720642 0.7650679 0.2956582 191 192 192
0.00523043377792298 0.0496156668488378 -0.0081615401345298 0.5145051 0.8206432 0.2486548 188 189 186
0.00537355483372459 0.0481655475082464 -0.01019630192285 0.4996349 0.4863998 0.7167847 203 203 209
0.00990524490570355 0.0443760636742229 -0.00583979652060662 0.6925842 0.698132 -0.1814904 195 196 197
0.0074370932046457 0.0448320924876463 -0.00599294672024631 0.5881669 0.8065264 -0.0597906 199 200 199
0.00569973178125371 0.0423092783330509 -0.00545455542497697 0.557324 -0.7984835 -0.2276272 214 213 221
0.00999747544287066 0.0447190437172057 -0.00991457310992672 0.420572 0.4585794 0.7828309 203 204 207
0.00975135845520425 0.0421681666896859 -0.0106143908892222 0.2394746 0.1084219 0.9648298 204 205 211
0.00799502769145377 0.0423976394412623 -0.0106956014739404 0.08451366 0.115731 0.9896786 205 206 212
0.00571695911227343 0.0439875385016225 -0.0103464228457346 0.05163253 0.1121496 0.992349 204 206 210
0.00649286071333433 0.0421281675104951 -0.00903123697553043 -0.09067829 -0.009591094 0.9958341 209 209 215
0.00799714475094482 0.0463259650257509 -0.0111884153034756 0.1604941 0.3306577 0.9300038 204 203 210
0.00419906182549679 0.0494200792283502 -0.0110137836727209 0.333705 0.3164726 0.8879674 212 212 220
0.0049761041136116 0.0469235633937414 -0.0112827517840038 0.282859 0.1950874 0.9391122 201 201 207
0.0109073210612496 0.0408742423477536 -0.0115836539387354 0.1155483 0.2363621 0.9647702 204 206 210
0.0064281043323553 0.0423371142888788 -0.0114155436863224 -0.02479362 -0.07602174 0.9967979 212 217 221
-0.00218274133340524 0.0578866522413853 -0.00506691542347015 0.8294738 0.4867287 -0.2739862 196 198 197
-0.000152086893974168 0.0588046221652917 -0.0077904954566706 0.7941805 0.5597362 0.2365857 170 171 161
-0.00288109157817873 0.0582521730920765 -0.00740194724473558 0.7785838 0.5885545 0.2177404 203 206 209
-0.00194734482831982 0.0570122129153335 -0.00781776839738824 0.7025323 0.5394673 0.4641373 197 198 201
0.00125268016756164 0.0550286818912648 -0.00567074192173789 0.7249796 0.6877611 -0.03727308 193 194 197
0.00229198555606014 0.0531486189734104 -0.00541215396846362 0.3826865 0.9229009 -0.04248479 186 187 186
0.0032671077441131 0.0524576090571548 -0.00572063848248699 0.3956854 0.9181854 0.01919983 186 186 189
0.00256163983910396 0.0530294149153828 -0.00760614880573751 0.3968961 0.90662 0.1432259 192 194 192
0.000702219353694522 0.0566865429031255 -0.00882970728153776 0.726131 0.5453955 0.4186615 190 188 189
0.0020878668621287 0.0532616789378236 -0.0095924038267643 0.420016 0.5034811 0.7550453 205 206 208
-0.00196663232955219 0.0542637499384725 -0.00787435039887241 0.3604897 0.5490655 0.7540386 206 208 212
-0.0022569893914588 0.0546466518069265 -0.00966891149128507 0.2445135 0.2319715 0.9414895 208 209 215
-0.00167700482757493 0.0507921973294806 -0.0101049432860075 0.0184924 0.08996476 0.9957733 204 206 212
-0.00687538029016532 0.0582529119188814 -0.00495253636909121 0.8152036 0.3718053 -0.4440764 192 193 196
-0.00911547993599027 0.0598876181562048 -0.00502643559538424 0.684625 0.684417 -0.250723 195 199 200
-0.00878916874431912 0.0608600970145937 -0.00698139834174982 0.9173242 0.3908404 0.0758946 177 180 181
-0.00439018552803372 0.0586976777777363 -0.00728761907010417 0.8759512 0.4818642 -0.02272196 211 213 218
-0.00574453948659093 0.0598402521644733 -0.00763165631478963 0.8940944 0.4440114 -0.05872916 205 207 212
-0.00623194804532057 0.0612601694985183 -0.00901455696238129 0.8018922 0.3096991 0.5109358 202 204 206
-0.00479126159621157 0.058515409023096 -0.00940266783635735 0.5783564 0.2530326 0.7755503 211 211 217
0.0552733504189535 -0.0471039393727591 -0.0130415511209839 0.01415112 -0.01994031 0.999701 188 191 198
-0.00676673061903532 0.0580637055743994 -0.00963755126199906 0.3994747 0.09721622 0.911575 212 213 220
-0.00437064244841734 0.0565188164976521 -0.00973540680654961 0.276233 0.2640645 0.9241024 210 211 217
-0.00648724630183928 0.0558860091851979 -0.00983366078665487 0.2335255 0.07593244 0.9693813 208 209 216
-0.00714116635314421 0.0543532213366013 -0.00526339955311184 -0.6128111 0.7873039 -0.06793553 198 201 200
-0.00614421582683367 0.0537173781366175 -0.0099461642753591 0.04599429 0.03980606 0.9981483 195 198 204
-0.00383001958234996 0.0524769031241409 -0.0100628674884952 0.07600354 0.0174605 0.9969547 202 205 212
-0.00741817411471501 0.0494055655659386 -0.00869453090844524 -0.01756464 -0.09820066 0.9950116 191 193 199
-0.0027125263271861 0.0560467639125067 -0.0105275552236106 0.3282427 0.2545326 0.9096537 192 194 200
0.000122464857697624 0.0519363043043223 -0.011074628463869 0.2466219 0.1224748 0.9613416 203 205 211
0.00098457772559879 0.049122922262301 -0.00642694996050075 0.02569506 0.7491925 0.6618537 201 204 206
0.00342157957079259 0.0469756903431696 -0.00603365238855069 0.7218346 0.525821 0.4499634 204 206 209
-0.000532326453682064 0.0500035470851007 -0.00497257128929435 -0.5221542 0.8421675 0.1345694 202 202 207
0.00068125382815043 0.0491794288178092 -0.0101877177106874 0.1562039 0.03819368 0.9869861 206 207 215
0.00330033615816694 0.0454263987609186 -0.0103050461071166 0.03069431 -0.09073387 0.995402 200 201 207
-0.00134918908297799 0.0469832720358309 -0.0100693673592666 0.0458071 -0.04032502 0.998136 199 202 208
0.00394880973444112 0.0415980137355835 -0.00494571732685001 0.2345521 -0.9406602 -0.2452422 207 210 214
0.000646455567293369 0.039708706330304 -0.00492424642477846 0.9987882 -0.04858298 -0.00786842 222 224 230
0.00406722388961156 0.0395184956665239 -0.00888586081549747 0.1115292 -0.07552098 0.9908874 211 214 220
0.00401854588066564 0.0412771086666187 -0.0103326188943997 -0.01408899 -0.01419225 0.9998 193 195 201
0.00309691944428336 0.0400183532995709 -0.00947447455643519 -0.002606728 -0.1698294 0.98547 183 188 195
-0.000364570117671548 0.0430485483226558 -0.0103579983639943 0.04437456 -0.06066695 0.9971712 188 191 196
0.000138620713841853 0.0407332891921496 -0.0102357634245502 -0.1053682 -0.04859566 0.9932452 188 190 196
-0.000456971785266713 0.0410934611469388 -0.00949402577535097 -0.2350834 -0.03260119 0.9714283 191 194 201
-0.00431619880765499 0.0443778746985989 -0.00648381531937331 -0.7107443 -0.4007469 -0.5781388 208 211 213
-0.00299200638709829 0.0487621594084408 -0.0101460518741173 0.06893475 -0.01372579 0.9975268 197 199 205
-0.00290910727426774 0.0464391472242153 -0.0100790928621739 -0.0635436 -0.03036246 0.9975171 195 197 204
-0.00501895010821185 0.0480642778444619 -0.00986705219167738 -0.03959886 0.0005358888 0.9992155 186 189 195
-0.00446869707910236 0.0458598675163054 -0.0100632240758626 -0.0164418 -0.0002191739 0.9998648 192 194 200
-0.00256271075722814 0.0447012304354523 -0.0101987281537427 0.0467167 -0.03527473 0.9982852 189 192 197
-0.00385192791988676 0.0468827243843325 -0.00906512347837313 -0.04971916 -0.001504109 0.9987621 186 190 199
-0.0069121063984221 0.0480008835113289 -0.0100121444758331 0.02719415 -0.0745598 0.9968457 188 190 195
-0.00668099144118006 0.0457502355960616 -0.00996096582206174 -0.0009411132 0.005567054 0.9999841 185 187 193
-0.00227627254559426 0.0429942438656498 -0.00999399846685545 0.09198809 -0.08524095 0.9921049 187 190 196
-0.00180126742615538 0.0406348575989967 -0.0102719502606555 -0.04240616 -0.042549 0.998194 188 191 197
-0.00252252371306438 0.0388651914555275 -0.00917373909720071 0.05229223 0.289635 0.9557077 183 185 194
-0.00357337237499511 0.0406642746736395 -0.00945482068694908 -0.03461513 0.0639796 0.9973507 185 189 196
-0.00343257974640898 0.0385084749977996 -0.0102612931775022 0.02801497 0.03420743 0.999022 187 189 194
-0.00619586454078491 0.0418133589210571 -0.010126016278903 0.007074098 -0.02528957 0.9996551 189 191 197
-0.0057529816978461 0.0399355979886796 -0.0102354577164366 0.06081961 0.02632141 0.9978017 189 191 197
-0.00502194221778485 0.0381208194913231 -0.00950167652317135 0.01819582 0.05233098 0.998464 201 203 211
-0.00405393582450753 0.0387150470250633 -0.00965458052729717 0.01316961 0.04422979 0.9989346 185 186 193
0.00239536524826822 0.0457040443365927 -0.0112710853707002 0.01817197 -0.0617207 0.997928 196 199 203
-0.0235098844103356 0.0697941586364946 0.00713560404494351 0.8732083 0.4836958 -0.05954596 197 200 206
-0.0240076014999171 0.0716601426769788 0.00250491695106608 0.7166181 0.6690065 -0.1972027 194 195 198
-0.0243785826538436 0.0718491213896207 0.00100829595624041 0.7235423 0.6742495 -0.1478994 174 181 184
-0.0234866692977782 0.0707395776619578 -0.000462575937707099 0.5654412 0.7781546 -0.2734077 186 189 188
-0.0219562193142244 0.0709904689597319 -0.0027453015042086 0.5744206 0.6633636 -0.4795724 205 205 208
-0.0243497373388084 0.0726954890740757 -0.00228351062958171 0.61331 0.6597778 -0.4342167 199 201 204
-0.0119528421278974 0.0622804351504745 0.0070710120375006 0.7853084 0.5389982 0.3045844 210 214 220
-0.014105071783177 0.0634914864430199 0.00716096589798298 0.8169061 0.5533048 0.1628444 193 195 199
-0.0137448161266094 0.0625319876607583 0.00679721257149929 0.758173 0.529229 0.3809072 192 194 196
-0.0145785521596666 0.063526225919485 0.00500418436434946 0.8066058 0.588263 0.05773758 186 188 192
-0.0158900115969789 0.0636013287628007 0.00660216104066735 0.7331953 0.6220215 0.2747979 209 212 219
-0.0120176703866499 0.0619507182233062 0.00519192789220257 0.8013598 0.5454065 0.245671 195 196 199
-0.0119100957298017 0.0619891209126312 0.00272182813435284 0.7143632 0.6942102 0.08807598 190 192 197
-0.0128280258936464 0.0607304515671759 0.00415973816772397 0.783775 0.5069606 0.3587308 218 222 228
-0.0156834342500622 0.0640795012326975 0.00500028257427437 0.8291841 0.552539 -0.08458355 190 192 194
-0.015341631371856 0.0654222009432622 0.00334384012140854 0.7098603 0.695494 -0.1112949 179 182 181
-0.0141613646195222 0.0622297045821606 0.00297399833767575 0.629482 0.7630938 0.1464249 195 196 200
-0.0204845264491533 0.0671133484781298 0.00728612770737558 0.4903387 0.5144587 0.7034914 203 200 201
-0.0187519961462888 0.0669600891456393 0.00528169974224635 0.7460124 0.6612328 0.0789722 199 200 204
-0.0209894835328921 0.0674723076299876 0.00543564345526393 0.7469873 0.5966666 0.2932555 192 193 196
-0.022922833522071 0.0684869527503745 0.0053062927763014 0.6652396 0.696061 0.2701026 187 190 191
-0.019790262464934 0.0685385472972427 0.00500392049134146 0.766902 0.6406073 0.03851796 189 190 193
-0.0213672736755932 0.0684683436534833 0.00513896555988347 0.8684236 0.4810787 0.1200152 200 201 205
-0.0186950293745261 0.0670142444527323 0.00354726874636774 0.7769343 0.6295346 0.007698737 200 200 205
-0.0208418182486245 0.0672175546180677 0.00294287136920657 0.7328271 0.6649905 -0.1440559 196 199 199
-0.0228743815009964 0.0688416545444442 0.00289925567738036 0.7596127 0.649023 -0.04192561 193 196 200
-0.0223182574944267 0.0674724037144504 0.00433402122093018 0.9097342 0.3906936 0.1405067 203 205 209
-0.0222078514872992 0.0643882275383459 0.00504610418659618 -0.02053619 0.1310888 0.9911579 205 207 211
-0.0221611666170707 0.0645530835220892 0.00320107015974169 -0.09238084 0.0909094 0.991565 207 203 200
-0.0183977980832828 0.0624818039126244 0.00594815258854525 -0.1245052 0.02432407 0.9919208 201 203 206
-0.0341602923310693 -0.042192066592992 -0.0110071055439823 0.007908336 -0.03788782 0.9992507 192 182 192
-0.0195801350003022 0.063894696408045 0.00410753298736233 0.8600814 0.4496142 -0.2410538 206 209 212
-0.0170530944022349 0.0671587462139335 -0.000244439153383014 0.8135461 0.5775039 -0.06805903 195 195 201
-0.0166406296132928 0.065640262994283 -0.000927948265089851 0.7527259 0.6349675 -0.1738389 198 199 201
-0.0174655249715236 0.0672068384955101 -0.00285762777220533 0.7241589 0.6441001 -0.2464324 182 183 181
-0.0118794992942879 0.06181491244856 0.00150776599715224 0.683239 0.7286925 0.04681614 189 191 195
-0.0118013420338883 0.0608132996321115 0.00100607598690927 0.6911068 0.7218591 -0.03592744 188 191 194
-0.0125855357772933 0.0602247625462639 0.0018206877297206 0.6280936 0.7460021 0.2213126 180 184 184
-0.0127216182279077 0.0602003732035036 0.00085254759166653 0.6096963 0.7841755 -0.1154952 189 193 191
-0.016153996660363 0.0646346840574471 0.000701500733172933 0.690165 0.7076054 -0.1515482 191 192 189
-0.0152055849215795 0.0650964668522912 0.000906895849805078 0.7180188 0.6767995 -0.1624541 204 207 212
-0.0156804016972352 0.0647183568721227 -0.000900196230827099 0.7185631 0.6812474 -0.1398895 183 183 187
-0.0137980989705035 0.0645923539619916 -0.00324297533448026 0.6846738 0.7288024 -0.008294263 196 197 200
-0.0121326486812399 0.0627367137553368 -0.00314438318985533 0.7097877 0.7043656 0.008399786 194 195 200
-0.0112233808839519 0.0612901491719037 -0.00322479181079854 0.525593 0.8398179 -0.1358596 196 198 203
-0.0131004475862613 0.062931614171292 -0.00305557904891529 0.6931041 0.7188947 -0.05288656 209 211 217
-0.0147813346166441 0.0658760403562065 -0.00296415919221898 0.7009444 0.6993706 -0.1398491 191 192 196
-0.0151604064797168 0.0602993396092707 -0.00188102221097625 -0.5512539 0.7194556 0.4224959 192 195 199
-0.0193407817280569 0.0685876882053137 0.00173334048264789 0.8101662 0.5855976 -0.02657438 194 190 195
-0.0214871262695053 0.068824508782087 0.000872407837215039 0.6716326 0.7171031 -0.186206 193 195 199
-0.0189543829695167 0.0670718762318107 0.00133775455421992 0.7810189 0.6212689 -0.06351811 204 205 208
-0.0182560777139931 0.0660669307804681 0.0010829621446935 0.821671 0.5408595 -0.1797992 193 193 197
-0.0188992504259964 0.0673045684303754 -0.000684348450639916 0.7838155 0.5907313 -0.1914938 198 198 201
-0.0200210544953197 0.0676121452963773 -0.000859790937554061 0.7530199 0.60628 -0.2557058 209 211 215
-0.0228025335199256 0.0691077652327422 0.00111861713630512 0.6012033 0.7989008 0.01766875 188 190 191
-0.0176722458064176 0.0661057631850809 -0.00254780357838202 0.7663577 0.6077284 -0.2082355 198 200 200
-0.0206489392208904 0.0680181340112417 -0.00265621044687481 0.612745 0.7125351 -0.3418146 183 184 181
-0.0221402969948996 0.067801925660525 -0.00245933241751772 0.2072805 0.6170611 -0.7591248 188 188 189
-0.0217638306579082 0.0595070333324458 5.48674170206542E-05 0.5910721 -0.4441072 0.6733517 212 217 221
-0.0305681259791655 0.0754491835640555 0.0054690076837875 0.4283641 0.8394076 -0.3345133 200 201 205
-0.0310342942484219 0.0770143251248362 0.00369405621965496 0.2830119 0.9542956 -0.09604232 186 187 190
-0.0305252906399791 0.0754808471038139 0.00347890280742236 0.4889797 0.8609592 -0.1401713 193 194 196
-0.0252704034939351 0.0699972700956092 0.00746270307377661 0.6795164 0.4766146 -0.5577598 194 196 201
-0.0278392386676463 0.0715650782788099 0.00721997366743232 0.5521665 0.6233383 -0.5536799 184 187 193
-0.025584045134635 0.0701767699691281 0.00544585105748963 0.5345914 0.4492564 -0.7158077 184 187 190
-0.0298193677327891 0.0730758936499317 0.0076001489204805 0.5777875 0.7545355 -0.3111877 193 196 198
-0.0261711402849778 0.0714424668494896 0.00512594071961681 0.7631133 0.5510306 -0.3376735 190 193 194
-0.0269850848059512 0.0701449678061704 0.00404090008335345 0.08167689 0.7011505 -0.7083197 184 187 193
-0.0283688277917022 0.0733001606793918 0.00599637972739936 0.5453573 0.7534983 -0.3671862 179 183 180
-0.0292957041798476 0.07204087435907 0.0057709745388107 0.5592037 0.7107715 -0.4267261 192 197 197
-0.0283076399866031 0.0736771925810563 0.00302909965127857 0.6331491 0.7396592 -0.2280927 199 201 205
-0.0293998028860387 0.0737450926391588 0.00338599906612114 0.6324149 0.7031011 -0.3251157 202 203 205
-0.0275329151850936 0.0699497572831368 0.00613491858961901 0.08435938 -0.04447931 0.9954422 198 201 210
-0.0331209385354463 0.0787354611101186 0.00809855347309635 0.2177639 0.9467234 -0.2372629 204 205 210
-0.0328061728187965 0.0790295052851321 0.00599374641946399 0.2603612 0.9349167 -0.2411282 190 191 193
-0.0317761829882386 0.0751332204222886 0.007924974876864 0.0360919 -0.06267225 0.9973813 189 192 195
-0.031425554395883 0.0763105633223252 0.00739877629493352 0.3422652 0.8655651 -0.3655838 196 201 202
-0.0324362770058837 0.0791988116311563 0.00401107133771206 0.3116039 0.9395613 -0.1418717 192 193 197
-0.0320181288738208 0.0804694029653165 0.00389041851687927 0.3993683 0.8982667 -0.1833625 183 184 181
-0.0342406303719738 0.0745371950136074 0.00628371929507887 0.1741503 0.1695028 0.9700208 209 196 186
-0.0314050236436338 0.0707147253714507 0.00571111814961278 0.3834883 0.2805781 0.8798935 189 192 199
-0.0319297889278241 0.0716301023542273 0.00370198382702303 0.5756947 -0.08047237 0.8136951 192 195 192
-0.0352926674559555 0.0741360441094921 0.00543845298153056 0.1273631 0.04235514 0.9909514 199 202 209
-0.031427660821304 0.0791471578952813 0.00207569651640283 0.2598464 0.93081 -0.2570458 188 189 190
-0.0315830943842843 0.0805748931970321 0.00211732050976343 0.3415393 0.8898308 -0.3025757 198 200 203
-0.031249253134793 0.079209921494075 -0.000104241799987359 0.2189725 0.9196801 -0.325944 182 181 184
-0.0302675239442849 0.0755853237147589 0.00158391328502511 0.4775129 0.8170432 -0.3231435 197 198 198
-0.0306168527044295 0.0778256267721483 -7.27954506064554E-05 0.2629208 0.8848914 -0.3844995 181 183 181
-0.0288832540342203 0.0755957449132852 -0.00041346750309762 0.4966541 0.7712976 -0.3980386 197 198 200
-0.0301531793492673 0.0779914142645753 -0.00200040537726653 0.3782374 0.8517581 -0.3625529 189 191 193
-0.0280429001141824 0.0736607670811361 0.00155067869860182 0.6780154 0.6931034 -0.2447505 194 194 197
-0.0279061393807944 0.0741399461630429 -0.000540811102514249 0.5602897 0.74349 -0.3651001 203 206 208
-0.0251594314681385 0.0707960385976557 0.00150130388337588 0.6488707 0.6996947 -0.2989886 195 197 200
-0.025973625014265 0.0721861412075803 0.00137881984342164 0.7250922 0.6448183 -0.2417659 201 203 207
-0.0252531191953838 0.0725584935845037 -0.00204060869263839 0.6251277 0.6701443 -0.4001526 192 194 196
-0.0251664808359164 0.0711236607345939 -0.00232677967335437 0.609882 0.6500471 -0.4533021 198 198 203
-0.029325997481684 0.0747154779815261 -0.000638668814105681 0.4781495 0.7292618 -0.4894387 214 215 220
-0.0318061089810904 0.0791743846058076 0.00338919030967016 0.3111836 0.9261519 -0.2130901 176 178 177
-0.0316984552226254 0.0776226466096374 0.00245958785242306 0.2125684 0.9492629 -0.2317641 186 184 192
-0.0362429539178886 0.0764706247087631 -4.59335169096797E-05 0.7025638 -0.2571838 0.6635213 198 198 204
-0.0329545465707684 0.0734755762096059 0.00217822068494339 -0.5644427 0.035449 0.8247107 197 197 202
-0.0361763404829689 0.0714514692877252 -0.00168983898685154 0.6609851 0.3588927 0.6590104 197 201 199
-0.0277687864686982 0.0680183876359329 0.00295316768211334 0.3559002 -0.4215429 0.8340483 196 192 188
-0.0297325163674629 0.06757677339753 0.00352602508363253 0.0719827 -0.0112895 0.997342 208 211 214
-0.0287236661993078 0.0656487519909846 0.0035146150047406 0.1733004 -0.3919007 0.903538 208 201 200
-0.0238529505831788 0.0603701223274217 0.00603864214625249 -0.1318947 0.1301601 0.9826811 206 194 186
-0.0264550154899159 0.0595976889652347 0.00674194610229356 0.03850492 -0.1360274 0.9899565 214 213 215
-0.0285615685329461 0.0624869823466924 0.00542116079843702 -0.04459272 -0.1212502 0.9916198 198 186 175
-0.0279491814089738 0.0600474842938018 0.00299023313139024 0.8832309 -0.1007754 -0.457982 219 221 221
-0.035334059874951 0.0659190007920402 0.00623533468985599 0.008924786 -0.2738254 0.961738 203 187 179
-0.0327567762346426 0.065481439920723 0.0050650003934159 0.0570288 0.05098179 0.99707 204 190 180
-0.0323128475370023 0.0620998325526271 0.00406645989432142 -0.1755915 -0.2262384 0.9581147 195 183 168
-0.0239081116561755 0.0673512311479106 0.00232570277480754 0.6601413 0.5593544 -0.5013342 193 195 190
-0.0247023268922117 0.0672364510768136 0.000753060647750159 0.1928572 0.7884948 -0.5840223 186 189 191
-0.0244522926878594 0.0654893738727315 0.000438153773664296 0.5769971 -0.6735678 0.4619316 209 214 215
-0.02983319569586 0.0682303641182805 0.00150364399618291 -0.09920412 0.1605563 0.9820286 181 187 188
-0.0260279274510256 0.059145528509298 0.00078764713247137 0.2908943 0.9445732 -0.1521908 218 219 229
-0.0244477758775956 0.0640569754438419 -0.00150325558099684 0.4103468 -0.905735 0.106111 217 223 229
-0.0262153118414445 0.0611223993439066 -0.0025953729896121 0.8345585 -0.4687041 -0.2895315 231 235 240
-0.0310677169746039 0.0611968078977375 -0.0029912281102461 0.4487235 0.8371507 -0.3127715 215 221 224
-0.0249944110497278 0.0773954010203816 -0.006583227334164 0.7248291 0.6799847 -0.1106505 193 194 196
-0.0207758980095201 0.0717209441434691 -0.00664527853198504 0.5060721 0.8620726 0.0268679 202 202 204
-0.0241647878477953 0.0749181507240825 -0.00628159851502591 0.7244009 0.6860551 -0.06761499 195 197 199
-0.0241099267815343 0.0743988412560727 -0.00484961477234863 0.7406889 0.5933882 -0.3150721 192 192 194
-0.0234181569875072 0.0733848909368234 -0.00444466867334758 0.6655891 0.6542933 -0.3590146 201 202 204
-0.0222054676580907 0.0732235444423311 -0.00506587445963336 0.6497331 0.6535133 -0.3882875 200 201 201
-0.0213731458205708 0.0716138767753925 -0.00821239932516643 0.3823427 0.5048462 0.7739149 211 212 218
-0.0227759368534475 0.0747037616538256 -0.00708051965463152 0.7522857 0.6079342 0.2539338 227 229 234
-0.0239018674271052 0.0748001428525108 -0.00794461820511894 0.5882224 0.5862871 0.5570115 204 202 207
-0.0234593055428998 0.0733224500437365 -0.00816010502349762 0.4670921 0.4531454 0.7592655 207 208 214
-0.0232967279559309 0.0715873682260103 -0.00891537625574917 0.2918042 0.283931 0.9133638 202 203 210
-0.0163020247915762 0.0662047353872083 -0.004816878525011 0.7007735 0.7124202 0.03706833 199 201 200
-0.0164677359594829 0.0664342048623844 -0.00686480187177291 0.4713372 0.8014483 0.368133 203 204 208
-0.0173771718117983 0.0686633292218995 -0.00796881042402919 0.4228668 0.6432434 0.6382958 181 185 187
-0.0166099888341329 0.0663658899370251 -0.00821131148219567 0.3071475 0.5671576 0.7641941 198 197 198
-0.0121001517922485 0.0628830581191763 -0.00465304526050914 0.7000875 0.6836044 0.2063067 189 190 199
-0.0115085841893916 0.0610871867268724 -0.00517484292774961 0.6830091 0.7166241 0.141239 187 190 195
-0.0137659385883115 0.0625974123723559 -0.00505454448975945 0.6013544 0.7509402 0.2728768 195 198 203
-0.0131308103575043 0.0612517855134388 -0.0049195498386384 0.6493362 0.5901518 0.47967 203 207 216
-0.0151473355814638 0.0657574625392549 -0.0052519764127375 0.5901281 0.7876753 0.1769646 193 193 194
-0.0146914154799616 0.0645170662442506 -0.00696263833633404 0.5481855 0.699413 0.4586002 198 199 206
-0.0151260875434112 0.0621129059287459 -0.00600990584954231 0.5605459 0.6133335 0.5564264 194 198 206
-0.0134896627470025 0.0608956705423643 -0.0089360480801019 0.4388164 0.3309509 0.835411 195 198 201
-0.0158340126868934 0.0646552415502623 -0.00710245719640601 0.3123964 0.7274929 0.6108704 199 199 207
-0.0142737297026223 0.062557035381762 -0.00886477096526328 0.3799911 0.4883072 0.7855971 178 182 184
-0.015875329809047 0.0622469490814682 -0.0090344137662634 0.2832122 0.3633649 0.8875567 174 180 180
-0.0190691394395772 0.0698295730048312 -0.00443778375722642 0.5735631 0.7622182 -0.3000814 203 203 206
-0.0183454685726272 0.0686570788156476 -0.00467923192069802 0.6164947 0.7591711 -0.2087905 197 197 196
-0.01892580353943 0.0698993124125021 -0.00667900901110136 0.5548713 0.8243374 0.1121863 211 211 215
-0.0194752359891521 0.070219742884401 -0.00819736785049641 0.4191681 0.6755459 0.6065772 197 196 204
-0.0202216832939923 0.0696763968488819 -0.00746504868078013 0.4348598 0.7260433 0.5326894 203 206 208
-0.0179254718552655 0.0659790988779166 -0.00750007341160308 0.4050109 0.4704334 0.7840016 197 199 203
-0.0191382602910082 0.0682927063362057 -0.00810734159185167 0.3464974 0.567661 0.7467935 196 196 201
-0.0183621472932964 0.066027414537105 -0.00846647492245278 0.2815257 0.3822214 0.8801421 184 188 188
-0.0203268190503949 0.0679154346291632 -0.00775100344832913 0.2685346 0.571013 0.7757792 200 203 204
-0.0205017204741162 0.0661342374498878 -0.0091762744825018 0.09556153 0.2027121 0.9745644 188 191 194
-0.0227622286343105 0.0695046022255498 -0.0090462231915891 0.184628 0.2405088 0.952926 196 198 204
-0.0220966337135988 0.0643472144593399 -0.0040337583381736 0.7922305 -0.5956116 0.1327314 198 199 203
-0.0211630034524013 0.0617781988573533 -0.00524657183892052 0.6112984 -0.6592734 0.4378045 200 205 207
-0.0192128959046958 0.0647558202892432 -0.00762938202357055 0.03861131 0.3689813 0.9286345 176 182 179
-0.0172756711258126 0.0648493591198102 -0.0077347191990999 0.2144985 0.5401961 0.8137435 209 209 214
-0.0174657404400389 0.0631683263080624 -0.00800420604225122 0.06851178 0.3911383 0.9177783 198 198 203
-0.0195372129703695 0.0619451960302339 -0.00946929786694989 0.01465857 0.06159984 0.9979933 193 195 200
-0.0214227785101615 0.061696291848338 -0.00925485280447474 0.03483361 0.06662142 0.9971701 198 199 204
-0.0125925433071568 0.0629987505203912 -0.00954374086990967 0.5499423 0.576405 0.6044177 179 179 180
-0.0672087867860873 0.0558248426696052 -0.00821898370494867 0.4038508 -0.5201442 0.7525653 178 180 180
-0.0652474175682796 0.0565845688890493 -0.00832496077011902 0.3139884 -0.3937879 0.8639111 193 194 197
-0.0201200433381927 0.0645115487954441 -0.0100914407682564 0.1715267 0.1023098 0.9798527 187 189 190
-0.0262311325951423 0.0763049722637782 -0.00616039894527176 0.7928982 0.6090226 0.02009865 192 194 197
-0.02802315878435 0.0768073149013712 -0.00661630617948372 0.5687256 0.7812205 0.2573824 191 194 197
-0.0297593303430248 0.0785111205226089 -0.00429405798043797 0.4165736 0.8929483 -0.1706158 193 195 199
-0.0298204257250465 0.0787599166264584 -0.0053065410167189 0.3552376 0.9325762 0.06409202 193 193 198
-0.0268906423429864 0.0782231422331835 -0.00659664165721818 0.5891495 0.8079941 -0.006957809 205 207 211
-0.0540533397429566 0.0760394303865622 -0.00470180475046039 0.5150111 -0.8370706 0.1845979 168 171 170
-0.0301551316193494 0.0803712366392028 -0.00645908434876963 0.491759 0.8369495 0.2401848 194 196 202
-0.02934479789536 0.0804026951777358 -0.00626650874415824 0.4883361 0.8717263 0.04026325 194 194 198
-0.0308167394421317 0.0803008021873545 -0.008310818579358 0.2557555 0.5369901 0.8038848 203 205 211
-0.0289343718985968 0.0782958879051473 -0.00802550058132934 0.3689883 0.7062562 0.6041936 190 193 196
-0.0288859690871477 0.0783025490478541 -0.00637994739015135 0.5197611 0.840653 0.1521541 199 202 204
-0.0294539009429042 0.0769160935935637 -0.0069832263049181 0.4687786 0.6691306 0.5766376 190 193 195
-0.0299464481181757 0.0764387121906712 -0.0084687130092726 0.229383 0.2521016 0.9401214 195 198 202
-0.0258709836567999 0.0752121281958608 -0.00478957455727153 0.729068 0.6541809 -0.2012639 195 197 198
-0.0255615699084426 0.0745383497771354 -0.00332417144286346 0.6310032 0.643743 -0.4329318 188 188 190
-0.0274430970877442 0.0752703063942245 -0.00329747590198182 0.6435678 0.6890694 -0.3331725 183 184 182
-0.0258002446045889 0.075466160057812 -0.00660339639324803 0.7626439 0.6303888 0.1448594 208 210 216
-0.026110551181534 0.0750523386362524 -0.00821906437966846 0.3988713 0.3634013 0.8419271 201 203 208
-0.0255843571473449 0.0732107278421178 -0.00862926699317257 0.3621061 0.2350688 0.9020099 204 206 212
-0.0266792040331021 0.0763568684476669 -0.00782651411744473 0.6179178 0.5645555 0.5472245 199 202 204
-0.0275177042667838 0.0749416872689378 -0.00863019129129594 0.31201 0.350069 0.8832335 199 201 207
-0.0295238858527542 0.0722496151236239 -0.00882903558865544 0.1056168 0.08066832 0.9911295 194 196 201
-0.0343210971154544 0.0794160331941814 -0.00468941392599237 0.6693308 0.4793904 0.56761 183 186 185
-0.0330749259079131 0.0800944244438574 -0.00837477261171349 0.1517943 0.1742149 0.9729376 199 201 204
0.0125971994348411 0.0407056205685544 -0.011492729636913 0.1477149 0.2963709 0.9435807 207 208 215
-0.0320226464927329 0.0759960720540437 -0.00874430321470709 0.08797859 0.1511136 0.9845936 191 194 198
-0.0335292350884477 0.0736197898444858 -0.00379344585385533 0.6271936 -0.7783006 0.02960218 188 191 193
-0.0310589472697982 0.0709293967170114 -0.00306392027215363 0.9627785 -0.2155432 0.1630912 205 208 209
-0.035195801076529 0.0731373488343031 -0.00427759047015563 0.6840129 0.7283679 0.04008115 203 203 211
-0.0339637000944901 0.0711497331913528 -0.00426661027549968 0.2020344 0.9636848 -0.1746246 201 205 211
-0.031842660430262 0.0741565967895922 -0.00881913618489116 0.04897914 0.02695024 0.9984362 188 191 197
-0.0313428883563838 0.0722196659853341 -0.00879560482788883 0.1171631 -0.08799662 0.9892064 190 192 197
-0.0354459085973962 0.0715217488624865 -0.00885756220400408 0.01657815 0.008137333 0.9998295 191 193 197
-0.0351828864765222 0.069441480872262 -0.0087465737160487 0.01088419 -0.04359041 0.9989902 188 191 195
-0.0273412751333209 0.0794012472651567 -0.00943173726979118 0.3506495 0.5271884 0.7740268 163 164 154
-0.0303994666760139 0.0766326998440686 -0.00954283726602534 0.04822399 0.1377807 0.9892881 189 190 192
-0.0262479754117719 0.0753956346903147 -0.00952648323568872 0.2505364 0.3334649 0.9088634 157 158 160
0.0583678374399503 -0.0164115396234531 -0.0131117683820388 0.09730594 -0.01273526 0.995173 197 200 207
-0.0328724323319101 0.078327003589226 -0.00935898910850386 0.1290432 0.1760942 0.9758784 188 192 200
-0.0246880873676034 0.0691317938262687 -0.00898756154616098 0.02202962 0.09575386 0.9951612 198 200 206
-0.0242994252870179 0.065105906047399 -0.00933640850227635 0.03463647 -0.09985419 0.9943991 192 195 199
-0.0261526673222985 0.0647496123669863 -0.00918074700289917 0.02098061 -0.1905535 0.9814526 195 197 202
-0.0284439192960586 0.0664543699536525 -0.00923384091327861 -0.1221789 -0.1005911 0.9873975 196 198 203
-0.0266091292272295 0.0655508287838075 -0.00805624939041949 -0.01524055 -0.1595086 0.9870789 188 191 198
-0.0245211951008784 0.0628825755454098 -0.00389694241752447 0.9498128 -0.2236148 -0.2187513 218 220 231
-0.0239286098181841 0.0632808180833383 -0.00920287742453213 0.09583075 -0.02068931 0.9951826 197 199 204
-0.0230702647194778 0.0594622025151513 -0.00928773347295209 0.05593169 0.02398312 0.9981465 197 198 203
-0.0252327037297551 0.0589663753078272 -0.00928329104112263 0.02774119 -0.06322117 0.9976139 194 195 199
-0.027642142966434 0.0631106451134363 -0.00768939583190231 0.1286897 0.0747673 0.9888624 186 189 192
-0.0278806564116405 0.0625741100644454 -0.00917552410848937 0.06278803 -0.02770106 0.9976424 193 195 200
-0.0273193786212103 0.0605906595251512 -0.00923691070094484 0.05251914 -0.05580295 0.9970596 194 196 200
-0.0339302819417844 0.0270015124788511 -0.00979750299979931 0.03014366 -0.06178302 0.9976343 185 187 191
-0.0269251338655274 0.0588009906354691 -0.00923300191051696 0.0592993 -0.04679906 0.9971426 192 194 198
-0.0312735302384275 0.0662159297715467 -0.0049713844310732 0.739026 0.2399893 -0.6294805 211 212 217
-0.034261944646629 0.0654979215231223 -0.00525757707394625 -0.8164188 0.570422 -0.08988413 202 206 208
-0.0305537788939079 0.0681918156004367 -0.00893616552223447 -0.1921344 -0.09378358 0.9768772 199 201 206
-0.0325076429292674 0.0677391822877934 -0.00890090318934084 -0.08818131 -0.08213544 0.9927124 193 195 200
-0.0324953562184644 0.0659050524748886 -0.00902173609904811 -0.01185245 -0.1107062 0.9937825 193 195 200
-0.030125830851611 0.0643437100255188 -0.00919826806674034 0.106731 -0.008535802 0.9942513 197 198 203
-0.033788332968409 0.0654149713780899 -0.00730290536441042 0.1882368 0.1087861 0.9760802 199 201 205
-0.0342231835957334 0.0633409211998192 -0.00896951264785351 0.07116742 -0.03406363 0.9968826 194 196 201
0.0292515811510978 0.0235899159711014 -0.0111749747501389 0.3827663 0.1935494 0.903343 206 207 212
-0.0298747340020393 0.0617115362354465 -0.00801521921238058 0.05058655 0.06779699 0.9964159 196 198 203
-0.0290695195179482 0.060969241599189 -0.0077529404179506 0.1233878 0.01527821 0.9922409 192 194 200
-0.0295651171895743 0.0603028408109344 -0.00926455915306162 0.02786218 -0.005390834 0.9995973 192 193 199
-0.0315363798826658 0.06012100725986 -0.0092852785708577 0.01016054 -0.005404854 0.9999338 196 198 203
-0.0335181628875967 0.0594639486660943 -0.00831250582194243 -0.04291727 0.04214939 0.9981892 193 195 201
-0.0328413860767789 0.057790729244472 -0.00914552317766276 -0.015253 0.0007570344 0.9998834 195 197 203
-0.0239204096065309 0.0691283867825326 -0.00977178517588473 0.07866453 0.1263488 0.9888619 196 198 204
0.0351785150399269 0.0028206534881613 -0.0115403889804336 0.09272644 0.03446704 0.9950949 186 188 198
-0.0117191822590752 0.0544684039408142 0.00497861621159601 -0.4279248 0.2460399 0.8696808 211 203 194
-0.0110810392004448 0.057032529853884 0.00263951284571562 0.1468349 -0.1180387 0.9820929 210 211 218
-0.0118180567583452 0.0526265604402253 0.00582738266124549 0.01157549 0.16957 0.9854501 200 200 201
-0.0115013741940302 0.0507347365628027 0.00569080528760357 -0.1248787 0.02243582 0.9919183 217 218 220
-0.0133213227256308 0.0520356476576628 0.00524347527091062 0.3516079 0.7669604 0.5367901 209 199 187
-0.0169921760092044 0.0547374761852223 0.00487328505318602 0.1272282 0.8511555 0.5092615 204 206 212
-0.0156121237531937 0.0544133803707166 0.00331730072897984 0.123181 0.8952298 0.4282406 209 214 215
-0.0109728072014872 0.0591540600932415 0.000910153506854861 0.8151554 0.5786967 -0.02513508 181 186 188
-0.0123934884241574 0.0577262498750389 0.00121360698248635 0.8006176 0.3940941 0.4513327 209 211 216
-0.0144555105597215 0.0594747021865173 -5.05824480963035E-05 -0.279516 0.9085837 0.3103972 192 198 195
-0.0140304227849268 0.0566831958412882 0.00129952611058254 -0.3697336 0.8613594 0.3483633 219 221 225
-0.0102956449880491 0.0587772147688653 -0.00187533947392554 0.6591671 0.7483745 -0.07371733 198 200 204
-0.0103409643528329 0.0544271193168283 -0.00347092726106113 -0.47569 0.08750369 0.8752497 182 187 187
-0.011917987161367 0.0553280100988714 -0.00342710400617263 -0.8201263 0.4731508 0.321747 183 188 190
-0.0152241567223865 0.0539193418113705 -0.00181750054682184 -0.1944744 0.5178484 0.8330743 222 225 230
-0.0104418006665623 0.0533995340119539 7.27921898031614E-05 0.51232 0.09728491 0.8532666 200 203 209
-0.0106558638696943 0.0524415368665708 -0.000801589239565859 0.1137173 0.04892119 0.992308 209 211 218
-0.0119679256476626 0.0505174538478449 -0.000306251016790826 0.8113523 0.4962935 0.3088694 217 220 223
-0.0188896599975088 0.0575180538360481 -0.0017208255437729 0.1724547 0.8447472 0.5066178 218 220 230
-0.0156110974973567 0.0521637400013416 -0.000519696032188821 0.2526483 0.7212383 0.6449683 222 225 236
-0.016836021202876 0.0491982267204817 -0.00388742502817963 -0.2379204 0.9531038 0.1870481 211 214 216
-0.018587019520502 0.0510510185489425 -0.00323412950424395 0.452882 0.7866448 0.4196284 222 225 233
-0.0134687314079178 0.0457126120481136 0.00366366864750789 -0.04082785 0.2943276 0.9548321 207 194 189
-0.008173493616211 0.0418382788326573 0.00389990298056481 0.05362009 0.2773571 0.9592695 203 204 203
-0.0099544935732645 0.0366115232065255 0.0015074791282309 0.3600729 0.7716565 0.5243031 200 204 203
-0.0179961677206029 0.0426995663274238 0.00485307753963748 0.5015736 0.2534609 0.8271527 199 186 181
-0.0157848201449211 0.0439014337025753 0.00191819202591825 -0.7748721 0.2546793 0.5785427 216 216 217
-0.010621789049561 0.0467737724008682 -0.000801019286907678 -0.44067 0.7539812 0.4871573 205 207 212
-0.00994546490955561 0.0468549875627021 -0.00167862955764747 -0.1401454 0.7107682 0.6893242 206 208 212
-0.0115303657848767 0.0468736559621489 -0.00297085064089209 0.5291188 0.6378365 0.5596408 207 209 216
-0.00841897374675993 0.036594161638006 -0.0006347776187976 0.5194235 0.5357891 0.6656795 211 211 211
-0.00908016357431607 0.0371587777883943 -0.000743543529285629 -0.3674932 0.7656267 0.5279816 203 203 203
-0.00654169104626212 0.0373209900263226 -0.00238709405369225 0.8325266 -0.5480724 0.08072211 208 207 206
