ply
format ascii 1.0
comment File exported by Rhinoceros Version 7.0
element vertex 468
property float x
property float y
property float z
property float nx
property float ny
property float nz
property uchar red
property uchar green
property uchar blue
end_header
0.0363418459863182 -0.027890560676199 -0.00828658259779752 0.135915 -0.961551 -0.2386353 88 88 88
0.0381360053987022 -0.0270094848171292 -0.010090919503277 0.1382415 -0.95411 -0.2656377 111 111 111
0.0419349074334617 -0.0266425586238919 -0.00952764815956891 0.1169476 -0.9596283 -0.2558061 88 88 88
0.0349143743485923 -0.0263411975399075 -0.0137812516775781 0.1422216 -0.9447839 -0.2952227 97 97 97
0.034212291237783 -0.0272576785579739 -0.0113569072571451 0.1566796 -0.950219 -0.269324 111 111 111
0.0398989319772239 -0.0257040238872586 -0.0140330365982705 0.1179548 -0.9510334 -0.285696 82 82 82
0.0413264632195945 -0.0254255509868679 -0.0134916029062921 0.1137498 -0.9558114 -0.2710823 83 83 83
0.042067527768087 -0.0259381509319363 -0.0120025224176103 0.1064985 -0.9562007 -0.2726505 89 89 89
0.0396181344956871 -0.0250526643291531 -0.0152601099696809 0.1315071 -0.9480016 -0.2898255 116 116 116
0.0436666607827659 -0.0246462798610745 -0.0155161268201524 0.1142664 -0.9519781 -0.2840439 92 92 92
0.0428943634004112 -0.0251406407848416 -0.0140820986715013 0.1104095 -0.9534293 -0.280682 73 73 73
0.0404605865449424 -0.0266046500698147 -0.00981770671278775 0.1266569 -0.955606 -0.2660362 100 100 100
0.0339080691308494 -0.0284665799633084 -0.00702140695721448 0.1349382 -0.9646765 -0.226254 96 96 96
0.0324571728677269 -0.0288474536434231 -0.00436183280617536 0.1252272 -0.968637 -0.2146173 93 93 93
0.0357428193063255 -0.0283737159267483 -0.00578958756596387 0.122807 -0.9659045 -0.2279188 94 94 94
0.037643015381765 -0.0287038064495144 -0.00349716312557996 0.1085823 -0.9645891 -0.2403699 117 117 117
0.0392156243295189 -0.0281091905132351 -0.00535846717030347 0.1265715 -0.9616463 -0.2433436 116 116 116
0.0416306853265281 -0.0280656791225491 -0.00402357644707502 0.1115373 -0.9600074 -0.2567979 83 83 83
0.041318655011129 -0.0276567912593899 -0.00583926803738416 0.1214851 -0.9574839 -0.2616598 98 98 98
0.0434560179681297 -0.0279706693187771 -0.00390254921585859 0.1144325 -0.9613982 -0.2502372 98 98 98
0.0437087416619774 -0.0274213529125271 -0.00543467170864881 0.1212536 -0.9566892 -0.264657 78 78 78
0.0380969643563743 -0.027499673415762 -0.00759354449183286 0.1373821 -0.959078 -0.2475793 134 134 134
0.0400081276864525 -0.0280756927028714 -0.00429552263886274 0.1158223 -0.9608099 -0.2518522 100 100 100
0.0437836050958152 -0.0241419053569851 -0.0171707070556337 0.1303116 -0.9320078 -0.3382017 62 62 62
0.0463110208482261 -0.023849246551138 -0.0176044277039224 0.124154 -0.9308597 -0.3436364 93 93 93
0.048089563843679 -0.020635602523428 -0.0212434924331361 0.1540749 -0.848253 -0.5066832 60 60 60
0.0498914718598839 -0.0230997777477322 -0.017704638012951 0.1579259 -0.9103474 -0.3825271 104 104 104
0.0519976019830223 -0.0226199603572903 -0.0183782226529771 0.280611 -0.8515865 -0.4427843 116 116 116
0.0547824501962181 -0.0176123357311306 -0.0240767023649865 0.6671377 -0.4553384 -0.5895712 45 45 45
0.0515998005837913 -0.0189515328899441 -0.0223543367472345 0.4199524 -0.685331 -0.5949465 52 52 52
0.0551100969285484 -0.0185762620464383 -0.0219748935785943 0.6360355 -0.5584111 -0.5325748 74 74 74
0.0594862103433128 -0.0176964974895535 -0.0205098039594346 0.8839173 -0.3249333 -0.3363161 62 62 62
0.047637104985189 -0.0241861320034085 -0.0155338219490701 0.1355402 -0.9478689 -0.2883981 103 103 103
0.0475746989221092 -0.0250633931652127 -0.0133734366980249 0.1361582 -0.9527361 -0.2715785 127 127 127
0.0439942479104515 -0.0259387469783841 -0.0105424768415147 0.1140259 -0.9585403 -0.2611487 92 92 92
0.0490724444360252 -0.0251058316722927 -0.0117017201271707 0.1400519 -0.9534442 -0.2670759 87 87 87
0.0469194054574485 -0.0258989310756741 -0.0103768280831033 0.1262599 -0.9573901 -0.2597359 96 96 96
0.0495872497529503 -0.0237146592632351 -0.0157459101763421 0.1329748 -0.9343955 -0.3304887 97 97 97
0.0459459423989769 -0.0272207236782132 -0.00561230845124067 0.1212712 -0.9575005 -0.2616986 87 87 87
0.0472236871690269 -0.0264629102245388 -0.0071841350880319 0.1240183 -0.9570312 -0.2621274 110 110 110
0.0457493662805076 -0.027710912276846 -0.00363256997734845 0.11981 -0.9579727 -0.2606412 82 82 82
0.046217381951284 -0.0278316712871609 -0.00332270033032239 0.1198252 -0.9592958 -0.2557214 83 83 83
0.0442984700173851 -0.0283974385753689 -0.00184842414528669 0.1147115 -0.9652734 -0.2347092 85 85 85
0.0452813506097313 -0.028156993438345 -0.00227957434326947 0.115086 -0.9641626 -0.2390515 77 77 77
0.047738492485952 -0.0273946500316677 -0.00359597272545636 0.1794695 -0.9600331 -0.2147725 81 81 81
0.0517402291268821 -0.0256339288250027 -0.00800089753538907 0.2706091 -0.9473719 -0.1710474 110 110 110
0.0533315539330955 -0.0258074975505886 -0.00707014865547956 0.4735826 -0.8775363 -0.07516384 138 138 138
0.0516091585130211 -0.0273069119945584 -0.00229681498677076 0.6239792 -0.7806666 0.03478044 95 95 95
0.0526294708222862 -0.0270310616985379 -0.00323682493836225 0.6590065 -0.7404262 0.1322102 76 76 76
0.0140634179086204 -0.00398599867973903 0.027434279850418 0.00339082 -0.3149363 0.9491068 88 88 88
0.0551412701577659 -0.0188455558315335 -0.00593621499211133 0.9387434 -0.0905107 0.3325186 38 38 38
0.0562099814385887 -0.0208582854763089 -0.0101565442171747 0.9009737 -0.3588176 0.2439185 54 54 54
0.0553441047639366 -0.018250463058096 -0.00815241999298871 0.954671 -0.1159247 0.2741619 83 83 83
0.0585033297509666 -0.0202746367946682 -0.0163156113711053 0.9104898 -0.4126554 0.02690391 104 104 104
0.0581055283517357 -0.0202205157772122 -0.0145998171654397 0.8719174 -0.4303675 0.2335463 96 96 96
0.0579182505578514 -0.0192997432247219 -0.0142056069460565 0.927532 -0.2892147 0.236726 58 58 58
0.0584799051255699 -0.0135341859355984 -0.020465823182171 0.961372 -0.2022526 -0.1867024 56 56 56
0.0580821037263389 -0.013144729186636 -0.0174883700099641 0.9853383 0.0149003 0.1699603 78 78 78
0.0571226477593895 -0.0179303861156521 -0.0115389845457727 0.9450151 -0.1692749 0.2798078 45 45 45
0.056779384610128 -0.0172308660045681 -0.00983789033562482 0.9590347 -0.02533711 0.2821532 70 70 70
0.0573098063439842 -0.0171498036876736 -0.0135373569217378 0.9572043 -0.08742678 0.2758921 73 73 73
0.0577154755563255 -0.0148308253780423 -0.0138241297689134 0.9605981 0.01460088 0.2775575 64 64 64
0.0564673542947288 -0.0158433890834866 -0.0125546402421647 0.961602 0.01811774 0.273849 99 99 99
0.0577778220147606 -0.00843906169090847 -0.0145269728389436 0.969324 0.003818037 0.2457568 32 32 32
0.0574268698663231 -0.00844084983025173 -0.01267215824992 0.9660547 -0.005984018 0.2582681 48 48 48
-0.00421333313279193 -0.0322482562557278 0.0199084185871428 -0.2281988 -0.7636058 0.6040128 123 123 123
-0.00475159287743609 -0.0313169932857571 0.0205116771969145 -0.2775338 -0.6398723 0.716616 105 105 105
-0.00545364618592303 -0.0299698091045437 0.0214714162859267 -0.248575 -0.5004799 0.829295 93 93 93
-0.0197286903887276 -0.0200462317958889 0.0149620228323287 -0.2326794 -0.8944558 -0.3818496 31 31 31
-0.0241516232519631 -0.0224786973491726 0.0231308095964736 -0.2116147 -0.9329571 0.2912222 46 46 46
-0.0228489339380745 -0.0223267055049954 0.0226063036236113 -0.3120851 -0.9023727 0.2971974 75 75 75
-0.0202201306849007 -0.023268339683157 0.0226357632192916 -0.4163612 -0.7973758 0.4368469 56 56 56
-0.0187458097963814 -0.0240005231395779 0.0222427003893202 -0.3286549 -0.893542 0.3058899 71 71 71
-0.0259535610704903 -0.0197567916408596 0.0161421500953978 -0.06714837 -0.9549 -0.2892352 52 52 52
-0.0227709114580635 -0.0208202577129422 0.0183537357363051 -0.2494428 -0.9349654 -0.2522261 38 38 38
-0.0199159085779671 -0.0219041085735379 0.0180514954838103 -0.3236077 -0.8816514 -0.343466 22 22 22
-0.0225057005911354 -0.0192825770870266 0.0154269241604155 -0.1298041 -0.9350832 -0.3298034 38 38 38
-0.00832423568062823 -0.0290278172985134 0.0201879643711394 -0.391919 -0.6483009 0.6527675 58 58 58
-0.0117253065138344 -0.0215228772655545 0.0122483574661559 -0.3023894 -0.8098305 -0.5027277 54 54 54
-0.0108828246622567 -0.0234067416683255 0.0148152016910857 -0.3201586 -0.8500717 -0.4181825 48 48 48
-0.0102743804483895 -0.021835086394888 0.0110274159225768 -0.3354537 -0.7945346 -0.5061477 57 57 57
-0.00891709327988666 -0.0220797038570462 0.0111653708729094 -0.3525873 -0.7881536 -0.5044761 53 53 53
-0.00709176063828509 -0.0240647769466458 0.0121235751423186 -0.377843 -0.7646016 -0.5221294 40 40 40
-0.0101807713537697 -0.026322481681448 0.0216982715639418 -0.3344319 -0.707559 0.6225074 59 59 59
-0.0121933221846108 -0.025351760436636 0.0209897213491744 -0.2572827 -0.9188012 0.299349 60 60 60
-0.0107268393068795 -0.0254369950786648 0.0220138930591887 -0.3273529 -0.7193471 0.6126825 60 60 60
-0.0122401416330818 -0.0244809365764675 0.0235345267566985 -0.09071296 -0.7606904 0.6427451 56 56 56
-0.010461598637629 -0.0246999240413723 0.0237654500517195 -0.1967207 -0.6792405 0.7070597 107 107 107
-0.0100871920614723 -0.0280746198192654 0.0199728214058226 -0.4796822 -0.7665644 0.4269473 103 103 103
-0.00676414370827716 -0.029304978896719 0.0209352874073332 -0.336853 -0.5616669 0.7556854 98 98 98
-0.00692793727211993 -0.0273129916683255 0.022847881248886 -0.2710021 -0.5334395 0.8012491 79 79 79
-0.00625514984421771 -0.0248225904003201 0.0241435819181746 -0.02603298 -0.3907214 0.9201408 210 210 210
0.0150579810113426 -0.0336286998287258 0.0140778028282469 -0.0597777 -0.9850268 0.1617057 71 71 71
0.00728625058836896 -0.0328918672100125 0.0120396369013137 -0.2124381 -0.9715192 -0.1049786 67 67 67
-0.000183582308817321 -0.02465808158074 0.00804134242861926 -0.4084381 -0.7570063 -0.5100193 40 40 40
-0.000445663931894713 -0.0261905169979153 0.0102595441850966 -0.4142254 -0.7147868 -0.5634689 40 40 40
0.00105202197737653 -0.0255578732982693 0.00823709898322283 -0.4460317 -0.7280251 -0.5206104 47 47 47
0.00187110900587995 -0.0259509063259182 0.00792138808100878 -0.4603015 -0.7320046 -0.5022866 53 53 53
0.00517076253600079 -0.026105401565176 0.0065039747270888 -0.519787 -0.7096401 -0.4756389 43 43 43
0.0131741762132164 -0.0339052653804837 0.0081083380493468 -0.1090257 -0.9821456 -0.1533082 90 90 90
0.0138878822297569 -0.0329738832012234 0.00587711267798602 -0.1590061 -0.9327428 -0.323586 89 89 89
0.0158068537683006 -0.0326014733806668 0.00420293741553485 -0.08766565 -0.9694895 -0.2289213 130 130 130
0.0175892710656639 -0.0323702073589383 0.00428745680182635 0.03426787 -0.9871861 -0.1558504 120 120 120
0.019282042977285 -0.0322127318874417 0.00422546797125994 0.09399327 -0.9864557 -0.1344261 109 109 109
0.0162163376779075 -0.0332043147579251 0.00787427060931384 0.02297894 -0.98225 -0.1861638 138 138 138
0.0176438689202781 -0.0330455279842434 0.00801307492583453 0.09901069 -0.9773883 -0.1868398 122 122 122
0.0193054079980369 -0.0329202390209256 0.0081080996307677 0.09569058 -0.9753001 -0.1990804 131 131 131
0.0125188827485557 -0.0302649713054715 0.00293906562655627 -0.4896354 -0.7948562 -0.3584142 43 43 43
0.00966387986845929 -0.0273954844966946 0.00164335005610644 -0.5721464 -0.7573138 -0.3148402 35 35 35
0.0122848749131675 -0.028835532714468 -0.000338638493126042 -0.552955 -0.7672117 -0.325003 32 32 32
0.0172928571671959 -0.0326236463085232 0.00256763928263842 -0.0778952 -0.9807749 -0.1789217 154 154 154
0.0186033844918724 -0.0321494317546902 0.00255100958674609 0.03543978 -0.9885175 -0.1468918 154 154 154
0.00947666167921979 -0.0326201892391262 0.00978369050353228 -0.3173631 -0.9231282 -0.2170596 47 47 47
0.0113019943208214 -0.0339788175121365 0.0108363979372328 -0.1442131 -0.9894915 -0.01044966 40 40 40
0.0114892125100609 -0.0332438922420559 0.0102339439901656 -0.1888555 -0.9716137 -0.1424795 39 39 39
0.00821298360533673 -0.0322748399272976 0.00928448670237719 -0.4413334 -0.8201305 -0.3641577 37 37 37
0.0113605260819908 -0.0329883075252591 0.0138913147959059 -0.1240035 -0.9865201 0.1067768 63 63 63
0.00961041450209577 -0.0325633264080105 0.0161099337848967 -0.01413241 -0.9867899 0.1613879 72 72 72
0.0153738856286522 -0.0340336537853299 0.0107867472681349 -0.0256984 -0.9953123 -0.09323686 127 127 127
0.0139698386163231 -0.0339181399837551 0.0103723757776564 -0.08636724 -0.9930322 -0.08017331 67 67 67
0.0158029794663902 -0.0341249681011258 0.0120382659944838 -0.02722189 -0.999464 0.01818122 92 92 92
0.0179013013810631 -0.0338847613826809 0.0106221639427489 0.08392456 -0.9918827 -0.09552631 113 113 113
0.0171056389779564 -0.0337072587505398 0.0120802872690505 0.05415597 -0.9984885 0.009374417 134 134 134
0.0177140831918235 -0.0342290378109036 0.0129655801567382 0.08976166 -0.9925435 0.08246442 149 149 149
0.00779175758070905 -0.0299636102214871 0.00814238720267474 -0.502596 -0.7336588 -0.4573205 44 44 44
-0.00264543295197528 -0.0324146724239407 0.0180410497698134 -0.2043485 -0.9232929 0.3252258 51 51 51
-0.00227099657349628 -0.0323873734966336 0.0209003441843337 -0.2125783 -0.7751188 0.5949801 105 105 105
-0.00217741728119891 -0.0321804261699734 0.0212672405752486 -0.2125783 -0.7751188 0.5949801 136 136 136
-0.000714778903055602 -0.0324586606517849 0.0209405624183959 -0.1374589 -0.8357162 0.5316799 77 77 77
0.00195693969435651 -0.0324789262310086 0.0203250848564452 -0.07945131 -0.9411135 0.3286228 65 65 65
0.00388365983672101 -0.0330425477520047 0.0197384410414046 -0.01940835 -0.9542089 0.2985109 85 85 85
0.0036262273759361 -0.0323371863857327 0.0220756285700148 -0.03953722 -0.865591 0.4991884 88 88 88
0.00715208053297955 -0.0323009467617092 0.0206725054296797 0.09646541 -0.9198427 0.3802419 49 49 49
-0.00255852937989276 -0.0312547660366116 0.0218198799404448 -0.2077035 -0.5892506 0.7807964 122 122 122
-0.00404953956894916 -0.029249784995657 0.0224624180111235 -0.1776657 -0.4281804 0.8860567 71 71 71
-0.000199973586130553 -0.0306224799648342 0.0226723008665389 -0.1762409 -0.3957584 0.9012849 124 124 124
-0.000422239306497985 -0.0290439105526028 0.0230180078062361 -0.1169481 -0.3214136 0.9396895 103 103 103
0.00128608941740949 -0.0310711837307034 0.0227103733333892 -0.1056261 -0.5060321 0.8560225 132 132 132
0.000490427014302797 -0.0298227048412381 0.0231615804943389 -0.1515902 -0.3124548 0.9377592 133 133 133
0.00315821170515973 -0.0311344838634549 0.0231221967253035 -0.06745391 -0.6547919 0.7527932 140 140 140
0.00393050908751447 -0.029480931808096 0.0232912653002089 -0.080566 -0.3973176 0.9141378 149 149 149
0.00503033399290997 -0.0317605710521756 0.0229647957596129 0.03831636 -0.7426085 0.6686288 198 198 198
0.00694930553145368 -0.0322225070491848 0.0225268059286421 0.1180805 -0.8303486 0.54459 109 109 109
0.00792276858992536 -0.0307337022319851 0.0228800826582259 0.1714948 -0.7134771 0.6793673 99 99 99
0.00534862279601056 -0.0304096913829861 0.0234926544937438 0.01056467 -0.5258786 0.850494 135 135 135
0.00236254930205304 -0.0287158465877591 0.0235046201261824 -0.1380643 -0.2737572 0.9518378 119 119 119
0.00725346803374249 -0.0285036540523587 0.0239760630640334 0.03091228 -0.3492741 0.9365106 128 128 128
0.00951570272154767 -0.0320134139553128 0.0181013845714873 0.05702333 -0.9722316 0.2269671 72 72 72
0.0113020539254661 -0.0328956819072781 0.0163779758724517 -0.04907 -0.9765661 0.2095488 80 80 80
0.0135017633409019 -0.0326480842128811 0.0179129742893523 0.0149414 -0.9487742 0.3156013 76 76 76
0.00863420962996442 -0.0321207023159085 0.0199439876589125 0.1165305 -0.9305475 0.3471338 89 89 89
0.00936967134184796 -0.0310311294094143 0.0224614047321623 0.1173445 -0.7868475 0.6058888 89 89 89
0.0137981772393699 -0.0314159369960842 0.0202092134270018 0.09693928 -0.8926831 0.440136 74 74 74
0.0154006481141563 -0.0321046090618191 0.0179851853164977 0.07224315 -0.9203306 0.3844118 68 68 68
0.0171680450410362 -0.0314352489009915 0.0185126715215987 0.1525668 -0.9007965 0.4065576 66 66 66
0.0196998715371605 -0.0312817073360501 0.0183962189468688 0.1734229 -0.9014463 0.3966348 52 52 52
0.0175502896279808 -0.0308717465892849 0.0208247952970809 0.1450738 -0.8493013 0.5075833 66 66 66
0.0196530818910118 -0.0308253741756497 0.0201039367231673 0.1344739 -0.8870625 0.4416297 67 67 67
0.0118075013131614 -0.0308834290996609 0.0224809699568099 0.07067207 -0.762291 0.6433645 122 122 122
0.0133613944024559 -0.0300494409099636 0.023235773375923 0.08138907 -0.6523773 0.7535115 211 211 211
0.00960147380537946 -0.0285360789791165 0.023886864713127 0.05996599 -0.4103634 0.9099483 141 141 141
0.0174332857102867 -0.0302928662792263 0.0221371852669066 0.0890813 -0.7739207 0.6269859 93 93 93
0.019436478611898 -0.030360100318533 0.0217129939112014 0.1352444 -0.8031492 0.5802243 86 86 86
-0.00180298090271991 -0.0311554646984158 0.0166055762085265 -0.1376941 -0.8782609 0.4579282 44 44 44
0.00259655713744122 -0.0317457891002713 0.0152728014501876 -0.1741501 -0.9652371 -0.1949076 61 61 61
-0.00103074312500995 -0.0271739936367092 0.0229038053068465 -0.07596313 -0.2355164 0.9688971 128 128 128
-0.00210249424271625 -0.0225387788311062 0.0239008420023268 0.03744213 -0.2066146 0.9777057 229 229 229
0.00357943772978742 -0.026416418601614 0.0236372851642913 -0.111667 -0.14605 0.9829547 120 120 120
0.00743603706068952 -0.0247642970577298 0.0246614717754668 -0.07862499 -0.1316255 0.9881765 110 110 110
0.00563877820677716 -0.0243321633831082 0.0244177632841414 -0.08734179 -0.1370912 0.9867003 98 98 98
0.00974810123152692 -0.0247615552440701 0.0247996353420561 -0.02581347 -0.1498209 0.9883761 153 153 153
0.0157015323609825 -0.0266153789058743 0.0241040491375273 0.0649156 -0.332539 0.9408527 188 188 188
0.0195862054795738 -0.0275001502529202 0.0230877452406233 0.09396411 -0.5158483 0.8515111 194 194 194
0.0192586183518882 -0.0266987061992703 0.0238895767244643 0.07961304 -0.4150506 0.9063084 213 213 213
0.0179480910272117 -0.0262908912197171 0.0238028817686385 0.05330332 -0.358665 0.9319432 229 229 229
-0.0265352427988533 -0.0141819692150174 0.00197564595072924 -0.1147573 -0.9470716 -0.2998102 33 33 33
-0.024923861029673 -0.014537928153616 0.0018616669687575 -0.1415971 -0.9441025 -0.2976924 34 34 34
-0.0282469391851906 -0.0156631446376858 0.00577384763091265 -0.06309536 -0.9186794 -0.3899322 23 23 23
-0.0265620052843575 -0.0160680985942898 0.00619924598067462 -0.07783443 -0.9133677 -0.3996262 23 23 23
-0.0242686271696572 -0.0161898112789212 0.00445886485903918 -0.1289156 -0.9346296 -0.3314338 41 41 41
-0.0239410102396492 -0.0156376338497219 0.00334154599040209 -0.1439452 -0.9411044 -0.3059449 37 37 37
-0.0219752490549568 -0.0154274678722439 0.00209461682170092 -0.1343288 -0.9534065 -0.2701329 42 42 42
-0.0178253650694374 -0.0155448890224514 0.000298162630493037 -0.06934784 -0.9679951 -0.2411978 33 33 33
-0.0164290368586067 -0.0156935430065213 0.00243273907035052 -0.05941244 -0.9689968 -0.2398237 31 31 31
-0.0208285748987679 -0.0161284184948025 0.00386903219550311 -0.09258342 -0.9577129 -0.2724229 46 46 46
-0.0170140862493996 -0.015800831367117 0.00343353085845172 -0.06486772 -0.9646697 -0.2553518 33 33 33
-0.00809803605370563 -0.0154116130367337 -0.00221284694344343 -0.2025534 -0.9237476 -0.3250576 38 38 38
-0.0074661970167641 -0.0160405612484036 -0.0013746417251283 -0.22492 -0.9149256 -0.3351451 20 20 20
-0.00606209039979022 -0.0171021199718533 3.00162348097488E-05 -0.276902 -0.8916813 -0.3580917 42 42 42
-0.00891709327988666 -0.0182542777553616 0.00508571200698077 -0.2960751 -0.853236 -0.4293343 52 52 52
-0.0146364867716317 -0.0154187655941067 -0.000253001519745 -0.08840913 -0.9648526 -0.2474737 23 23 23
-0.0123337507277016 -0.0157450414196072 0.000769188335830562 -0.1370529 -0.9532807 -0.2692069 49 49 49
-0.0160312056570534 -0.0157161927715359 0.00386941962569415 -0.08649361 -0.9594985 -0.2681072 28 28 28
-0.0106956362753395 -0.0177546716228543 0.00501891010134875 -0.2486403 -0.8838433 -0.3962311 39 39 39
-0.0131996274023537 -0.0165702081218777 0.00397484534114062 -0.1634421 -0.9363652 -0.3106554 24 24 24
-0.0130358040361885 -0.0171828246608792 0.00555621617167651 -0.2015454 -0.9013811 -0.3832644 33 33 33
-0.00512599945359271 -0.0181564069286404 0.00116183393328845 -0.3393985 -0.862596 -0.3751491 49 49 49
-0.00807464123063129 -0.0163089013591824 0.000388657382423274 -0.2273783 -0.911616 -0.3424257 27 27 27
-0.00961914658837359 -0.0157542205349026 -0.000676373311584599 -0.1801898 -0.9311998 -0.3168573 20 20 20
-0.0223262906103615 -0.0127153373256741 -0.00750796712309659 -0.05712473 -0.9566305 -0.2856483 31 31 31
-0.0233793556719307 -0.0139263844982205 -0.00205636984974683 -0.1505741 -0.9595987 -0.2376927 35 35 35
-0.0260939598112587 -0.0129548287883816 -0.00547891325623334 -0.1036052 -0.9697708 -0.2209309 35 35 35
-0.0227709412603859 -0.0134173608318386 -0.00529868371159375 -0.1187446 -0.9610695 -0.2494898 31 31 31
-0.0179969668417458 -0.0129948831096707 -0.00712202704817594 -0.06702942 -0.9400743 -0.3343164 17 17 17
-0.0267224907904152 -0.0135155892864285 -0.0015933460679704 -0.09344286 -0.9708017 -0.2209355 45 45 45
-0.0273576676874642 -0.0139636970058499 -7.40534749680832E-05 -0.04303142 -0.9645731 -0.2602827 50 50 50
-0.0149547457724098 -0.0130529380336819 -0.00744746095806897 -0.1196049 -0.9445946 -0.3056726 26 26 26
-0.0131294131308083 -0.0133374906078396 -0.00811091280848325 -0.1537244 -0.9485108 -0.2769405 23 23 23
-0.0101807713537697 -0.0142382359996853 -0.00642086035878003 -0.1418953 -0.9526259 -0.269016 19 19 19
-0.015812784436274 -0.0143638825908718 -0.00389626092583478 -0.07309301 -0.9469737 -0.3128868 35 35 35
-0.00821503997139972 -0.0144821382061062 -0.0055669344154054 -0.1514168 -0.9478928 -0.2803074 32 32 32
-0.00618690252594989 -0.0146791911617337 -0.00629759795338453 -0.1828754 -0.9381718 -0.2939223 30 30 30
-0.00919792056374591 -0.0137305236354885 -0.00842659390837491 -0.1487695 -0.9609876 -0.2331749 15 15 15
-0.0263981819181923 -0.0179289556041775 0.0101411395582503 -0.003508658 -0.9340284 -0.3571815 39 39 39
-0.0274044573336129 -0.0173631883159695 0.00866690807669818 -0.03053391 -0.919718 -0.3913904 41 41 41
-0.0247132778196816 -0.0179681754604397 0.0104050391229933 -0.01059226 -0.9407225 -0.3390118 40 40 40
-0.023285746577311 -0.0171636319652615 0.00930662982791125 -0.04940918 -0.9456536 -0.3214001 32 32 32
-0.0271704494982247 -0.0190960145488797 0.0142650061163253 -0.003563272 -0.9602244 -0.2792068 20 20 20
-0.0227475166349892 -0.0190348601833401 0.0142305099281615 -0.1187583 -0.9309615 -0.3452637 50 50 50
-0.0164056420355324 -0.0183625197902737 0.00880052678912341 -0.1933663 -0.876199 -0.4414576 53 53 53
-0.0184181928663735 -0.017418263007742 0.0078784876379317 -0.1281603 -0.908027 -0.3988256 57 57 57
-0.021320015194941 -0.0191397643581448 0.0138060801538771 -0.142438 -0.9258392 -0.3500473 26 26 26
-0.017528921368647 -0.0203396058574734 0.0124408357652968 -0.2596489 -0.8638892 -0.4315991 48 48 48
-0.0203371346025948 -0.018056986381155 0.0107238345655745 -0.1538622 -0.9163501 -0.3696336 51 51 51
-0.020992398264933 -0.0164325213924466 0.00631520681708514 -0.08413904 -0.9408497 -0.328211 41 41 41
-0.0143463015585427 -0.0207633948818264 0.0119275652679747 -0.2743572 -0.8358448 -0.4754909 51 51 51
-0.0104030966787819 -0.0206295228496609 0.010092382958824 -0.2992258 -0.8135257 -0.4986379 47 47 47
0.00549840926833112 -0.0233752704158841 -0.00193114049107374 -0.5700276 -0.7508025 -0.3337126 38 38 38
0.00409424304671246 -0.0239988542095242 0.00223549239962756 -0.5198678 -0.7584009 -0.3931482 30 30 30
-0.000414431098032408 -0.0172189450756131 -0.00511612958580793 -0.4024011 -0.8396519 -0.3647711 24 24 24
0.00137966870970685 -0.0206031775966702 -0.000413725444381841 -0.5013056 -0.7777396 -0.3792277 44 44 44
0.00154346227354962 -0.0192204690471707 -0.00210684008271039 -0.5046216 -0.7764552 -0.3774578 28 28 28
-0.00203698873810809 -0.0199731565013943 0.00213258498042285 -0.4226843 -0.8073535 -0.4117261 28 28 28
-0.00250500440888446 -0.0196796632305203 0.00255810253947436 -0.4099786 -0.7971672 -0.4432178 29 29 29
0.00540477037138898 -0.0253680921093045 0.00447626941531359 -0.5162889 -0.7601508 -0.3944826 42 42 42
-0.00379210710816424 -0.0185531354442654 0.000982528260642879 -0.3525047 -0.8542423 -0.3821133 45 45 45
0.00835341214842755 -0.0247756219402371 -0.00171459681660474 -0.5734286 -0.7540337 -0.3203325 45 45 45
-0.0024114251165871 -0.0150270438686428 -0.00739099300772489 -0.3220038 -0.8963454 -0.3047596 22 22 22
-0.00180298090271991 -0.0159717774883328 -0.00630300707489789 -0.3538354 -0.8712553 -0.3401685 11 11 11
-0.0024114251165871 -0.0152786946788845 -0.00669386453301252 -0.3327833 -0.8839463 -0.3284725 23 23 23
-0.00367510319047015 -0.0149725652233181 -0.00643662578732312 -0.2688729 -0.9090847 -0.3182332 29 29 29
-0.0267024040251259 -0.0222593522563992 0.0243772917303389 -0.1140797 -0.7449632 0.657279 61 61 61
-0.0237537920504097 -0.0211346126094876 0.0236087047371215 -0.2037113 -0.6241825 0.7542533 105 105 105
-0.0164524614840035 -0.0226964927211819 0.0256984584841078 -0.104799 -0.5319093 0.8402914 141 141 141
-0.0162418484716896 -0.0215859389797268 0.0259050630840605 -0.09593546 -0.4046309 0.909434 179 179 179
-0.0190734565287117 -0.0204106545940457 0.0259407811674422 -0.2464778 -0.2522512 0.9357446 154 154 154
-0.0222326815157418 -0.0190105414882717 0.0244930439504927 -0.2571047 -0.2655334 0.9291874 73 73 73
-0.0278725028067116 -0.0161123252407132 0.0245110147508925 0.001754547 -0.2038298 0.9790047 177 177 177
-0.0242686271696572 -0.0167833543315945 0.0246073209556883 -0.1062342 -0.1585366 0.9816213 94 94 94
-0.0230517387419228 -0.0149877048030911 0.024790247610504 -0.1727886 -0.1295412 0.9764032 97 97 97
-0.0183011889486794 -0.018732903052908 0.0259619259151763 -0.220687 -0.1425862 0.964866 165 165 165
-0.0181256830721382 -0.0166897750392971 0.0257500612053221 -0.1549298 -0.05646577 0.9863105 136 136 136
-0.0195882916479592 -0.0157821155086575 0.025668104818756 -0.1901419 -0.08444348 0.9781182 128 128 128
-0.021320015194941 -0.0154820657268582 0.0249615811619109 -0.1962522 -0.0712167 0.9779638 79 79 79
-0.0166864693193917 -0.0147834992900906 0.0261527501854247 -0.1127655 -0.07146987 0.9910479 110 110 110
-0.020321547987986 -0.0129638886943875 0.0258699559482878 -0.1635399 -0.1232176 0.9788116 102 102 102
-0.0181139707594399 -0.0128064132228909 0.0260856204542464 -0.1477239 -0.1112519 0.9827516 96 96 96
-0.0144711136847023 -0.0234141326442776 0.0246165298733061 -0.04191099 -0.6888421 0.7236989 88 88 88
-0.0122120678453926 -0.0228587365642605 0.0256394647869414 -0.002384356 -0.589976 0.8074173 196 196 196
-0.012427330019999 -0.0205532289043484 0.0260212325367278 0.02136267 -0.2808245 0.9595214 209 209 209
-0.0084490478067879 -0.0230998969570217 0.0251736544880217 0.02212607 -0.4116214 0.9110863 194 194 194
-0.010133981707621 -0.0216815448299466 0.0258783602032012 0.05206441 -0.3898942 0.9193866 236 236 236
-0.0072789788275246 -0.0217944360271511 0.0252972149166411 0.1420718 -0.236865 0.9610986 222 222 222
-0.0147207081346993 -0.0197949386135159 0.0258891486439055 -0.02860461 -0.2012064 0.9791312 145 145 145
-0.0139437913923744 -0.0164662576213894 0.0263225638183898 -0.05183447 -0.07747751 0.9956458 181 181 181
-0.0103914141684059 -0.0167031264797268 0.0263218187603301 0.0524533 -0.1256249 0.9906902 230 230 230
-0.0158440172701363 -0.0158731914058743 0.0263642572674102 -0.1062888 -0.06569572 0.9921626 137 137 137
-0.0122635364561562 -0.0151975131527005 0.0264668070587462 -0.02584083 -0.0856045 0.995994 228 228 228
-0.00409632921509784 -0.0200768685833035 0.0244361662182158 0.1231287 -0.2032677 0.9713504 92 92 92
-0.00664710998826068 -0.0164140439525662 0.0260244660887068 0.1069369 -0.175101 0.9787258 194 194 194
-0.00824311375908893 -0.0149430013195095 0.0265274547848052 0.06105301 -0.151996 0.9864936 230 230 230
-0.00681093335442584 -0.0156872249141751 0.0263130866798705 0.1010321 -0.1718097 0.9799357 243 243 243
-0.0145990252523903 -0.014582512427908 0.0264424138578719 -0.07799767 -0.09151655 0.9927442 138 138 138
-0.0144633054762368 -0.0125101781383572 0.0265633814844435 -0.0846485 -0.1145393 0.9898057 113 113 113
-0.0131060183077339 -0.0126565671459256 0.0267802231821364 -0.04926928 -0.1182006 0.9917667 166 166 166
-0.0103367865114693 -0.0124121881023465 0.0268483959945983 -0.0004194873 -0.1399935 0.9901524 216 216 216
0.00364965200133283 -0.0229017711177883 0.0245245897087401 -0.08972618 -0.1610053 0.9828665 127 127 127
0.00577920674986798 -0.0218945718303738 0.0245477461132353 -0.06687357 -0.1581503 0.9851479 149 149 149
-0.00194340944581073 -0.0193781829372464 0.024579470685417 0.03596725 -0.2234292 0.9740564 206 206 206
0.00196474790282208 -0.0192580199733792 0.0248878651174849 -0.05204319 -0.2254814 0.9728565 224 224 224
-0.00358146429352801 -0.0176793313518582 0.0254483573946303 0.08878236 -0.2284261 0.9695047 124 124 124
-0.00264543295197528 -0.018101570655447 0.0251759939703292 0.08131988 -0.2189355 0.9723448 186 186 186
-0.00223356485657733 -0.0167387700573025 0.0256487482103652 0.03926541 -0.2345259 0.9713165 218 218 218
-0.000586092474985533 -0.0185875869289456 0.0248858981642073 -0.02259983 -0.2283142 0.9733251 223 223 223
0.00176578759856183 -0.0173271871105252 0.0250483208212203 -0.04592466 -0.2183482 0.9747897 215 215 215
0.00159806012816388 -0.0165225244060574 0.0255303882870024 -0.04210272 -0.2083678 0.9771439 229 229 229
0.00391876697249371 -0.0168191171184597 0.0257826798471755 -0.04098681 -0.2049469 0.9779145 203 203 203
0.00711309909529645 -0.0171854472652493 0.0258952730211562 -0.02818418 -0.1999873 0.9793931 169 169 169
0.00175410508818585 -0.0152977681652127 0.0257173531565016 -0.03494214 -0.1999419 0.9791845 225 225 225
0.00393044948286969 -0.0151315904155789 0.0261072569402999 -0.02511778 -0.1804854 0.9832569 159 159 159
-0.00238800049119037 -0.0129216886058865 0.0261909269604033 0.04981242 -0.1843866 0.9815907 231 231 231
0.00634086131758649 -0.0149606442943631 0.0261720620903319 -0.02451321 -0.1422569 0.9895262 147 147 147
0.00769811868376691 -0.0146808600917874 0.0262157522949523 -0.0165749 -0.1319798 0.9911138 125 125 125
0.00974971055693585 -0.0209076381221829 0.0248687916311568 -0.04766966 -0.1453083 0.9882374 147 147 147
0.0136772990197654 -0.024226067115408 0.0246534996542281 -0.01223413 -0.1913867 0.9814385 111 111 111
0.0133145451516624 -0.0221413350597439 0.0250629984649962 -0.05192385 -0.1484547 0.9875551 79 79 79
0.0150930881471153 -0.0228756642833767 0.0250472479376143 -0.01533507 -0.1783057 0.9838557 176 176 176
0.0154675245255943 -0.0227862573162136 0.0251580231699294 -0.01328836 -0.1754331 0.9844016 234 234 234
0.0105999708146568 -0.0197321153179226 0.0250477396759337 -0.05222683 -0.1615191 0.9854866 101 101 101
0.0107871890038963 -0.0202087140575467 0.0251552962574309 -0.04734221 -0.1524498 0.9871767 91 91 91
0.00765132903761823 -0.0193443274990139 0.0252589189323729 -0.02648299 -0.1731339 0.9845422 168 168 168
0.00825977325148541 -0.0192910409465847 0.0250676476272887 -0.02633118 -0.1705536 0.9849965 139 139 139
0.00967949628539044 -0.0186970210567532 0.0254222356590575 -0.0397067 -0.184638 0.9820042 134 134 134
0.0116530060739036 -0.018885490943533 0.0252150648149794 -0.04975764 -0.1730533 0.9836548 141 141 141
0.0138059854478355 -0.0187281346813259 0.0256368421825713 -0.04503432 -0.1586359 0.9863096 152 152 152
0.00913345813460309 -0.0148425078884182 0.0261591874870604 -0.01068004 -0.1464707 0.9891574 142 142 142
0.0114112496346946 -0.0147889829174099 0.0262543314012831 -0.02437537 -0.1423282 0.9895194 145 145 145
0.0137513875932213 -0.0165766454235134 0.0258474402937239 -0.03959201 -0.1520123 0.9875853 137 137 137
0.0133262872666832 -0.0153532004848538 0.0262859367641753 -0.0338655 -0.135771 0.9901613 168 168 168
0.0198904871911522 -0.020546433974844 0.0253188365015334 0.07670917 -0.1346359 0.9879215 87 87 87
0.0179013013810631 -0.0168013549343167 0.0262428724083251 0.04784476 -0.1511952 0.9873454 81 81 81
0.0196486115426536 -0.0168138719097195 0.0257125698837584 0.08607328 -0.1703732 0.9816132 107 107 107
0.0118168592423912 -0.0135658956066189 0.0264064275535887 -0.02474824 -0.1010786 0.9945706 173 173 173
0.0135954022378441 -0.0129679418102322 0.0264185272964781 -0.04175458 -0.07569591 0.9962564 143 143 143
0.0176205038995262 -0.0144728398815213 0.0263939999851531 0.001199404 -0.1597805 0.9871519 112 112 112
-0.0266790092020516 -0.0122114396587429 0.0245680265936202 -0.05361556 -0.1614706 0.98542 235 235 235
-0.0245260596304421 -0.0129630542293606 0.025045608809883 -0.1209227 -0.1509636 0.9811155 155 155 155
-0.0226773023634438 -0.0128909326091824 0.025649731687004 -0.157821 -0.1572424 0.9748679 76 76 76
-0.0261641740828041 -0.00893425707970241 0.0255677753004378 -0.06603868 -0.2611748 0.9630299 230 230 230
-0.0277788937120919 -0.00652658705864528 0.026359399488861 0.01134091 -0.3895151 0.9209502 107 107 107
-0.0248068571119789 -0.00682997470055202 0.0263692789587325 -0.05381433 -0.3503897 0.9350567 227 227 227
-0.0223122537165169 -0.00671565299187282 0.0265197210821456 -0.07203681 -0.2911827 0.9539514 209 209 209
-0.0220688581495766 -0.0109071708217678 0.0259280704769438 -0.1502696 -0.1823793 0.9716773 113 113 113
-0.0198691189318184 -0.00723528628502468 0.0264365875038451 -0.1001955 -0.2287551 0.968314 108 108 108
-0.0165928602247719 -0.00706016783867458 0.0267946326050109 -0.08490916 -0.2280794 0.9699331 88 88 88
-0.0186522007017617 -0.00573026900444606 0.0271998696836775 -0.07410631 -0.292185 0.9534863 132 132 132
-0.0141824781923775 -0.00835895304833034 0.027016570499832 -0.09953839 -0.1806742 0.9784932 112 112 112
-0.0146739184885506 -0.00723171000633815 0.0273481064352339 -0.09914324 -0.2147569 0.9716224 84 84 84
-0.00851923227601092 -0.0123047805324612 0.0266893559011763 0.01464412 -0.1530748 0.9881061 224 224 224
-0.00843346119217914 -0.0107864118114529 0.026809250644142 0.01368809 -0.1609082 0.9868745 217 217 217
-0.00465798378281634 -0.0124236321941433 0.0264071279081649 0.05114119 -0.1726925 0.9836472 221 221 221
-0.00685775280289691 -0.0106130815044461 0.0267831587108916 0.04199924 -0.1933603 0.9802285 223 223 223
-0.00905749202065509 -0.00796079402123073 0.0274368279489821 -0.01416856 -0.2325258 0.972487 231 231 231
-0.00596848130517047 -0.00843012099419216 0.0272716336759871 0.04800929 -0.2181246 0.9747393 225 225 225
-0.00517281890206378 -0.0090624070659695 0.0271983199629134 0.05563479 -0.2131434 0.9754356 230 230 230
-0.02801290154748 -0.00400662188683132 0.0273025833877867 0.03356609 -0.4285145 0.9029112 103 103 103
-0.0281533300905709 -0.00150656466637233 0.0286868565592116 0.04468603 -0.4306214 0.9014257 66 66 66
-0.0245307385950569 -0.00282525782738308 0.0282160990747756 -0.01228021 -0.3995785 0.9166167 229 229 229
-0.0232155323057656 -0.00308274989281276 0.0281786375555342 -0.02365119 -0.3932425 0.9191305 226 226 226
-0.0225275456934456 -0.00105511908684353 0.0289158427032775 -0.01498485 -0.3877155 0.9216573 223 223 223
-0.0171545147924904 -0.00172817473564724 0.0288655661854094 -0.0320478 -0.3542645 0.9345959 106 106 106
-0.020243525507975 -0.000937697936636006 0.0290287488016432 -0.009629881 -0.3680526 0.9297551 143 143 143
-0.0181373655825142 -0.000519034911733662 0.0295807176145857 -0.01716647 -0.3436653 0.9389353 115 115 115
-0.0165811777143959 0.00137520069922825 0.0300573610576934 0.008479223 -0.2934266 0.955944 75 75 75
-0.00989997387223285 -0.0059561706081448 0.0281332784208602 -0.03160157 -0.2476782 0.9683268 233 233 233
-0.0145335197477822 -0.00214636092339138 0.0288864129099196 -0.02804031 -0.307757 0.9510517 82 82 82
-0.0143930912046913 -0.0015243268505154 0.0287506335291213 -0.01487695 -0.2773785 0.9606456 82 82 82
-0.0125911533861641 -0.000877497245412862 0.0293261610779113 -0.01600823 -0.2364913 0.9715017 84 84 84
-0.0144633054762368 -0.000581619788747822 0.029374262026245 0.01381878 -0.2870611 0.9578126 77 77 77
-0.0141122639208321 0.00110948319281956 0.0297370456966704 0.02211596 -0.277948 0.9603415 75 75 75
-0.0101885795622353 0.00152850384559056 0.029733633330757 0.03544256 -0.2103617 0.9769809 168 168 168
-0.0117565095453743 0.00146460766639134 0.0295726411852187 0.007797902 -0.2387343 0.9710536 84 84 84
-0.00431865454011005 -0.00238799815331081 0.0282435619148558 0.08027671 -0.1741062 0.9814492 157 157 157
-0.00868308544449847 -0.000744340468984639 0.0294033490928954 0.05453264 -0.1920788 0.9798632 215 215 215
-0.0098063647776131 -0.000534532119375264 0.0292671524795836 0.03946864 -0.195062 0.9799964 232 232 232
-0.00694197416596454 0.00115907425727269 0.0295264028820342 0.09595604 -0.1842204 0.9781898 212 212 212
-0.00648331642441791 0.0028697275623264 0.0298728399786299 0.08967264 -0.1640867 0.9823616 212 212 212
-0.00484520197205585 0.00186062092627903 0.0291791760238951 0.07109445 -0.1943846 0.9783456 223 223 223
-0.0165460705786232 0.00381660694922825 0.030789678624565 0.01325509 -0.1261038 0.9919285 49 49 49
-0.0278490781813149 0.0138413929447117 0.0248410903724974 -0.005642092 0.9650808 0.2618917 108 108 108
-0.0263904035120491 0.0139362835391941 0.02415176265567 0.02899905 0.9670718 0.2528462 73 73 73
-0.0223965048819069 0.0134907984241428 0.0259343587669676 0.06871086 0.9411113 0.3310415 159 159 159
-0.0230517387419228 0.0126807713016452 0.027832930615837 0.1280009 0.9275758 0.3510254 110 110 110
-0.0268896222143654 0.011966469238657 0.0299014055046385 0.0138824 0.9320339 0.3621051 65 65 65
-0.0273108482389931 0.0123417400821628 0.0302808784756011 0.006911015 0.9309381 0.3651115 118 118 118
-0.0281065106420998 0.0119496607288303 0.0308243536266631 -0.02809005 0.9129938 0.4070051 150 150 150
-0.0240814089804177 0.0134961628421726 0.027373170188362 0.09560338 0.9422169 0.3210723 140 140 140
-0.0204385519056801 0.0128372930988254 0.0280312203678435 0.1133674 0.9093153 0.4003668 137 137 137
-0.0162964463263039 0.0130671286090793 0.0259135418447798 0.001649885 0.9226402 0.3856583 119 119 119
-0.0188862383394722 0.0131534361347141 0.0263842546257323 0.03082793 0.9198858 0.3909729 96 96 96
-0.0216476321249489 0.0119855427249851 0.028601100376541 0.138401 0.9085858 0.3941028 130 130 130
-0.020185023549128 0.0113534950717868 0.0300052964004821 0.1097556 0.8999817 0.4218845 136 136 136
-0.0206647515326027 0.0121632837757053 0.0279635243925399 0.1133674 0.9093153 0.4003668 122 122 122
-0.0185742080240731 0.0127514624103489 0.0279900782617873 0.05217752 0.8937758 0.4454688 150 150 150
-0.0172949135332588 0.0120054506763401 0.0281599962028807 0.03598994 0.8858051 0.4626597 136 136 136
-0.00512599945359271 0.00312948460425755 0.0296189092907256 0.07489136 -0.1698299 0.9826236 230 230 230
-0.00803562999062579 0.0130431675418796 0.0238225364002532 0.09462818 0.9472927 0.3060752 116 116 116
-0.015937626364756 0.00479436154212376 0.0308561825069731 0.02589215 -0.07539361 0.9968176 64 64 64
-0.00723215937905353 0.00512421364631077 0.030535852244789 0.03195072 -0.01292225 0.9994059 187 187 187
-0.0102041959791664 0.0112241529926242 0.028251340320999 0.08020571 0.9173375 0.3899473 153 153 153
-0.0129889845877175 0.0126758837207737 0.025632669857437 0.1071878 0.9145341 0.390049 75 75 75
-0.0104148089914803 0.0125756287082615 0.0248832159551924 0.112301 0.9301633 0.3495495 78 78 78
-0.0118657052546028 0.0128407501682224 0.0272591316017455 0.09370871 0.9065026 0.4116694 158 158 158
-0.0101261734991555 0.0125960134967746 0.0260627918752974 0.1185057 0.9191054 0.3757681 117 117 117
-0.0140186548262123 0.0100244307025852 0.0304592453750914 0.1736095 0.4952697 0.8512154 199 199 199
-0.0124273598223213 0.0110598825916233 0.0295798384460753 0.08088405 0.7922359 0.6048306 219 219 219
-0.0106722116499428 0.0108600878223362 0.029987996152336 0.09593017 0.7043737 0.7033172 231 231 231
-0.0141746699839119 0.0125238918765964 0.0281900369438475 0.06593797 0.8869988 0.4570397 173 173 173
-0.00915110111527484 0.0130020403369846 0.0254487448248213 0.1074418 0.9292124 0.3535825 107 107 107
-0.00484520197205585 0.011465432594675 0.0261540614876097 0.02992022 0.917491 0.3966297 106 106 106
-0.00624930858902972 0.012823345611948 0.0252271496567076 0.04405842 0.9318377 0.3601908 105 105 105
-0.00929152965836566 0.0102021717533054 0.0298216693910903 0.1345375 0.6244775 0.7693683 244 244 244
-7.12275534157092E-05 -0.0104932761684475 0.0266619079622573 0.03348158 -0.21757 0.9754703 180 180 180
-0.00390911102585834 -0.0100669837490139 0.0272274517330474 0.03858779 -0.1958588 0.9798726 218 218 218
0.000232994553517885 -0.00916743045006374 0.0267739348921126 0.04618274 -0.2333415 0.9712975 120 120 120
-0.00247383117966693 -0.0089098191753445 0.0268973463091201 0.02523696 -0.2176771 0.9756945 109 109 109
-0.00325387716584247 -0.00786673789177517 0.027222579053337 0.02112718 -0.218257 0.9756626 76 76 76
-2.44379072670275E-05 -0.0078489757076321 0.0271588020834273 0.03387191 -0.2237196 0.9740648 156 156 156
0.00379008054442365 -0.0116268373027859 0.0264145337852782 0.01988107 -0.1331061 0.9909024 190 190 190
0.0053579807252403 -0.0130687928691922 0.0262873225721663 -0.009841375 -0.122931 0.9923664 161 161 161
0.00760453939146954 -0.010812399436575 0.026286607316429 0.04247971 -0.09547833 0.9945247 195 195 195
0.00311142205901105 -0.0084295249477444 0.0266533397945708 0.05987363 -0.2168057 0.9743769 153 153 153
0.00364184379286725 -0.00751340155754665 0.0270233207258528 0.08746305 -0.2514775 0.9639031 158 158 158
0.00524878501601178 -0.00672185187492946 0.027347108057434 0.08106921 -0.2927648 0.9527416 145 145 145
0.00662165879912335 -0.0058420873180447 0.0274778955492324 0.1079738 -0.3262133 0.9391094 148 148 148
0.00942987203307111 -0.0125427222744046 0.0263309382709807 0.002487555 -0.065079 0.997877 187 187 187
0.013642132279348 -0.0112165189281521 0.0262368970426863 -0.04804047 -0.03775739 0.9981315 153 153 153
0.00914907455153424 -0.00696074729118923 0.0264788322958296 0.1043222 -0.2378446 0.9656847 125 125 125
0.0122614502877708 -0.00797629122887233 0.026075368455345 -0.00583043 -0.134968 0.9908328 143 143 143
0.0175736546487327 -0.011602399398428 0.0266962253364867 -0.05100382 -0.09372959 0.9942904 144 144 144
0.0196018218965049 -0.0125753856197415 0.0267971360000914 -0.0280764 -0.1550194 0.9875124 104 104 104
0.0194177627534385 -0.0111575103298245 0.0268752627882308 -0.05202613 -0.1428116 0.9883816 107 107 107
0.0155845284432884 -0.00883090262566188 0.0267990880522078 -0.1091172 -0.08200194 0.9906408 142 142 142
0.0190947651834007 -0.00697040324364284 0.0273350828203505 -0.09237114 -0.102271 0.9904586 119 119 119
0.0187437534303184 -0.00701272254143337 0.0271170937332457 -0.1040371 -0.1107331 0.9883898 87 87 87
0.00768643617339093 -0.0047512031093655 0.0278164648327178 0.1164261 -0.37347 0.9203071 190 190 190
0.00901800393767316 -0.00474118952904323 0.0274481826338118 0.1226177 -0.3706966 0.9206242 131 131 131
0.00971066951460797 -0.00543963675652126 0.0271434538873976 0.1224826 -0.332987 0.9349426 132 132 132
0.0174867510766502 -0.00441610579643825 0.0275565140756911 -0.06286274 -0.2030876 0.9771406 175 175 175
0.000139415261220521 -0.00521921878014187 0.0282013022217101 -0.009665932 -0.2291036 0.973354 116 116 116
-0.000469028952646666 -0.000864265014272725 0.0285395883831328 -0.04072501 -0.1767463 0.9834136 222 222 222
-0.00402611494355243 0.00114882225837132 0.0287745498928374 0.0695696 -0.1945574 0.9784209 232 232 232
0.0294751524896141 0.0210427069171848 -0.00375617510945142 -0.06592414 0.9761817 0.2066958 71 71 71
-0.00292623043351214 0.000675919006723369 0.0287457608494109 0.03728328 -0.1883081 0.9814021 217 217 217
0.00187891721434552 -0.000588533927541768 0.0288856082472151 -0.08028241 -0.2023172 0.9760238 226 226 226
0.0034670829743858 -0.00253331427727321 0.0289434396538085 -0.01875718 -0.2732206 0.9617685 220 220 220
0.0055536627740379 -0.00268435244713405 0.0287551187786406 0.03234639 -0.3155871 0.9483451 220 220 220
0.0036262273759361 0.000375750015634502 0.0294523143085784 -0.055859 -0.2083174 0.9764649 235 235 235
0.00568562745757062 0.00124812359656712 0.0297126673969573 -0.009749186 -0.2136735 0.9768565 227 227 227
0.00712710618681867 0.0011086487277927 0.0300276928457564 0.01507055 -0.2254216 0.9741448 161 161 161
0.00383681058592755 0.0029234909519138 0.0301111542496031 -0.07073992 -0.1698128 0.9829341 216 216 216
0.00924265384383161 -0.00259852175865749 0.0285369657787627 0.1234676 -0.3796256 0.9168643 178 178 178
0.0114189982385154 -0.00434815650139431 0.0273877137216872 0.077794 -0.3715139 0.9251624 130 130 130
0.0133769512147422 -0.00273036723290065 0.0278187596115416 0.04348241 -0.3573846 0.9329445 129 129 129
0.0119639635056968 -0.00136720900688747 0.0285392009529418 0.07997084 -0.3444547 0.9353906 113 113 113
0.013464331623983 -0.000415561248403584 0.0285444610628432 0.09061702 -0.3209967 0.9427352 111 111 111
0.00997984409041364 -0.00141834979210476 0.0289863549980467 0.1024793 -0.3172766 0.9427797 124 124 124
0.00949227809615094 -0.000560042907339131 0.0293173097881621 0.1054397 -0.3164787 0.9427214 132 132 132
0.0117700695962425 0.000413539360422099 0.0289474182638472 0.08216108 -0.2848103 0.9550564 70 70 70
0.01180124282546 0.00131583447303196 0.0295311712536162 0.08309775 -0.2501669 0.9646301 121 121 121
0.0149877667397972 -0.00109052424584011 0.0285194420131987 0.05318702 -0.3127921 0.9483313 136 136 136
0.0193405151338096 -0.00111841921959499 0.02806500130027 0.05120327 -0.1685833 0.9843566 214 214 214
0.0165908336610313 0.000243070076364482 0.0293121837887114 0.09789263 -0.2252702 0.969366 190 190 190
0.0134601592988487 0.00303972000922581 0.0296873950275725 0.0809237 -0.1808956 0.9801674 104 104 104
0.0161461830110069 0.00149893994178196 0.0294905953916854 0.1186659 -0.21148 0.9701518 126 126 126
0.00187110900587995 0.00301087136115452 0.029551451734001 -0.08695485 -0.1823898 0.9793737 221 221 221
0.0053579807252403 0.0120959305271091 0.0245089285883254 -0.01210201 0.9585181 0.2847745 102 102 102
-0.00418993830971759 0.0094704651340427 0.0298581474336928 -0.02933775 0.4485505 0.8932759 246 246 246
0.0057324171037193 0.00374245877112767 0.0305628382477111 -0.04686502 -0.1437402 0.9885051 159 159 159
0.00587278604216535 0.00571549172248265 0.0309412532362288 -0.05075974 0.04283215 0.997792 161 161 161
0.00763577222533185 0.00744879479255101 0.0307832562240904 -0.006019501 0.215007 0.976594 145 145 145
-0.00262206793122333 0.011529924820322 0.028078918984825 0.01403766 0.8501516 0.5263509 213 213 213
-4.78625326637561E-05 0.0113647007450046 0.0280242764267272 -0.03111082 0.8538858 0.5195296 175 175 175
-0.000866889956522399 0.011990072677988 0.0257507168564147 -0.005803319 0.9499139 0.312458 99 99 99
0.00121587514586408 0.0119812511905613 0.0257825755390471 -0.04167796 0.9455383 0.3228316 106 106 106
2.23517388816541E-05 0.0100820087894382 0.029513319662506 -0.06564354 0.8083833 0.5849848 158 158 158
0.000209569928121156 0.0107195400699558 0.029691120317871 -0.06564354 0.8083833 0.5849848 232 232 232
0.00345069169707257 0.0112609886630954 0.0281499528202361 0.0004519421 0.8516041 0.5241853 130 130 130
0.00543987750716168 0.011817576836008 0.0264927946838683 -0.009308857 0.9501886 0.3115363 119 119 119
0.00357943772978742 0.0119590782627048 0.026305516889984 -0.004516395 0.9509706 0.3092482 95 95 95
0.00367301702208478 0.0122547173007908 0.0251716577324217 -0.002750481 0.957189 0.2894504 122 122 122
0.00437510013289411 0.0126080536350193 0.02427383296817 0.007289604 0.9557604 0.2940561 97 97 97
0.00197643041319806 0.0116930031284275 0.027986978820259 -0.03221558 0.8723005 0.4879078 147 147 147
0.00775665044493634 0.0118750357135715 0.0265947186264342 -0.06530957 0.9470471 0.3143828 125 125 125
0.00374323129363019 0.0112192654117527 0.0296242737087554 -0.03745585 0.7919188 0.6094766 193 193 193
0.0041878819436546 0.010056855629343 0.029849862388069 0.01676663 0.6702034 0.7419881 225 225 225
0.00498354434676129 0.011094453285593 0.0297268980058974 -0.007074154 0.7948825 0.6067221 221 221 221
0.00786662101454694 0.010700108955759 0.0296375804457015 -0.01314189 0.6063961 0.7950541 232 232 232
