ply
format ascii 1.0
comment File exported by Rhinoceros Version 7.0
element vertex 470
property float x
property float y
property float z
property float nx
property float ny
property float nz
property uchar red
property uchar green
property uchar blue
end_header
-0.0645693501464248 -0.0475722921864532 -0.0193399830755454 -0.04298678 -0.9611808 0.2725503 58 58 58
-0.0295315941802383 -0.00713316331072078 0.0238038853708047 0.009902463 -0.007328717 0.9999241 131 131 131
-0.0425201615325332 -0.0489945782200836 0.00173195758493128 -0.06402235 -0.9926596 0.1026067 32 32 32
-0.0479086598388077 0.0363829957468964 -0.0152480348047477 -0.6201179 0.7790751 -0.09217259 104 104 104
-0.0229996403685928 -0.0362002028004669 0.0236251310411233 0.008017644 0.009908851 0.9999188 112 112 112
-0.0461720189086319 -0.0345615519063018 0.0239956037107247 -0.001740633 0.02022357 0.9997939 162 162 162
-0.0129309853545547 0.0599385129435517 -0.00376964053480444 -0.5415344 0.8324499 0.1173358 73 73 73
0.00818860921941988 0.0784291850550629 -0.00531202992765722 -0.6476462 0.761379 -0.02926512 53 53 53
-0.0341151913634659 0.0472524987681366 -0.0222768231329185 -0.6200278 0.7845356 -0.008332524 81 81 81
-0.0735908707610489 -0.029493726588919 0.0241101936403054 0.01509411 -0.0003474661 0.999886 153 153 153
0.0697096625336289 -0.00186303982897029 0.0235451118055123 0.1178783 -0.03836512 0.9922867 164 164 164
0.0532039443024277 0.0363781081660248 0.0124305442872781 0.8449252 0.534811 0.00887114 65 65 65
0.00612676534734957 0.00959774126844182 0.0237958685460824 0.009980797 -0.009427474 0.9999058 224 224 224
0.0651725569733261 -0.0396576298253082 0.0116745487752694 0.9676819 -0.1213233 0.221071 36 36 36
-0.0126234253875137 0.0586264955027558 0.0220865265432137 -0.5430802 0.6684921 0.5081164 65 65 65
3.87469299911736E-05 0.0360694753153779 0.0237991169992227 0.01043153 -0.0057004 0.9999294 179 179 179
-0.0314937790862442 -0.0516903770939849 0.021300162464692 -0.1215387 -0.6457698 0.7537968 36 36 36
-0.0786329468718887 -0.00406507382555232 -0.0164963050779563 -0.842234 0.4659043 -0.2712474 21 21 21
-0.0771704873076797 -0.0419422758595489 0.0149500028196115 -0.2135234 -0.9761245 0.03985854 26 26 26
0.0703264513977646 -0.0359872950093292 -0.00979766687719641 0.9108735 0.02575258 0.4118813 33 33 33
0.0514389315613388 0.0279662238581635 0.0236379758420724 0.01289175 -0.009040553 0.999876 167 167 167
-0.0230227669707657 0.054562293194101 -0.00287872990934668 -0.426021 0.8836967 0.193872 90 90 90
-0.0372115334502578 0.00488265623883977 0.0241723910871285 0.004545661 -0.01444145 0.9998854 205 205 205
0.0216127673157334 0.0724957810862519 0.00351851740510645 0.8558923 0.4807766 0.1905313 76 76 76
-0.060283060931337 0.0205324517710663 0.00849407473237695 -0.9236553 0.3804825 -0.04576013 29 29 29
0.0231763163574814 0.0405685531123139 0.0236360386911172 0.006683797 0.003056103 0.999973 185 185 185
-0.0284899434081436 -0.0390172375218414 0.023435081631257 -0.03059975 -0.004140879 0.9995232 165 165 165
0.0738986769684433 -0.000452674724294999 -0.0149927183088523 0.938307 -0.2664456 0.2204239 35 35 35
-0.0223008355132461 0.0512394534571625 0.0232891396585244 -0.3672365 0.4925302 0.7890192 99 99 99
-0.0463336667052627 0.0400776492579438 -0.0096792622503501 -0.6480985 0.7612129 0.02287253 90 90 90
0.0518215933807968 0.0425246583445527 -0.0134151323732596 0.8140954 0.5764824 0.07011928 55 55 55
0.0639268198975205 0.0273327456934906 -0.0120076729950171 0.7890298 0.5909624 0.167915 111 111 111
-0.0585247239104629 0.0259850846751191 0.0146501914563912 -0.7101851 0.7033819 0.02985165 70 70 70
-0.0144389828673721 -0.0522876156346344 0.00867777624757471 -0.1307721 -0.9912937 0.01534603 38 38 38
-0.00899684038079984 0.0235733615382172 0.0239947692456979 0.003803319 0.01563548 0.9998705 184 184 184
0.0468286314972519 -0.0373572481648468 0.0233635858598489 0.01325315 0.03995493 0.9991136 164 164 164
0.0284699240692734 -0.0571531427876495 0.0226157561841744 0.02199894 -0.5248276 0.8509243 101 101 101
0.0426284113892197 -0.0440816057698272 0.0240944282117623 -0.00614648 -0.01711724 0.9998346 120 120 120
-0.01075088586725 0.0619885550959565 -0.00552481850950537 -0.6171493 0.770536 0.1593768 65 65 65
-0.0375181397429825 -0.0497540606038116 -0.0107440992292624 -0.1475995 -0.9890333 -0.005239031 32 32 32
0.0124994555481552 -0.0338702572361969 0.0237770632806558 0.03120664 0.001720874 0.9995115 152 152 152
-0.0386644562713028 0.0409710036738373 0.0167986706796426 -0.5418202 0.8338447 0.1055176 82 82 82
0.0545095244415879 0.0388596879466034 -0.00356853446333227 0.8272057 0.5437245 0.141755 80 80 80
0.0358773509033798 0.0606115685923554 -0.0198889716562491 0.6045976 0.7953819 0.04277083 62 62 62
-0.0335184296599746 0.0313469993098237 0.0239875272813577 -0.0008290214 -0.0113086 0.9999357 175 175 175
-0.0711957177153946 -0.0397858990208648 0.0243812159600991 0.003598353 -0.1018703 0.9947912 152 152 152
0.0528229514130234 -0.055705942012503 0.00173970618875208 0.06150611 -0.9938571 0.09200591 34 34 34
-0.0804601868621231 -0.00642553696794734 0.0104681209626931 -0.6760387 0.7149112 0.1785319 48 48 48
0.00428378973089449 -0.0101319921986602 0.0238891796174783 -0.001032773 0.003688277 0.9999927 197 197 197
0.0248664656647324 0.050998889110849 0.0236204818788308 0.01825708 0.01441071 0.9997295 173 173 173
0.074212435818541 -0.0238781345860504 -0.0162781520780784 0.9326248 0.06534182 0.3548822 45 45 45
-0.0443767270079971 0.0372939931376435 0.0155243531766671 -0.6759479 0.7369489 -0.0008927316 61 61 61
0.0728398600586533 0.0190794097407319 -0.020576108902381 0.8210696 0.4907024 0.2916433 39 39 39
0.0065735617645859 0.0432278739436127 0.0240778581205148 0.008279381 0.0103817 0.9999118 123 123 123
0.0595163146027207 -0.0355593336598419 0.0233907059732217 -0.004828798 -0.009615549 0.9999421 138 138 138
0.00456035528265231 0.00505264868573918 0.0237920240464944 0.01980438 -0.0306257 0.9993347 152 152 152
-0.0376616677276016 -0.0494035852925323 -0.0216015472110969 -0.1789352 -0.9828196 0.0452539 41 41 41
-0.0128442009917618 0.0613973962290741 -0.00903636655180273 -0.4966055 0.8407306 0.2157662 101 101 101
0.0711590090759873 -0.00625995526476131 0.0162071243825692 0.9943386 -0.06138082 0.08673561 29 29 29
0.0719407835968613 0.0201552735789277 -0.0224484100040656 0.7823277 0.5790121 0.229583 39 39 39
0.040140751934874 0.0567557441218354 -0.0150881602462989 0.6155486 0.7839528 0.08073396 61 61 61
-0.0277639588347793 0.00554176440076604 0.0239739076200265 0.01821983 -0.002787234 0.9998301 214 214 214
-0.0785204133025528 0.0010048972590424 -0.00525987586347876 -0.7694857 0.6386098 0.008326393 52 52 52
-0.074807282351625 -0.0466854942814849 -0.0173018618520957 0.02192772 -0.9382625 0.3452284 55 55 55
-0.0654982289306045 -0.0370599401967071 0.0241325751844186 0.002181063 -0.01146894 0.9999319 180 180 180
0.0690168181427597 -0.0210621727482818 0.00680109420449915 0.9837483 -0.1195558 0.1339617 27 27 27
-0.0710343083373428 0.010361157558725 -0.00420141658155737 -0.8137695 0.5709797 0.1084496 74 74 74
0.0496469775208115 0.0460354911311127 -0.00212502917616186 0.7777641 0.6070478 0.1630214 81 81 81
-0.00122916307367094 0.0491985904200531 0.0239781097474832 0.008748708 0.00168591 0.9999603 179 179 179
-0.0451976021758438 0.0157467948420502 0.0241233960691232 -0.0003920389 0.01215413 0.999926 174 174 174
0.0143212119110703 -0.0550638807789825 0.00154131212861719 -0.02249912 -0.9996026 0.01698721 44 44 44
0.0720657149323105 -0.00356487164659725 -0.0143798484501105 0.9663579 -0.1773096 0.1863163 28 28 28
-0.051275845431459 -0.0396464241520904 0.0245548442903298 0.02316647 -0.009667791 0.9996849 169 169 169
0.0118919650086045 0.0806966649516083 -0.0122975601848823 -0.3983772 0.90811 -0.1289642 41 41 41
0.0320149699219345 -0.0565154922978424 0.0241516784730691 0.0009027321 0.00499704 0.9999871 128 128 128
0.0300973692902207 0.0585708247645356 0.0114483193460244 0.5893701 0.7884712 0.1759433 42 42 42
0.0266405383118271 0.0306548701746918 0.0237491981092233 -0.00626435 0.01017393 0.9999286 189 189 189
0.0065275469788193 -0.0542111767308258 -0.00415757736532507 -0.08572156 -0.9960002 -0.02520758 46 46 46
-0.0816630085936905 -0.0257029903904937 0.0241627649369973 0.01536052 -0.002608364 0.9998786 151 151 151
-0.0894671639434219 -0.0405005587117218 0.0131480351987618 -0.1921032 -0.980493 0.04159054 36 36 36
0.0587662497528672 0.0329681264384247 -0.00855777105657873 0.7934517 0.5854406 0.1664143 83 83 83
-0.0653148850432754 0.0100017415507294 0.0139331773820657 -0.8344898 0.4862291 0.2592451 45 45 45
0.0765932837494492 0.00125380625562443 -0.0191240652498466 0.895523 -0.2208987 0.386319 45 45 45
0.00888264570318453 0.0793323146326996 0.00345974722535791 -0.5677906 0.8216474 -0.05009413 30 30 30
0.0638607779511093 0.0236941205485321 -0.00242186030714331 0.7916595 0.5760736 0.2035053 48 48 48
0.0699416438110947 -0.00382331738634334 -0.0072761221822959 0.967506 -0.07822933 0.2404419 40 40 40
-0.0252810677520157 0.0543701278193451 -0.00821039518682776 -0.5898564 0.7983525 0.1212545 98 98 98
0.0111967364319443 0.0576877223475434 0.023788000732972 0.003544249 0.008285701 0.9999594 203 203 203
-0.0093566140166641 -0.0312939060704254 0.0237421349588174 -0.01438117 0.01070471 0.9998393 132 132 132
-0.0283080300322891 0.0489661323054291 0.00721793928773584 -0.5764804 0.7882032 0.2154208 69 69 69
0.00196803007208102 -0.0546211374775909 -0.00533104380934057 -0.04519562 -0.9989178 -0.01098227 62 62 62
0.0733248034485459 -0.0075397861973785 -0.0163704945739966 0.9514965 -0.03265259 0.3059217 59 59 59
0.061939839459288 -0.0553352011220001 -0.00301737031309424 0.05611417 -0.9831337 0.1740668 45 45 45
-0.0895899495116592 -0.0170382631794952 0.00148477712304773 -0.8513787 0.5224145 -0.04730041 35 35 35
-0.0108586510650039 0.063698731563852 -0.016914461463378 -0.5587378 0.8287063 0.03252566 65 65 65
0.0219184199341416 -0.055583871700003 0.00512340226800623 -0.004512954 -0.9958575 -0.09081537 50 50 50
0.0144242087372422 -0.0343586576954864 0.0235930935445565 0.02644129 0.006712894 0.9996278 165 165 165
-0.0828458031646133 -0.00531689057512508 0.00166990914972009 -0.8097749 0.5630798 0.1649415 69 69 69
-0.054280634783876 0.0288201199992157 0.0147517279687661 -0.5566792 0.829819 -0.03884218 41 41 41
-0.0253549775115371 -0.0332825554387115 0.0234156207147378 0.00359497 0.006597274 0.9999717 138 138 138
-0.00237667169488676 0.0700748788340546 -0.0187366499599677 -0.532333 0.8459864 -0.03047527 53 53 53
-0.0115514954558731 -0.051982797481253 0.0239779905381936 -0.02327667 -0.2441736 0.9694521 149 149 149
-0.0432437619201065 0.039878569744394 -0.00457698544828711 -0.6304688 0.7613568 0.1511453 61 61 61
0.0591474810608505 -0.0502691639439605 0.0235244289937753 0.2676971 -0.03971165 0.9626844 133 133 133
-0.0249346455565811 0.0170107709391571 0.0240257636609811 -0.002574357 0.001242719 0.9999959 178 178 178
-0.0936773976317764 -0.0229108704106353 0.0223667279783029 -0.8358905 0.3462382 0.4259181 207 207 207
-0.0467778405181289 0.0328626262171723 0.0111224905553597 -0.6548331 0.7551078 -0.0317145 35 35 35
0.0219706336029648 0.069533430240915 0.014219547897889 0.9169499 0.3880636 -0.09278768 44 44 44
0.0326033869751572 0.035556994579599 0.023525174051835 0.006482618 0.002172552 0.9999766 176 176 176
0.0628470221527695 -0.0067472828404449 0.0235349790159005 -0.01067825 -0.00636064 0.9999228 112 112 112
-0.0203813275328995 -0.0525440348164581 0.01183494487436 -0.1130895 -0.989552 -0.08942903 29 29 29
-0.0366097649566055 0.043158017299936 0.00544052878053369 -0.6441597 0.7427642 0.1826461 51 51 51
0.0106509963043808 0.0409410821421601 0.0237542645040292 0.0122858 0.01144435 0.999859 167 167 167
0.0452421942719101 -0.0103037727849029 0.0233296410146493 0.02295692 -0.003887183 0.9997289 159 159 159
-0.0922502240172745 -0.0287821663395904 0.0242125050130624 -0.2655416 0.1293698 0.9553801 160 160 160
0.00622690115057223 -0.048344053127005 0.0238990441861886 -0.01147083 -0.006633275 0.9999122 167 167 167
0.0535067358978867 0.0359285699351288 0.0163993791642922 0.8444028 0.5316034 0.06619438 60 60 60
0.0225690642365097 0.0689071046336152 0.0153896168771523 0.9374692 0.3446271 -0.04882271 16 16 16
-0.00364100541986234 0.0675897227747895 -0.00817752322523413 -0.616309 0.774954 0.1400339 51 51 51
0.0678395071991562 -0.0441071165577911 0.00367548623712244 0.9391196 -0.06927126 0.3365351 41 41 41
0.0310758391388535 0.00886210074262395 0.0233191505971688 0.0009125622 -0.02149141 0.9997686 185 185 185
0.00498903188787692 0.0736140834315278 0.0237492875161904 -0.3160242 0.4251611 0.8481549 180 180 180
-0.0734876355162979 -0.00590232739610896 0.0239417211118478 -0.2422046 0.2241817 0.9439701 211 211 211
-0.0139244755736709 0.0590399133189179 0.00237208166749658 -0.6778541 0.7321325 -0.06705058 30 30 30
-0.092234965228212 -0.019834793903067 0.0103140131536263 -0.8419099 0.5394886 -0.01182239 41 41 41
-0.00932252015985258 -0.0381367577092193 0.0238707319799203 -0.01087089 -0.01693403 0.9997975 178 178 178
-0.00710069742120512 -0.0545167101399444 0.00816300073297205 -0.2095783 -0.9735166 0.09133661 47 47 47
0.0258888045319199 -0.0573112143055938 -0.00719169220297156 -0.04726237 -0.9737988 0.222446 57 57 57
-0.014945860766542 -0.0534021032826446 0.000626351028992556 -0.1754109 -0.9830577 0.05318397 17 17 17
-0.0692216118804336 0.0124581681712128 -0.00703454455702124 -0.8641067 0.5023697 -0.03073037 42 42 42
0.0637615958222031 -0.05341128239794 0.0147035674157876 0.7494724 -0.6440879 0.1531074 27 27 27
-0.0279132088652969 -0.0513016356007598 -0.00776848635046301 -0.1766518 -0.9842092 -0.01124356 40 40 40
-0.071696635150087 0.00265570750074162 0.0115023807588357 -0.7225481 0.633575 0.2765992 56 56 56
-0.0596562584868789 -0.00151447186632381 0.0241272703710336 0.0009225531 0.01699554 0.9998552 179 179 179
-0.0045498570433975 0.0671096669657685 0.00844615259797754 -0.6536423 0.7558244 0.03848553 61 61 61
-0.0333369931212784 -0.0500728262440704 -0.00164360246031103 -0.1355191 -0.9900509 0.03786636 26 26 26
-0.0631247719756485 0.0213070737345673 -0.0200373276170951 -0.8691492 0.4847845 -0.09779356 90 90 90
-0.098042841815126 -0.0452249420659088 -0.0188999368843299 -0.5528956 -0.8119088 0.1873782 60 60 60
0.0523852149017929 -0.0306882036702179 0.023563231617524 0.01725645 -0.01760346 0.9996961 129 129 129
-0.0736876687041641 0.00291832556562199 -0.0219723626074058 -0.7970631 0.55664 -0.2341844 75 75 75
-0.0965713223449112 -0.0268621815220855 0.00695219197900476 -0.917888 0.3963393 0.01991942 39 39 39
-0.0111871918670059 0.000633798740670821 0.0238204554620522 0.002881747 -0.02935129 0.999565 153 153 153
0.0011562148102402 0.0726378785593964 0.012298937231614 -0.6636487 0.7479883 0.009152889 49 49 49
-0.0412381848327041 0.0281984435542084 0.0240562812391061 0.0058263 -0.01004881 0.9999325 126 126 126
-0.0449451169005752 -0.0478678120152496 0.00347396293313684 -0.08414148 -0.9889323 0.1222009 27 27 27
-0.00516259279168851 0.00994773974256291 0.0239095346036691 0.0004220415 0.01224878 0.9999249 208 208 208
0.0381816664703964 0.0589161740763642 -0.0209768160280448 0.5867572 0.8079274 0.05448986 51 51 51
-0.00748645868219144 0.0151559936030365 0.0238619700971383 0.0002176828 0.010949 0.99994 190 190 190
-0.0814758500090957 -0.00456611046953426 0.00161259928376856 -0.7889304 0.5916569 0.1659245 78 78 78
0.0108591357239365 0.0379356967432953 0.0239461616578835 0.006522592 0.003058783 0.9999741 186 186 186
0.0229872504242539 0.0672436582072236 0.0108125762048501 0.8826957 0.4607722 0.0923968 75 75 75
-0.0191551407805801 -0.0391347778813385 0.0237772718969125 0.01977213 -0.0003319803 0.9998044 128 128 128
0.0420471468933701 -0.0598742140309356 -0.0145887329277259 -0.10937 -0.9172216 0.3830701 67 67 67
0.0210713187225937 0.0697675572855927 0.00796171584756555 0.8997881 0.4280851 0.08440723 54 54 54
-0.0190459450713516 -0.027538217403128 0.0239952460828561 -0.0007594128 -0.001115477 0.9999991 206 206 206
-0.0313564499846817 0.0239182340128876 0.0240064517560739 0.01161656 -0.01452707 0.999827 194 194 194
0.0166496077545761 0.0469457732661225 0.0237506882253427 0.006308649 -0.0158903 0.9998538 144 144 144
0.0635632315643906 -0.0477990282551788 0.015487755924775 0.9524857 -0.1781226 0.2470696 34 34 34
0.071073893643248 0.0174848662837006 -0.0123727067407828 0.8454083 0.4860996 0.2213416 40 40 40
0.0264943877228379 -0.0558168066517852 0.0111687437597054 0.01238856 -0.9950697 -0.09840173 52 52 52
-0.0203312596312881 0.00987073054151311 0.0238364593091744 -0.000272366 -0.001808511 0.9999983 136 136 136
-0.021821614169252 0.0427248107417084 0.0239999250474709 0.0102843 0.008477345 0.9999112 142 142 142
-0.0389884671203018 -0.0502642763630889 -0.0135714902576667 -0.1847795 -0.9827241 -0.01048279 56 56 56
-0.0711697300902725 -0.043056286670401 0.000656659990860842 -0.1031529 -0.9946553 0.004517293 32 32 32
0.0129340926178574 0.0764014350398041 0.0238624171319741 0.04306772 0.470299 0.8814556 145 145 145
0.0451535025604843 0.0539691077692963 -0.0194694145616752 0.6990041 0.7080443 0.1003322 81 81 81
-0.097685929202211 -0.0341025961415313 0.0214346007409829 -0.7200757 0.4718764 0.5087472 82 82 82
-0.0214408596984268 0.015111290119455 0.0239950970712441 0.006616711 -0.01448075 0.9998733 185 185 185
0.0631951132782578 -0.0454146040455841 0.0186288014951486 0.9419053 -0.1401232 0.3052538 36 36 36
0.0188399592407822 0.0652280675394989 0.0237860933843392 -0.0006511967 0.002649869 0.9999963 172 172 172
-0.0470942219725967 0.0138443337901093 0.0240504697862405 -0.00577306 -0.007428531 0.9999557 172 172 172
-0.0254329403869034 -0.0100984943882965 0.0239596025052804 -0.0226464 0.01832489 0.9995756 154 154 154
-0.0858863553038955 -0.0410756243245147 -0.00824666461317358 -0.1271203 -0.9002861 0.4163235 31 31 31
-0.00128185357965238 0.00853618254499211 0.0240754441324014 -0.002765777 -0.01055452 0.9999405 178 178 178
-0.0309919079772354 -0.0148417128102325 0.0237432674470681 0.007160053 0.01833224 0.9998063 132 132 132
-0.0357137879363418 0.0453779326899506 0.00225105443628015 -0.6209434 0.7438174 0.2473155 69 69 69
-0.0713385304442764 -0.0425584686772369 0.0241190151277322 -0.06464764 -0.4704875 0.8800353 136 136 136
0.00294030103765719 0.0143131839259125 0.0238979713025826 0.008992991 0.007831067 0.9999289 206 206 206
-0.0648833474151016 0.00853832831220402 0.0224958912435311 -0.689589 0.2846487 0.6659145 190 190 190
-0.081460114382875 -0.0322220695988678 0.0238191143575448 -0.00986393 0.00529478 0.9999374 152 152 152
-0.025833483599794 0.0495230781062104 0.0234639600816506 -0.4400536 0.6124416 0.6567101 116 116 116
-0.00177633371270902 0.0364921914561249 0.0239621655050057 0.02520483 -0.007452761 0.9996545 204 204 204
0.0598579684265732 -0.0517061127202056 0.0246898786130685 0.315211 -0.1784927 0.932085 138 138 138
0.00299108419500582 0.0731635915263154 -0.0211603089269858 -0.5776177 0.8041082 -0.1405979 29 29 29
-0.0294836720458389 -0.0259459389225982 0.0240937427583474 -0.003660996 -0.001534096 0.9999921 234 234 234
0.0685914793976425 -0.0524837149159454 -0.00115269860594092 0.7477953 -0.2938834 0.5953442 57 57 57
0.0313309470184922 -0.0498427523152374 0.0234839574399728 0.02220048 0.01818709 0.9995881 119 119 119
-0.0380576809874893 -0.0487816704289459 0.0232945040765542 -0.05302744 -0.1807869 0.9820917 142 142 142
-0.0893820485106827 -0.0449760330693267 -0.0158725722727042 -0.0632751 -0.9547815 0.2904971 54 54 54
0.0432180205353379 -0.0596800220982574 -0.0138506486114722 -0.05437778 -0.922803 0.3814154 90 90 90
0.040913228131163 0.0495098458750702 0.0111013011041421 0.7034309 0.6979138 0.1345411 20 20 20
-0.0111561974517227 -0.052675403453543 0.0106866017881173 -0.1953374 -0.9806674 -0.01161343 15 15 15
0.032689694500792 -0.0281799210087799 0.0237471119466561 -0.002100643 -0.02024648 0.9997928 146 146 146
0.0483733454712509 -0.0567423475758575 0.0217107788625497 0.1649333 -0.8124921 0.5591543 39 39 39
0.0303815642365097 -0.0559062136189483 0.023689682871415 -0.06136613 -0.169725 0.983579 126 126 126
0.0430413523682236 -0.0572125090138458 -0.00702411374418555 0.01986551 -0.9624749 0.2706424 57 57 57
0.0741876402863144 -0.00933162102861629 -0.0193735702928763 0.9027747 -0.03281907 0.4288598 66 66 66
0.0799905100830673 -0.053298510410025 -0.0218085839447242 0.8909088 0.06350295 0.4497208 46 46 46
-0.0959097107879043 -0.0296640766636871 -0.00280133327810583 -0.8764429 0.4502085 -0.1707634 31 31 31
-0.0493439396849991 -0.00133327374620662 0.0241028920713204 0.02301257 -0.009315073 0.9996918 172 172 172
-0.0315405091277481 0.0465776549799897 0.0098040358129281 -0.5591223 0.8175756 0.1376678 109 109 109
-0.047369595431459 0.0335766898615815 0.0230367735925454 -0.4436739 0.6596774 0.6066128 66 66 66
0.0668572226532578 -0.0348186863438629 0.0069353834691781 0.9576222 -0.1487696 0.2466319 45 45 45
0.0681525507935166 -0.0471909416691803 0.00148635664613428 0.9526433 -0.1542758 0.2620492 39 39 39
0.0074583331116318 0.0767820703013398 -0.0107618614134055 -0.6745945 0.7381874 -0.001297234 55 55 55
-0.0153864583007217 0.0280121194346405 0.023854102284028 -0.001004657 0.004300365 0.9999902 132 132 132
0.0702787676819443 -0.0195137632863067 -0.00372603973715124 0.9932567 -0.04379011 0.1073477 21 21 21
0.0545369425781845 -0.0164342297093414 0.0240720764699716 0.01735371 -0.01796634 0.999688 87 87 87
0.0757614413269638 0.00526341070966496 -0.0135012908872825 0.9404196 0.08615384 0.3289202 48 48 48
0.0757972041138291 -0.0268730295674346 -0.0192418440279227 0.9331376 0.05957315 0.3545493 49 49 49
0.0171901026733994 0.0577442275507905 0.0237079516950387 -0.006893456 0.009958146 0.9999266 175 175 175
0.0691643992432236 -0.0470245255009674 -0.00213936409323034 0.9673447 -0.06410816 0.2452231 37 37 37
-0.0380648335448623 0.0435466395838715 -0.00239801844923315 -0.7494379 0.6590829 0.06286933 27 27 27
-0.0283580979339004 0.0477953778727509 0.0177055851522225 -0.5744725 0.8122696 0.1009922 82 82 82
-0.0302346905700088 0.0282713996394135 0.0239715532365579 -0.01894048 0.003982083 0.9998127 126 126 126
-0.0989388188353897 -0.035675801135733 -0.00791824302046118 -0.8600401 0.4985793 -0.1083959 48 48 48
-0.094690676592958 -0.0303862465397857 -0.00882706484167395 -0.8273588 0.5494523 -0.1165318 43 43 43
-0.0362573822966934 -0.0125025881306671 0.0239992097917336 0.01593682 -0.006061874 0.9998546 137 137 137
-0.0390671452514053 -0.0254880560414337 0.0241484598222512 0.01227016 0.01073451 0.9998671 181 181 181
-0.0270253380767227 -0.00892022977037654 0.0238642350736398 -0.0025318 0.008552041 0.9999602 150 150 150
0.02872026357733 -0.0244534386174224 0.0236998454633492 -0.003338422 -0.005472363 0.9999794 137 137 137
0.0775977412232041 -0.0581602228657745 -0.0171717151102286 0.7366757 -0.2396248 0.6323677 60 60 60
-0.0712522229186416 0.00915368666486516 -0.00491375169126806 -0.7600283 0.6328722 0.1477491 59 59 59
0.0654896536835312 0.00884111990766301 0.0236968056264657 0.005723536 0.01403154 0.9998852 160 160 160
0.0498558321961045 -0.0559482944981597 0.0115901485982675 0.1019238 -0.9930018 -0.05965728 38 38 38
0.0583256522186875 -0.0615435017125152 -0.0181535526212913 -0.06645172 -0.8869696 0.457022 69 69 69
0.0708817282684922 -0.00444034466905818 0.00332977929742517 0.9806339 -0.1844344 -0.06588775 15 15 15
-0.0175732335082412 -0.0190052164570831 0.0240493671003121 0.01227518 -0.007483376 0.9998966 118 118 118
-0.0171142777434707 -0.0271556747929595 0.0241846696439523 0.01603909 -0.01328457 0.9997831 200 200 200
-0.0578273495665909 -0.0304580105320953 0.0242054120603341 -0.02311923 0.007899854 0.9997015 150 150 150
0.0345414916046738 0.0287054406626679 0.0235436216893929 0.01312801 -0.01024825 0.9998613 206 206 206
0.0483778754242539 -0.0553460491673492 0.000809247881485842 0.05537594 -0.9949875 0.08326625 45 45 45
-0.0411666592589737 0.040147386692331 0.000962938458039186 -0.6487605 0.7517992 0.1179317 52 52 52
-0.0250967701903702 0.0510532485468842 0.0103766278329629 -0.5922837 0.8003598 0.09286629 109 109 109
-0.0807853898040176 -0.00628010163469539 0.00760876694352808 -0.7178713 0.6580445 0.2272405 48 48 48
0.0205019751556992 0.0335347281916596 0.0237140015664834 0.006369256 0.004209716 0.9999709 138 138 138
-0.0666412075988174 0.014387093685434 0.000564272791458986 -0.7890009 0.4384643 0.4303796 96 96 96
-0.0823878010741592 -0.0439579857365631 -0.0105271979269248 -0.08420333 -0.9308021 0.3556926 46 46 46
-0.0133699139586807 -0.0165110004918121 0.0235543803277749 0.01319336 -0.002336406 0.9999102 146 146 146
-0.0354500969878555 0.02848728766279 0.0237048820558328 0.01026374 0.006846023 0.9999239 203 203 203
-0.100164051913393 -0.0408914459721588 -0.00716650924055395 -0.7825599 -0.5675361 0.2559352 44 44 44
0.0431817809113144 -0.0530692709462188 0.02352848210962 -0.006441052 -0.1212735 0.9925982 130 130 130
-0.00415145959771879 -0.0549545658604644 0.00877537885339441 -0.1646348 -0.9833931 0.07637607 46 46 46
-0.0964032372466446 -0.0389029158131622 0.0109268979135293 -0.7211072 -0.6923679 -0.02512237 35 35 35
0.0512090960510849 -0.00629822144670711 0.0237116471830148 0.01177974 -0.01157314 0.9998636 163 163 163
-0.0373047551146866 0.000811301372811934 0.0239435390535134 0.007498449 0.002334621 0.9999692 220 220 220
0.0225576201447129 -0.00892523656053767 0.0236963585916299 -0.004096168 -0.01190074 0.9999208 145 145 145
-0.0392821988097549 -0.0490830315129303 -0.00247338852255163 -0.08296797 -0.9963664 0.01924528 31 31 31
-0.0094793995849014 0.0253481494410492 0.0238739804330605 0.01045346 -9.375014E-05 0.9999453 157 157 157
-0.0942529400817276 -0.0335027349965118 -0.0220088704523307 -0.7030699 0.6734033 -0.2285186 40 40 40
0.0631691256531357 -0.0459797752873443 0.020042713076188 0.8978912 -0.09249645 0.4303903 67 67 67
-0.00948035325921781 0.0652137624247529 -0.0169820531305533 -0.6005453 0.7986407 0.03896763 74 74 74
0.0645920077332138 0.0238165484889008 -0.00260529360143957 0.7882143 0.5783902 0.2101976 61 61 61
0.0467993060120224 -6.71518818877725E-05 0.023775006920411 0.003888238 0.02435578 0.9996958 174 174 174
-0.0811096390715957 -0.00478629002733455 -0.00973439654676733 -0.8641436 0.4717197 -0.1753178 32 32 32
-0.0656892022124649 0.0125531779749848 0.00634279409082117 -0.6882569 0.703236 0.1782178 71 71 71
-0.00176727380670316 0.0108111726267792 0.0239894346299905 -0.01703885 0.01606079 0.9997258 148 148 148
-0.0133310517302871 0.0612533914072968 0.00332831898362818 -0.6819339 0.720045 -0.1284579 74 74 74
-0.0309303959838272 -0.0507307423131012 -0.0174213691648704 -0.1708059 -0.9849443 0.02664815 58 58 58
0.0752886572846054 -0.00287357697649226 -0.0209641947445136 0.8694907 -0.1972075 0.4528744 70 70 70
-0.0227118691436172 0.0534591304285981 0.00939991632135095 -0.5379322 0.8417684 0.04533032 42 42 42
-0.00172936525262601 0.0694608317835785 -0.00445113024084387 -0.7121292 0.6996998 -0.05737784 37 37 37
0.0330601969727158 0.0614190923197724 -0.00264671882955847 0.5740849 0.7955684 0.1936425 64 64 64
0.0443977156647324 0.0457400905116059 0.0084440664354104 0.629212 0.7415814 0.2326999 61 61 61
0.0698753634461045 -0.0181033981816314 -0.00372004947035132 0.9963739 -0.04239007 0.0737711 23 23 23
0.0707668105133652 0.0124184714777924 0.000167395264222048 0.9941889 0.1062917 0.01704311 33 33 33
-0.085486050509584 -0.0103440655247711 -0.00355101069776831 -0.9016458 0.4277636 -0.063665 34 34 34
-0.0641485413543106 -0.00858155617876277 0.0237769738736886 -0.005111024 -0.01335179 0.9998978 164 164 164
-0.0598875245086075 -0.015844143726065 0.0242191509309548 -0.006917729 -0.00398333 0.9999681 155 155 155
-0.00934707727350004 0.0133019315226532 0.0238998190465707 -0.00674956 -0.003350399 0.9999716 184 184 184
-0.0185564717284561 0.0290919171793915 0.0240294889512795 0.01627805 0.003419807 0.9998617 168 168 168
0.0723108092316269 -0.0187684668080352 -0.0136341198381644 0.9428471 0.01909493 0.332678 34 34 34
-0.00318276491082914 -0.0507859362141632 0.0238319293561715 0.02576064 -0.104794 0.9941602 146 146 146
0.0558191576965927 0.0323592053873993 0.00890817800195398 0.836535 0.5456195 0.05008588 90 90 90
0.0607405940064072 -0.044030703403189 0.0236111239496011 0.2696874 -0.05229815 0.9615267 101 101 101
-0.0220178326598526 -0.0515249146000885 -0.0158351703581077 -0.005900839 -0.9993094 0.03668742 54 54 54
-0.0102926453582168 0.0637794362528779 -0.0111976905760032 -0.5656799 0.8134311 0.1354109 64 64 64
0.0657180586823105 0.022770129345224 0.0143158093992013 0.7409377 0.6625469 -0.1097404 67 67 67
-0.0316058358184219 0.0501507150156952 -0.0162741585668784 -0.6756839 0.7230335 -0.143784 84 84 84
-0.000573035143983436 0.0704233275874115 -0.00907797059385596 -0.6272261 0.7788268 -0.004018981 61 61 61
-0.0965322216979385 -0.0356392038838409 0.0234787420335549 -0.5334778 0.07146034 0.8427899 192 192 192
0.0725384989746689 -0.00441137681169734 -0.0193505181965095 0.9060712 -0.1566572 0.3930567 29 29 29
-0.091976757907045 -0.0313797367589019 0.0241548077169198 -0.1629033 0.07720464 0.9836168 176 176 176
0.0599306860931992 -0.054378308154776 0.00213115969331445 0.03403096 -0.9897888 0.1384196 40 40 40
-0.0237580498687149 -0.0296801699177764 0.0241436616483468 0.008510657 0.0003010815 0.9999638 231 231 231
-0.0784295758239151 -0.00227538476152644 0.00587930837304773 -0.7097954 0.6267549 0.3215101 69 69 69
-0.0803102215758682 -0.00854460129900203 0.0183216289582986 -0.5780773 0.7859748 0.2192492 82 82 82
-0.0931009015075088 -0.0296384466664337 -0.014184404819892 -0.8048161 0.5643241 -0.1838731 31 31 31
0.0123733321198105 -0.0228641403691314 0.0237679437700051 0.002794954 -0.009745968 0.9999486 165 165 165
0.0330644885071396 0.0553736316187836 0.0151292339864511 0.6127222 0.785562 0.08639333 31 31 31
-0.0930842122069717 -0.0306100023762725 -0.022615481823371 -0.706798 0.6730031 -0.2179531 33 33 33
-0.0598634442321182 -0.00833705792589412 0.0244732455316323 -0.003636466 0.01029746 0.9999404 180 180 180
0.0495051184662461 0.0422939883692719 0.0116814629140634 0.732747 0.67944 0.03798914 95 95 95
0.0557786265381455 0.0282036887629487 0.0236673013273019 0.1436186 0.08879166 0.9856418 157 157 157
-0.0890868863097549 -0.0146987808720611 0.0188419775071877 -0.8083179 0.5857581 -0.05924144 28 28 28
0.00884497556768649 -0.049639858104422 0.0237249688211221 0.0004792828 -0.008709156 0.999962 187 187 187
-0.0225406846038223 -0.0515237225071929 -0.0110745920833808 -0.04147065 -0.9975078 -0.05708339 28 28 28
0.0368343630798935 -0.00828663239641414 0.0236496881547708 0.004955757 -0.009449563 0.9999431 150 150 150
-0.0209613999358536 0.0530745612605072 0.0169922069612283 -0.6052418 0.7879242 0.1133926 68 68 68
-0.0797189434996963 -0.00231698880357967 0.00421675601632776 -0.7425658 0.6242017 0.2428339 85 85 85
-0.0742515286437393 -0.0476215256230377 -0.0197222127613288 0.01692103 -0.9586519 0.2840779 54 54 54
-0.0170587262145401 -0.0528490913884185 0.00128668108613672 -0.154929 -0.9850824 0.07489692 32 32 32
0.0737401286133408 -0.0171431673542999 -0.0165219350752097 0.9438784 0.0573756 0.3252716 35 35 35
-0.0481713971129776 -0.0483534706608795 -0.0014218135771018 -0.1885368 -0.981997 -0.01165318 41 41 41
-0.0928279122344375 -0.0311600340382598 -0.0197237922844153 -0.7048498 0.6680834 -0.2384354 31 31 31
0.0736671725281357 0.0085800515635468 -0.0150799497064811 0.8757886 0.3477432 0.3347672 101 101 101
-0.0790437420836807 -0.0081285608784698 0.0236446217599648 -0.3800055 0.6709581 0.636719 102 102 102
0.012879256344664 -0.0576509607808136 -0.0211060687002402 -0.1396481 -0.9780408 0.1547084 58 58 58
-0.0736137589446426 -0.00176063904924617 0.0190874890390176 -0.8235466 0.5000149 0.2678733 84 84 84
0.00582993421636813 0.0105596410258271 0.023591365009858 0.005249809 -0.003645822 0.9999796 219 219 219
-0.0856014451018692 -0.0125271452443145 -0.00625017723409949 -0.8658914 0.4777158 -0.1483904 28 28 28
0.0689312258728623 -0.0433460844532989 -0.00366992196409521 0.9788145 -0.0543179 0.1974127 36 36 36
0.0523203650482773 -0.0616395843998931 -0.0178815468248588 -0.01684798 -0.916868 0.3988349 90 90 90
0.0704814234741806 -0.00769738087816463 -0.00950119337408362 0.9838464 0.01484638 0.1783978 38 38 38
-0.0890258511535049 -0.0156008375660919 0.0230977193418282 -0.6925833 0.5074698 0.5126429 103 103 103
-0.0754450520507217 0.00390072932080998 0.00112023511560144 -0.7992959 0.5970142 0.06855723 57 57 57
-0.0813482960692764 -0.0450513733403228 -0.0117469026741248 -0.04380685 -0.9260541 0.3748398 58 58 58
-0.091871138476503 -0.0268848312871002 -0.0144443406757575 -0.7662476 0.5779575 -0.2807666 36 36 36
0.0231477061279892 -0.0566207541005157 -0.00624078950254736 -0.05862913 -0.9805095 0.18752 32 32 32
-0.0733286103240371 -0.0437974108235382 -0.00936440071432409 -0.04911655 -0.9665434 0.2517568 58 58 58
0.0144532958038925 0.0265298711283661 0.0240596787038583 -0.003544455 -0.01786115 0.9998342 173 173 173
-0.0785318573943496 -0.0251737011448883 0.0239539698663491 0.002175414 -0.00649734 0.9999765 116 116 116
0.0714603701599716 -0.0138770712391876 -0.007100020259307 0.9884574 -0.007890608 0.1512933 30 30 30
-0.0963662823668838 -0.0280555857197784 0.0148623839917916 -0.923589 0.3802649 0.04880518 64 64 64
-0.00729858484185941 -0.0320094002263092 0.0237534896436471 0.01014811 0.01051931 0.9998932 167 167 167
-0.0264271458617569 0.0521360265238739 -0.022690196245597 -0.6384416 0.7621824 -0.1070999 54 54 54
-0.00592195596612699 0.0552979337199189 0.0236159519258279 -1.81254E-05 0.00818505 0.9999665 169 169 169
0.0459903517731308 -0.0556103361622833 0.00264060059220972 0.06359229 -0.9976412 0.02584763 35 35 35
-0.0225924214354873 0.0568114148600556 -0.0157431705888968 -0.6032311 0.7897329 -0.1115088 79 79 79
0.066660527325499 -0.0488512886540435 0.00386204877526941 0.9044492 -0.2863612 0.3161785 51 51 51
0.0748802462586045 -0.0540007723347686 -0.0151363058981162 0.7590997 -0.02784274 0.6503786 78 78 78
-0.032817240618837 -0.0493893993870758 -0.0104807659086448 -0.1338537 -0.9907835 0.02076463 48 48 48
0.0655468741425156 0.0208806621058442 -0.00169057092039404 0.8015187 0.5643972 0.1975437 104 104 104
0.000451449490415978 0.0187358485682465 0.023897226244523 0.01738595 -0.008334717 0.9998141 166 166 166
0.0284699240692734 0.00535424818830266 0.0234388963285226 0.005785191 -0.0008570375 0.9999829 155 155 155
-0.0552831849089981 -0.0461701525227569 0.00454633989961328 -0.2873352 -0.9577167 -0.01473742 15 15 15
0.0527209082611679 0.0259180890543915 0.0232896761003274 -0.008499113 -0.003597549 0.9999574 164 164 164
-0.0816017350188614 -0.0397572887913726 0.0242749110761422 -0.01279901 -0.4493198 0.8932793 120 120 120
0.0190314093598007 -0.05728570351763 -0.00873187622396765 -0.1201544 -0.9818983 0.1464194 30 30 30
-0.0619906147948623 0.0222042428477265 -0.00157377561895666 -0.6602949 0.7054875 0.2574842 66 66 66
-0.0703500470153213 0.00848158469037785 0.00213229218156519 -0.7373093 0.6641482 0.1236214 53 53 53
0.00465500745855563 0.0747345315440155 -0.0209784402546149 -0.5898247 0.7956917 -0.1377735 40 40 40
0.0424660483368515 0.0482993947489716 0.0236152068677682 0.4313815 0.4509546 0.781377 164 164 164
0.0047117510803818 0.0580284224970795 0.0237640396657723 -0.00133329 -0.004938697 0.9999869 184 184 184
0.0405627528198838 -0.0455110443608306 0.023761864096238 0.01356204 -0.00307069 0.9999033 112 112 112
0.00983775053106539 0.0793137179835297 -0.0096155448850852 -0.6288312 0.776932 -0.03078979 44 44 44
-0.0275315007201553 0.0498165713770844 0.00647776880891504 -0.5974585 0.7722839 0.2159189 89 89 89
-0.0856138428679825 -0.0167740953938507 0.0240724639001626 -0.1391904 0.1493526 0.9789381 148 148 148
0.0700486937531113 -0.0115679873005889 0.00721227684648218 0.9849927 -0.1298739 -0.1136759 12 12 12
0.0273028651245713 -0.0464201344029449 0.0232042030397195 0.005159728 0.008468926 0.9999508 165 165 165
0.0263429919251084 -0.0309350861088775 0.023995395094468 0.00564252 -0.003380059 0.9999784 137 137 137
0.00287425909124606 0.00902148356275334 0.0238834575715798 0.01924394 0.002416167 0.9998119 213 213 213
0.0160824099548935 0.0377488957865693 0.0235685662332314 -0.002787401 0.009704404 0.999949 164 164 164
-0.0110338887206436 0.0639940129740693 -0.0215321674045783 -0.5431229 0.8393233 -0.02353408 70 70 70
0.000684384442198205 -0.00657276044054256 0.0238422111573953 0.002847965 -0.01134836 0.9999316 163 163 163
-0.0838957985869766 -0.0119744909779571 0.023040737301423 -0.4150852 0.6047669 0.6796773 86 86 86
0.0375701228150009 0.0507225619776703 0.0235468701425332 0.1007665 0.2267524 0.9687257 172 172 172
0.0149036684998154 0.077371917866037 0.0221059278550881 0.1399729 0.7686486 0.624169 55 55 55
-0.0135623177520157 0.0598580466731049 -0.00809982857076941 -0.421992 0.8698813 0.2554 81 81 81
-0.0290576180449844 0.0470245706065155 0.0132040933671731 -0.6039006 0.7964834 0.03030336 49 49 49
0.00258958730779879 -0.0197834146992706 0.0238078192773599 0.002047704 -0.00892016 0.9999581 202 202 202
-0.0697640141478897 -0.0286293400303863 0.0240223661962289 -0.005158616 -0.008106925 0.9999538 130 130 130
-0.0607722958556534 -0.0463557613865875 0.0221719399991769 -0.1328661 -0.8985012 0.4183805 28 28 28
0.0128513613709091 0.0372618066294648 0.0236681953969735 0.009106549 0.01142997 0.9998932 187 187 187
-0.0514210423461319 -0.0431832445637725 0.0239565328660745 -0.02702331 -0.06390552 0.99759 131 131 131
-0.00591432657159574 -0.0379135979191803 0.0235220448079843 -0.0007093375 -0.009438149 0.9999552 155 155 155
0.0631068984039902 -0.0358155144230865 0.0233655230108041 0.4240658 -0.1095112 0.8989858 159 159 159
-0.0677689274779678 0.0163583384974457 -0.00499791344969092 -0.9046185 0.4254719 -0.02527774 43 43 43
-0.00331961717523344 0.0636762010081269 0.0238136009279031 -0.2555204 0.3089707 0.916104 202 202 202
0.0571638384827255 -0.0561627520100616 -0.00318348845808325 0.0870491 -0.9705967 0.2244202 50 50 50
0.0731498042114853 0.00652774443464055 0.0104601637426156 0.9868088 -0.1199643 -0.1087054 20 20 20
-0.0643440445891739 0.0139735566599823 0.0141048685613412 -0.8891869 0.4544976 0.05271222 52 52 52
-0.0636883934966446 -0.0295782459752105 0.0241725699010629 0.01681122 -0.009800915 0.9998106 119 119 119
-0.00640546884454496 0.0648744927866913 -0.00310120424597082 -0.6789726 0.7306035 -0.07221302 47 47 47
0.0452283659943222 -0.0427478922383331 0.0236367241445321 -0.01446108 -0.03071965 0.9994234 101 101 101
0.0101164618500351 0.0610186683161713 0.0237228826585549 -0.0002344152 -0.007637284 0.9999708 241 241 241
-0.0258465966216446 0.0530987607462861 -0.0171871825155478 -0.5830735 0.808162 -0.08306257 125 125 125
-0.0488392075530411 -0.0102219952122711 0.0243183330598611 0.0156502 -0.007450183 0.9998498 152 152 152
-0.0582100113860489 0.0143837558253266 0.0239569799009103 -0.1121607 0.0452386 0.9926598 197 197 197
0.0715905467041611 -0.0627087725178741 -0.0187061770853263 0.0471833 -0.8438832 0.5344482 68 68 68
0.0381814280518173 -0.0571568382756256 0.0187974528375405 0.1119012 -0.9713525 0.2096486 27 27 27
0.014881733990538 0.0429222213252045 0.0238369063440103 -0.001798181 -0.01573373 0.9998746 170 170 170
-0.0866824349395157 -0.0147409809605621 -0.0111048861440879 -0.8343757 0.5206649 -0.1809008 32 32 32
0.0547567645081162 0.0348660575373627 0.0164408937993783 0.7924021 0.6093947 0.02714712 77 77 77
0.0191756526001572 0.029327713154123 0.0240619436803597 0.01144619 0.007313472 0.9999077 140 140 140
0.0476650038727402 -0.0604914797322296 -0.0151399864849311 -0.0398285 -0.9094906 0.4138121 63 63 63
-0.0422435959807754 -0.0481326950566314 0.00821840325029077 -0.1256399 -0.991964 -0.01489695 42 42 42
0.045514229870665 0.0519251452906586 -0.00798106631605444 0.7709087 0.627839 0.1073222 80 80 80
-0.0214399060241104 -0.0490324867741607 0.0239845768514413 0.03529233 -0.05543802 0.9978382 168 168 168
0.00249851141058199 0.00807221999006047 0.0243753151002664 0.02384383 -0.02724533 0.9993443 207 207 207
-0.0114823540679336 0.0208446609003998 0.0238281444612283 0.01365678 0.001912433 0.9999049 144 144 144
-0.0165392121306778 -0.0477186811940216 0.0234455124440927 0.005589637 0.001030034 0.9999838 158 158 158
-0.0260516365996719 -0.0504136456028961 -0.00973886689512549 -0.122488 -0.992376 -0.01366159 21 21 21
-0.0867212971679092 -0.0157417429463409 -0.01337157627909 -0.8196333 0.4962912 -0.2861753 37 37 37
-0.0752497872344375 -0.0353962553517364 0.0242172733846444 0.0258638 0.001994494 0.9996635 188 188 188
-0.0195795258513809 -0.0525089872853302 -0.00621930202810583 -0.09374844 -0.9922118 -0.08201829 38 38 38
-0.0529230793944717 0.0315432178004242 -0.0169715627130729 -0.6572233 0.7536846 -0.004139967 93 93 93
-0.0366920193663955 0.0449746476634003 -0.00779512962667761 -0.701597 0.7077783 -0.08253203 39 39 39
0.0128396788605332 0.00661178698377385 0.0238110677305001 0.009450076 -0.007532766 0.999927 214 214 214
0.0610338488587021 -0.0536029709355377 0.0234449461999673 0.5014141 -0.498083 0.7074583 127 127 127
0.0691317358978867 -0.0204543245808624 0.00264986911447229 0.9936813 -0.07782234 0.08087756 22 22 22
-0.0109668930999161 -0.0535346640126251 -0.00616971096365271 -0.157272 -0.9871484 -0.02834623 51 51 51
-0.0878494938842178 -0.0408178938405059 -0.00338694891302405 -0.08205377 -0.984287 0.1563529 35 35 35
0.0759249964722275 -0.0622697247044586 -0.0186123295721274 0.3860406 -0.6994381 0.6014641 50 50 50
0.0222359934815048 -0.0255105865971588 0.0238597349229592 0.01082788 0.008946969 0.9999014 154 154 154
0.043610457516539 -0.0625167263524078 -0.0214032276567679 -0.1008427 -0.9225804 0.3723924 55 55 55
-0.0716859063140274 -0.0105138195530914 0.023988093525483 -0.003479718 0.02485318 0.999685 137 137 137
-0.0353647431365371 -0.0236081255452179 0.0240301446023721 0.007753768 -0.008964691 0.9999297 214 214 214
-0.058616515063417 0.0247332679255463 0.0176407949033517 -0.7699262 0.6376567 -0.02464485 46 46 46
-0.016203995608461 0.0437178241236664 0.0242733017507333 -0.004414828 -0.002566546 0.9999869 211 211 211
0.0728493968018173 0.0110721217616059 -0.0157548829015952 0.9195008 0.2077364 0.3337121 34 34 34
-0.0228258332244278 -0.0246708763615631 0.0236879543367166 0.005699155 0.006095222 0.9999652 141 141 141
0.079564694500792 -0.0560742987172149 -0.0193340673145515 0.8811125 -0.0550888 0.4696872 35 35 35
-0.0366219243041397 0.0447864161951996 -0.0111943229135734 -0.632252 0.7709674 -0.07659436 65 65 65
-0.00353204812921293 -0.0189865005986236 0.0238580063882607 0.00150206 -0.009318014 0.9999555 171 171 171
-0.065837260150087 -0.0480069292561554 -0.0221784903702003 -0.04099648 -0.9603779 0.2756693 50 50 50
0.0377506056793808 -0.0595369709507965 -0.0159679695066672 -0.1058279 -0.9074269 0.4066655 59 59 59
0.0260080138214707 0.0690706597788788 -0.00536200842230139 0.7560767 0.6202291 0.208959 71 71 71
-0.0798102578154922 -0.00551370511217342 -0.0168815298971396 -0.8849529 0.3943393 -0.2476992 24 24 24
-0.0515414437285782 0.0319802390559174 -0.00170249184934912 -0.6660097 0.7344416 0.1304861 71 71 71
0.0628310481079697 -0.0147593391911529 0.0234724239412087 0.0008483402 0.001953835 0.9999977 139 139 139
0.0265954772003769 0.0643472300990082 0.00462576308877649 0.6677266 0.6951519 0.2662798 73 73 73
0.011111620999205 -0.036854304172232 0.0235952393117684 0.01126251 0.03428243 0.9993487 146 146 146
-0.0625799855224014 0.0167193042262055 0.00674867191941919 -0.870205 0.4814663 0.104563 53 53 53
0.0707913676270127 -0.00841549763841853 -0.00561854681341467 0.9770312 0.03518075 0.2101724 15 15 15
-0.0539869030944229 -0.0303931606785797 0.0243166939321298 0.01401389 -0.005580687 0.9998862 128 128 128
0.0187364855774521 0.0422579871638276 0.0237734273973245 -0.005387328 0.006679877 0.9999632 186 186 186
0.0719238558777451 -0.0242663992421173 -0.0126423581537467 0.9352139 0.06623758 0.3478328 31 31 31
0.0359691420563339 0.0599057303889252 -0.00291267475454626 0.5812456 0.7852885 0.2132501 65 65 65
0.0703734198578476 -0.00589028725786434 0.0241878286901254 0.1575152 -0.0791934 0.984336 150 150 150
-0.0339738091460586 0.0124975072367646 0.0238982693258065 0.005835562 -0.005993741 0.999965 132 132 132
-0.0437499245635391 -0.0286962164418243 0.0239362076822061 -0.00325634 -0.01485139 0.9998844 143 143 143
0.0573262015350937 0.0374904500468232 -0.0139513804611426 0.7841861 0.6051242 0.137393 68 68 68
-0.0235553940764786 -0.0476326120869659 0.0238524035516519 -0.01913078 0.02656325 0.999464 160 160 160
0.00530350599371188 -0.0249354017750762 0.023734416157319 0.01461234 -0.007733302 0.9998633 183 183 183
0.0708309451111435 0.00898560156659856 -0.00171608170835791 0.9826093 0.08061574 0.1672727 25 25 25
0.0671390334137558 -0.0274626387135528 0.0166486457887429 0.969678 -0.0899151 0.2272439 27 27 27
-0.0808094700805069 -0.0137879026906036 0.0241644636693734 -0.07794517 0.1077399 0.9911189 145 145 145
0.0159939566620468 -0.0570654047505401 -0.0126482143100959 -0.09923646 -0.977961 0.1836964 38 38 38
-0.0457280835143448 0.0114560948832489 0.0240416482988137 -0.003591839 -0.02842869 0.9995894 182 182 182
-0.00476109590448148 -0.0115787161366485 0.0244735137525338 0.0217933 0.004312546 0.9997532 217 217 217
-0.0609768589965225 -0.0444878710286163 0.000267918497635744 -0.2491221 -0.9681396 -0.02537561 36 36 36
0.0376566687592148 -0.029479659892752 0.0235841230455178 -0.0168054 -0.02203855 0.9996158 132 132 132
-0.0192164143554092 -0.00218562016649471 0.023981328398301 0.01748759 -0.005668828 0.999831 160 160 160
0.0721582213410019 -0.0103774441258453 -0.0150570615228873 0.9356572 0.02366942 0.3521156 39 39 39
0.0524719992645859 0.0417257176859833 -0.00273538073866186 0.8429888 0.5205235 0.1357396 55 55 55
-0.0136460026732803 0.0587823020441987 -0.000903879016326048 -0.5757303 0.8176367 0.002218737 68 68 68
-0.00306617822564847 -0.0463022364155792 0.0239983753267068 -0.004243998 0.01029028 0.9999381 164 164 164
-0.0154017170897842 0.0578168260081269 0.00347005882890405 -0.7185771 0.6954473 1.188213E-05 45 45 45
-0.080790873431337 -0.0416818035618804 0.00885039129884424 -0.1577019 -0.9869633 -0.03215086 33 33 33
0.00779164228521578 0.0716389047129609 0.0236899212899941 -0.09553596 0.1418784 0.9852631 174 174 174
-0.0414339264861465 -0.00885669121904598 0.0240770534578103 -0.004315689 -0.006918022 0.9999667 218 218 218
-0.0190504750243545 -0.000501550533010819 0.0240502611699838 0.01931754 -0.00221106 0.9998109 141 141 141
-0.0574628075591446 0.0258947240336396 0.0209439949098367 -0.6690244 0.7296248 0.1416121 35 35 35
0.0742839613922714 0.0059475528223969 -0.012766604035781 0.9312723 0.2539721 0.2612087 73 73 73
-0.089685793780458 -0.0339399946705841 0.0241918520036477 -0.004613497 0.009446318 0.9999447 167 167 167
0.0148443022736191 0.0547674523814179 0.0239298299852151 -0.008695387 0.003924433 0.9999545 220 220 220
0.0451873579987168 -0.0515864265934967 0.0242748812738198 -0.01177438 -0.02529654 0.9996107 137 137 137
-0.0234197339049698 0.0545408355219819 -0.00496256789533911 -0.4635513 0.8533244 0.2386581 90 90 90
0.0480090418823838 0.0440075026972748 0.0171234861913461 0.7010653 0.7127412 0.02252658 72 72 72
0.0221840182312607 0.0686163531764008 0.00803774157197656 0.8798513 0.4576063 0.1282898 40 40 40
0.00986206922613375 0.0783133136256196 -0.0215694054064017 -0.6008883 0.799154 -0.01691471 115 115 115
0.0704005995758652 0.0157838689311005 0.00794484773309412 0.8345366 0.535301 -0.1303901 39 39 39
-0.0314286908141495 0.0452895986063935 0.0199546770158547 -0.5321324 0.8321382 0.1561445 42 42 42
0.047788981533873 -0.0563568247334503 -0.00459099253980932 0.01998551 -0.9829494 0.1827871 41 41 41
-0.0616179665557266 -0.0225752962605499 0.0241416648927468 -0.009974193 0.009565688 0.9999045 151 151 151
-0.0274246891967178 -0.050739802219107 0.00928496876390161 -0.2154127 -0.9757763 -0.03818442 19 19 19
0.058669690228331 -0.0216381920353912 0.0235652581754464 -0.0291741 0.0008888929 0.9995739 118 118 118
0.0347913542755722 -0.0266663206593536 0.0235893086496133 -0.0008130692 0.005509468 0.9999845 166 166 166
-0.0487304886809707 -0.0388851536290191 0.0238980309072274 0.001896477 -0.004281191 0.999989 140 140 140
