ply
format ascii 1.0
comment File exported by Rhinoceros Version 7.0
element vertex 472
property float x
property float y
property float z
property float nx
property float ny
property float nz
property uchar red
property uchar green
property uchar blue
end_header
0.00755590202218528 0.0149567753204916 -0.0109719537777049 0.01283592 0.5830599 -0.8123277 230 230 230
0.0347778523470529 0.0207502848701174 0.0229177673428023 0.2733225 0.8679209 0.4147386 63 63 63
-0.0294533857345281 -0.0371566816057681 -0.0350642258726953 -0.2578661 0.1537808 -0.953864 64 64 64
0.00910797184646863 0.00676941851383939 -0.0170858178601979 -0.07488222 0.589029 -0.804635 207 207 207
0.0400929494125311 0.00624004964700187 0.0197030661876861 0.5045249 -0.8622396 -0.04469309 96 96 96
-0.00612786721848211 0.0335550979746105 0.00388825387800226 -0.1788922 0.6765305 -0.7143556 50 50 50
-0.0238845624836212 0.0344113627659299 0.0101786011897838 -0.2577531 0.9520864 -0.1646052 43 43 43
-0.0303751421581777 -0.0307090917361951 -0.0338553442799748 -0.212704 0.3262659 -0.9210361 37 37 37
-0.00580253489889047 0.0280479986284999 -0.000910673932478734 -0.09434819 0.6076505 -0.7885805 90 90 90
0.00396639376772381 0.0262028724824404 0.0215117758310596 0.06873803 0.8731887 0.4825108 68 68 68
-0.0335330144765879 -0.0452540517889487 -0.034947098773531 -0.3037928 0.09015458 -0.948463 87 87 87
-0.0348290336171361 0.00390636906133124 -0.0138652743767129 -0.1442122 0.5316302 -0.834609 48 48 48
-0.0285902236769978 0.00442563954790298 -0.0146577087601369 -0.1220748 0.5556932 -0.8223763 204 204 204
-0.0407581694194242 0.0108757585082869 -0.00881590065557375 -0.1802575 0.6249844 -0.7595404 100 100 100
-0.0087018839393788 -0.0262788094973332 -0.0360610660776732 -0.1820281 0.4218398 -0.88821 74 74 74
-0.0127689573722794 -0.0256591615758629 -0.0349019963554755 -0.1610776 0.4227232 -0.8918291 127 127 127
0.00263153544403118 -0.0250150536039927 -0.000321252082721546 0.5012969 -0.712823 0.4904944 86 86 86
-0.0194219265320804 0.0212726308954601 -0.00488921169818024 -0.1151437 0.6530746 -0.7484888 58 58 58
0.00154445299732722 -0.0055092175301481 -0.0243488818240193 -0.1499735 0.5051377 -0.8499082 68 68 68
-0.0361682007673058 -0.000202837010751855 -0.0170076337942837 -0.1463412 0.5475699 -0.8238637 63 63 63
-0.0383687806177191 -2.30756386951914E-05 -0.0167629054312284 -0.2108407 0.4969567 -0.8417721 73 73 73
-0.0335522799967285 -0.0325856598091359 -0.0338154069893003 -0.3301944 0.2336239 -0.9145445 49 49 49
0.000250833283439909 0.0121373644134321 -0.0127339962615595 -0.07526538 0.5165644 -0.8529339 206 206 206
-0.00342369390710171 -0.022037391801112 0.00897367634100632 0.3008284 -0.8905066 0.3413214 77 77 77
0.000421229629057794 0.0205196110912305 0.0319995929359367 0.09672061 0.8520688 0.514416 68 68 68
0.00297835707494245 0.0300631421701915 -8.24000137339687E-05 -0.009876217 0.5508099 -0.8345723 57 57 57
0.0426758179506383 0.0120440803080138 0.0321724541557136 0.5688839 0.7148401 0.406663 31 31 31
-0.0273833826392523 0.00722332905873213 -0.0132871746367146 -0.07972424 0.5422982 -0.8363951 148 148 148
0.016889666099878 0.00638190890937007 0.0457136058836704 0.2790809 0.469489 0.8376718 25 25 25
-0.0103785277823047 0.0160508973584799 -0.00977395334380926 -0.1148193 0.5765663 -0.8089424 99 99 99
-0.0140709181703111 -0.047184098076411 -0.0185514461819268 0.5010599 -0.8652916 0.01447001 69 69 69
0.0352393423343054 0.00770677729892943 -0.0141356517633447 0.4712544 0.2385249 -0.849132 42 42 42
-0.0184177324411154 -0.0280172149378752 -0.0354300422892067 -0.1738392 0.3575666 -0.9175653 230 230 230
-0.0400594239011942 0.00635952193547606 -0.0124267591977114 -0.1666397 0.5446455 -0.8219444 78 78 78
-0.00106097804363912 0.0238258564011375 0.0270550849921296 0.01242871 0.8779137 0.4786576 49 49 49
-0.0195687953908305 -0.0261793456776727 -0.0340889966706486 -0.155988 0.3786084 -0.9123176 200 200 200
0.0300880101014667 0.0105874778065796 -0.0132215922748564 0.03932754 0.6153643 -0.7872612 42 42 42
0.00754449234973256 0.0241794061263967 0.0251037194949935 0.08879036 0.873419 0.4788064 37 37 37
-0.0102406281350524 -0.00322715282525388 -0.0215710252184399 -0.1205148 0.5121831 -0.8503791 193 193 193
0.0472632076555945 0.0235358710529686 0.0070968019109531 0.4532855 0.8291494 0.327175 96 96 96
0.00158195438891109 0.0217951768228284 0.0297858434313297 0.0508686 0.8593385 0.508871 58 58 58
0.0230794151100438 0.0218952268408811 -0.00445974489255771 0.01044334 0.5773275 -0.8164459 72 72 72
0.048180038195776 0.0137314589574492 0.025578321785036 0.8397866 0.3790412 0.3886981 87 87 87
-0.0230373993677534 -0.0395647472445724 -0.037878066466656 -0.2520928 0.2064573 -0.945423 46 46 46
0.0238589818296048 0.0297215418629113 -9.85973401650964E-05 -0.01724443 0.5356631 -0.8442557 34 34 34
0.0266409136826388 -0.00342432844190965 0.0206560459730399 0.6709272 -0.7343723 -0.1027326 73 73 73
-0.0331144421796006 0.0225768641200257 -0.000682293101644776 -0.2300204 0.5982685 -0.7675711 74 74 74
0.0380215806893913 0.00513000379486739 0.0181251866589344 0.4825651 -0.8755757 -0.0223159 83 83 83
0.00599955107510921 -0.00627784075418436 -0.0259212326552635 -0.1623863 0.5268854 -0.8342796 73 73 73
-0.00501923047232387 -0.00355410540622281 -0.0224292204707016 -0.1415785 0.5201491 -0.8422592 222 222 222
-0.0114736225679381 -0.0426939474966964 -0.0335790720417409 0.6139106 -0.6643534 -0.4263196 70 70 70
-0.00732208773393748 -0.0110886659764249 -0.0263805399074434 -0.1242659 0.560913 -0.8184954 48 48 48
0.0340032947739634 0.00358250629143309 0.0399364795178796 0.4783381 -0.5192061 0.7082497 47 47 47
0.0294613124448662 0.000219799775408425 0.0138176785564198 0.6346704 -0.7705033 0.05931359 67 67 67
-0.0375676120871244 -0.0392782078424372 -0.032923971381584 -0.3115946 0.1550726 -0.937476 73 73 73
-0.00917941652307062 0.00568387418922955 -0.0167884264821074 -0.1128297 0.5805207 -0.8063902 47 47 47
0.0446708562184285 0.0157917922775506 0.024379213177384 0.4038497 0.8218088 0.4019152 45 45 45
-0.0314779397664201 0.0287125302078439 0.00421973620891217 -0.2096686 0.7813416 -0.5878302 111 111 111
-0.0125595645342527 0.033858900312113 0.0115633020867383 -0.005514947 0.897956 0.4400507 67 67 67
0.039880426360585 0.00960821980465809 -0.00547790090104552 0.8438913 -0.3964923 -0.3614435 60 60 60
-0.0318114500588489 -0.00386089315746418 -0.0198126079334926 -0.05556764 0.5514942 -0.8323259 241 241 241
-0.0132294695598788 0.000233541016811833 -0.0188440042622263 -0.06702963 0.4993525 -0.8638021 64 64 64
-0.0289067113228373 -0.0531907368023775 -0.0378394097930413 -0.3761519 0.1054808 -0.9205344 60 60 60
0.0182969148265656 0.0301299758677445 0.0119690909917816 0.1249201 0.8746979 0.4682933 51 51 51
0.0347746608333769 0.0197287379039182 0.0244781105500612 0.2846341 0.8386329 0.4644116 68 68 68
-0.0145067242972039 0.0141096741679071 -0.00995237842227381 -0.09611356 0.5385659 -0.8370836 102 102 102
0.0340039285316778 0.0284948355652572 -0.00074030002800779 -0.01732443 0.5840498 -0.811533 79 79 79
-0.0430888071652905 0.00304187199814898 -0.0137319026159834 -0.2514006 0.5273386 -0.8116106 78 78 78
0.00163024782111845 0.0326574628677404 0.0116679404333629 0.1195192 0.8372744 0.5335604 61 61 61
0.00703221409244772 -0.00591818099735342 -0.025787232200065 -0.1550666 0.5269152 -0.8356523 80 80 80
-0.0415558708267792 -0.0309718890203239 -0.0300475769944675 -0.287073 0.2253037 -0.9310356 53 53 53
-0.0168903143990768 0.00276097170922074 -0.0174443696957924 -0.05865521 0.4640913 -0.8838432 70 70 70
-0.00297967822823817 0.00120765422119495 -0.0193770762830879 -0.09845483 0.5195694 -0.8487369 150 150 150
0.00734612178495777 0.0338448131246605 0.00813629834015894 0.1426922 0.880954 0.4511751 77 77 77
-0.0462593595110119 -0.0134396551970375 -0.0212376506031966 -0.3564503 0.4131826 -0.8379877 46 46 46
0.0217558090968591 0.0127472809728443 -0.0116630649049463 0.07730924 0.6294844 -0.7731577 39 39 39
0.0148430558331209 0.0287067329207131 0.0154989375141886 0.1336064 0.8627224 0.4877083 91 91 91
-0.0433270478293016 -0.0147332803784958 -0.0237704505647537 -0.3554935 0.4158173 -0.8370904 68 68 68
-0.00602498475201039 -0.0121137167727994 -0.0271155984378598 -0.1238793 0.5804581 -0.804812 93 93 93
-0.0294676526582693 -0.0213796636034504 -0.0305611046306957 -0.1835597 0.4144162 -0.8913838 237 237 237
0.00499509109831444 0.0267469459968275 0.0201933557109609 0.06488619 0.8732584 0.4829178 73 73 73
0.0356847571018002 0.00361629219478465 0.00832852340956666 0.5454433 -0.8281693 0.1289468 68 68 68
-0.0166587708529304 -0.0128250215355844 -0.0259338297755164 -0.0746998 0.5640023 -0.8223876 52 52 52
0.0153251658001894 -0.0163183180092465 -0.0143936535681574 0.7582332 -0.624401 0.187632 36 36 36
0.0299264374205159 0.0265390085163226 0.0139607140757532 0.2633993 0.8505734 0.4551325 46 46 46
-0.0301299134160936 -0.0551484846758779 -0.0374399413218177 -0.3839377 0.1095161 -0.9168413 58 58 58
-0.0309008164008548 -0.054395667020232 -0.0369398411228516 -0.3711169 0.1250062 -0.9201335 73 73 73
-0.031080614206735 -0.0542252599793337 -0.0364944128349847 -0.3711169 0.1250062 -0.9201335 54 54 54
-0.0293270722671471 -0.0528621191357405 -0.0368268422399291 -0.3858977 0.1286354 -0.9135294 76 76 76
0.020839699466839 0.0225068651799416 0.0247799135520415 0.1535669 0.8869224 0.4356443 49 49 49
-0.0243449606069507 -0.0535021803552211 -0.040124529287263 -0.2966738 0.06419252 -0.952819 62 62 62
-0.0234928964750404 -0.0521373815766203 -0.0400801287945869 -0.2460144 0.03358603 -0.9686841 64 64 64
-0.0237865849761042 -0.0506568760762063 -0.039388451511039 -0.24372 0.05884757 -0.9680586 77 77 77
-0.0279002387702591 -0.0520554577577665 -0.0378346159447955 -0.4003697 0.09952866 -0.9109326 77 77 77
-0.0285311965300993 -0.0505316504637103 -0.0375961142726108 -0.4213988 0.1067553 -0.90057 37 37 37
-0.0250546663975968 -0.0487303410917168 -0.0387623570295801 -0.3634689 0.1739418 -0.9152238 52 52 52
-0.0255523119314403 -0.0477487660243714 -0.0386725294319392 -0.3531653 0.1191341 -0.9279447 69 69 69
-0.0276311594268257 -0.0470253141333393 -0.0381874416924297 -0.3460298 0.1017024 -0.932695 94 94 94
-0.0216251114471605 -0.0530579846129394 -0.0358667976517523 0.5331331 -0.7536674 -0.3843885 59 59 59
-0.0306907673703556 -0.048684019221406 -0.0364624936205813 -0.3845965 0.08744627 -0.9189335 43 43 43
-0.0286075078355737 -0.0493205212976202 -0.0376715200293254 -0.4044172 0.1310544 -0.9051362 87 87 87
-0.0283931398283437 -0.0482393923156651 -0.0372006902330694 -0.3814702 0.05761187 -0.9225841 55 55 55
-0.0267249750367695 -0.0475257409827068 -0.0377467714701493 -0.3547693 0.08706068 -0.9308916 42 42 42
-0.027715633777794 -0.0459812664564186 -0.037242478257407 -0.3633463 0.1272128 -0.9229282 79 79 79
-0.0211492105487501 -0.0483271450931384 -0.0400776453972908 -0.1192496 0.07740261 -0.9898426 101 101 101
-0.0196096074325845 -0.0468599048838816 -0.0395324268280007 0.03479802 -0.1081678 -0.9935234 81 81 81
-0.0232874474732806 -0.048505605276202 -0.0391759138066839 -0.2952958 0.1835221 -0.937614 35 35 35
-0.0222475785174695 -0.0490307933402934 -0.0398312314892223 -0.07077514 0.01849441 -0.9973208 76 76 76
-0.0213801962329241 -0.046947415904567 -0.0394740717749198 -0.1430983 0.112983 -0.9832384 98 98 98
-0.0223531253466639 -0.0434311763499468 -0.0391073901744496 -0.2751315 0.1927009 -0.9418965 33 33 33
-0.0174347734496775 -0.0480345001546043 -0.0374069741854103 0.4446022 -0.4635887 -0.7664296 35 35 35
-0.0258035302322169 -0.0448521603610944 -0.0377001793590366 -0.2719161 0.1732693 -0.9465936 74 74 74
-0.0238444388798908 -0.0448690780943745 -0.0382684769302763 -0.2738527 0.199424 -0.9408692 71 71 71
-0.0244953682264235 -0.0433116913097891 -0.0377605392410181 -0.2728165 0.1758841 -0.945852 59 59 59
-0.0203774872569761 -0.0449695861497054 -0.0388504883575053 -0.1532573 0.06671494 -0.9859317 63 63 63
-0.023389818429269 -0.0420735314066418 -0.0378206704131315 -0.2414988 0.1771609 -0.9540924 48 48 48
-0.0214113682369136 -0.0436777552891855 -0.0386620248258361 -0.2219344 0.1876591 -0.9568329 33 33 33
-0.0238702791509173 -0.0534350514490425 -0.0290628420955737 0.5223508 -0.7889494 -0.3235869 91 91 91
-0.0191014341924495 -0.0499568066311593 -0.0301069524874091 0.5110565 -0.8013353 -0.3109387 72 72 72
-0.0194957969137364 -0.0513649458839743 -0.0287729116539043 0.5410425 -0.8135833 -0.2129677 55 55 55
-0.0203777030297539 -0.0505662964164635 -0.026984994416334 0.4831363 -0.8524259 -0.1998736 76 76 76
-0.0325674167705984 -0.0498083995638925 -0.0363634768387209 -0.3479881 0.106168 -0.931468 39 39 39
-0.0325780174371529 -0.0491660867495192 -0.0350547570877363 -0.336699 0.102338 -0.9360346 61 61 61
-0.0353526361816675 -0.0475968136356952 -0.0343840419397267 -0.2602766 0.1107619 -0.95916 70 70 70
-0.0374420488732503 -0.0463519568537718 -0.0351366072449208 -0.2711072 0.1161023 -0.9555214 66 66 66
-0.0344638569744555 -0.0471603997804541 -0.034536913984714 -0.2721366 0.09643308 -0.9574144 87 87 87
-0.0360313000439778 -0.0454601423023299 -0.0342296239357617 -0.2507821 0.1228392 -0.9602181 50 50 50
-0.0373434084783593 -0.0459427885081813 -0.0345534409298292 -0.2691108 0.1188585 -0.9557468 77 77 77
-0.0368682644409431 -0.0434115349660182 -0.034013510238885 -0.2802774 0.1141199 -0.9531114 70 70 70
-0.0377138741088783 -0.0424311526527749 -0.0336172559110037 -0.3119188 0.1412819 -0.9395457 82 82 82
-0.0394789738979172 -0.0404378989267956 -0.0324871341833424 -0.2791434 0.1683753 -0.9453723 94 94 94
-0.0406335258388693 -0.0388191178019311 -0.0322503011019357 -0.2738617 0.1970263 -0.9413716 68 68 68
-0.031616619367945 -0.047120159439764 -0.0358285065271499 -0.3752724 0.07809782 -0.9236186 41 41 41
-0.0311151869152089 -0.0472211136058092 -0.035441687761122 -0.3752724 0.07809782 -0.9236186 19 19 19
-0.029943575045032 -0.0459281812567467 -0.0366182344423911 -0.3888105 0.07963978 -0.9178692 83 83 83
-0.0342402778998971 -0.0439391695083453 -0.0347380815363421 -0.3008239 0.1132123 -0.9469361 80 80 80
-0.0326010854525837 -0.0427668402353305 -0.035279725802047 -0.3337309 0.120066 -0.9349908 107 107 107
-0.0287728451802471 -0.0446371971623927 -0.0368254857466413 -0.3267625 0.1351252 -0.9353969 77 77 77
-0.0326354153611092 -0.043287933079317 -0.0361394157167237 -0.3519654 0.07876718 -0.9326929 112 112 112
-0.0297734190061273 -0.0436066836655411 -0.0373275771679417 -0.3346336 0.1336248 -0.9328262 62 62 62
-0.0304046447552217 -0.0432287439338852 -0.0351289552462105 -0.3434338 0.1586193 -0.9256852 70 70 70
-0.0309821114083969 -0.0411589692594853 -0.0353959190108991 -0.3248556 0.1724257 -0.929913 76 76 76
-0.035386200399322 -0.0426611972429489 -0.0340433646877313 -0.2794213 0.1389162 -0.9500663 53 53 53
-0.0359811853497375 -0.0407376605473311 -0.0339221471575954 -0.3054476 0.1231431 -0.9442127 49 49 49
-0.036784006762511 -0.0401373160572733 -0.033167689544386 -0.3264215 0.1290089 -0.936379 72 72 72
-0.0365115934274977 -0.0389058750005228 -0.0338032477152357 -0.3215665 0.130401 -0.9378649 87 87 87
-0.0322467932715492 -0.0398664193199153 -0.0347144761022496 -0.2610654 0.1234952 -0.9573891 99 99 99
-0.0350454692335285 -0.0385540594089621 -0.0341624989849908 -0.309823 0.1716236 -0.9351765 79 79 79
-0.0338183821194731 -0.0383576513508266 -0.0339349865015949 -0.2946998 0.1351786 -0.9459803 58 58 58
-0.0347343867015764 -0.0365151807839497 -0.0335796516890464 -0.3404318 0.1565164 -0.9271509 78 78 78
-0.0289307023844604 -0.0416519548377203 -0.0360263041162711 -0.3025083 0.1996013 -0.9320129 49 49 49
-0.0298558468665394 -0.0399634423092061 -0.0354861497057124 -0.2890003 0.2020797 -0.9357578 62 62 62
-0.0269440778406 -0.0407319115775535 -0.037215127578957 -0.3007267 0.1953424 -0.9334907 47 47 47
-0.0279687721458876 -0.0391746859968349 -0.0358960506832567 -0.3125943 0.1931359 -0.9300448 29 29 29
-0.0258731530843246 -0.0410253580568575 -0.0370218001181545 -0.2747248 0.198021 -0.9409113 55 55 55
-0.0240940550679854 -0.0406841014340795 -0.0374454445903027 -0.2528047 0.1997573 -0.9466714 40 40 40
-0.0246969901931119 -0.0404895718398406 -0.0368420870500331 -0.2805064 0.1925378 -0.9403432 40 40 40
-0.0270705336039177 -0.0401251754602301 -0.0365205468679331 -0.3210345 0.2082901 -0.9238788 35 35 35
-0.0256957569481596 -0.0394962727263205 -0.0375723719891264 -0.294869 0.205205 -0.9332433 59 59 59
-0.0308210831674141 -0.0386570303839461 -0.0348765997360982 -0.2830886 0.1345963 -0.9496024 61 61 61
-0.0305158720245184 -0.038187240608027 -0.03438393261184 -0.2695215 0.1500459 -0.9512331 60 60 60
-0.0298741030947161 -0.0367311901599291 -0.0345495986052698 -0.2534161 0.1427618 -0.9567651 61 61 61
-0.0323883838922978 -0.0365049438160445 -0.034898529877947 -0.2852438 0.1451913 -0.947394 69 69 69
-0.0320944416659396 -0.0339544817558376 -0.0337673023570214 -0.3012691 0.1809162 -0.9362192 41 41 41
-0.0300903342512129 -0.0328540283336084 -0.0344694187751076 -0.2027029 0.2444835 -0.9482296 50 50 50
-0.0395124389079991 -0.0373231481405459 -0.0322852778248363 -0.2963539 0.1850812 -0.9369735 67 67 67
-0.040368506359532 -0.0363647436400054 -0.0320538765234641 -0.2794807 0.2107734 -0.9367311 72 72 72
-0.0377677774260332 -0.0365797370531014 -0.0325335037986971 -0.3194931 0.2145344 -0.9229838 62 62 62
-0.0398264040160863 -0.0354833154806042 -0.0315996355875833 -0.2729997 0.206574 -0.9395735 39 39 39
-0.0389064760769647 -0.0347690425487504 -0.0321683465593187 -0.2901632 0.1958359 -0.936725 63 63 63
-0.0354969807970329 -0.0350521011838342 -0.0328137120423015 -0.3398276 0.2057678 -0.917702 52 52 52
-0.0340883646143959 -0.0339610516949347 -0.0330959490733231 -0.3558192 0.2102165 -0.9106051 64 64 64
-0.0350344692399651 -0.0317648788800975 -0.0329436898531761 -0.326094 0.2529666 -0.9108626 79 79 79
-0.0319883683518677 -0.0312732845758624 -0.033539676490552 -0.2903296 0.2918404 -0.9113385 33 33 33
-0.0325695321499091 -0.0296068893389378 -0.0324712871678212 -0.2783138 0.3210519 -0.9052442 36 36 36
-0.0340340393701837 -0.0304587792358214 -0.0322506875058502 -0.3097727 0.2759452 -0.9098874 34 34 34
-0.039210253936344 -0.0365214747874713 -0.0314838762927889 -0.2803013 0.2062192 -0.9374992 37 37 37
-0.0413875700175533 -0.03517834963179 -0.0308832306235925 -0.2696273 0.2067931 -0.9404987 82 82 82
-0.0390241357045111 -0.0344168217169596 -0.0316149336528969 -0.2933996 0.1927697 -0.9363528 47 47 47
-0.0371983852073744 -0.0351513007365886 -0.0318393104012148 -0.3259278 0.1936097 -0.9253574 45 45 45
-0.0370269927877337 -0.0333485964281987 -0.031746587590489 -0.3310863 0.2053468 -0.9209856 35 35 35
-0.0428163386723192 -0.0319433186726379 -0.0293734202547104 -0.2974691 0.2176069 -0.9296017 89 89 89
-0.0435702029102809 -0.0319843924011268 -0.0298954110107957 -0.3084558 0.2169846 -0.9261602 92 92 92
-0.0415842461773634 -0.0318883545099675 -0.0298939278874682 -0.2844728 0.2097971 -0.9354466 31 31 31
-0.0443917200011939 -0.029322436237571 -0.0288862450863177 -0.2593697 0.2881052 -0.9218041 83 83 83
-0.039556095717413 -0.0305850453486076 -0.0308735067199301 -0.2749406 0.2274236 -0.9341767 40 40 40
-0.0421204823195851 -0.0260060735109722 -0.028034706710775 -0.238782 0.3215187 -0.9163017 67 67 67
-0.0352065963431387 -0.0342666152638723 -0.0322043907011444 -0.3424868 0.1859172 -0.9209439 33 33 33
-0.0358718250888621 -0.0319685978635224 -0.031969311302996 -0.3233253 0.2427407 -0.9146244 51 51 51
-0.0338063197028722 -0.0280573401467537 -0.0317868258996375 -0.3027414 0.378052 -0.8748853 58 58 58
-0.0386785185960704 -0.0286718495128625 -0.0303121522882049 -0.2433205 0.3386194 -0.9089181 26 26 26
-0.0375856440214555 -0.0262185730090259 -0.0296220747949167 -0.2186841 0.366256 -0.9044522 39 39 39
-0.0402104004514216 -0.0281029135026306 -0.0301780422966217 -0.2555011 0.3101544 -0.9157093 65 65 65
-0.0379288282915863 -0.0252636666886573 -0.0287516884579412 -0.1835791 0.379538 -0.9067798 40 40 40
-0.0387800069466609 -0.0239884098478329 -0.027896146860793 -0.1686645 0.3548961 -0.9195657 43 43 43
-0.0348401487331191 -0.0261268112861078 -0.0304955364467416 -0.2839537 0.388339 -0.8766773 44 44 44
-0.0355501990846415 -0.0255879064793655 -0.0288878918176776 -0.2434947 0.3815852 -0.8916855 29 29 29
-0.0371338412751989 -0.0229451701176572 -0.0280772096852117 -0.2089422 0.3160464 -0.9254501 57 57 57
-0.0189312057917062 -0.0440984827765855 -0.0398636173695622 -0.03466519 -0.0457389 -0.9983518 61 61 61
-0.0209891907370074 -0.042590753743857 -0.0393608200731789 -0.246671 0.1867885 -0.9509277 35 35 35
-0.0172907700513631 -0.0469637282040953 -0.0383788771363354 0.3572876 -0.4274453 -0.8304433 54 54 54
-0.0159708262947367 -0.0465145990820928 -0.0356796851978596 0.5404817 -0.6337297 -0.5534133 69 69 69
-0.0136845748352385 -0.0431888985984668 -0.0383834172296872 0.5207188 -0.5898597 -0.6171851 124 124 124
-0.0138242388630543 -0.0430441540698762 -0.0375461140549698 0.5207188 -0.5898597 -0.6171851 97 97 97
-0.0194387680304676 -0.0435012584052429 -0.0390492396032452 -0.1755924 0.05928499 -0.9826763 31 31 31
-0.017471175384113 -0.0437439652320806 -0.0394266308573845 0.2285769 -0.2486486 -0.9412367 56 56 56
-0.0162999894382838 -0.0445268020911479 -0.0387153068140729 0.2285769 -0.2486486 -0.9412367 85 85 85
-0.0184767077264747 -0.0413619381362699 -0.0390376725950138 -0.2211133 0.180875 -0.9583283 48 48 48
-0.0179933524691874 -0.0386272392342031 -0.0387136918215582 -0.2000845 0.2697589 -0.941911 44 44 44
-0.0123590676083279 -0.0398476838811829 -0.0406803515252694 0.07224816 0.05325445 -0.9959639 119 119 119
-0.0127937786508657 -0.0397765151549224 -0.0412276982201908 0.07224816 0.05325445 -0.9959639 117 117 117
-0.0109273471828237 -0.0428457995315077 -0.0346604512407438 0.5970855 -0.663075 -0.4514647 60 60 60
-0.00926982482877895 -0.0397130619260487 -0.0350044639179241 0.5755537 -0.6272975 -0.5246294 103 103 103
-0.00899917245032342 -0.0388039466065931 -0.037400990836777 0.6353742 -0.4505826 -0.6271164 138 138 138
-0.0140994567944903 -0.0401184484189702 -0.0394904339935117 0.02262716 0.1058258 -0.9941272 70 70 70
-0.0131471555133891 -0.0390650602040451 -0.0395514894310633 0.05121077 0.1287644 -0.990352 56 56 56
-0.0116874867375565 -0.0405204527716146 -0.0374610050827335 0.5021659 -0.5148234 -0.6948283 161 161 161
-0.0159774466272297 -0.0385481702821237 -0.0391273215922583 -0.1612047 0.2894184 -0.9435306 52 52 52
-0.0165758883567365 -0.0376119636931275 -0.038805612472604 -0.1879484 0.3023616 -0.93448 66 66 66
-0.015147717122829 -0.0353930815253369 -0.0380161636514531 -0.1252009 0.3269081 -0.9367261 71 71 71
-0.0134261656524035 -0.0370277045613205 -0.0380598329558129 -0.008159989 0.2400319 -0.9707307 75 75 75
-0.0136142580541629 -0.0342591772919051 -0.0378015627534342 -0.1277719 0.3352293 -0.9334322 84 84 84
-0.0125329778589351 -0.0333457200180758 -0.0380543762100188 -0.138393 0.326368 -0.9350568 87 87 87
-0.0144370409113242 -0.0472415408526292 -0.028297873782782 0.56739 -0.8100072 -0.1481791 79 79 79
-0.0124325112651359 -0.0442365100273591 -0.0327051949143773 0.644185 -0.6908972 -0.3281565 81 81 81
-0.00980499012831463 -0.0446278323316449 -0.0275076012991479 0.6219352 -0.7417099 -0.2511232 72 72 72
-0.0131349857461543 -0.047517074786219 -0.0263042401097652 0.5549949 -0.8216108 -0.1301395 30 30 30
-0.01277702782486 -0.0463363831194797 -0.021701760251308 0.5035805 -0.8560168 -0.116799 69 69 69
-0.00845326997281102 -0.0452733681335438 -0.0220331566144169 0.5220773 -0.8451841 -0.1144516 55 55 55
-0.0103615217973399 -0.0438107554208818 -0.0325039505158752 0.6269895 -0.6982055 -0.3455331 78 78 78
-0.00955595556908643 -0.0416850613073981 -0.0322180751973773 0.6278327 -0.6780871 -0.382131 83 83 83
-0.0105375155813777 -0.0439408388776634 -0.0304998154663927 0.6288275 -0.7028109 -0.3326152 77 77 77
-0.00802860304706119 -0.0430210507368537 -0.0277710657987677 0.62562 -0.7292535 -0.2771081 72 72 72
-0.00738471320505971 -0.0424259552384103 -0.0295124327696145 0.6521662 -0.6880444 -0.318236 67 67 67
-0.00744875490773709 -0.0401122019756206 -0.0321230059652106 0.6537182 -0.6568545 -0.3757588 76 76 76
-0.00692727990696827 -0.03981842153141 -0.0344320020468792 0.6447384 -0.6112132 -0.4590543 80 80 80
-0.00780249433924749 -0.0396447744123087 -0.0340034600773353 0.6137018 -0.6210522 -0.4875082 81 81 81
-0.00629098390732217 -0.0431911226496446 -0.0236006175094791 0.5817667 -0.7896482 -0.1949441 64 64 64
-0.00683696210266236 -0.0427745219241836 -0.0248128856005726 0.6076592 -0.7601355 -0.2300963 95 95 95
-0.00461308898789901 -0.0407456530098649 -0.0241665151930552 0.6405563 -0.6978258 -0.3205101 87 87 87
-0.00900439669093176 -0.0374183883106712 -0.0388823418174221 0.5775796 -0.2871608 -0.76416 145 145 145
-0.0098247148147592 -0.0354378319617357 -0.039078002480824 0.1152346 0.08084913 -0.9900426 104 104 104
-0.009262053188731 -0.0350279097970307 -0.0396571974931012 0.1218043 0.09034637 -0.9884337 123 123 123
-0.0108820621208425 -0.0343374207392626 -0.0384717636510224 -0.01322082 0.1824008 -0.9831354 79 79 79
-0.00780400261043643 -0.0373932734506891 -0.0364667942233008 0.5765802 -0.4451001 -0.6851578 128 128 128
-0.011598248664946 -0.0324449109824584 -0.0371932421265198 -0.1643957 0.3191634 -0.9333321 58 58 58
-0.00764130023128815 -0.0320390516430369 -0.0384631495941857 0.003109169 0.1797234 -0.9837123 73 73 73
-0.00578072690959861 -0.0325276674271946 -0.0383495518060811 0.3312365 -0.124216 -0.9353356 104 104 104
-0.00868763251333846 -0.0316777192145277 -0.0376823704915463 -0.05751186 0.2248281 -0.9726997 54 54 54
-0.00882537863592468 -0.0301297727739613 -0.037492332679717 -0.17072 0.2982463 -0.9390973 61 61 61
-0.00344803010250481 -0.0302352748932674 -0.0365883287059314 0.6849818 -0.1917881 -0.7028637 74 74 74
-0.00637684970508471 -0.0315404602633825 -0.0388805172512199 0.02028071 0.1398994 -0.989958 64 64 64
-0.00571719276631803 -0.0303758229106196 -0.0382087945241312 -0.04860315 0.1880953 -0.9809474 55 55 55
-0.00365531424280272 -0.0295839102582987 -0.036783437965465 0.516637 -0.00122272 -0.8562037 69 69 69
-0.00611072641426389 -0.0279769386655299 -0.0372005117348911 -0.1383295 0.35813 -0.9233677 64 64 64
-0.00396414908867646 -0.0282070885593994 -0.0388187088416587 0.1447012 0.2297978 -0.9624212 38 38 38
-0.00371514617052241 -0.0277668202494821 -0.0377053364612761 0.08417303 0.2458978 -0.965634 58 58 58
-0.00357536042882454 -0.0366033760579298 -0.0304067339729628 0.7462583 -0.5227581 -0.4120953 69 69 69
-0.00339805072647834 -0.0377089193346248 -0.0283612571390489 0.698134 -0.5995122 -0.3914001 75 75 75
-0.0033427587544446 -0.0385423286347359 -0.0270205556556002 0.6874776 -0.62649 -0.3672665 97 97 97
-0.00137793701966114 -0.0394217098844434 -0.0226919484854059 0.6656869 -0.682824 -0.3010189 62 62 62
-0.00240043112255237 -0.0371688725298687 -0.0274307864561818 0.7046033 -0.5829657 -0.4045803 105 105 105
-0.00244104533854537 -0.0368299884217763 -0.0283986709661964 0.7089931 -0.5762166 -0.4065748 79 79 79
-0.00248651584777513 -0.0330751243426252 -0.0321549003461888 0.741892 -0.4485788 -0.4983707 79 79 79
-0.00136870733314452 -0.031669699087725 -0.0315310024206444 0.7381431 -0.4488921 -0.5036274 88 88 88
-0.00167157679709249 -0.0311464470909895 -0.0332267224586612 0.7377543 -0.3525009 -0.5757271 91 91 91
-0.0010613243173516 -0.0294680720373346 -0.0323023397795303 0.6942562 -0.3610032 -0.6226436 85 85 85
-0.000623441710229967 -0.0306526286587006 -0.0316325445704601 0.711061 -0.4387364 -0.5494567 80 80 80
0.00046154992427274 -0.0330276467356252 -0.027954137124025 0.6932113 -0.5142013 -0.5050299 60 60 60
0.000689499576096007 -0.0364286562836464 -0.0251199523256773 0.6917211 -0.6079349 -0.389791 35 35 35
0.000724598106919626 -0.0349927383082418 -0.0249871299453712 0.7049219 -0.5908097 -0.3924653 58 58 58
0.00312250590997112 -0.032005801596895 -0.0263867954277801 0.7114858 -0.5209584 -0.4715827 69 69 69
0.00169041918404702 -0.0289179983093676 -0.0297583060537824 0.7022508 -0.456501 -0.5463063 106 106 106
-0.0220874971034704 -0.0403870551526723 -0.0382438529487002 -0.2436995 0.1770095 -0.9535608 58 58 58
-0.0225387999176091 -0.0386164288955022 -0.0372538251779425 -0.268467 0.2280786 -0.9358983 39 39 39
-0.0212760414436891 -0.0378240667130959 -0.0372930842883245 -0.2354793 0.2237602 -0.94577 37 37 37
-0.0248755774390921 -0.0359401043663361 -0.0363055751816228 -0.2616239 0.2147798 -0.940969 37 37 37
-0.0202581570142682 -0.0391677934457106 -0.0381344528961113 -0.2404487 0.2177121 -0.9459312 25 25 25
-0.0195449105145974 -0.0389167933661827 -0.0376226829705527 -0.2501757 0.2210997 -0.9426171 15 15 15
-0.0198055769832029 -0.0377421633592726 -0.0384106785330877 -0.2188463 0.2640476 -0.9393536 48 48 48
-0.0197640026910836 -0.0362020993069583 -0.0375236330098304 -0.2169989 0.2742057 -0.9368685 40 40 40
-0.020757627202521 -0.0353744841378161 -0.0370196675939721 -0.2140693 0.2604496 -0.9414565 55 55 55
-0.022046750624612 -0.0339474581536677 -0.036202378426036 -0.2275538 0.3048127 -0.9248289 53 53 53
-0.0259090329923863 -0.0344532235797511 -0.0354207459380088 -0.2340265 0.2324532 -0.9440324 38 38 38
-0.0251134405202131 -0.0329888965219983 -0.0351755727368376 -0.2270136 0.297537 -0.9273276 39 39 39
-0.0287792647976131 -0.031461896766247 -0.0339603499439581 -0.1841712 0.3005164 -0.9358263 33 33 33
-0.0259071112258953 -0.0314597292669653 -0.0347092253560805 -0.1999345 0.3388447 -0.9193532 49 49 49
-0.0234881169821173 -0.0332007314328674 -0.0366564225977253 -0.1811363 0.2998652 -0.9366272 75 75 75
-0.0222875137505063 -0.0328090225488663 -0.035922182201749 -0.1951353 0.3045042 -0.9323087 39 39 39
-0.024409544866074 -0.0304717006507128 -0.0347813759165358 -0.1935285 0.3422504 -0.9194626 46 46 46
-0.0253416695447987 -0.0290114360856211 -0.034389586320721 -0.2000766 0.333231 -0.9213721 66 66 66
-0.0180132637477703 -0.0356727258132634 -0.0376564675539041 -0.1841756 0.2791091 -0.9424317 45 45 45
-0.0159553470282384 -0.0354218311919854 -0.0386773566347466 -0.1556553 0.3009887 -0.9408386 69 69 69
-0.017950722627953 -0.0324262062520508 -0.0372958902036497 -0.1774627 0.3365189 -0.9248038 79 79 79
-0.0182690069666362 -0.0323570162459038 -0.0362323179815117 -0.1597356 0.3398073 -0.9268309 58 58 58
-0.0190437516204579 -0.0306561989699785 -0.0357181866096735 -0.1787296 0.3458956 -0.9210928 66 66 66
-0.015052287411863 -0.0332053919230606 -0.037617101771564 -0.1050853 0.3267597 -0.9392471 78 78 78
-0.0135496784028803 -0.0319860855379174 -0.0373215261996954 -0.1278017 0.3204391 -0.9386083 81 81 81
-0.0163108853893433 -0.0309301126479354 -0.0364358308740493 -0.1526798 0.3426183 -0.9269852 87 87 87
-0.0170071252626572 -0.0293440292237412 -0.0355688363384911 -0.1633863 0.3476931 -0.923263 112 112 112
-0.0212250559652133 -0.0323513587651922 -0.0359830284644994 -0.1972334 0.3299075 -0.9231793 41 41 41
-0.0202130448562095 -0.0294168332877232 -0.0351871403419063 -0.1794202 0.3315053 -0.9262357 59 59 59
-0.0233909362869685 -0.0297116428603158 -0.0343945288163702 -0.2033171 0.3369793 -0.919297 36 36 36
-0.0234839116721712 -0.0287251743253208 -0.0342298788811279 -0.1960858 0.3451871 -0.9178215 38 38 38
-0.0184097632464379 -0.0272577404964847 -0.0346417835022474 -0.1694603 0.35989 -0.9174761 206 206 206
-0.0258931763622427 -0.0286112183675091 -0.0335565692793093 -0.2022824 0.3224404 -0.9247237 60 60 60
-0.0204605283170703 -0.0287470134319554 -0.0343786330746482 -0.1653782 0.3229976 -0.9318383 42 42 42
-0.0203994467110939 -0.0275133911321935 -0.0343250298469538 -0.1650391 0.357553 -0.9191942 123 123 123
-0.0182147809607358 -0.0251566549672341 -0.0339514104111935 -0.1417855 0.4128553 -0.899693 151 151 151
-0.0309809437598632 -0.0283174371244899 -0.0325053634010713 -0.2447428 0.3566668 -0.901604 46 46 46
-0.0159131914020862 -0.00973890565895297 -0.024516126782869 -0.05562936 0.4910074 -0.8693774 39 39 39
-0.0284177431243151 -0.0300903662907497 -0.0334158488196142 -0.1809956 0.3575416 -0.9161903 21 21 21
-0.0285871027265225 -0.028513930901526 -0.0330064254564935 -0.1990041 0.334702 -0.9210711 29 29 29
-0.0297213167389715 -0.0275868647250613 -0.0327261730252779 -0.2164929 0.3449962 -0.9132954 38 38 38
-0.0324694089615098 -0.0273325838534098 -0.0317166350613462 -0.2779351 0.380939 -0.8818376 65 65 65
-0.0323488340910461 -0.0261719989582077 -0.0312681516878509 -0.3049996 0.3642428 -0.8799446 41 41 41
-0.0265406346494236 -0.0275733549173071 -0.0331599378237409 -0.1984517 0.315693 -0.9278765 34 34 34
-0.0293697063385541 -0.0262886256888235 -0.0318032792695954 -0.2202443 0.3473294 -0.9115123 24 24 24
-0.0303547867938366 -0.0252159639539296 -0.0321500982402483 -0.2393429 0.3517031 -0.9049972 97 97 97
0.0240770107526611 0.00186732663408318 -0.0205815467235672 0.1885096 0.486324 -0.8532017 100 100 100
-0.0276487368045218 -0.0257884243721209 -0.0326519089893008 -0.2127868 0.3594488 -0.9085804 32 32 32
-0.0288080901918521 -0.023506149155075 -0.0312533731725117 -0.2085347 0.3875747 -0.8979416 162 162 162
-0.0337940167319982 -0.0246366200198429 -0.0302006876497155 -0.3133109 0.3643155 -0.8769895 60 60 60
-0.0349611156002782 -0.0235224836020885 -0.0289513148418518 -0.272121 0.3222742 -0.9066915 30 30 30
-0.0327258774758063 -0.0233543843360113 -0.0302300582567098 -0.3151887 0.3363428 -0.8874286 82 82 82
-0.0328783375214738 -0.0220396620999116 -0.0294095823190151 -0.3031587 0.3313532 -0.8934762 74 74 74
-0.0357636712746629 -0.021053248994377 -0.0275580288967572 -0.2240425 0.2617862 -0.9387614 45 45 45
4.39496613307208E-05 0.0277326731418652 -0.00134854367075762 -0.0349521 0.5805752 -0.8134561 66 66 66
-0.0317413358673438 -0.0206542943770935 -0.0289986800094539 -0.2395932 0.3564795 -0.9030601 181 181 181
-0.0297298821354356 -0.0221636310245205 -0.0307513989670526 -0.2138657 0.3966779 -0.8926971 226 226 226
-0.0339661292592286 -0.0201187010520814 -0.0287425941531319 -0.2544909 0.3049497 -0.9177364 131 131 131
-0.0326048456831471 -0.0197226400512094 -0.0285036523259037 -0.2330164 0.3344956 -0.9131353 176 176 176
-0.00556238794561596 -0.0242316892119737 -0.0349832089161662 -0.1338128 0.470736 -0.8720675 19 19 19
-0.0257227458050457 -0.025932248916998 -0.0323707461270828 -0.1849624 0.353511 -0.9169617 29 29 29
-0.0238282667188389 -0.0250272192436578 -0.0330630199583455 -0.1619051 0.3769552 -0.9119712 221 221 221
-0.0236767035616529 -0.0241318412533253 -0.0323291335792084 -0.156419 0.4342434 -0.8871109 204 204 204
-0.0276305283296958 -0.0227620386087113 -0.0308281322529343 -0.1725312 0.4144545 -0.8935661 217 217 217
-0.0247956139976666 -0.0224828715608034 -0.0313837092538742 -0.1349411 0.4523969 -0.8815486 104 104 104
-0.0277948187242264 -0.0220615482248414 -0.0305845285321548 -0.1638102 0.4088641 -0.897773 218 218 218
-0.0289536529319709 -0.0210472466070086 -0.0299261004272885 -0.1804489 0.4123795 -0.8929621 214 214 214
-0.0301594422988033 -0.0195447427760861 -0.0291314250412438 -0.1896073 0.4026743 -0.8954901 159 159 159
-0.0270152971812562 -0.0193664468626384 -0.0296610534922448 -0.1080531 0.4545285 -0.8841541 220 220 220
-0.0283502849278244 -0.017965163735548 -0.0285097304917107 -0.1197997 0.4796407 -0.8692484 120 120 120
-0.0292743019289804 -0.0162940863305181 -0.0279452049274927 -0.05732821 0.4888791 -0.8704658 62 62 62
-0.0275568076583009 -0.0185229305427397 -0.0289846802706539 -0.1145164 0.4696288 -0.8754055 232 232 232
-0.0318448987361747 -0.0175350997997507 -0.0277269773459928 -0.162166 0.3784846 -0.9112912 76 76 76
-0.0293632520450583 -0.0151191901135685 -0.0262922311132109 -0.02108936 0.5219504 -0.8527151 51 51 51
-0.026686638750156 -0.0159123905469026 -0.0272092625248571 -0.06438813 0.5552146 -0.8292111 129 129 129
-0.0251977671656146 -0.0150283093108217 -0.0268612620502129 -0.07977761 0.5649364 -0.8212688 216 216 216
-0.0280931190381647 -0.0145643120666581 -0.0266704709604422 -0.03452352 0.5303804 -0.8470565 85 85 85
-0.0142663462906047 -0.0294728445558887 -0.0361852632884062 -0.1383077 0.3393971 -0.9304196 78 78 78
-0.0130681821466885 -0.0292343073705207 -0.0362050832012385 -0.1406249 0.3296733 -0.9335632 81 81 81
-0.0140821862271603 -0.0277328206556297 -0.0358820327144763 -0.1459008 0.355078 -0.923381 131 131 131
-0.0299366266884698 -0.00694404016297467 -0.0218100803948407 -0.03220212 0.5250273 -0.850476 83 83 83
-0.0107437634468028 -0.0270573703471626 -0.0357100015173734 -0.1619204 0.3780627 -0.9115099 47 47 47
-0.00893145514017788 -0.0278873297107574 -0.0368903323705694 -0.1925057 0.3539446 -0.9152403 34 34 34
-0.00788985271363677 -0.0261675085889482 -0.0366613369795938 -0.1721945 0.447924 -0.877333 87 87 87
-0.0147659527446468 -0.0264551346060583 -0.0349989097492867 -0.1452657 0.3846933 -0.9115421 213 213 213
-0.0138829573753763 -0.0233714427691183 -0.0332977265538699 -0.1411876 0.4504534 -0.8815655 223 223 223
-0.0148052230625634 -0.0225649557867024 -0.0328903428076078 -0.1360692 0.4627329 -0.8759928 208 208 208
-0.0126993043870771 -0.0220451459325535 -0.0331232040180961 -0.1285779 0.492054 -0.8610172 221 221 221
-0.0175605244581296 -0.0219361684760379 -0.0323950401400581 -0.1334049 0.4657874 -0.874783 58 58 58
-0.0166522713218466 -0.0213293918012889 -0.0320767537026488 -0.1359325 0.4817896 -0.8656796 64 64 64
-0.0164891581094102 -0.0201929068104182 -0.0312696354012455 -0.1298149 0.4906719 -0.8616201 42 42 42
-0.00710876079816983 -0.0259838283227011 -0.0358957706786225 -0.1821972 0.4588523 -0.8696314 66 66 66
-0.00941892702273426 -0.0256715423813876 -0.0355349546596208 -0.1613904 0.4211852 -0.8924999 39 39 39
-0.0101473557984959 -0.0243389961574916 -0.0349479204071035 -0.1487966 0.4700088 -0.8700294 38 38 38
-0.0107978488502377 -0.0235135593271301 -0.0342485600009998 -0.1444506 0.4821942 -0.8640734 27 27 27
-0.00858208298328864 -0.0245525969984176 -0.0353795884783551 -0.1645264 0.466902 -0.8688691 46 46 46
-0.00934441584105059 -0.0224294445733574 -0.033710816590295 -0.151985 0.4848475 -0.8612918 32 32 32
-0.00472144747509904 -0.0258924913930217 -0.0365024401849514 -0.1127251 0.4126283 -0.9038976 48 48 48
-0.00566685286427058 -0.0245098926847915 -0.0356785492453884 -0.1321218 0.4700996 -0.8726684 43 43 43
-0.00314618547457777 -0.024750878931379 -0.0358013084982389 -0.06817676 0.4446527 -0.8931046 79 79 79
-0.00697919447755289 -0.0229945843058165 -0.0344505808637471 -0.1457044 0.4831411 -0.8633336 29 29 29
-0.00479380295408858 -0.021287066394743 -0.0342541183916852 -0.1522148 0.507188 -0.848287 43 43 43
-0.00622953631262994 -0.0197804616125591 -0.0327463836619593 -0.1664633 0.5431113 -0.8229946 48 48 48
-0.0100684041642184 -0.0206048766089041 -0.0321695161728976 -0.1233151 0.5383744 -0.8336344 182 182 182
-0.0119169888675872 -0.0188708046154861 -0.0316507335375646 -0.1148749 0.5315862 -0.8391781 233 233 233
-0.00836268185066406 -0.0206565503562376 -0.032635536586926 -0.1278869 0.5348108 -0.8352379 34 34 34
-0.00930626606000943 -0.0193360948800371 -0.0317909977176333 -0.1141733 0.537782 -0.8353173 193 193 193
-0.00770413937845158 -0.0176588623180152 -0.0305086895873594 -0.1225794 0.5713282 -0.8115161 224 224 224
-0.0101514311564248 -0.0160899276190717 -0.0300733943185141 -0.119618 0.5743867 -0.8097972 157 157 157
-0.010279786188541 -0.0159345959324682 -0.0291401181836777 -0.1109941 0.5728329 -0.8121223 24 24 24
-0.0208014482373736 -0.0209764363870681 -0.0311099507230923 -0.1398389 0.4725898 -0.8701172 39 39 39
-0.0190212270200208 -0.0200511998900085 -0.0308447149463916 -0.1323576 0.4839475 -0.8650297 39 39 39
-0.0197044948680849 -0.0186767396216636 -0.0302745088255877 -0.1180936 0.5092466 -0.8524798 32 32 32
-0.0181580164637775 -0.0203138276432466 -0.0320605613379326 -0.1422037 0.4860845 -0.8622644 24 24 24
-0.0168742320029783 -0.0194782413161447 -0.0310635252294246 -0.1286997 0.5089302 -0.8511325 32 32 32
-0.0175754220669025 -0.0186138831164627 -0.0298062392053065 -0.1097148 0.5332986 -0.838782 33 33 33
-0.0200876942910458 -0.0180166524934644 -0.0295104590585732 -0.1183813 0.5350408 -0.836491 35 35 35
-0.0182938195081466 -0.0177301138270238 -0.0302621188244072 -0.11191 0.5445802 -0.8312091 33 33 33
-0.0185536605851198 -0.0169441701704156 -0.0291269195145075 -0.108192 0.5731534 -0.8122744 30 30 30
-0.0156811366676369 -0.0174135654390573 -0.0296696179679974 -0.0889245 0.5830015 -0.8075901 36 36 36
-0.0193900671032215 -0.0159401420868471 -0.0285583013027114 -0.0896749 0.5879795 -0.8038896 35 35 35
-0.0168522481010466 -0.0153576444384688 -0.0280073880366001 -0.08096169 0.6137238 -0.7853587 32 32 32
-0.0194125657548306 -0.0153310743666031 -0.0276530774300036 -0.07614903 0.5919788 -0.802348 48 48 48
-0.0264464838036307 -0.0141007799091617 -0.0261247697315766 -0.02762653 0.5432011 -0.8391479 118 118 118
-0.0251460879751349 -0.0141053517824609 -0.0256457219953638 -0.04503459 0.5438905 -0.8379469 127 127 127
-0.0262525485779001 -0.0132262871353115 -0.0254203793458826 -0.02601385 0.5283118 -0.8486518 80 80 80
-0.0237033528505869 -0.0131784618660378 -0.0255610926126647 -0.05560651 0.5277942 -0.8475502 196 196 196
-0.0243037799370206 -0.0125859394148962 -0.0252808725039306 -0.03700235 0.5019075 -0.8641294 97 97 97
-0.0200212309588649 -0.0134321392806673 -0.0257413665241391 -0.08153532 0.5693482 -0.8180432 59 59 59
-0.022931680279868 -0.0108977084464046 -0.0244309271985902 -0.0519325 0.4690641 -0.8816359 91 91 91
-0.0226459721983227 -0.0104606982656408 -0.0242257134998452 -0.05603586 0.4681347 -0.8818786 72 72 72
-0.0156590455770652 -0.018553025566838 -0.0305802828236296 -0.1020776 0.541223 -0.8346603 56 56 56
-0.0144246336715782 -0.017751546639858 -0.0300757542713273 -0.09931858 0.5877538 -0.8029205 53 53 53
0.0288654940144619 0.0172755471069421 0.0337149999474531 0.2298972 0.8809525 0.4136061 41 41 41
-0.0153651886907554 -0.0145407480249267 -0.0278823994199736 -0.09344599 0.595112 -0.7981915 42 42 42
-0.0107004969149439 -0.013535455875672 -0.0279030355953376 -0.1204172 0.6012967 -0.7898999 26 26 26
-0.0129638401579912 -0.0139228849779006 -0.0270275085813375 -0.1473494 0.5933501 -0.7913431 26 26 26
-0.0104560960845105 -0.0131792579202527 -0.0271491072095725 -0.1310898 0.5880178 -0.7981544 41 41 41
-0.0119408829425741 -0.0115791242770349 -0.0259407868129386 -0.1316543 0.5637674 -0.8153732 25 25 25
-0.013877980158697 -0.0137782652389118 -0.0272557377567017 -0.1097437 0.5916842 -0.7986652 24 24 24
-0.0148943010146241 -0.0131940791409523 -0.0258959365567162 -0.1030796 0.5697008 -0.8153622 59 59 59
-0.0145294025041149 -0.011795869391359 -0.0256993430188052 -0.08921392 0.5578834 -0.8251103 41 41 41
-0.0143095333716536 -0.0110598414038502 -0.0250926788954907 -0.08173064 0.5312354 -0.8432728 39 39 39
-0.018461427504043 -0.0133648485600963 -0.0263428452372239 -0.07590797 0.5864614 -0.8064125 85 85 85
-0.0189756853110342 -0.0124791664788388 -0.0256353922081944 -0.06799534 0.5358953 -0.8415419 44 44 44
-0.0172870495207854 -0.0112220855112596 -0.025226737226798 -0.06013786 0.5139554 -0.8557063 41 41 41
-0.0188755977716597 -0.0104495797399458 -0.0251388360955811 -0.04064122 0.4925964 -0.8693084 19 19 19
-0.0175301519738368 -0.0108717782794652 -0.0244960405994836 -0.05965693 0.4936895 -0.8675897 39 39 39
-0.0457684121273806 -0.0217394717447181 -0.0260605852177797 -0.333242 0.3357452 -0.8810363 77 77 77
-0.0464671850143361 -0.0208688485742615 -0.0250110030085018 -0.3577002 0.3391276 -0.8700822 96 96 96
-0.0416203585606785 -0.0240254027278259 -0.0279429948960798 -0.2191586 0.3293746 -0.9184127 65 65 65
-0.0403832369635222 -0.0223520929758416 -0.027740058475217 -0.1887718 0.3052195 -0.9333843 75 75 75
-0.0423998930550726 -0.0206875348284347 -0.0262338826549117 -0.2890288 0.3079807 -0.9064272 67 67 67
-0.0438606392587813 -0.0202969368370317 -0.0260474260056118 -0.3291616 0.3313286 -0.8842364 50 50 50
-0.0398886956052013 -0.0215206648472882 -0.0271516509230706 -0.2081031 0.2745569 -0.938782 64 64 64
-0.0406481350830156 -0.0203421476549904 -0.0276352091550138 -0.2129267 0.3096885 -0.9266905 80 80 80
-0.0426178735284891 -0.0191293997091052 -0.0258139943390415 -0.3310057 0.3536094 -0.8748689 57 57 57
-0.040778218172153 -0.018270966171394 -0.0264946074228325 -0.2976557 0.3510353 -0.8877923 104 104 104
-0.0452901462692941 -0.0184952532801939 -0.024141468061343 -0.3758257 0.393223 -0.8391249 53 53 53
-0.0462640430741782 -0.0175258004883397 -0.0235851961187597 -0.3943706 0.3862963 -0.8338147 56 56 56
-0.0443506597565177 -0.0194522104892436 -0.0253772536004833 -0.3520586 0.3680135 -0.8605933 46 46 46
-0.0438961441819638 -0.0171722979511736 -0.0244517314434733 -0.3735514 0.3949213 -0.8393429 76 76 76
-0.0473889959725342 -0.0154778927800887 -0.0218641867494312 -0.3834439 0.3933078 -0.8356313 84 84 84
-0.045128001300302 -0.014978564395783 -0.0225303214244165 -0.3668853 0.3984866 -0.8405972 66 66 66
-0.0455746682149974 -0.013886818285064 -0.0221386608147646 -0.3639193 0.4161898 -0.8332759 53 53 53
-0.0456063619695933 -0.0112383318670052 -0.020605724475756 -0.3535185 0.4355996 -0.827815 55 55 55
-0.0305582188634317 -0.00344716148439295 -0.019784403075788 -0.07237194 0.5370079 -0.840467 198 198 198
-0.0374227741206092 -0.0209824210614191 -0.0280923192180451 -0.191027 0.2416018 -0.951387 115 115 115
-0.0374088464412972 -0.0204722654978517 -0.0271985287210843 -0.2030811 0.2524106 -0.9460692 57 57 57
-0.0354518746879602 -0.0195609804793843 -0.0283336853372837 -0.2031714 0.2762932 -0.9393527 210 210 210
-0.0393673698144644 -0.0186644656123123 -0.0264451934754039 -0.2249013 0.3222756 -0.9195422 101 101 101
-0.0383408729690176 -0.0180121562777523 -0.0269728350668135 -0.2176088 0.3106527 -0.925279 220 220 220
-0.0395659295351623 -0.0166600168078729 -0.0261506682499507 -0.2687293 0.3520409 -0.8965778 198 198 198
-0.0368908616414849 -0.0170113825240387 -0.0266486449651688 -0.191149 0.3270738 -0.9254646 204 204 204
-0.03776490501741 -0.015750521186271 -0.0264016991788728 -0.2178538 0.3925869 -0.8935409 226 226 226
-0.034808079235288 -0.0186223533628838 -0.0276270107047925 -0.2102404 0.2908372 -0.9333878 200 200 200
-0.0352294242524825 -0.0158879519598488 -0.0268780885868398 -0.1733137 0.3679087 -0.9135675 185 185 185
-0.0391523402145544 -0.0139812979229333 -0.0247665162489938 -0.2466948 0.458557 -0.8537372 188 188 188
-0.0419136817367789 -0.013046522595332 -0.0233929392729998 -0.3211287 0.4508579 -0.8328286 168 168 168
-0.0434824549957947 -0.0121957210400547 -0.0223518590155177 -0.3328848 0.4284675 -0.840002 65 65 65
-0.0434214609759554 -0.0111513787421557 -0.0214306503783152 -0.31764 0.4469443 -0.8362688 56 56 56
-0.0438908149037459 -0.010260901951181 -0.0210024006526621 -0.3264656 0.4466982 -0.8329952 56 56 56
-0.0418874716636617 -0.0111945590366418 -0.0223942515986267 -0.2976261 0.448787 -0.8426203 18 18 18
-0.0414750761555125 -0.00977153572447298 -0.021201816352467 -0.2621182 0.4979609 -0.8266371 64 64 64
-0.0367267617101919 -0.0125716718371297 -0.0252133305209372 -0.1840798 0.4935213 -0.8500302 120 120 120
-0.0396014133435878 -0.0119433786035417 -0.0239101446933028 -0.2725609 0.4682281 -0.8405195 189 189 189
-0.0384125664495529 -0.0110121749911207 -0.0232290215717201 -0.2190863 0.5029376 -0.836095 178 178 178
-0.0394690839917943 -0.00918262476515264 -0.0217689941069116 -0.2307081 0.4908091 -0.8401668 76 76 76
-0.0382982100233901 -0.00973011880132035 -0.0221419281020565 -0.2291182 0.507987 -0.8303337 96 96 96
-0.032908321254128 -0.0161044829395814 -0.0270825485519169 -0.1188285 0.4043964 -0.9068314 71 71 71
-0.0338439545123052 -0.0152080458946946 -0.0269112511491827 -0.1018053 0.4487121 -0.8878587 86 86 86
-0.0308575486486418 -0.0151252031714748 -0.0272722936764503 -0.06631579 0.4864627 -0.871181 49 49 49
-0.0309723330961224 -0.0145554505174856 -0.0264929573030266 -0.03924235 0.508155 -0.8603712 51 51 51
-0.0322453678797398 -0.01320228370812 -0.0257407204555508 -0.05346424 0.4839086 -0.8734838 51 51 51
-0.034937815427042 -0.0130283057586208 -0.0253860750463507 -0.1322572 0.4966168 -0.8578343 109 109 109
-0.0337989497783794 -0.0119261341479534 -0.0249649212833268 -0.1190825 0.486911 -0.8652959 129 129 129
-0.0319498171129547 -0.0124042991699915 -0.0247412436895361 -0.05517487 0.4866797 -0.8718363 72 72 72
-0.0339506261882181 -0.0123721800079513 -0.0247255902686755 -0.1283631 0.4878094 -0.863461 38 38 38
-0.0329168796471074 -0.0113065735172159 -0.0241084575146046 -0.1047795 0.4955345 -0.8622452 89 89 89
