ply
format ascii 1.0
comment File exported by Rhinoceros Version 7.0
element vertex 466
property float x
property float y
property float z
property float nx
property float ny
property float nz
property uchar red
property uchar green
property uchar blue
end_header
0.0285525098028421 0.00756229808318948 -0.0365477727017819 -0.01391009 0.7253292 -0.6882616 157 164 174
0.0200135387161575 0.0639421334898035 0.0279242603876354 0.1026689 0.9274314 0.3596249 172 174 185
0.0372591376908646 0.00194159995922566 -0.0403396387105198 0.7551828 0.4233901 -0.5004396 185 189 187
0.0364756252307945 0.000324141362879893 -0.000189642632006409 0.9872338 -0.03683786 0.1549595 131 135 131
0.0288594794187933 0.0632838324824145 0.0281158671589469 0.1240328 0.764362 0.6327452 173 176 181
-0.0309687389007403 -0.0121456355775898 -0.055199392124022 -0.01728747 0.7230775 -0.6905505 160 173 182
0.0422975180445038 0.0293309440418623 0.0436726485864754 0.9980878 -0.05910128 -0.01810233 170 173 165
-0.0126295786031436 -0.0130978324976167 -0.0568526474551946 0.006714595 0.6856577 -0.7278931 180 186 192
0.025920336554333 0.0427360716597928 0.000938936159296549 -0.0155339 0.7267046 -0.6867744 180 187 195
0.0415853951475142 0.0048676106026469 -0.0229478365458222 0.9270714 0.2321146 -0.2943831 202 199 203
0.0383858393666205 -0.0205290154159174 -0.0336107262261758 0.426679 -0.4080798 -0.8071034 155 160 156
-0.0389530774495457 -0.00836105399021597 -0.0504110285387339 -0.1657923 0.7232544 -0.6703849 173 178 186
0.0359998364418264 0.010625444739099 0.0111584931997805 0.9800833 -0.1485813 0.1317588 149 152 141
0.0384873393622662 0.0505456684936249 0.0122182091166674 0.9766487 0.123539 -0.1757709 179 179 183
0.0124955053931091 -0.0201423608309334 -0.0464248010021728 0.3609163 -0.5816663 -0.7289745 150 152 151
0.0432113548753614 -0.00908801080063365 -0.0188696793096922 0.9706237 0.05571977 0.2340619 181 177 180
-0.0259420035038991 0.0313896702707918 -0.00936053222982855 -0.03366344 0.7236408 -0.6893553 231 203 197
-0.00251198298615307 0.0314048549262416 0.0580165274680342 0.1546328 0.3160931 0.9360416 177 180 172
0.039234665837979 0.00416818735396379 -0.0270044647370818 0.9426745 0.2185887 -0.2521582 156 170 159
-0.0223886188027604 0.0437523326416277 0.059643078068178 0.05075749 0.5338364 0.844063 200 202 212
-0.00306688841223224 0.0395875782684565 -0.00148782509496259 -0.02206679 0.7306318 -0.6824151 252 209 202
0.037917085108039 0.00145171190514698 -0.0368970644039748 0.9724215 0.1117053 -0.2047396 168 172 172
-0.0334233605847656 0.0139074234253077 -0.0272940129321813 -0.05025013 0.7186158 -0.6935894 160 165 174
-0.03677356560405 0.0391398232892374 0.0395383141987964 -0.9626263 0.09057932 0.2552372 50 64 23
0.0094824068805055 0.0124836572031814 -0.0304662656551107 -0.01147372 0.7242419 -0.6894506 183 187 188
-0.026898023183942 0.00131000474233761 -0.0410292172831152 -0.02639631 0.7264928 -0.686667 169 179 186
-0.0219924087065726 0.0607119997476883 0.0214520869039964 -0.0216481 0.7321843 -0.6807625 183 190 201
0.0384110176974533 -0.0166037093964346 -0.0359986236670937 0.5333879 -0.2961385 -0.7923379 153 155 151
0.0391667957719362 -0.0247837553739909 -0.00335712489727638 0.9871593 -0.1289287 0.09430726 152 154 143
0.0374963459777256 0.0175503007958294 0.0144067252007811 0.9721902 -0.1931311 0.1324633 147 150 140
0.0235981028451846 0.0217531325841293 -0.0212812382288361 -0.01614401 0.7314412 -0.6817134 215 196 189
0.00850504905012972 0.0155866581021208 -0.0273499339129227 -0.01397575 0.7242915 -0.6893522 232 203 198
-0.0374074581812165 0.0435995952884496 0.0397649049109649 -0.9907348 -0.002786453 0.1357827 32 53 0
0.0370095206448733 -0.0121209783641805 0.00531513287592117 0.9584827 0.1387269 0.2491298 162 164 156
-0.0440026431413267 -0.0348603866695865 -0.0533374229390317 -0.9628237 0.09792426 -0.2517563 114 115 118
0.0396347054541542 -0.00184257002971128 -0.00786109044539018 0.9193023 0.1298054 0.3715291 176 178 177
0.0403778125834258 -0.0141083001901289 -0.033087661986599 0.8789299 0.1394993 -0.4560945 167 173 165
0.0150719872719565 0.062698972937081 0.022290812587334 -0.02615228 0.8316317 -0.5547115 180 184 194
-0.00161796784387125 -0.0121995688555896 -0.057499222844208 0.08723487 0.3580919 -0.9296022 178 183 187
0.0432429149282365 -0.011484588370339 -0.020906511042507 0.9922463 0.06987937 0.1027825 130 133 127
-0.0269323365041165 -0.0485171401083099 -0.0404312346654946 0.2977587 -0.6427758 -0.7058179 118 125 109
-0.0356719117890565 0.049858206925566 0.0243265767295333 -0.9955577 0.07825585 -0.05235308 133 142 135
-0.03494995117466 0.0121403632479015 -0.0297383817174525 -0.05063858 0.7237605 -0.6881908 187 189 194
0.0374202705455504 0.0380152838119006 0.00309941534397176 0.996528 0.06978081 0.04541617 125 131 123
0.0379873833262669 0.0355308496249614 0.00191333875384425 0.9944095 0.06220276 0.08532641 162 165 165
0.0163434141658492 0.031286500253228 0.0539293231637582 0.3017659 0.6447805 0.7022788 178 177 180
0.0350826561087443 0.00566107151633338 0.0234254364991096 0.9964066 -0.08279346 0.01786211 142 148 132
-0.0341979259460627 0.0466732126638586 0.0533954385338058 -0.8238298 0.2639884 0.5016119 122 128 113
-0.0148339743012915 -0.0318384289721447 -0.0516229184073294 0.3379255 -0.5921001 -0.7315899 145 160 156
-0.00439297685916795 -0.00244515879954393 -0.0461616564146314 -0.02995645 0.7218502 -0.6914008 191 195 203
0.0196352330306189 -0.0339105920643757 -0.0316283445952861 0.4503529 -0.5575198 -0.6973908 160 160 162
0.00946144155272055 0.0480765300149376 0.0436533218633018 -0.04678181 0.702033 0.7106062 179 181 186
0.0368545392653798 0.0156458861615593 -0.027814430873333 0.1692574 0.6846538 -0.7089436 152 158 172
-0.00469355536918048 -0.0428610890995395 -0.0374208439694348 0.2703733 -0.6180747 -0.7381612 152 158 152
-0.0149211428496896 0.0597289572647134 0.0351101739043795 0.3051166 0.6203088 0.7225793 177 176 184
0.0414487208277832 -0.0120841912736798 -0.0137523557645127 0.9629481 0.1029625 0.2492582 183 177 181
0.0365713627515571 0.0115292582241829 0.0079601655078885 0.9686861 -0.125981 0.2139534 139 153 128
-0.0412211861173368 0.0182924963648872 0.0294041966341848 -0.9409563 0.3362505 0.03920305 42 57 0
-0.0195455277198935 -0.00723356320753649 -0.0506300653171806 -0.006258291 0.7296399 -0.6838029 177 184 188
0.00831774367322868 0.0191564491940047 -0.0230285015078387 -0.007322675 0.7204813 -0.6934357 206 187 183
-0.0254371253404369 0.0633358780781336 0.0348623768545801 0.3673169 0.7217652 0.5866288 171 173 178
-0.0326726481270301 0.0293969442331384 0.0563865764943213 -0.9366726 0.06600896 0.3439292 102 118 119
0.0401723879682647 -0.0121387594864266 -0.0341522175419884 0.9240226 0.1006296 -0.3688577 153 169 162
0.0352750615148798 -0.00108489387309058 0.00987484075015102 0.9935161 -0.08141151 0.07935893 146 152 143
-0.0416630460926566 0.0055505817703802 0.0108840331615295 -0.9794774 0.03756617 -0.1980222 36 68 0
0.0408302945542927 0.0125904066535854 -0.0194929739600365 0.9983732 0.05150875 0.02445082 138 138 138
0.0269048471300879 0.0471053943797576 0.0390183449579262 0.2948895 0.4774388 0.8277031 187 187 188
-0.0375246958885036 0.0451747310056607 0.0250407626312157 -0.9952323 0.09473275 -0.02320397 53 64 55
-0.0139691002711348 0.0436572219052428 0.00284418550180449 -0.03954045 0.7346619 -0.6772801 253 221 203
-0.0246369617529405 0.0300604949617155 -0.0109718266284895 -0.02425964 0.7178062 -0.6958203 200 203 214
-0.00135336023984056 -0.0413552209968236 -0.0371366903178454 0.3975155 -0.5912949 -0.7016779 165 170 168
0.0389087666042203 -0.00795065883851392 -0.00589520130569021 0.9574034 0.112998 0.2657259 127 126 118
0.0383659564719503 0.0144276255441475 -0.00316258639965231 0.9990118 -0.02736897 -0.03502085 141 146 142
0.0189604637962608 0.016549236274209 -0.0265032737577704 -0.01789835 0.7211041 -0.6925955 177 180 189
0.0429333818982292 -0.00114220046952257 -0.022542165159799 0.9560873 0.1224379 -0.2662819 164 169 168
0.0201628486925047 0.00877391639534614 -0.0348082717624829 -0.02154298 0.7253946 -0.6879961 189 192 198
-0.0292701042946168 0.0578782405621631 0.0437680965407606 -0.1017682 0.8130825 0.5731841 184 186 192
-0.0356215933576216 0.0544916367964096 0.0201598933148512 -0.9260034 0.3687055 -0.08107994 129 135 133
0.0408976414949427 0.027917881798764 0.0474724038484441 0.9053585 0.2321574 0.3555685 168 170 153
0.0391902324138842 0.0183299582702024 0.043247157799659 0.9672012 -0.120879 -0.2234055 152 153 151
-0.0235287865397362 0.0597391061541475 0.0378686494125772 0.3856748 0.6811077 0.6223723 176 181 184
-0.041156623871955 -0.0238443122965774 -0.0119068971108971 -0.9698139 0.2326569 -0.07301932 127 137 129
0.0120627071760238 0.00775781129002723 -0.0355048383868428 -0.02995987 0.72855 -0.6843371 175 181 186
-0.00555385107184048 0.0493745762128276 0.0385452909605212 0.2320627 0.8601128 0.4542608 190 188 192
-0.0437095328522554 -0.035658013121017 -0.0456044654423514 -0.9789502 0.2031691 0.0194622 105 108 97
-0.0351648585593187 0.0524611488109313 0.0350708688022509 -0.9958585 0.0807475 0.04178218 58 73 0
-0.041515468971121 0.000816450497183763 0.0130391518090996 -0.9898141 0.09107591 -0.109422 45 60 23
-0.0411989010938356 -0.0204658797370404 0.00165122018337996 -0.9894079 0.08428624 -0.1181856 103 113 109
0.0103772749931466 -0.0422427011269594 -0.0282028736674444 0.3596851 -0.5364283 -0.76346 152 155 148
0.00131541384060885 0.0111559679939082 -0.0318914422020577 0.001438585 0.7096609 -0.7045419 246 207 195
0.0352175397189365 0.00962379273465025 0.0136782762630248 0.9933314 -0.1025864 0.05261847 150 158 136
0.0186469161095735 -0.0413701971859423 -0.0259924530231142 0.3043104 -0.6280434 -0.7162099 147 149 136
-0.0219872224390691 0.04758574636081 0.00679512146299813 -0.02922569 0.7259036 -0.6871753 188 199 201
0.0383104236362728 0.0540528773749722 0.0125911655639739 0.6254637 0.605496 -0.4921075 207 202 208
-0.0290218192326952 0.0569041542424769 0.0179813862126279 -0.02866787 0.7223527 -0.6909304 129 146 141
-0.038475896996915 0.0326586211526438 0.0338149021773355 -0.9871032 0.1599102 0.007477343 129 136 136
0.0128481012912101 -0.0110369938929041 -0.053434184624072 0.2413415 0.04093507 -0.9695765 138 149 150
-0.00931612992911646 0.00205771985788178 -0.0411129401919227 -0.03571981 0.7272077 -0.6854874 181 187 191
-0.0269783829852139 0.0227614085235138 -0.0189123287386071 -0.009774875 0.7253947 -0.6882638 182 184 196
-0.0410360524500133 0.0163350163719357 0.0120121849178104 -0.9645032 0.234303 -0.1218017 116 126 119
-0.0401422094867447 -0.0084190145219814 -0.0328571010743494 -0.9986419 -0.0005195469 0.05209709 135 144 148
-0.0415247435329231 0.0060731959113845 0.0331293711138306 -0.9911779 -0.09170538 0.09569029 58 58 28
-0.00045356203896052 -0.0118797610010603 -0.0561738293393418 0.07419312 0.4954352 -0.8654706 183 187 195
-0.00896032205078612 -0.0274708218113718 -0.0512940060079932 0.3222737 -0.5405068 -0.7771692 154 153 152
0.018260166185029 0.0069936243645124 -0.036391692739123 -0.02363462 0.7273703 -0.6858381 178 183 188
-0.0226952843682069 -0.0260061522028459 -0.0578357185118274 0.2638844 -0.4594668 -0.8480892 133 140 136
0.0370310943270162 0.0398823473204391 0.0114619849806179 0.9991399 -0.01695538 0.03784129 147 150 139
0.037286980581599 0.0298214904928928 0.0477045933494103 0.2955459 0.6853088 0.6655858 178 180 183
0.0412686718230022 0.00424946406327481 -0.0193182282925329 0.9827737 0.1838697 -0.01865004 131 136 135
-0.0137216099112942 0.0425153275410856 0.00167311806607373 -0.03541556 0.7338719 -0.6783641 251 212 189
0.0370559896264799 0.0187955136312025 0.0210290642425245 0.9776847 -0.2100454 0.003672464 135 136 128
-0.0401715851301718 -0.0204469983277357 -0.0315534867649967 -0.9961582 0.06824398 0.05487695 104 116 106
0.0255518896172182 0.0107019289658775 -0.0328508041438599 -0.03112484 0.7225175 -0.6906516 186 190 195
0.0346429592641977 -0.0126812899148964 -0.0397926707049579 0.4598091 -0.5085637 -0.7279688 155 162 155
0.0362914098679399 0.000840861465221054 0.00772438505401796 0.9889923 -0.1149463 0.09317552 155 161 153
0.0417578140819757 -0.0272910043616129 -0.0210648853650336 0.945401 -0.2909086 0.1469326 132 134 121
-0.00830350097817423 0.046736946102324 0.00613667179532976 -0.01361452 0.7247496 -0.6888778 236 202 194
-0.0104446249422878 0.0587490403905335 0.032951712868951 0.5024894 0.5372236 0.6774181 171 175 176
-0.0446079454538788 -0.03862901308406 -0.0474277145476671 -0.9766576 0.214444 0.01239564 95 105 92
0.0140519455454458 0.0307646120303106 -0.0112863529350006 -0.01522319 0.7161018 -0.6978298 190 190 207
0.0410195483699569 0.0363174580128897 0.0381855594679223 0.9959038 0.04245305 0.07983256 200 203 200
-0.0253379287076134 -0.00907467189502803 -0.0525884699240913 -0.02481579 0.7271972 -0.6859798 192 198 208
-0.00223126306648425 0.0442843143071866 0.0033728771040393 -0.03510496 0.7301173 -0.6824195 200 203 211
-0.0376938876319732 0.0332165802468977 0.0391013697262301 -0.9565411 0.1716387 0.2357314 117 127 124
-0.0425053352411293 -0.0222509333090189 -0.0492241556602604 -0.9935218 0.1129143 0.01283419 107 121 116
-0.0284873315567316 -0.00375356297609158 -0.046364080693732 -0.0157317 0.7308241 -0.6823845 181 187 194
0.0438204134068769 -0.0148806005934521 -0.026122328172732 0.947616 0.100643 -0.3031417 151 161 154
-0.0151367138301994 0.0262293083082661 -0.0148160967265375 -0.01842932 0.7281287 -0.6851927 168 172 172
0.0417091153810363 0.0315374797639025 0.0440910858828401 0.9238801 0.2839148 0.2565892 195 201 197
0.00151242794003004 0.0399821450498734 0.0538191857071839 0.2672966 0.4103439 0.8718776 168 170 170
0.0396071084008378 0.0305396759048722 -0.00944438449346238 0.9316511 0.336326 -0.1375179 159 163 162
0.0221276952142127 -0.000800547584437761 -0.0450853054454894 -0.03626975 0.7256224 -0.6871366 179 183 188
0.00318036906307473 -0.000915089510649836 -0.0444436781755286 -0.03067923 0.721561 -0.6916708 160 170 177
-0.042132303884868 -0.0201675750690257 -0.04510350964776 -0.9919213 0.1030256 0.07401214 102 112 96
0.0350157761214964 0.00402193917866317 0.0205870832685809 0.9982753 -0.03354176 0.04818133 152 154 145
-0.0358648464582263 0.0483176475661078 0.0449627259573575 -0.9855459 0.06478091 0.1565331 134 140 135
-0.0201654376130653 0.0204425246363599 -0.021390043602291 -0.01724636 0.7184932 -0.6953201 160 170 181
-0.0428955553830441 -0.0477776894606227 -0.0467861498553265 -0.1115681 -0.6685816 -0.7352219 118 111 103
0.041100261389551 -0.0143077058823013 -0.0134713142791136 0.9672219 0.1322184 0.2167949 142 143 137
-0.0391837187680082 -0.0445280310872144 -0.0494404006568457 0.1929997 -0.7179779 -0.6687742 118 120 104
0.039696831172118 -0.0285867640957996 -0.0115625870303617 0.958837 -0.2655761 0.1005035 124 139 111
-0.0307701311368085 0.0648673683469537 0.0379809653765597 0.1877412 0.7607917 0.6212482 167 170 175
-0.0329727413194645 0.000826320991902552 -0.0413877419825933 -0.02832576 0.7255765 -0.6875584 153 164 177
-0.0407512236313927 -0.0225923404514208 -0.00968799775338383 -0.9806464 0.186449 -0.05974424 128 144 151
0.0315976820386972 0.0408053852912968 -0.00173142521380795 -0.02947106 0.730455 -0.6823246 180 179 183
0.00682002722274078 -0.0396395109124977 -0.0318893491794194 0.4272006 -0.6366167 -0.6420428 151 150 134
-0.0417471317607641 0.00139117096179969 0.010186313643076 -0.9769472 0.09448726 -0.1914321 115 119 123
0.0101951661734327 0.0476497670100909 0.0434949053003847 0.03205321 0.6885119 0.7245164 169 171 173
0.00548133909622006 -0.00129115207369274 -0.045118586796154 -0.02694545 0.7252181 -0.6879917 176 181 189
-0.0417863677980135 -0.000699091697651089 0.00979362612206067 -0.9763746 0.1166207 -0.1819126 114 127 127
-0.0473925139638141 -0.0514299587556005 -0.0295978079520156 -0.9974475 0.0605491 0.03784563 96 115 112
0.0366405579138229 0.0157218338653171 0.0162272984898457 0.9785466 -0.1805144 0.09930298 150 148 135
-0.0372051295593208 0.0325683168174466 0.0162273407354697 -0.9974529 0.01730959 -0.06919546 69 87 53
0.0223592370248218 -0.043722841877491 -0.0226700525616759 0.3250307 -0.5894378 -0.7395392 162 170 139
-0.0374182930449498 0.0197842678677198 -0.00751605903412997 -0.9918356 0.03799718 -0.1217307 100 110 95
0.0407869210515033 0.0141020350405789 -0.0251572117543696 0.9428127 0.0942248 -0.3197279 180 182 184
-0.0140364444498378 0.019647511721291 -0.0222212587725637 -0.05387095 0.7294639 -0.6818946 251 204 188
-0.0367846451527329 0.0414834216245735 0.0207627415758056 -0.9989477 0.04474327 -0.01007995 118 127 111
-0.00576365927544042 -0.00588941836214468 -0.0493440372370807 -0.02546822 0.7289709 -0.6840707 189 193 199
-0.0426575633232185 -0.0287272237899119 -0.0392201320921768 -0.9733454 0.2173495 0.07319757 97 102 101
0.0325157790274266 -0.0375932936748097 -0.0231702925902279 0.2199594 -0.6062784 -0.764228 159 158 154
0.0147053842032951 -0.0422915944785294 -0.0264550736959113 0.2654004 -0.5950117 -0.7586328 135 140 134
0.0382617477347944 -0.0362664150269956 -0.019116295919493 0.8704645 -0.4859398 -0.07844777 145 150 132
-0.0247283637872808 0.0603733491310738 0.0212753084094623 -0.01558437 0.7264788 -0.6870121 163 170 181
-0.0422117533322783 0.00894722356278838 0.0141836610858936 -0.9931921 -0.0007523283 -0.1164858 115 119 103
-0.0414321918235361 -0.0263743172270038 -0.0367774849499614 -0.9719334 0.2147693 0.0960191 111 120 119
-0.0193075956517381 0.054976315280712 0.0152747469190661 -0.004288642 0.7281348 -0.6854206 188 191 199
0.0252159915731864 -0.0245229718226501 -0.0348868636093643 0.3627609 -0.605185 -0.7086294 140 147 132
-0.0178537915678669 0.00638036506929646 -0.0360121865338466 -0.02588336 0.7288334 -0.6842017 153 165 176
-0.0338060533668862 0.0596890766733036 0.0263579339726999 -0.8024755 0.5471656 -0.2379978 153 155 152
-0.0312795563317012 -0.0385183632795027 -0.0523943745096681 0.3375632 -0.6203318 -0.7079828 143 153 151
0.040438526024376 0.0200117278717758 -0.0182609053192273 0.9843868 0.1097069 -0.137648 144 149 146
0.0291068827586969 0.0571198335917932 0.0160236588129415 -0.02108933 0.730906 -0.6821522 196 198 206
0.0382032585345806 -0.00405451636513882 -0.00360086549747343 0.9410467 0.1407393 0.3076095 176 181 178
-0.0258183455513104 -0.0396764631739838 -0.0493990859156483 0.346564 -0.6317245 -0.6934101 128 148 145
0.00162758281800901 0.00913407238737168 -0.034328099154167 -0.01482023 0.722041 -0.6916915 238 205 201
-0.0419081239742622 -0.0231922335598715 -0.0421450651378176 -0.9844056 0.1187529 0.1297815 106 109 101
0.00998936538573236 -0.00398445546322884 -0.0480182009278179 -0.02680732 0.7216974 -0.6916893 188 192 196
-0.00734676014658664 -0.0111460156928146 -0.0547107909549836 0.001937712 0.7172882 -0.6967739 185 190 194
-0.0018456153515638 0.0502608076303337 0.00987085096816984 -0.0253035 0.7252609 -0.688009 196 196 212
0.0387771792497373 0.0228046984295747 0.00145343388433339 0.9902879 0.1141819 -0.07932483 203 203 206
-0.00620280351153468 0.0338059046070222 -0.00732993770755033 -0.03613734 0.7234643 -0.6894154 191 193 200
0.0174661827040632 0.0484627397364642 0.00705943354453584 -0.01211233 0.7202738 -0.6935841 187 190 201
0.0329712554779222 -0.0334818324813869 -0.0263572398808049 0.2381565 -0.5888772 -0.7723374 154 155 151
-0.0220947988486815 -0.033758500462346 -0.0525650519013719 0.3203194 -0.596538 -0.7358926 154 167 163
0.0393943948210422 -0.0330132826763591 -0.0198624861255567 0.9107485 -0.411527 0.03439097 168 169 153
0.017102736151215 -0.000501639053486269 -0.0445412401484308 -0.01177449 0.7310544 -0.6822176 166 174 183
0.0252041781729604 -0.036548433302063 -0.0269323353740222 0.335472 -0.5834178 -0.7396501 165 165 160
-0.0157151801804813 0.0527556906432706 0.0127018368774057 -0.02786405 0.7374543 -0.674822 194 196 206
-0.0348429397523446 0.051817577531024 0.0458222243556614 -0.8924482 0.350396 0.284181 129 141 132
-0.0155708302710771 0.0305408580842165 -0.0108731389491587 -0.009845288 0.731675 -0.6815825 198 200 208
-0.0151704376204274 0.0511702792038256 0.0110572964295643 -0.03682536 0.7329457 -0.6792897 188 194 201
-0.0141933464784278 -0.0349368305815786 -0.047056529420703 0.3951278 -0.7110888 -0.5815726 129 135 131
0.0386960604547086 0.0255412893493663 0.0200794007836667 0.985866 -0.1659202 -0.02321039 144 144 138
-0.0388701914475176 0.00283108746987676 -0.0117749275228539 -0.9892523 0.1455411 0.01405928 128 137 136
0.0298013541768096 0.0383459621788227 -0.00385088928074415 -0.0273251 0.7141773 -0.6994312 186 189 192
0.038059822228683 0.0489837789386784 0.0326213525369271 0.9434703 0.1681712 0.2856261 176 176 173
-0.0260719523314075 -0.00943258534130004 -0.0523806660223389 -0.03647292 0.7277054 -0.6849194 175 181 186
0.0345512932521919 -0.00539156157778348 -0.0464732144170258 0.5462002 -0.2434753 -0.8014893 166 171 173
-0.0400131216537467 -0.00124672845040547 -0.0161429798146224 -0.9948459 0.1001717 -0.01572754 115 140 137
0.00655851132853247 0.01218953395816 -0.0314314391671633 -0.04055376 0.7196804 -0.6931201 218 198 192
-0.0244339357053409 0.0348312944211677 -0.0059637722111647 -0.0322491 0.7166234 -0.6967144 251 210 194
0.0151483216907495 0.0146137977132589 -0.0283013701118552 0.002104599 0.7307191 -0.682675 187 192 195
-0.0309854223837283 0.0487895007864696 0.00919971994869326 -0.0198064 0.7268459 -0.6865149 165 175 180
-0.0216602154250127 -0.00836496934201275 -0.051736270333563 -0.02811401 0.7329222 -0.6797313 186 190 196
0.0171130829471684 0.00309855526845432 -0.0407388908938533 -0.01227795 0.7182335 -0.6956939 177 186 191
-0.0349553956289617 0.000599292627367298 -0.0414588693620112 -0.00873792 0.7249204 -0.6887773 160 166 178
-0.0381537630305475 0.0139514215583496 -0.00290478779515926 -0.9833383 0.01607616 -0.1810729 91 106 78
0.0245977703082678 0.0601584415610779 0.0315436060594226 0.1874781 0.6567675 0.7304166 183 187 191
-0.0376985277570183 -0.0312949821599947 -0.0591488803354527 0.1073815 -0.3857727 -0.9163234 145 147 147
-0.00737755337243318 -0.00968010596764962 -0.0535762662851542 -0.003317389 0.7276112 -0.6859818 186 191 199
0.0386091461891498 -0.0338559586563185 -0.0179211630715834 0.942674 -0.3219566 0.08780447 162 161 157
-0.0449572130671294 -0.0421292696864592 -0.0509107536277658 -0.8504544 -0.2824894 -0.4437645 107 116 105
0.0435351559255848 -0.0115471286103564 -0.0188900901769575 0.9573089 0.03576218 0.2868462 130 138 122
-0.00640033307909516 0.0082297431312392 -0.0345593708677948 -0.01556806 0.7174624 -0.6964232 212 189 184
0.0410250794720435 0.00528821932829243 -0.0152080186215275 0.9496732 0.1275371 0.2861032 153 154 151
-0.0139794505595434 0.0322203463023658 -0.00883188569889523 -0.01192752 0.7181174 -0.6958197 185 186 198
0.0292798876073315 0.0618192948277386 0.0286533024965047 0.1505214 0.6825943 0.7151282 179 178 181
0.0390315330057591 -0.0103480894061783 -0.00232458753186945 0.9632263 0.1444993 0.2265283 141 146 129
-0.0404292652077656 -0.0258545462742013 -0.0207056433928683 -0.9582813 0.2726923 -0.08564947 116 129 129
-0.0223966013992705 0.0522620136294377 0.0514480952697974 0.08806599 0.7349078 0.6724247 172 170 178
0.0401319081280702 0.0197336594394414 -0.0140981307462264 0.9810029 -0.06890998 0.1813414 155 158 154
-0.0332690372057094 0.0103484795519966 -0.0309935630297185 -0.04550958 0.7299941 -0.6819366 177 179 187
0.0136788942722417 0.0638513349680337 0.0235458548341228 0.03811945 0.8898897 -0.4545803 154 175 183
0.0381178654629082 0.0162758534212346 0.03657526611786 0.9782059 -0.08386644 -0.1899462 181 181 180
0.03609207542645 0.0142464141540784 0.0296474556346011 0.9848732 -0.1177759 -0.127097 121 126 112
0.0390929924073165 0.0332967975951381 0.0242391056326115 0.9561731 0.180303 -0.230703 169 172 169
0.0347491320206723 -0.000985624310736621 0.0172101155821225 0.9994221 0.03296549 0.008294736 155 159 158
-0.0218741123532622 0.030091686966089 -0.0111273830161724 -0.03436171 0.7202039 -0.692911 174 180 187
-0.031051966888044 0.0247754960005787 -0.0157239828242166 -0.02353321 0.7335283 -0.6792514 160 167 171
0.00144779448287125 0.0231753245501973 -0.0192352753513804 -0.0177431 0.7274674 -0.6859127 192 195 189
-0.0230524469476601 0.0547237820396311 0.014840196491568 -0.02099504 0.7258812 -0.6874996 179 183 194
-0.0397897388634201 -0.0070027689586219 -0.0305042090669835 -0.9992331 0.03157663 0.02315251 91 100 86
-9.49685834870095E-05 0.0344720277789637 -0.00706107905720954 -0.008116451 0.7189115 -0.6950542 197 201 208
0.0373892657126982 0.00375549089047772 -0.00387609204011108 0.9901093 -0.07625241 0.1177671 144 146 133
0.032369280409303 0.0353458537035213 -0.00676386100296855 -0.03025772 0.7245366 -0.6885718 146 150 162
0.0411312575139489 -0.0173859231878572 -0.00821871649284509 0.9782938 -0.0108549 0.2069379 123 127 115
-0.0406437523492835 0.0128768012789139 0.00612939697524054 -0.9761178 0.01753943 -0.2165325 53 62 16
-0.020103218005743 0.0308071573902451 -0.0100234459370094 -0.02426474 0.7278565 -0.6853 166 173 183
0.00264266807566482 -0.0457224524996986 -0.0304809745756154 0.448547 -0.5797595 -0.6802092 146 153 140
0.0135781587066619 0.0421511644915789 0.0479796399459401 0.3557428 0.536486 0.7652646 180 183 182
0.0245451155479399 0.051020981639525 0.0383070839452953 0.3249646 0.4773121 0.8164381 173 175 178
-0.0376591135444722 0.0294855471061248 -0.00405250852205713 -0.9487087 0.2838532 -0.1392095 134 135 135
-0.0462049511918226 -0.0387858665549473 -0.0143309941859131 -0.9705696 0.2403747 0.01465169 96 107 100
0.0231150808202569 -0.0310497949295004 -0.0315640948160826 0.4080137 -0.510065 -0.7572044 154 161 155
-0.0345803742909476 0.0439828827390653 0.0508355354882684 -0.9575313 0.07800597 0.2775767 134 144 129
0.020675638342408 -0.0217134098082888 -0.0399570039329552 0.4573861 -0.5905327 -0.6648828 141 150 143
-0.0300763705229583 -0.0174341638560758 -0.0611250820770776 0.01837997 0.6343927 -0.7727924 171 178 184
0.0249283368820894 -0.0311199761029791 -0.0310704537361567 0.3098615 -0.4871907 -0.8164748 158 166 157
0.0363933607401288 -0.00209841015721718 0.00177288124517241 0.9820114 0.01376073 0.1883198 167 172 167
-0.0377842260781192 0.02269461346857 0.0134211374194403 -0.9314312 0.3638525 0.006876159 122 134 125
-0.0358731200231226 0.0470858110210538 0.0202151197931249 -0.9979339 0.06068782 -0.02109278 50 58 39
0.0169823605510118 -0.0133729926067217 -0.0502042105427097 0.3883211 -0.5030427 -0.7721106 149 155 157
0.0400429091254937 0.039449091448198 0.0338383682917318 0.9487695 0.2159171 -0.2306864 166 173 168
-0.0405220427059945 -0.0238952578931211 -0.0641396949266318 -0.317494 -0.1810918 -0.9308079 101 109 86
0.0406381668608331 0.0241092899493823 0.0496304358869749 0.8826502 -0.006086755 0.4699911 153 156 142
-0.0298587064790388 -0.020490310514554 -0.0635189213008364 0.1843384 0.0895547 -0.9787744 145 152 154
-0.0367692573552718 0.0367213088518877 0.0220412112675193 -0.9958148 0.08632337 -0.03001854 45 64 28
-0.0137894015556466 0.0456573737432073 0.0569301133066532 0.1856548 0.6376299 0.7476366 217 218 226
0.029977603273859 -0.00871291052139617 -0.0459597807751734 0.4545797 -0.5601003 -0.6925641 164 160 161
0.0386104705723227 0.0351188090531346 0.0249790140054229 0.9460121 0.2274804 -0.2308979 169 177 175
-0.0145375531821168 0.0242867894717633 -0.0171248653714412 -0.01236821 0.728298 -0.685149 157 163 169
0.026115229899669 0.0519773153289503 0.0107069337488262 -0.02407187 0.7216209 -0.6918699 164 172 176
-0.0293144489944384 0.0106504805202836 -0.03161447589733 -0.01603529 0.7351654 -0.6776981 165 173 178
-0.00397829108960934 0.0310892688707107 -0.0103625014884383 -0.01873077 0.7298838 -0.6833146 168 175 184
-0.0387947245506721 0.0226992987335268 0.00873891614073011 -0.9451341 0.3266817 0.0007919575 130 134 136
-0.0440983214493249 -0.0360905899343633 -0.0496396326909046 -0.9833942 0.179253 0.0283588 121 131 122
-0.0194601360512197 0.0511007695718102 0.0112024296374338 -0.0245014 0.7331135 -0.6796649 200 205 212
0.0371375638528226 0.0110315849659415 0.0325635595161247 0.9773291 -0.08531454 -0.193776 178 179 179
-0.0299180751348702 0.042111096799659 0.00177023616641378 -0.01891691 0.72216 -0.6914673 206 207 220
-0.04017445343794 -0.0105771493987842 -0.0244257542721981 -0.999632 -0.02612667 -0.007297473 114 126 114
-0.0294164355255768 0.00221709597794634 -0.0399141071595569 -0.03077206 0.7280627 -0.6848196 171 181 189
0.0075879119685851 0.012237946307906 -0.030649771000435 -0.03820866 0.7290671 -0.6833749 200 193 182
-0.0159693293807885 -0.0515318680557557 -0.0341022945362195 0.270043 -0.5948868 -0.7570908 125 135 124
-0.0292012489478832 0.0378099578707498 -0.00246007998330944 -0.03613014 0.7223715 -0.6905606 190 194 205
-0.0106745050584811 -0.00158480091858321 -0.0451087339278825 -0.01336261 0.7369895 -0.6757721 190 195 204
-0.0236345439241221 0.0147541782917137 -0.0274012054420228 -0.03608662 0.7183811 -0.6947132 161 169 181
-0.0143536821521471 0.0660097496736112 0.0289777507154002 0.2436444 0.9161272 0.3183526 164 162 178
0.0386961715839957 0.0343639160263108 0.0429420940808567 0.4606492 0.6511196 0.6031961 174 177 179
0.0419320803512493 0.00170992238219908 -0.0233757466285533 0.941672 0.2344534 -0.2414239 181 186 188
-0.0388558403366526 0.0254065529967492 0.0367018251333045 -0.9840893 0.1558805 0.08526216 111 126 115
-0.0131559274633544 0.00447976399965683 -0.0383384151867392 -0.007328418 0.721752 -0.692113 167 173 184
-0.0425864144585342 0.0138849433138522 0.0237454610732238 -0.9868689 0.1567596 -0.03893974 108 112 91
0.0405309403861507 0.0170360333322793 -0.0253912489953122 0.8051644 0.3842745 -0.4517116 201 202 199
-0.015337700363264 -0.0495670768121814 -0.035187709760776 0.269275 -0.5852988 -0.7647982 141 145 144
0.0374884317029407 0.0552690449913948 0.0191546726114001 0.9956096 0.0338956 -0.08724992 124 135 115
-0.0293249269102676 0.066790462435093 0.0318733361115505 -0.003608891 0.9834763 0.1810007 214 215 224
-0.0353837079369201 0.0464112377705153 0.0473885917441844 -0.9849838 -0.009659786 0.1723764 57 68 27
-0.0140890844533272 0.0490565595320615 0.0535043038305379 0.1976147 0.7808739 0.5926082 160 169 172
-0.0176099945260777 -0.00755780797183653 -0.0509778970355052 -0.01510108 0.7279189 -0.6854969 192 197 204
0.0315646517694033 0.0370192706998703 -0.00532748166448554 -0.0314302 0.7242727 -0.6887969 179 184 186
-0.00107812759100945 0.0396401437330631 -0.00168497011947097 -0.01569974 0.7216148 -0.6921168 253 210 193
0.0418369809729162 -0.00309442938145882 -0.0157260246467239 0.9707488 0.0407562 0.2366128 144 153 148
-0.0253393848770083 0.0650055042289442 0.0327424008401949 0.2522431 0.8161184 0.519927 188 189 196
0.0259529712159532 0.03057528683222 0.0514164806817133 0.2489087 0.6833041 0.6863964 185 185 184
0.0374016773044481 -0.00158971321893125 -0.0447246472664442 0.8428092 0.2578424 -0.4724298 170 186 176
-0.0341271309474864 0.0418349666993802 0.0440078533730081 -0.9840261 -0.05229098 0.1701713 48 71 28
-0.00343871781698812 0.0565119143352725 0.0163462121577495 -0.01738182 0.7262583 -0.6872021 255 214 205
0.0215727254089453 -0.0272506283199394 -0.0355597907252511 0.5382857 -0.5293766 -0.6557507 147 160 145
0.0362678920224804 0.00571432760416152 0.0147789563854932 0.9919813 -0.05421213 0.1141668 173 174 172
-0.0276655257033225 0.0586868787100099 0.0419546097924594 0.2681094 0.8108959 0.5201588 180 183 186
0.0314499618285309 0.0288122728651964 0.0505657547652192 0.2119233 0.7204673 0.6603146 178 178 179
0.0374380690427616 0.0458627664076494 0.0185685831342936 0.9973822 0.005926286 0.07206647 187 176 181
-0.0033380461260899 0.0478766934044782 0.0457481819875859 0.2104629 0.9775631 -0.008698666 167 179 183
-0.0228008658233891 -0.00304188284371937 -0.0459841285767378 -0.0334663 0.7247329 -0.6882167 189 195 202
-0.0427792316974793 -0.0303250302647141 -0.0581051993309571 -0.8593143 -0.1718727 -0.481704 103 112 105
0.035098131981667 0.00327086662225046 0.0155269780051231 0.9889766 -0.07506798 0.1276326 136 140 125
0.039502699076392 0.0296524804417531 0.0210155639902435 0.9956554 0.07505786 -0.05510562 142 146 145
-0.0365025292786045 0.0387750784739705 0.0389169845189491 -0.9664187 0.1110959 0.2317168 121 141 123
0.0285061984587687 0.00604239821283897 -0.0379616901725194 -0.02381149 0.729513 -0.6835523 167 173 180
0.0399730483564289 -0.0211878289882617 -0.0012122624383584 0.9883631 -0.04781864 0.1444014 159 161 153
0.0359540095644517 -0.00411872498332905 0.00478296703257666 0.9859035 0.05186997 0.1590718 144 149 146
0.00374293569625639 0.0233092210365185 -0.0190517082941553 -0.01994984 0.7214176 -0.6922129 214 192 191
0.00513810184567642 0.0212776030035521 -0.021513634424558 -0.01570843 0.7323434 -0.6807542 243 208 189
-0.0369410409182978 -0.0241935487021501 -0.0630986175588379 0.1380626 -0.3485549 -0.9270643 133 135 131
0.00993796761588417 0.0592934714098154 0.018879238090786 -0.01451162 0.7238224 -0.6898337 188 194 197
0.00787305139265992 0.0592022080238773 0.0188043709319316 -0.005753445 0.7293661 -0.6840994 191 194 201
-0.0435945207845299 -0.0288137045906955 -0.0112722234958227 -0.9188865 0.3828934 -0.09507982 115 124 126
0.0373279082012248 0.0209718473028424 0.0311926316270647 0.9876273 -0.1534715 -0.03223081 133 134 122
-0.0258911412558822 -0.0515537185144586 -0.0374745850104914 0.2902801 -0.5800774 -0.7610832 127 134 127
0.0379994500500347 0.0358165414888955 -0.00647785224855449 0.4778368 0.6628534 -0.5764524 159 170 178
-0.0376748729811736 0.028087742104827 -0.00287885726447537 -0.9790299 0.1979591 -0.04808986 132 136 139
-0.00914957624179191 -0.00989094853062472 -0.0536054930069963 -0.009477096 0.7223039 -0.6915109 178 185 192
0.0374198328790358 0.00941477361471682 0.00665138716845617 0.9639547 -0.0754094 0.2551561 171 173 171
0.0227705073068583 0.00218300017115297 -0.0420319732579249 -0.02776625 0.7303296 -0.6825303 171 179 185
0.00191659938082456 -0.00324468780961346 -0.0467360406311999 -0.04037622 0.7276672 -0.684741 166 176 182
-0.0143544694789064 0.061002320011069 0.0213022301546237 -0.01709447 0.7310053 -0.6821576 186 192 203
-0.0212687565682588 -0.0501013804913417 -0.037553377949853 0.2800016 -0.5897346 -0.7575039 158 160 156
-0.0431915276379167 -0.0318228176662843 -0.0325495196548944 -0.9344708 0.3549114 -0.02832352 121 126 130
-0.0210842507376841 -0.0522573362980926 -0.0356818402263217 0.2933773 -0.604536 -0.7405849 143 149 135
0.000403109301692517 0.0177607884295429 -0.0246830691179784 -0.03266866 0.7180244 -0.6952508 180 181 188
0.00190314327609098 -0.00525558748830418 -0.0489071536437134 -0.03233115 0.7168183 -0.6965101 168 174 183
-0.00730088929593453 0.047873453428358 0.0499693919555722 0.2440014 0.937618 0.2476605 190 194 198
-0.0276540386167277 0.0554987372167456 0.0159850741061275 -0.03337407 0.7247447 -0.6882088 184 188 198
-0.00409438517906491 0.0531104071070778 0.0351393488107259 0.01305979 0.7098076 0.7042745 163 169 170
0.0151368040432223 0.0361246250560393 -0.00588084359195815 -0.02811555 0.7184986 -0.6949599 253 218 202
-0.012349867561487 0.0599099501945373 0.0329374532615336 0.416068 0.593903 0.6885976 164 168 171
0.00486761842303185 0.0314899229410602 0.0569875363152526 0.1547856 0.4658919 0.8711981 164 172 175
-0.0339529999145149 -0.0170934483990854 -0.0602646346214388 -0.0177597 0.7167418 -0.6971125 158 170 176
0.0100059647640274 0.045896291431779 0.045851224943976 0.1831555 0.7107483 0.679184 184 186 190
0.0382601304368375 0.0181385569704691 0.0043760171156931 0.9952663 -0.09260006 0.02949898 161 164 158
0.0238544197199859 0.00760431158390568 -0.0359771868793403 -0.01777882 0.7187079 -0.6950848 183 185 193
0.0184317098195397 -0.00666237409367493 -0.0510999260050914 0.1881641 0.3133083 -0.9308234 166 173 176
-0.00741742434397263 0.0115140513423898 -0.0314557024716266 -0.02283464 0.7243853 -0.6890171 252 214 203
-0.0040174435498459 0.0482832446304939 0.0462128185329413 0.2045302 0.9764097 0.06922092 165 173 183
-0.0400976322131577 -0.0193646018893284 -0.0273501281741894 -0.9986175 0.05152193 0.01042078 146 151 163
0.0340564385245026 0.0587269933567555 0.0297161609658354 0.3786297 0.5551302 0.7405876 171 173 178
0.0127292283615317 0.00413398455842934 -0.0395034423571234 -0.02487748 0.7350279 -0.6775804 185 190 195
-0.0256329915342084 -0.010133882313701 -0.0533735941065158 -0.02584934 0.7168158 -0.6967833 179 185 193
0.0386563238130346 0.0499679943967547 0.0302493277554311 0.9946452 0.09960303 0.02757083 175 177 179
-0.0168454048971007 0.0453795683128012 0.0054702814000876 -0.0305204 0.7230195 -0.6901531 203 204 218
-0.0160616728360399 0.00549323051224798 -0.0374550516552849 -0.007739774 0.7200727 -0.6938554 155 160 180
0.0424851337845729 -0.0201037989865059 -0.029401073969742 0.896801 -0.03013395 -0.4414068 166 174 174
0.0218840464212384 0.0351350094064216 0.04892724547876 0.2564254 0.5519122 0.793498 184 186 187
0.00629136612172854 0.0489761645467833 0.00797172989854286 -0.01929466 0.7170476 -0.6967571 198 201 213
-0.0448187027929068 -0.0391986972822028 -0.0395329694264559 -0.9552801 0.2809762 -0.09215366 109 115 108
-0.0107612057825177 0.0540811662466991 0.0366475807340556 0.4645967 0.6024156 0.6490341 174 175 179
0.0332908435007218 0.0273969712033593 -0.0152836078024626 -0.01216947 0.7284952 -0.6849428 181 187 194
0.031022866690436 0.0559654066778281 0.0327515300477453 0.2070472 0.5367468 0.8179452 167 167 173
-0.0247081087399961 0.0597596060891281 0.0386696181941633 0.4392068 0.7077007 0.553405 181 184 191
0.0282353431319953 0.0347572354096126 0.0464267574484583 0.2982897 0.5775676 0.7598941 178 181 180
-0.0201542031990654 0.0542312080688372 0.0427725206454669 0.5174245 0.8417034 0.1542961 197 199 203
-0.0354188873360659 0.0517965838513738 0.0123373264520925 -0.4861499 0.5440407 -0.6838699 188 191 201
0.00805352081835053 0.0339079069719736 0.0550964928869183 0.2281931 0.4882908 0.8423182 173 176 175
-0.00334899810493461 0.0529226031127994 0.0124497696482096 -0.02451136 0.7244542 -0.6888871 240 208 193
0.0435483227933799 -0.0198355288187863 -0.0231042647455259 0.9950307 -0.09195437 0.03818779 158 160 150
0.00410906143979517 0.00489139757137097 -0.0385224286180211 -0.02220164 0.7370695 -0.6754521 190 194 202
0.038759104916255 -0.0178203434901162 0.00230097308335578 0.9590002 0.1305528 0.2515443 160 168 161
0.0384031619199359 -0.00500891781713925 -0.0382088076123222 0.9674734 0.05447078 -0.2470389 171 174 171
-0.0128108001669238 0.0478577725699255 0.00750950417674709 -0.03619486 0.721189 -0.6917921 243 210 200
0.0205053946777065 -0.0198191447875738 -0.043151824861169 0.437344 -0.6162832 -0.6549239 145 146 141
0.0211538640040905 0.0642653834609735 0.0246221246113311 -0.06694338 0.9892914 -0.129696 231 237 239
-0.0236304813192261 0.0179676917802532 -0.0241702419904878 -0.03690716 0.7264463 -0.6862315 159 169 177
0.0329600144110493 -0.0316814622199839 -0.0277086767755057 0.2098479 -0.5830233 -0.7848871 154 161 149
0.039704353411941 0.0284236646283965 0.0184055261199467 0.9994572 -0.00654803 -0.03228557 190 190 190
0.0371528265225303 0.0484811265694376 0.0232452698606938 0.9981375 -0.05453803 -0.02733151 171 175 178
-0.0228443453850646 -0.0118744643908784 -0.0553979482602386 -0.02953023 0.7133829 -0.700152 184 190 195
-0.0136091769434845 0.0294947166085476 -0.0111918013727509 -0.0179158 0.7355717 -0.6772099 171 174 177
0.0370799354501257 0.0411835616069161 0.00656486295085351 0.9977101 -0.05121557 0.04417548 135 135 131
-0.0425666023487077 -0.00216121640870798 0.0181407675262852 -0.9990335 0.03274546 0.02932245 88 99 87
-0.045483287778306 -0.0443425537981506 -0.0515184335550188 -0.6389726 -0.4474084 -0.6257314 102 114 103
-0.00595799441018041 0.00554078461978841 -0.0374260391396208 -0.02296821 0.7279698 -0.6852243 174 180 187
-0.0365223602643292 0.0253588320680043 -0.0153322051459736 -0.5515627 0.4954954 -0.6710163 160 166 171
-0.0112737144595405 0.0285203584240968 -0.0129163226212976 -0.04009169 0.7409705 -0.6703397 168 173 177
-0.034794357478904 0.0105769602166115 -0.0310240854732832 -0.05077484 0.7257724 -0.6860586 180 184 189
0.0436916130654588 -0.00975747857777715 -0.0228417460044744 0.991367 0.1276686 -0.02986774 149 155 152
-0.029919919824196 0.0543436482790695 0.0472725215522262 -0.270724 0.7687328 0.5794466 160 173 178
-0.0347074445105209 -0.0287303471175257 -0.0598051529173986 0.1963751 -0.4458774 -0.873287 130 132 134
0.0403188038071987 0.012323629320823 -0.0237806030022041 0.9828594 -0.0435218 -0.1791456 158 162 161
-0.0193666096135292 0.0391461418118648 -0.0016271852358864 -0.02237319 0.7169095 -0.6968071 252 213 204
-0.0355628478417698 0.0425534480716033 0.0241565922213164 -0.9977804 0.06524764 -0.0133054 66 70 36
-0.0339501676303575 0.0413102347526979 0.0589295760285908 -0.7442948 0.2443463 0.6215467 114 116 100
0.0391577469362572 0.00503740487043641 -0.0104607027209816 0.9296201 0.1545161 0.3345612 150 147 143
0.00111680090528399 -0.0401591907972291 -0.0355290174742827 0.4274813 -0.6181948 -0.6596172 160 165 155
0.0384277955855259 -0.0184665661444494 0.0035623843909468 0.9577031 0.1267175 0.2583555 144 151 136
-0.00807079454816328 0.0341513083639318 -0.00706008689920312 -0.05115331 0.72778 -0.6839003 179 186 191
0.00607962626970693 0.0470585743659954 0.0439566224188051 -0.006252882 0.8868459 0.462023 180 184 190
0.0369237486104108 0.00838187721300693 0.00730670773713216 0.961708 -0.09135957 0.2584011 150 155 151
-0.0382333151849625 0.0226585757695404 0.00263933727517526 -0.9856293 0.1669059 -0.02602432 62 68 42
-0.0366999895272562 0.0346909749568211 -0.00576769485887405 -0.6507581 0.6086488 -0.4539389 175 175 182
-0.00668789179523355 0.0550619516333585 0.0326074408188868 0.2958487 0.6459035 0.7037629 181 184 184
0.00652197250113407 -0.038905479049659 -0.0332765130897383 0.3928067 -0.6904876 -0.6073958 140 147 135
0.0373220553169293 0.0430400896401554 0.00535079516517878 0.9881541 0.08521969 -0.1276287 132 136 128
0.0192346258655736 0.0239656149047752 -0.0181309567923961 -0.03577927 0.7221075 -0.690855 145 156 169
-0.0377395973416972 0.0198032203735967 -0.00381058003580251 -0.9873843 0.03956038 -0.1533209 87 109 89
-0.0310397915968581 -0.039695101912448 -0.0518538244316821 0.3073158 -0.642728 -0.7017534 137 141 127
0.011846705997459 0.0579791011029082 0.0173268788896733 -0.02608842 0.7259068 -0.6872981 194 197 203
0.0414996851246814 -0.000973144899836076 -0.0247922896229697 0.9132881 0.09315765 -0.3965179 170 176 176
0.013931482759765 -0.0200595106359585 -0.0461902683700726 0.3102168 -0.60584 -0.7326141 148 150 151
0.0352911189427489 -0.00267288385067971 0.00951361181653845 0.9963909 -0.047602 0.07027964 145 146 136
-0.00815673394635485 -0.0230535654976444 -0.0543819972281648 0.3251111 -0.4629154 -0.8246285 129 129 136
0.0355784190658097 0.0594266893210207 0.0289447496446166 0.5105265 0.5606861 0.6519156 188 186 192
-0.0335665077498497 -0.0539937007330681 -0.0388835098621267 0.2600792 -0.5399718 -0.8004931 143 147 141
0.0437991757668259 -0.0154353990592116 -0.0214421031148598 0.9909074 -0.008952544 0.1342475 125 138 119
-0.0405925560065503 -0.0123551851510974 -0.0371507194332538 -0.9947012 0.02710114 0.09917161 134 136 141
-0.00792476087307659 0.0305386527484523 -0.0111413240888085 -0.03904216 0.7224783 -0.6902905 166 172 181
-0.00277970898718038 -0.0123092547838086 -0.0563818647508816 0.1139451 0.4426869 -0.889407 170 178 182
-0.0412248402480886 -0.0239361033336965 -0.0636525491779791 -0.386561 -0.1457177 -0.9106794 135 145 139
0.0432179905558199 -0.0192815247227758 -0.0192687932613475 0.9864848 -0.08918181 0.1374569 150 155 143
0.0327493358670727 -0.0278612340270368 -0.0307927404159583 0.2154691 -0.5899733 -0.7781417 150 157 146
0.0200147531201802 0.0512907459894458 0.0398660971533138 0.2606883 0.544711 0.7970769 181 184 187
-0.0181886379599066 0.0598885462241689 0.0346248937731657 0.248013 0.6603927 0.7087814 150 154 159
-0.0282127903326463 -0.0294250784568539 -0.0576977317370827 0.2609519 -0.4517965 -0.8531026 147 146 154
-0.0154556124114826 0.00454382747734233 -0.0381379777768997 -0.007225659 0.7235516 -0.6902325 168 177 187
-0.0403675576277891 -0.010589652043751 -0.0150783209518985 -0.9977127 0.06549055 -0.01674532 141 155 150
0.00488918805990313 0.0272012715299891 -0.0149247985701562 -0.02394659 0.7243257 -0.689042 211 194 175
-0.0419215520734726 -0.00834235601336691 0.0071016942242256 -0.9914082 0.02675433 -0.128039 62 71 58
0.0186138979042108 -0.00494919962047641 -0.0491147432667256 -0.0003802172 0.7200629 -0.6939087 179 184 188
0.0397922234017338 -0.026963827012256 -0.00858977611989417 0.9715381 -0.1962928 0.1326004 139 143 129
0.0249154201416806 -0.0129156457722606 -0.0461490559417858 0.4235856 -0.6041443 -0.6749703 147 154 149
0.0135517390021214 -0.0265732283384696 -0.0414020126621562 0.3821566 -0.5393901 -0.7503431 168 172 167
-0.0157500119825249 -0.00843703785684841 -0.0515763744162229 -0.02278456 0.7246347 -0.6887564 184 189 195
0.0239102445073565 -0.0141912769808727 -0.0453275511190727 0.4295858 -0.587761 -0.6855603 133 150 133
-0.0412879112783626 -0.000706496103639653 0.00755500805164955 -0.9736343 0.1280102 -0.188811 88 105 81
-0.00498531204998631 -0.0153733247626738 -0.0577277657855246 0.1698993 -0.09646889 -0.9807283 136 139 144
-0.0355712012007698 0.0481679460056079 0.0413863117180176 -0.9885002 0.0855822 0.1246718 72 82 54
0.038574394147445 0.0194325444629652 -0.00817411119990644 0.9909173 -0.06005869 0.1203156 158 159 152
0.0354267484270858 0.00883790994078865 0.0286649358603264 0.9816991 -0.09711282 -0.1638168 157 158 161
0.0368601330916674 0.053605214712235 0.0325277449726363 0.6752921 0.3744983 0.6353987 169 175 173
-0.0239920270117588 -0.0366846176552038 -0.0509642729921516 0.333143 -0.6288197 -0.7025678 147 151 147
-0.0162657224670157 0.00947194280622882 -0.0330116067557456 -0.02556106 0.726478 -0.6867141 169 176 184
-0.0408116531001532 0.0169034926678271 0.00762534116243307 -0.9645756 0.2161407 -0.1512518 129 139 132
0.0080606909439922 0.0504337057961526 0.0407074593658159 -0.2009412 0.6172252 0.7606942 161 172 173
0.0299290042170464 0.0604584674031944 0.0191873193772077 -0.02310999 0.7238178 -0.689604 190 190 198
-0.0285151522134139 0.0322519215255269 -0.00826086073756599 -0.02843903 0.7266817 -0.6863854 237 187 180
0.0348683366975591 0.00145304748753822 0.024394624598837 0.9989278 -0.01166784 0.0448002 162 163 153
0.0356532874916171 0.00761457192776199 0.0164674186064714 0.9929668 -0.07982635 0.08743439 149 151 147
0.0377935786505681 0.0471161785404125 0.0320304516825415 0.9859117 0.1161476 0.1203655 122 126 129
0.0378547237690263 -0.000634020736478502 -0.038843947221006 0.9680039 0.04887477 -0.2461295 170 174 177
0.0363763332908409 0.0475674884911309 0.0219178155656342 0.999925 -0.0113922 0.00450732 122 131 112
0.0151044069609929 0.063132571602443 0.0292677006217803 0.01852701 0.8602161 0.5095929 193 195 201
0.00309084763576362 0.0163022932446051 -0.0264390676323117 -0.03612026 0.7236037 -0.68927 241 207 200
0.0345008737607815 0.0372389746753737 0.0420238336466412 0.3190904 0.4862487 0.8134762 172 180 177
0.00869659522587707 0.0536799331812075 0.0130222479819916 -0.01017399 0.7272099 -0.6863397 191 193 203
-0.0262563262864637 0.0183208268858482 -0.0229395701039198 -0.02023115 0.7242485 -0.6892422 168 176 187
-0.0369957372565191 0.0214202553458384 0.0494844187586005 -0.9238799 0.2523144 0.2877211 95 102 83
-0.0124138449095428 -0.0196309172692232 -0.0573787158743879 0.3001675 -0.3534003 -0.8860066 140 149 138
0.0369540827708148 0.00473129446463344 -0.0393301309910702 0.5319422 0.4953606 -0.6867717 214 213 212
0.0364148582665047 -0.00436734974170566 0.00247907018785373 0.9741925 0.1018325 0.2014424 170 173 169
0.0218862472349288 0.0587259437195682 0.0336800764816152 0.2885656 0.679473 0.6745713 180 184 187
-0.00792673122430632 0.0484147738644801 0.0520807156642302 0.262924 0.853418 0.4500541 205 209 219
0.0135538093106531 0.0123140367184172 -0.0307530580160379 -0.01810882 0.7277808 -0.6855707 185 188 194
-0.00702356513134195 0.0236324796694425 -0.0179460352273513 -0.02933002 0.7211911 -0.6921149 164 170 180
-0.0120973245436558 0.0637164583413101 0.0244393686029497 0.057464 0.8912123 -0.4499317 186 190 208
-0.0311938868845578 0.0576415474935424 0.0434842174471225 -0.1524182 0.7469752 0.6471451 186 188 192
0.0384809260636896 0.0314519937406812 0.0113896218183967 0.9810323 0.1922855 -0.02453408 143 149 144
