ply
format ascii 1.0
comment File exported by Rhinoceros Version 7.0
element vertex 476
property float x
property float y
property float z
property float nx
property float ny
property float nz
property uchar red
property uchar green
property uchar blue
end_header
-0.100587591676958 0.0802303627618032 0.0252879245341769 0.008507662 0.956153 0.2927442 141 145 140
-0.0246203990271163 0.10066074882824 0.00501382184634125 -0.2382719 0.9145095 0.3269538 149 156 145
-0.0889428706457687 0.0690733865388112 0.0811206085742465 -0.1199647 0.8982369 0.4228225 144 147 138
-0.136293277292497 -0.0116587206236644 0.011051206117963 -0.8798932 -0.2095806 0.4264551 126 119 122
0.0235525517175126 0.135345168460198 -0.0407054440914639 -0.4416037 0.8730283 0.2069003 156 157 152
0.106950655431502 0.0459193066247182 -0.0237701253830441 0.9382885 0.3302851 -0.1025988 164 170 156
0.0266751198480057 0.110350437510796 0.0395533723891727 -0.371271 0.806551 0.4600362 150 149 135
0.000112429113142465 0.107458777774163 0.0133310241759769 -0.2938012 0.9077795 0.2993613 117 121 115
-0.0966605992605758 -0.109161131035499 0.0278868658603183 -0.5484462 -0.2536779 0.7967775 142 136 133
0.0180730967233109 -0.0743505879751963 0.0563143177093021 0.2392148 -0.509241 0.8267103 162 163 128
0.0700304655740189 0.0774238780625539 0.0739779753745547 0.2112913 -0.225943 0.9509499 194 192 193
0.0221185831735062 0.133061952937432 -0.0342170314728268 -0.4549657 0.8670732 0.2029541 145 148 145
-0.048399791269548 0.0663675740845876 0.093317298418378 -0.1123964 0.900434 0.420221 134 134 126
0.12072910353636 -0.00315617765109966 -0.0164102630554684 0.9856548 0.1532625 -0.07067748 186 183 170
0.0184922365853715 -0.0825381204001231 0.0535543544353 0.1381417 -0.4028229 0.9047931 169 170 164
-0.0391448588659835 -0.111608974587135 0.0541063530505649 0.03275532 -0.3602996 0.9322613 168 170 161
0.0904742626855302 0.0849766210206228 -0.0669698433815488 0.9546091 0.2738507 -0.1171636 188 187 174
-0.0676630587866378 -0.142777435433082 0.0346947295726291 -0.88941 -0.4218107 0.1761408 130 118 123
-0.120381578951128 0.0240097716935354 0.0426525754989139 -0.1170407 -0.3337097 0.9353819 115 114 109
0.00949658438657996 0.123090632308312 -0.0208364145695218 -0.4102129 0.8835976 0.2257892 190 190 189
-0.0745285601904464 0.0786939338334279 0.0555945618213168 -0.1325579 0.9814086 0.1388004 174 176 172
0.071044698209517 -0.0904409214369578 0.0420545919002048 0.3415666 -0.1994554 0.9184497 179 178 172
-0.0359908194830489 0.0869118646271901 0.0575205071032993 -0.2418809 0.9107245 0.3347753 123 126 109
-0.0135973544409347 0.120300300467797 -0.0406643466888913 -0.2944686 0.9229499 0.2478947 142 147 146
0.00988973662351844 -0.0521864816061778 0.06541639400134 0.2670674 0.138019 0.953743 183 185 177
0.108762040586226 -0.0183403416983409 -0.0694242136417874 0.9087076 0.2396494 -0.3417874 193 193 176
-0.102261647730119 -0.116460077416114 0.0153291208804599 -0.7246512 -0.1914015 0.6620017 137 139 127
0.129760041684859 -0.0175451561323924 0.0235859437049381 0.899694 0.363058 0.2423624 174 173 167
-0.0570697636892867 -0.164298407684974 0.0347867293418399 0.08570641 -0.5118721 0.8547756 151 154 146
-0.0981061311056686 -0.12687169755619 -0.0196762101589688 -0.7993225 -0.2545662 -0.5443157 107 103 77
-0.125755533724077 0.0627192333825307 0.0219529850543491 -0.9394466 0.0790002 0.3334653 142 144 131
-0.0211675019552779 -0.0690393372885508 0.070574013716077 0.1603274 -0.4025212 0.9012612 170 171 160
0.0993856339166093 0.0733838752396779 0.00737127495417511 0.9350604 0.352794 0.03461654 190 192 187
-0.0147782416632247 -0.105549387585334 0.0540603382647983 0.06575265 -0.517242 0.8533096 143 147 129
-0.12933193161989 0.0516335443146901 -0.0120518522202023 -0.9811772 0.0003438633 -0.1931094 83 90 55
0.0182126908013749 0.126759417403527 -0.0225557403503903 -0.4496662 0.8603213 0.240099 153 156 156
0.109160199613326 -0.02615308011692 -0.0762550847469815 0.8661137 0.3098711 -0.3922077 200 198 184
0.0477197317788529 0.131809540141411 0.00567471814761078 -0.2356073 0.9211954 0.3096583 209 212 205
0.124753728360884 -0.0808936878554148 -0.064387323135043 0.9267117 0.1526603 -0.3433659 190 186 174
-0.0139801354696822 0.059141702998467 0.0902616365016452 0.313625 -0.1133287 0.9427598 183 182 179
-0.0931939931204391 -0.0818722769133372 -0.0692632214962491 0.1189275 -0.3732747 -0.9200664 111 117 84
0.0591381935784745 0.0328807309754567 0.063689498430585 0.265848 -0.223393 0.9377742 199 194 188
0.0234943775842118 0.141361065257378 -0.0653073208271512 -0.4217866 0.8985477 0.1212769 111 114 103
-0.102804049997575 0.0219646767266469 0.0756109340251437 -0.9695899 -0.2147942 0.1172977 96 97 90
0.0176696924874711 0.0113546923287587 0.0707426948607913 0.2423443 -0.2497832 0.9374847 195 192 185
-0.0248297305395675 -0.038479797493629 0.075394718176221 0.3107787 -0.1618585 0.9365994 185 185 177
0.0215186028191972 -0.133320800911598 0.035699038034772 0.130125 -0.3858113 0.9133549 183 185 177
-0.129651531725175 0.0551775768883901 -0.00842940973630035 -0.9899215 0.04598128 -0.1339448 91 93 68
-0.090380296259172 0.0230902508385854 0.105878351456021 0.3747632 -0.2174954 0.9012482 200 199 195
0.00310386702512977 0.118051238406487 -0.0146546380459317 -0.3952624 0.8892285 0.2303048 185 186 185
-0.0245530457785201 0.0788322762139516 0.0815761668742648 -0.4586754 0.8148685 0.3544096 129 128 118
-0.129897460489519 0.0438386276848989 -0.0110743658482083 -0.9564744 0.08735532 -0.2784347 97 94 77
0.0744859127709794 -0.132237248074226 -0.0463326888023862 0.3274181 -0.8740445 -0.3589478 86 87 35
0.0199055819222855 0.128076382029839 -0.0224043147503384 -0.4823427 0.8364906 0.2600559 155 163 156
-0.130543932466753 0.0332883075364309 0.0219529850543491 -0.9581474 0.1384723 0.2505574 120 123 103
-0.0625965447714401 -0.16800939286869 0.0272888822616092 -0.9072137 -0.3319058 0.2584603 108 108 98
-0.0812527985861373 -0.0766975208632273 0.0775198919833652 -0.8139723 -0.2432426 0.5275245 131 129 118
0.0369514374444413 0.125361807692833 0.010039208656644 -0.4734813 0.8269979 0.3031336 155 168 166
-0.0954499097158981 0.0752117708810048 0.0572112782062045 -0.1534462 0.9647738 0.2136953 156 162 162
0.0745324043939042 -0.147674493443183 -0.00491050052037323 0.0366683 -0.9751517 -0.2184823 92 90 55
-0.0714291186621261 0.0655133203156667 0.0947564227641574 0.08984498 0.8292583 0.5515964 130 129 119
0.0844731478402543 0.103407152045556 -0.0545128600536832 0.8652602 0.5010062 -0.01782076 204 202 191
0.0262885241219926 -0.0267248674742503 0.0605692250789157 0.319821 -0.1803028 0.9301642 185 183 178
0.0165749935815263 0.130882687915154 -0.0403834598003873 -0.4583289 0.8572259 0.2347304 142 150 146
0.0123086123177933 0.110083766330071 0.0167090876162997 -0.3544638 0.8994187 0.2557372 147 152 149
-0.106935486345537 0.0817839578278737 0.0170310719073764 -0.09899893 0.9481604 0.3019785 137 132 133
0.0748406796166825 0.117591507781334 0.016727475649213 0.7726012 0.6301327 0.07758899 180 181 171
-0.0780514331152511 -0.103358142029457 0.0494144542277805 -0.8826941 -0.3344709 0.3301218 144 144 138
-0.078263744859941 0.0841097310670095 0.0200703127444736 -0.1777682 0.9011129 0.395467 143 147 145
0.0570647864053178 -0.0934985205046458 0.0459185226024142 0.1287226 -0.2946014 0.946911 167 165 160
0.0480017809579301 -0.0184336825720591 0.0540833456576816 0.3578621 -0.3642373 0.8598058 207 182 162
0.078534498662703 -0.0307285114638133 0.0405136330188266 0.249165 -0.3060125 0.9188434 176 174 165
-0.107472166567094 0.0841878131516652 -0.0559234933792599 -0.4111507 0.515902 -0.751532 111 115 94
0.113505259008162 1.32397301869647E-05 0.0377306623519412 0.4231362 -0.2776839 0.8624659 169 163 164
0.0257965473840165 0.108586616862603 0.0432352407039157 -0.4243971 0.8241171 0.3751241 128 131 113
0.0706432013223099 0.101548500407525 0.0552678389609805 0.1172244 0.9242756 0.3632811 156 156 144
-0.0778442473700118 0.110287554610558 -0.0386094467579373 -0.09396821 0.8985005 0.4287969 149 151 147
0.0824563650796342 0.104180224288292 -0.0723451690613278 0.9255273 0.3782172 -0.0187315 194 190 181
-0.131200894861467 0.0392977670319753 0.0168240649760715 -0.9582255 0.09098804 0.2711551 119 114 99
-0.0220937581350875 0.0995192006715017 0.00996395779261505 -0.3958558 0.8914526 0.2204778 168 169 164
0.0811274199197221 0.11005754028637 -0.0570785717903622 0.9127571 0.408365 0.01060745 203 202 191
0.0724183468530106 -0.121378116261177 0.0346487147868625 0.4797345 -0.2084931 0.8522825 186 182 171
-0.0422707648565841 0.105025656569787 -0.0222904996811398 -0.1427001 0.9307028 0.3367922 183 184 171
0.116633429975264 -0.0492652579657359 -0.0745991187035092 0.9436848 0.1173092 -0.3093504 196 192 183
-0.0582893939306808 -0.141235224854164 -0.0391798334061154 0.07862342 -0.6995022 -0.7102922 159 138 112
0.0176946072289872 -0.145562045227699 0.0318197889388553 0.1099049 -0.371405 0.9219432 173 171 162
0.0836088804910111 0.109495110858269 0.0372312648356906 0.2450417 0.8931134 0.3772308 133 136 120
0.13926519438719 -0.0936309024206919 -0.0240921394764432 0.9518417 0.0786648 -0.2963262 169 167 148
0.0397678761193681 -0.164853982578926 0.0186410529674045 0.07130373 -0.949315 0.306132 149 145 135
-0.0989906640341354 0.0590377524979787 0.10134500098834 -0.3492204 0.8547919 0.3838957 182 183 182
0.121175542325728 -0.118357591282539 0.00941824746737396 0.4975257 -0.5829026 0.6424117 139 135 135
-0.11482404187227 0.0665716603882985 0.0496444387496463 -0.9548957 0.07325482 0.2877635 113 113 113
-0.0406981559088302 0.10306233917553 -0.0152142958580502 -0.1346366 0.9258769 0.3530227 180 183 179
-0.103656277208574 0.0386664346345144 0.106867311722135 -0.975989 0.1240712 0.1790298 155 161 144
-0.0933867545416427 -0.0629728957526011 0.0619261844218723 -0.8019533 -0.4173582 0.4274143 117 120 111
0.0927009730050492 0.0543895438798147 -0.0712105350433835 0.9637178 0.07507954 -0.2561468 177 174 163
-0.00122450306916955 0.00792057072002461 0.0766459090770236 0.324731 -0.2683588 0.9069362 186 184 175
-0.0434965939810348 0.10145158325512 -0.0142943279682645 -0.1325745 0.9427553 0.3060006 191 194 197
-0.0973260255148483 -0.123835258137397 0.0230569524825565 -0.4982728 -0.1782629 0.8484967 135 146 122
-0.00539909317994836 0.11189121757824 -0.00825309919705475 -0.3192647 0.9018785 0.291007 166 168 159
0.0276169924447465 -0.157232694279365 -0.00078207420697296 0.1307244 -0.8884379 -0.4399878 89 88 34
0.0851726679513383 0.101509340155907 -0.0528152601658353 0.8646162 0.5019107 -0.02290168 211 208 206
-0.122357234506853 0.0692256764062124 0.0299721641601077 -0.8902562 0.1148655 0.4407378 122 130 121
0.0198133139321732 0.130346544135399 -0.0284965352951535 -0.4427885 0.8489555 0.2884668 167 172 169
-0.000762924700028922 -0.111966721665077 0.0492304546893588 0.1641509 -0.4926518 0.8546044 150 156 141
-0.0897971244146896 0.0758147910721975 0.0597182495654575 -0.131991 0.9699196 0.2045347 152 158 156
-0.0495885463049484 0.0922411755212026 0.0157643241942874 -0.3192229 0.919725 0.228479 112 115 108
0.096430793256514 -0.137467376839332 -0.0188482420383939 0.172106 -0.8777406 -0.4471589 96 91 59
-0.101422295122392 0.0998098329194265 -0.0215621607243069 0.1820071 0.851133 0.4923881 187 192 194
-0.0194029660513473 -0.0708781405798716 0.0689947290481082 0.1534923 -0.4325626 0.8884423 191 187 179
0.1100161223123 -0.124563984524421 0.0133150203288547 0.5370411 -0.3612333 0.7622974 154 154 140
0.0778753905007767 -0.138454191338233 -0.0270820574699887 0.4639462 -0.7748086 -0.4294479 118 114 81
0.0119404940316605 -0.153436116825752 0.0295428319037906 0.1136086 -0.4115999 0.9042558 155 159 139
0.0873185543725419 -0.0522122308127208 0.036366043812131 0.34906 0.1459563 0.925664 171 168 162
-0.0323467107107711 0.11507154260952 -0.040329785817767 -0.1072011 0.9422942 0.3171584 156 160 156
0.0955915598580765 0.0635942295678334 -0.0563604848324307 0.9730172 0.02351637 -0.229531 194 194 176
0.012345328778975 -0.168164782177619 0.0213089866698734 0.1149408 -0.5015801 0.8574416 183 186 181
-0.0272111745169235 -0.0846276208273692 0.0648241324485294 0.0446456 -0.3403672 0.9392321 186 183 181
-0.100594028978593 0.0553383902199941 0.103831378942823 -0.7527623 0.4729915 0.4578515 178 186 176
-0.00154887154603722 -0.164309553753547 0.00376033616671478 0.2905548 -0.7555181 -0.5871715 92 86 46
-0.129345283060319 0.0583103374131398 -0.0144093053280362 -0.9908655 -0.08876101 -0.1015241 86 88 61
0.0705664305398392 -0.0547174140326304 0.0416291041434756 0.4346133 0.1382266 0.8899465 198 179 165
-0.107071742563493 -0.11511301244419 0.011856196647977 -0.7570955 -0.1802561 0.6279445 148 146 139
0.0438364891717362 -0.0395094081274791 0.0502516312659732 0.2447479 0.01154141 0.9695181 183 180 166
-0.0888522715857101 -0.0662160440794749 0.0677220804751865 -0.8761181 -0.3550381 0.3261365 120 114 111
-0.115586862116106 0.070284850943871 0.0492151064933292 -0.9101283 0.187758 0.3693419 158 162 155
0.00163818881010291 -0.155757836949043 -0.0091270821033963 0.1968501 -0.8183202 -0.540002 94 93 49
0.121444478482954 -0.0777540131918711 -0.0692402141033658 0.8876103 0.1589179 -0.4323113 180 175 155
0.0376604942986893 0.101806111682244 0.0593675060332767 -0.3275447 0.8082608 0.4893147 156 156 146
-0.105059012918718 -0.130169562946968 0.00369134379038727 -0.9824499 -0.1861371 -0.01204324 131 126 119
-0.0229484887411666 0.027525492060967 0.0861447138846866 0.285695 -0.2173817 0.93334 176 175 173
-0.0555949063589645 0.0753119066842275 0.0735793097079745 -0.2026698 0.9401751 0.2738536 148 155 138
-0.0798654408743453 -0.12556862081211 0.0273164792121402 -0.812116 -0.5054934 0.2914515 125 124 119
0.0376967339227128 0.0714696720727163 0.0775198919833652 0.2010556 -0.3050178 0.9308817 175 174 170
-0.0657750220587325 0.0678563789017873 0.0899212343753329 -0.005191077 0.8178809 0.5753642 133 137 122
0.028850570173018 -0.110756687771492 0.0446305258334628 -0.1160668 -0.08169501 0.989876 170 164 146
0.0407352595040726 -0.152360014568977 0.026230899816846 0.1267741 -0.3466083 0.9294036 158 159 160
-0.033179745226152 -0.0953583046309275 0.0612592084468356 0.04000611 -0.3159548 0.9479304 166 167 163
0.117371454686873 -0.125853292595558 -0.028876008266116 0.2553005 -0.8550148 -0.4514104 103 98 58
-0.064814791231401 -0.00508200372379253 0.0944935662806979 0.3185088 -0.1407983 0.9374049 201 201 199
0.0949902682015824 -0.0555254145972056 0.0337287468970767 0.3698213 0.0483202 0.9278455 187 185 180
-0.00850270703340295 -0.0196743532530589 0.0741159601272098 0.2670575 -0.1271687 0.9552531 179 178 172
0.0252956299493241 -0.148726575028114 -0.0215621607243069 0.1411542 -0.9348748 -0.3257065 101 94 58
0.0878398565957474 -0.118187658440284 0.026725409752225 0.4355389 -0.3246276 0.8395968 169 165 154
0.117480411977522 -0.108750753056221 0.0185030384124271 0.476065 0.07241407 0.8764236 118 123 93
0.0346557049462723 -0.130373232018165 0.0362280292571536 0.1024005 -0.3974229 0.9119042 192 190 187
-0.133508071451433 0.0302096084244924 0.0116399807990543 -0.9488766 0.1796401 0.2595429 122 124 108
0.0434118656823563 -0.122238151680641 0.0380526764453403 0.09512344 -0.3948312 0.9138161 144 140 137
-0.00133512928987267 0.12396419798214 -0.0405966060101041 -0.3505245 0.9004493 0.2575336 154 159 157
0.0454611925790238 -0.147968821179084 -0.0256560759483823 -0.02040197 -0.9711273 -0.2376878 92 89 70
0.0854892878243851 -0.132662706028633 0.0219069702685825 0.4984284 -0.2545842 0.8287075 196 194 181
0.110914721936934 0.0036394075043874 -0.05523351001134 0.98462 0.1358833 -0.1098144 199 199 186
-0.135792717485673 0.0166065171845632 -0.0109823660789975 -0.9517801 0.2591664 -0.1641564 113 114 85
-0.0381908269217086 -0.165887348305397 0.0293128473819247 0.1015359 -0.407952 0.9073399 174 176 169
-0.0874196143438888 0.077657647479363 0.0494466407359592 0.002377554 0.9998863 0.01488963 176 177 175
0.0537701992700028 0.13007695232708 0.0172895474494449 -0.0003188774 0.9388218 0.3444032 214 216 216
0.138652101011031 -0.069435767780952 -0.0101543979584225 0.9207072 0.1819696 -0.3452322 128 131 101
0.0581343321511674 -0.141177467953376 -0.0386431531845578 0.04335221 -0.8533201 -0.5195819 95 91 56
0.12861849352812 -0.0895069166533274 -0.054083527797366 0.9093587 0.2083714 -0.3600667 196 194 184
0.116288080663435 -0.129294685970954 0.00649729204783356 0.5081161 -0.4615004 0.7272107 178 175 167
-0.0639874787619186 0.0833264664300161 0.0354664905131808 -0.333618 0.9305195 0.151104 164 167 164
-0.0074269624044967 -0.089043967377357 0.0587430579722873 0.2617614 -0.3644621 0.8936713 162 159 155
-0.110574469118364 -0.0493710562102122 0.038834659582471 -0.5170005 0.1502005 0.8427042 131 126 130
0.00365938231443641 -0.107520393978767 0.0508404059470645 0.2620658 -0.3611316 0.8949332 185 183 182
-0.135560974626787 -0.00577037776630351 0.0155131204188815 -0.9711021 -0.00229612 0.2386534 105 109 90
-0.0905424208929611 -0.0998164340369029 0.0315054638446323 -0.3566414 -0.292392 0.887307 172 170 166
-0.109654531030901 -0.0126171633116526 0.0450905246795169 -0.7199326 -0.3532227 0.5974368 122 120 116
0.0537020115563798 0.152399130214043 -0.0725291685997494 -0.1091926 0.9794266 -0.1697073 197 196 199
0.129165902585738 -0.0162668153158946 0.0216310007632724 0.8837715 0.4639227 0.06102197 186 185 178
0.0495531706521439 -0.0863396450392527 0.0478964729369632 0.2770092 -0.1517412 0.94881 160 157 150
0.107755675763838 0.0533624962456899 -0.000264586681033019 0.9761665 0.1997329 -0.08488704 203 211 204
-0.0977928490927291 -0.0102085396162791 0.0919636173308841 -0.9768803 0.06083986 0.2049477 97 101 77
-0.109171494989641 -0.100709788452796 -0.0145933048664578 -0.8918712 -0.3022949 -0.3364277 104 100 70
0.00475980326627967 0.0740709975846486 0.0869497044147006 0.2506858 -0.05078528 0.9667355 187 188 178
-0.0896268935492111 -0.0487967058531565 0.0845117552340976 -0.5463548 -0.1488276 0.8242249 105 106 100
-0.0610118956854415 -0.171725206028633 0.0306928141177646 -0.6689358 -0.4730215 0.5733895 146 143 133
-0.11728666737581 0.0766347125657277 0.035246728187894 -0.4917976 0.8383427 0.2351949 190 195 197
-0.013141617326982 0.127353377688714 -0.0624139623581418 -0.3425378 0.9152998 0.2118826 162 165 161
0.0550961641976762 0.111407108653374 0.0374891741336337 0.02302318 0.9099776 0.4140177 146 151 142
-0.110082492380388 -0.0221146866194529 0.0398159606517307 -0.7021564 -0.2130753 0.6793933 121 121 115
-0.0264245124151778 0.112517364371605 -0.0287284569679745 -0.3483898 0.88402 0.3116618 191 193 193
-0.129961356668718 0.0796626881249624 0.00573831630358612 -0.879316 0.2904984 0.3773779 109 116 109
-0.0220624060919357 0.110885627616234 -0.0187562124668607 -0.2540028 0.916563 0.3088605 154 165 145
0.0115302948663163 -0.12050407375019 0.0429899079860202 0.08267144 -0.4444533 0.8919791 179 179 173
0.0044746546456742 0.125175781596489 -0.036603869670535 -0.3762374 0.8901972 0.2568938 150 151 146
-0.111979112177141 0.0826209858544545 0.00970187616953766 -0.1431302 0.941074 0.3064204 129 136 132
-0.0903868527700973 -0.149866454254798 0.0173990709842197 -0.2112532 -0.398194 0.8926442 185 181 180
0.0981449036309647 0.0777450874932485 0.0354767127097598 0.8796067 0.4756007 0.009805247 173 173 169
-0.00596712544465783 -0.123902134548835 0.0443775637210361 0.1606021 -0.4887868 0.8574931 147 148 129
0.0661431698510575 0.140158899176903 -0.0603777484833249 0.8512177 0.4999726 0.159549 194 195 192
0.119531884641402 0.0135070160515981 0.0269822163642398 0.9738637 0.206752 -0.09403783 185 187 177
-0.129423603563554 0.0916716531403737 -0.0167747156559476 -0.2362375 0.8541196 0.4633267 177 179 178
0.0554174332330155 0.10089815412838 0.059120236164426 -0.002146318 0.8812993 0.4725536 133 139 126
0.042310133428328 -0.109064690720252 0.0450773818553439 0.1241237 -0.4139362 0.9018039 185 185 180
-0.0758986325552535 0.0998660997040944 -0.0164217667519101 -0.1114574 0.8602523 0.4975372 145 149 148
-0.120583400278337 0.0378584936745839 0.0457345230639926 -0.9489726 0.1135936 0.2941896 116 117 105
0.0192729382226395 -0.0722115560881419 0.0577665550769321 0.2645469 -0.4875785 0.8320349 178 176 173
-0.0163526387503219 0.0827581361420827 0.0775220675528995 0.09636103 0.9361893 0.3380298 132 135 123
0.0407270340630936 0.104966647971459 0.0572649521888248 -0.2295896 0.8796891 0.4164561 130 135 117
-0.040911302118547 0.0204050019868093 0.0906296355784885 0.231475 -0.1409493 0.962576 193 189 184
-0.105579957514055 -0.0552098080031199 0.0429745895923129 -0.6988571 0.0743436 0.7113873 134 134 132
-0.073204741029985 -0.093396298538856 -0.0607534067570218 0.07836045 -0.4277041 -0.9005159 113 115 84
-0.0441307874014449 0.0733544305451589 0.0813470168174258 -0.1319884 0.8410432 0.5246192 153 154 148
-0.121786579637773 -0.0240187569968028 -0.0348099188744077 -0.8277722 0.01087799 -0.5609588 120 117 102
0.117256417722456 -0.0695596262327952 -0.0747831182419308 0.9333419 0.1444525 -0.3286434 178 174 155
0.0721707491586137 -0.137169770847969 -0.0364658849178799 0.4356824 -0.7798182 -0.4495157 136 132 98
0.0168928055474686 0.138179250109978 -0.0702568011223325 -0.3648905 0.9134157 0.1803516 205 207 206
-0.102550849466569 -0.0515876933447642 0.047505496269559 -0.9125907 0.04592367 0.4062872 128 127 127
-0.125402674227006 -0.0427472516409678 0.0108365399898044 -0.791157 -0.3543173 0.4985277 117 116 105
0.015329137296431 -0.128962390076332 0.0387886447967044 0.1473838 -0.3878151 0.9098777 184 185 179
0.0169570593545365 0.129579313147851 -0.0302559750019559 -0.4131645 0.8713999 0.2644945 157 161 155
0.137185469121687 -0.058528773438148 0.0130598230422488 0.6637203 0.1071202 0.7402707 205 203 200
-0.0549052806189132 -0.00704448665302226 0.0906296355784885 0.2971091 -0.1398229 0.9445506 201 198 187
-0.0490940661718917 0.034436531413384 0.0961495025218478 0.2862403 -0.21894 0.9328085 192 189 185
0.109561219663374 0.0436191037781911 -0.0106971876560696 0.9425671 0.2752465 -0.1892266 189 190 180
-0.0611624570181442 0.0535335615761953 0.103785364157056 0.2370494 -0.2443409 0.9402686 189 188 183
0.00714756533598182 0.00736803566295674 0.0730694813788882 0.3074424 -0.2098463 0.9281399 193 191 185
0.047262206525557 -0.144490115296058 -0.0362818853794583 0.04583971 -0.8897121 -0.4542149 87 89 58
0.0469170956323075 -0.0897483154646678 0.0476204736293308 0.21617 -0.3221476 0.9216786 158 157 145
-0.0995753855993819 -0.101747922550849 0.0255409164489261 -0.8560975 -0.1782327 0.4851085 125 126 130
-0.12769971802736 0.0161577538140493 -0.0366498844563016 -0.8420387 0.1495656 -0.5182673 97 99 64
-0.0226317496588302 0.114204891074486 -0.0287840382992276 -0.2390686 0.9152056 0.3244148 100 113 93
-0.117073998003252 0.0183960274346547 0.0431191308558933 -0.5903934 0.06651503 0.8043702 107 110 102
-0.00431750729585412 0.113284118521996 -0.0119713561474332 -0.3227529 0.8837046 0.3389643 183 184 184
0.00116039797758338 -0.0835794135443492 0.0588902516425601 0.2800026 -0.5168488 0.8089907 165 165 159
-0.124775990991838 0.041123338092156 -0.0380068437992581 -0.992226 0.02219678 -0.1224537 90 94 70
0.110199466199629 0.0438881591447072 0.00488731098780548 0.9544405 0.2900015 -0.07030276 185 186 181
-0.0338220448782516 -0.0759977623335643 0.0691250546039096 0.1057516 -0.4194195 0.9016118 183 184 175
-0.108017668276079 -0.0774933024756236 -0.0520135776936063 -0.9576232 -0.2777451 -0.07625826 113 107 102
0.0753049997994828 0.121778197635003 -0.0429385917126187 0.8339285 0.5335289 0.1411037 195 196 190
0.0735751537988114 0.124223299372979 -0.0424342470108517 0.8603587 0.4922765 0.1320867 198 197 190
-0.0202669949820113 -0.162444524418525 0.0275878889621249 0.1583868 -0.4315845 0.8880588 152 153 155
-0.0687720628073287 0.0668836310990529 0.0917760713160983 0.1011874 0.8403184 0.5325655 150 150 137
0.0630594639489579 0.145383603919335 -0.0602306740223416 0.8284774 0.5217609 0.2034472 209 209 206
0.0918156056115556 0.0872752741463857 -0.0200135426460751 0.8896135 0.4470951 -0.09324016 180 181 167
0.137305632085555 -0.0851104780546946 0.00369790030131256 0.70873 -0.3003394 0.6383557 142 138 122
0.136845961065047 -0.0550177618376536 -0.01056838201871 0.9574324 0.1525315 -0.2450659 197 195 185
0.0904061941811967 -0.110138468395881 -0.0718851702152737 0.1582488 -0.8067725 -0.5692763 103 99 68
-0.1042994113257 -0.123876444946937 0.0131487531722537 -0.7523734 -0.1326829 0.6452361 152 152 139
-0.0213724227240157 0.00818378483135274 0.082349805361127 0.2978251 -0.2528568 0.9205236 192 190 182
0.0387349276254105 0.0370998457558828 0.0699070377410403 0.2855487 -0.2302577 0.9302921 201 198 196
-0.127982840090044 -0.0311019345633311 0.0108672065795413 -0.9060352 -0.2831446 0.3145304 122 117 114
0.0882580427834916 0.0362707451470571 0.0570272786677829 0.1848698 -0.2462262 0.9514178 175 173 168
0.0493121294686722 -0.0247025414816661 0.050771413570737 0.2557217 -0.1642651 0.9526927 220 190 186
0.0156042723367142 0.136121399749108 -0.0622713582455167 -0.3577593 0.9165814 0.1785689 159 172 157
-0.0227386803915572 -0.160219781052284 -0.0111663656174191 0.188198 -0.7381821 -0.6478184 81 77 39
0.0318946985909867 0.141757316935845 -0.056780220740939 -0.3300627 0.9346961 0.1319157 172 177 170
0.0734671501824784 -0.136129431378059 -0.0389958338676938 0.3766733 -0.8185036 -0.4337846 101 94 62
0.0500751881310868 0.0552324131615834 0.0710800273478976 0.1984746 -0.2489668 0.9479575 180 179 178
-0.102069005518205 -0.0864317342154307 -0.0668252723156461 -0.3126682 -0.5923561 -0.7425314 114 117 77
-0.00770555451417687 0.0881491974480825 0.0668107254565707 0.05616182 0.8192535 0.5706747 132 135 123
-0.0461422057440353 0.109640009749718 -0.0304831283031949 -0.1355589 0.902728 0.4082964 156 158 159
0.0520097164819169 -0.0259222909323497 0.0498008413375369 0.3106869 -0.0713655 0.9478294 212 178 153
-0.0609423966696334 0.0463448837884145 0.102063683992719 0.253318 -0.2234826 0.9412149 180 180 175
0.117555513829939 -0.0624080821387095 -0.0726978199421414 0.9343413 0.06689207 -0.3500455 191 190 181
-0.0105434508612228 0.0406397656090932 0.0858457369864932 0.2225401 -0.2727305 0.9359989 192 190 185
-0.130862578897722 0.0131348446496206 0.0274101479114047 -0.9526657 0.1382843 0.2707498 124 125 111
-0.017704948930986 0.0913239792473989 0.053445426946973 -0.2590367 0.9470744 0.1896053 133 139 133
-0.133239135294206 0.0131612495072561 0.0202203376353732 -0.9518036 0.1216644 0.2815453 120 115 101
-0.102115735559709 -0.0851898118368907 0.0337747318805209 -0.7848579 -0.3116409 0.53561 124 124 118
-0.0762668700506759 -0.154264204155616 0.0147311372817508 0.1773939 0.1207102 0.976709 128 127 107
-0.0754670949270797 0.0649375990517812 0.0957493467391483 0.05095586 0.8734003 0.4843299 135 136 124
0.0906462816903519 0.10091937338192 0.052726386314725 0.7063588 0.7048264 -0.06539912 164 178 162
-0.0806759448340011 -0.0992658659331126 0.0438485724986545 -0.847259 -0.3289547 0.4170624 116 117 109
-0.101756438761003 0.00916839395839741 0.0720919950068942 -0.9538425 -0.07553002 0.2906539 100 97 86
0.125844374150984 -0.0523136779181285 -0.0443317310749539 0.9605122 0.2103836 -0.1820853 193 192 174
-0.121528729944475 0.0684902146943288 0.031658796793317 -0.8950992 0.1029754 0.4338128 115 120 109
-0.126581773309953 0.0379068330414968 0.0305547995627872 -0.878655 0.1486796 0.4537178 175 175 183
-0.0913501830389571 -0.0234596058241648 0.0934907777369968 -0.7025691 -0.557456 0.4423115 127 124 119
0.107874169797652 0.0549402311928945 0.0452975018084995 0.9044164 0.4179323 0.08581114 189 192 190
0.11524130389189 0.0287733749039846 0.0312448127330295 0.9452247 0.2676894 -0.1867958 176 176 164
0.105891480893843 0.0590955690034108 0.0533137602866641 0.9443315 0.3062398 -0.1202297 177 178 171
0.0116870550820756 0.131497867453881 -0.0483106391369351 -0.3583836 0.9075312 0.218971 137 143 144
-0.0415855498602462 0.0882862881310659 0.0492994470656863 -0.3649217 0.8956178 0.2543636 110 116 108
-0.0440970511725021 0.0932386592515188 0.0194543881476871 -0.1011246 0.9716972 0.2134909 142 143 143
0.0941586641976762 -0.0527071877829356 0.0340783579410068 0.3125259 0.04594036 0.9487977 162 161 156
-0.0957542510321212 -0.0043792053572459 0.0972995145381442 -0.9800302 -0.0519986 0.1919295 125 127 125
-0.104007110147722 0.0259213522561269 0.0731499774516574 -0.9618195 -0.2319898 0.1452035 98 99 86
-0.0424589963247848 0.0825420097001272 0.0633061809600345 -0.2468879 0.9299599 0.2724352 103 108 88
-0.118657812624223 -0.0204426571242137 0.0338207466662875 -0.475035 -0.1888038 0.8594736 131 133 130
0.124697819204085 -0.116455666672401 -0.0528875605999478 0.3340553 -0.8779415 -0.3429659 152 145 102
-0.0855353923132491 0.0649501756318288 0.0916991217196933 -0.2391981 0.9344738 0.2637102 147 152 139
-0.0342684836676193 0.107671864379235 -0.0207801775871762 -0.3354847 0.8828058 0.3287915 179 180 178
0.030664101094954 -0.156713299404792 -0.00208154487004364 0.2088976 -0.8717197 -0.4432456 105 101 68
0.0942218451211381 0.0840169266350942 -0.0104533748566159 0.8833205 0.4684048 0.01848654 187 190 184
0.116606965512984 -0.0364483519903941 -0.0608607249199399 0.9642701 0.2296548 -0.1320678 185 182 169
0.0680644659707474 0.102229960311242 0.0519903881610385 0.1533548 0.8659048 0.476121 143 151 145
-0.082522139101274 0.0247248486169057 0.103292523151731 0.2744842 -0.1960053 0.9414034 191 190 181
-0.129514083414323 0.0780345872529226 0.00980919433245575 -0.916409 0.274366 0.2914066 160 160 156
0.0214027313897538 -0.161213211666755 0.0248969180644504 0.005156575 -0.5175953 0.85561 179 179 173
-0.105861529855974 0.0441113189347463 0.0890350027144901 -0.9887899 -0.02066877 0.1478765 145 144 140
-0.0849366040518356 0.0812591985352712 0.0276887102187625 -0.0627032 0.9879572 0.141453 113 118 113
-0.116191730051286 -0.0700679942480845 0.0130445046485416 -0.9285917 -0.1714315 0.3291331 118 115 108
0.104713573903792 -0.134734444271736 -0.0205271856724271 0.2160577 -0.8723359 -0.4385763 130 120 92
-0.0664325804998946 -0.139216415535621 -0.0406057851253995 -0.03224818 -0.5980002 -0.800847 98 96 58
-0.0344952197363448 0.0877724364884572 0.0553621335090152 -0.1935697 0.9496241 0.2464647 113 117 103
-0.118972882776506 -0.0657243653647227 0.00944122505793488 -0.8640712 -0.2229204 0.4513175 132 116 119
0.070861592740767 0.130939729560204 -0.052933545583392 0.8820163 0.4673433 0.06031202 205 207 203
-0.0984656663229537 0.0650088266022878 0.0857997222007266 -0.1951235 0.9005071 0.388605 187 193 198
0.121090426892989 -0.0120859071127696 -0.0282320396839627 0.9695491 0.1695156 -0.1767455 193 192 183
0.107949510068648 -0.108968310009651 -0.0654453055798062 0.2593722 -0.665989 -0.6994174 100 97 60
-0.118460402040727 -0.0466251894346995 0.0250962359965793 -0.9538425 -0.262997 0.1449725 112 108 101
-0.0691664071371627 -0.15153663600605 0.0194230361045352 -0.9111486 -0.225119 0.3451517 111 114 101
-0.121464714555986 0.0363212302811818 0.0456517322123996 -0.9370677 0.1394867 0.3200743 143 146 134
-0.105812296419389 0.00720626865703633 0.0614892227710239 -0.8921897 0.05002974 0.4488814 112 115 106
0.103016748876326 0.0694407895692067 0.0502424223483554 0.9016782 0.3772947 -0.2112468 173 174 170
-0.00321100667024377 0.0140923336632924 0.0786928517879001 0.3429168 -0.155473 0.9264104 186 183 174
-0.104841217546709 0.0357033685334401 0.091365633732175 -0.9925212 -0.1191216 0.02667822 86 86 70
0.0734863428780961 0.126617558348961 0.00392132831225311 0.7469704 0.5424814 0.3843816 145 140 144
-0.027566895036943 -0.118901781689338 0.0498974306643954 0.1050224 -0.435545 0.8940195 171 171 157
-0.119738921671159 0.0847226456292348 0.0033587200702182 -0.07929558 0.8542811 0.5137276 167 172 168
-0.0082281680395675 0.129316993106194 -0.0581774430214413 -0.2742933 0.9358085 0.2214171 100 102 98
0.0272010712335038 0.104630298960991 0.0494144542277805 -0.5044816 0.6353818 0.5846267 137 135 133
0.119767203778975 0.0122866705544667 0.0253415687144748 0.9745336 0.2113629 -0.07490026 177 179 169
-0.112954482584245 -0.0685081406943125 0.0258169157565585 -0.9694334 -0.08848456 0.2288434 122 122 108
0.0395320801446366 0.122854180682488 0.024908421760892 -0.3435636 0.8956814 0.2823451 122 126 104
0.0093640236565995 0.080956466544457 0.0854921026290408 -0.2698428 0.7024325 0.6586149 130 135 120
-0.0544129462530685 -0.171547107350044 -0.00461608337750519 -0.07425731 -0.872785 -0.4824232 85 81 39
0.104583754987471 -0.1257769390456 -0.0405214445530423 0.3177911 -0.8834627 -0.3442418 120 116 76
-0.0216057153036666 0.0787105635293203 0.0855850560725681 -0.261702 0.7427619 0.6162928 145 147 140
-0.033313736467607 0.069379694808312 0.0931212587417117 -0.2584166 0.8682934 0.4234235 120 123 115
-0.0648685546209884 0.0611001924164968 0.101272938972806 0.1842303 0.9103131 0.3706607 135 137 127
-0.01771448567415 0.101359553683587 0.00961121750483429 -0.3111216 0.9273319 0.207988 128 130 124
-0.0884997697165084 -0.100158564697914 0.0339127464354984 -0.7008093 -0.1931237 0.6867092 135 141 141
-0.0769370646765304 -0.0978421493880076 0.0579702837527744 -0.8784261 -0.4466434 0.1699329 121 113 106
0.0582037119576859 0.0266840532906728 0.0627771897376529 0.2318801 -0.2692133 0.9347491 243 189 173
-0.0955664964010787 0.0640396550782399 0.0897025747359744 -0.1607089 0.9130243 0.3749124 149 154 146
-0.0383483023932052 0.0703823641427236 0.0909056348861209 -0.198276 0.8079396 0.5549055 141 136 142
0.103125110120528 0.0580951646455007 -0.0365348772942075 0.9665246 0.2300802 -0.1135487 217 213 212
-0.0942375512411666 0.0562439635880666 0.107943682199811 -0.2755789 0.8077171 0.5211999 163 167 166
-0.108221992998369 -0.074466638218574 -0.0502656118809232 -0.9905707 -0.1161816 -0.07260571 111 106 94
-0.0359660239508224 -0.000174097668342088 0.0852017386020175 0.3381107 -0.210101 0.9173542 196 193 188
0.0189060120294022 -0.104083888184242 0.0472064895690433 0.2303911 -0.2605205 0.9375762 171 170 167
-0.123102530985124 0.020530588973351 0.0427905602515689 -0.2261093 -0.2490542 0.9417253 111 107 101
0.0301170496652055 -0.0520687624327464 0.0569506270946017 0.3304442 0.03959697 0.9429945 174 170 157
-0.117684230356462 -0.0373788997046275 0.0334067626060001 -0.5550842 0.0227525 0.8314829 156 151 146
0.0222020296761918 -0.0788513347021861 0.0538993461192599 0.240923 -0.4179628 0.8759356 149 145 130
-0.0239847750952316 -0.14626901591938 0.0366497023166171 0.111388 -0.3800043 0.9182535 190 188 186
-0.0330966563513351 -0.147116534363441 -0.0348559038578519 0.02235898 -0.6850613 -0.7281423 94 87 48
-0.0667064042379928 0.0927956179269033 0.00145885182032501 -0.3076743 0.9407244 0.1427379 156 157 147
-0.0990289302160812 -0.0489957257620616 0.0576482696593753 -0.9330894 0.130444 0.3351545 135 133 124
-0.0684466214468551 0.0863782242425161 0.0195935053885928 -0.250691 0.9230285 0.2918429 139 138 139
-0.0767916293432784 0.0660926178582387 0.0935965759814731 -0.06341987 0.888805 0.4538762 112 116 102
-0.0756341071417403 0.0871463492997365 0.0132879002154819 -0.2726317 0.9324894 0.2369294 121 127 117
0.0104068665215897 0.115780361045189 -0.000785918706560973 -0.3424601 0.8866167 0.3108567 197 197 195
0.0665797142693925 0.100692637313195 0.0579012913764468 0.1165644 0.9352946 0.3341207 134 141 132
-0.124927386789567 0.0184778646119313 -0.0396398024498471 -0.9205616 0.261289 -0.2903352 119 114 89
0.135498896093123 -0.111664943348579 -0.0425377504765042 0.9695784 0.09705915 -0.2247156 166 161 130
-0.0489988179495406 -0.0513349100462718 0.0808624906600467 0.2337608 -0.3215557 0.9175826 189 188 182
-0.0207313151648116 0.100750573027916 0.00744485688815033 -0.3476352 0.9074461 0.2359898 152 154 148
0.0499169974038529 0.0962249115594106 0.0674000961841098 0.2416971 0.9224684 0.3010558 151 160 151
0.0282080321023392 0.121371395934411 0.00946599078783905 -0.5233323 0.7994282 0.2950218 149 156 145
-0.123760327844865 0.0454948023446279 0.0355963094295016 -0.9168301 0.08352461 0.3904436 139 140 127
0.139275207967513 -0.0948452874533458 -0.0242301242290982 0.9498671 0.09486231 -0.2979153 184 183 150
-0.0588503928473068 0.0637272671349721 0.0987254662574283 -0.1379143 0.8872059 0.4402787 107 108 101
0.0468087343881058 -0.140184812199287 -0.0419397668777951 0.04482439 -0.7907403 -0.6105084 101 101 72
-0.100062832384355 -0.0799170061461253 0.0376386625827304 -0.1064648 -0.4641804 0.879319 152 151 141
0.0777976660439896 0.102640874732323 0.0494374318183414 0.00935942 0.907118 0.4207723 160 162 153
0.12041343733763 0.0111799315102773 0.0161570890010349 0.9714362 0.223697 0.07919183 183 190 176
-0.0742349477102828 0.067434258807488 0.0929755849898807 0.001004252 0.8700184 0.4930182 112 115 105
-0.0673048348715377 -0.0344431921355052 0.0887896699965945 0.1040347 -0.4747497 0.8739505 160 159 153
0.0994898228356766 0.0750136450417714 0.0198830349505893 0.9347486 0.3380142 -0.1095056 211 213 207
0.0491064934441972 0.141602523673363 -0.0278180258213528 -0.1987112 0.9729823 0.1175557 213 213 207
0.123047605008833 -0.00413470710437724 0.0115309042991153 0.9757309 0.2189636 0.002032003 185 182 159
-0.0292135329535079 0.109632737983056 -0.0229789333282956 -0.3116757 0.8869519 0.340844 202 202 202
-0.00403712704683068 0.103711493361779 0.0192013962329379 -0.3174508 0.9117289 0.2607209 139 145 142
-0.113343820123918 0.092532165396996 -0.0104035453735837 -0.455917 0.8555275 0.2453821 127 133 122
-0.0888656230261398 -0.147528640877418 0.0180430693686954 0.02267539 -0.3056178 0.9518842 160 161 160
0.00269760176634071 -0.109252087723426 0.0501964373649112 0.2408923 -0.4206761 0.8746443 181 178 173
-0.103679284601457 0.0801782683022695 0.0235054476321689 -0.146544 0.9672651 0.2071787 130 137 129
-0.0801436753561569 0.0787279680855947 0.0418859405578128 -0.136966 0.9638754 0.2284394 169 174 172
-0.105013713388689 0.0809479430802541 0.0194345398009769 -0.1694616 0.9513476 0.2573334 139 148 140
0.0128019003579545 0.086419113028832 0.0741466267169467 -0.3493716 0.8625578 0.3659692 165 163 154
-0.00941537335420373 -0.148647181641273 -0.0269900577007779 0.1401442 -0.9117682 -0.3860549 90 89 50
-0.031746730356462 0.0996826962121206 0.00325763059267914 -0.1385736 0.9181568 0.3711946 123 124 109
-0.0745909066488815 0.0189648345597463 0.100266454941129 0.231145 -0.1971198 0.9527412 197 193 190
-0.0287427754690719 -0.0231842919699473 0.0807923955977908 0.3627469 -0.100186 0.9264866 195 193 187
0.0451699642846513 0.148861475337334 -0.0607258098064908 -0.3979398 0.8761906 0.271908 205 208 208
0.0462530998895097 -0.0709749981276316 0.0520287139476291 0.3578532 -0.09016342 0.9294147 201 200 201
0.0336073784539628 0.0935559347756582 0.0702060444415561 -0.1699362 0.799233 0.5764966 173 181 178
-0.0155424924185348 -0.0899193807951731 0.0601782186091891 0.2573208 -0.4142544 0.8730288 160 160 156
-0.0690902324011398 -0.155616693150215 -0.0253800766407498 0.04740087 -0.6173496 -0.7852597 81 78 14
0.134502544851058 -0.120092563282661 -0.00178256797185028 0.6498212 -0.4193224 0.6339568 190 186 180
-0.0229225011160445 -0.00522892917316387 0.0798620266974918 0.2680418 -0.05660148 0.9617431 192 190 184
0.00145448729490516 0.0971963480599599 0.0457299037040225 -0.2366657 0.9137995 0.3300906 150 150 134
-0.0498305411627364 0.0659022406228261 0.0919268114627353 -0.07775886 0.8958715 0.4374561 120 124 106
0.0873215346047806 -0.149859122883491 0.0157890899241916 0.4056816 -0.3572066 0.8413239 139 142 118
0.11294843241667 -0.0313708111159129 0.0308921320498935 0.2803035 -0.1669075 0.9452893 176 177 168
-0.0739275069525314 -0.114464394699745 -0.0508175806938657 0.1494687 -0.3680434 -0.9177163 117 109 86
-0.00585089638734582 0.12938971077282 -0.0625205354630002 -0.2519225 0.9420777 0.2214151 140 145 142
-0.000926956682450797 0.105457253802605 0.0184570534289829 -0.2341695 0.8876003 0.3966489 98 103 83
0.118253961057417 -0.0220879241339488 -0.0387658195435056 0.865348 0.3542306 -0.3545328 182 181 168
0.063261642904036 -0.131416313301734 -0.0535775439678677 0.1965311 -0.8847453 -0.4226124 93 86 50
0.0510935930917191 -0.110965840470008 0.0429860634864322 0.02762053 -0.4169308 0.9085184 186 184 180
-0.0400926919272018 0.0866603926308828 0.0554403348029605 -0.2457085 0.916609 0.3153653 109 106 103
-0.127809509783037 0.07867348944027 0.0138264877856723 -0.7881294 0.4962263 0.3641588 148 154 140
-0.124325975923784 0.0203549936898427 -0.0416637675701627 -0.9338412 0.2805744 -0.2218529 119 116 96
0.107674255819075 0.0460669473298269 -0.016655595773364 0.9210651 0.3885531 -0.02579907 184 185 175
0.12050630137419 -0.122051767956428 0.00622129274020111 0.4608356 -0.5187262 0.7201068 159 153 137
-0.0994014592459274 0.0828650668748098 0.0143171532214633 -0.1384875 0.9232497 0.358373 93 100 77
-0.08823929741884 0.0833482817300039 0.0192602558196536 -0.147685 0.9554648 0.2554918 142 148 148
0.0495904831597733 0.0156067088731008 0.0628001673282138 0.2663814 -0.2270935 0.9367334 197 197 189
0.0391912607858109 0.101586289752312 0.0601552410186282 -0.3347829 0.8009147 0.4964434 157 163 145
0.0685771851251054 0.135524459231682 0.000816403156613466 0.4747319 0.8069446 0.3513831 183 180 178
-0.101266726999528 0.0767428949959951 0.0452847464145175 -0.1108393 0.9687194 0.22203 169 170 167
-0.10828541234041 0.0411566570885854 0.0611672086776248 -0.9729879 -0.05128258 0.2250879 101 99 93
-0.0675314517309737 0.0984348729737478 -0.012185426229144 -0.2659901 0.837301 0.4776781 155 161 152
0.116249337644331 -0.0199111029021067 -0.0429862456261166 0.9156474 0.302549 -0.2646771 183 181 173
-0.104477390795 0.0276720598824697 0.0741159601272098 -0.95918 -0.2520975 0.128143 103 100 87
-0.0983970017721725 0.0727734640725332 0.0706200285018436 -0.2479135 0.9008841 0.3562959 127 128 108
-0.109562382250078 -0.108175687443428 -0.00274852084508026 -0.9641051 -0.2564797 -0.06869912 89 93 66
0.0445206312844681 0.114481635440178 0.0373205227912418 0.4445694 0.7697881 0.4580222 150 152 142
-0.000817045717484977 -0.146682254921607 0.0331307632983676 0.1085648 -0.3985139 0.9107142 188 186 180
-0.0120791049292159 -0.140617422711067 -0.0418477671085843 -0.09828674 -0.6427937 -0.7597078 100 98 42
-0.112259134798296 -0.0770175978056712 -0.0263920741020688 -0.9430295 -0.00309039 -0.3326949 126 122 89
-0.0747449250509811 -0.116783253800086 0.0463784916461459 -0.9154946 -0.1652665 0.3668195 130 129 124
-0.0538164229681564 0.043324299205132 0.0995856506885043 0.2798842 -0.2114548 0.936457 181 181 175
-0.0869816394140792 0.0961535051949697 -0.0123508589207181 -0.09952191 0.9418036 0.3210941 146 151 145
-0.0682015271475387 -0.00612001861255596 0.0953031463683597 0.2266713 -0.0971875 0.9691103 190 189 184
-0.0788758845617843 0.0674882606156545 0.0877275152266971 -0.2295372 0.9357923 0.2675921 180 182 177
-0.0999544711401534 0.0777302459366994 0.0432459695399753 -0.06216073 0.9865158 0.1514019 177 179 176
0.141972437352889 -0.0901700779310984 -0.0126268284260281 0.9770849 0.2011096 -0.06971373 193 191 180
-0.10187123730684 0.0187468603738027 0.0832237882674686 -0.9572637 -0.2871408 0.03458825 122 120 106
0.113828435392134 -0.117237679611854 0.0152555091441623 0.3074271 -0.4866198 0.8177345 164 161 146
0.0257316975305009 0.12812519823391 -0.0125529186665067 -0.4592473 0.836982 0.2975787 139 147 148
-0.0858563037207198 -0.0231838747374339 0.0989370627463809 -0.182278 -0.407034 0.8950408 174 175 172
-0.0302281232168746 0.0316562727578359 0.0904916508258334 0.310586 -0.2407578 0.9195499 179 173 171
0.0876672415444779 0.0907654837258535 -0.0744151191650876 0.9460454 0.2938692 -0.1365246 180 175 169
-0.0937582106878829 0.073436923373528 0.0657563788951389 -0.216153 0.9508784 0.2216033 132 139 131
-0.0394884200384689 0.0925440267213063 0.0277833623946658 -0.1735782 0.981477 0.08107691 143 147 140
-0.128286466150529 0.0130340531953054 0.0370866937697879 -0.8441108 0.1404894 0.5174356 103 108 81
0.0878234057137894 0.0912808254845815 0.0724139792979709 0.05890943 -0.1005388 0.9931876 167 160 159
-0.0377048106482101 0.120169170249291 -0.0596034245430478 -0.2316237 0.9724785 -0.0252185 189 190 192
0.0235726980874467 -0.100654058109931 0.0472984893382541 0.2849385 -0.2232399 0.9321877 165 159 152
0.05292440936064 0.095043368686028 0.0732586963237277 0.1373208 0.9119415 0.3866597 145 146 141
-0.0365795941641403 0.0930831507332998 0.0356276018680087 -0.1842708 0.974189 0.1303841 132 137 130
-0.0439421983053756 0.11299634729702 -0.0385785417496213 -0.1471983 0.9216074 0.3591275 164 168 167
-0.0312641711523605 0.093916602481194 0.0356481654704562 -0.1772834 0.9775622 0.1137664 146 149 145
0.0648467688271928 0.114829905379601 0.0276062769950381 0.08514656 0.8693991 0.4867189 158 165 153
-0.0770343394568038 0.086485452998467 0.0121091885627261 -0.2470626 0.9295943 0.2735223 151 161 160
-0.0980466456701827 -0.0104553028456492 0.0871613009036533 -0.9816152 -0.06759239 0.1785016 102 103 95
0.0147478728005814 -0.0560321136824412 0.0647689385474673 0.4231691 0.2102333 0.8813228 166 165 159
0.00274814650511024 0.127658672679253 -0.0448653118549832 -0.3250259 0.8930135 0.3112638 152 163 153
-0.12975369408632 0.049478240359612 0.0157890899241916 -0.9490271 0.1652041 0.2684309 93 98 77
-0.130777821092851 0.0687511638291555 -0.0138343291222104 -0.9813595 -0.1916371 -0.01444793 106 98 75
-0.0713122935583663 0.102826006758996 -0.0228593366085538 0.07392796 0.8963321 0.4371766 162 166 155
0.0259469895074296 0.123222477782555 -0.000455142730379943 -0.4889514 0.8096919 0.3245389 180 184 176
-0.0826823563864303 -0.07955884183567 0.0709765238822452 -0.8710276 -0.3894685 0.2993746 122 122 113
0.102639213056319 0.0700109079964834 0.0483564717830173 0.8818088 0.4374438 -0.1762276 162 169 156
-0.0200801940252853 0.118097432006188 -0.0404657142101773 -0.3047547 0.9185029 0.2519464 147 151 149
-0.110456809549577 -0.0609534903876109 0.0390186591208926 -0.863677 -0.1503056 0.4811136 114 117 92
0.0925767569253373 0.0922175720818715 0.045550523525571 0.9447774 0.3213674 -0.06417789 173 179 167
0.0343573240945267 -0.0458576604239268 0.0543823523581973 0.3818984 0.0665461 0.9218054 172 169 160
0.116940036267989 -0.0296096130720896 0.0297344906390659 0.3625869 -0.141235 0.9211859 173 173 166
0.109613671750777 0.0440012291558461 -0.00448116826405609 0.9249035 0.3799848 0.01284615 171 171 160
-0.0246592612555099 0.107572086203881 -0.0111893730103024 -0.2217714 0.8710736 0.438233 108 109 105
0.105314746350996 -0.00549959386508891 -0.0747371332584866 0.8673051 0.115531 -0.4841844 200 196 192
-0.132224902658708 0.0363577083237844 0.000103412395810243 -0.9543188 0.2451685 -0.1707864 83 87 59
-0.101630196123369 0.00599909578640034 0.0722070021689883 -0.9578599 -0.08955081 0.2729194 109 109 99
-0.0855637641241622 0.0946017578728872 -0.00825119184842193 -0.1341662 0.9024572 0.4093537 148 151 149
-0.0996389241507125 -0.142294637810401 0.0147924406589023 -0.5167047 -0.3092806 0.7983494 159 160 158
-0.0108255000402999 -0.100579075466804 -0.0533015446602353 0.1972129 -0.8136209 -0.546926 84 90 42
-0.0692369790365768 0.102320440162011 -0.022360237115527 -0.03651568 0.926335 0.3749269 184 187 183
-0.0885315985968185 0.107527382720299 -0.0343499200283536 0.04907116 0.9419876 0.3320411 205 206 205
-0.0848800988485885 -0.0775247141234202 0.0662501139701358 -0.8629656 -0.4299421 0.2654055 127 127 118
-0.0712746234228683 -0.16386573756855 -0.0126383321224698 -0.2908884 -0.8592468 -0.4208074 87 86 48
0.011914625615828 -0.0976115390173716 0.050426421886777 0.342383 -0.1983458 0.918386 179 173 166
-0.131197557001359 -0.0100731178633494 0.0230109674991122 -0.901492 -0.3750097 0.2160555 121 123 117
-0.128485068826921 0.0313246921189504 -0.0304553227364072 -0.9587834 0.225208 -0.1732506 91 93 67
0.0444157271096635 -0.153162710320167 -0.00454250144352997 0.1367016 -0.9389052 -0.3158635 92 90 51
-0.103236779718645 0.0886401609070974 0.00235736203799164 -0.2436247 0.8453532 0.4754208 161 160 165
0.0185971407601762 -0.117847017895393 0.0431585891307346 0.1503965 -0.3296777 0.9320373 173 173 163
-0.130231008081682 0.0915026739724355 -0.0183652357994565 -0.1893933 0.8401781 0.5081642 147 151 153
0.0744555144021439 -0.113057188641242 0.0356607122481815 0.4681938 -0.2697537 0.8414437 171 167 150
-0.0343358369162154 -0.16366928065937 0.0297651572288028 0.1324667 -0.3912098 0.9107181 180 177 174
0.100016489476912 0.0713432506211477 -0.00794643329968536 0.9044551 0.4262635 0.0161347 184 186 181
