ply
format ascii 1.0
comment File exported by Rhinoceros Version 7.0
element vertex 461
property float x
property float y
property float z
property float nx
property float ny
property float nz
property uchar red
property uchar green
property uchar blue
end_header
-0.0566455335366047 -0.0476637095613948 -0.0469638031803319 5.787059E-05 -0.5829734 -0.8124912 108 121 102
-0.0537567413421787 -0.0470576495333186 -0.047448627360935 0.1967708 -0.4012325 -0.8945914 166 166 150
-0.0505447271289743 -0.0431992024584285 -0.0473274213157842 0.2130592 -0.7356063 0.6430313 154 156 145
-0.0548274121256984 -0.0410780817671291 -0.0480546724878499 -0.103807 -0.7093984 0.6971213 184 188 181
-0.0574535871865667 -0.0386539012594692 -0.0446204465709875 -0.1425026 -0.8099865 0.5688716 186 188 188
-0.0468680816712297 -0.0426941723032466 -0.0484990996204565 0.123564 -0.2946709 -0.9475764 151 160 123
-0.0464236508133329 -0.0423709661169521 -0.0487819236599157 0.1612996 -0.2315782 -0.9593508 154 170 135
-0.0436358652087367 -0.0470980614824764 -0.0469234061323354 -0.01164174 -0.4476315 -0.8941423 166 170 164
-0.0435415930124439 -0.0463304132624141 -0.046694449790592 -0.020672 -0.4308971 -0.9021642 130 139 126
0.00706951366639963 -0.0343712181253902 -0.00340969831573462 0.1982626 -0.6172002 0.761417 201 205 217
-0.0405248585166849 -0.0454011470480434 -0.0461153459631155 0.006541905 -0.3918018 -0.9200264 166 165 176
-0.0450903619649328 -0.0417649060888759 -0.0481758785330007 0.1135104 -0.1041566 -0.9880621 125 130 93
-0.0446459329696811 -0.0403912276430599 -0.046155743011112 -0.1914095 0.006931933 -0.9814858 190 185 192
-0.0128692160370267 0.0510400920705327 0.0640830046601346 0.02259605 -0.5789772 0.8150306 170 176 185
-0.00693001551651129 0.0240207701520451 0.0454573634184649 0.04404723 -0.5896264 0.8064741 161 169 177
0.0549790342328631 -0.0278986901445857 0.00724045216215158 -0.05366307 -0.5832686 0.8105047 187 193 199
0.017695427405604 -0.0398659915132991 0.00180225103271509 0.1262493 -0.6113002 0.7812638 201 206 217
-0.0390703617604888 -0.0371590167685024 -0.0462365520082662 0.2578708 0.1495816 -0.9545302 179 177 167
0.0348261673925006 0.058218279440833 0.05513380869401 0.8147165 0.2977489 0.4975768 131 131 126
-0.0571303651677884 -0.0466940313978664 -0.0411054116569707 0.6525307 -0.4049227 0.6405008 185 188 192
-0.058544460219375 -0.0458051771326534 -0.0404185724340627 0.6771039 -0.5897031 0.4402052 189 190 186
-0.0505851297649063 -0.0441486746473781 -0.0403377634369085 -0.7713655 -0.6102303 0.1805941 193 192 191
-0.0572111713709749 -0.0401891976995937 -0.042681120046253 -0.0623831 -0.9924613 -0.1054933 197 199 194
-0.0560798957022346 -0.0401488155527583 -0.0418528539024541 -0.3080615 -0.9497595 -0.05527179 203 200 202
-0.0544637874709881 -0.0418053180380336 -0.0417114567838857 -0.1130042 -0.9850797 0.1298001 200 192 194
-0.0534537206413663 -0.0409972578688136 -0.041671044834728 -0.04167594 -0.966454 0.2534358 187 192 194
-0.0517568080695785 -0.0394619614286891 -0.0414286327444265 -0.01981926 -0.9798509 0.1987447 203 190 196
-0.0534739228906549 -0.0443910867376796 -0.0334895026766012 -0.2450504 -0.417648 -0.8749402 191 192 194
-0.0583828487443245 -0.0399064034624568 -0.035489432223911 0.2569374 -0.8772398 -0.4055042 188 190 186
-0.0551910358490861 -0.0397178441687099 -0.0347891223512838 0.3018783 -0.9342443 -0.1898867 186 188 188
-0.0519184186133064 -0.0408356398745052 -0.0375499796949575 -0.1471374 -0.9747415 0.1680164 198 194 198
-0.0525648607882179 -0.0405124336882106 -0.0373075527034948 0.3805277 -0.9127927 -0.1483511 181 187 176
-0.0777626750069178 -0.0558115750952236 -0.00332216144430136 -0.09174893 -0.4471563 0.8897378 188 194 202
-0.0513527798476137 -0.0380882531805507 -0.0350450050913045 0.1949251 -0.9469066 -0.2556797 203 204 199
-0.0443833167674459 -0.0453809708757869 -0.0332470905862997 0.8573483 0.03104303 -0.5137998 183 188 187
-0.0437166704806007 -0.0430982023878566 -0.0340753418289373 0.7828407 0.1626742 -0.600581 198 202 201
0.00851391302324167 0.056312659342719 0.0662950522370389 0.04412973 -0.5538729 0.8314309 173 180 187
-0.0434338520290769 -0.042148730198907 -0.0338733267866323 0.7304271 0.1406133 -0.6683593 192 195 195
-0.04799935733997 -0.0418457001848689 -0.036297492393131 0.5298219 0.1971119 -0.8248852 194 193 196
-0.0488478126945413 -0.0376034289999477 -0.0353278291307638 -0.0563417 -0.9727436 -0.2249345 198 199 197
-0.0464034485640443 -0.0400679916544429 -0.0336511057697484 -0.006385382 -0.6183776 -0.7858552 196 193 198
-0.0413733138712562 -0.0404720217390529 -0.0341561508260915 -0.6629324 -0.5588238 -0.4982335 199 199 199
-0.0414945236416973 -0.0416841119928829 -0.0335501056991765 -0.768771 -0.6394941 -0.006198907 190 196 196
-0.0526456660600818 -0.0370781928701869 -0.0354490351759145 0.1764967 -0.962746 -0.2048636 185 186 186
-0.0498174778195537 -0.0355024844809047 -0.0362570804439733 -0.03115244 -0.9971132 -0.06924468 192 191 195
-0.0769074843274868 -0.0677842706842891 -0.0290654075227926 0.8410308 -0.5375507 0.06088056 195 198 199
-0.0785639951946653 -0.0645924419565669 -0.028923995503063 -0.07610038 -0.1690358 -0.9826676 189 191 192
0.0671011884687029 -0.0416975826426021 -0.00285079301225638 0.2684619 -0.5868041 0.76393 178 184 192
-0.0726247988651014 -0.0639661759539119 -0.0275099051080892 0.6934153 -0.4470001 -0.5651248 195 194 196
-0.0757560078064419 -0.0631379396124355 -0.0326208394848058 0.9917136 -0.1282351 0.007730941 185 193 193
-0.0766044645579971 -0.058208814303445 -0.0309239325009534 0.3229539 -0.40004 -0.8577114 186 190 188
-0.0749883567924119 -0.0628551155729762 -0.0317319852195928 0.7700444 -0.2851975 -0.5706961 185 190 192
-0.0746449339213289 -0.0619864672823421 -0.0312673521124074 0.4396127 -0.44459 -0.780436 191 194 197
-0.07268540305183 -0.0605521709127895 -0.0303178948246191 0.6474606 -0.4657869 -0.6031892 194 198 195
-0.0792710422547973 -0.0680670649214259 -0.0242170837603757 0.9253036 -0.05027961 -0.3758794 188 188 191
-0.0728874164643205 -0.0677842408819667 -0.022802993365402 0.8702636 -0.4824796 0.09927075 188 190 198
-0.0711298992401428 -0.063602587620782 -0.025247357495899 0.6397573 -0.7324743 0.2327916 192 195 193
-0.0188286113562501 0.0533026247815617 0.0660829379327347 0.05562185 -0.5587822 0.8274471 167 173 179
-0.0703016440393842 -0.0639863819284908 -0.0227221843682477 0.4391052 -0.8965752 -0.05778959 192 195 201
-0.0740994974049247 -0.060471347014474 -0.0274088975869367 0.653527 -0.4816274 -0.5838985 194 195 196
-0.0729278191002525 -0.0618046433134548 -0.0235302370868871 0.7838324 -0.6177507 0.06317262 181 184 188
-0.070018825151303 -0.0630571455164424 -0.02429789275753 0.2227533 -0.9407086 -0.2558285 195 201 200
-0.0653725154707647 -0.0673802107973567 -0.0311259475432584 -0.3344072 0.7711017 -0.5418247 192 192 194
-0.0686451335214517 -0.0634207636518947 -0.0278129276715467 -0.144864 0.4624368 -0.874738 181 183 191
0.0583809395310961 -0.0421689361734859 -0.0194899660431097 -0.3685786 -0.3466478 -0.8625457 175 176 181
-0.059958554339639 -0.0670974165602199 -0.031610779174442 -0.5900002 0.5284818 -0.6104152 170 189 186
-0.0678370796386591 -0.0614410251780025 -0.0295098346553991 0.2152862 -0.2963019 -0.9305144 193 200 198
-0.0648876829082585 -0.059097668568658 -0.0278533247195432 0.06641949 -0.3266073 -0.9428235 193 187 199
-0.0597969437959112 -0.0632187337084285 -0.0305199024163434 -0.6519505 0.3903857 -0.6500458 195 199 199
-0.0597161375927246 -0.0589360505743495 -0.0324592363916585 -0.7635615 -0.1459681 -0.6290209 188 192 192
-0.0638978169309414 -0.0612188190622798 -0.029227025517101 -0.3788296 0.05261876 -0.9239694 183 186 190
-0.0630695614973522 -0.0632591456575862 -0.0284997668944547 -0.3957736 0.1176457 -0.9107814 168 183 179
-0.0596959362747587 -0.0622288793726436 -0.0287623924099157 -0.728885 -0.5626546 -0.3900595 197 200 202
-0.0628271456817604 -0.0580876082582942 -0.0269914043031881 -0.4134328 0.4585826 -0.7866227 185 190 192
-0.0663421798972852 -0.0670570046110622 -0.0271664780460546 -0.07949043 0.3892658 -0.9176891 184 186 192
-0.0651098978715456 -0.0675620049639217 -0.0222777497850606 -0.4851761 -0.6399223 -0.5959057 207 209 213
-0.0650896965535797 -0.063784381787347 -0.0227625888668249 -0.7302346 -0.593735 -0.3379885 197 201 208
-0.0620190915661372 -0.0673802107973567 -0.0264392343245695 -0.8107501 0.5212991 -0.2663299 192 191 196
-0.0609686211692608 -0.0657237083120815 -0.0259139981948087 0.3932665 -0.9182216 -0.04701634 194 200 199
0.0403276686546885 -0.0294420928163997 0.00712193577659631 0.04409581 -0.6497726 0.7588485 210 194 185
-0.0663017772613532 -0.0618046433134548 -0.0261564102851102 -0.2052407 -0.3510899 -0.9135711 199 198 196
-0.0688875496862895 -0.0602693468733302 -0.0263988298259923 0.3291251 -0.9268106 -0.180828 192 192 189
-0.0686451335214517 -0.060794583003091 -0.0242574882589529 0.4863625 -0.8703641 0.07692753 195 192 194
-0.0690895631860915 -0.0628147036238185 -0.0225201693259428 0.3579623 -0.9309053 -0.0726525 194 196 199
0.00706951366639963 -0.0327147156401149 -0.0463173610054204 0.02939839 0.3737182 -0.9270763 189 192 192
-0.0658573475676096 -0.0625319093866817 -0.0242574882589529 0.1867308 -0.9785292 -0.08724746 186 190 189
-0.0642008371660925 -0.0603501409693233 -0.0261160132371137 -0.4993886 0.06557275 -0.8638931 189 188 192
-0.0638372129770435 -0.0606733769579402 -0.0243382898055265 0.6391007 -0.75606 0.1411507 186 192 193
-0.0622211052114583 -0.059178462664651 -0.0240150687180707 0.2281212 -0.7917542 0.5666445 192 195 198
-0.0778569481345333 -0.0555422217054836 -0.0326612514339635 0.5429438 -0.5084237 -0.6683692 199 201 201
-0.0758772157142378 -0.0579664022131435 -0.0303178948246191 0.4610091 -0.5029336 -0.7311144 193 194 197
-0.0715541276159204 -0.053037276904153 -0.0322976258479307 0.2281772 -0.4882625 -0.842339 188 191 197
-0.0157580073001302 0.050676444132758 0.0640628042734911 0.07735407 -0.532703 0.8427597 164 174 181
-0.0703016440393842 -0.0576027542753688 -0.029671445199127 0.3904876 -0.5775732 -0.7168881 192 196 200
-0.0686451335214517 -0.0555018395586482 -0.0324592363916585 0.9102823 -0.3278678 -0.2527624 185 190 192
-0.0675946634738214 -0.0546533674402706 -0.0322168168507764 0.7479935 -0.5552748 -0.3635596 182 186 186
-0.0465448605837739 -0.0319672435923091 0.0106100368417552 0.07409262 -0.5482867 0.8330018 181 188 195
-0.0664633880379117 -0.054107925335931 -0.0312471535884092 0.5304586 -0.507811 -0.6787796 186 189 189
-0.0620998968380011 -0.056592693965005 -0.0276109126292417 -0.8056709 0.06398802 -0.5888973 183 190 191
-0.0699784224571633 -0.05134036246972 -0.0320956108056257 0.4532628 -0.05400359 -0.8897395 189 188 192
-0.0667058040863342 -0.0515827745600215 -0.0302370858274648 0.6169076 -0.1315459 -0.7759644 183 187 190
0.01694797770954 -0.0397346824808589 -0.052084840544338 0.1663595 -0.7641535 -0.6232126 159 165 142
-0.0654533202769674 -0.049077829758691 -0.0316309851490209 0.3544713 -0.131839 -0.925726 188 189 195
-0.0659381530723042 -0.0478657097025386 -0.0311259400926778 0.3551965 -0.1940649 -0.9144257 192 195 196
-0.0609686211692608 -0.0515827745600215 -0.0323784273945043 -0.3221213 -0.8779147 -0.354265 192 194 195
-0.061817077920816 -0.050047478119897 -0.0299138647400091 -0.3186089 -0.6968611 -0.642552 190 195 196
-0.0667866095910288 -0.0534008950396053 -0.0266008448682973 0.6134677 -0.3796331 -0.6924854 184 185 186
0.0542598594901644 -0.0450779408617488 -0.041186220654125 0.5021968 -0.4862679 -0.7150818 153 159 157
-0.0616150642754949 -0.0540069550676814 -0.0271058750234792 0.1756694 -0.8490412 -0.4982664 189 193 194
-0.0623423131192542 -0.0567139000101558 -0.02348983258831 0.751728 -0.5345093 -0.3862704 192 195 201
-0.0620594942020691 -0.0523100108309261 -0.0267220509134481 -0.2066383 -0.8898104 -0.4068637 192 194 196
-0.0623423131192542 -0.0495222419901363 -0.0274896991335103 0.3407294 -0.452389 -0.8241649 194 194 196
-0.0672916432386703 -0.0657640904589168 -0.0106215772114942 0.2172302 -0.6368656 0.7397386 198 199 213
-0.0778569481345333 -0.0672186226053706 -0.0187627223216245 0.6179469 -0.6572516 -0.431465 210 213 215
-0.0753923836173929 -0.0662489444418422 -0.0191667449556539 0.8257201 -0.5623298 0.04440069 199 202 209
-0.0762004372673548 -0.0677034467859737 -0.0173890289746473 0.779823 -0.5813609 -0.2321543 225 223 233
-0.0715137248635731 -0.0620066732569209 -0.020500033804054 0.5616646 -0.7601206 -0.3267254 192 195 197
-0.0724429867705769 -0.0593804926081172 -0.0186819133244703 0.4045416 -0.9053829 -0.1289496 191 186 191
-0.077412518207959 -0.0672186226053706 -0.0125407052122304 0.3524452 -0.5792352 0.7350299 200 206 216
-0.0715541276159204 -0.0662489444418422 -0.01601533562767 0.2609635 -0.8702601 -0.4177864 203 206 221
-0.0724833896393395 -0.0683903009100429 -0.0157729235373685 0.589648 -0.08041476 -0.8036471 203 210 222
-0.0716214654976941 -0.0676361233396999 -0.0147763189755628 0.3139441 -0.2279104 -0.921681 202 207 219
0.0503812064406954 -0.0531988650961391 -0.0167021823011587 0.7217247 -0.55819 -0.4093132 177 190 199
0.00884723709798685 0.0831602006749638 0.0595781023718169 0.4967372 0.7567803 0.424895 103 116 112
-0.0740590947689928 -0.0639863819284908 -0.0148840618215749 0.8354666 -0.532917 0.1341461 204 210 216
-0.0728470138283885 -0.0674206227465144 -0.0138335895620534 -0.08734135 -0.5529402 -0.8286306 192 200 211
-0.0711905033104561 -0.0644712359114162 -0.0143184211932371 0.2354532 -0.8563051 -0.4596775 204 210 220
-0.0711905033104561 -0.0632995576067439 -0.0139143985592077 -0.1436182 -0.7896246 -0.5965458 203 208 219
-0.0709211520161919 -0.0618989378614894 -0.0130659413419912 0.4751127 -0.7590232 0.4451423 201 206 215
-0.0665845961785383 -0.0659257382555477 -0.0219545361481855 -0.6574121 -0.6941869 -0.2931108 199 204 209
-0.0657159381090171 -0.0667741805716029 -0.0192475539528081 0.156838 0.8170986 -0.5547537 215 221 227
0.0652898033139788 -0.0447547048731319 -0.0266412493668745 -0.00620474 0.4513453 -0.8923278 177 182 188
-0.0611706352802432 -0.0680670649214259 -0.0212070864521215 0.1934899 -0.4779628 -0.8568041 193 195 201
-0.0601605675192989 -0.0655217081709377 -0.0197727900825689 -0.2521536 -0.4394657 0.8621418 200 206 211
-0.0116369309844888 0.0237278729276189 0.0363869558192542 0.1908149 -0.7644888 0.6157488 182 188 198
-0.0624231183911181 -0.0672994167013637 -0.0173890289746473 0.9634745 -0.0675859 0.2591312 202 200 217
-0.0676754688621006 -0.0618854672117702 -0.0188031268202016 0.5160903 -0.7265482 -0.4536282 196 201 211
-0.0641604345301605 -0.0623298794432155 -0.0179950666509817 -0.1930818 -0.6884221 0.6991383 217 214 216
-0.0668068109089948 -0.0675014168425075 -0.0151062828384588 0.1887467 -0.4210515 -0.8871811 201 207 219
-0.0673926500613309 -0.0640469998522273 -0.0166213733040044 0.5161186 -0.5055267 -0.6914219 213 217 229
0.0307858963487231 -0.0307349771662227 -0.002924866684551 0.1635038 -0.5147284 0.8416182 202 207 218
-0.0654937233785606 -0.0672590345545284 -0.0115912404738615 -0.1058052 -0.3840973 0.9172102 204 208 222
-0.0682007039441235 -0.0637035876913539 -0.0133891624294469 0.5088464 -0.7972236 -0.3248227 198 201 215
-0.0623827157551862 -0.0639459997816554 -0.0156517100416372 0.3647051 -0.7176359 -0.5932865 204 209 220
-0.0629887562254883 -0.0682286829157344 -0.0124599036656568 -0.03612803 -0.4221193 0.9058201 196 201 215
-0.0627463399442352 -0.0674610346956722 -0.0118942630373189 -0.1377276 -0.3260395 0.9352697 197 201 216
-0.0611706352802432 -0.0679054469271175 -0.0123588961445043 -0.1002759 -0.4507876 0.886981 206 210 223
-0.0626251320364393 -0.0633399397535793 -0.0138739940606306 0.2811359 -0.5729928 -0.7698324 194 201 213
-0.0598777490677751 -0.0641076177759639 -0.0135507729731748 0.1372985 -0.536954 -0.8323638 199 204 218
-0.0676148647917874 -0.0611379951639644 -0.0163587626897047 0.5194272 -0.6103432 -0.5980607 217 218 225
-0.0662613746254213 -0.0604309648676387 -0.0134295669280241 0.6472617 -0.4452134 0.6187385 202 207 220
-0.0649280855441905 -0.058289608399438 -0.0132679563842962 0.206308 -0.7025562 0.6810666 216 221 228
0.0730336387631976 -0.00177969638543046 -0.0251328793250272 0.9297806 -0.1542647 -0.334231 144 150 128
-0.0610090238051928 -0.0632591456575862 -0.0156517100416372 -0.1296749 -0.9062697 -0.4023177 204 208 222
-0.0646048639910735 -0.0601885527773372 -0.0148840618215749 0.09229236 -0.5267921 0.8449687 200 204 220
-0.0643826494934476 -0.058289608399438 -0.0146820467792699 0.1133528 -0.8057916 0.5812495 204 210 222
-0.0643624477098204 -0.0630167335672847 -0.0130659413419912 0.9593943 -0.1049511 -0.2618165 197 202 216
-0.0639584208848394 -0.058208814303445 -0.0144800317369649 0.2671444 -0.6761882 0.6865882 201 206 217
-0.0597565411599792 -0.0600673467321864 -0.0140356046043584 -0.01175215 -0.1790006 0.9837788 208 211 226
-0.0636958037512816 -0.0557442516489497 -0.0195303705416868 0.4894631 -0.8699451 -0.06017767 185 194 194
-0.0639988235207714 -0.056511899869012 -0.0157325190387914 0.4592991 -0.8433305 0.2789946 208 208 214
-0.0639180182489074 -0.056915929953622 -0.0122982931219289 0.1467209 -0.7444869 0.6513158 199 203 214
0.0552295302031123 -0.0317450374765865 -0.0407417935215185 0.7416359 -0.6702036 -0.02834308 136 145 151
0.0500983824012362 0.0454240828351506 0.053517699531441 0.3982292 0.3754022 0.8369509 173 181 183
-0.0368482130589403 -0.0514413625402919 -0.0433073562465856 -0.06119559 -0.5934864 -0.8025142 161 159 154
-0.0593929165052689 -0.0575118571920863 -0.0147729587637136 0.1585441 -0.03524464 0.9867226 203 207 219
-0.0560394930663026 -0.064188411871957 -0.0303582918726156 -0.3032941 -0.5866346 0.7509145 186 193 192
-0.0591909033256091 -0.0643904120131008 -0.0286209803901861 0.1978422 -0.6935255 0.6927343 192 193 196
-0.0392016689302839 0.000799336989355914 0.0321951772190383 -0.004241407 -0.5768417 0.8168449 174 182 190
-0.0526052634241498 -0.0664105624361507 -0.0324592363916585 0.1872645 -0.8801798 -0.4361371 137 146 148
-0.0512921768250383 -0.0672792107267848 -0.0312673521124074 0.5933785 -0.7192865 -0.3612879 159 165 156
-0.0493326461883701 -0.0656698555155269 -0.0319744047604749 0.4892116 -0.7796722 -0.390875 192 194 197
-0.0503831165852464 -0.0682286829157344 -0.0280351412378499 0.6345622 -0.6111856 -0.4730571 189 192 198
-0.0511911693038858 -0.0646328241034023 -0.0292270180665204 -0.7175384 -0.6139363 0.3289695 204 205 202
-0.0589484865786947 -0.0607541710539333 -0.031812794216747 -0.3948482 -0.0162917 -0.9186019 190 197 193
-0.0537365390928901 -0.0609562009973995 -0.0303986963711927 0.5409232 -0.7015853 -0.4638751 191 195 195
-0.016081228387586 0.00877884920401656 0.0282660129584124 0.8385803 -0.171186 -0.5171832 188 192 202
-0.05240325024449 -0.059178462664651 -0.0304391008697698 0.6591834 -0.3917138 -0.6419015 197 201 198
-0.0535345259132303 -0.0614410251780025 -0.0287421864353368 0.4613719 -0.8448667 -0.2708067 196 194 199
-0.0498174778195537 -0.0581482261820308 -0.0295704376779745 -0.5612002 -0.06374517 -0.8252217 195 196 195
0.0206044171927058 -0.0459263831778041 -0.0392468941293905 0.1365308 -0.7963062 -0.5892841 155 158 165
-0.0573727819147027 -0.0635823816462032 -0.0232878249965856 0.8498079 -0.5036309 -0.155507 175 180 184
-0.0338180097761072 -0.0565523118181697 -0.0152476874076078 0.7729514 -0.03170377 0.6336727 227 228 238
-0.0514739877554096 -0.06507726613717 -0.0273684930883596 -0.4474736 -0.2702823 0.8524757 198 200 202
-0.0570899625318564 -0.0611582011385433 -0.0270452720009038 0.3159365 -0.8262517 0.4663607 198 203 203
-0.0577364056380905 -0.0632591456575862 -0.0253483575664709 0.27343 -0.9463869 0.172011 197 198 198
-0.0558778815912522 -0.0624510854883663 -0.0231262144528577 0.5111632 -0.8383147 0.1895805 181 182 192
-0.0579788223850048 -0.0584108144445888 -0.0223585587822149 -0.7520322 -0.4692884 0.4628347 183 186 194
-0.00974810449504027 0.0845137029485234 0.0572953525103381 -0.7099474 0.5088412 0.4868833 122 133 125
-0.0532113048257745 -0.062087467352914 -0.027085676499481 0.3942315 -0.7745354 0.4946478 188 194 195
0.0867263157842242 0.0387576609448918 0.0121741968311121 0.5182236 0.7263857 0.4514512 123 130 125
-0.0496558672758258 -0.060794583003091 -0.0260756087385366 -0.6570206 -0.4922894 -0.5709423 190 190 192
-0.049453854096166 -0.0589360505743495 -0.0269644704543302 -0.8056883 0.3975412 -0.4391212 195 193 198
-0.0499386857273496 -0.0602491707010738 -0.0251261514507482 -0.5770962 -0.5152507 0.6336219 185 190 193
-0.0541001637476004 -0.0590572566195003 -0.0225201693259428 -0.4268019 -0.9043266 0.005799497 196 199 199
-0.0491710356446422 -0.0675418287916652 -0.0303178948246191 0.548385 -0.7716286 -0.322278 190 194 202
-0.0454459055336631 -0.0634207636518947 -0.0316835042916486 0.4526279 -0.8147662 -0.3623315 180 183 187
-0.0467791962447084 -0.0652954489393703 -0.0286613848887632 0.4341149 -0.8349447 -0.3382477 195 197 202
-0.0460196244540132 -0.0654005021257869 -0.0286209803901861 0.4283146 -0.8182059 -0.3835175 170 178 179
-0.0454943901868976 -0.0638247937365047 -0.028176545806999 0.4428133 -0.8191463 -0.3645761 227 226 232
-0.0423025763603366 -0.0640874118013851 -0.0270250734769056 0.3130232 -0.8456635 -0.4322843 181 183 187
-0.0471913027586854 -0.0596633166475765 -0.0315299701772878 -0.7207751 -0.02913676 -0.6925564 207 200 200
-0.0412117033275283 -0.0613265544577113 -0.0313481611095617 0.2815783 -0.8673025 -0.4104875 173 174 172
-0.043272241485349 -0.0626531154318324 -0.0277725231729696 0.394941 -0.8803551 -0.262672 222 229 236
-0.0488882171931184 -0.0676428288622371 -0.0254291665636251 0.6079869 -0.6885741 -0.3952438 196 198 205
0.00222118990398279 -0.0289976805849544 -0.0442568284355352 -0.1453618 0.4362586 -0.8880025 187 191 188
-0.0453597134920276 -0.0673263580008022 -0.0249039304338644 0.5049453 -0.6997525 -0.505348 182 183 186
-0.0429220846863902 -0.0660065323515407 -0.0251328793250272 0.5012252 -0.763909 -0.4064682 177 182 178
-0.0435146573009408 -0.0670570046110622 -0.0244999003492544 0.5248334 -0.7669896 -0.3691569 172 172 170
-0.0433261110457099 -0.0634072930021755 -0.0244864371501157 0.4430279 -0.8251092 -0.3506011 194 193 203
-0.0394743881198085 -0.0606329650087825 -0.0262372192822645 0.8636788 -0.4979353 -0.07822721 208 209 212
-0.0414137165071882 -0.062841644923257 -0.0230319348059843 0.5404393 -0.8374535 -0.08122113 197 199 207
-0.0389491519900478 -0.0600471109552852 -0.0234292295657346 0.7530512 -0.6522974 0.08615043 191 191 197
-0.0586656681271709 -0.0548553973837367 -0.0311259475432584 -0.6029078 -0.3446606 -0.7195215 189 193 193
-0.0574131845506347 -0.0551786035700313 -0.0304795053683469 -0.9311898 -0.342868 0.123803 202 196 201
-0.0575747950943626 -0.0546533674402706 -0.0301158797823141 -0.9002467 -0.4353602 0.004172775 201 204 206
-0.0496558672758258 -0.0558250457449428 -0.0295704376779745 -0.6027505 0.05874759 -0.7957641 198 197 195
-0.0493326461883701 -0.0487141818209163 -0.0300350707851598 -0.5585004 0.6254206 -0.5449095 197 200 202
-0.0548678147616304 -0.057400754134225 -0.0249847394310186 -0.2555791 0.2997861 -0.9191342 190 190 194
-0.0588676813068307 -0.0532796889944545 -0.0234090310417364 0.4013155 -0.5528353 -0.730287 190 194 192
-0.0499790883632816 -0.0551381916208736 -0.025792792149658 -0.8099813 -0.05216782 -0.5841308 200 199 203
-0.00678861094736227 -0.0529160708590022 -0.0302774903260419 -0.09962416 0.2905641 0.9516551 160 168 169
-0.05393855227255 -0.0580876082582942 -0.0224797722779462 0.2090679 0.03478427 -0.9772823 203 201 200
-0.0545243914248861 -0.0502696842356197 -0.0268634629331777 0.2051525 -0.9768893 -0.05999873 191 191 198
-0.057817211841277 -0.0518790692492 -0.0233147588454435 0.476329 -0.7381987 -0.4776751 190 194 195
-0.0551304318951882 -0.0518858045740596 -0.022944397934551 -0.168064 -0.438766 -0.8827451 189 194 194
-0.0556758684115923 -0.0499262422724239 -0.0234494355403135 0.1683347 -0.7034461 -0.6905266 193 194 196
-0.0565647282647408 -0.0489161819620601 -0.0233282220445821 0.1584633 -0.7073086 -0.6889151 183 190 191
0.0372974653718554 -0.0433810264273158 -0.0471052152000616 -0.02524957 -0.9895974 -0.1416317 158 165 163
-0.0543829821991242 -0.0508959204359523 -0.0264796388231466 0.5060493 -0.862235 0.02156313 189 190 198
-0.0535547281625188 -0.0494010061426631 -0.0270452720009038 -0.2278361 -0.9021192 -0.3664311 192 196 199
-0.0126469987454332 -0.0517039806051723 -0.0119346675358961 0.1564349 -0.3578956 -0.9205644 212 216 224
-0.0501406989070095 -0.048754593770074 -0.0267624554120252 -0.8027945 0.2770447 -0.5279841 204 208 208
-0.0519588212492383 -0.0509767145319454 -0.0230050009571264 -0.03827657 -0.7677627 -0.63959 192 199 199
-0.049373048824302 -0.0521888047857753 -0.022398963280792 -0.7250877 -0.6368183 -0.2621263 196 194 195
0.0107461591241442 -0.0309571832819454 0.00796366511953378 0.03533237 -0.5557478 0.8305998 229 191 177
-0.0527264713319457 -0.0498858601255885 -0.0232878249965856 -0.2517104 -0.7308661 -0.6344104 198 201 201
-0.0461812349977411 -0.0559866637392513 -0.0320956108056257 -0.09401634 0.3005973 -0.949106 188 190 191
-0.0489690206023372 -0.0571987539930812 -0.028176545806999 -0.2138949 -0.4752992 -0.8534282 201 204 206
-0.044847946149341 -0.0574815482302181 -0.0293280255876729 0.01682108 0.1098043 -0.9938109 204 201 204
-0.0411308980556644 -0.0533200711412898 -0.0307623219572256 0.1132514 -0.5616295 -0.8196014 184 185 188
-0.0399996223869241 -0.0540877491636745 -0.0304391008697698 -0.04775452 -0.9569844 -0.2861825 208 201 201
0.0627444316623293 -0.0488353878660671 -0.0104397681437681 0.6475525 -0.7590141 0.06762679 165 172 170
-0.0240405569794095 -0.057885578314828 -0.0382368189178655 -0.04037212 -0.7786602 -0.6261456 164 166 171
-0.0421005631806768 -0.0572391361399165 -0.0278129276715467 0.6449518 0.05148865 -0.7624868 196 202 199
-0.041777342093221 -0.055219015519189 -0.0287421864353368 0.4120393 0.2009189 -0.888738 206 203 203
-0.0452654412957347 -0.0533268064661495 -0.00355783820974326 0.04209449 -0.5809005 0.8128853 194 198 209
-0.0449691540571369 -0.0526736289663783 -0.0322168168507764 -0.07700328 -0.552259 -0.8301087 186 190 192
-0.0483629810633577 -0.0519059807463161 -0.0299946662865827 -0.6510861 -0.09712425 -0.7527641 203 202 207
-0.0397976092072643 -0.0500070661707393 -0.0324996334396551 0.2807316 0.7642957 -0.5805531 181 181 184
-0.0390703617604888 -0.0503706843061916 -0.0264796388231466 -0.6507023 -0.2665087 -0.7110271 196 201 203
-0.058544460219375 -0.0656429142160884 -0.0213888955198476 0.6674407 -0.5348479 -0.518132 196 198 209
-0.0587464733990348 -0.0683094770117275 -0.019005134411926 0.4711224 -0.5166937 -0.7148926 231 231 234
-0.0561202983381666 -0.0652792662783138 -0.019611179538841 -0.6243881 -0.3803739 0.6822428 203 204 209
-0.0545445927428521 -0.0634207636518947 -0.0193687599979589 0.5402126 -0.3399996 -0.7697861 218 220 222
-0.0562011036100305 -0.063784381787347 -0.0180354711495588 -0.2342176 -0.8437744 0.4828943 214 220 226
-0.0536153311850942 -0.0676226228876582 -0.0190455389105031 -0.1410092 -0.3146389 0.9386793 232 233 240
-0.0587464733990348 -0.059097668568658 -0.0222777572356412 -0.7705894 -0.400099 0.4960976 188 196 195
-0.0502215041788734 -0.0622490853472225 -0.0182374861918638 0.7195303 0.1067361 0.6862095 226 228 232
-0.0504639218571103 -0.0611177891893855 -0.017712250062103 0.6028334 0.01534944 0.7977194 229 230 229
-0.05086794821643 -0.0602087587519161 -0.017712250062103 -0.907359 0.3616178 -0.2143181 215 220 223
-0.0567263388084687 -0.065158060233163 -0.0158133205853651 0.7802551 0.6180035 0.0962997 206 209 225
-0.0535749285491622 -0.0677842408819667 -0.0170254033886144 -0.8360803 -0.04816332 0.5464889 208 212 225
-0.0505447271289743 -0.0665317684813014 -0.0160557401262472 0.5473665 0.5633222 0.6189167 203 209 224
-0.0535345259132303 -0.0653196782274715 -0.0158133205853651 -0.9339021 -0.2641464 0.240943 211 214 228
-0.053191102576486 -0.0639055878324977 -0.0148032528244207 -0.8993291 -0.2982689 0.3197543 202 206 222
-0.0542617742913283 -0.0680670649214259 -0.0128235218011091 0.03194478 -0.6378047 0.7695354 206 212 224
-0.0522012370648302 -0.0668145925207607 -0.0120962780796239 0.2338591 -0.4994089 0.8342066 186 193 199
-0.0496760676624692 -0.0672186226053706 -0.0124397051416585 0.1346917 -0.7354512 0.6640555 205 210 221
-0.0519184186133064 -0.0656025022669307 -0.0131871473871419 0.9870858 0.01876551 0.1590896 217 217 235
-0.0570899625318564 -0.0624107033415309 -0.0154900994979093 -0.5390288 -0.8242444 0.1734042 208 212 225
-0.0554738552319325 -0.060875377099084 -0.0151668784104536 0.1165809 -0.1480285 0.9820878 206 210 225
-0.0583828487443245 -0.0614006132288448 -0.0141164136015127 0.9919066 0.06743406 0.1075827 203 207 221
-0.0593525138693369 -0.0632187337084285 -0.0120154690824697 0.02925315 -0.8308046 -0.5557949 200 205 217
-0.0531304995539106 -0.062491497437524 -0.0127831247531126 -0.7199745 -0.6803191 0.1371229 190 194 208
0.0452500660894 0.0248995214299687 0.0342456142522147 0.3109386 -0.4163311 0.8543919 255 206 196
-0.0523224449726261 -0.0599461108847133 -0.0139143985592077 -0.9348364 0.1323346 -0.3294974 211 214 227
0.0406037499187075 -0.0486333579226009 -0.0116518434964368 -0.09749983 -0.8092597 -0.5793034 196 200 212
-0.0507568414332784 -0.0577138871355525 -0.0128235218011091 0.342232 -0.3757743 0.8612032 203 208 220
-0.0484437863352216 -0.0661277383966914 -0.0188031268202016 0.3064504 -0.2870007 0.9075895 236 243 251
-0.0456155980946935 -0.0674206227465144 -0.0187627148710439 0.3834867 -0.3847219 0.8395993 208 210 218
-0.038760607597462 -0.0679189175768367 -0.0216178444110105 0.167887 -0.7350256 -0.6569256 165 170 170
-0.0434742546650089 -0.0653600901766292 -0.022196948238487 0.6690293 -0.7259163 -0.1595161 180 176 190
-0.0422217710884727 -0.0647540599508754 -0.021308093973274 0.5082584 -0.8601539 0.04252766 206 204 214
-0.0437974757524646 -0.0645116180582515 -0.022196948238487 0.7009441 -0.709892 0.06878004 206 212 216
-0.0435146573009408 -0.0656429142160884 -0.0198401209794233 0.776855 -0.6264685 0.06351055 214 218 225
-0.0418379451157964 -0.0641985148592464 -0.0187930238329122 0.2883532 -0.9556686 -0.05958178 213 216 224
-0.0435954625728048 -0.0648348540468685 -0.0178334561072538 0.5998726 -0.6777477 0.4252186 212 218 233
-0.046262040269605 -0.059986522833871 -0.0215909105621526 -0.1558809 -0.7192521 0.6770358 189 192 196
0.004200928377875 -0.0176445454760066 0.0129735994256785 -0.6861348 -0.4119491 -0.5995974 196 201 211
-0.0465852613570608 -0.0582492262526027 -0.0211868804775426 -0.5596143 -0.8145106 0.1529845 187 190 194
-0.0410096901478685 -0.0620066732569209 -0.0223181542836378 0.7103526 -0.7018711 -0.05268959 213 218 224
-0.0397168039354003 -0.0627743214769832 -0.0188839283667753 0.8130878 -0.5687166 -0.1242969 221 224 232
-0.0397168039354003 -0.0626531154318324 -0.0186415162764738 0.8130878 -0.5687166 -0.1242969 210 212 217
-0.0429894230338252 -0.0598451108141414 -0.0171870139323423 0.2762913 -0.6987531 0.659854 217 220 231
-0.0429692207845367 -0.0590168446703426 -0.0182172876678655 -0.9968807 -0.06806038 0.0399579 205 208 212
-0.0429086177619613 -0.0582492262526027 -0.0178334561072538 -0.7728146 -0.6164558 -0.1507974 205 209 215
-0.0394339854838766 -0.0592188746138088 -0.0181970816932867 0.173035 -0.8894129 0.423088 226 224 235
-0.0481205652477659 -0.0677842408819667 -0.01641936571228 0.1614214 -0.7071788 -0.6883612 201 209 220
-0.0487266047867454 -0.0669761807127467 -0.0166617778025815 -0.3149837 -0.8024397 -0.5068291 199 209 215
-0.0487266047867454 -0.0636631757421962 -0.0165001672588537 0.05180819 -0.2173865 0.9747097 205 210 224
-0.0496356668891824 0.0417474299268254 0.0327709171093752 -0.9119187 0.3556473 0.204742 188 191 193
-0.0471711005093969 -0.0655418843431941 -0.015469900973911 -0.08677813 -0.9951463 -0.04640454 205 209 218
-0.0467569730254329 -0.0675014466448299 -0.0130305883370588 -0.008026952 -0.6814979 0.731776 191 196 205
-0.0438378783883966 -0.066854974667596 -0.0148032602750013 -0.1038063 -0.9870534 0.1222694 198 208 218
-0.0407268716963447 -0.066854974667596 -0.0162577551685522 -0.4243056 -0.2598899 0.8674226 194 196 201
-0.0391915696682847 -0.0641682058973781 -0.0148436647735784 0.9285836 -0.04209524 -0.3687282 202 208 220
-0.0398178095939077 -0.0675620347662441 -0.0135305744491765 0.1392529 -0.6445845 0.7517442 190 195 205
-0.0454135830523885 -0.0612592310114375 -0.0148840618215749 0.7281102 -0.4029382 0.5545235 205 206 219
-0.0283636483373559 -0.0211191386385433 0.0100444036639979 0.1896925 -0.9717982 -0.1400896 203 207 215
-0.0490498258742011 -0.0615622312231532 -0.0141366121255109 0.0099486 -0.9665289 -0.2563648 202 204 219
-0.0422217710884727 -0.062895527522134 -0.0156517100416372 0.5417081 -0.06444976 0.8380922 201 208 224
-0.0433934493931449 -0.0592592865629665 -0.015126481362457 0.5139134 -0.09204685 0.8528894 206 208 223
0.0207256306884371 0.0652618199185857 0.0718201196856549 0.4109622 -0.2752565 0.8691052 167 174 181
-0.0406460664244808 -0.0605521709127895 -0.0148436573229978 -0.3292151 -0.8076255 -0.4892428 206 208 222
-0.0407672743322767 -0.0609157890482417 -0.0136719790183256 -0.3726872 -0.8190525 -0.4361849 198 203 220
-0.0407268716963447 -0.0601077288790218 -0.0133487579308698 0.2063494 -0.9434863 -0.2593327 210 214 228
0.00355447875238291 -0.0450375289125911 -0.0129447352968404 0.03905565 -0.9978409 0.05280381 201 208 214
-0.0582212382005967 -0.0573805779619685 -0.022055543669338 0.983576 -0.1128949 0.1408297 194 197 197
-0.0586656681271709 -0.0563502818747035 -0.0221161466919134 0.3666004 -0.9141989 -0.1727555 197 199 201
-0.035474519711963 -0.0597036987944118 -0.0165809762560079 0.6986687 -0.5822012 -0.415817 215 218 223
-0.0525244581522859 -0.0529160708590022 -0.0173082274280736 -0.1239899 -0.9619083 -0.2436368 207 206 219
0.0065500517366015 0.0503647714452275 0.0625794476933529 0.1118591 -0.5084503 0.8537949 179 184 193
-0.0589888892146266 -0.0561482817335597 -0.0121366751276205 0.1802735 -0.8317615 0.5250469 201 206 217
-0.0516760009350694 -0.057138165871667 -0.0152678859316061 0.02742438 -0.111382 0.9933992 202 206 221
-0.0495346593680299 -0.0557644576235286 -0.0155102980219076 0.8351177 -0.5473791 -0.05435656 218 222 234
-0.0515413261028446 -0.0553671628637782 -0.0129581984959791 -0.12852 -0.2055719 0.9701664 204 209 220
-0.0517972107055105 -0.0544513672991268 -0.0129447352968404 -0.326202 -0.2306053 0.9167407 207 210 223
-0.0533325127335704 -0.0500878602667323 -0.0121366751276205 -0.07748693 -0.6397734 0.7646474 211 212 224
-0.0482417731555618 -0.0553402215643398 -0.0186415162764738 -0.3729385 -0.9156802 0.1498221 201 203 211
-0.0416561341854251 -0.054814985434579 -0.0213484910212705 -0.4836008 -0.6195062 -0.6183384 195 194 201
-0.0420601605447448 -0.0576431662245265 -0.0179546696029851 -0.3360096 -0.06721509 0.9394571 198 201 212
-0.0465448587211288 -0.0527948350115291 -0.0195707750402639 -0.2596991 -0.9655504 0.01639509 201 196 205
-0.040161232930652 -0.052229216734933 -0.0217525211058805 -0.8339376 -0.4837049 -0.2656645 181 186 190
-0.0455751954587615 -0.0569563121004573 -0.0121366751276205 -0.5327456 -0.09472407 0.8409575 190 196 208
-0.0157277057888425 -0.043694129626321 0.000933595291500333 0.1494848 -0.5622446 0.8133482 177 183 191
-0.0253334450545228 -0.0524716288252345 -0.0155305039964864 0.4675557 -0.8646882 -0.183592 218 220 226
-0.0490094232382692 -0.0545725733442775 -0.0143588256918142 0.6019849 -0.7782218 0.1788436 202 204 220
-0.0470970305623926 -0.0537645131750575 -0.0119346675358961 -0.1775 -0.2931761 0.9394369 198 204 217
-0.0408076769682086 -0.0545321613951198 -0.01601533562767 0.5298476 -0.5338438 0.6589935 231 230 247
0.0270598758933627 0.0143454461888798 0.0372129681624224 0.02441129 -0.6020177 0.7981095 235 192 177
-0.0422621737244047 -0.0579664022131435 -0.0141164136015127 0.744224 -0.3735258 0.553723 205 210 222
0.0611687232730471 -0.0331995398207179 -0.00361171335803961 0.9366518 -0.01809558 0.3497943 192 197 209
-0.0409288848760045 -0.0528554529352657 -0.013631581970329 0.4166215 -0.6072926 0.6764778 205 208 223
-0.0425449921759284 -0.0550169855757228 -0.0121366751276205 0.3610786 -0.6945595 0.6222615 189 197 211
-0.0178993488671697 -0.057723990122842 -0.0170658078871915 0.2348248 -0.413316 -0.8797882 199 202 204
-0.0449691540571369 -0.052229216734933 -0.0131063458405683 -0.07090296 -0.9341561 0.3497503 199 209 222
-0.0410904954197324 -0.0524312168760768 -0.0138739940606306 0.4166215 -0.6072926 0.6764778 186 194 208
-0.0660593609801001 -0.0457647651834956 -0.0320552063070486 0.3657005 -0.4210294 -0.8300587 196 201 203
-0.0663017772613532 -0.0447547048731319 -0.0323784273945043 0.5894114 -0.6281367 -0.5079749 198 198 199
-0.0354341189386762 -0.0371859580679408 0.00654283194911981 0.0271187 -0.4631115 0.8858851 170 178 185
-0.0655745286504246 -0.0436638504667751 -0.0320552063070486 0.6602784 -0.6887444 -0.2994388 192 198 198
-0.0630695614973522 -0.0414820820494167 -0.0324188318930814 0.3887873 -0.8492597 -0.3572148 187 188 186
-0.0595343257310308 -0.0453607649012081 -0.0275301036320875 0.1630708 -0.7100769 -0.6849809 188 190 190
-0.0548678147616304 -0.0398659915132991 -0.0326612514339635 0.09366361 -0.6744891 -0.7323194 188 194 194
-0.0526052634241498 -0.0471384734316341 -0.0266412493668745 -0.2098274 -0.773407 -0.5981756 185 192 193
-0.0516355982991374 -0.0477041215105525 -0.0271664780460546 -0.2787068 -0.7876315 -0.5495082 191 193 196
-0.0308383102538503 0.0158190518216618 0.0414978976465514 0.001015136 -0.519156 0.8546789 158 170 177
-0.0431914362134851 -0.0446334988279811 -0.028378560849304 -0.04661506 -0.5077706 -0.8602302 198 199 202
0.0486236889836871 -0.0220483750505916 0.0106706398643305 -0.06595235 -0.4696621 0.8803793 226 196 158
-0.0449287514212049 -0.0414416999025813 -0.0310047340475271 0.2367282 -0.345962 -0.9078932 186 193 199
-0.0420601605447448 -0.0409164637728206 -0.0315299701772878 -0.1383539 -0.6219481 -0.7707391 188 196 190
-0.046221637633673 -0.0458860010309688 -0.0273684930883596 -0.351064 -0.493211 -0.7959252 197 197 203
-0.0818972173156656 -0.0691983312769405 -0.0119346675358961 0.09563425 -0.5821307 0.8074515 194 198 211
0.023877040016421 0.0455857306317815 0.0511339421488097 -0.8735893 0.4712113 0.1216622 188 194 199
-0.0870081591429628 -0.0680872708960048 -0.0116316449724386 -0.5863001 -0.2699858 0.76378 202 205 208
-0.0867455410780824 -0.0666529745264522 -0.0109245997749517 -0.6643497 -0.2315864 0.7106386 159 176 172
-0.0864088512035526 -0.0640941471262447 -0.0111131441675374 -0.7977268 -0.06344735 0.5996718 151 159 165
0.0338565041301333 0.0291418224172124 0.037033401719456 0.226761 -0.6318508 0.7411775 254 206 199
-0.0861394996764577 -0.0636631757421962 -0.0107629892312238 -0.7563941 -0.1193398 0.6431376 156 169 169
-0.0851698354827679 -0.0657237083120815 -0.0104195621691892 -0.503883 -0.3575467 0.7862966 173 180 186
-0.0852371747615255 -0.0635419696970455 -0.00914688379394507 -0.5837567 -0.2026401 0.7862348 168 177 185
-0.0847052051695503 -0.0659459144278041 -0.0095307004533956 -0.3870707 -0.4026472 0.8294887 179 184 197
-0.0831901035281337 -0.0656631201906673 -0.00955090642797446 -0.1269926 -0.4542316 0.881786 181 185 196
-0.0813962244438446 -0.0681801945372096 -0.011490232952709 0.06818121 -0.5439085 0.8363701 189 195 204
-0.0814527883204139 -0.0662893563909999 -0.010197348602886 0.07500511 -0.5189105 0.8515316 190 194 206
-0.0811598687442459 -0.0654812962217799 -0.00960140646326041 0.1162932 -0.5013734 0.8573801 178 185 195
-0.0824426538320697 -0.0630369395418636 -0.00787419796812033 -0.1376766 -0.43728 0.8887246 198 203 213
-0.0809679548265851 -0.0631783217592708 -0.00795499951469397 0.04615096 -0.5308871 0.846185 195 201 213
-0.0852910443218864 -0.0597845226927272 -0.00971251697170233 -0.8247432 0.1284842 0.5507182 132 139 146
-0.0846446002843297 -0.062168261448907 -0.00781358749496436 -0.4610488 -0.252276 0.850759 191 196 202
-0.0811497676196016 -0.0619056433840267 -0.00715704978334403 -0.08890785 -0.4823238 0.8714696 191 194 202
-0.0839308197619832 -0.059151551167535 -0.0084061619721601 -0.7918381 -0.0457994 0.6090114 164 168 174
-0.0806851363750614 -0.0608349949522487 -0.00611668051111197 -0.1376481 -0.5405215 0.8299937 194 199 209
-0.0812777099209345 -0.059178462664651 -0.00551063538419699 -0.2743541 -0.4664488 0.8409253 184 195 201
-0.081444707234434 -0.057804784218835 -0.00485610932933783 -0.5155686 -0.3087089 0.7993046 168 176 182
-0.0836628149273313 -0.0555907100840083 -0.00924788386451697 -0.8945352 0.1807642 0.4088167 128 139 138
-0.0841193660172141 -0.0546937793894283 -0.0114094314061353 -0.875628 0.185762 0.4458341 135 141 139
-0.0838365466343678 -0.0534278363390437 -0.0108235922537992 -0.9150493 0.1072501 0.3888215 131 141 146
-0.0831035259189523 -0.053787609974908 -0.00917573989259696 -0.9278246 0.09335054 0.361147 132 139 135
-0.083700187970928 -0.0512443989916316 -0.0109549012862394 -0.9140621 -0.04589928 0.4029686 163 169 169
-0.0836547347726739 -0.0498858601255885 -0.0106148418866346 -0.8940811 -0.1168241 0.4324015 167 173 178
-0.0836708950819887 -0.047651580016183 -0.00911859393941855 -0.874167 -0.02937913 0.484736 142 154 152
-0.0828971839519657 -0.0515827745600215 -0.00709643931018805 -0.9231119 0.003983021 0.3845108 149 163 157
-0.0831254594969071 -0.0476394504709712 -0.00766006083118415 -0.864154 -0.006511938 0.5031854 148 155 155
-0.0826446670117296 -0.0556432217760555 -0.00589445949422812 -0.7865956 0.01015175 0.617385 120 125 138
-0.0824628551500357 -0.0575421661539546 -0.00506620825159049 -0.5918229 -0.1858274 0.7843556 134 144 162
-0.0828870828273214 -0.0535220712824336 -0.00581365794765448 -0.8727443 0.05057467 0.4855508 154 156 153
-0.0816009310083903 -0.0573064893885127 -0.00389452994691825 -0.4450169 -0.3076644 0.8410128 194 197 203
-0.0809410200464047 -0.0559597224398128 -0.00347703666316962 -0.4399517 -0.2986392 0.8469104 161 168 179
-0.081245001872114 -0.0521483928366176 -0.00471989781486487 -0.7376927 0.0637462 0.6721205 169 177 179
-0.0811295663016356 -0.0479195923014156 -0.00518741429674124 -0.8066515 0.03145498 0.5901898 160 167 170
-0.0726045975471354 -0.0623702913923732 -0.00858124316560721 0.2053261 -0.5270749 0.8246413 167 176 187
-0.0819376199515975 -0.0498858601255885 -0.00547023088561988 -0.827621 -0.0008804194 0.5612866 144 150 158
-0.0845233923765338 -0.0468556493921748 -0.0101569441043088 -0.8481685 -0.0343806 0.5286096 151 160 159
0.0622595925805651 -0.0358257204695216 -0.0407417935215185 0.4898761 -0.5958489 -0.6363848 170 170 177
-0.0831739422874964 -0.0434658736391536 -0.00926808983909583 -0.8202126 0.1259726 0.5580162 156 163 164
-0.0827557747262038 -0.0439769536657802 -0.00758127094137168 -0.8459548 0.1465374 0.5127254 148 160 157
-0.0863415147187627 -0.0381084889574519 -0.0115306374512861 -0.7026396 0.02513804 0.7111018 174 181 183
-0.0851698354827679 -0.0379670471353999 -0.0108185407601545 -0.6076325 0.005359366 0.7942003 146 154 162
-0.0836749360906399 -0.0419842511816493 -0.0106244605861852 -0.6987375 0.07714106 0.7112069 169 176 176
-0.0827142498465694 -0.0418008178873531 -0.00919625879156089 -0.7814034 0.1360351 0.6090183 153 164 164
-0.0844021844687379 -0.0376034289999477 -0.0101569441043088 -0.632544 0.008111201 0.774482 151 169 173
0.00889340834594599 -0.0393176585836879 0.00243137805831933 0.06936322 -0.5351203 0.8419234 244 198 187
-0.0834729229109801 -0.0386134893103114 -0.0103185546480367 -0.6368698 -0.002537497 0.7709672 154 152 169
-0.0824224525141037 -0.0376034588022701 -0.00997513503658271 -0.6216407 0.03569571 0.7824888 149 158 164
-0.0815078825699604 -0.0376621991796962 -0.00913218379842734 -0.727852 0.05820289 0.6832598 167 174 175
-0.0813820832418717 -0.0415325969858638 -0.00672271818744635 -0.85323 0.19183 0.4849741 157 162 164
-0.0820184252234615 -0.0414820820494167 -0.00837922812330222 -0.8005679 0.1528201 0.5794282 144 157 167
-0.0817356067719377 -0.0399871975584499 -0.00841963262187934 -0.7895392 0.1685546 0.5900993 160 170 167
-0.0819780225875295 -0.0464516193075649 -0.00623788655626273 -0.8399231 0.06608256 0.5386672 150 165 162
0.0882183243510806 0.036454716284705 0.0151553380407145 0.4705996 0.7928817 0.3871364 119 128 115
-0.0807053376930273 -0.0413339347048274 -0.00518067897188162 -0.884123 0.1435131 0.4446691 159 169 169
-0.0848331465395606 -0.0315295666857234 -0.0111602765403936 -0.838241 0.2225357 0.4978252 158 166 165
-0.0845233923765338 -0.0336439818544856 -0.00981352449285483 -0.6313013 0.0318431 0.7748836 116 124 131
-0.0830352264466203 -0.0337180406256191 -0.00931522221195197 -0.6419755 -0.002118366 0.7667222 140 147 157
-0.0215153913023389 -0.0539463371439449 -0.0414286327444265 -0.09248552 -0.7090896 -0.6990267 166 169 170
-0.0842405739250101 -0.0295834750338069 -0.0114700344287107 -0.8807716 0.2445245 0.4055233 182 187 181
-0.0844425871046699 -0.0311390072508327 -0.00981352449285483 -0.7825097 0.1330239 0.6082625 169 177 171
-0.0833786497833646 -0.0313814193411342 -0.00916034699308371 -0.6830375 -0.03294548 0.7296399 147 161 156
-0.0835280171605266 -0.0297543019457332 -0.00935256452190375 -0.7724846 0.06862754 0.6313143 164 173 173
-0.0829746224927224 -0.0280010909243099 -0.00916034699308371 -0.8378261 0.0952124 0.5375704 157 168 165
-0.0810487610297717 -0.0306541830702297 -0.00825802207815146 -0.6979565 -0.05365001 0.7141277 151 152 147
-0.0810487610297717 -0.0294132441683284 -0.00770969659912085 -0.7178152 -0.05935084 0.6936994 149 153 161
-0.0824224525141037 -0.0274623841448299 -0.00801560253726935 -0.7778935 0.05016187 0.6263908 176 183 181
-0.0776886031972683 -0.0679054469271175 -0.011422894605274 0.1916406 -0.5900018 0.7843289 181 187 199
-0.0783215793790735 -0.0661681503458492 -0.0103185546480367 0.1206664 -0.4561567 0.8816806 172 181 192
-0.0754058510074831 -0.0632726163073055 -0.0115441081010053 0.3248038 -0.6349919 0.7009193 191 196 207
-0.0774044371219791 -0.0634934813185207 -0.00850851804840064 0.05874712 -0.5939078 0.8023853 180 185 197
-0.076725672465793 -0.0648550600214473 -0.00922768534051871 0.09649505 -0.5749339 0.8124899 188 193 205
-0.0719581544409014 -0.0661816209955684 -0.0109784674726675 0.06856924 -0.5822746 0.8100954 200 206 218
-0.0696956036127379 -0.066188356320428 -0.0108841952763746 0.01270935 -0.6475026 0.7619572 179 184 194
-0.00585934473299154 0.0395657211141118 0.0557398463703444 0.1513554 -0.6143167 0.7744072 152 162 173
-0.0189700196506895 -0.0599461406870357 -0.0225807723485181 0.701921 -0.397602 0.590948 202 204 212
-0.0748671484189547 -0.0654005021257869 -0.00979332596885657 -0.01933025 -0.5687366 0.8222925 194 199 214
-0.073028825922913 -0.0649560600920192 -0.00973271549570059 0.07690284 -0.6407233 0.7639108 189 195 206
-0.0712174384398825 -0.0652523547811977 -0.00999533356058097 0.177613 -0.5994654 0.7804453 211 215 226
-0.0709952235930107 -0.0635756463213435 -0.00884386123048758 0.02817586 -0.4252121 0.904655 202 207 219
-0.0736308260830558 -0.0634126872225276 -0.00875901401864981 0.06124227 -0.4376099 0.8970769 177 183 192
-0.0531843691142715 -0.00219722692208207 0.0309325943805029 -0.2137955 -0.4439865 0.8701537 176 182 189
-0.0773721155720271 -0.0629359394712917 -0.010399363645191 0.2237076 -0.5555817 0.800802 194 201 212
-0.0789882238032735 -0.0630705863638393 -0.00802907318698859 0.1236587 -0.5918905 0.7964761 199 202 214
-0.0748166451240397 -0.0611582011385433 -0.0070459392749021 0.09771687 -0.6499596 0.7536603 191 195 206
-0.0777492071511663 -0.0596767872972957 -0.00680352718460059 0.1046568 -0.6264129 0.7724337 198 203 212
-0.0570630277516759 0.00760720070166671 0.0267980548657229 -0.8239844 0.07224813 0.5619875 108 115 114
-0.0738974837596036 -0.0603501409693233 -0.0105609741889188 0.2530763 -0.6677471 0.7000473 201 203 214
-0.0710490938518635 -0.0598653167887203 -0.0103387606226156 0.4284882 -0.4418734 0.788128 194 196 210
-0.0731298327455736 -0.0615218192739955 -0.00744996935951209 0.1572381 -0.5832725 0.7969124 185 190 204
-0.073069228558845 -0.0599360376997463 -0.00689443171846366 0.1612327 -0.6545149 0.7386571 191 196 206
-0.0754327862533248 -0.0598249048395625 -0.00631868810283637 0.1294692 -0.6587948 0.7410986 167 175 182
-0.0751095647002078 -0.0583569616480342 -0.005308620341892 0.08175033 -0.6348605 0.7682897 170 180 189
