ply
format ascii 1.0
comment File exported by Rhinoceros Version 7.0
element vertex 476
property float x
property float y
property float z
property float nx
property float ny
property float nz
property uchar red
property uchar green
property uchar blue
end_header
-0.0104529436263543 -0.0178275982163717 -0.0338641353214234 0.1008837 -0.6209261 0.7773502 88 88 88
-0.0640314411055152 0.0142861714325396 -0.00160042659091351 -0.2021158 -0.6889573 0.696051 72 72 72
-0.00530454958132465 0.0313354438261385 -0.00421820557657003 -0.01970056 -0.6587319 0.7521198 189 189 189
-0.0255716920714955 -0.0361124843866372 -0.0248313437712519 -0.8847047 0.08285071 0.4587301 44 44 44
0.0258010026705651 -0.0125749963174906 -0.0274045470864759 -0.09083121 -0.4726572 0.8765529 121 121 121
-0.0363652662905949 0.0307848506454289 0.00584998997509824 0.3612214 -0.92974 -0.07143287 47 47 47
-0.0111966211806092 -0.0505490035158018 -0.0212189336427232 -0.8835154 0.06316645 0.4641234 67 67 67
-0.0115681569823245 -0.0283918902798054 -0.0400166812163959 -0.8287988 -0.2618299 0.4945075 72 72 72
-0.0654201529574703 0.00281029506402097 0.00471930893440815 -0.4376763 -0.3460528 -0.8298716 69 69 69
0.0161973771691679 -0.0382852143538238 -0.039966336296786 0.02202412 -0.04075121 0.9989266 104 104 104
0.0569625959081832 0.0244135281312872 0.00534999740095433 0.267186 -0.3382933 0.9023133 51 51 51
-0.0257342952704378 0.0309319691376028 0.0151684497432547 0.4711393 -0.7732761 -0.4243488 36 36 36
-0.0433047063355168 -0.0341836459677011 -0.0175465512148383 -0.8907579 -0.0960675 0.4442087 68 68 68
0.000757645959003739 0.0229466281485236 -0.0102802603747908 -0.0485615 -0.560503 0.8267274 61 61 61
0.0462980992959898 0.0358822193563266 0.00773487941257135 0.2740517 -0.3186186 0.9074017 48 48 48
0.0317109178148924 0.0507765142622087 0.0313472216871191 0.6222493 -0.7067168 -0.3366856 22 22 22
0.00044713635045035 0.0494133827499337 0.0093424763086737 0.21723 -0.9745304 0.05569164 135 135 135
0.00507493870487252 -0.0322937982054298 -0.0419376947385719 -0.1976727 -0.4247918 0.8834463 126 126 126
0.0348184935966902 0.0208551160287396 -0.00634397358237608 0.04913225 -0.3420958 0.9383797 196 196 196
-0.0572807865128695 0.000336642652671193 -0.0133311362996876 0.04877074 -0.6874048 0.7246351 35 35 35
0.0173208013463939 0.0144339152916657 -0.0139236840989389 -0.01377989 -0.4587729 0.8884467 166 166 166
0.0555946847952242 0.0576025567398787 0.0317679961688628 0.4413597 -0.3462829 0.8278223 93 93 93
-0.0358204008060663 -0.0384480915536408 -0.0192821838455071 -0.9019021 -0.07657605 0.4250986 63 63 63
0.0346811824026605 0.0334854664654525 0.00166807599667891 0.1802005 -0.4336402 0.8828839 84 84 84
0.00361875452879667 0.0179738724570697 -0.0126437981965944 -0.1028627 -0.4743912 0.8742839 110 110 110
0.0389404679644345 -0.0350038983365822 -0.0269117396596952 -0.1354206 0.3490875 0.9272535 89 89 89
-0.0413095541035169 0.00874166539276777 -0.00987499915514777 -0.1865133 -0.6693934 0.7191142 90 90 90
-0.0369729355329387 -0.016779177597589 -0.0302095808398044 -0.1022859 -0.53157 0.8408157 150 150 150
0.0537531079731304 -0.00142688744760022 -0.0152736001648467 0.1845365 -0.2960567 0.9371749 62 62 62
-0.0680158418724934 -0.0156916436525788 -0.00368414457537018 -0.3445474 -0.4494335 -0.8241946 58 58 58
-0.000813147580461138 0.0436523900063313 0.00497816629756499 -0.02719802 -0.7065279 0.7071624 185 185 185
-0.0509276863991523 -0.0418312106079786 -0.00967771282703482 -0.9115868 0.02991411 0.4100179 96 96 96
0.0588388658961079 0.0574516314915133 0.0364184141173624 0.7948171 -0.4475948 0.4097861 53 53 53
-0.0464599210916004 -0.0270516251208021 -0.0204680816752798 -0.8909302 0.09995067 0.4430049 42 42 42
-0.0414948834543463 -0.0409415846776284 -0.0149927137601449 -0.872039 -0.08431544 0.4821192 120 120 120
0.0590584574353681 0.0513153847807154 0.0297503906887359 0.3228421 -0.2513079 0.9124787 59 59 59
0.011013931310353 0.0125539596460047 -0.0158802597195581 -0.114341 -0.4607182 0.8801505 166 166 166
-0.0720671128510491 -0.0212924016546 -0.00957573014938316 -0.6808141 -0.3321802 -0.6528004 32 32 32
0.0409371750067007 -0.0365029669823649 -0.0251782949137255 -0.2082279 0.5238397 0.825974 38 38 38
-0.053979959179538 -0.0208642899132241 -0.0217003025998246 -0.8985121 0.01690696 0.4386231 86 86 86
0.0588453943440421 -0.0275331375731107 -0.0193747534271034 -0.3945843 0.5939314 0.7011054 72 72 72
-0.0483746984805711 0.0222540467973841 0.0124877490755663 0.4926158 -0.680885 -0.5419643 46 46 46
0.0086037505388914 0.0539595828630399 0.0166605142539018 0.3034038 -0.8962984 -0.323412 43 43 43
0.0616341005399241 0.0543706295773896 0.0329083230311796 0.296735 -0.2806991 0.912774 71 71 71
-0.0404915885118715 0.0297242611756001 0.00373028444416713 0.289225 -0.9567921 0.02996259 61 61 61
0.0265014036020719 -0.0516062882395106 -0.0240869748502911 -0.2390476 0.5633721 0.7908654 69 69 69
0.0283212845725429 0.0483635750063535 0.0109735218979953 0.07311046 -0.5017881 0.8618953 65 65 65
0.00441775167938818 -0.00771663973558023 -0.0251255961779154 -0.07605368 -0.611909 0.7872632 57 57 57
-0.00912774130465932 0.0347061883506959 0.0252950806133296 0.3573187 -0.7566846 -0.5474958 26 26 26
-0.0353675576246588 -0.0167051257571228 -0.0299324877161091 -0.0780227 -0.5533953 0.8292564 96 96 96
-0.0354240245218995 -0.0374596666211339 -0.0196812575717368 -0.9000322 -0.07492813 0.4293342 72 72 72
-0.0427420029736467 0.0090874054065716 -0.00925558575235162 -0.1648095 -0.6717522 0.7222097 65 65 65
-0.0329778497246638 0.0278741395637854 -0.00113271903157623 -0.2866856 -0.7367221 0.6124148 77 77 77
-0.0166312926830061 0.0244563852532053 -0.00738128940502324 -0.09668218 -0.673155 0.7331541 149 149 149
0.0638682079734094 0.0335300947865043 0.0186693643243043 0.3669471 -0.3071493 0.8780712 53 53 53
0.0398105010315546 0.051086932957793 0.0165193413997309 0.1835995 -0.4527739 0.8725176 94 94 94
-0.0137425700563143 0.0102357380254153 -0.0168118457905594 -0.2150488 -0.6539309 0.7253471 89 89 89
0.00669444814948728 0.0521177188793114 0.00877092088406502 0.09622279 -0.8817806 0.4617403 148 148 148
-0.0379184070176546 -0.0317132090664636 -0.0222595686500659 -0.9220948 0.01468448 0.3866853 68 68 68
0.00836543401143697 0.0496996875176462 0.0217560943789024 0.3304738 -0.7433065 -0.5816206 53 53 53
0.0675570966672017 0.0212073203691101 0.00931336146761398 0.4402495 -0.1061824 0.8915749 68 68 68
0.0482510911525091 0.011055397722515 -0.00805169844714114 0.1713616 -0.4241594 0.8892266 71 71 71
-0.0445741781614237 0.0280461904079046 0.00364773329293945 0.1958484 -0.9663998 0.1664779 60 60 60
-0.0384294489940311 -0.000528310604107074 -0.0169462694206993 -0.06491938 -0.6795046 0.7307934 167 167 167
0.00585522794907289 -0.0299041012373379 -0.0406377834533318 -0.08084752 -0.4661586 0.8809993 82 82 82
0.0120163926392829 0.0427937591989782 0.0345386634252894 0.3093881 -0.7216123 -0.6193179 48 48 48
-0.0557704536153105 0.013539053185686 -0.00296990575700128 -0.1916644 -0.7098769 0.6777459 82 82 82
0.00385296238794863 -0.0111282156770789 -0.0277860151032995 -0.07385588 -0.6221869 0.7793772 217 217 217
0.0635833924731752 0.0537801009337125 0.0335421528238522 0.3216488 -0.2456186 0.9144471 41 41 41
0.0182862725407777 0.0520024097616431 0.0108357042054469 0.1995664 -0.3659599 0.9089811 56 56 56
-0.046720795073353 0.0106861424169408 -0.00733320128526398 -0.0556451 -0.6307883 0.7739572 127 127 127
0.0666915490812698 -0.0117702903860583 -0.0161518142121011 0.2755458 -0.1859815 0.9431254 99 99 99
-0.0326032716143652 -0.0209263598722713 -0.0330990708295642 -0.7096484 -0.3379228 0.6182292 121 121 121
0.0433709429541143 -0.0375459604008975 -0.0215527396948254 -0.2642134 0.5690115 0.7787279 67 67 67
-0.0242068477795732 0.0241896912310962 -0.00626356536497912 -0.1577415 -0.6797574 0.7162733 73 73 73
0.00661543717576407 0.024347997997444 -0.00931208350550804 0.007665371 -0.5506999 0.8346681 184 184 184
-0.0221246751681439 -0.0351894134561338 -0.0264133699015027 -0.8988345 0.1027447 0.4260752 56 56 56
0.011822543229671 0.0506408872049805 0.0243394212043472 0.4859594 -0.7417748 -0.4621834 60 60 60
-0.0365994342520288 -0.0192388210883591 -0.0316039818229549 -0.5789819 -0.3812386 0.7207198 230 230 230
0.0324278222538181 -0.0153339347823171 -0.0279792779364497 -0.02415448 -0.4104677 0.9115552 82 82 82
-0.0516676368442237 -0.00156546284455494 -0.0149946417216056 -0.02466475 -0.6781946 0.7344684 94 94 94
0.0144919539013375 -0.0300991292435567 -0.039513864463904 0.07746501 -0.22094 0.9722061 76 76 76
-0.00571351630440198 0.0172980943549045 -0.0140419643255694 -0.1024225 -0.5920984 0.7993305 95 95 95
0.0628295606424101 0.019101190166369 0.00362147315340113 0.2964105 -0.2857247 0.911319 60 60 60
0.058014607845934 -0.00706969673000823 -0.015757030904535 0.1656471 -0.3629329 0.9169737 114 114 114
0.0278438431855967 0.0412658243820174 0.00526236466012443 0.2065311 -0.4918742 0.845816 39 39 39
-0.00259172547637476 0.0457500070026775 0.00688956304382767 0.1082095 -0.9236314 0.3676897 219 219 219
-0.0378713425772657 0.00315676410035615 -0.0140242461084302 -0.01626862 -0.7342095 0.678728 185 185 185
0.00504122525403261 -0.0171976181062236 -0.0317171251947913 0.0541392 -0.6642027 0.7455895 188 188 188
0.0566883366141586 0.0139614909573977 -0.00321363907342574 0.2080404 -0.3715969 0.9047845 79 79 79
0.0754533586411901 -0.0117986109577639 -0.00559748122932856 0.4085239 0.1610416 0.8984286 100 100 100
-0.0647694375445811 0.011011883624125 0.0110800113893062 -0.4191939 -0.4121747 -0.8089429 76 76 76
0.0350347985481294 0.0113067766304389 -0.011591029102131 0.08631875 -0.4071113 0.9092907 98 98 98
-0.063961728855134 -0.00752122012273848 0.00619750683903243 -0.4039275 -0.448385 -0.7973666 33 33 33
0.0381899837821904 0.0319869134194262 0.00117724286932598 0.2304716 -0.3943864 0.8895742 140 140 140
0.0167787854154779 -0.00631477295366223 -0.0243507743359393 -0.02702347 -0.4678915 0.8833727 81 81 81
0.0606871741218162 0.0281670089717555 0.0105312588786386 0.3857539 -0.3510718 0.8531954 55 55 55
-0.0352992769101834 0.0311808473524533 0.0073458190846364 0.4441331 -0.85917 -0.2541114 36 36 36
-0.0623932382782955 -0.00343881737279483 0.0111535586481746 -0.3855467 -0.483387 -0.785933 34 34 34
-0.0520327900461153 -0.0158306647790759 -0.0266782027140193 -0.6966771 -0.372592 0.6130385 88 88 88
0.0159422238010554 0.0417385005677274 0.00210772730038346 0.02532386 -0.5147654 0.856957 81 81 81
-0.036272470761618 -0.034635574473168 -0.0207562911197091 -0.8988317 -0.07583972 0.4316827 87 87 87
0.0698510217736019 -0.0110582677863115 -0.0122499954256754 0.4151719 -0.007857978 0.909709 88 88 88
0.0416710469805719 -0.0298485170086973 -0.0262307062611626 -0.1759786 0.2722242 0.946005 81 81 81
-0.00721701255779772 0.015420181641551 -0.0147141287660435 -0.1204453 -0.5862969 0.8010923 162 162 162
-0.0183191352199863 -0.0439930151826647 -0.0218156028244938 -0.8701769 -0.01777339 0.4924189 98 98 98
0.0150767931769842 0.0196319061049405 -0.0112666046510284 -0.008375652 -0.4529971 0.8914726 157 157 157
-0.067102277438555 0.0060759894470922 0.00290185491319757 -0.4799403 -0.3877498 -0.7869609 101 101 101
-0.0161309022162754 -0.045850582346193 -0.0215768504978111 -0.8656775 -0.03191926 0.4995835 97 97 97
-0.0214291210833366 -0.0203056626183673 -0.0357017396306527 -0.1760683 -0.5985291 0.7815132 98 98 98
0.032309480849726 0.0171462540455064 -0.00882113301879316 0.03086818 -0.3694628 0.9287327 27 27 27
-0.0329777068335009 -0.0322634047239525 -0.0233681753812233 -0.9016176 -0.01964302 0.4320877 41 41 41
-0.0692347029117157 -0.00562173889837891 -0.0175972002602466 0.03597251 -0.6941532 0.7189279 91 91 91
-0.00519468386960398 -0.0484747026388795 -0.0254123310922455 -0.956245 -0.002473924 0.2925566 64 64 64
0.0683478900248278 -0.0050509141033438 -0.00881122011374912 0.3039678 -0.259488 0.9166622 110 110 110
0.0704047467695208 0.0323179940912728 0.0224811332299079 0.3954352 -0.2853486 0.8730448 45 45 45
0.0039015803430158 0.0429395591852489 0.0251330678905391 0.3914618 -0.7433588 -0.5423793 31 31 31
0.00931010460763115 -0.0196290878613269 -0.0337700279606778 0.1383486 -0.5814326 0.8017454 115 115 115
-0.0647213535885665 0.00773165033492274 -0.00614271251917202 0.002479244 -0.7271041 0.6865227 44 44 44
-0.0700239209481617 0.00726672315439381 -0.00337662790884134 -0.4397856 -0.8824942 -0.1667115 101 101 101
0.0347492536463556 0.0355033108041017 0.00269246734906849 0.1367364 -0.4372979 0.8888609 73 73 73
-0.0250007632617577 -0.0296484407549814 -0.0297696773639738 -0.9120062 0.1119006 0.3946174 76 76 76
-0.0421608250220857 -0.00975802756755695 -0.0242516308436145 0.03833611 -0.7355041 0.6764348 82 82 82
0.0201673265024755 0.032605552611459 -0.00326100847765924 0.01201868 -0.4630665 0.886242 178 178 178
0.0482257789899494 0.00779014104326392 -0.0110380612091016 0.1757392 -0.3952391 0.9016107 57 57 57
-0.00875666875831893 -0.0461850970816404 -0.0258862083703082 -0.9216534 0.1105644 0.371928 79 79 79
-0.0438734508012115 0.0182776429805404 0.019802766376497 0.4393368 -0.636904 -0.6335112 49 49 49
0.0591132111292123 0.0285755264096945 0.0094739693217878 0.3586482 -0.3550138 0.8633289 111 111 111
0.0688592261624925 0.0133837136629642 0.00354079397166569 0.4699112 -0.1032383 0.8766558 65 65 65
-0.00474498634933429 -0.015725014004683 -0.0305199433079735 0.1358528 -0.5573961 0.8190566 176 176 176
0.0126215124440052 -0.0517000921922035 -0.0355746794788698 -0.6198614 0.4736428 0.6256471 37 37 37
0.0513017255953323 0.0469290436889774 0.0197007705915483 0.3513647 -0.1765845 0.919435 37 37 37
0.00440661938019193 0.0421587969277221 0.0268675862137713 0.4084828 -0.7401884 -0.5341002 32 32 32
0.0582383873913321 0.0150754112808006 -0.00177304186050724 0.2485829 -0.34953 0.9033467 84 84 84
0.0465882357160314 0.0479408731748442 0.0157526522052223 0.2745676 -0.2681815 0.9234129 45 45 45
-0.0622820825902006 -0.00154908183084135 0.00902168593330423 -0.4127325 -0.4594891 -0.7864615 42 42 42
-0.0565634253279139 -0.013713470792341 -0.0262999407119562 -0.5799078 -0.372199 0.7246895 119 119 119
-0.0177307048678301 -0.0122142784286053 -0.0294101429141589 0.09648813 -0.6267824 0.7731972 170 170 170
-0.00285301689944584 -0.0489904397068539 -0.0273938159351853 -0.9706587 -0.1507721 0.1873222 73 73 73
0.0573508763091906 -0.0155802299602852 -0.0221837489747959 0.1330225 -0.4528725 0.881596 96 96 96
-0.0129775084981523 -0.0439223318660976 -0.0258981276320467 -0.9463612 -0.02192206 0.3223661 78 78 78
-0.0637698328154026 0.00147869690972646 0.00736265207455757 -0.4294227 -0.3785917 -0.8199174 94 94 94
0.0728455435855988 0.00862591657444722 0.00305417594386061 0.5195017 -0.0516805 0.8529051 87 87 87
-0.000264078460014971 -0.0414600220871544 -0.0366704627682643 -0.9691628 0.01178482 0.2461392 82 82 82
-0.0121845535012777 -0.0333020496354184 -0.0341843733027374 -0.9714969 0.006112298 0.2369734 112 112 112
-0.0215591157261659 0.0267258977080265 -0.00451860564886457 -0.1080332 -0.6670967 0.7370962 109 109 109
-0.013849214624706 0.0194784748425408 -0.0111420629102823 -0.106975 -0.656065 0.7470844 183 183 183
-0.0407965013780531 0.022344687118465 0.018606581189113 0.4500149 -0.6717392 -0.5884328 40 40 40
-0.00757713359076817 -0.0199604086776847 -0.0355901391494684 0.1062924 -0.6191164 0.7780725 110 110 110
-0.0669571099210802 0.0104094463283531 -0.0041409375165644 -0.1991782 -0.8218855 0.5336967 55 55 55
-0.0471485525384039 0.0242985515548471 0.0013356013380081 -0.05416411 -0.8598521 0.5076619 114 114 114
-0.0319870039250918 0.00200597493707666 -0.0168568716582324 -0.147934 -0.6650264 0.7320215 78 78 78
0.0236115932490599 0.0191977235050561 -0.00988042550642747 0.06335563 -0.4503934 0.8905795 42 42 42
-0.0436750848636223 0.0233682909744855 4.65047335433538E-05 -0.1441882 -0.6773457 0.7213963 60 60 60
-0.0104684921186533 -0.040994556701174 -0.028522289644188 -0.9455472 -0.01643048 0.3250701 73 73 73
0.000776020712888847 -0.00590324877148685 -0.0239663745704949 -0.04431999 -0.498118 0.8659759 138 138 138
-0.0376256339348018 0.0237811361287904 -0.0018043971511069 -0.2211196 -0.725692 0.6515192 82 82 82
0.00610818608754116 0.0460369711862444 0.00480451381889276 -0.08008332 -0.638963 0.7650575 75 75 75
-0.0150193607135853 0.00143829750780022 -0.0203898617332173 -0.2329345 -0.5676104 0.7896581 196 196 196
0.0463380444356627 -0.0228380887588978 -0.0264231824647142 -0.3721448 0.1228941 0.9200029 97 97 97
-0.0418793896331286 -0.0401346793475776 -0.0150615014681489 -0.8697451 -0.1020376 0.4828372 121 121 121
-0.0150492345410327 0.040469291465281 0.00744212978601651 0.3341359 -0.9425243 -0.001050625 176 176 176
0.0669681535895346 -0.00840566979990753 -0.0136166479992992 0.3870269 -0.2192256 0.8956285 110 110 110
-0.0691635737111884 0.0111494615677499 0.00053514351804175 -0.4928331 -0.820281 -0.2902665 97 97 97
0.025032914130199 -0.0503050653236126 -0.0256752152823992 -0.2397608 0.6505291 0.7206432 40 40 40
-0.0611668983259883 -0.0306507294757961 -0.0133716478948085 -0.8807157 -0.08146399 0.466587 118 118 118
0.047647803933959 -0.0129777058680225 -0.0228648253442934 0.07246718 -0.32105 0.9442857 97 97 97
0.0601965799014863 0.0565420649096495 0.0338211442419382 0.6032199 -0.3799675 0.7012492 81 81 81
-0.0396846468898344 -0.0420432267756137 -0.0155988355137995 -0.8802473 -0.03853888 0.4729477 139 139 139
0.00977616438674289 0.053604807819038 0.018730130968903 0.4175778 -0.8154876 -0.4007602 21 21 21
0.0560567196893134 -0.0210306227776056 -0.0247884111090487 -0.4143321 0.05260998 0.908604 84 84 84
0.0559287229132055 -0.0322802937068181 -0.0166805702206692 -0.4018572 0.5383974 0.7407017 50 50 50
0.0506342152427424 -0.0331236653259415 -0.0205181303486138 -0.3858982 0.4193461 0.8217247 46 46 46
0.0261687600891944 -0.044434571054873 -0.033729185888142 -0.2482978 0.62704 0.7383556 49 49 49
0.0571138734856214 -0.0332533307457272 -0.0154158379636099 -0.3756572 0.6369657 0.6731689 46 46 46
0.0607397058607404 -0.0256471219770423 -0.0199459065959469 -0.3615474 0.5967385 0.7163705 64 64 64
0.0623945660245449 -0.0237939654495718 -0.0203255533547284 -0.2408777 0.5607374 0.7921815 38 38 38
0.0550349916291721 -0.0293951942232429 -0.0208515903965474 -0.4889258 0.4804894 0.728067 17 17 17
0.0577788667081531 -0.0283594936538659 -0.0188737966062715 -0.445533 0.5522365 0.7046525 75 75 75
0.0566107517968235 -0.029332872833737 -0.0178358488041093 -0.4544267 0.5511078 0.6998404 71 71 71
0.055466744140396 -0.0295705223016872 -0.0197333466752865 -0.4629953 0.5133773 0.7225505 61 61 61
0.0524997895515225 -0.0304703222191477 -0.0211557731967556 -0.4750451 0.4004338 0.7835718 86 86 86
0.0519447691389137 -0.030769764598842 -0.0206342864580865 -0.4171358 0.4153312 0.808392 63 63 63
0.0526953687876555 -0.0301891134266333 -0.0208122641191357 -0.4750451 0.4004338 0.7835718 96 96 96
0.0511328679514822 -0.0272866257411938 -0.0220557512282239 -0.5116253 0.3297602 0.7934089 129 129 129
0.0528301401517952 -0.0265017209239078 -0.0225047185395493 -0.5308065 0.3710372 0.7619553 106 106 106
0.0493579125221597 -0.0277802749970909 -0.0223279994903396 -0.4537351 0.3368873 0.8250039 108 108 108
0.0503056603378358 -0.0256057961879812 -0.0230299908120687 -0.5112833 0.3247365 0.7956982 81 81 81
0.0524885216004018 -0.0220101316779728 -0.0253089279653063 -0.4618854 0.09061434 0.8822986 61 61 61
0.0505486445581544 -0.0231227761246182 -0.0250625056245283 -0.4940214 0.1544309 0.8556249 91 91 91
0.0502623459777141 -0.0227815008743677 -0.0255546729441745 -0.4734344 0.1311451 0.8710114 96 96 96
0.0582258237799271 -0.0250594836167679 -0.0219454198960496 -0.453376 0.4773924 0.7526929 133 133 133
0.0594151711868234 -0.0245995702969971 -0.0224366651355582 -0.3906072 0.437934 0.8097159 113 113 113
0.0565620518018006 -0.0243990306747431 -0.0233555890308724 -0.4955043 0.3495367 0.7951726 30 30 30
0.059791953442176 -0.0243311673874658 -0.0220713528738572 -0.3592975 0.4627483 0.8104131 88 88 88
0.0553090743831079 -0.0212857256717522 -0.0249563908726043 -0.4373708 0.09607761 0.8941341 106 106 106
0.0591481996103558 -0.0231271971283321 -0.0224673225853031 -0.4010174 0.4118809 0.8182538 116 116 116
0.0646482146646705 -0.0275761536573916 -0.0127320101940355 -0.2830362 0.7131462 0.6413369 66 66 66
0.0638986898384379 -0.0275830684171886 -0.0134072096971972 -0.2830362 0.7131462 0.6413369 63 63 63
0.0613179989352908 -0.0268072232473351 -0.0170596175059038 -0.3123443 0.7022159 0.6397921 85 85 85
0.0691094310726985 -0.0247484422069559 -0.0117352884068509 -0.1196842 0.6674037 0.7350156 68 68 68
0.0668044889963304 -0.0263771519146564 -0.0124547772039635 -0.221459 0.6985033 0.6804771 49 49 49
0.0671078351745744 -0.0219514879748071 -0.0170131284759938 -0.1215259 0.5905287 0.7978141 42 42 42
0.0677552207336825 -0.0217009471232703 -0.0157447311042684 -0.1068242 0.5878718 0.8018699 84 84 84
0.0683301268246472 -0.0200246372760735 -0.0167350492069417 -0.01324733 0.4316916 0.901924 80 80 80
0.0643898155951055 -0.0238438443164096 -0.0174581621450387 -0.2371119 0.6676688 0.7056886 75 75 75
0.0641741760756371 -0.0228838941216393 -0.0190888453576787 -0.2265348 0.5740312 0.7868737 82 82 82
0.0649510749959963 -0.0223903829003332 -0.0184886210269049 -0.1543558 0.5581612 0.8152487 81 81 81
0.0706661629908583 -0.0204794788219976 -0.0144689642247568 0.03808235 0.5130493 0.857514 59 59 59
0.0701098216579767 -0.020244012715762 -0.0155400446032948 -0.006974506 0.4508501 0.8925724 64 64 64
0.0693379136761343 -0.0199004521696401 -0.0160005949881627 8.169406E-05 0.3931596 0.9194703 68 68 68
0.0603138885029773 -0.0286391081501939 -0.0165112406709402 -0.3141782 0.6882046 0.6539621 26 26 26
0.0617795093129407 -0.0174848536277299 -0.0225465919224865 0.1132568 -0.01254819 0.9934865 105 105 105
0.0501321022382899 -0.0205804321839357 -0.0266070765017125 -0.3244737 -0.06261832 0.9438198 108 108 108
0.050697111398887 -0.020489039955164 -0.0260401532522222 -0.3548763 -0.07388292 0.9319893 72 72 72
0.0487916530407535 -0.0194655587438562 -0.0258470182391847 -0.1933196 -0.2459216 0.9498158 110 110 110
0.0568136719645871 -0.0176223327260696 -0.0240879991035223 -0.07022446 -0.3216252 0.9442593 100 100 100
0.0548452777012152 -0.017547080738497 -0.0247328058877588 -0.06202782 -0.3791312 0.9232616 112 112 112
0.0509996340299312 -0.0185069327494386 -0.0252498550330778 -0.1602335 -0.2962683 0.941568 111 111 111
0.0512680917493227 -0.0176244721758375 -0.0247803002120381 -0.06651857 -0.3580548 0.9313281 93 93 93
0.0497566797377464 -0.0173795933912058 -0.0248041222768447 -0.0525647 -0.3542961 0.9336548 115 115 115
0.0506015715645711 -0.015966913158689 -0.0239610050746944 0.05251337 -0.435389 0.8987095 93 93 93
0.0533780901918561 -0.0143880703914843 -0.0218898298119918 0.1139843 -0.4633397 0.8788196 120 120 120
0.0522118596063179 -0.0146037782146607 -0.0224733099019361 0.09443927 -0.458622 0.8835989 106 106 106
0.0513148782643 -0.0135424544534449 -0.0224501200793753 0.09295531 -0.4211439 0.9022179 128 128 128
0.0663943698214795 -0.0173017041888701 -0.0186334194063944 0.02983953 0.1560358 0.9873006 103 103 103
0.0683161231682532 -0.0169103623182422 -0.017079843145506 0.1218815 0.1574121 0.9799829 80 80 80
0.0667719578081671 -0.0159354413390776 -0.0176275471980201 0.1044616 0.1010763 0.9893793 98 98 98
0.0619875671671748 -0.01548043332527 -0.0205991843995077 0.175732 -0.2734235 0.9457049 102 102 102
0.0658858678086167 -0.0151619301290382 -0.0179088631084226 0.1633438 -0.03998765 0.9857585 91 91 91
0.0688815643006886 -0.0150601854499433 -0.01568001334164 0.2609165 0.09319814 0.9608521 96 96 96
0.0724496619704142 -0.0165955841525008 -0.0124029584493547 0.3203829 0.255931 0.9120604 92 92 92
0.0706600728885305 -0.0140461664150736 -0.0133016952818926 0.3544104 0.1154078 0.9279409 115 115 115
0.0692246497916265 -0.0131981375196956 -0.0147185424263594 0.3367661 0.03417189 0.940968 93 93 93
0.0624007875413755 -0.0114997990696371 -0.018035781571622 0.1794839 -0.37263 0.9104573 132 132 132
0.0690903591533103 -0.00991121493511082 -0.0127173624140032 0.4055621 -0.09253494 0.9093716 91 91 91
0.065466160782286 -0.0104702767506637 -0.0160928943111437 0.2720433 -0.2271627 0.935088 85 85 85
0.0637653361516954 -0.0110671565040772 -0.017369888151101 0.2192405 -0.3012269 0.9280064 83 83 83
0.0664361329895824 -0.0106582405611407 -0.0157330230564067 0.3021643 -0.1840707 0.9353153 97 97 97
0.065384498829498 -0.00874743482664253 -0.0142774266312142 0.347642 -0.305751 0.8863754 126 126 126
0.0586911388529514 -0.015678376121842 -0.0218520463755 0.09716322 -0.3595777 0.9280427 105 105 105
0.0603019378916607 -0.0142131275261289 -0.020383300720844 0.1753405 -0.3840245 0.9065213 105 105 105
0.0562338800526905 -0.0123459364107932 -0.0195961309662575 0.1218396 -0.4320151 0.8935984 93 93 93
0.0529438088575027 -0.0118279242653142 -0.0203312579598902 0.1134958 -0.3896171 0.9139569 129 129 129
0.0521664751721778 -0.0118898112258496 -0.0210303089427565 0.1194002 -0.3675915 0.9222907 67 67 67
0.0513082610292539 -0.010421319382561 -0.0202568810418018 0.1026044 -0.2743321 0.9561455 87 87 87
0.0545238543652355 -0.00936063665730791 -0.0185059912250522 0.09639357 -0.31668 0.9436218 97 97 97
0.0552486011357343 -0.00974716359226246 -0.0185409068442684 0.1089689 -0.3597215 0.9266748 82 82 82
0.0518228373445973 -0.00954140328421771 -0.0194149043318918 0.1161501 -0.2570473 0.9593935 71 71 71
0.0583633135038024 -0.00925876613586063 -0.017521249752892 0.1383349 -0.4169248 0.8983525 108 108 108
0.0604191434913428 -0.00863920837104348 -0.0167492682071424 0.1799568 -0.4190559 0.8899481 106 106 106
0.0595979122381771 -0.00644007531188129 -0.0147228745030807 0.2077709 -0.3642913 0.9078123 100 100 100
0.0572457181459516 -0.00454191793884562 -0.0144857672437445 0.1849124 -0.2647028 0.9464353 68 68 68
0.0529473643276628 -0.00610190981290748 -0.0171849932876608 0.09063578 -0.2519906 0.9634759 72 72 72
0.0539797971527447 -0.00569385095283281 -0.0166446668891881 0.119904 -0.2346191 0.9646642 91 91 91
0.0542578792801374 -0.00483612988623594 -0.0161801002300084 0.1317358 -0.2413659 0.9614511 58 58 58
0.0531124027740235 -0.00423028058753983 -0.0168094508568025 0.1236509 -0.2543308 0.95918 97 97 97
0.0501602921800468 -0.00436422737393083 -0.0183049981190695 0.1142275 -0.2965347 0.9481663 56 56 56
0.0509763057702539 -0.00339556941824748 -0.0172599605869514 0.1061636 -0.3201837 0.9413882 47 47 47
0.0511972245764385 -0.00216706548349666 -0.0164720891297845 0.1250493 -0.327068 0.9366906 76 76 76
0.0526630696278221 -0.00245637855410896 -0.0163473445996776 0.1358738 -0.3035981 0.9430623 62 62 62
0.0541314928556242 -0.00116009313591325 -0.0151903876696139 0.1997465 -0.2826573 0.938193 32 32 32
0.0522937330561395 -0.0010892131825897 -0.0158550233925344 0.1777668 -0.3353018 0.9251874 94 94 94
0.0292201466954367 0.0508694860014559 0.0307819443559385 0.6472214 -0.7017071 -0.2978449 33 33 33
0.0342479229559456 -0.0398644160142606 -0.0288305380284163 -0.2479574 0.5599992 0.7905176 65 65 65
-0.0469222489571761 -0.0173238579705572 -0.0292448999401342 -0.7531747 -0.2713329 0.5992548 63 63 63
0.0471380620165007 0.0240436429964201 -0.000377534635050011 0.2419772 -0.2994199 0.9229273 108 108 108
-0.0321725091596421 -0.0407567013961172 -0.0192159800061445 -0.8847301 0.02409536 0.4654804 96 96 96
-0.0424215750427339 0.0191381872820119 0.0202155756638351 0.4421829 -0.6440462 -0.6242425 31 31 31
0.00653218787677057 0.0297003181132632 -0.00577426431601689 -0.01340353 -0.6151083 0.7883286 153 153 153
-0.00474812780505074 0.00107654087447417 -0.0199162269713059 -0.2019361 -0.4911095 0.8473684 155 155 155
-0.0372437985199747 -0.0453727357004668 -0.0144957415611019 -0.9037912 -0.05308263 0.4246689 119 119 119
-0.00851098560928509 -0.042414640910601 -0.0291153724760882 -0.9396242 0.02192749 0.3415048 60 60 60
0.0298052544816323 -0.0475963930076643 -0.0235595494094511 -0.29386 0.6951734 0.6560338 82 82 82
-0.0472774034959058 0.0215103828900347 0.0131244663068323 0.4406061 -0.7002704 -0.5616828 50 50 50
0.0486862317827317 0.056344060624452 0.0251814618269876 0.5130328 -0.396991 0.7610489 45 45 45
-0.00168481885457039 0.022129857858294 -0.0112047500216963 -0.07696599 -0.5921714 0.802128 75 75 75
-0.0415640393929344 0.0159908714849858 0.0246459010976249 0.4638411 -0.6193057 -0.6334919 46 46 46
0.00979523539308502 0.0289414737844879 -0.00672607634125742 -0.01321389 -0.5966726 0.802376 66 66 66
-0.0352373908726524 -0.0133206070156753 -0.0271918180514048 0.04258389 -0.660076 0.7499909 125 125 125
0.0222961709496388 0.0463755623935757 0.0374442613296845 0.6598795 -0.6191384 -0.4257073 68 68 68
-0.0657238825770055 -0.0243087288076709 -0.0142530108853168 -0.8967442 -0.06553426 0.4376701 113 113 113
-0.0700839019112283 -0.0167411278828054 -0.00663853953046943 -0.2457459 -0.42355 -0.8719027 39 39 39
0.0401107518336135 0.0537164798918499 0.0182009993983926 0.2092626 -0.4522432 0.8669978 54 54 54
-0.0157370635597931 0.00351893929212899 -0.0194150428637093 -0.2891205 -0.5990999 0.7466516 170 170 170
0.0617503741591583 0.0437013053218102 0.0252013528279684 0.382146 -0.2408626 0.8921601 88 88 88
-0.0118262043576554 -0.0338985975029338 -0.0340412784591577 -0.9714723 0.0004815547 0.2371528 84 84 84
-0.049665698886415 -0.0314174250716117 -0.0165941663918984 -0.8509203 0.0335867 0.52422 60 60 60
-0.0485004368274242 -0.0213047474522243 -0.0249579517652889 -0.931702 0.05207819 0.3594709 56 56 56
-0.00138984174537304 0.0340147601237757 0.0333700849213262 0.3915829 -0.7142633 -0.5800782 62 62 62
0.0112887900415659 -0.0176351551699701 -0.0319793579807032 0.06436358 -0.5621994 0.8244932 86 86 86
0.0542109704280365 0.0223311605299302 0.00228409724207458 0.2676599 -0.3588594 0.8941913 51 51 51
0.0367095096860215 0.0546801875512765 0.0284564445721923 0.4874706 -0.7007684 -0.5208609 32 32 32
-0.0632091135382176 0.0199929809934182 0.00546596069098977 0.3764904 -0.9140617 -0.1508183 61 61 61
0.0391710322095422 0.0613295214470643 0.0229343331343557 0.5224375 -0.7922339 0.3153164 107 107 107
-0.0294688940315431 -0.00947562178950867 -0.0260351784555935 -0.02819427 -0.750863 0.659856 202 202 202
-0.0661865582902292 0.00136872773245733 0.00332401985966004 -0.4356283 -0.3743148 -0.8186064 69 69 69
0.0177366709301254 0.010029861863103 -0.0162677107148387 -0.06123551 -0.4396367 0.8960858 77 77 77
0.0340485154771826 0.0505461121648638 0.0338666567436532 0.6373118 -0.6623772 -0.3938147 24 24 24
-0.00825227880070001 -0.0338155209598924 -0.0369467763482183 -0.979899 -0.0163861 0.1988201 80 80 80
-0.0529911044670768 -0.0161979736786243 -0.0257147981781296 -0.6832449 -0.2771354 0.6755534 98 98 98
0.0174141092109825 0.0356041296342305 -0.00180076004424455 0.01624979 -0.4662862 0.8844846 189 189 189
-0.0238347022899066 -0.0512584478148232 -0.0169347944527026 -0.8047008 -0.09393674 0.5862018 81 81 81
-0.0508734866126637 -0.040495239144596 -0.0109078585089311 -0.9160112 0.01699578 0.4007925 83 83 83
0.02856713597986 0.0517021566873722 0.0274773922657541 0.6172354 -0.7189777 -0.3195177 27 27 27
0.0135236559367775 -0.0477262377942256 -0.0413725210006839 -0.7042 0.3158395 0.6358835 64 64 64
0.0124546537200749 -0.0452854921372898 -0.0424936172328588 -0.6540944 0.1295182 0.7452419 85 85 85
0.0105953315867673 -0.0430989408845921 -0.0422070984731501 -0.7557651 -0.05013263 0.652921 82 82 82
0.0124986402465295 -0.0418789632082902 -0.0438409192020772 -0.4757364 -0.01941735 0.8793736 56 56 56
0.00889773692623752 -0.0453721023877207 -0.0403057526561259 -0.9244985 -0.0784198 0.3730321 94 94 94
0.00962977212084537 -0.0444346319466838 -0.0416132110687585 -0.8925191 -0.08641479 0.4426536 32 32 32
0.00761461564395738 -0.0417878249145065 -0.0413783882357391 -0.890455 -0.09605558 0.4448182 59 59 59
0.00723678218460488 -0.0421783092958601 -0.0411374844777004 -0.9335057 -0.07706475 0.350183 46 46 46
-0.0206012144047785 -0.00120794747964725 -0.0200487517197338 -0.2071033 -0.7061944 0.6770508 170 170 170
-0.0339732414122302 0.0268473956992026 0.016438435844229 0.4695698 -0.7643341 -0.4419248 38 38 38
0.0308415541897915 0.0505349617941475 0.0127920836239083 0.1257948 -0.4576719 0.8801773 47 47 47
0.0156666280282507 -0.0605371573383878 -0.0285429226911866 -0.3743124 0.2372201 0.8964468 107 107 107
0.0144369515526144 -0.0600200561464274 -0.0289244868265082 -0.3808863 0.2873947 0.878823 92 92 92
0.0128873464935002 -0.0599569110117136 -0.0290609891234638 -0.5583652 0.2942821 0.7756458 97 97 97
0.0141575072312907 -0.0595039331502096 -0.0284335836508116 -0.4175468 0.21548 0.8827361 100 100 100
0.00824990574450934 -0.0619036729743592 -0.0278951040178936 -0.8228481 0.06632251 0.5643778 136 136 136
0.00789812475853724 -0.0602151775096538 -0.0292634840021775 -0.8841971 0.07827319 0.4605093 134 134 134
0.0066843375214205 -0.059905051103071 -0.0283226385125719 -0.9268839 0.01329007 0.3751129 135 135 135
0.00651953653219151 -0.0610648895908334 -0.02729160706131 -0.9469876 0.0218276 0.3205276 148 148 148
0.00510542419345228 -0.0595907004256295 -0.0275352593058091 -0.9767975 -0.05916663 0.2058301 147 147 147
0.00309524785255233 -0.0594459592646351 -0.0256492456206917 -0.9760898 -0.1313874 0.173165 121 121 121
0.00160048296758752 -0.0584652381566995 -0.0251773664890643 -0.9711761 -0.1871058 0.1476768 87 87 87
0.0251473719063346 -0.0538870306570601 -0.0248592105825216 -0.2548723 0.52885 0.8095418 92 92 92
0.0308979044811006 -0.0463544010910387 -0.026252606021767 -0.3090556 0.7354968 0.6029338 74 74 74
0.0278358355927382 -0.0481019845929166 -0.0248391981391169 -0.2656156 0.6949004 0.6682528 47 47 47
0.026597985420044 -0.0503352210538455 -0.0243208073676354 -0.2459934 0.6150691 0.7491177 90 90 90
0.0264974450479247 -0.047588477311743 -0.027351045206375 -0.291875 0.7128359 0.6377099 64 64 64
0.0294181157706941 -0.0458735211875257 -0.0262673613244662 -0.307653 0.7368487 0.6019996 90 90 90
0.0317494383111261 -0.0477813700317696 -0.022097145918595 -0.3126914 0.7040907 0.6375582 78 78 78
0.0335330238933005 -0.045530455572279 -0.0228911736398992 -0.3278795 0.7129503 0.6198362 42 42 42
0.0324117443859633 -0.0471453371073995 -0.0228677276266922 -0.3126914 0.7040907 0.6375582 84 84 84
0.0310160730698286 -0.0474446825615629 -0.0223028543725919 -0.3126914 0.7040907 0.6375582 75 75 75
0.0321044845461618 -0.0459931030749151 -0.0243131132262104 -0.3280138 0.711953 0.6209106 76 76 76
0.0283990860386312 -0.0494050105055953 -0.0230944250310528 -0.2727594 0.6645815 0.6956534 88 88 88
0.0261238216131985 -0.0462178736980415 -0.0312833110708234 -0.319669 0.7375689 0.5948142 73 73 73
0.0250843964917555 -0.0435393777959635 -0.0346075964570817 -0.1802353 0.5474227 0.817217 49 49 49
0.0274197812102441 -0.0436444792333899 -0.0321301689264564 -0.2277698 0.6298131 0.742601 53 53 53
0.0267460181182408 -0.0409948896575025 -0.0359750932885622 -0.09504916 0.3549105 0.930056 63 63 63
0.0253152116148141 -0.0411370071644597 -0.0374344356802163 -0.0959104 0.2297006 0.968524 99 99 99
0.0255569265212761 -0.0395660782475132 -0.0367814817421779 -0.03602487 0.2227107 0.9742187 123 123 123
0.0243015262498294 -0.0385139238909178 -0.0367671675478033 -0.02547922 0.03363142 0.9991094 102 102 102
0.0290586570922349 -0.0387781251717968 -0.0347497883316275 -0.006202694 0.2599404 0.9656047 130 130 130
0.0242723686607302 -0.0373866600341302 -0.03603747889778 0.0426174 -0.04636675 0.998015 75 75 75
0.0259748611891091 -0.0373663617751937 -0.0348167825283652 0.02013468 0.01535159 0.9996794 100 100 100
0.037085394182562 -0.037400764756744 -0.0277274587564507 -0.2154348 0.4824402 0.8490226 69 69 69
0.0380750786161919 -0.0354109135363976 -0.0275267992101142 -0.1605732 0.3571517 0.9201407 80 80 80
0.0410406472688938 -0.0346536009352703 -0.0266677808807458 -0.1353308 0.4264787 0.8943162 75 75 75
0.0394095821697618 -0.0341585044900341 -0.027533234756251 -0.125233 0.3058707 0.9438007 98 98 98
0.0336219309498129 -0.0412853898311832 -0.0273533759808912 -0.2588852 0.6216816 0.7392499 45 45 45
0.0298145766713787 -0.043232606326161 -0.0290842332959534 -0.231354 0.7209831 0.6531911 52 52 52
0.036327922415321 -0.0430665076950548 -0.0232403179710854 -0.3229339 0.6891224 0.6487095 59 59 59
0.0357787910618836 -0.0383315590504981 -0.02863443093985 -0.2342888 0.4469757 0.8633201 58 58 58
0.0340282212597436 -0.036754596619858 -0.0299402660270502 -0.1832375 0.3536418 0.9172575 78 78 78
0.0213418737381006 -0.0549154606757053 -0.0263912379758943 -0.2853991 0.4511792 0.8455676 59 59 59
0.0186023098620431 -0.0552398895964643 -0.02703349642446 -0.33797 0.3716047 0.8646885 68 68 68
0.0199247062826626 -0.0535889220921714 -0.0273060484745577 -0.3212428 0.4382603 0.8394826 60 60 60
0.0121633068559341 -0.0584485899532717 -0.0290995762484449 -0.5089073 0.2911855 0.8100768 105 105 105
0.0152318592541589 -0.0551430932208479 -0.0287896217215543 -0.3244354 0.4226669 0.8462236 70 70 70
0.0147317788116612 -0.0537100303874242 -0.0297572186640838 -0.3742882 0.5458074 0.7496684 44 44 44
0.0169314776900298 -0.0536415706424481 -0.0282105435029021 -0.3644573 0.4372949 0.8221582 73 73 73
0.013166359929329 -0.0511955731211551 -0.0356226425293871 -0.6624309 0.5133456 0.5455837 46 46 46
0.0181760958089567 -0.0496017889913994 -0.0326511749708236 -0.388674 0.687834 0.6130391 49 49 49
0.0233399677107338 -0.049472517813136 -0.0284001296055276 -0.2501597 0.650479 0.7171451 64 64 64
0.0230723647156115 -0.0481845040927366 -0.0295072296391573 -0.3085633 0.6954695 0.6489305 52 52 52
0.0097323665712481 -0.0588043814455483 -0.0304171565694467 -0.7870531 0.265422 0.556865 90 90 90
0.00803636743459668 -0.05876247935396 -0.0304362521213818 -0.8418634 0.1739527 0.5108879 118 118 118
0.0110334627826174 -0.0550249669988095 -0.0341357165691179 -0.6562442 0.452469 0.6038339 76 76 76
0.0102522882997604 -0.0564019788938478 -0.0321499336980118 -0.6431967 0.3591064 0.6762697 43 43 43
0.00990242649708373 -0.0553981208344301 -0.033573515060236 -0.7833788 0.3083003 0.5396931 45 45 45
0.011095149335643 -0.0553723928815145 -0.0318947084201814 -0.5509459 0.4773313 0.6845535 25 25 25
0.00775970173981788 -0.0564183631271374 -0.0317013480662286 -0.922168 0.07099973 0.3802174 59 59 59
0.00802870092641372 -0.055230371978591 -0.0333237083650919 -0.9338101 0.07842115 0.3490684 80 80 80
0.00850918560200187 -0.0344485010869277 -0.0424062925943495 -0.2591524 -0.3127451 0.9138001 63 63 63
0.00606246312294001 -0.0569943565520012 -0.0300287211765697 -0.9402018 -0.01315225 0.3403639 72 72 72
0.00464572066262559 -0.0556818962555995 -0.0305466901517176 -0.9636288 -0.1522098 0.2196627 78 78 78
0.0112592220905219 -0.0560663759857345 -0.0303690824582047 -0.5514094 0.4036461 0.7300804 26 26 26
0.00593084845683611 -0.0578204610598235 -0.0289513150549154 -0.951171 -0.05263911 0.3041426 131 131 131
0.00276304460836485 -0.0579073987186964 -0.0265994992195098 -0.9734034 -0.1540843 0.1695402 106 106 106
0.00876855281734956 -0.0527503711212484 -0.0354599813556366 -0.9090005 0.08118386 0.408812 45 45 45
0.00821149558117185 -0.0528835397635085 -0.0351355446430943 -0.9177878 0.05119766 0.3937565 64 64 64
0.00699082346772872 -0.0523476643406382 -0.033752134554276 -0.9550784 -0.0290434 0.2949269 82 82 82
-0.013039462875811 -0.0391393892288838 -0.0285407313259922 -0.9374702 -0.05259392 0.3440691 29 29 29
0.00741714603590005 -0.0521895301712992 -0.0353814274749313 -0.94401 -0.04723438 0.326518 84 84 84
0.00693064079599148 -0.0498251955842756 -0.03676025427534 -0.9450778 -0.1440282 0.2934004 80 80 80
0.00437242534773485 -0.0527427206746122 -0.031865644598848 -0.9619019 -0.1668965 0.2165416 66 66 66
0.00560968473339418 -0.0524294516687406 -0.0330144413533501 -0.9609749 -0.1384651 0.2394882 80 80 80
0.00429294461467178 -0.0514771257135324 -0.0323343963278749 -0.9610988 -0.1819915 0.2077692 67 67 67
0.0022196904113394 -0.0525035272512967 -0.0299067485310811 -0.9634649 -0.203809 0.1737737 63 63 63
0.00532786141653308 -0.0497644824874083 -0.0345104550806264 -0.9575057 -0.1690881 0.2336494 79 79 79
0.00420286643268719 -0.0494754939483432 -0.0336648540045288 -0.9571972 -0.1990591 0.2101164 64 64 64
0.00254262024889584 -0.048740131459031 -0.0331147087497499 -0.962592 -0.1804215 0.2021503 90 90 90
0.00179010293524318 -0.0488396739922993 -0.0320794075539786 -0.9642819 -0.1897606 0.1848009 81 81 81
0.00087211980443902 -0.0502696096967723 -0.0303946251535697 -0.9646406 -0.1936826 0.1787613 57 57 57
0.000513255855256745 -0.0482310901578999 -0.0308181062737417 -0.9696454 -0.1552828 0.1888781 71 71 71
0.0240299822892811 -0.0540067069365028 -0.0254360365045451 -0.2967719 0.5534131 0.7782419 64 64 64
0.0176295405843847 -0.0459269726575237 -0.0394050804455797 -0.3388883 0.4940395 0.8006745 46 46 46
0.0190315758954922 -0.0459209338517195 -0.0375185933944822 -0.3159434 0.5370582 0.7821434 32 32 32
0.0116569475186954 -0.0497416563563206 -0.0388324454543584 -0.8833126 0.1767581 0.4341836 47 47 47
0.0225461628427928 -0.044159895712839 -0.0359121511271481 -0.2560743 0.4916577 0.8322852 27 27 27
0.0185154726953902 -0.0438154040517938 -0.0404993542456562 -0.199368 0.1700487 0.9650574 94 94 94
0.0187709626302928 -0.0418267495296185 -0.0398487459085983 -0.08710831 0.08146361 0.9928625 93 93 93
0.0214204283873305 -0.0419309839594162 -0.0391173460565444 -0.1374649 0.1313566 0.9817581 99 99 99
0.0201667882218293 -0.0398538239602352 -0.0390263779095435 -0.04669476 -0.002443132 0.9989062 124 124 124
0.0191843275470296 -0.038226459456968 -0.0392511545827707 -0.03060974 -0.07337386 0.9968346 84 84 84
0.0184600008478117 -0.0393872746229398 -0.0392107947481863 -0.07551268 0.03923061 0.9963728 117 117 117
0.0156779734104715 -0.0425828601722891 -0.0412520885081966 -0.2370706 0.1553117 0.9589973 60 60 60
0.0222404976481547 -0.0388512974933426 -0.0382220386204239 -0.02174231 0.00990982 0.9997145 83 83 83
0.0104814454117395 -0.0491781550509641 -0.0384777555573825 -0.8833126 0.1767581 0.4341836 48 48 48
0.0092321290080748 -0.0483440810124441 -0.0383749675252214 -0.922825 0.02256002 0.3845583 74 74 74
0.0084738770851871 -0.048889712828296 -0.0373760980852456 -0.9281323 -0.00382984 0.3722309 96 96 96
0.00666486436166025 -0.0494216640267635 -0.0359590287649599 -0.9451097 -0.1456601 0.2924905 72 72 72
0.00604593198023151 -0.0482145503881579 -0.0364855541760884 -0.9408298 -0.1774104 0.2887296 55 55 55
0.0090983744880746 -0.0473852234087827 -0.0388812558471844 -0.9269862 -0.1144521 0.3572076 89 89 89
0.00676037108255167 -0.0467020671365753 -0.0376943575007815 -0.952978 -0.1465846 0.2652281 57 57 57
0.00459365594020289 -0.0482600009360222 -0.0348834105551477 -0.9542542 -0.2011314 0.2212355 93 93 93
0.00108422943504483 -0.0459186837386339 -0.0332654150610643 -0.9664869 -0.1232441 0.2251974 104 104 104
0.00420325781662312 -0.0452504100734566 -0.036653034515649 -0.960618 -0.1590317 0.2278641 70 70 70
0.00347407403459332 -0.043887606591735 -0.0365709630322034 -0.9705258 -0.07957843 0.2274796 57 57 57
0.00245132906943724 -0.0444006932625424 -0.0354613862474372 -0.968251 -0.09819426 0.2298867 69 69 69
0.00790530824032798 -0.0445563257408386 -0.0398779783429215 -0.9363121 -0.1284398 0.3268375 70 70 70
0.00377933066757219 -0.0428238652908954 -0.0373414222322623 -0.9658104 -0.06636354 0.2506115 50 50 50
0.00191833360501148 -0.0418472826777205 -0.0373828624720435 -0.969319 -0.03060686 0.2438931 56 56 56
0.00281846592756496 -0.0424802925549778 -0.036406146282528 -0.9743564 -0.04833129 0.2197585 60 60 60
-0.00035870315455 -0.042045054575541 -0.0358923950319674 -0.9718715 -0.006196138 0.2354302 100 100 100
0.00329402248259303 -0.0408202750449426 -0.0396574401289269 -0.9639649 -0.01208162 0.2657551 40 40 40
0.000680760867115993 -0.0385643492425292 -0.0393102615235702 -0.969258 0.02995982 0.244216 82 82 82
0.0387467371361794 -0.0438691289734884 -0.0203524656671723 -0.307765 0.6737426 0.6718271 85 85 85
0.0436533802365831 -0.0404705165797606 -0.0193392139096959 -0.2987691 0.5901423 0.7499794 54 54 54
0.0450333060167885 -0.0396217287545787 -0.0189577753304639 -0.2945985 0.5590669 0.7750199 44 44 44
0.0394334201680695 -0.0424660495701181 -0.0196684319409945 -0.3080025 0.6492792 0.6953927 89 89 89
0.04014748581876 -0.0404741175327342 -0.0215726696270798 -0.2807785 0.621424 0.7314339 51 51 51
0.0429124504674046 -0.0368105461284025 -0.0223852774212627 -0.2484232 0.5648669 0.7868998 74 74 74
0.0445484034040202 -0.0372590027654004 -0.0206187018973409 -0.2894805 0.5419498 0.7889813 110 110 110
0.0455295061677421 -0.0358973545303045 -0.0206277564067035 -0.2802587 0.5222338 0.8054358 62 62 62
0.0481646947706302 -0.0350430355885355 -0.0193239515363155 -0.3370416 0.4563084 0.8235202 46 46 46
0.000927602675172778 -0.0579341148532037 -0.0239055868211357 -0.968098 -0.1897625 0.1636348 80 80 80
0.017412600077634 0.0287261814138089 -0.00526382670752111 0.09665801 -0.4407931 0.8923893 115 115 115
0.00083580549678075 -0.0565783999159439 -0.025494247849437 -0.9700058 -0.2030445 0.133648 73 73 73
-0.000713840367269736 -0.0560083886333624 -0.0236226098213654 -0.9656538 -0.1904951 0.176704 41 41 41
0.00100236645233265 -0.0555091937923134 -0.0261026425973056 -0.9700058 -0.2030445 0.133648 67 67 67
-0.000315761704301476 -0.0553504093059161 -0.025422986861339 -0.9682127 -0.1988844 0.151688 71 71 71
-0.000762968823989407 -0.0528806893882507 -0.0264202737881671 -0.9718607 -0.1832381 0.1480221 85 85 85
-0.001494001457373 -0.0525409630988701 -0.0254389694983185 -0.9692 -0.1762415 0.1720182 77 77 77
-0.00240230873700709 -0.0525310917761258 -0.0246700551623269 -0.9662627 -0.163262 0.1992032 63 63 63
-0.00281182601382213 -0.05262362878935 -0.0236775723983365 -0.9609457 -0.1609148 0.2251437 43 43 43
0.000442876881826759 -0.0518160329771127 -0.0283660254389301 -0.9680094 -0.1927195 0.1606769 72 72 72
-0.000854406984563738 -0.051703103809402 -0.0270388360251291 -0.9704661 -0.1807788 0.1597331 68 68 68
-0.0030500287606019 -0.0506457079161968 -0.0253898972664065 -0.9693226 -0.1484822 0.1958744 70 70 70
-0.00139187598027801 -0.0492520402045392 -0.0281656940958622 -0.9755277 -0.1475954 0.1629763 74 74 74
-0.000221465541829335 -0.0494574507704318 -0.0293371992427908 -0.969335 -0.1819272 0.1652032 89 89 89
-0.00329574618873529 -0.0475175845796022 -0.0283842506567689 -0.9745302 -0.0965027 0.2024308 62 62 62
-0.0104676081273625 -0.0466623038438898 -0.0249115720377192 -0.9211956 0.06483302 0.3836605 57 57 57
-0.00548702820258384 -0.0530687422896924 -0.021818665284486 -0.9415931 -0.07886195 0.3273884 51 51 51
-0.00653717455994318 -0.0517756618451243 -0.0219742813621007 -0.939036 0.0002613438 0.3438187 105 105 105
-0.00828594985700493 -0.0513090495208501 -0.0215556976175432 -0.9142858 0.05021143 0.4019456 104 104 104
-0.00543676259060577 -0.0506540268577516 -0.0234905522805743 -0.9546405 -0.02455058 0.296747 62 62 62
-0.00664920667011337 -0.0484632388082686 -0.024033067462753 -0.9390084 0.04236321 0.3412749 61 61 61
-0.00722795187588865 -0.0505052451407731 -0.0224006898313503 -0.9236826 0.03714402 0.3813538 104 104 104
-0.00999842029258646 -0.0526436767278484 -0.0197653384101943 -0.8869569 0.06142743 0.457749 65 65 65
-0.0139635621966052 -0.0521878051904373 -0.0189648758986656 -0.8353627 0.001522121 0.549697 121 121 121
-0.0142437038981988 -0.051506874610623 -0.0193454055439209 -0.8354806 -0.03389112 0.5484738 98 98 98
-0.0176440526211952 -0.0510657482065576 -0.0195187197001352 -0.8106149 -0.05274916 0.583199 71 71 71
-0.0177081484647093 -0.0505925647718959 -0.020044788863636 -0.8158836 -0.05324292 0.5757596 58 58 58
-0.0105038942761619 -0.0496285180581383 -0.022556559420675 -0.904165 0.07148173 0.4211603 97 97 97
-0.0136274057637591 -0.0491593319051201 -0.0213852862311984 -0.8759232 -0.02337005 0.4818843 39 39 39
-0.0146147247585584 -0.0475922150084048 -0.021188913677475 -0.8595893 -0.05918933 0.5075459 92 92 92
-0.0165179563886957 -0.0491135562026139 -0.0202690199311557 -0.8147492 -0.0594671 0.5767559 60 60 60
-0.0163224281292838 -0.0503039453229326 -0.020086697204608 -0.8212549 -0.06278062 0.5670969 58 58 58
-0.0158535436863692 -0.0488319860463471 -0.0208494121724379 -0.8299995 -0.06340364 0.5541487 38 38 38
-0.0159473878432363 -0.045906772499775 -0.0218232005404066 -0.8686234 -0.03401585 0.4943038 91 91 91
-0.00178525084955794 -0.0428066756629636 -0.0329854186174576 -0.9782652 -0.01358976 0.2069121 95 95 95
