ply
format ascii 1.0
comment File exported by Rhinoceros Version 7.0
element vertex 470
property float x
property float y
property float z
property float nx
property float ny
property float nz
property uchar red
property uchar green
property uchar blue
end_header
0.0970400908345214 0.00226476596182423 -0.0296402324205776 0.2551682 0.8811913 -0.3979837 96 96 96
-0.07783998464662 0.0165376030201099 -0.00106146471887214 -0.9807137 0.08328906 0.1768152 110 110 110
-0.00974550930723128 -0.0279498227362507 -0.0200860053478497 -0.1772565 -0.9449067 0.2751935 131 131 131
-0.0352469463494268 -0.0285987231391405 -0.0110416610847691 0.1666988 -0.9719006 0.1661949 101 101 101
-0.0102706637114486 -0.0239256041771445 -0.0340260952320953 -0.08063981 -0.1044438 -0.9912561 96 96 96
0.036663169472526 0.0288754910893949 -0.0331970654795244 0.03930561 0.1606069 -0.9862355 108 108 108
0.00995152599691951 0.032803180864988 -0.0326723734703476 -0.02221734 0.05586064 -0.9981914 103 103 103
0.0362569297453378 -0.0333307013407287 -0.00432663038736766 0.2117198 -0.9659442 0.1487497 100 100 100
-0.0553955310582149 -0.0185980825533347 -0.0332120839630941 0.001458894 0.036032 -0.9993496 95 95 95
-0.0289833551416739 0.0409351132137887 -0.0292052017017714 0.1212574 0.1822722 -0.9757425 69 69 69
0.0481297746230653 -0.0272768126924845 -0.0325572045327117 0.1739924 -0.6394757 -0.7488641 177 177 177
-0.00630719836103044 0.0178553257933425 -0.032782101501705 -0.0005146312 0.04076135 -0.9991688 118 118 118
-0.00235675862169471 -0.0246617633771831 0.00628647196966725 -0.1687554 -0.9574064 0.2342959 97 97 97
0.0926891600926234 -0.0152106845166953 -0.00140782360228314 0.8478444 -0.2822261 0.4488967 126 126 126
-0.0105795472387274 -0.0127729189428263 0.0351986967154021 0.06309883 -0.885274 0.4607694 154 154 154
0.0947743097653113 -0.0121991557609751 -0.0335283316240466 0.1006092 -0.4876643 -0.8672147 99 99 99
-0.0666771870136481 -0.0279525633973436 0.00585251683515767 -0.7173014 -0.6810673 0.1470578 65 65 65
-0.0192198362926584 -0.00333461266622948 0.053896665753068 0.2285215 -0.8315543 0.5062562 61 61 61
0.016290990777406 0.0491650439840519 -0.01719182938289 0.7943422 0.6062989 -0.03771198 77 77 77
0.00373258666097842 -0.0269399159685819 0.00167930289375762 -0.05972739 -0.9637471 0.2600464 56 56 56
0.0160668054141569 0.0502022458661238 -0.026179751275464 0.4903284 0.8113301 -0.3183103 117 117 117
-0.0481877642119085 0.0336084906951659 -0.0319613280424034 -0.03649982 0.008807423 -0.9992949 101 101 101
0.0127844889060141 -0.033313700759793 -0.0122729122227495 -0.3048845 -0.8512412 0.4271228 69 69 69
0.0227099497909244 -0.024257538100471 -0.0346579848606805 0.006481134 0.02127832 -0.9997526 98 98 98
-0.0793863144163782 0.0295977230876301 -0.0292700825476609 -0.6614788 0.3748995 -0.6495354 79 79 79
0.0887179113815108 -0.0109155468220905 -0.0333521909561544 0.03835128 -0.1081842 -0.9933909 113 113 113
0.0703000374773061 -0.00864011007406296 -0.0335782312906553 0.02892518 0.03270154 -0.9990465 107 107 107
-0.0317582599667239 -0.0290347127696622 -0.0236855311359457 0.1531327 -0.9869236 -0.05032057 114 114 114
0.0246464330734323 0.0135977184607099 0.0296410458190252 0.542698 0.6547658 0.5260804 82 82 82
0.0645872405247067 -0.0281134882801954 0.00577162289778721 0.1291422 -0.9882739 0.0814682 95 95 95
0.0977437994217247 -0.0139532273123852 -0.0283705681899486 0.229334 -0.9046806 -0.3591087 120 120 120
-0.0586002336446683 -0.0208822704291705 0.0309538933897424 -0.1003776 -0.8431719 0.5281908 131 131 131
0.0467838502097643 -0.0130521674615636 0.0261231565556595 0.3985771 -0.5066373 0.7644965 73 73 73
0.0868573948493745 -0.0222348096596061 0.00276678424818474 0.544439 -0.7451479 0.3851504 142 142 142
-0.0588293675066316 0.0139102969980416 -0.0319857669889624 -0.008688162 0.03059543 -0.9994941 175 175 175
0.00183820832316184 -0.0145506062824048 -0.0336974537831985 -0.006550305 0.02612464 -0.9996372 88 88 88
-0.0158470756107156 0.0170724260783559 -0.0326813879727295 -0.00936113 0.01418856 -0.9998555 232 232 232
-0.000698508808895215 0.035153707601371 -0.0308626166770382 -0.07138947 0.344374 -0.9361144 84 84 84
0.00918804846438825 0.0554251547393034 -0.0211595589215795 0.2177266 0.735415 -0.6416852 114 114 114
-0.0737104541105444 -0.00221102302747034 0.018207242234001 -0.8092161 -0.4132368 0.4176179 41 41 41
0.0326965253492262 0.00663568700170569 -0.033479014040102 -0.01536005 0.02637874 -0.999534 76 76 76
0.0927259358981345 -0.0188344469553776 -0.0156741133169254 0.2632729 -0.9323826 -0.2476895 163 163 163
-0.00627446382232366 -0.0215525538794292 0.0188368533367077 -0.1390951 -0.9772525 0.1600943 150 150 150
0.0332739607313678 -0.00460391479056765 -0.0337977164714162 0.005431919 0.03793933 -0.9992653 97 97 97
-0.00986928391474584 -0.0217756713949797 -0.0343268002631539 -0.02065808 0.004165403 -0.9997779 63 63 63
-0.0507014564110229 -0.0297586524586593 0.00493131351842388 0.1857627 -0.9506323 0.2485768 107 107 107
-0.00980077592485595 -0.0300148828027897 -0.0228793155692385 -0.2251132 -0.9547194 0.1945118 122 122 122
-0.0642808106370245 -0.0281926148146221 0.0162893017095212 -0.4927485 -0.7223989 0.4851173 125 125 125
-0.0237659722643756 -0.0212828136507246 0.0229123935466842 0.2237575 -0.9469863 0.2305421 145 145 145
-0.0704326401375607 0.00356202404546102 0.0366322095958142 -0.8185508 -0.5320705 0.2165079 49 49 49
0.00165041304562918 -0.00664888446562628 0.0433377149537312 0.008257377 -0.9256414 0.378312 105 105 105
0.0262009243284952 -0.03393641622586 -0.00372340876879343 -0.2421626 -0.9025154 0.3561227 120 120 120
-0.0697183239637938 -0.0279812043896093 -0.0132126919123664 -0.5232536 -0.8489419 -0.07418447 110 110 110
0.0661816313174353 0.016546652665284 -0.0265046964367759 0.5147492 0.8488108 0.1206383 127 127 127
-0.0827622447285496 0.0226079171852196 -0.027643304993752 -0.9416205 0.1786036 -0.2853971 75 75 75
-0.0403910893010913 -0.0226056686858711 0.0320321717975108 0.1701646 -0.9220813 0.3475775 118 118 118
0.014820683759869 -0.00515916771662361 -0.0339225221298713 -0.008563171 0.04116965 -0.9991155 82 82 82
0.0152377189759786 0.0414483895477109 0.00290023344196508 0.7181675 0.5327036 0.4477302 38 38 38
0.00814833937688841 -0.024280315758096 -0.0340351304802196 -0.01773882 0.02729479 -0.99947 80 80 80
0.0784627262504048 -0.0155865547890384 0.0104727955202615 0.519061 -0.2706577 0.8107528 86 86 86
0.0248139719550785 0.0411143933612645 -0.0255268274328491 0.544534 0.8280416 -0.1335283 65 65 65
0.00870101019623848 0.04867849625522 -0.0259458304929254 -0.24012 0.5061108 -0.8283684 72 72 72
0.0966427994237944 -0.0179844077387328 -0.0148145092760501 0.5327668 -0.8461111 0.0159885 165 165 165
0.0847515687896662 -0.023218197657662 0.00331585777807092 0.5367088 -0.762876 0.360505 208 208 208
-0.0257448151731235 -0.0220644560269283 -0.0336545272878313 -0.01193757 -0.13157 -0.991235 127 127 127
-0.0346713938842217 -0.0246006341625236 -0.0330150584136293 -0.02783073 -0.3080129 -0.950975 88 88 88
0.0936811155615493 -0.00430111260065291 -0.0336832980368224 -0.000765299 0.04548268 -0.9989648 95 95 95
0.0363546623786297 0.00929652372089662 0.0228156575669007 0.4720599 0.7061029 0.527805 63 63 63
-0.000556935568978512 0.022045335588488 -0.0327607887673203 -0.02685943 0.02145216 -0.999409 95 95 95
0.0201741891271727 0.0024773671667695 -0.0335101304517278 -0.02377492 0.03134279 -0.9992259 94 94 94
-0.0758024369139161 -0.0221444155838677 -0.00538931339181106 -0.6641365 -0.734453 0.1396481 75 75 75
0.0189370180390118 0.0275949971654439 0.0148317081322453 0.6319361 0.618346 0.4672313 84 84 84
0.0458916121507514 -0.00810522784387979 -0.033921676514442 0.00936441 0.02305207 -0.9996904 87 87 87
-0.0375703414435712 -0.0268510305381906 0.0154856794570128 0.2185756 -0.9549112 0.2009209 140 140 140
-0.0112906853866662 -0.0111013669471463 0.0401260822141559 0.02598652 -0.8965632 0.4421529 141 141 141
0.0175829134946532 -0.0301300828318565 -0.0346040210270144 -0.007416391 -0.04717764 -0.998859 123 123 123
-0.0408064689323714 -0.0288411601154748 -0.00712458530650861 0.2382241 -0.9602391 0.1455686 90 90 90
-0.00700733815695798 -0.0253980447498805 -0.00113807253846662 -0.318507 -0.943866 0.08757958 114 114 114
0.104399655656309 0.000123382093604185 -0.0286065211584139 0.608381 0.7658647 -0.2081439 49 49 49
-0.0801034067579297 0.0103103296159808 -0.014797660911793 -0.9938275 0.01249092 0.1102308 56 56 56
-0.0236050581337935 -0.0116840552943884 0.0450797343449521 0.2133795 -0.9057802 0.3661031 117 117 117
0.040043207497562 -0.0341864358860737 -0.0167726778708696 0.3307475 -0.9422768 0.05215879 95 95 95
0.0294468978326451 -0.0340689179353302 -0.000711250672930347 -0.1502893 -0.9455175 0.2888075 175 175 175
-0.0512562278374308 0.00277404056387143 -0.0323033782338152 -0.009531952 0.01126337 -0.9998912 73 73 73
-0.0661462191468942 0.0357582372368961 -0.0310700746715023 -0.1115551 0.2675337 -0.957069 93 93 93
-0.0157331412697804 0.00992872800797118 -0.0330978968630298 -0.0205182 0.01113311 -0.9997275 210 210 210
0.0831772757421009 -0.0137610727209954 0.00817571705363085 0.5256709 -0.3094057 0.7924255 121 121 121
-0.0420372626617822 0.0567770745663092 -0.0276279316021466 0.08729075 0.3964219 -0.9139091 89 89 89
0.0874252252098798 0.000536952426188231 -0.0334750457738621 0.02057345 0.06242501 -0.9978376 113 113 113
0.00515461454882749 0.0452140118057145 -0.0264099068088371 -0.2098091 0.4924011 -0.8447019 71 71 71
-0.0074685826108376 -0.0262099757612624 -0.0107856342438344 -0.1554296 -0.9779633 0.1393892 133 133 133
0.0163129304426008 -0.0150623760182107 0.0280307552463663 0.143994 -0.7870727 0.5998185 56 56 56
0.0509612794665956 -0.0274271893439861 0.0108651256676154 0.0403541 -0.8446676 0.533768 143 143 143
0.0763202705627815 -0.00270156101041108 0.00538509984311436 0.3314911 0.8735159 0.3564878 70 70 70
-0.00351158784160177 -0.00813026520623228 0.0421669955678266 0.2073017 -0.8634261 0.4599146 51 51 51
0.0111612842470854 -0.0112127075566264 0.0346669568428421 0.1637683 -0.8420482 0.5139405 20 20 20
-0.0214277891267993 0.0260476963780627 -0.0325290642291784 -0.023466 0.0402127 -0.9989156 166 166 166
-0.025736927707198 -0.00635484601501557 -0.032931219107398 -0.01537085 0.0348067 -0.9992759 227 227 227
-0.0451000290948534 -0.00649726511885862 -0.0325591894065667 -0.03805721 0.036281 -0.9986167 118 118 118
0.00399840078527713 -0.0249273035004323 0.0110635141216677 -0.0892583 -0.9513204 0.2949958 117 117 117
0.00421492741357443 0.0406701907609308 -0.0293185018011705 -0.1372509 0.4940183 -0.85855 49 49 49
-0.01900462694816 -0.0251317053860312 -0.00774543908805816 0.08027435 -0.9893284 0.1215945 64 64 64
-0.0407737714549108 -0.00422635306402208 -0.0326910705491174 -0.04076326 0.04078588 -0.9983361 219 219 219
0.0296716650348802 0.0147572049005091 -0.0333629119614956 0.0008092022 0.03803145 -0.9992762 232 232 232
-0.0265476228613291 -0.0245256703887613 0.0172705433017356 0.2464823 -0.9386203 0.2413262 151 151 151
-0.00559154257269723 -0.0132930701052125 0.0351551001408182 0.08549275 -0.8947192 0.4383703 59 59 59
-0.0636852818901472 -0.0214348920616487 0.0236064414300665 -0.7943249 -0.583791 0.1680356 57 57 57
0.0160844520511704 0.0176583191128907 0.0312735188119807 0.534047 0.6486188 0.5422983 59 59 59
0.022714885132555 -0.0370737391350375 -0.0138446557057826 0.005347921 -0.9543887 0.2985192 199 199 199
-0.0795149588535041 -0.0206808677593857 -0.0194337748765842 -0.5962972 -0.7780293 -0.1977374 109 109 109
0.061752051032952 -0.0265269483272408 -0.0163144585095026 0.2867534 -0.9199287 -0.2674018 124 124 124
-0.0688440169597618 0.00089521154021277 0.0353128720436073 -0.872336 -0.4385549 0.2161004 43 43 43
0.0249235846537501 -0.0135533458280357 0.0333482892504342 -0.1363589 -0.8788251 0.4572448 52 52 52
-0.0303698698715907 -0.0229084003408924 -0.0331433506483311 -0.01479127 -0.2047433 -0.9787039 56 56 56
0.0525219808634506 -0.0216948740499625 0.0167480160718474 0.103238 -0.6566653 0.7470827 42 42 42
-0.0617871097612088 0.00742530791083551 -0.0320843290471932 -0.02146219 0.03256286 -0.9992392 137 137 137
0.0724902137492732 -0.0139812794392085 0.0140085293805006 0.3703457 -0.395394 0.8405401 82 82 82
-0.0718472390743656 0.0125556696333911 -0.0316628080332399 -0.02164659 0.04149591 -0.9989042 80 80 80
0.0366356160640287 -0.0181504722911734 0.0218875776380103 -0.07561905 -0.9091648 0.4095131 54 54 54
0.00392938210590743 0.042785968882828 -0.0282303861180545 -0.152916 0.5183569 -0.8413815 60 60 60
-0.0471917065811067 -0.0264049080111814 0.0146116561529227 -0.009913959 -0.974812 0.2228075 59 59 59
-0.0374216881304733 -0.0150865223473098 -0.0336464107589177 -0.05758931 -0.01240962 -0.9982632 69 69 69
0.0300176665132078 0.0314718670069516 -0.00112169223818789 0.5311312 0.7128825 0.4579282 91 91 91
0.0607042516332714 0.00366675404266803 0.00755842720787742 0.4886105 0.7343866 0.4711009 122 122 122
0.00805006237028327 -0.0151061941326671 -0.0337133029489694 -0.01652448 0.0242679 -0.9995689 88 88 88
-0.0356022235604588 -0.0286679051596093 -0.000732660681013769 0.1461642 -0.9809567 -0.1279058 77 77 77
0.0222844507425978 -0.0191802258163807 0.020253231377673 0.1193023 -0.8341379 0.5384988 86 86 86
-0.047184855256917 0.00925162349089703 -0.0322500367769349 -0.01550597 0.02210369 -0.9996355 112 112 112
-0.0404217869567502 -0.028112346945744 0.0118216898918304 0.03740146 -0.9675444 0.2499177 121 121 121
-0.0449246049398022 0.0090562527846374 -0.0324854250531972 -0.01314667 0.02410834 -0.9996229 101 101 101
0.0647802630057142 0.0165574922869631 -0.0230963970441544 0.5791103 0.8019561 0.1466205 109 109 109
-0.00979436199673756 -0.0249554448603022 0.00123813316550569 -0.1901568 -0.9770783 0.09569903 107 107 107
-0.0547080104593767 0.0267339025839126 -0.0315039539327875 -0.01021354 0.01571957 -0.9998243 124 124 124
-0.0190636045592055 0.0346749613965605 -0.0308265599583602 -0.05181215 0.2317692 -0.97139 96 96 96
0.0651324011221658 0.0148843405808889 -0.0180386438117059 0.6206006 0.7336857 0.2766952 133 133 133
-0.0409210694317721 -0.00337393891840887 -0.0328869577868874 -0.04756501 0.03629276 -0.9982086 151 151 151
0.032279307441216 0.0254902195513518 0.00640598578291302 0.549514 0.6304882 0.5481961 62 62 62
0.0100329722362846 0.0443187805276513 -0.0292566846025625 -0.3516305 0.4676819 -0.8109437 61 61 61
0.0453100205726478 0.00700409681540815 0.0183520519188425 0.4949239 0.7570918 0.4264532 68 68 68
0.0328871947615199 0.0327575060537397 -0.0326092307339128 0.1651044 0.5508711 -0.8180963 124 124 124
0.0347804518793411 0.035695372467754 -0.0184796037326418 0.4702583 0.8791751 0.07686514 62 62 62
0.0834616459729883 -0.018391316125612 -0.024689036674082 0.2642028 -0.9330425 -0.2441898 219 219 219
0.0310832274534802 -0.0206774048682188 0.0184989100909101 -0.0443206 -0.7675404 0.6394665 60 60 60
-0.0535924252115599 -0.0204866073647205 0.0316490218528771 -0.1838594 -0.8156058 0.548619 108 108 108
0.0424715497376363 -0.0183747661846625 0.021959768867439 0.05121203 -0.8771192 0.4775345 107 107 107
-0.0638997155671456 -0.0322438468124604 -0.00959261256295801 -0.6245901 -0.780762 -0.0172623 133 133 133
-0.0235688515396026 0.0365845262410629 -0.0299691593986647 -0.08125541 0.234591 -0.9686922 97 97 97
-0.0574072841504841 -0.0308876405290432 0.00643690611756156 0.1951019 -0.9266419 0.3213566 162 162 162
0.0178980976916019 0.0159728529038243 -0.0333734747343869 -0.02076421 0.04318908 -0.9988511 235 235 235
0.0493120185156501 0.0164567924959018 -0.0332690541844392 0.03406287 0.01551728 -0.9992992 103 103 103
-0.0579666208562994 -0.019729366978442 0.0322603516898173 -0.03372103 -0.8111212 0.5839052 119 119 119
0.017885827169922 -0.0361638557419464 -0.0112889895917945 -0.252722 -0.8436705 0.4736576 87 87 87
-0.0119703303836336 -0.0121586983130237 0.0365338299265679 0.1004806 -0.8757593 0.4721751 147 147 147
-0.0515057229800154 -0.0094652510520552 -0.0326611923595333 -0.03012017 0.01299324 -0.9994618 250 250 250
0.0102473973244942 0.0170901970274073 -0.0328073522584902 -0.01298931 0.05403314 -0.9984546 102 102 102
-0.0185187521277261 -0.0281518902634075 -0.0278755320811553 -0.117538 -0.9668613 -0.2266364 115 115 115
-0.0314918576052624 0.0509085572720434 -0.0265324270332882 0.2446904 0.404277 -0.8812984 84 84 84
-0.055516806988093 0.00228412790018484 -0.0326346809866949 -0.01371898 0.02397304 -0.9996185 211 211 211
-0.0606075055188893 -0.02892683519169 -0.0233093936521744 -0.4944029 -0.8009148 -0.3377888 73 73 73
0.103155710693265 -0.0136059594437701 -0.028149861115076 0.5227342 -0.8357096 -0.1683401 221 221 221
-0.0775117493277253 -0.0170824854469018 -0.000801720456738181 -0.9434658 -0.1774616 0.2799635 104 104 104
0.0691080901987137 -0.0278176274371369 0.00148705015953096 0.1863073 -0.982375 -0.01513352 148 148 148
-0.00271454127099258 -0.0204310931479772 -0.0339244960664109 -0.01871317 0.03372263 -0.999256 65 65 65
-0.051900297239363 -0.0308967161355376 0.00192630211200975 0.2154193 -0.9467739 0.2391939 102 102 102
0.0678089530626345 -0.0038243100439268 -0.033512389435869 0.01688039 0.04265898 -0.9989471 119 119 119
0.0713934687105503 -0.0255715227746658 0.0104695025953159 0.251677 -0.6377729 0.7279453 107 107 107
-0.0256967580848647 -0.0250477919806296 0.0127905139280501 0.1960751 -0.9699107 0.1443181 136 136 136
-0.0325047371621617 -0.0291494534659318 -0.0182230117317057 0.1646619 -0.983115 0.07982154 171 171 171
0.0205828690402087 -0.0108755370838838 0.0363522093910506 -0.167686 -0.9286683 0.3308424 97 97 97
0.0203885831811113 0.0398404319723633 -0.00159201723399788 0.5777157 0.6609197 0.4789883 71 71 71
0.00820816063454854 0.0532663122404042 -0.0232851934621202 -0.03298078 0.6341964 -0.7724683 123 123 123
-0.0645253330308111 -0.0203659065524076 0.0187901884892682 -0.8901498 -0.3892644 0.2368681 26 26 26
-0.0652368961557984 -0.0153533762421969 0.0318470032075581 -0.9081821 -0.323776 0.2652818 41 41 41
0.0780714181460003 -0.0240300604632089 -0.0101423414040157 0.1901123 -0.9554048 -0.2259626 107 107 107
-0.0615387365391118 -0.0232808237605 0.0250359524801003 -0.364571 -0.8858622 0.2869427 100 100 100
-0.0164541264034526 0.0574307048264384 -0.019253916096476 0.1650134 0.5233557 -0.8359841 70 70 70
-0.0650327738460721 -0.0124468578121457 0.0340299664938435 -0.9400661 -0.2666536 0.2125362 50 50 50
-0.0801017843006478 -0.00101649962421924 -0.00530727476391274 -0.9863042 0.02486472 0.1630514 74 74 74
-0.0153386452388371 -0.0233832351048608 -0.0336820397012049 -0.06805108 -0.1918621 -0.9790598 91 91 91
0.0561038001864855 -0.0284411725167677 0.00970924714631219 0.02918253 -0.9117655 0.4096731 199 199 199
0.00248233755877936 -0.00898961685685506 -0.0337666018141431 -0.02711047 0.02652855 -0.9992804 148 148 148
-0.00192930735180152 0.011936052820041 -0.0330868765437704 0.005259258 0.01466896 -0.9998786 106 106 106
-0.0351363236848582 -0.0189854973798707 0.0347881529002469 0.2288943 -0.8400718 0.4918198 104 104 104
-0.0113989858030951 -0.0129947581945702 -0.0335449444962659 -0.01209457 0.03233908 -0.9994038 61 61 61
0.0292844611061411 -0.0258815580787919 -0.0344633216069275 -0.01894428 0.01392399 -0.9997236 102 102 102
-0.00925197474196149 0.0393077302291898 -0.0294225399524932 0.07861596 0.4830324 -0.8720661 63 63 63
-0.0757839721852562 0.0262657768597387 -0.0315989668820364 -0.1116261 0.07510617 -0.990908 72 72 72
-0.0274530393701701 -0.0115938895693313 0.0442915140208824 0.1824019 -0.9343113 0.3062545 42 42 42
0.00248532417371694 -0.0166845314056698 0.0287406435419453 -0.02520887 -0.7951682 0.6058648 98 98 98
-0.0203782908522432 -0.0269907347127232 -0.0121538012895275 0.08311249 -0.9636873 0.2537698 75 75 75
-0.0139586306351634 0.00126748569795132 -0.0336347114214132 -0.06192846 0.03289196 -0.9975384 214 214 214
0.0279717461690849 0.0248859614797055 0.010345114083791 0.5008937 0.6594329 0.5605834 100 100 100
0.00122494786286853 -0.0216972070591974 0.0196767795266811 0.04673611 -0.9402298 0.3373183 80 80 80
0.0514356828181638 0.0228511195540277 -0.0333287110409174 0.2576255 0.309562 -0.9153144 122 122 122
0.0257569953308709 -0.017573174025143 -0.0342350730511075 -0.006995185 0.02370923 -0.9996944 240 240 240
-0.016804615816145 0.0395064515265606 -0.0299540300864549 0.05144858 0.3003196 -0.9524501 68 68 68
0.0512446808980079 0.00225805566318749 0.0200791594900191 0.4558811 0.7729274 0.4413113 119 119 119
-0.0313272579862358 -0.0105183157780424 0.0502824170353413 0.2224316 -0.8869473 0.4047824 96 96 96
0.0345290298721646 0.0322500342448806 -0.00672585600985873 0.5948346 0.6880668 0.415615 113 113 113
0.0906279491016989 -0.0198206330888808 -0.000705765088408333 0.7611676 -0.5092703 0.4015814 107 107 107
0.0360826218023427 0.0182557878251977 -0.0334425336135729 0.004668201 0.04975357 -0.9987506 88 88 88
0.035055843133579 0.0134894855097683 -0.0334002756594216 0.01310165 0.05154203 -0.9985849 123 123 123
0.0220991432975188 0.0431399019318688 -0.011746497768039 0.6168127 0.7734501 0.1460035 86 86 86
-0.0820343557325423 0.00632445392393044 -0.0252980004586559 -0.9971938 -0.06585976 0.03559435 70 70 70
0.0574598119651418 -0.0237119505408032 -0.0344912847331217 0.1520357 -0.3096731 -0.9386095 89 89 89
-0.0660151510882822 -0.0116052501670474 0.030687016774616 -0.9594114 -0.2080652 0.1903646 58 58 58
0.0532349704764403 -0.0285260735749102 -0.0230235329089119 0.375371 -0.9248603 -0.06107399 167 167 167
0.0880289818309752 -0.0199307559124282 0.00291992036622926 0.6854416 -0.5298615 0.4994164 98 98 98
0.0370928215387305 -0.00311775299773864 0.0380831175845962 0.4859783 -0.07069135 0.8711072 116 116 116
-0.0621190337544737 -0.0186210792030799 0.0319823186763681 -0.4408138 -0.7511217 0.4914258 138 138 138
-0.0479172281335061 0.00543691791435919 -0.032743512863859 -0.01920076 0.00975957 -0.999768 78 78 78
-0.0744715861978302 -0.015689723290069 -0.0305003057124249 -0.3372061 -0.4602655 -0.8212477 62 62 62
0.0368626355546344 -0.0341039466479145 -0.0129550085994186 0.317663 -0.945521 0.07127564 178 178 178
0.0367090113212275 -0.0354403142550508 -0.0195865179489141 0.3242925 -0.9455388 -0.02812056 65 65 65
-0.0460527540310031 -0.0103539319619521 -0.0328557651322862 -0.02464671 0.04150419 -0.9988343 240 240 240
-0.00980512795529309 0.037133435148482 -0.0308734694184065 0.0148895 0.3580419 -0.9335868 50 50 50
0.0144832258887435 -0.0138956297813961 0.0290209882816849 0.1676907 -0.7713475 0.6139241 36 36 36
-0.0470971640905518 -0.0200180718475917 -0.0324649224963107 0.04057207 -0.05242178 -0.9978005 46 46 46
-0.0757224108657457 0.0214784205636764 -0.0315400753881948 0.006355892 0.01566034 -0.9998572 74 74 74
0.00085970610827002 -0.0304790062359153 -0.0165158845712354 -0.47663 -0.8216308 0.3126445 120 120 120
-0.0532485698244169 0.0144794481813788 -0.0319683588579389 -0.03172568 0.03450917 -0.9989007 114 114 114
0.0519500425006153 0.0124169947253399 -0.0333543890644977 0.009409834 0.03103732 -0.9994739 95 95 95
0.0533178806177312 0.00411933140645759 0.0142909889323922 0.4379468 0.7725611 0.4597303 67 67 67
-0.0637386840597973 -0.0323069485645884 -0.00422314170794055 -0.6265286 -0.7681758 0.1317869 140 140 140
0.017891652840711 -0.0374660892983971 -0.0156325811736001 -0.2131611 -0.9062729 0.3650092 144 144 144
0.0174894138149043 -0.0370520153604739 -0.0236525758425565 0.1235012 -0.9419183 -0.3123099 113 113 113
-0.0481934621672673 -0.0292297217393167 0.00504665771140769 0.1297696 -0.9676366 0.2164237 103 103 103
-0.066192279402161 -0.028915434119694 -0.0142631088688925 -0.5587634 -0.7908671 -0.249625 115 115 115
-0.0326700537848037 -0.0260916367586836 0.0123518841338583 0.1975897 -0.962032 0.1882888 112 112 112
0.0325250843550887 -0.0367984417890597 -0.015685547589289 0.2909759 -0.9528412 0.08617777 162 162 162
-0.0352813996697905 -0.0055142145600906 -0.0332340129161578 -0.02309508 0.04114563 -0.9988862 58 58 58
-0.031099944432423 0.0405945762543753 -0.0295534700269602 0.1280639 0.166178 -0.9777446 98 98 98
0.0114228622388042 -0.00848260506954213 0.0416248010682808 -0.01255327 -0.9517465 0.3066286 78 78 78
0.070808145821758 0.0115239062598658 -0.021526698198582 0.6366266 0.7143462 0.2905444 62 62 62
0.0492176531278223 0.0158455603022976 0.000678093834824839 0.466558 0.7361252 0.4903502 138 138 138
0.0580823901769757 -0.028222669031184 -0.0149212034742576 0.2359843 -0.9515792 -0.1969987 113 113 113
-0.0268948648338276 -0.0273175286258835 -0.0310990722342204 0.09423661 -0.8059444 -0.5844425 171 171 171
0.033900430369497 -0.0325822900893544 0.00302417341407732 -0.001963369 -0.901887 0.4319676 153 153 153
-0.0671012345174374 0.0323256020384857 -0.0316052571553628 -0.04967897 0.07740323 -0.9957614 78 78 78
0.0322209601273044 0.0144324562713236 0.0190578786753396 0.4835036 0.7212647 0.4959854 71 71 71
0.0510393112396821 -0.0300195144344171 -0.0190943794253348 0.3887378 -0.9147768 -0.1098468 126 126 126
0.0484918057919037 -0.0311417913222589 0.00346931266648201 0.1364845 -0.9740265 0.1806775 210 210 210
0.0234735629763531 -0.0382165382183874 -0.0142557880122264 0.05051451 -0.964778 0.2581699 165 165 165
-0.0686743931838382 -0.0274013138832421 -0.00225209499040963 -0.6110149 -0.7798874 0.1357805 64 64 64
0.0892364920388458 -0.0185393539307075 -0.0182554319320343 0.1742281 -0.94392 -0.2804631 175 175 175
0.107474008112876 -0.00633822361201153 -0.0275038163851788 0.9885457 -0.02798282 -0.1483047 130 130 130
-0.00220402433693634 -0.0110378038860479 -0.0333546177465688 0.0002854752 0.04062085 -0.9991746 72 72 72
0.0694338999293144 0.00995336231692767 -0.0331370531834196 0.1034744 0.1318507 -0.9858541 99 99 99
0.0239454587038004 -0.0246097736203039 0.0121510107078416 -0.157039 -0.8077965 0.568158 100 100 100
0.00136672335528676 -0.00703603211845394 -0.033126683166534 -0.02505901 0.01857944 -0.9995133 194 194 194
-0.0329507153745109 -0.0147679459053873 -0.0332106706692701 -0.0156888 0.01869187 -0.9997022 106 106 106
0.0417425228142048 -0.0330429563872319 -0.0239887687480038 0.3663693 -0.9221027 -0.1244994 90 90 90
0.0839289598844337 0.00645651948473636 -0.0284264169718941 0.4254099 0.8719271 -0.2424244 78 78 78
-0.0804505641510401 0.0321472463189845 -0.0151686259958433 -0.9500875 0.2651919 0.1643378 65 65 65
0.0176837489050866 0.0368088675656786 0.00439082732038096 0.6508508 0.5811929 0.4884752 66 66 66
-0.0375568311368353 -0.0218805301661642 0.0280124483176354 0.2211774 -0.9273636 0.30179 112 112 112
0.0650078817180584 -0.0225804363571827 -0.0333424778882827 0.2366944 -0.4943219 -0.8364338 147 147 147
0.00180211190248891 -0.0186876527629865 0.0250112584155984 -0.02060156 -0.8153429 0.5786117 95 95 95
-0.0364011612258891 -0.0297575039018734 -0.0161356781852262 0.1705333 -0.9734103 0.1529405 73 73 73
0.0644137453032729 -0.00179823900028886 0.0150355929118393 0.3800142 0.8516877 0.3608564 112 112 112
0.0502546031878448 -0.00862819289843153 0.0264967098405778 0.4259949 -0.4565218 0.7810993 57 57 57
-0.0181357341859969 0.0305872198335777 -0.0320229801600291 -0.007597646 0.1995535 -0.9798574 61 61 61
0.0234920650795142 -0.0201347763825115 -0.0342129594031171 -0.003462053 0.02427234 -0.9996994 241 241 241
0.0269873304793724 -0.0130808798902058 0.0330841460351632 -0.02807474 -0.8703497 0.4916331 33 33 33
-0.00934641738138786 -0.0242470942834163 0.00368328541610388 -0.149938 -0.9783605 0.142581 99 99 99
0.0480278297304541 -0.0315789061299658 -0.0170508926967742 0.34694 -0.9342262 -0.08278955 95 95 95
-0.0684232160595378 -0.0105193377016652 0.0211265542508673 -0.8508765 -0.3820871 0.3605809 47 47 47
0.0140048436870764 -0.0282692639044386 0.000988505260872186 -0.2307335 -0.9511123 0.2052983 125 125 125
-0.0160778667009772 -0.027541122424231 -0.0191307986304432 0.04343966 -0.9863712 0.1586975 66 66 66
0.0232569367297354 -0.0350720703903105 -0.0251141738400525 0.08230697 -0.9425958 -0.3236337 117 117 117
0.066581120875802 0.0095223200284491 -0.0332867432884422 0.02702917 0.0183352 -0.9994665 121 121 121
0.0127017957433814 -0.00832575946364589 0.041626451734273 -0.009378748 -0.9520733 0.3057261 117 117 117
-0.075742449095196 0.0170911644141658 0.00792824079305876 -0.9934287 0.02659194 0.1113205 40 40 40
0.0686665833424105 0.00221388667522304 -0.0332522380907541 0.01772682 0.0390326 -0.9990807 111 111 111
-0.0632767208795787 -0.0143839386057276 0.0410667751475901 -0.6823223 -0.5671631 0.4612617 111 111 111
-0.0630025543030767 -0.0285153127566022 0.0135959824024842 -0.1894204 -0.9405202 0.2820315 112 112 112
-0.0177387513201201 -0.0282544645671605 -0.0265604505689419 -0.0904259 -0.9889883 -0.1171553 131 131 131
0.0245993768631116 0.0415409203172283 -0.0220246311237093 0.5575012 0.8281871 -0.05743283 103 103 103
-0.062208607830635 -0.00556313949558773 0.0501031209435036 -0.8071522 -0.3035693 0.5063112 83 83 83
0.0169830663841692 0.018370235454753 0.0297105275952999 0.5361999 0.6533696 0.5344135 59 59 59
0.0469502269169753 -0.0318628248653134 -0.0179796427223717 0.3135164 -0.9446507 -0.09665728 87 87 87
0.0432481273738718 0.0279096835531212 -0.0329137698628845 0.2119521 0.3757611 -0.902153 93 93 93
-0.00707273419318732 -0.0247718342913137 0.00102437677396564 -0.2732169 -0.9572952 0.09454319 98 98 98
0.0704324083325325 0.00998400601390026 -0.0188476717029092 0.6455692 0.7127873 0.2741798 72 72 72
-0.0353421245222464 -0.0117124054639683 0.0494344938799046 0.1781475 -0.8896192 0.420525 111 111 111
0.0902318553217988 -0.0177452928045922 -0.020679166151285 0.1652997 -0.9549286 -0.2465508 120 120 120
-0.0683117675604548 0.0182604539982334 -0.0317498613357794 -0.01717714 0.02666148 -0.9994969 90 90 90
0.0603477348753114 -0.0174188163788316 0.0188435599890558 0.3269069 -0.5875378 0.7402237 163 163 163
0.0510802819815726 0.0232809846308271 -0.0158359026386271 0.4773302 0.8532227 0.210159 102 102 102
-0.0553351748080287 -0.0103069743035498 0.0542475087928385 -0.3914986 -0.6671091 0.6337935 102 102 102
0.0107253146743069 -0.00128069284453547 -0.0333263010276776 -0.01542434 0.01130256 -0.9998171 86 86 86
-0.0413641140075781 0.0496927881243283 -0.0279758029172484 0.08030555 0.2101954 -0.9743556 73 73 73
0.0325228547558847 0.0316394616179112 -0.0328315410524852 0.05862372 0.204479 -0.9771139 119 119 119
-0.0550701180557108 0.0447780773751356 -0.028192893880234 -0.2335177 0.2765829 -0.9321863 75 75 75
-0.0378394421396065 0.005054412270038 -0.0328219286908677 -0.02095716 0.0167453 -0.9996401 239 239 239
0.0415976138102763 0.0325403020333799 -0.0226337752245279 0.5205762 0.8515906 0.06159395 79 79 79
0.0203221584341837 -0.0353943641026486 -0.027834981408378 0.1961198 -0.9532541 -0.2298774 157 157 157
0.0408506337880499 0.0294679419219037 -0.0328169159335836 0.2423863 0.5542603 -0.7962691 82 82 82
0.00792583299088934 -0.0334649577903494 -0.0147917535575561 -0.2615165 -0.8618783 0.4344824 121 121 121
0.0786113558090747 -0.0133126964589814 -0.0338118901671283 0.006696999 -0.1950644 -0.9807675 95 95 95
0.0331672034499788 -0.0142048454303245 0.0320092040775381 0.1029087 -0.8074097 0.5809469 136 136 136
0.0444555075588468 0.0205407133299516 -0.00118224687133234 0.5098293 0.7436306 0.4325363 120 120 120
-0.0485954195186734 -0.0283807131129792 -0.0312370611835574 0.1212322 -0.3631774 -0.9237992 109 109 109
-0.0507554443329794 -0.0290833740582361 0.00807551462629616 0.1604026 -0.9526638 0.2582687 97 97 97
-0.067866298921081 0.0305892980859415 -0.0314228410445283 -0.04653295 0.05203759 -0.9975604 93 93 93
-0.0281346996444592 -0.0108373841831546 0.0492935273620799 0.247675 -0.8649239 0.436536 92 92 92
0.0692016125512717 -0.0205658363855372 -0.0327373484055254 0.3031463 -0.5744313 -0.7603493 85 85 85
-0.00865671513529909 -0.0196573140193439 -0.0336098851771024 -0.008030923 0.03226684 -0.999447 88 88 88
-0.0529652779495613 0.0378030146949424 -0.0310760751222464 -0.07263534 0.1567908 -0.9849572 64 64 64
-0.0522675876929871 0.0411115006769291 -0.0307494607503663 -0.1517106 0.2483813 -0.9567082 53 53 53
0.0292547670508719 -0.0173950050261527 0.0226833532122226 -0.06176063 -0.9045601 0.4218491 57 57 57
0.0357264876772004 -0.0346125697513797 -0.00814209717987485 0.2742594 -0.9548318 0.1143595 97 97 97
0.0582973408037145 0.0151442700476507 -0.00747680479015858 0.5052889 0.7469177 0.4322003 79 79 79
-0.081532519404248 -0.00687150322676966 -0.0198438228817089 -0.993686 0.0599619 0.09483044 76 76 76
0.0380776149871458 0.0110348983847202 0.0196192418554506 0.4625695 0.7169534 0.5215431 78 78 78
0.024197859436896 0.0415598845761345 -0.0145228395395413 0.5802081 0.8077948 0.1040487 115 115 115
-0.0504474867914299 0.00792162073139191 -0.0325513801397314 -0.02421911 0.01618765 -0.9995756 47 47 47
0.0891298644397307 -0.0134077369706305 -0.0334597097973987 0.1088296 -0.4118965 -0.9047084 103 103 103
-0.0176276842151375 -0.0246564392767248 0.00135465447425043 0.1872694 -0.9759477 0.1116077 79 79 79
0.0370491932443565 -0.0214325419670187 0.0166703347829606 -0.06569188 -0.7978938 0.5992078 84 84 84
0.0126411648535836 0.00990157797917268 -0.0335683493636159 -0.01151101 0.02279655 -0.9996738 98 98 98
0.0397261734705439 -0.0127129476789736 0.0311373216070483 0.3479797 -0.6158749 0.7068297 109 109 109
-0.0326596492876091 0.0269857837312251 -0.0320821983413164 -0.02874339 0.05679824 -0.9979718 84 84 84
0.0452297459592261 -0.0294958354981856 -0.0313200739114005 0.3503231 -0.7583612 -0.5496927 136 136 136
-0.0308801399851898 0.0140494248993088 -0.0325227580144841 -0.0210958 0.03040473 -0.999315 109 109 109
-0.0328706294223126 -0.0132670178113341 0.0421808670870311 0.2405058 -0.8981611 0.3680539 72 72 72
-0.0434674065516518 0.0532546899845807 -0.0275857222972511 0.05325419 0.2215944 -0.9736837 74 74 74
-0.0116731809916286 -0.00889002973991393 0.0430735450806604 0.01770941 -0.8920569 0.451576 93 93 93
-0.077528882219884 0.00918988580599622 -0.031801025804933 -0.0629384 0.03838261 -0.997279 83 83 83
-0.0708756922693738 0.00243622727484283 0.0311708608536197 -0.8161841 -0.4877517 0.3097447 52 52 52
-0.0282073381849415 -0.0278972193999112 -0.030223116459877 0.1537527 -0.8233854 -0.546257 183 183 183
0.0933803528146947 -0.0166452609059666 -0.0252428118706644 0.2080655 -0.9517009 -0.2257744 170 170 170
-0.0323524767925728 0.00309934587111504 -0.0328002151879705 -0.003926895 0.0206884 -0.9997783 79 79 79
-0.00476208939997036 -0.025268709808504 0.00466749123084922 -0.2132134 -0.9460216 0.2440967 167 167 167
-0.0300488093404583 -0.000755639296053046 -0.0328766532514772 -0.01989157 0.02563019 -0.9994736 120 120 120
-0.0608861029685693 0.046132007146084 -0.027283073213973 -0.1011863 0.5324516 -0.8403907 85 85 85
-0.00452842105201368 -0.00667708058268168 0.0468573943481379 0.1760098 -0.8722648 0.4562617 74 74 74
0.0271196678945543 -0.0372192474932467 -0.0164143137679852 0.112765 -0.992014 0.05650083 106 106 106
0.018267123441291 0.0459568517972329 -0.016580572489227 0.7084141 0.7034149 -0.05793947 70 70 70
0.0668682039918513 -0.0180845521503343 -0.0337689117002566 0.1696457 -0.1620861 -0.9720846 89 89 89
-0.0116311298316427 0.0245559574841341 -0.0325066709086537 -0.005765563 0.031886 -0.9994749 105 105 105
0.0138189137245427 -0.0318519335749428 -0.00575716949890709 -0.2393856 -0.878889 0.412612 65 65 65
0.0596767944025841 0.00812157961511217 -0.0333503996413204 0.02778528 0.02346985 -0.9993383 136 136 136
0.0864376496033067 -0.0188781533557201 -0.0189301887279826 0.2140215 -0.9374312 -0.2746224 157 157 157
-0.0309360254831338 -0.0092184428683042 -0.0332459637455749 -0.005672175 0.01500955 -0.9998713 108 108 108
0.0589700394429358 -0.00362001357224351 0.0237839939603622 0.286391 0.4517925 0.8449045 129 129 129
0.0348225994513469 0.0165681110698574 0.0146356598183695 0.4704728 0.7328463 0.4915197 101 101 101
-0.0353151388511947 -0.0299736243387487 -0.0218194293731473 0.2161189 -0.9762219 -0.01683745 126 126 126
0.0120258393563115 0.0450420048888487 0.0043844663141159 0.7131712 0.5654272 0.4143415 71 71 71
-0.0538521506243657 0.0122317879305918 -0.0321639042309599 -0.03432087 0.03927986 -0.9986386 88 88 88
-0.0617292801848536 -0.0331063955788382 0.000725140022869747 -0.3963166 -0.8991786 0.1855019 153 153 153
-0.050559340906759 0.0477359653052869 -0.0293482346314339 -0.1480378 0.2155661 -0.9652026 44 44 44
0.0132383111821466 -0.00941863404563992 0.0350232465509074 0.1427939 -0.8770308 0.458723 26 26 26
-0.0706336708558901 -0.0242921705757984 -0.0218301668534835 -0.4370626 -0.8235438 -0.3615964 64 64 64
-0.0761333929520738 0.0122416544583475 0.0104987893397689 -0.9868729 0.01429216 0.1608651 61 61 61
0.068192536538218 0.00761542637218815 -0.033111955014909 0.005174934 0.02854644 -0.9995791 125 125 125
-0.0504444934402603 -0.0244674502258209 0.025577284874223 -0.1324811 -0.9317847 0.3379733 64 64 64
0.0276393783013231 -0.0168334808186852 0.0222999664943292 0.0002181735 -0.9058608 0.4235754 67 67 67
0.00973163340361749 0.0140447016888774 -0.0331520066249312 -0.01830823 0.03312572 -0.9992835 205 205 205
-0.0272224611564644 -0.0274209178783913 -0.0122812715922506 0.1138096 -0.9717413 0.2067997 39 39 39
0.0120531107519177 -0.00899068590908647 0.0399261242905952 0.06660393 -0.9617282 0.265787 80 80 80
0.00927576894914328 0.05656416802916 -0.00989709574266046 0.6521971 0.7321322 0.1965233 70 70 70
0.0399303702163218 0.0224098962155306 -0.0334505791480329 -0.01098276 0.0475258 -0.9988096 114 114 114
0.0600130016097604 -0.0250205758450055 -0.0329607418785931 0.3052406 -0.66581 -0.6808268 135 135 135
-0.0412746457769267 0.0441245991972929 -0.030349064924291 0.1115415 0.3029215 -0.9464656 81 81 81
-0.0530573384625227 -0.0326051848988995 -0.0031564118139604 0.2734102 -0.9081797 0.3169487 107 107 107
-0.0406485230186244 0.0507511068747735 -0.0282063791983598 0.09405736 0.1752502 -0.9800207 80 80 80
-0.0279914225538797 -0.0289510747873372 -0.0203717100863218 0.06324372 -0.9978265 0.01850557 145 145 145
-0.0175829071506904 -0.0267034386065437 -0.0132079438508807 0.03942746 -0.9709955 0.2358247 62 62 62
0.0747591799150417 -0.00400853338081864 -0.0334588831293977 0.008260137 0.03233403 -0.999443 91 91 91
-0.0586490006392301 -0.0215272812413465 0.0295246383826665 -0.06863671 -0.8827236 0.4648526 127 127 127
-0.0725591231078374 -0.000983028444240697 -0.0318445108177569 -0.005132006 0.01989245 -0.9997889 58 58 58
-0.0589368444825851 0.0427499670848317 -0.0283254489910474 -0.04642982 0.3829485 -0.9226021 94 94 94
0.100570509807517 -0.0118980204059582 -0.0166062814192967 0.8311394 -0.3920305 0.3943596 93 93 93
0.0484797474219004 -0.0234156295185024 -0.0345946490136065 0.03278564 -0.1950375 -0.9802477 118 118 118
0.041528416899145 0.0277978910877916 -0.0114652701913913 0.6383615 0.6560465 0.4026134 105 105 105
0.0531842710218456 -0.0033337034993568 -0.0338856406255111 0.02796618 0.03842855 -0.99887 107 107 107
-0.0492222392016358 -0.0283201586921662 0.010131884778274 0.1357272 -0.9545559 0.2653323 152 152 152
-0.0450220623912134 -0.00722264536944794 -0.0328786688359013 -0.03845888 0.03968647 -0.9984718 184 184 184
-0.0296844104281484 0.0162783607196397 -0.0326908449741357 -0.02329234 0.02201119 -0.9994863 129 129 129
0.0453231084659745 -0.0305386611022649 0.0058038181860075 0.03682052 -0.9212434 0.3872401 219 219 219
-0.0684896026003045 -0.0218870750346418 0.0128543694713782 -0.8041456 -0.4258244 0.414757 64 64 64
-0.0360029368106183 -0.0284637072221221 0.00694702359875246 0.2234799 -0.9566403 0.1868049 49 49 49
-0.0642561571261497 -0.015372259630134 0.0361683801343764 -0.8289537 -0.4753244 0.2947924 67 67 67
-0.0697805517747544 0.00467820895997773 -0.0318572381571908 -0.01315969 0.01431275 -0.999811 61 61 61
0.011674048166063 -0.0102040806090322 0.0367991667263075 0.1283148 -0.9027719 0.4105339 72 72 72
-0.0336414666700982 -0.0265681526601393 -0.00357445318888777 0.140248 -0.9873824 -0.07352918 40 40 40
-0.080634385969787 0.00123679068067273 -0.0166053380176542 -0.9995297 0.01528257 0.02658446 61 61 61
0.00429601323329976 0.0552291442399204 -0.020755960767635 -0.1583257 0.6335039 -0.7573677 77 77 77
0.0136645679779429 0.0150185151180169 -0.0333038556232946 -0.01849455 0.05013935 -0.998571 230 230 230
0.00927664293753516 -0.0233135399076752 0.0165195407376523 0.007515837 -0.9017676 0.4321559 193 193 193
-0.0107186537326984 0.0578719561164573 -0.0174610872807076 0.07380336 0.5715718 -0.8172263 71 71 71
0.0397840746471232 -0.0337341109023599 -0.0142857267269208 0.2660491 -0.9633327 0.03475609 106 106 106
-0.0147054944105759 0.0197669996683947 -0.0324499381026647 -0.01123703 0.02560539 -0.999609 226 226 226
-0.00493665816011102 -0.0103150009975772 0.0395618434217772 0.1781138 -0.8619629 0.474653 33 33 33
-0.0393997629248569 -0.00741411510981704 -0.0327636638674457 -0.04228574 0.02961078 -0.9986666 240 240 240
0.0399337131152268 -0.0321274264899389 -0.0303516869134003 0.2067839 -0.8350571 -0.5098236 154 154 154
-0.0512954292076978 -0.00797377411030675 -0.032674766445645 -0.01378734 0.02956359 -0.9994678 240 240 240
-0.0579704976860674 0.0359532279588788 -0.0315028052598894 -0.04699415 0.1863973 -0.9813499 61 61 61
-0.0387295784789187 0.0513490312005185 -0.0273170589492924 0.1541259 0.2107965 -0.9653031 28 28 28
0.00650045069241445 -0.0134339478023657 -0.0336593096659921 -0.01571874 0.01991642 -0.9996781 88 88 88
-0.00641927655425489 0.0482334908624464 -0.0229708929118193 0.007932265 0.5621626 -0.8269887 78 78 78
0.0210127898780059 0.0429178901442737 -0.0085250775267792 0.6516218 0.7226786 0.230488 72 72 72
0.0137410242348041 0.0525219556498715 -0.0215009607867423 0.6095623 0.7616618 -0.219784 66 66 66
0.10491519606716 -0.00196608547221166 -0.0324229477833953 0.5511715 0.3288159 -0.7668703 94 94 94
0.0230539918220051 -0.0242253442152003 0.0119167077574623 0.00819594 -0.8455401 0.533849 117 117 117
0.0257818363194559 -0.0384382494547926 -0.0185612358766977 0.1236229 -0.9877126 -0.09560981 135 135 135
-0.0394010576776541 0.0145796663793045 -0.0326911733058239 -0.0144296 0.02801513 -0.9995034 231 231 231
0.0615321799934077 0.0121239339883585 -0.00592644935622474 0.5490465 0.661211 0.511222 113 113 113
0.0327291180869008 -0.0201834781786814 -0.0344796033973217 -0.009571147 0.02401398 -0.9996658 105 105 105
-0.0161963112803087 -0.00181602129026182 -0.0332152180038471 -0.04340546 0.02007524 -0.9988558 179 179 179
0.0486044268597421 -0.0262626099674255 -0.0333427124469183 0.1632821 -0.6104106 -0.7750728 210 210 210
0.0224591330990191 0.0181714106240074 0.0259171996278765 0.5500365 0.6534533 0.5200565 55 55 55
-0.0800320153517782 -0.00739007359340249 -0.0103562285803225 -0.9970202 -0.04549116 0.06229959 51 51 51
0.0610292698181328 0.0187881796536211 -0.0291933261121294 0.3823772 0.8611098 -0.3350784 77 77 77
-0.00620354312612259 -0.0215778272372724 0.0195408995104869 -0.1334841 -0.970114 0.2026347 184 184 184
0.0484443865440229 0.0254284840694714 -0.0179445537421237 0.5516589 0.8083876 0.2053823 76 76 76
0.0497309789025144 0.0185128790924904 -0.0331821582330426 0.05308945 0.02941893 -0.9981563 136 136 136
-0.0319640668787985 -0.0104137007406235 0.0520778403301461 0.202584 -0.8795719 0.43048 111 111 111
0.0672398636820785 -0.0150824222946022 0.01597875378203 0.4925095 -0.5263327 0.6931149 118 118 118
0.0519963494284739 0.0230484063221792 -0.0190585851242111 0.4820077 0.8661858 0.1318742 68 68 68
0.0425109949145137 -0.0331692814984867 -0.0202200779577408 0.3348826 -0.9410533 -0.04767037 86 86 86
0.0341555193927023 -0.0361526990568737 -0.0208858921816634 0.2656191 -0.955559 -0.1278807 73 73 73
0.0733883000066289 -0.0211530340787063 -0.0243130728171704 0.2321525 -0.969482 -0.07880306 96 96 96
-0.010625271216138 -0.0203236360521311 0.0235423973856672 0.1053168 -0.8717892 0.4784266 136 136 136
0.00162421123300815 -0.0226520876060656 0.0175602164486837 -0.06628972 -0.9599616 0.2721753 135 135 135
0.0472364154745334 0.0267297139883385 -0.0241225078443716 0.6258284 0.7561013 0.1914409 42 42 42
-0.0561736372418575 0.0181433084759388 -0.031946589150907 -0.01718891 0.02292819 -0.9995893 176 176 176
-0.0806299876709369 -0.00362385703901524 -0.017705705714013 -0.9960545 0.04357456 0.07730884 34 34 34
-0.0227621501677172 -0.0239667280223244 0.0140529308267726 0.2711864 -0.9463521 0.1757146 137 137 137
-0.0165686695552939 0.0246844345420005 -0.0322552024622154 -0.01338074 0.02726598 -0.9995387 202 202 202
-0.0377801393319882 -0.0100992910151867 -0.0333162294737176 -0.03036427 0.02436485 -0.9992419 92 92 92
-0.00429672759314348 -0.0330366096269061 -0.0260347572402245 -0.5006567 -0.8363981 0.2231168 161 161 161
-0.0329885962430397 0.00697056497778514 -0.0327582319445258 -0.001242152 0.02505848 -0.9996852 80 80 80
-0.0056372755305435 0.0366058533159801 -0.0300782575119291 0.01833349 0.4427887 -0.8964385 80 80 80
-0.069280515024252 0.0304579736355137 -0.031437721814036 -0.04416585 0.04897355 -0.9978231 93 93 93
-0.0129443553104153 0.0418476122918094 -0.028255484779588 0.1232917 0.5112887 -0.8505192 80 80 80
-0.0529237167882212 -0.0295052116415302 0.00882623497710977 0.172108 -0.9470605 0.2710264 94 94 94
-0.0556391875632601 -0.0137104410184965 0.0454145965393194 -0.1535841 -0.921192 0.3575152 132 132 132
-0.000831124832328833 -0.0167203981704132 -0.0336693761342794 -0.01443609 0.03759963 -0.9991886 77 77 77
-0.0763229610061361 0.0080635767357522 0.00668772616527985 -0.9727541 0.01228233 0.2315136 55 55 55
-0.0550466468639645 -0.0335768058131047 -0.0187240110211331 -0.3333277 -0.8879907 -0.3168045 125 125 125
0.0328753706841333 0.0306432789490907 -0.0329845703064891 0.03621525 0.1960393 -0.9799271 107 107 107
-0.0170867849217384 -0.0218652305729305 0.015044638172404 0.1903889 -0.9693693 0.155162 121 121 121
0.017181660700095 0.0227993925070507 0.0266389112086788 0.5413164 0.6765382 0.499272 42 42 42
0.0737718643242609 -0.021121784882532 -0.0204117938572434 0.2044898 -0.9731753 -0.1054221 75 75 75
0.00665249033554094 0.0310892974571733 -0.0324852256450258 -0.03536107 0.05850474 -0.9976606 121 121 121
-0.0300959202547718 -0.0285430606446095 -0.0216893456419121 0.1296816 -0.9915534 -0.002136017 84 84 84
0.000543479916280232 -0.0307308511538793 -0.0118602140178631 -0.4132593 -0.8943007 0.1715897 127 127 127
-0.0548690884272128 -0.00281958947446137 -0.0324711092213386 -0.01283952 0.01286579 -0.9998348 231 231 231
-0.0422018894255216 0.0112827252317373 -0.0324397302137552 -0.02583498 0.02579046 -0.9993335 239 239 239
-0.0763968014299172 0.0200549820308444 0.016516871277537 -0.9970483 -0.03956332 -0.06579815 69 69 69
-0.0405106887088299 -0.0297860685510405 0.00426714375783779 0.07568032 -0.9971321 6.04784E-05 105 105 105
-0.0289460234414604 -0.0158469470752509 0.0373373809291433 0.2056444 -0.7767665 0.5952682 47 47 47
0.0703433054624022 0.0147049062140543 -0.0321367246772169 0.3417953 0.5770963 -0.7417114 45 45 45
-0.0322582898883087 0.0212745471955855 -0.03215646038786 -0.04402595 0.03840879 -0.9982918 107 107 107
-0.0797664568914631 0.00957073661443819 -0.011082423441273 -0.9896722 0.05631497 0.1318242 56 56 56
0.023979860202654 0.0216293926812992 0.0191065279001963 0.5304197 0.7223574 0.4436831 68 68 68
0.0502878750617537 0.0244739984449958 -0.0221503301417216 0.5499179 0.8228348 0.1432941 79 79 79
-0.0740288180129001 -0.014081216686151 -0.0312452736178288 -0.2376666 -0.2679191 -0.9336669 55 55 55
-0.0473037888781772 0.0248026691869423 -0.0317730389463566 -0.02262755 0.03541121 -0.9991167 110 110 110
0.0554139913675538 -0.0291698051792173 -0.0149110263177974 0.2656656 -0.9509627 -0.1584035 110 110 110
-0.0190018200858978 0.0400798352126914 -0.0300744328865152 -0.01846569 0.2591569 -0.9656587 65 65 65
-0.0373842458157024 -0.0281382222802695 0.0100181585957256 0.2629695 -0.9437278 0.2005615 160 160 160
0.0986420922867012 0.00124662097196593 -0.031953341776361 0.2401068 0.6277996 -0.7404163 56 56 56
0.0242246987044483 -0.0156565186443656 0.0262723157626974 -0.004320127 -0.9191428 0.3939007 109 109 109
0.0829155438066284 -0.0240204177871994 0.000528371996302651 0.3528458 -0.9346784 -0.04331513 123 123 123
-0.0817764448097373 -0.00370205891179398 -0.00649623720092291 -0.996358 -0.06887468 0.0502686 69 69 69
0.0706991220841621 -0.00689305428156217 -0.0336496200306857 0.03115089 0.03260421 -0.9989828 123 123 123
-0.0272557261762455 0.0293648051987743 -0.0324491340799472 -0.00966022 0.1412452 -0.9899275 95 95 95
