ply
format ascii 1.0
comment File exported by Rhinoceros Version 7.0
element vertex 468
property float x
property float y
property float z
property float nx
property float ny
property float nz
property uchar red
property uchar green
property uchar blue
end_header
0.0265474014982037 0.0105099274284375 -0.0111646974654667 0.0006173035 0.1360044 0.9907081 112 112 112
0.0322976789673632 0.0115413436464036 -0.0110176421283221 0.07323672 -0.02653227 0.9969616 154 154 154
0.0327147996016934 0.00976438204885777 -0.0120604582231304 0.1139393 -0.01517002 0.9933719 147 147 147
0.0318444032422429 0.0118704458958176 -0.0123411210506707 0.04733083 -0.02101423 0.9986582 123 123 123
0.0271460344543242 0.0118245187141692 -0.0116295560411905 -0.01454033 0.1308103 0.9913008 132 132 132
0.0209583689955175 0.00576800308181991 -0.0104111585862324 -0.03013209 -0.02101037 0.9993251 57 57 57
0.0196036834381592 0.00522750589445176 -0.0104390986098616 -0.008279211 -0.02661357 0.9996115 69 69 69
0.0178020134408552 0.00570576157845526 -0.0107547035920716 -0.008398529 -0.03691697 0.999283 191 191 191
0.0181901575468981 0.00717100059434239 -0.0108451086403961 0.02980618 -0.07684346 0.9965975 159 159 159
0.0206216502095176 0.00852720047958044 -0.0105725905695143 0.02976825 -0.02377712 0.999274 124 124 124
0.0154114609694842 0.00641577884273659 -0.0105743255945358 0.009129178 -0.09992151 0.9949535 203 203 203
0.0122942429741437 0.00854288802603786 -0.0111045486857271 -0.001243348 -0.07749879 0.9969917 136 136 136
0.0188281720085097 0.00881644200148557 -0.0103917363221433 0.07811601 -0.01446789 0.9968393 152 152 152
0.0225242523286153 0.00771342312528978 -0.0103221797449027 0.005309697 0.0120247 0.9999136 117 117 117
0.023034910143678 0.00720300277112784 -0.0117240314841151 0.0186706 -0.04863267 0.9986422 107 107 107
0.0241572979594455 0.00896734218094597 -0.01144334642881 -0.0004874523 -0.03548963 0.9993699 112 112 112
0.0212148537075658 0.00830683638815843 -0.0116109184307386 0.01350126 0.0004284028 0.9999087 112 112 112
0.0191888337506676 0.00969936790240244 -0.0116695715124227 0.07793485 -0.04005527 0.9961535 134 134 134
0.0173027199212996 0.0106012719259048 -0.0119732085353969 0.01741467 -0.01694336 0.9997048 195 195 195
0.0161477461595154 0.0111986856600954 -0.0118660265774473 0.0392135 -0.003877002 0.9992234 189 189 189
0.0132424679004999 0.010434013962912 -0.011042685522697 -0.06382768 -0.01119879 0.9978981 104 104 104
0.0180960035468101 0.0122148699977678 -0.0117192957756524 0.05546434 0.05902438 0.9967145 178 178 178
0.0138641149164129 0.0123442585078335 -0.0117574378960306 0.004792126 0.02519794 0.999671 194 194 194
0.0148475509620105 0.0139571912712735 -0.0119872043726341 -0.04333504 0.05214272 0.997699 183 183 183
0.0240587018938854 0.010611625218518 -0.0105009030555229 0.01864037 0.03235241 0.9993027 144 144 144
0.0207794492226026 0.0125376810531619 -0.011415242227291 0.1297435 -0.03208357 0.9910284 134 134 134
0.0232859607620821 0.0115660804958115 -0.0102396465306872 0.06326844 0.03798737 0.9972733 111 111 111
0.0257282209095926 0.0131513018827873 -0.0107939350850986 0.08169225 0.08413956 0.9930996 156 156 156
0.0222905681622929 0.0146385755082719 -0.0114904623748203 0.1378458 0.03803889 0.989723 139 139 139
0.0264147627002982 0.0145825390453078 -0.0116096792661472 0.02998284 0.1082974 0.9936663 136 136 136
0.0272949779568414 0.0128497234549267 -0.0123695430200305 0.03244752 0.1363394 0.9901307 149 149 149
0.0266247805850932 0.0152228715362375 -0.0121257645834648 0.0831471 0.05423094 0.9950606 118 118 118
0.0234897333089343 0.0159304699543257 -0.0114793811309862 0.1437023 -0.003264036 0.9896156 134 134 134
0.0252161388758607 0.0161892104075716 -0.0111942200086556 0.09710247 -0.03640754 0.9946083 139 139 139
0.0175299748022788 0.0148402629593565 -0.0116318313073286 -0.02503917 0.05637014 0.9980959 204 204 204
0.0203579570153942 0.0153403464899897 -0.0114188666763703 0.07291913 0.02861582 0.9969273 132 132 132
0.0169092409879001 0.0173974015042202 -0.0116531495765745 0.01563468 0.07756451 0.9968647 213 213 213
0.0218956168174291 0.0175079068544846 -0.011694154332644 -0.008721652 0.06365163 0.997934 131 131 131
0.033093746583057 0.0129181622880503 -0.0121581413273998 0.01721184 -0.0340197 0.9992729 162 162 162
0.0300740122860759 0.0133618373943385 -0.0124185222246443 0.003891031 0.01841389 0.9998229 136 136 136
0.0305119071238267 0.0139573236065245 -0.0120478627602112 -0.01404216 -0.04548481 0.9988663 153 153 153
0.0300967486203121 0.0150955165410966 -0.0123960156376936 -0.02898236 -0.04922945 0.9983669 126 126 126
0.0254797024418767 0.0173541392999472 -0.0119172362836598 0.09258446 0.01749705 0.9955511 120 120 120
0.0233495596464051 0.017587986572104 -0.0137579430484814 0.02986873 0.0337144 0.9989851 113 113 113
0.000541009969613038 0.00344128348153783 -0.011929116374689 -0.03368027 -0.00701934 0.999408 106 106 106
0.00125271498711887 0.00539783218446299 -0.0115434483416553 -0.0247744 0.0820998 0.9963161 111 111 111
-0.00267378289991926 0.00670365908814397 -0.0118358760006391 0.0124355 -0.05882454 0.9981909 203 203 203
0.00770932446944417 0.00420133926870703 -0.0111584196035625 0.1406453 0.04853833 0.9888695 134 134 134
0.00386646101906041 0.00628443196439576 -0.0113839305105326 -0.06473263 0.1300381 0.9893937 115 115 115
0.00505937159490899 0.00527632413434098 -0.0116961108590012 0.02825476 0.1455171 0.9889522 107 107 107
0.0049420840890162 0.0079645005001181 -0.0110957278044898 0.04766021 0.05313917 0.9974491 111 111 111
0.00641292085505385 0.00741258480131535 -0.0113964778553277 0.01514443 0.04472621 0.9988845 114 114 114
0.00500512624090033 0.00679860676971122 -0.0122963421758086 0.009226283 0.09913088 0.9950317 126 126 126
0.00637926082144413 0.00754213098856593 -0.0126221234692921 -0.002621741 0.0530818 0.9985867 109 109 109
0.00955251131977586 0.0073274652466071 -0.0108767258825826 0.0100516 -0.08505441 0.9963256 104 104 104
0.00964088711730704 0.00973017972997736 -0.0115586211714621 -0.01793893 -0.04706226 0.9987308 79 79 79
0.0101274801941715 0.00900165399086328 -0.0121989041461854 0.02065308 -0.08849165 0.9958628 111 111 111
0.008383009315859 0.00890372228318492 -0.012431593683521 -0.007310602 -0.05951343 0.9982007 104 104 104
-0.0418111187810721 0.0265397007076298 -0.0129051765690562 -0.01295864 -0.02118388 0.9996916 95 95 95
0.0082264642381753 0.0104037678194362 -0.0106641258544835 -0.01707764 -0.03767246 0.9991442 100 100 100
0.00179661067805825 0.00640332523135179 -0.0101949306436564 0.04793106 0.1072539 0.9930756 138 138 138
0.003045445072964 0.00864920521279311 -0.0111594365638992 0.06459939 0.09667831 0.9932171 79 79 79
-0.000138083780604425 0.0077743639225043 -0.0104277263575922 0.08570983 0.04185633 0.9954405 83 83 83
0.000263146970689965 0.0079795960784923 -0.0109615767488665 0.09758447 0.04011998 0.9944183 95 95 95
-0.00138620491341301 0.00883378478062058 -0.0117175016351796 0.08648583 0.08048727 0.9929965 162 162 162
0.00557996609720957 0.00997084597174425 -0.0112222985377423 -0.001702386 -0.01992684 0.9998 113 113 113
0.00310313971360765 0.00918012994735151 -0.0123536629698031 0.06657048 0.1095304 0.9917517 122 122 122
0.00426568571909058 0.0114464371738325 -0.0121567792556942 0.009973368 -0.03917231 0.9991827 119 119 119
0.00184714139358699 0.0106903811966326 -0.0124057234734425 0.09882282 0.09018757 0.9910097 131 131 131
0.00138466612862831 0.0123939644000703 -0.0118209581818034 0.02800025 0.03048288 0.999143 191 191 191
-0.00399981917575198 0.00830956628735269 -0.0115516026442488 -0.04460603 -0.0573299 0.9973583 191 191 191
-0.009972119925026 0.011095199156548 -0.0120456310219961 0.00616308 0.06528733 0.9978475 79 79 79
-0.0128563183337993 0.0127819783452756 -0.0119199351540053 0.09465192 0.006817983 0.9954871 97 97 97
-0.00271852413322082 0.00940295596274732 -0.0115279765239703 -0.02643238 0.07516298 0.9968209 141 141 141
-0.0045935928938412 0.0107362534425239 -0.0115068371240487 0.1162421 -0.06259185 0.9912467 183 183 183
-0.00678857296066626 0.0120144967811198 -0.0114737683902606 0.04490443 -0.02775457 0.9986057 122 122 122
-0.00550857125241366 0.012595683422822 -0.0104931282841021 0.08847769 -0.01765042 0.9959218 178 178 178
-0.00393665114618114 0.0128333115590999 -0.0112363724939872 0.1189771 0.006585882 0.9928752 191 191 191
-0.00455736151871933 0.013594108855842 -0.0101889677794398 0.1508583 -0.0502345 0.9872782 197 197 197
-0.00310139045668167 0.0145237166068415 -0.0115616589851227 0.1337727 0.02908182 0.9905853 164 164 164
-0.00413897871238667 0.0153700865489763 -0.0114396894272365 0.1436522 0.008784471 0.9895893 102 102 102
-0.00220636288529086 0.0160222259062857 -0.0112728362824447 0.07514431 0.01466596 0.9970648 162 162 162
-0.00354623800294451 0.0171244428637412 -0.0118131069507586 0.12258 0.01362975 0.9923651 164 164 164
-0.00259741451038731 0.0146023642709703 -0.0126408396590918 0.1138697 0.029202 0.9930664 147 147 147
-0.00244673804213202 0.0158334527397228 -0.012437292752722 0.0727727 0.005082883 0.9973356 172 172 172
-0.00846000970821259 0.0129378097805506 -0.0118709397030662 0.05419431 0.06647014 0.9963155 125 125 125
-0.00678386261597752 0.0119094715497901 -0.0128211310961546 0.05863554 -0.04403095 0.997308 102 102 102
-0.0118060933540451 0.0137165443203027 -0.0107529310305203 0.04122654 0.07487798 0.9963402 129 129 129
-0.0119445858318976 0.0150820823753635 -0.0118005589104044 0.03961786 0.02080456 0.9989983 122 122 122
-0.00928782067845368 0.0155357629639883 -0.0115225187305244 -0.01736924 0.06077656 0.9980003 119 119 119
-0.0106270080193542 0.0144147865873412 -0.010837267767883 0.02516373 0.1118864 0.9934024 109 109 109
-0.00643453891174461 0.0160004597799117 -0.0116616576901425 0.0722744 0.05442893 0.9958985 131 131 131
-0.00945787387711827 0.0147448607899645 -0.0104010098209401 0.07625328 0.06710363 0.9948279 134 134 134
-0.00836409123447868 0.0170154953705119 -0.0116772816753012 -0.06767642 0.078964 0.9945776 104 104 104
-0.0111134451198682 0.0168190926206404 -0.0122121279597657 -0.03931417 0.02762956 0.9988449 122 122 122
-0.00705052784386395 0.0137853425651331 -0.0127386591670418 0.05980436 0.02369389 0.9979289 141 141 141
-0.00996724841161334 0.018447646256744 -0.0119241290491866 0.04396686 0.04425516 0.9980523 119 119 119
-0.00761871784893109 0.018887334907866 -0.0117503863983575 -0.04775653 0.05751199 0.9972019 87 87 87
0.0104499943834366 0.0116841842374638 -0.0119778202123031 -0.06931972 -0.1036637 0.9921938 129 129 129
0.009690391114763 0.0124166666419592 -0.0111363075624132 -0.0214163 -0.1085067 0.993865 120 120 120
0.00849351243061336 0.0151055517548655 -0.0109599651694579 0.04776504 -0.07244958 0.9962277 137 137 137
0.00509466139608583 0.0124751930036191 -0.0109791251001024 0.01344388 -0.04272078 0.9989966 120 120 120
0.0053919363158903 0.014284050756231 -0.0113928249191397 0.04264091 -0.007972675 0.9990587 94 94 94
0.00342047018242697 0.0132304023862124 -0.0113635023137702 -0.02166241 0.01182352 0.9996954 134 134 134
0.00165012259421249 0.0144001358504395 -0.0111707107915171 -0.005000182 -0.008961084 0.9999474 162 162 162
0.00381194623031855 0.0138367545584774 -0.0123733644099309 0.04671557 -0.04505371 0.9978917 93 93 93
0.00385065844790344 0.0151289775111723 -0.0107407420272034 -0.03117821 0.01034015 0.9994603 163 163 163
0.0104227555628991 0.014094231845903 -0.0119819096837142 0.04438617 -0.03562245 0.9983791 125 125 125
0.0123674295698242 0.0132140183546405 -0.0122330797120301 -0.06105834 0.009074698 0.9980929 144 144 144
0.0132010047998306 0.0141777902353617 -0.0108711186100759 -0.01349661 -0.003496318 0.9999028 144 144 144
0.0116045005488046 0.0158934176112731 -0.0107431815346975 0.01201591 -0.03212029 0.9994118 126 126 126
0.0116649821928141 0.0160751225358391 -0.0116655461896523 0.01047871 -0.03189958 0.9994361 132 132 132
0.00640766064693454 0.0142838556872706 -0.0118943901183862 0.05489087 -0.04360379 0.9975398 111 111 111
0.00386351520272576 0.0153737466501656 -0.012553808163741 -0.02006644 0.01893764 0.9996193 186 186 186
0.00261735025514143 0.0165971521694532 -0.0121772830905342 -0.001625649 -0.02103917 0.9997773 208 208 208
0.00679241923506191 0.01551837446862 -0.0125063198781435 0.05618287 -0.01624811 0.9982883 151 151 151
0.00913456824894276 0.0164490990315058 -0.0106513797682492 0.09231198 -0.06825418 0.9933881 107 107 107
0.00560281334007029 0.0187678631631272 -0.010998331558013 -0.04028514 -0.01813717 0.9990236 201 201 201
0.00619978343309513 0.0187833802527237 -0.0122820605184141 -0.03442571 -0.02102442 0.9991861 172 172 172
0.0148249842336488 0.0143632967382428 -0.0108461910849663 -0.05790402 0.05388911 0.9968666 184 184 184
0.0137485245655558 0.0167490039000806 -0.0120424397611878 0.01675079 0.03627149 0.9992016 182 182 182
0.0135264337058489 0.016802431416727 -0.0106223220054024 0.008875835 0.05988175 0.998166 177 177 177
0.0146899521002484 0.0188682648261524 -0.0104894873729583 0.145884 0.02622654 0.988954 191 191 191
0.0114815979788701 0.0205869344409788 -0.0116252205776748 0.1121683 0.04349824 0.9927367 210 210 210
0.0120247808192271 0.022151580356093 -0.012284888054562 0.1092155 0.05541262 0.9924724 173 173 173
0.00787356632044234 0.0177890714646693 -0.0108618198509819 -0.003777859 -0.05502956 0.9984776 194 194 194
0.00536906228795186 0.0210345241796204 -0.0119638974330836 0.03051438 0.08242205 0.9961302 138 138 138
0.0072419473567138 0.0201827178815366 -0.012387265927978 0.0157092 0.0300733 0.9994242 135 135 135
0.00527858049280527 0.0209304107144046 -0.0109221267538288 -0.03273214 0.01455938 0.9993581 101 101 101
0.0088704133678692 0.0236822076713978 -0.0117170983064511 0.02508145 0.07873918 0.9965797 122 122 122
0.00743610685259166 0.0234508178038086 -0.0129098761679808 -0.007468243 0.04666018 0.9988829 115 115 115
0.00738491824720433 0.0257585055576337 -0.0121441742403693 0.04693172 0.08196475 0.9955296 115 115 115
-0.000520467979393979 0.0152245631557637 -0.0111533282298597 0.08842009 0.009746239 0.9960356 192 192 192
5.42789906170515E-05 0.0149011425880081 -0.0124252328285748 0.03849947 0.03262377 0.998726 173 173 173
-0.00143993666399966 0.0179371762185723 -0.0126957463322782 0.001395589 -0.06628688 0.9977996 121 121 121
-0.00207648742372535 0.0176391935188391 -0.0119890538024292 0.03487571 -0.04703165 0.9982844 103 103 103
-0.000144297058626064 0.0199371453854522 -0.0110895222966269 -0.009541092 -0.1051652 0.994409 119 119 119
-0.00318767960526722 0.0193248338879786 -0.0115053251896403 0.02942573 -0.05335602 0.9981419 185 185 185
-0.00156253245508853 0.0211225387860074 -0.0111421847285373 0.0317938 -0.04426471 0.9985138 112 112 112
-0.0050351315329078 0.0182281151442329 -0.0114514434118125 -0.009744406 -0.01422059 0.9998514 136 136 136
-0.00365709406255887 0.018107181200117 -0.012607982438758 0.02163377 -0.05609193 0.9981912 170 170 170
-0.00313668341054107 0.0194066505418617 -0.0124120176791579 0.02942573 -0.05335602 0.9981419 156 156 156
-0.00823534917240498 0.022103323614125 -0.0114971796305195 0.06087077 0.01781179 0.9979867 190 190 190
0.00161062407952017 0.0188364079334866 -0.0121671989631291 -0.05769477 -0.05356297 0.9968963 136 136 136
0.00246827686178341 0.0201641149290985 -0.0120330579850734 -0.02598479 -0.06714235 0.997405 139 139 139
6.9221736013203E-05 0.0199023189223997 -0.0123930841322607 -0.008397733 -0.08701108 0.996172 145 145 145
-0.00120191855964391 0.0219808809363475 -0.0112112273016807 -0.02272135 -0.07004677 0.9972849 134 134 134
-0.00414252178733787 0.0194822037680678 -0.0124974807079575 0.05115093 -0.06130428 0.9968076 193 193 193
-0.00801575270330912 0.0220649234407126 -0.0126292426896511 0.0309648 0.02028379 0.9993147 196 196 196
-0.00283202473893351 0.0234477266105655 -0.01240529918071 -0.009011732 -0.07826959 0.9968915 129 129 129
-0.00518360949371277 0.0227511148772943 -0.0124599157065391 -0.0006256773 -0.004662897 0.9999889 152 152 152
-0.00662344894950895 0.0233261349186802 -0.0128566376614632 -0.004666101 -0.03628724 0.9993305 163 163 163
-0.00494872619652087 0.0243768485532243 -0.0111767152681593 -0.0529723 -0.04942313 0.9973722 101 101 101
-0.00571199275769696 0.0251868876959862 -0.0113765310007173 -0.01575998 -0.0284394 0.9994712 94 94 94
-0.00453804271528546 0.0243073050741824 -0.0125493531110207 -0.008040293 -0.02484324 0.999659 111 111 111
0.00402501170238101 0.0223510001624714 -0.0120895612829687 -0.0008489654 0.06322818 0.9979987 108 108 108
0.00249745416053337 0.0233553926611418 -0.0107239311650287 0.08219913 -0.01337741 0.9965261 114 114 114
0.00189588966436105 0.0236039111392712 -0.0122503386527436 0.06360465 -0.04454404 0.9969806 116 116 116
0.000558726349505489 0.0242510350196639 -0.011253049448086 0.0314568 0.003698821 0.9994982 116 116 116
0.000987719496325035 0.0253083176009998 -0.0110473840786397 0.01283824 -0.03027815 0.9994591 128 128 128
0.00481539672946218 0.0243523790679561 -0.0118288654188518 0.04756793 0.08447138 0.9952899 100 100 100
0.00299435513660207 0.0250851441864088 -0.0121380036243622 0.06410551 0.01085095 0.9978842 107 107 107
-6.1617872014974E-05 0.0248393815699297 -0.0128395031023987 0.06662466 -0.05568172 0.9962232 127 127 127
0.00572629591661555 0.0260701934993286 -0.0121966115881139 0.03535626 0.08090587 0.9960945 110 110 110
0.00650512685923244 0.0252457184365318 -0.0132164679719683 0.0339941 0.1216781 0.9919873 133 133 133
-0.00223653905867072 0.0236770072275865 -0.0115820721344143 -0.0180008 -0.01611429 0.9997081 127 127 127
-0.00156247856699365 0.0251112995310356 -0.0121367088070926 0.0126764 -0.02711246 0.999552 118 118 118
-0.00083666505164004 0.0269231949062532 -0.0122351236309619 -0.04528585 -0.0745065 0.9961917 126 126 126
-0.00355751593918985 0.0258270646259091 -0.0112302547282873 0.04528472 -0.01697352 0.9988299 104 104 104
-0.00335516050446016 0.0263657150136687 -0.0125788870217632 -0.02644842 0.0001765102 0.9996502 113 113 113
-0.00228372492536755 0.0274577293083402 -0.0112360807769081 -0.02677297 -0.006053923 0.9996232 110 110 110
-0.00562848379959457 0.026622585470383 -0.0123300181546454 0.0001807932 -0.02530321 0.9996798 79 79 79
-0.00388311750676107 0.0280194412157695 -0.0114993683382972 -0.01628385 -0.01482215 0.9997575 110 110 110
0.000516313735921869 0.028606008107765 -0.0123713654074535 0.05186254 0.01288327 0.9985712 102 102 102
0.000432175274537983 0.0289749027846042 -0.0108212496740625 0.03388641 0.03948049 0.9986456 106 106 106
0.00248719865065938 0.0292516833987455 -0.0123623007565951 0.1043356 0.05922645 0.992777 112 112 112
0.0176635965955616 0.0208502396879682 -0.0125505798943353 0.1061918 0.01743795 0.9941928 182 182 182
0.0166989061765488 0.0218698094198815 -0.0117801508490176 0.1086409 -0.006942566 0.9940568 190 190 190
0.0342483538033374 0.00996683366973294 -0.00246821901032246 -0.9724274 0.1194203 0.2003089 97 97 97
0.0396348712525436 0.0147881819195284 0.00186695746096993 -0.09022193 -0.9159018 0.3911316 103 103 103
0.0393800110695837 0.0138441965735909 -0.0013966687379568 -0.1823761 -0.9773679 -0.1071953 61 61 61
0.040843082117165 0.0150467569652144 0.000211000994528809 -0.01157155 -0.9995824 -0.02647968 95 95 95
0.0367464445752499 0.0116718576337083 -0.0109889532906463 0.02109176 -0.02698877 0.9994132 168 168 168
0.0311474314476969 0.0144836264714692 -0.0115821106335279 0.0004726906 -0.06353425 0.9979795 146 146 146
0.0398914995608961 0.0137755371126644 -0.00409380987610033 0.005327948 -0.9873326 -0.1585749 53 53 53
0.0412193729632329 0.0170694018257449 -0.00374419451477442 0.06473394 -0.972456 -0.2239173 64 64 64
0.0382951795988264 0.0170598348321853 -0.00482141591285176 0.2826169 -0.957583 -0.05623664 42 42 42
0.041973199829245 0.0171652223375149 -0.00630700228504563 0.007951917 -0.9783097 -0.206995 79 79 79
0.0422586412161954 0.0163800424848264 -0.00647380443444834 0.05251051 -0.9876142 -0.1478541 87 87 87
0.0417804414590892 0.0184483876739887 -0.00588753417270022 0.138904 -0.9753835 -0.1712679 74 74 74
0.0380573130732891 0.019261580942707 -0.00500765524794503 0.2434794 -0.9694569 -0.02951647 49 49 49
0.0406854998632198 0.0197613208259591 -0.00364562280931463 0.2588821 -0.9628286 -0.07707924 80 80 80
0.0395876321318329 0.019383830840173 -0.00562273093364182 0.2030194 -0.9786533 -0.03194956 45 45 45
0.0287462339485189 0.0200305885436887 0.00065435815740314 -0.1739698 0.4134489 0.8937531 89 89 89
0.0238706130865125 0.0201695208586081 0.0019027393844529 0.8403752 -0.1123505 0.5302328 97 97 97
0.0223350688640176 0.0192071860679732 -0.0114002224738613 -0.05095619 0.0559679 0.9971314 113 113 113
0.0237503580634824 0.0178580489803499 -0.0111823050635429 0.04314728 -0.02419945 0.9987756 121 121 121
0.0184453465887813 0.0199277088993226 -0.0102987263324995 0.09070498 0.02243376 0.9956251 193 193 193
0.0220460621903606 0.0214320066421159 -0.0113585111159967 0.0213154 0.05292768 0.9983708 159 159 159
0.0430011430622168 0.0177580335223426 0.0040675877583243 0.177651 -0.8516611 0.4930654 81 81 81
0.0393643566681303 0.0180107822103364 0.00516105872879846 0.1214627 -0.7762349 0.6186325 88 88 88
0.0436278356299649 0.0194071082870617 0.00520085359782105 0.174234 -0.8871856 0.427252 63 63 63
0.0414952429814675 0.0166563075560795 0.0012894822291421 0.01976298 -0.7938509 0.6077912 91 91 91
0.0426625930398445 0.017320355637815 0.00280598927400072 0.2716617 -0.822605 0.4995208 80 80 80
0.0393864085826763 0.0175989374074987 0.00213070462717799 0.1119912 -0.7602654 0.6398864 56 56 56
0.0403851376532234 0.0193998060887548 0.000571843419097245 0.226508 -0.7393014 0.6341353 86 86 86
0.0420147338221313 0.0204091437960441 0.00252564447375686 0.09895326 -0.9017386 0.4208036 112 112 112
0.0412168035097589 0.0211062617944751 0.00224334269873069 0.1300355 -0.8310251 0.5408217 107 107 107
0.0384715128234752 0.0208702876365769 0.001471348440647 0.4191552 -0.905956 -0.05960358 111 111 111
0.0373445234664063 0.0215295443571506 0.00133650772126179 0.3657064 -0.9170274 0.1591216 94 94 94
0.0431038425820101 0.0202906649421164 0.00593239960516007 0.100841 -0.9544886 0.2806825 89 89 89
0.043182017376449 0.0216945230493593 0.00662339715705709 0.19427 -0.9381462 0.2866024 71 71 71
0.0437369705147521 0.023564091207577 0.00890940874069879 0.1636938 -0.9626428 0.2156921 76 76 76
0.0428759350323453 0.0244844334714702 0.00676622012793132 0.1400898 -0.9505774 0.2770873 80 80 80
0.0421501214801103 0.022656769869583 0.00515585147581002 0.03320658 -0.9133564 0.4058046 79 79 79
0.0404794321695365 0.0240779212748095 0.00400464848973725 0.1425676 -0.9496532 0.2789861 69 69 69
0.0413628255764464 0.0257830686337099 0.00464492804485675 0.3273067 -0.7745534 0.5412369 95 95 95
0.0425789077799534 0.0259612966282146 0.00555705476844978 0.2772129 -0.9199253 0.2772912 90 90 90
0.0397542713614423 0.0265214978150463 0.00881390648459981 0.1954593 -0.9233578 0.3304634 98 98 98
0.0389006422108396 0.0245449299266367 0.00411164813599715 0.2847586 -0.8545867 0.4342742 93 93 93
0.0413040073762159 0.0258996929992712 0.00229086049546676 0.3303191 -0.9162748 0.2265609 79 79 79
0.0387147522357083 0.0264343878156001 0.00608251446395153 0.3539322 -0.9097232 0.2171078 87 87 87
0.039422802469353 0.0271585473297205 0.00497020743779258 0.3210288 -0.9415323 0.1022615 62 62 62
0.0403484699141217 0.0191767045393041 -0.00201706097574014 0.1961613 -0.9799397 -0.03519801 68 68 68
0.0410021564384431 0.021475266353939 0.000271784492383353 0.2813751 -0.9347241 0.2170688 83 83 83
0.0402799833750567 0.0223442670190011 0.00144365228058441 0.3129607 -0.9354125 0.1644967 65 65 65
0.0409028931662829 0.022033457898986 -0.00131761436074054 0.2163184 -0.975834 -0.03089349 91 91 91
0.0410791243571387 0.0242399934553224 0.000552565494344709 0.2152019 -0.9579775 0.18965 90 90 90
0.0402403489643945 0.0225089214306606 -0.00366588159484477 0.1816697 -0.9827324 0.03511574 86 86 86
0.0407937777222565 0.0217328034830993 -0.00540232374552468 0.08596685 -0.9767813 -0.1962345 80 80 80
0.0404588501380003 0.0228722772761865 -0.00166388148686228 0.2657171 -0.9623036 -0.05801809 72 72 72
0.040494833184421 0.0237794387104617 -0.00165639590209501 0.1635011 -0.9847399 0.0596218 87 87 87
0.0376625189501767 0.0241447876419343 -0.000306448293960954 0.1262573 -0.97943 -0.1574039 87 87 87
0.0377733494428882 0.0240904934911907 -0.00337904638968542 0.09090794 -0.9952385 -0.03515722 48 48 48
0.0390750312503283 0.0250235310720406 -0.00103771998853874 -0.04409342 -0.9728671 0.2271243 79 79 79
0.0409613336884154 0.0260756351110887 0.000830527122845509 0.1053753 -0.9111335 0.3984116 84 84 84
0.038869662480381 0.0244143983072513 0.00207845701582213 0.4838038 -0.8742414 0.04044618 71 71 71
0.0399965318936217 0.026336729694 0.00248077082936696 0.1187835 -0.960995 0.2497581 69 69 69
0.0401125673955156 0.0285148958486916 0.00105898667665563 0.2819964 -0.8427342 0.4585599 97 97 97
0.0367244307001862 0.0301987586740977 0.000439419796581381 0.1135178 -0.9684796 0.2217226 103 103 103
0.0405758640884668 0.0285872523670876 0.00283733658904953 0.2651861 -0.8494875 0.456122 85 85 85
0.0413885819775228 0.0287622811569173 0.00419731992801628 0.3498425 -0.8379112 0.4189453 65 65 65
0.0415121000061418 0.0298762377808151 0.00516298924061254 0.3602134 -0.8663652 0.3459156 75 75 75
0.0409515075550264 0.0306329660751303 0.00328969382028396 0.229156 -0.8911538 0.3915768 97 97 97
0.0384775921218796 0.0296512724646498 0.00391368145415852 0.2601083 -0.6731257 0.6922755 74 74 74
0.0390432491108721 0.0298673692246425 -0.00126213678026071 0.1722388 -0.9637586 0.203723 95 95 95
0.040714031323194 0.0306380168762006 0.00155894706820639 0.1909305 -0.8903482 0.4133106 98 98 98
0.0397595603693279 0.0314308030820449 -0.000775412621285748 0.3399184 -0.8889506 0.3069564 88 88 88
0.0384990935328973 0.0322301523049711 -0.00148873805156069 0.3023705 -0.9028537 0.3056589 87 87 87
0.0293929787311216 0.0266606156353577 0.00671567132392922 0.4841417 0.002790227 0.8749852 102 102 102
0.0373662517381979 0.0321364844888878 0.00291171338380483 0.269926 -0.8162273 0.5107964 95 95 95
0.0351076399450727 0.0320730476325846 -0.000800510220598377 0.3189952 -0.9476538 0.01394292 85 85 85
0.0387464113727782 0.0340076067573603 -0.000746097332381124 0.5267722 -0.7607916 0.3790874 105 105 105
0.0397392567717942 0.0119842255164657 -0.0114823383963082 0.03460603 -0.1719052 0.9845055 133 133 133
0.0373592511128529 0.0133258852244547 -0.0119799956329567 0.001765105 -0.1314444 0.991322 135 135 135
-0.0090191225733558 0.0232637983057793 -0.0118019853896573 0.03142018 -0.006374495 0.9994859 205 205 205
0.0401627330427623 0.0142938467497771 -0.0106043390046137 0.03702114 -0.25662 0.9658031 129 129 129
0.0404219259533518 0.0137593248414585 -0.0112492544530332 -0.04974114 -0.2590661 0.9645779 113 113 113
0.0369792175083716 0.015536796119854 -0.0118953942637209 0.0009474926 -0.1166633 0.9931711 148 148 148
0.0380871560646094 0.0154877040091064 -0.0121798496235478 -0.009009227 -0.08272508 0.9965317 132 132 132
0.0392917254527532 0.0155684317634597 -0.0105186506529202 0.02218792 -0.1748603 0.9843432 36 36 36
0.0389655091103249 0.0170364085813044 -0.00988156635972681 0.1153863 -0.3078382 0.944416 95 95 95
0.0369828559744689 0.0178296756713663 -0.0108548842203113 0.03776572 -0.02056619 0.9990749 136 136 136
0.0319914568412114 0.0134970163167729 -0.0114547978630348 0.01275427 -0.06101157 0.9980556 170 170 170
0.0350170140564188 0.0151152700167361 -0.0119662795478572 0.04135588 -0.0744754 0.996365 115 115 115
0.0342766087931055 0.0154132424988529 -0.0120286341935338 0.01105381 -0.04515023 0.9989191 129 129 129
0.0320495608828428 0.016101419716311 -0.011027324974435 -0.01302348 -0.03228797 0.9993938 163 163 163
0.0320040347697772 0.0171637087493277 -0.0126036009940517 -0.02538539 -0.06399185 0.9976275 145 145 145
0.035297358800537 0.0173085164703797 -0.011952710844558 0.02270405 -0.1165046 0.9929306 154 154 154
0.0329523162331398 0.0177193634942665 -0.0110671157198038 -0.05627288 -0.01906764 0.9982333 153 153 153
0.0332654474187433 0.0177900245731593 -0.011846912345644 -0.03559872 0.005329543 0.999352 153 153 153
0.0315674225427045 0.0190169199382355 -0.0121736535211757 0.004597068 -0.01339159 0.9998997 144 144 144
0.033535110139167 0.0201624844543709 -0.0118083031719261 0.03279195 -0.03016084 0.999007 149 149 149
0.0322475222518681 0.0206505421663603 -0.012054140177431 0.06076712 -0.02224954 0.9979039 146 146 146
0.0423302701273049 0.0163378860736012 -0.00854331005173709 0.07465076 -0.9514368 0.2986557 76 76 76
0.0404664215800832 0.0164186350368647 -0.0104557039091266 0.06103145 -0.2984939 0.9524581 129 129 129
0.0420249832505313 0.0178916731153467 -0.00997224825676671 0.1377548 -0.906279 0.3996023 106 106 106
0.0416914370698065 0.019258396862633 -0.00775018280939124 0.1597125 -0.9869607 -0.02001059 80 80 80
0.0418726402568361 0.0191049484897938 -0.0100418704198305 0.2511063 -0.9083526 0.3344267 104 104 104
0.0413774505607523 0.0201441712498851 -0.00786472810046454 0.1693664 -0.9851479 -0.0282598 87 87 87
0.0420439431851261 0.0175702378280813 -0.0109887761709325 0.09347215 -0.6776186 0.7294491 128 128 128
0.0410560086877576 0.0163512808170199 -0.0119346465058223 0.1011552 -0.1510311 0.9833398 114 114 114
0.0396403922058268 0.0187600930400658 -0.0106698713808004 0.2695036 -0.2896289 0.9184133 130 130 130
0.0413068224825341 0.0199253611896402 -0.0117072737905932 0.1961419 -0.495983 0.8458896 103 103 103
0.0403554050714872 0.0192279729637788 -0.0120555899808982 0.2105603 -0.2149745 0.9536511 118 118 118
0.038790461171512 0.0201196829882417 -0.0120795866045005 0.07336435 0.04852121 0.9961241 116 116 116
0.0415373278587567 0.0224000068233603 -0.00971652536303216 0.178643 -0.9652979 0.1904908 68 68 68
0.0339863288512861 0.020300299037999 -0.0107384565482996 0.03160102 -0.06339584 0.997488 162 162 162
0.0364903754209813 0.0204968194890316 -0.0116628402465641 -0.01064223 -0.02636268 0.9995958 135 135 135
0.0368463779153536 0.0211517243377712 -0.0108755533218618 -0.03422054 0.01431538 0.9993118 145 145 145
0.0379661704111294 0.0218784357070585 -0.0119466673933077 -0.004745689 0.03674751 0.9993133 136 136 136
0.0350167828065848 0.0216857916992224 -0.0105012782708186 0.02087972 -0.08808797 0.9958938 117 117 117
0.0351251462853852 0.0219037412391669 -0.012043880379505 0.0264349 -0.1441205 0.989207 126 126 126
0.0354590568713564 0.0235951046549387 -0.0120238973065516 0.1348992 -0.08224764 0.9874399 131 131 131
0.0391977637030034 0.0240549434965689 -0.01141201561118 0.08245049 -0.4312421 0.898461 113 113 113
0.0371991560065086 0.0242786424604937 -0.0103291361342616 0.1289861 -0.2439264 0.9611776 112 112 112
0.0362147566316791 0.0234372610479454 -0.0107665425823073 0.05244297 0.02255674 0.9983692 140 140 140
0.0367814992264737 0.0247869464730419 -0.0114769942397187 0.05532644 -0.03525307 0.9978458 101 101 101
0.0407931879017933 0.0223794486396822 -0.0117212400152153 0.02262439 -0.5476151 0.8364245 119 119 119
0.0404837096178661 0.0239995851986887 -0.0125636561837554 0.05442348 -0.3906926 0.918911 116 116 116
0.0280375286028596 0.0182315454571151 -0.0124091983918114 0.04171197 -0.01795996 0.9989682 103 103 103
0.0253693704159006 0.0175126643065964 -0.0122845800579717 0.06703887 0.01951438 0.9975595 113 113 113
0.0263596555736536 0.0190463252314326 -0.0115494205896731 0.0209227 -0.07752406 0.9967709 131 131 131
0.0289029408126253 0.0199198242216818 -0.0118659074440194 0.02905598 -0.03188377 0.9990692 147 147 147
0.0304207415903071 0.0211809086094241 -0.0107646655370259 0.02213237 -0.02786874 0.9993665 158 158 158
0.0273764386377919 0.0201353389990802 -0.0112205089669053 0.01603921 -0.02614122 0.9995296 131 131 131
0.0281000163264915 0.0207037189832029 -0.0121864759944617 0.02410004 -0.06075678 0.9978616 122 122 122
0.0306916458078235 0.0217319996918042 -0.0122151949062587 -0.00140546 -0.04059792 0.9991746 143 143 143
0.0235468532957779 0.0212802618292871 -0.0124339398366998 -0.01624873 -0.06107492 0.9980009 81 81 81
0.025247027119031 0.0220238588840074 -0.0113549138219677 -0.01478486 0.03076293 0.9994174 91 91 91
0.0241509638365474 0.0234676262033595 -0.0110366416410107 0.04904914 -0.04321557 0.997861 123 123 123
0.0265693316770055 0.023581338183448 -0.0110081182105859 -0.08061718 -0.03683034 0.9960644 115 115 115
0.0250775669644241 0.0241549412910476 -0.0123233878687634 -0.006014232 -0.03222905 0.9994624 120 120 120
0.0220846894972515 0.0233905854696721 -0.0109639587500707 0.008419826 -0.01669768 0.9998251 125 125 125
0.0206817120739149 0.0246823415463484 -0.0123261880970579 -0.01686298 -0.04733669 0.9987366 126 126 126
0.023131473458905 0.0255332768133032 -0.011137459859586 0.02636657 -0.05891789 0.9979146 128 128 128
0.0232596034242365 0.0251988903008658 -0.0122855406920872 0.03250172 -0.06320807 0.997471 125 125 125
0.0213383616938645 0.0263996579707759 -0.0124402147426781 0.009384448 -0.002878421 0.9999518 124 124 124
0.0314079730249663 0.0236525318311889 -0.0122605101374342 0.05562012 -0.00767134 0.9984225 137 137 137
0.0308506161840263 0.0241075061504672 -0.0111717987492175 0.02222669 0.01353231 0.9996614 129 129 129
0.0323227769576937 0.0251117884988201 -0.0120564084121623 0.04898447 0.04618623 0.9977311 127 127 127
0.0301157973311661 0.0259862081448337 -0.0120648903233392 -0.06201179 0.08741201 0.9942402 134 134 134
0.0279879930046252 0.0257900157129693 -0.012055272550248 -0.01544297 0.01101495 0.9998201 121 121 121
0.0281881558426178 0.0266787002853346 -0.0121341145641802 -0.001343264 0.03751203 0.9992953 130 130 130
0.0256118072618421 0.0264221617313007 -0.0123352905577926 0.01149057 -0.03989166 0.9991379 117 117 117
0.0222903598856281 0.0277377762593574 -0.0113941079910614 0.01117819 -0.02119159 0.9997129 115 115 115
0.0254846643871889 0.0273933342608603 -0.0108698080556716 0.02542432 -0.07858114 0.9965835 130 130 130
0.0247114885841087 0.0276907474509644 -0.0125528627379646 0.03393705 -0.0542759 0.9979491 106 106 106
0.0266815542096706 0.0278720365853804 -0.0108360364220132 0.03303001 -0.05204477 0.9980984 120 120 120
0.0278991101686139 0.029922788514698 -0.0120273586677301 0.07796406 -0.03999836 0.9961535 125 125 125
0.0265375422929262 0.0311412212502571 -0.0119007896166137 0.07897325 -0.04459936 0.9958786 147 147 147
0.0352823498076023 0.0268572198636008 -0.0127797249942919 0.08119607 -0.08574717 0.9930028 116 116 116
0.03341881906495 0.0281088260902638 -0.0130725446696744 -0.009375517 -0.001165797 0.9999554 140 140 140
0.0400396695186924 0.0228816670744476 -0.00557862371533602 0.1369382 -0.9685027 -0.2079674 84 84 84
0.0411301261004708 0.0225625071743538 -0.00761037683993834 0.159675 -0.9835808 -0.08409936 89 89 89
0.0402320294224723 0.022885021502647 -0.00703475945434318 0.08788326 -0.9792993 -0.1823441 63 63 63
0.0406243210841273 0.024807976641152 -0.0076245360531508 0.1168096 -0.9917029 -0.05367423 64 64 64
0.0409781333222592 0.024750745673646 -0.00964541059086713 0.1568481 -0.9328944 0.3242015 77 77 77
0.0410180363523087 0.0247530410715284 -0.0109781916842422 0.1081917 -0.8897975 0.4433452 97 97 97
0.0396522516368758 0.0250712646462596 -0.00437996428599122 -0.06810302 -0.9948251 -0.07539906 67 67 67
0.0395135881638617 0.0273086400747764 -0.00503638018761518 -0.004388015 -0.9968276 -0.07946969 68 68 68
0.0395297076754446 0.0271805052317415 -0.00381789005180483 -0.01913583 -0.9998035 -0.005166741 74 74 74
0.0395041728404524 0.0259182135534159 -0.00567649540908968 0.01422663 -0.9642194 -0.2647236 74 74 74
0.0402299398583552 0.0259109445498185 -0.00651335917173657 0.06108989 -0.9611754 -0.2690909 79 79 79
0.0370553865520296 0.0284509476930486 -0.00594809455121731 -0.05208491 -0.9979987 0.03585626 54 54 54
0.0378138078787134 0.0270360008819654 -0.0101839650127889 0.03798719 -0.542283 0.8393367 109 109 109
0.0389200121406115 0.028706995280162 -0.00647622090453609 -0.09870343 -0.9942857 -0.04066393 41 41 41
0.0372719394627989 0.0301366739659996 -0.00705049002790373 -0.1054906 -0.9943902 0.007735788 58 58 58
0.0394737543477435 0.029548836103646 -0.00864212469720138 -0.02239145 -0.9987907 -0.04376896 77 77 77
0.0386045634602901 0.0284678921791346 -0.0031712083536842 0.1663569 -0.9835301 0.07066754 70 70 70
0.0386449385770693 0.0300089299043051 -0.00251398894938065 0.2287526 -0.9714372 0.06310424 83 83 83
0.0381608014217105 0.0307119781435952 -0.00222971412002074 0.01856847 -0.9954066 -0.09391994 85 85 85
0.0386681815096537 0.0299126079802976 -0.00552485274249764 0.1192866 -0.9847112 -0.1269428 76 76 76
0.0380697203100409 0.0307246729257873 -0.00474652323340893 0.1376244 -0.968339 0.2082766 55 55 55
0.0382319876600248 0.0324090168416453 -0.00273196765017084 0.3358707 -0.9413062 0.03366579 93 93 93
0.0397268977449814 0.0328837272437794 -0.000338680355566806 0.3034356 -0.8943257 0.3287985 103 103 103
0.0383990943395205 0.0329017546445882 -0.00553321359565179 0.2234676 -0.9743714 0.02574001 69 69 69
0.0384011929676735 0.0329079185138605 -0.00684686507292381 0.1845854 -0.9768625 -0.1080175 90 90 90
0.0399676211098956 0.027612875660366 -0.0120846905572188 -0.04123452 -0.5825319 0.8117613 52 52 52
0.0383781034984678 0.0277334711166581 -0.0113767085847667 -0.06657606 -0.421118 0.9045591 106 106 106
0.0374918049776791 0.0283922879605967 -0.010379658404241 -0.2600687 -0.6823738 0.6831766 70 70 70
0.0386886571008274 0.028899215368912 -0.0125370916423529 0.1073471 -0.4502276 0.8864377 97 97 97
0.0401742591011314 0.0290582958135523 -0.00882024103120188 0.01728301 -0.9981713 0.05792622 73 73 73
0.0394787413670581 0.0303993102159734 -0.0111140691880231 -0.01238741 -0.7916198 0.6108885 68 68 68
0.038203459718732 0.031887063326919 -0.00906657237047589 0.1015938 -0.9774148 0.1853077 56 56 56
0.0385596848756062 0.0328603058759351 -0.0107877140087437 0.116191 -0.8014804 0.5866249 73 73 73
0.0322576733374815 0.0292229722511643 -0.0105681920145324 -0.06927934 0.03231614 0.9970737 131 131 131
0.029498451192876 0.0297077215987431 -0.0108050527613852 0.03270374 0.05775679 0.9977949 124 124 124
0.0302157696472396 0.030945622913884 -0.0106992857208657 0.04332318 0.04087745 0.9982245 80 80 80
0.0363876729450516 0.0297671382604325 -0.00370439302014069 -0.01347814 -0.9998915 0.005941216 57 57 57
0.0365796361830524 0.0335026948050725 -0.00155687758802003 0.1846726 -0.9820315 0.03885972 79 79 79
0.0367391521303546 0.0339087393380419 -0.00315863935414065 0.3317595 -0.9178817 0.2177815 68 68 68
0.0350038921120135 0.0346795807502622 -0.00612813998383632 0.307056 -0.9447145 -0.1150262 40 40 40
0.0384093721205414 0.0343650614481366 -0.00521469850796902 0.241229 -0.9592784 0.1469474 76 76 76
0.0381917431017382 0.0355070071288499 -0.00693325058001065 0.2659611 -0.9604799 0.08211574 82 82 82
0.0344570985079582 0.0370119053038396 -0.00557493361879649 0.4192074 -0.9054919 -0.06595098 69 69 69
0.0341346275211099 0.028127544344219 -0.0116346119698859 0.05910057 -0.1238431 0.9905403 128 128 128
0.035409855707951 0.0304899355526298 -0.0113538385439362 -0.01911988 -0.1741954 0.9845254 114 114 114
0.036480685862337 0.0293886756577868 -0.0125585105987923 0.008859041 -0.1303259 0.9914317 97 97 97
0.0309174607205451 0.0302803907888083 -0.0120980732376037 0.03539382 0.02084635 0.999156 118 118 118
0.0364056426938129 0.0322256011823263 -0.0114137714445232 -0.03398355 -0.5044644 0.8627634 110 110 110
0.0372941700266185 0.0337449216398076 -0.0110465780389922 0.07437347 -0.7232644 0.6865546 94 94 94
0.0315600487017125 0.0324576288863097 -0.0120528406266899 0.08820214 -0.04171287 0.9952288 110 110 110
0.0329839908913749 0.0339282869416362 -0.0117556971213875 0.10695 -0.01997397 0.9940637 132 132 132
0.0382192238551486 0.0329452422788086 -0.0126184196513567 0.09558856 -0.5731323 0.8138686 106 106 106
0.0370273505687002 0.0334711101973428 -0.0123280737631284 0.05756104 -0.5061209 0.8605396 60 60 60
0.0288417506089016 0.0315370219624937 -0.01244140010451 0.07654239 0.04742695 0.9959377 147 147 147
0.025451131622733 0.0336712890568553 -0.0121405231890164 0.04417599 0.03049929 0.9985581 160 160 160
0.0266126477149169 0.0352044381443308 -0.0121524536893513 0.05598816 0.02612476 0.9980896 160 160 160
0.0273120112299468 0.0366228460756122 -0.0119435138196561 -0.02178271 0.04170775 0.9988924 128 128 128
0.0334510868191911 0.0358372222225056 -0.012013205151879 0.1086304 -0.04123736 0.9932265 105 105 105
0.0309581720862409 0.0360627466471803 -0.0129965594615511 0.03827294 -0.006882142 0.9992436 144 144 144
0.0290016360635452 0.0365081872526165 -0.0130268919585398 0.047829 -0.001329574 0.9988546 99 99 99
0.0288930282664215 0.0385605429322546 -0.0119864383437084 0.05799029 -0.0003082035 0.9983171 140 140 140
0.0377170570790397 0.0356819733315556 -0.00927328085107465 0.1491514 -0.9678438 0.2025641 58 58 58
0.034796949333405 0.0359221918039023 -0.0101922019680326 0.1725918 -0.6421027 0.7469379 22 22 22
0.0379926793802385 0.0373808933774229 -0.00699577722915223 0.3011482 -0.9531125 0.02977213 76 76 76
0.0383644117710393 0.0370145340949373 -0.00922325193137935 0.2716261 -0.9305354 0.2456078 84 84 84
0.0365779133907365 0.0356543129185978 -0.00809665146446528 0.1964642 -0.9770281 0.08257101 48 48 48
-0.0520512086684235 -0.0151768796778162 -0.0118605361539749 -0.0686199 0.2890289 0.9548579 114 114 114
0.0376141773011687 0.0379378527358054 -0.00900856686360024 0.2793174 -0.920539 0.2731113 70 70 70
0.035658506585023 0.0396689905806764 -0.00840262446581416 0.2749233 -0.9554274 0.1075902 62 62 62
0.0347623522181844 0.0373733321861103 -0.0114828565701945 0.254118 -0.3492991 0.9018947 131 131 131
0.0362107154207385 0.0367723478853237 -0.0126886010458349 0.1378455 -0.3347168 0.932182 149 149 149
0.035448372669763 0.037633528947711 -0.0129445695241731 0.1198007 -0.3151422 0.9414527 205 205 205
0.0382387448277679 0.0372913653414289 -0.00995207679825857 0.2244857 -0.9120044 0.3432989 112 112 112
0.0369525432567082 0.0370151693638405 -0.0110706874962776 0.3257293 -0.8105029 0.4868116 53 53 53
0.0371813771638305 0.0384002220444981 -0.0108055917856352 0.1704502 -0.8459185 0.50534 75 75 75
0.0367293669630397 0.0411602565209002 -0.0109072158942602 0.1601679 -0.8801389 0.4468799 92 92 92
0.032957030673834 0.0385126198352514 -0.0128664665200633 0.02860478 -0.001575235 0.9995896 190 190 190
0.0319449715859677 0.0398820849039678 -0.0127043673495823 0.02489365 -0.009743388 0.9996426 196 196 196
0.0297731857745063 0.0412608200118623 -0.0128963458110509 0.07411329 -0.05780889 0.9955729 145 145 145
0.0366680914180686 0.0410120657442108 -0.00918214359782821 0.2161801 -0.9657336 0.1436134 62 62 62
0.0075123833530053 0.0217078296100102 -0.00374679545702236 -0.4802566 -0.6891017 0.5426716 103 103 103
0.0122689153322051 0.0282871001283405 -0.00209042844755569 0.514538 -0.8372361 -0.1851657 81 81 81
0.0185682649989551 0.0216975673528124 -0.0114610291601581 0.1142173 -0.03432747 0.9928625 200 200 200
0.0143089480264043 0.0247821529252437 -0.0113712474454924 -0.04239901 -0.02738652 0.9987254 146 146 146
0.0110774480441413 0.0239812633267757 -0.0106553460299006 0.03474927 0.07009984 0.9969345 115 115 115
0.0115184202802665 0.0249637147868829 -0.0117930393632686 0.05053791 0.03978522 0.9979294 113 113 113
0.00968148442731742 0.0260331939114096 -0.0118833498837979 -0.03562981 0.0194233 0.9991763 128 128 128
0.00614249217118856 0.0283024003336791 -0.0118122466946531 0.003470673 0.05353955 0.9985597 108 108 108
0.00889575975782941 0.0282854330126543 -0.0119555394733575 -0.01164742 0.03172827 0.9994287 107 107 107
0.00476394754438303 0.0287436999244957 -0.0120684534552625 0.02363449 0.04925729 0.9985064 99 99 99
0.005485005073673 0.0304043120242914 -0.0118050487758694 0.1119668 0.02272822 0.993452 99 99 99
0.00112787340941423 0.0305032079130714 -0.0108821906545845 0.02730114 0.1037643 0.9942272 96 96 96
0.00221090374674549 0.0322932487600198 -0.0122520229449775 0.06099014 0.04966074 0.9969022 109 109 109
-0.00112409440540517 0.0317928740634694 -0.0121203109214962 0.07329912 0.06798888 0.9949898 98 98 98
0.000361691450761148 0.0332448483122487 -0.0123314574882412 0.1228969 0.1042369 0.9869301 106 106 106
-0.00140316782332106 0.0339448163649776 -0.0108275992053578 0.09031413 0.02119865 0.9956877 84 84 84
0.0228217117307721 0.0305072905098029 -0.00189417340594086 -0.2544563 -0.9633729 0.08464365 80 80 80
0.00497254373151867 0.0466323776713695 0.00553954280727734 -0.9466779 -0.2763672 -0.1655963 46 46 46
0.00946378556182581 0.0472369060960833 0.00170177623797688 -0.9186391 -0.3509762 -0.1814329 44 44 44
0.00599682967968684 0.0474398347902034 0.00139703330453589 -0.9919884 -0.1231386 -0.02821091 61 61 61
0.00722605121416287 0.0474055359348502 0.0014465841266057 -0.9807128 -0.1806732 -0.07456347 58 58 58
0.00607507177426569 0.0481576340192489 0.0017717457966121 -0.9919884 -0.1231386 -0.02821091 62 62 62
0.00430314406917431 0.0450703067230709 -0.00178909104954592 -0.9787611 -0.1445892 -0.1453293 32 32 32
0.00741055263593293 0.0475043996361739 -0.000260600905548747 -0.9711611 -0.1707957 -0.1663578 50 50 50
0.0170561291697802 0.0220772177973678 -0.0126842886555495 0.08385125 0.03169638 0.9959741 207 207 207
0.0173189669590459 0.0239230691861714 -0.0129040775351904 -0.0371973 -0.02995845 0.9988587 128 128 128
0.0151388969623456 0.0225527423713361 -0.012831129728775 0.06416628 0.01109454 0.9978775 208 208 208
0.0160875950193373 0.024831833776878 -0.0116815607505624 -0.03048682 -0.05724625 0.9978945 125 125 125
0.015492621239362 0.0246890156463322 -0.0127689139756091 -0.04135081 -0.02457276 0.9988425 156 156 156
0.0187386730463104 0.0251682260023189 -0.0113959402996067 -0.05562868 -0.06659158 0.9962284 129 129 129
0.0190024686880752 0.0254849290416133 -0.0126494668081709 -0.021128 -0.05396406 0.9983193 118 118 118
0.0166696088940805 0.026436620018826 -0.0113372403546504 -0.04496787 -0.0344194 0.9983953 121 121 121
0.0163187620088947 0.0270532036804014 -0.0122005961209068 -0.02217644 -0.04363577 0.9988014 119 119 119
0.0184820379051185 0.0282002083642419 -0.011344100950535 0.005544254 -0.02231017 0.9997357 111 111 111
0.0154033878263455 0.0279408923766278 -0.0114693929272 0.01534897 -0.06575465 0.9977177 113 113 113
0.0163216991276518 0.0289049236382528 -0.0113178502249148 -0.001948732 -0.06080988 0.9981475 108 108 108
0.0170424704689327 0.0276731125262355 -0.0125590278363495 -0.01609051 -0.03297299 0.9993267 106 106 106
0.0108291849564008 0.025897265071305 -0.0128329168676131 0.04385034 -0.07087753 0.9965207 144 144 144
0.0112033360080777 0.0279618244124498 -0.0121246033694504 0.02904337 0.04030255 0.9987653 103 103 103
0.0107920967234048 0.0274902879603247 -0.0129712610083831 0.02511481 0.0180475 0.9995217 112 112 112
0.0096698049613626 0.0287774671199086 -0.0127669463899905 0.001067656 0.03460291 0.9994006 105 105 105
0.0133025379770888 0.0281970870609589 -0.0114888407001799 0.04683842 -0.02741881 0.9985261 103 103 103
0.0145236817876977 0.0283545580145472 -0.0122385434659056 0.02931331 -0.08212344 0.996191 96 96 96
0.0144016664332602 0.0300724225852016 -0.0116014309318896 0.05020905 -0.03729042 0.9980423 118 118 118
0.0121898433496954 0.0288195375703684 -0.0127059630583682 0.02657527 -0.03226551 0.999126 126 126 126
0.0110485103203182 0.0304370321606369 -0.0128354865702694 0.02647154 -0.008630345 0.9996123 107 107 107
0.0162382704489665 0.0293709503470707 -0.0127133889787509 0.01854582 -0.08518974 0.9961922 110 110 110
0.014484663463828 0.0300879159035308 -0.0130042392807721 0.005473007 -0.0199411 0.9997862 106 106 106
0.0119210705713519 0.0311750838585196 -0.0127252529718998 0.01121337 -0.04362013 0.9989852 101 101 101
0.0222407625563064 0.0301459967787072 -0.00743129823360844 -0.5509728 -0.6409384 0.5344408 106 106 106
0.0211504615040239 0.0289828218130908 -0.0113025864845269 -0.08529283 -0.03621761 0.9956974 121 121 121
0.0191356577232369 0.0302057028314655 -0.0124091127541182 0.008690965 -0.04099904 0.9991214 107 107 107
0.0175736602209602 0.0310859364847191 -0.0112929774134087 0.01196516 -0.02858889 0.9995196 110 110 110
0.0180890091202295 0.030569237935981 -0.012269696438156 0.03682457 -0.03725032 0.9986272 115 115 115
-0.0303028182917884 -0.0163911264445895 -0.00975526928219098 0.05116602 0.06492969 0.9965772 98 98 98
