ply
format ascii 1.0
comment File exported by Rhinoceros Version 7.0
element vertex 471
property float x
property float y
property float z
property float nx
property float ny
property float nz
property uchar red
property uchar green
property uchar blue
end_header
-0.0243540170632732 0.000746183742543982 0.0198755946978794 -0.499112 0.5987529 0.6264042 19 19 19
-0.0268403553262178 0.00282991528318766 0.0167745015484811 -0.5287899 0.5083899 0.6796477 21 21 21
-0.0274215169126055 -0.00124883597134207 0.0197332761739557 -0.5971508 0.5439168 0.5895468 30 30 30
-0.0288152987904766 -0.00268944240856972 0.0189134995904576 -0.6397004 0.5118688 0.5733879 33 33 33
-0.0289485645456797 0.000188578772146952 0.0175456204169596 -0.607385 0.4941825 0.6219864 36 36 36
-0.0290846025170626 -0.00145441383284561 0.0179687395750372 -0.6278107 0.4888919 0.6056719 32 32 32
-0.0286619398230399 -0.00375523660169819 0.0216634275027764 -0.6127362 0.5436298 0.5736036 25 25 25
-0.0303878602910967 -0.00473907165617415 0.0186029962081395 -0.6303799 0.5189464 0.5773351 42 42 42
-0.0323868707214015 -0.00427869590545171 0.0164564090406878 -0.5678712 0.5314937 0.6285195 58 58 58
-0.0337614147221461 -0.00630185523718896 0.0183162698002405 -0.530152 0.5712709 0.6265688 25 25 25
-0.030218360876499 0.00171555942513058 0.0148664319494348 -0.6199526 0.4616308 0.6344728 13 13 13
-0.0308882422427526 -0.00216342658356194 0.0161481095957692 -0.5958982 0.4871419 0.6384341 40 40 40
-0.0305507228683539 0.00358100377328863 0.0130860913928308 -0.5852144 0.4687712 0.6616477 35 35 35
-0.0308809421514802 0.0014101300153162 0.0133554426248695 -0.5855504 0.4646985 0.6642184 44 44 44
-0.0351795943151632 -0.00499259927805329 0.0151355684580691 -0.512799 0.5582908 0.6521875 42 42 42
-0.0356628071437628 -0.00571612395312582 0.0152231964332975 -0.5250945 0.5686433 0.6331828 21 21 21
-0.0344310423920726 -0.00247147281965154 0.0138702445344522 -0.5223094 0.4788451 0.7056205 45 45 45
0.00872205207118304 0.0420915356693103 -0.00160568280871032 -0.0852735 0.7356052 -0.6720219 97 97 97
0.00641097812623403 0.0428618665688609 3.78601562354142E-05 -0.2147086 0.9582474 -0.1888442 35 35 35
0.00617372295748853 0.0417703026657463 -0.00163322088481843 -0.1306392 0.7381641 -0.6618513 138 138 138
0.00528138828291436 0.0412932204119898 -0.00223970820947705 -0.1478233 0.7302525 -0.6669929 97 97 97
0.0103923200010123 0.0370493186716603 -0.00494659722518609 -0.01787017 0.5436403 -0.839128 56 56 56
0.00759995297554772 0.0377852847840727 -0.00417014319048625 -0.03257803 0.5386236 -0.8419165 104 104 104
0.00864091320575167 0.0367789433807104 -0.00504332447374167 -0.02773598 0.5454625 -0.8376762 125 125 125
0.0104959998975516 0.0350403076452066 -0.00628191962218505 -0.01887592 0.5530524 -0.8329326 74 74 74
0.00381773248389239 0.0409956780729339 0.000948295930942589 -0.1659717 0.9759948 -0.1410232 66 66 66
0.00397926809432869 0.0402948174139455 -0.00259710985233896 -0.09915117 0.6657279 -0.7395779 116 116 116
0.00558190818842874 0.0373991595654184 -0.00444005974992467 -0.03151318 0.535234 -0.8441159 85 85 85
0.00191747989463975 0.0380618125431749 -0.00397467963408737 -0.06206485 0.6289388 -0.7749735 78 78 78
0.00572242959751801 0.0354331934393588 -0.00577760193893695 -0.02027207 0.5563104 -0.8307273 63 63 63
0.0118929891029658 0.0325437114870752 -0.00798464777297025 -0.009509684 0.5535899 -0.8327351 144 144 144
0.00902974659253664 0.0330595022715172 -0.00760026907370848 -0.02778624 0.5586627 -0.8289294 135 135 135
0.0101263687865636 0.029850273567112 -0.00981569640389424 -0.01717727 0.5535024 -0.8326705 220 220 220
0.0115611616642086 0.0288611606257825 -0.0103903456314769 -0.0149231 0.5568329 -0.8304905 219 219 219
0.0119359195073145 0.0251559239443904 -0.0130103130300487 -0.01674718 0.5649411 -0.8249612 221 221 221
0.00768729663899403 0.0312389016422048 -0.00869709464972412 -0.02286465 0.5561556 -0.8307636 159 159 159
0.00638110090464838 0.0316535609521871 -0.00873467009311413 -0.03579777 0.5592886 -0.8281997 63 63 63
0.00611849885394156 0.0306120924977187 -0.00905432854569888 -0.03749348 0.5573994 -0.8293975 88 88 88
0.00862865537262447 0.0281628079669496 -0.0107348979245711 -0.02953258 0.5482188 -0.8358134 219 219 219
0.00799262495649922 0.0280282904917075 -0.0110020632175175 -0.02990517 0.5477443 -0.8361112 217 217 217
0.00956589376955952 0.0264101376860988 -0.0118402406804055 -0.03104863 0.5577645 -0.8294184 224 224 224
0.00879596070644473 0.0238693678336261 -0.0138399622604299 -0.03923557 0.5458471 -0.8369657 213 213 213
0.00664455799903108 0.0257519465336822 -0.0122881498731274 -0.03450185 0.5543185 -0.8315892 72 72 72
0.00578174360404038 0.0255378890502194 -0.0125058626900026 -0.02583002 0.5525623 -0.8330713 87 87 87
0.00514278035015625 0.0230869533688336 -0.0139104797068343 -0.02762607 0.560096 -0.8279669 152 152 152
-0.00278584316186592 0.0364607577691227 0.0010120280003344 -0.3306231 0.8848602 0.3281931 39 39 39
-0.00421293512995513 0.0340678524805211 0.00352018898086603 -0.3558165 0.6591676 0.6624898 33 33 33
-0.00699180805999067 0.0309457744189467 0.00523848895823054 -0.3642147 0.6504918 0.6664894 41 41 41
-0.00781295076396216 0.0342902500381119 0.00163874118084339 -0.3128685 0.7847556 0.5350438 25 25 25
-0.00198784662437568 0.0402173114639759 -0.00279904363874683 -0.2291065 0.8333402 -0.5030451 80 80 80
-0.00382048135404389 0.039649533390836 -0.00228690077460825 -0.2911621 0.9070683 -0.3040589 87 87 87
-0.00158779077196058 0.0367353102435202 -0.00498360086129523 -0.03380506 0.5367994 -0.8430324 78 78 78
-0.00305827566688155 0.035476031370719 -0.0055459397249672 -0.0427874 0.5514416 -0.8331155 94 94 94
-0.00556389282759451 0.0371946626863011 -0.00466078931480451 -0.204366 0.6806818 -0.7034962 103 103 103
-0.00781857546816545 0.0369124961618696 -0.00469337552840676 -0.1892188 0.7608491 -0.6207294 66 66 66
-0.00750572112730996 0.0352376271621648 -0.00575652526225401 -0.0752878 0.683077 -0.7264554 99 99 99
-0.00679371208089474 0.0340667885220607 -0.0064308081334099 -0.01310415 0.5608557 -0.8278098 80 80 80
-0.000897510048054162 0.0334405300741372 -0.00695018940158509 -0.0224574 0.5493305 -0.8353034 87 87 87
0.000119699072443247 0.032832994248692 -0.00782857066926435 -0.02403278 0.5505564 -0.834452 64 64 64
0.00151975671888938 0.0315682427806387 -0.00800650540816583 -0.02040515 0.5512359 -0.8340999 68 68 68
0.000457987317546316 0.030729152862575 -0.00871097487319283 -0.0182042 0.5610241 -0.8275993 78 78 78
-0.00296076303343096 0.0314864856753025 -0.0083130341379527 -0.02888656 0.5619967 -0.8266349 93 93 93
-0.00255489000520726 0.0301324470743869 -0.00914098472968883 -0.02149297 0.5625528 -0.8264819 97 97 97
-0.00726575046062372 0.036496644148786 -0.000620769313632863 -0.350479 0.9171898 0.1895449 49 49 49
-0.00909033353834277 0.0344414439246898 -0.00614522829799991 -0.04685465 0.6588396 -0.7508228 95 95 95
-0.0114940299173965 0.0361162957215952 -0.00221011269902993 -0.2682341 0.9437776 0.1932207 44 44 44
0.00180666145091468 0.0272742499990306 -0.0110247862509569 -0.01495118 0.5525767 -0.8333279 102 102 102
0.000344907623997859 0.0271101239731102 -0.0114997566478738 -0.008990475 0.554084 -0.8324122 101 101 101
-0.00428268146436395 0.0298306048591936 -0.0094577478430713 -0.0356031 0.5627255 -0.8258768 77 77 77
-0.000174177639849393 0.0250052731802082 -0.012603410999648 -0.001329831 0.5407941 -0.8411539 87 87 87
0.00133899796239234 0.0220428183642205 -0.0146094564715216 -0.02246239 0.550736 -0.8343772 82 82 82
0.00218374999044446 0.0225768326051434 -0.0143868137219868 -0.02244191 0.549426 -0.8352409 51 51 51
-0.00171898872234566 0.0245709073086222 -0.0128536584947866 -0.007557026 0.5401225 -0.8415524 87 87 87
-0.00242848932440287 0.0231130924730907 -0.0139126436895619 -0.008582812 0.5362441 -0.8440193 77 77 77
-0.00725841242544112 0.0288240259129999 -0.00989472753752041 -0.03012939 0.5638353 -0.8253375 94 94 94
-0.00334448970991241 0.0217816397256316 -0.0147417631548952 -0.01207634 0.542713 -0.8398314 66 66 66
-0.00337591447326924 0.0208538997312306 -0.0153634847079078 -0.003685092 0.5442719 -0.8389007 58 58 58
-0.014614035550824 0.0355173580588743 -0.00528758846130861 -0.2272891 0.9037838 -0.3626494 80 80 80
-0.01344580757348 0.0319738212253919 -0.00756425852137776 -0.0356345 0.5740025 -0.8180778 93 93 93
-0.00924170326647022 0.0314751622250879 -0.00817582216126567 -0.009513505 0.5571331 -0.8303687 101 101 101
-0.00824306292598376 0.0297172767315461 -0.00942222281363925 -0.01871086 0.5668179 -0.8236306 95 95 95
-0.0100832429371098 0.0323101905974981 -0.00746264728556356 0.0001885055 0.5433792 -0.8394873 82 82 82
-0.00978574409074406 0.029397960526278 -0.00943120108436057 -0.02425811 0.556465 -0.8305169 114 114 114
-0.00562327072387347 0.0252712896361416 -0.0128168692353364 -0.01853854 0.5529063 -0.8330372 73 73 73
-0.0108777663228476 0.0269591323196254 -0.0112365434545924 -0.02492907 0.5592721 -0.8286092 152 152 152
-0.00764286331869979 0.0258542549078631 -0.0121802948574534 -0.03051691 0.5538167 -0.8320792 95 95 95
-0.00634041271334018 0.0232789641561806 -0.0136014436198002 -0.02151886 0.5539653 -0.8322616 180 180 180
-0.00919259598670497 0.0224060641542412 -0.0143336333983787 -0.00258182 0.5589327 -0.829209 227 227 227
-0.00856569386592376 0.0222296328516347 -0.014255926700815 -0.01560096 0.5516003 -0.8339627 217 217 217
-0.00560070686684444 0.0211019485961408 -0.0150890218945913 -0.004396913 0.5465249 -0.8374313 221 221 221
0.0166305651730774 0.0252645189659508 -0.0132897928408775 -0.005099377 0.5543106 -0.8322942 222 222 222
0.0161281953970498 0.0230886529633794 -0.0142641841414073 -0.005670923 0.5542554 -0.8323274 206 206 206
0.014198232928214 0.022579849714623 -0.0145984785838594 -0.006611746 0.5545513 -0.8321233 218 218 218
0.0184851922050249 0.0208654427418897 -0.0161944856717171 -0.01300438 0.563531 -0.8259925 87 87 87
0.0172547780692645 0.0200117493541287 -0.016420895891453 -0.01597734 0.5674908 -0.8232247 83 83 83
0.0139197670949045 0.020051697981478 -0.0162967102070807 -0.007843178 0.5474935 -0.8367732 92 92 92
0.0182880744294058 0.0182703237180444 -0.0176271189793531 -0.01991164 0.5568257 -0.8303906 95 95 95
0.0117895636922314 0.0217276462495453 -0.0152437915415488 -0.0296022 0.5444478 -0.8382722 189 189 189
0.0111003985567777 0.0233199746605384 -0.0138888030757774 -0.03364854 0.5569803 -0.8298438 225 225 225
0.0103408515142043 0.0231077376095696 -0.0145054933098596 -0.02863903 0.5514743 -0.8337002 208 208 208
0.00814530007271497 0.0223313693875704 -0.014627588568817 -0.03021927 0.5510596 -0.8339185 191 191 191
0.011178986568523 0.0195478256151715 -0.0166177623040318 -0.0347336 0.5462073 -0.8369296 207 207 207
0.00713266640840171 0.0215613030107165 -0.014929508307705 -0.02832936 0.5503766 -0.8344358 166 166 166
0.0142741637269364 0.0152590137756212 -0.0191522814304567 -0.02303466 0.5553809 -0.831277 100 100 100
0.0126525359833134 0.0181221917610539 -0.017718821906183 -0.02170047 0.5438511 -0.8389011 200 200 200
0.012608189711738 0.0165860741617931 -0.0185636696740112 -0.0244113 0.5560935 -0.8307611 203 203 203
0.0132636913873863 0.0151871647160902 -0.0196092531993943 -0.02636713 0.5537179 -0.8322868 211 211 211
0.00655008362277787 0.0197799931549449 -0.0161321724754003 -0.0273408 0.550806 -0.8341854 66 66 66
0.0195259901897251 0.0151903421449211 -0.0196883719302897 -0.02512838 0.5517523 -0.8336294 81 81 81
0.0189932503944612 0.0118508262440749 -0.0218385350883636 -0.02047376 0.5445452 -0.8384815 82 82 82
0.0182587786015023 0.0111187674016255 -0.0223909908760308 -0.02047376 0.5445452 -0.8384815 67 67 67
0.0213176916252431 0.0105585107996895 -0.0229182426943298 -0.02591551 0.5499224 -0.8348136 69 69 69
0.0224700575103038 0.00742104742565775 -0.0248442617318938 -0.02466488 0.5575368 -0.8297858 70 70 70
0.01965168475905 0.00936639952582952 -0.0231843969612413 -0.02926416 0.5494818 -0.834993 73 73 73
0.0204579261598372 0.00870349141994287 -0.0241114879945732 -0.0378857 0.5577524 -0.8291423 62 62 62
0.0204425184186663 0.00667229961001081 -0.0254432679605732 -0.03153009 0.5548912 -0.8313252 65 65 65
0.0212335563743768 0.00688122800295732 -0.0252280258134105 -0.02978809 0.5572757 -0.829793 58 58 58
0.0158729017493373 0.0135187822052103 -0.0207207282243772 -0.01783624 0.555631 -0.8312376 41 41 41
0.0153160306854434 0.0125653682691693 -0.0213937408671763 -0.01322613 0.5474751 -0.8367174 120 120 120
0.012355147763075 0.0134530523211045 -0.020394406386837 -0.02622242 0.5523812 -0.8331791 185 185 185
0.0147656071687434 0.0115698333262833 -0.0219135436425798 -0.01784609 0.5484275 -0.8360076 156 156 156
0.0134723447069169 0.01217137169166 -0.0218887886609539 -0.0218575 0.5484312 -0.83591 198 198 198
0.011642572965433 0.0109007727411656 -0.0222548898482087 -0.01824941 0.5462871 -0.8373991 163 163 163
0.0144039519386792 0.0101346636463195 -0.0228128727104536 -0.01646895 0.545055 -0.8382385 204 204 204
0.0168181009429627 0.00909768099208308 -0.0235541634375735 -0.01663744 0.5478705 -0.8363977 59 59 59
0.0151158715145714 0.00829830810835741 -0.0238674457386202 -0.02285107 0.5431501 -0.8393246 65 65 65
0.0148389142661527 0.00716137044665976 -0.0248767526247829 -0.02837107 0.561341 -0.8270981 65 65 65
0.0128610673685396 0.00799612317962883 -0.024071715108267 -0.01851482 0.545553 -0.8378718 95 95 95
0.0135074288291657 0.00673693742721682 -0.0251155318684158 -0.02838879 0.5621219 -0.826567 69 69 69
0.0102230338881628 0.0135680394715958 -0.0207272090601737 -0.01782228 0.5563307 -0.8307698 99 99 99
0.0120754061457382 0.00754005128566004 -0.0247150818213908 -0.01479449 0.5509031 -0.8344381 75 75 75
0.00418135953596854 0.0207722462060214 -0.0155030830475257 -0.03284349 0.5535562 -0.832164 115 115 115
0.00153711461902439 0.0202510013509734 -0.0156949294832215 -0.02478 0.5567955 -0.8302799 92 92 92
0.00104767603707234 0.0185419408120568 -0.0166739875791505 -0.02477031 0.5621491 -0.8266649 60 60 60
3.3746199152862E-05 0.0184018685292826 -0.0170097211712753 -0.0290334 0.5579644 -0.8293568 100 100 100
0.00785976273323374 0.0168729722310581 -0.0180613471509704 -0.01152254 0.5622517 -0.8268859 56 56 56
0.00757005950745793 0.0159500102091716 -0.0190236278007921 -0.01213044 0.5493929 -0.835476 71 71 71
0.00469866987061263 0.016567450847879 -0.0185368905492472 -0.0180781 0.5581667 -0.8295319 97 97 97
0.00390874553806508 0.0136610973190687 -0.0204498795478291 -0.01210037 0.5462046 -0.8375644 55 55 55
0.00178262212107638 0.0134071293866576 -0.0203869689852603 -0.02199231 0.5449635 -0.8381712 73 73 73
0.00391605008399587 0.0119894245175425 -0.0213049706021631 -0.006545719 0.5444727 -0.838753 68 68 68
-0.0022741900026646 0.0168111747010209 -0.0180162384795737 -0.01581936 0.5719166 -0.8201593 107 107 107
6.93979024313229E-05 0.0132028541458837 -0.0207455987472681 -0.01307669 0.5418349 -0.8403832 72 72 72
0.000572111978054846 0.010833668627392 -0.0220940513244023 -0.01096478 0.5485474 -0.8360475 71 71 71
0.00858588529665605 0.0106622570624979 -0.0224200099987403 -0.03042843 0.5551 -0.8312269 57 57 57
0.00695469414647842 0.0110520490368651 -0.0222033755269263 -0.0231172 0.5504811 -0.8345276 60 60 60
0.00643989843495163 0.0109576671198144 -0.0220952092716894 -0.02451975 0.5516793 -0.8336958 65 65 65
0.0102505037360445 0.00940971359653697 -0.0229696068582155 -0.01597536 0.5497807 -0.8351563 36 36 36
0.00810838703196959 0.00920341458516494 -0.0236496864497648 -0.02057155 0.5570053 -0.8302541 59 59 59
0.00410722744504977 0.01013404312573 -0.022260989431086 -0.02195051 0.543992 -0.8388032 46 46 46
0.00454580432005836 0.00916777542617586 -0.0233098260881798 -0.02705811 0.5522133 -0.8332637 45 45 45
0.00665686396395815 0.00811680730361997 -0.0240203105857691 -0.02598825 0.560787 -0.8275521 58 58 58
0.00405669994814151 0.00911815547433714 -0.0235402149152921 -0.02547248 0.5561907 -0.8306642 46 46 46
0.00429202018125352 0.00754174406134545 -0.0242659470850817 -0.02857452 0.5523442 -0.8331263 57 57 57
0.00984835433035514 0.00679584843871761 -0.0249623574331624 -0.009907854 0.5517863 -0.8339267 43 43 43
-0.0765189845854088 -0.0270181224231574 -0.0226394138504317 -0.8321356 0.3707485 0.4124267 57 57 57
0.00791739188331064 0.00643338201215959 -0.0251725846163641 -0.01656321 0.5473021 -0.8367712 46 46 46
0.0110519936085396 0.00515028741775558 -0.0260472982992298 -0.01440212 0.5619503 -0.8270456 67 67 67
0.0113425611519804 0.00409166904532143 -0.0268087179895899 -0.02085955 0.5582838 -0.8293878 86 86 86
0.0076862723355462 0.00480064400508673 -0.0262821037647101 -0.03087574 0.544453 -0.8382229 60 60 60
0.00598199808075295 0.00685609897931316 -0.0249257406537075 -0.02424604 0.5525007 -0.8331597 61 61 61
0.00499121482182918 0.00574160502615251 -0.0257796080816269 -0.03196767 0.5500844 -0.834497 73 73 73
0.00292761669673602 0.0103544186924274 -0.0224603515660745 -0.01129864 0.5466824 -0.8372638 36 36 36
0.00291232467854607 0.0080716178178224 -0.0239866327327226 -0.02595682 0.5539446 -0.8321487 55 55 55
0.00284389275528962 0.00673908398577194 -0.024804728179073 -0.02090742 0.5550872 -0.8315293 47 47 47
0.00519581641793287 0.00421321946450215 -0.0266249738062534 -0.03280549 0.5525591 -0.8328279 93 93 93
-0.00387760384575264 0.0190060103393153 -0.0165028198814956 -0.0002550455 0.5572748 -0.8303281 205 205 205
-0.00324978735508408 0.0171966242055945 -0.0179464074523311 -0.006319489 0.5674726 -0.823368 218 218 218
-0.00691077479310076 0.0178826336685349 -0.0170604120547285 -0.01512573 0.5523729 -0.8334599 218 218 218
-0.007722414247751 0.017784320547928 -0.0174045205837837 -0.01564546 0.5549202 -0.8317565 217 217 217
-0.00324216403459499 0.0153332681754832 -0.0189327798008132 -0.01053925 0.5625669 -0.8266846 166 166 166
-0.00625213932895363 0.0154958951221746 -0.0188324384547482 -0.02229192 0.552159 -0.8334408 213 213 213
-0.00188645309541835 0.0107379253368236 -0.0220567112517054 -0.01519451 0.5500383 -0.8350012 58 58 58
-0.00315034490845667 0.0135813411345675 -0.0202631844154271 -0.02558427 0.5467855 -0.8368818 191 191 191
0.000652782637176053 0.0082261601842577 -0.0237238095992054 -0.007101129 0.5504338 -0.8348486 103 103 103
-0.000815478772979272 0.0087849554671382 -0.0234204105448894 -0.01387708 0.5458207 -0.8377871 72 72 72
-0.00398430352106605 0.00828830993871033 -0.023801312955801 -0.02665349 0.558429 -0.829124 77 77 77
-0.000205597300725557 0.00557310816762424 -0.0256326887777782 -0.006225742 0.5473095 -0.8369071 79 79 79
-0.00271410214352974 0.00569577797129539 -0.0254557484891432 -0.01547057 0.5550498 -0.8316732 88 88 88
-0.000665704993033422 0.00409027433380982 -0.0263768076680027 -0.005934448 0.547793 -0.8365929 100 100 100
-0.00182479239819688 0.00366914127140472 -0.0267578962699424 -0.006106807 0.5448831 -0.8384898 83 83 83
0.00188997067262964 0.000990865809431529 -0.0287114423786055 -0.02402514 0.5787756 -0.8151329 110 110 110
-3.64557532228638E-05 0.00230821571631945 -0.0272414818037524 -0.01043214 0.5559028 -0.8311818 85 85 85
0.000469593608342311 0.000975266720270263 -0.0287375231005603 -0.0241082 0.5815971 -0.8131196 111 111 111
-0.00786305189564596 0.0296881222161085 0.00553591130525899 -0.3683555 0.6343054 0.6796845 28 28 28
-0.012597270067833 0.0286048500941758 0.00463696415951331 -0.2963986 0.6648106 0.6856929 34 34 34
-0.0103331479099964 0.0331702591362164 0.00174073486041459 -0.3343763 0.6897085 0.6422575 21 21 21
-0.00985058679853834 0.0325527166027291 0.00227137401058042 -0.3367242 0.6425554 0.6882873 16 16 16
-0.0117650700642686 0.0313112249665564 0.0022839716095987 -0.3214969 0.6643943 0.6746999 31 31 31
-0.0147228742791348 0.0266351936243781 0.00564740362003013 -0.2811224 0.7069401 0.6490037 24 24 24
-0.0121229130663143 0.0334300887764989 -0.000106049384353435 -0.3706951 0.7925405 0.4842155 39 39 39
-0.0139292949999152 0.0352659547157355 -0.0028459829491958 -0.4148754 0.8986486 0.1425099 29 29 29
-0.0155195461906614 0.0318797567622482 0.000265029854311094 -0.3677138 0.7116108 0.5986624 30 30 30
-0.0170776843547862 0.0323640367324711 -0.00177236456171659 -0.4261453 0.8458893 0.3207359 21 21 21
-0.017681560118584 0.0311731911944475 -0.000688644665166493 -0.374591 0.79086 0.483965 37 37 37
-0.0184607499929039 0.0266365264701947 0.00418253642161726 -0.3377292 0.6823906 0.6482916 32 32 32
-0.0196590994516388 0.0283885593520492 0.0020899697520953 -0.373376 0.6913983 0.6185133 18 18 18
-0.0167050754121587 0.0305942898684526 0.000537873752062934 -0.3608463 0.6890545 0.6284854 48 48 48
-0.0181454860779446 0.0228114441794607 0.00870231383075493 -0.3668449 0.6461548 0.6692598 27 27 27
-0.0201463716624835 0.0218815472560987 0.00785104393723757 -0.4082596 0.6196579 0.6703344 28 28 28
-0.0216389440599025 0.0205424558608491 0.00814231154403744 -0.4463421 0.5474073 0.7079012 40 40 40
-0.0222341073117289 0.0177196974368083 0.00982344379835454 -0.4762255 0.5499493 0.6861233 22 22 22
-0.0249307615144683 0.0187067611837748 0.00766591599656163 -0.473645 0.5205235 0.7104335 57 57 57
-0.0231592858781609 0.0160932200231785 0.0101913085655591 -0.4927971 0.5068705 0.7072717 46 46 46
-0.0207271283282604 0.0248930115567585 0.00468173177180142 -0.3800774 0.6659653 0.6418967 13 13 13
-0.0210436860033689 0.0256614548407634 0.00299324343920959 -0.3898077 0.6768167 0.6244751 27 27 27
-0.0259222806604829 0.0199565287927983 0.00587557057703803 -0.4882578 0.5448582 0.681714 40 40 40
-0.0165216450454073 0.0341171428069775 -0.00583261635375609 -0.2977427 0.8368613 -0.4593609 74 74 74
-0.0205967442220145 0.0329278650887386 -0.00601219617846038 -0.2618165 0.9644327 0.03635433 101 101 101
-0.0173136452583793 0.0324634886635351 -0.00742074720670749 -0.09688027 0.7860515 -0.6105221 74 74 74
-0.019313289922799 0.0311563400395927 -0.00792443063610582 -0.1092738 0.8143572 -0.5699839 55 55 55
-0.0166472201916665 0.0276683940884588 -0.0105030399460144 -0.02431362 0.5567992 -0.8302912 212 212 212
-0.0160279588715335 0.0261423282326567 -0.0114175483336406 -0.02655127 0.5632715 -0.8258452 203 203 203
-0.0207014569610844 0.0307025960446656 -0.00198132371847026 -0.3735623 0.8484561 0.3749313 35 35 35
-0.0223893000405444 0.0306145233280957 -0.00264139123165774 -0.3597264 0.8616518 0.3579846 36 36 36
-0.0232959612768404 0.0312458572373386 -0.00414725233245716 -0.3074565 0.9329714 0.1871758 9 9 9
-0.0214112387492453 0.0315628940737669 -0.00776424702892797 -0.1018265 0.9320688 -0.3476767 99 99 99
-0.0235360563360834 0.0314895831981779 -0.00776850633391468 -0.2024305 0.9231738 -0.3267598 86 86 86
-0.0238038827173082 0.0300433818020469 -0.00871385445546147 -0.08674148 0.7360717 -0.6713228 123 123 123
-0.0260313410551078 0.0309880924686308 -0.00796909780299004 -0.3367332 0.9024565 -0.2686691 132 132 132
-0.0259230026632724 0.0299285458822343 -0.00891164367575592 -0.1654698 0.8050237 -0.5696986 91 91 91
-0.0213702818020538 0.0274101175573518 -0.0103806563197864 -0.005147195 0.5425913 -0.8399811 86 86 86
-0.0204888043476124 0.0251764415628153 -0.0119976912689497 -0.0232861 0.5566403 -0.8304272 65 65 65
-0.0260546573819194 0.0269349812949218 -0.0109180483850361 -0.02063367 0.5403679 -0.8411759 70 70 70
-0.0245697516772028 0.0242886917891327 -0.012695345013909 -0.01499799 0.5613296 -0.8274564 72 72 72
-0.012303656434983 0.0243291892074957 -0.0128063474941582 -0.009011161 0.5732647 -0.8193207 220 220 220
-0.0123348569113149 0.023512483826591 -0.01322660056921 -0.0106324 0.5675727 -0.8232546 219 219 219
-0.0102758703640755 0.0197911290493731 -0.0160867217273231 -0.0001578921 0.5481237 -0.8363973 202 202 202
-0.0131694212170288 0.0191898384173108 -0.0162136337203096 -0.01458457 0.5469964 -0.8370079 177 177 177
-0.0124204841909501 0.0180162074021377 -0.0169435473173468 -0.01739443 0.5442134 -0.8387665 219 219 219
-0.0160155177121233 0.018991208362831 -0.0163935547103079 -0.03002761 0.5410306 -0.8404666 100 100 100
-0.0144313708823169 0.018158385301196 -0.0166694051018478 -0.02556829 0.5418416 -0.8400916 218 218 218
-0.0183441669823723 0.0252022240549816 -0.0120253278109218 -0.03616762 0.5611569 -0.8269189 102 102 102
-0.0193030873901607 0.022815568634136 -0.0136616222492766 -0.03858267 0.5655735 -0.8237949 82 82 82
-0.0175438599543685 0.0233373252481288 -0.0136385110204748 -0.03492823 0.5650088 -0.8243453 80 80 80
-0.0221947797462381 0.0219331944927317 -0.0141797534170116 -0.01919144 0.5463521 -0.8373356 93 93 93
-0.0216089462911313 0.0209188090981232 -0.0148924853938142 -0.02168094 0.5455276 -0.8378124 84 84 84
-0.0233368182163476 0.0199512722016515 -0.0155320908973341 -0.01462862 0.5449245 -0.8383575 80 80 80
-0.0181477908126335 0.0142038557115793 -0.0192720746989873 -0.02010562 0.5496762 -0.8351358 190 190 190
-0.0179451259973793 0.0201695784890294 -0.015437772512963 -0.03875406 0.5544314 -0.8313266 87 87 87
-0.0200285341884228 0.0194342122946807 -0.0158390678823268 -0.04563066 0.5434661 -0.83819 51 51 51
-0.0203570140877276 0.0173135453230813 -0.0172120753684428 -0.02567196 0.5498917 -0.8348414 67 67 67
-0.0215424698619038 0.0162721906811196 -0.0178500960173099 -0.02004229 0.5613297 -0.8273495 71 71 71
-0.0251426722914303 0.0289800705099359 -0.00338500092790073 -0.4211072 0.798041 0.4310443 32 32 32
-0.030843539041796 0.0236814955038107 -0.00218171993098515 -0.4779822 0.5996271 0.6418569 45 45 45
-0.0328872239849218 0.0226950685425158 -0.00198237539055646 -0.5037377 0.55122 0.6651352 41 41 41
-0.0281320554509548 0.0286655370263786 -0.0043014454938981 -0.4053599 0.7764874 0.4824424 44 44 44
-0.0272364092782196 0.0311224351409429 -0.00615651522540261 -0.3041722 0.9408959 0.1489775 75 75 75
-0.0289715728353808 0.0276075613866791 -0.00415255935515857 -0.3945602 0.7549562 0.5237971 37 37 37
-0.027184761591375 0.028083832686989 -0.00999631440284865 -0.08363711 0.6586507 -0.7477861 99 99 99
-0.0292865228645121 0.02901991837294 -0.00947704891984469 -0.1679313 0.8376143 -0.5198089 73 73 73
-0.0329315945349 0.0275648804869155 -0.00681247627352011 -0.5346354 0.8168217 0.2167196 64 64 64
-0.0319676334080254 0.0287184082264462 -0.00715593372258438 -0.5233081 0.8347116 0.1714796 76 76 76
-0.025534201850248 0.0228518647199472 -0.0133284103675886 -0.02070253 0.5500556 -0.8348714 85 85 85
-0.0311060277429056 0.0264514448138098 -0.00444735652817629 -0.4434426 0.7349845 0.5129878 66 66 66
-0.0325112643970291 0.0234313180162991 -0.00306235110909614 -0.4888606 0.588196 0.6442366 48 48 48
-0.0271682519586545 0.0231626891792471 -0.013410203403924 -0.01589639 0.5524598 -0.8333879 79 79 79
-0.00985699256040906 0.0169890708412239 -0.0175181092996738 -0.01324216 0.548842 -0.8358212 159 159 159
-0.00885746275210231 0.0160550224225282 -0.0187839087016163 -0.01811806 0.5491524 -0.8355258 167 167 167
-0.0102753420240353 0.0162137549430514 -0.0182625891193869 -0.01497042 0.5415832 -0.8405138 143 143 143
-0.01150683358152 0.0145821723619628 -0.0193757113715732 -0.02318963 0.5492775 -0.8353182 174 174 174
-0.00774922255409294 0.012483804572361 -0.0207400432939349 -0.01701178 0.540322 -0.8412864 209 209 209
-0.0089221160605133 0.0129530472466575 -0.0203278555840549 -0.03344639 0.5472944 -0.8362716 218 218 218
-0.00879802581961764 0.0126100876571869 -0.0206025690179618 -0.0313497 0.5458757 -0.8372795 174 174 174
-0.0105924935111452 0.0113716723756765 -0.0216854684389307 -0.01530537 0.54747 -0.8366854 209 209 209
-0.00978987020701982 0.0103973219595601 -0.0222366175004011 -0.02193015 0.5537986 -0.8323618 211 211 211
-0.00851580963516474 0.00871579288012425 -0.0231233815392408 -0.02172049 0.5543186 -0.8320211 204 204 204
-0.011880331880576 0.0123435664804417 -0.0208281808459696 -0.01848492 0.546947 -0.8369631 198 198 198
-0.0139286071728124 0.0137208205935235 -0.0198687838547704 -0.02327001 0.556667 -0.8304097 219 219 219
-0.0155333803002415 0.0132162942180816 -0.020064675985547 -0.02337318 0.5540658 -0.8321447 214 214 214
-0.0171861578140713 0.011236970198774 -0.0213401246045807 -0.01732877 0.5551623 -0.8315615 197 197 197
-0.0189372047391316 0.0109547148053015 -0.0213354797486138 -0.01134271 0.5597836 -0.8285612 133 133 133
-0.0116809964606386 0.00921258103720546 -0.0228060007314115 -0.01148868 0.5610387 -0.8277099 209 209 209
-0.0158320159605103 0.0110552005048443 -0.0218840267278869 -0.01624623 0.5529872 -0.8330314 200 200 200
-0.0112701717276122 0.00781198770319858 -0.0240219650903319 -0.01375691 0.55345 -0.8327688 190 190 190
-0.0155557128934989 0.0106942644764243 -0.021691814059704 -0.01222381 0.5482402 -0.8362316 194 194 194
-0.0189649020560467 0.00719396927777738 -0.024054026769056 -0.01456967 0.5488485 -0.8357949 57 57 57
-0.00475475880836607 0.0062066220993402 -0.024918987379955 -0.02057257 0.5592312 -0.8287564 66 66 66
-0.00589474955764668 0.00585971982743172 -0.0254780297716745 -0.0182639 0.5519957 -0.8336469 49 49 49
-0.00713464952203546 0.00589043335008888 -0.0253025585258431 -0.02710518 0.5592955 -0.8285251 72 72 72
-0.00869969332541043 0.00487182990514579 -0.0256207427401467 -0.02441353 0.5661656 -0.82393 63 63 63
-0.00336120390535388 0.00239489753194255 -0.0274540636057109 -0.01286124 0.5525846 -0.8333576 78 78 78
-0.00202412583927458 0.000202221369609568 -0.0290717765945308 -0.01981546 0.5595711 -0.8285454 93 93 93
-0.00504858202924519 0.000732151217216703 -0.0287440515055902 -0.01325134 0.552774 -0.8332259 90 90 90
-0.0107305018394861 0.00684592675207996 -0.0246484239397675 -0.01656949 0.5578328 -0.8297879 149 149 149
-0.012218253149586 0.00570505397615562 -0.02512468507094 -0.01577708 0.5704494 -0.8211812 63 63 63
-0.0129133783266968 0.00545008376851741 -0.025522399279856 -0.01745033 0.568714 -0.8223502 37 37 37
-0.0118444649634735 0.00408733950928952 -0.0262265483559121 -0.02134582 0.5546464 -0.8318123 78 78 78
-0.0104413943846033 0.00284880965114787 -0.0271842818287367 -0.01358319 0.5555289 -0.8313863 68 68 68
-0.014282672644109 0.00483472072660418 -0.0256582456503603 -0.03062118 0.5581552 -0.8291713 52 52 52
-0.0158936376802186 0.00585252373917422 -0.0249553828247329 -0.02245111 0.560912 -0.827571 43 43 43
-0.0176044419524546 0.00535745918932462 -0.0252817847156169 -0.01422685 0.561152 -0.8275905 46 46 46
-0.0169865032502003 0.00431342274000657 -0.0260597883561898 -0.02161585 0.557878 -0.8296414 68 68 68
-0.0104626350783512 -0.00117244024966956 -0.0300067124907432 -0.01235546 0.5733456 -0.8192205 104 104 104
-0.0130525093148748 0.000193958926940185 -0.0288645585972799 -0.01755005 0.5552948 -0.8314684 86 86 86
-0.01032860885369 -0.00246049359563871 -0.0308515235666396 -0.00603956 0.5349373 -0.8448702 95 95 95
-0.011962186836556 -0.00139597626200905 -0.0300669653820191 -0.02147445 0.5725353 -0.8195988 93 93 93
-0.0115887817609943 -0.00301488236847924 -0.0309527981505338 -0.01155869 0.5451557 -0.8382551 111 111 111
-0.0132888073534221 0.00112617678685734 -0.0281570676845894 -0.01696382 0.5550806 -0.8316236 91 91 91
-0.0140106063247423 -6.22323526084934E-05 -0.0287765037101178 -0.01539947 0.5625749 -0.8266029 78 78 78
-0.0148853153048458 -0.000427215819282178 -0.0292945350483673 -0.02255265 0.5605111 -0.8278398 89 89 89
-0.019667033403775 0.00986163023357456 -0.0222315648214431 -0.017819 0.5538058 -0.8324552 75 75 75
-0.0198374087800035 0.00909835499845735 -0.022925993089643 -0.02041958 0.5436096 -0.8390898 73 73 73
-0.018250477400009 0.00195636017785494 -0.0277775712856525 -0.02684469 0.5631129 -0.8259438 83 83 83
-0.0169685486540896 -0.000518029425816247 -0.0291604914352476 -0.03232865 0.5565252 -0.8302015 99 99 99
-0.0134902218536181 -0.00355176594219819 -0.0311051767395556 -0.01426367 0.5520615 -0.8336814 98 98 98
-0.0164066937232454 -0.00232508056916481 -0.0305478524115614 -0.02900361 0.5676291 -0.8227733 112 112 112
-0.0278418271397562 0.0123577672560253 0.00959627191368639 -0.531217 0.4238679 0.7335833 51 51 51
-0.0285936895412848 0.00852956118776382 0.0107224182254905 -0.5691684 0.4272068 0.7025253 41 41 41
-0.0296159309188471 0.00684377676447956 0.0107873614311825 -0.5720919 0.4407526 0.6916993 28 28 28
-0.0308242120525484 0.00624454811150876 0.0104110464905269 -0.487036 0.4638389 0.7400333 27 27 27
-0.0307701802923757 0.011929372582953 0.00796662618967914 -0.5169353 0.4222896 0.7446135 57 57 57
-0.0286430390856869 0.0159234526692158 0.00691655776551636 -0.5050412 0.4867016 0.7127798 60 60 60
-0.0299968297786011 0.0145137002161189 0.00679516429407112 -0.5341411 0.4590182 0.7099264 46 46 46
-0.0318583919730315 0.0173751362462122 0.00326835309497997 -0.5634842 0.5160705 0.6451021 33 33 33
-0.0342220445476147 0.0112485989667248 0.00584076982774051 -0.529909 0.5477855 0.6474006 56 56 56
-0.0328322348594092 0.0134249436614098 0.00510025742866682 -0.553081 0.4851942 0.6772651 54 54 54
-0.0330851008388739 0.0137399083616903 0.00516386024989079 -0.553081 0.4851942 0.6772651 40 40 40
-0.0350855383125834 0.0116805787644891 0.0039683677051684 -0.5639108 0.5511085 0.6150479 41 41 41
-0.0364619830960562 0.0102745263609776 0.0049066116403409 -0.5434851 0.5844214 0.6025575 35 35 35
-0.0380664761260254 0.00773460943800042 0.00730778093588513 -0.4724785 0.5611026 0.6796528 47 47 47
-0.0391554639466984 0.00387566229482195 0.00832751077926419 -0.5152495 0.4761018 0.7126324 32 32 32
-0.0388349031512911 0.00670117055930985 0.00655772320224712 -0.5503538 0.5719241 0.6082874 58 58 58
-0.0409950048649357 0.00619706949678833 0.00527449346741615 -0.6308074 0.552632 0.5446833 49 49 49
-0.0413309592111886 0.00435887406585955 0.00608018680114342 -0.6727117 0.4840582 0.559595 61 61 61
-0.041507192250215 0.00469786415948281 0.00581029307173808 -0.6715742 0.4878125 0.5576979 58 58 58
-0.0357837896433888 0.00303136825619665 0.0103036583587072 -0.4019129 0.4643799 0.7891877 40 40 40
-0.0427218556339386 -0.00148755432012848 0.00909926256659388 -0.5825168 0.3627195 0.7273986 35 35 35
-0.0433899316385524 0.000288678920942642 0.00737257917742451 -0.6480779 0.4282501 0.6297594 50 50 50
-0.0426878956509396 0.00160357216156415 0.00741688141917751 -0.6516716 0.4305821 0.6244382 57 57 57
-0.0445331212218201 -0.000529844248759126 0.00568019977618939 -0.6694649 0.4513382 0.590009 58 58 58
-0.0312251532346299 0.0198855058505543 0.0017602571219727 -0.5341256 0.5577911 0.6352786 33 33 33
-0.0344238851912824 0.0194534107303836 -0.000996277079245766 -0.5607228 0.5209138 0.6436139 43 43 43
-0.0334924973467969 0.0181983655157545 0.000505478677527371 -0.5663561 0.5252111 0.6351331 33 33 33
-0.0346202654397487 0.0152725712789346 0.00269958675093807 -0.5836955 0.5090168 0.6326148 31 31 31
-0.0329160845989187 0.0190136324501939 0.000166301476985597 -0.5556716 0.5318977 0.6389945 22 22 22
-0.0360316627457702 0.017359103578712 -0.001463525595227 -0.5827714 0.5050598 0.6366255 38 38 38
-0.0361808791371256 0.0132399962463492 0.00286033012780784 -0.586759 0.5346437 0.6081694 52 52 52
-0.0370340035029519 0.0108732098541324 0.00275109392538764 -0.5632574 0.5810699 0.5874512 34 34 34
-0.0387941462374908 0.0140138189684078 -0.000121657416069398 -0.6089925 0.5010208 0.6149035 39 39 39
-0.03874380084976 0.0201937115551536 -0.00496163477782885 -0.6141211 0.4966057 0.6133825 39 39 39
-0.0385073582118105 0.0195411023718619 -0.0041001652166659 -0.6115732 0.4798775 0.6290435 22 22 22
-0.0395283867342546 0.0192762085948102 -0.00541980489227589 -0.6226502 0.4830066 0.615639 39 39 39
-0.0386200211191072 0.0171513113026946 -0.00319621290666183 -0.6096279 0.4845082 0.62738 33 33 33
-0.0399228010577843 0.0149435694198603 -0.00244102647183309 -0.6142951 0.4827503 0.6241744 20 20 20
-0.041637978890638 0.0121194522214692 -0.00270686050507474 -0.6480561 0.4739631 0.5961394 41 41 41
-0.0416571792312821 0.0156698051032707 -0.00486260349617451 -0.6558558 0.4748443 0.5868356 37 37 37
-0.0417668693906261 0.0148099590792372 -0.00382111455230649 -0.631482 0.482734 0.6067935 31 31 31
-0.0417453661495455 0.00835594462351352 0.00205379700532149 -0.6416761 0.5685167 0.5148209 43 43 43
-0.0416657014720001 0.00610770671368255 0.00417012074010625 -0.6813593 0.5202078 0.5149111 49 49 49
-0.0423162708070999 0.0106565585056719 -0.00181051869476434 -0.6658232 0.4834944 0.5682541 44 44 44
-0.04488517521124 0.00863786076958317 -0.00314700477373675 -0.6907967 0.4724644 0.5473365 67 67 67
-0.0460343519318798 0.00310409311711157 0.000750579388311801 -0.7164292 0.4871173 0.4994456 36 36 36
-0.0456252316339056 0.00892477792889079 -0.00478379989888744 -0.6799946 0.4646121 0.5672238 46 46 46
-0.048071871701425 0.00154357405106009 -0.000952949926564362 -0.7467453 0.4864376 0.4535966 59 59 59
-0.0493346196244659 0.00111859672785064 -0.00275988402241989 -0.7679501 0.4374607 0.4678469 50 50 50
-0.0466963056749203 0.00617191443293286 -0.00410749404488653 -0.6990643 0.4474262 0.5577804 33 33 33
-0.0476936994008121 0.00559335285573015 -0.00326091656999039 -0.7180503 0.4368118 0.541848 34 34 34
-0.0476259789893407 0.00614999525933801 -0.00370363822256969 -0.7018757 0.4445187 0.556573 44 44 44
-0.0491777271878315 0.00432723205112295 -0.00462733799628878 -0.6978689 0.4151928 0.5836043 55 55 55
-0.0491405899423558 0.00326295127262144 -0.00526177934941119 -0.7077143 0.3920622 0.5877309 19 19 19
-0.0296947202892466 0.0269447489648569 -0.0104782524612435 -0.1026276 0.6350017 -0.7656634 89 89 89
-0.0324082401938468 0.0259451521425584 -0.0109783369874575 -0.1586267 0.6689804 -0.7261562 119 119 119
-0.03099761132292 0.0249099260890189 -0.0120316820662267 -0.04870051 0.5580429 -0.8283818 59 59 59
-0.0322570785948009 0.0244389219367276 -0.0120050960096842 -0.09028061 0.5986333 -0.7959193 64 64 64
-0.0361831784076023 0.0252281544459563 -0.00776849860965534 -0.5438352 0.8245426 0.1561181 22 22 22
-0.0325347165901939 0.0223115652307724 -0.0137537431905844 -0.02750973 0.5418658 -0.8400146 72 72 72
-0.034194416654854 0.0234988102972238 -0.0125857024443911 -0.05845263 0.6498493 -0.7578121 102 102 102
-0.034533462852834 0.0219998289490568 -0.0138204304901274 0.00174777 0.5453336 -0.8382173 65 65 65
-0.0385314349427932 0.0236146570511979 -0.0127810622401165 -0.2958527 0.7730446 -0.5611356 86 86 86
-0.0397827163156643 0.0243356075366912 -0.0120448209811769 -0.2670363 0.8397815 -0.4727142 96 96 96
-0.0391344818983854 0.0232705861785594 -0.0132475887247825 -0.2125636 0.791366 -0.5731986 53 53 53
-0.0371231504993776 0.0202852199487751 -0.0149686204373294 -0.02117473 0.5576904 -0.829779 123 123 123
-0.0272612570780488 0.0221315841684704 -0.0144341304072884 -0.02024938 0.5424966 -0.8398139 107 107 107
-0.0255309037508593 0.0189489485819654 -0.0160358058127504 -0.01822099 0.5513698 -0.834062 62 62 62
-0.0294084137657538 0.0200029586763137 -0.0152938040698737 -0.02422339 0.5366598 -0.843451 82 82 82
-0.0308478099195262 0.0211337954329032 -0.0143578054694624 -0.03374393 0.5485892 -0.8354108 94 94 94
-0.0275467321359426 0.0188170635824167 -0.0159496394240581 -0.02878884 0.5459279 -0.8373374 49 49 49
-0.027321034376504 0.0199389498438072 -0.0154318391183038 -0.02616623 0.5491119 -0.8353391 84 84 84
-0.0260241731719892 0.0179977366955708 -0.0166941277732855 -0.02249582 0.5465786 -0.8371056 74 74 74
-0.0241668978369272 0.0141970112351193 -0.0192952016392978 -0.02063096 0.5645828 -0.8251185 89 89 89
-0.0262701618042054 0.0153518236361263 -0.0185562783474306 -0.01648973 0.5665269 -0.8238782 95 95 95
-0.0281708254316393 0.0146657417930223 -0.0187806223200543 -0.02270404 0.5705009 -0.8209832 85 85 85
-0.0261995300806035 0.013852245862616 -0.0192544777767423 -0.01237181 0.573136 -0.8193669 65 65 65
-0.027578619912457 0.0138167028154093 -0.0192395600298311 -0.02358803 0.5652683 -0.8245698 77 77 77
-0.0311875408469513 0.0193200703774759 -0.0157063105230523 -0.02260314 0.5487392 -0.835688 74 74 74
-0.0333084000782753 0.0209399914609674 -0.0141754697109856 -0.01875637 0.5562903 -0.8307763 125 125 125
-0.0350639734319329 0.0166088611269526 -0.0174424524324095 -0.02218451 0.5553852 -0.8312973 110 110 110
-0.0293431047636039 0.0160837421845614 -0.0178476727416521 -0.01362801 0.5678039 -0.8230511 89 89 89
-0.0312790668475018 0.0145728462572003 -0.0188496614976709 -0.02933338 0.555795 -0.8308017 81 81 81
-0.0319635622148269 0.0150193552958611 -0.0185817208061815 -0.02414427 0.5546614 -0.8317258 95 95 95
-0.0350417100807943 0.0145252506813462 -0.0188970661241724 -0.02601111 0.5515256 -0.8337523 96 96 96
-0.022232441206353 0.0111076514179109 -0.0213694463677803 -0.01298647 0.5552796 -0.8315623 63 63 63
-0.0239007806363953 0.0116460250101482 -0.0212248463963699 -0.0207439 0.5593472 -0.8286739 66 66 66
-0.0243909095304122 0.00880003404126306 -0.0228398215584951 -0.01333026 0.5495571 -0.8353498 85 85 85
-0.0235239198697945 0.00620500392498191 -0.0244881257591764 -0.0186516 0.5505496 -0.8345941 70 70 70
-0.0265833294345166 0.00880228357840629 -0.0227973859781653 -0.02598003 0.5557467 -0.8309456 88 88 88
-0.028455455869949 0.00814321514946226 -0.0232097587583833 -0.03296168 0.5445279 -0.8380948 106 106 106
-0.0309854863540364 0.0070288905529643 -0.0238131045194501 -0.02330549 0.5510836 -0.8341245 114 114 114
-0.0273427219001996 0.00614584669406937 -0.0247906674269568 -0.02490406 0.5491688 -0.8353403 71 71 71
-0.0245646204669918 0.00345675020164649 -0.0264208721130126 -0.00370831 0.5520263 -0.8338185 90 90 90
-0.0302543375233721 0.00534848632719442 -0.025145854289045 -0.02857385 0.5510283 -0.8339972 71 71 71
-0.0298764492772432 0.004027003911935 -0.025610511920075 -0.02633385 0.5589551 -0.8287796 45 45 45
-0.0194945052572812 0.00305779198667633 -0.0265682018645367 -0.02567178 0.5530705 -0.8327388 50 50 50
-0.0179034677247198 0.00057852469153441 -0.028442183591737 -0.02996838 0.5561904 -0.8305144 85 85 85
-0.0196591983518011 0.00172254962991492 -0.0275716427430694 -0.03194179 0.5590784 -0.8284993 68 68 68
-0.0220171884807296 0.0026883351586473 -0.0271338274873344 -0.01897372 0.5562372 -0.8308069 93 93 93
-0.0214093092031797 0.00136627144515122 -0.0277840641495747 -0.01207334 0.5607775 -0.8278785 77 77 77
-0.0212914338292149 0.000128310173734603 -0.0285841051034111 -0.01651744 0.5610067 -0.8276465 62 62 62
-0.0167506660443744 -0.00381910381156514 -0.0316131842623789 -0.0329377 0.554212 -0.8317236 101 101 101
-0.0192226909204631 -0.00319968553470251 -0.0308520776602799 -0.02808623 0.5667681 -0.8233985 114 114 114
-0.020619757254472 -0.00277942811433607 -0.0305639459181815 -0.032136 0.568094 -0.822336 104 104 104
-0.02393113122158 0.00201421389605705 -0.027600182404679 -0.01453049 0.5575835 -0.8299937 96 96 96
-0.0257606346988939 0.00236070187412696 -0.0268379871800554 -0.006165797 0.5463794 -0.8375151 78 78 78
-0.0255581920971224 0.000584684992119833 -0.0284665445263167 -0.01448614 0.5496253 -0.8352857 80 80 80
-0.0243530679463757 -0.0025944530316877 -0.0307456427152647 -0.02006728 0.5521482 -0.8335044 102 102 102
-0.0232125121297457 -0.00462292320766555 -0.031759215214707 -0.02802219 0.5493495 -0.8351226 98 98 98
-0.0254324183895007 -0.00242968147818612 -0.0301089631061526 -0.03038285 0.5539944 -0.8319659 116 116 116
-0.0234715960976537 -0.00657371810479424 -0.0333567817315477 -0.01563327 0.4894131 -0.8719119 98 98 98
-0.0249468671984583 -0.00674057506086179 -0.0333928918805899 -0.002341305 0.4792821 -0.8776578 103 103 103
-0.0297449364227038 0.00111243808181771 -0.0283192721542307 -0.0146238 0.5552866 -0.8315305 55 55 55
-0.0282718164178442 -0.000642934263166639 -0.0290438893952908 -0.01995754 0.5416369 -0.8403756 98 98 98
-0.0280957120890597 -0.00418502261690445 -0.0310479675214875 -0.014375 0.5685668 -0.8225115 93 93 93
-0.0392731040200194 0.0226793728541945 -0.00804862478098378 -0.6079798 0.7089895 0.3573436 39 39 39
-0.0397917149789495 0.0239904477412802 -0.00959290542204383 -0.5829503 0.7579036 0.2928327 41 41 41
-0.0410098453031993 0.0191136882199321 -0.00730818848453096 -0.6706971 0.4858578 0.560453 36 36 36
-0.0426399207613666 0.0178256683122802 -0.00739451981539974 -0.6649119 0.4849228 0.568104 30 30 30
-0.0433674168783882 0.0161411523862307 -0.00691060216109107 -0.6773617 0.4706275 0.5654122 32 32 32
-0.044165031238415 0.0162354845936288 -0.00787147241414643 -0.6751266 0.4664171 0.5715411 41 41 41
-0.042835946229427 0.0190772946478739 -0.00869258687738472 -0.6741931 0.4987564 0.544707 42 42 42
-0.0455361897333009 0.0158199842191351 -0.00991831683782907 -0.6736438 0.4551979 0.5822361 43 43 43
-0.0409759529885561 0.0244367310782814 -0.0116431270792464 -0.4405999 0.8408821 -0.314307 79 79 79
-0.0407805747780259 0.0232522034118274 -0.0121724038711686 -0.4666411 0.8141382 -0.3455793 80 80 80
-0.0398944968199038 0.0201279287991638 -0.0149046102023755 -0.0820599 0.6007621 -0.7952051 84 84 84
-0.0408640189504013 0.0204631546604985 -0.0146265005627726 -0.1763299 0.6285796 -0.7574929 112 112 112
-0.0444136680099447 0.0220632330687804 -0.0130055283201996 -0.7240309 0.689588 -0.01573921 104 104 104
-0.0449745840478957 0.0213602114380633 -0.0123060425195372 -0.6970657 0.7126511 0.07891664 69 69 69
-0.043563563446074 0.0204475951762619 -0.0142975211431792 -0.4210788 0.7261614 -0.5434909 121 121 121
-0.042557093775494 0.0195095325613577 -0.0152076584928503 -0.2970346 0.7110212 -0.6373534 105 105 105
-0.044302946544525 0.019340512658053 -0.0153082079732647 -0.3490718 0.7709537 -0.5327094 99 99 99
-0.0455960949716134 0.0177994233198828 -0.0116990858630828 -0.7313583 0.6239374 0.2753492 49 49 49
-0.0453848042890841 0.0173146842788303 -0.0111036454799256 -0.7115081 0.6194212 0.3317733 60 60 60
-0.0468935697500421 0.0151324156610193 -0.0105146480130748 -0.6632884 0.4903572 0.5653303 40 40 40
-0.0448051078085179 0.0181522894691215 -0.0159638926453936 -0.2644244 0.7116867 -0.6508316 145 145 145
-0.038159766209672 0.0175382992380435 -0.016553389504339 -0.01741216 0.5523155 -0.8334533 75 75 75
-0.0398104608278307 0.0171308916598996 -0.0166852535530836 -0.0257828 0.5551677 -0.8313388 67 67 67
-0.037369448170911 0.0164589811403617 -0.0174449428413488 -0.02398375 0.5468469 -0.836889 93 93 93
-0.0393893302286528 0.0148087554909009 -0.0185288101290826 -0.01685429 0.5552166 -0.831535 105 105 105
-0.0411154134602461 0.0163266448551636 -0.0174203450237914 -0.008657002 0.5557218 -0.8313232 96 96 96
-0.042164186152875 0.0145700166046991 -0.0186189305011217 -0.008319776 0.5553629 -0.8315665 79 79 79
-0.0369365970928377 0.0138102744938962 -0.0192474116255797 -0.02112941 0.5507736 -0.8343872 82 82 82
-0.0380577122790653 0.0123621045671143 -0.0200948699071837 -0.01637079 0.5586494 -0.8292423 83 83 83
-0.0358985582524736 0.0111006803419003 -0.0209709977906389 -0.01849665 0.5594746 -0.8286411 109 109 109
-0.0401592795119474 0.0125507767943802 -0.019957355054645 -0.01338575 0.5526593 -0.8332998 82 82 82
-0.0443936024689764 0.0172116834583627 -0.0165497750971059 -0.2189213 0.7443995 -0.6308271 126 126 126
-0.0427107909907432 0.0111353385312867 -0.0209020210026598 -0.01667809 0.5479573 -0.83634 79 79 79
-0.0423965261708923 0.00929755066162885 -0.0220234706173205 -0.02574604 0.554182 -0.8319973 59 59 59
-0.0440262047025812 0.00900961380922638 -0.0220470761692926 -0.02940117 0.5552462 -0.8311662 62 62 62
-0.0445445730670224 0.0132388630057216 -0.00562414087962826 -0.6758855 0.4646121 0.5721139 53 53 53
-0.0459830473935328 0.0106171611841415 -0.00614919996159247 -0.6697299 0.4631858 0.5804487 32 32 32
-0.0462907211978876 0.0121947097754516 -0.00869357168229856 -0.6412217 0.485043 0.5946159 33 33 33
-0.0473931115314556 0.0133433231228777 -0.0103588610465926 -0.6297982 0.4944498 0.5990606 37 37 37
-0.0509267833424056 0.0131915182392579 -0.0129792235827322 -0.5982278 0.5401767 0.591889 25 25 25
-0.050958425600399 0.0156005319340931 -0.0146060491313798 -0.5704705 0.815417 0.09827747 41 41 41
-0.0499530268422337 0.00921315117816057 -0.0086844124442822 -0.6351854 0.4654388 0.6163654 22 22 22
-0.0484411080170024 0.00676967805061701 -0.00556688664990912 -0.6754246 0.4043498 0.6166869 24 24 24
-0.0493947186036463 0.0054255784468733 -0.00588250240455213 -0.6714777 0.3956545 0.6265582 27 27 27
-0.0498563142185491 0.00535002225713166 -0.00640247174146724 -0.6712998 0.3967791 0.6260375 51 51 51
-0.0510908875602247 0.00261772160055274 -0.00626149058784364 -0.7209861 0.3517832 0.5970156 32 32 32
-0.0510823309807331 0.00711376101021233 -0.00858728987930091 -0.674294 0.3851578 0.6300644 40 40 40
-0.0521611966374933 0.00814759015843891 -0.0101099268670577 -0.6567102 0.4151895 0.6295629 29 29 29
