ply
format ascii 1.0
comment File exported by Rhinoceros Version 7.0
element vertex 464
property float x
property float y
property float z
property float nx
property float ny
property float nz
property uchar red
property uchar green
property uchar blue
end_header
-0.0423874758038489 -0.00557418448798019 -0.00421655507938767 0.1116465 0.9030519 0.4147679 29 29 29
-0.0425029102916876 -0.00639792940418582 -0.00157735435421258 0.1318736 0.8158591 0.5630127 31 31 31
-0.041899307809061 -0.00674692341266847 0.00120923416499186 0.1901383 0.7697852 0.609326 35 35 35
-0.040027559779646 -0.00374984402249545 -0.000221539974339824 0.2426059 0.8357063 0.4926838 27 27 27
-0.0410189837725234 -0.00297111702189445 -0.00359444288655808 0.128461 0.9160165 0.3800153 23 23 23
-0.0414587072414152 -0.00218428370482471 -0.00426937999526034 0.1882289 0.9274775 0.3230407 26 26 26
-0.0416725109539857 -0.000296654844860411 -0.00471339743425847 0.2525755 0.9273599 0.2760602 24 24 24
-0.0372258586816785 -0.000430317265468272 0.00390957493327659 0.4211385 0.7597937 0.4953341 23 23 23
-0.0370522802318201 0.000982767705498322 0.00151434574399234 0.406208 0.8034537 0.4352668 20 20 20
-0.0372045651341419 0.00171942179432949 0.000190070180986712 0.3974904 0.8317934 0.3874547 26 26 26
-0.0367739932375215 0.0016675313983352 0.00230641833930545 0.4362387 0.7767208 0.4543134 27 27 27
-0.0386126223955352 0.00290222295375031 -0.00017596400295572 0.3839865 0.850501 0.3594474 27 27 27
-0.0370764055920572 0.00447523574832087 0.00324514912880636 0.4338887 0.7746497 0.4600634 29 29 29
-0.0360075580083525 0.00432996390459173 0.00522554291254818 0.4417507 0.7551815 0.4843111 40 40 40
-0.0355764181586444 0.00614169164366829 0.00503272743233174 0.4256534 0.7741985 0.4684399 34 34 34
-0.0390889224436763 -0.00205004261635322 0.00817965105930685 0.3864469 0.6906964 0.611226 39 39 39
-0.0364760669943656 0.0018394438417968 0.00745470261370962 0.4316767 0.7289494 0.5313078 41 41 41
-0.0366013023934872 0.000492556243562037 0.00750486262672512 0.4378492 0.7219579 0.5357845 40 40 40
-0.0357809138918446 0.00319500599666545 0.0115336944111395 0.4324107 0.734163 0.5234746 37 37 37
-0.0345980318349026 0.00516849543060172 0.0139854956612813 0.4166054 0.7291208 0.5429758 27 27 27
-0.0350620436997409 0.00480653173771439 0.004748111784596 0.4437145 0.7686458 0.4607614 38 38 38
-0.0328048973184851 0.00958466749909492 0.0101331976771289 0.4147992 0.7563692 0.5058134 35 35 35
-0.00782775905270627 0.0318419593554893 0.0345071250520687 -0.2600445 0.7657847 0.5881758 38 38 38
-0.0321255501401483 0.010328546059033 0.0117954076504371 0.4122002 0.753611 0.5120171 43 43 43
-0.03191859345381 0.0101016780999486 0.0160319602244323 0.4187368 0.7362895 0.5315423 35 35 35
-0.0312511991622151 0.0117536932767501 0.0176403310368235 0.4165059 0.7471904 0.5179086 39 39 39
-0.0308944312844099 0.0118391573069203 0.0148364445980846 0.4291483 0.7455811 0.5098436 36 36 36
-0.0304511387565563 0.0130791418255649 0.0182221025653094 0.3798388 0.7535971 0.5364829 41 41 41
-0.0294184564331148 0.0137034033453052 0.0151667783848188 0.4120547 0.761031 0.5010417 36 36 36
-0.0293989266549752 0.0150369795448497 0.0158821822639095 0.3793192 0.7646363 0.5210071 39 39 39
-0.0293602361054464 0.0136963134805779 0.0160198217338474 0.3782333 0.7537079 0.5374607 30 30 30
-0.0293296160821324 0.0154682520259624 0.0186295839879432 0.3637041 0.7718554 0.5214966 45 45 45
-0.0282795701053897 0.0149518042190835 0.0190231808275357 0.3630701 0.7617075 0.5366394 33 33 33
-0.0246232847395249 0.020112271831966 0.0253373252342217 0.2043739 0.7998651 0.5643112 31 31 31
-0.0461221590662393 -0.0142768330940453 -0.0279736470795987 0.9498076 -0.2894427 0.1186943 39 39 39
-0.0512940938489297 -0.0048378962251312 -0.0283004425940293 0.5188353 -0.5940437 0.6147535 133 133 133
-0.0569997620989979 -0.00154898241894652 -0.0263863528036656 0.5796986 -0.5282792 0.6203794 150 150 150
-0.0554647066213887 -4.6802604452667E-05 -0.0253679666286238 0.260097 -0.528371 0.8081916 184 184 184
-0.0560954778737883 0.000919124738417487 -0.0248966295022569 0.2378386 -0.5405173 0.8070154 168 168 168
-0.0534041926699214 -0.00233344910430922 -0.0266705588579609 0.2560562 -0.5761746 0.7761817 169 169 169
-0.0522077013607227 -0.00324962142334084 -0.027257364472184 0.2992294 -0.5614547 0.7715117 163 163 163
-0.0489896648730896 -0.00201459801405024 -0.0260873044767212 0.02408626 -0.5306897 0.8472239 141 141 141
-0.0469139200395661 -0.00607641962881411 -0.0285945403271018 0.02115958 -0.5317401 0.8466432 120 120 120
-0.04716961433109 -0.00298013284692678 -0.0265660033401263 0.02354239 -0.5236706 0.8515955 164 164 164
-0.0455931206481994 -0.00263717531550567 -0.0260520372180783 0.0238704 -0.5276265 0.8491411 150 150 150
-0.0435072664404188 -0.00248808085747254 -0.0256284769936416 0.0217733 -0.5310697 0.8470483 156 156 156
-0.0485237686440181 0.000866185431423583 -0.0238455590334795 0.02983051 -0.5265368 0.8496289 154 154 154
-0.0463919452555939 -0.00105700145962406 -0.0250536403769503 0.02349537 -0.527734 0.8490847 160 160 160
-0.044204926566429 0.000955283170567034 -0.0233537398263925 0.009010593 -0.5307676 0.8474695 177 177 177
-0.0428538679784969 -0.0161956881908281 -0.0275541304402094 0.9758283 -0.191676 -0.1049737 42 42 42
-0.0408002359419706 -0.0181327557764694 -0.027410716641492 0.9634304 -0.1001979 -0.2485202 47 47 47
-0.0434582305865772 -0.0154034755729695 -0.0294036206879892 0.9429786 -0.2358685 0.234856 53 53 53
-0.0436345825677082 -0.0151515521707923 -0.0300070389538811 0.9322803 -0.21484 0.2910279 51 51 51
-0.0398724531993913 -0.0183791990098896 -0.029795378227528 0.9568793 -0.2871683 -0.04377751 50 50 50
-0.0443945759884576 -0.0156635573050836 -0.0255471818231862 0.9363375 -0.2398403 -0.2564149 47 47 47
-0.043431334834906 -0.016204006379102 -0.0261340719368383 0.9452982 -0.2014337 -0.2565849 47 47 47
-0.0408722403494894 -0.0118409694641466 -0.0321958683832164 0.5290608 -0.5665608 0.6317464 127 127 127
-0.0391600854221779 -0.0130225433786542 -0.0320161856685021 0.4586915 -0.5410589 0.7048811 122 122 122
-0.0382092451166027 -0.011835833827035 -0.0316268307097671 0.2678354 -0.5386199 0.7988447 153 153 153
-0.0373514197689946 -0.0128230773813909 -0.032030012851729 0.2272264 -0.5293946 0.8173797 137 137 137
-0.0369237035854599 -0.0105232648520108 -0.0304080805431012 0.02313562 -0.5354767 0.844233 182 182 182
-0.0392183104990624 -0.00789900610743377 -0.0288840572954952 0.02522911 -0.536407 0.8435823 120 120 120
-0.0374710990781313 -0.00851616252018772 -0.0293082862672051 0.02416217 -0.5448259 0.838201 130 130 130
-0.0348539389055409 -0.0120010721258303 -0.0311007043359508 0.01141895 -0.5367194 0.8436835 183 183 183
-0.0357058975229336 -0.00955210475959456 -0.0296448650054415 0.02313166 -0.5369236 0.8433137 147 147 147
-0.035893168276907 -0.00830783952607472 -0.0289477997229273 0.02157965 -0.5393776 0.8417875 193 193 193
-0.0399637305225604 -0.00635159249456518 -0.0280101473631726 0.02469491 -0.5365628 0.8434989 131 131 131
-0.0402289715011093 -0.00504910671155723 -0.0272626299619809 0.01713328 -0.5324817 0.8462681 139 139 139
-0.0387626064092328 -0.00644432257028327 -0.0278322879168331 0.01638438 -0.5393807 0.8419026 173 173 173
-0.0402319129072526 -0.0020759212407806 -0.0252371136290107 0.005528414 -0.531399 0.8471036 165 165 165
-0.0385000123340642 -0.00354158901964463 -0.0256722212727283 0.008197079 -0.5339652 0.8454667 121 121 121
-0.0382557378415938 -0.00238503889671238 -0.0248814690398656 0.004100066 -0.5365219 0.8438765 155 155 155
-0.044375640889653 0.00196235545083923 -0.0226849400488169 0.01111287 -0.5311761 0.8471885 173 173 173
-0.0420353561392595 0.00173124887401199 -0.0226107188777679 0.007754118 -0.5297268 0.8481329 128 128 128
-0.0413467724327317 0.000217499471356852 -0.0234722690212231 0.006983036 -0.5274003 0.8495882 168 168 168
-0.0386199797814513 0.00204738101290558 -0.0218422245171823 0.006873565 -0.5315853 0.8469769 147 147 147
-0.0335298337573917 -0.015260575898602 -0.0332607179851242 0.136958 -0.5295578 0.8371446 127 127 127
-0.0316531830456452 -0.0144889952214617 -0.0324393506007487 0.01383283 -0.5335494 0.8456557 140 140 140
-0.0335752676130259 -0.0131446669337427 -0.0319070293112164 0.01852249 -0.5315025 0.8468542 172 172 172
-0.0320716778259806 -0.0118920836693182 -0.0308941024787084 0.0144768 -0.536674 0.8436655 136 136 136
-0.0286275601722468 -0.0130675611593691 -0.0310804107292905 0.01002604 -0.5321023 0.8466207 163 163 163
-0.0290238649380847 -0.0109128641655911 -0.0298906559435242 0.01468118 -0.534846 0.844822 191 191 191
-0.034855536888055 -0.00925069329238215 -0.0292331832794861 0.01977015 -0.5326378 0.8461123 141 141 141
-0.0327186651081202 -0.0097545192727122 -0.0292621278012482 0.01588248 -0.5387393 0.8423228 150 150 150
-0.030100677842992 -0.00963462299646878 -0.0288480825504962 0.01042744 -0.5356809 0.8443561 211 211 211
-0.0303595046030449 -0.00794130042941066 -0.0279459002253043 0.003092017 -0.5333252 0.8459046 203 203 203
-0.0313486901934059 -0.00636127314899881 -0.0269572041109052 0.003386234 -0.531951 0.8467684 212 212 212
-0.0327640366067796 -0.00621208675142126 -0.0269226853867917 -0.00191268 -0.5331214 0.8460366 201 201 201
-0.0346624850561827 -0.00150625088521439 -0.0237059851651588 0.001850463 -0.5386707 0.8425143 209 209 209
-0.031853528538748 -0.00164310580580063 -0.0235318391073125 0.0009084407 -0.5360766 0.8441688 210 210 210
-0.036226810508581 -0.00186380722720947 -0.0241116416603223 0.003765896 -0.539404 0.8420387 210 210 210
-0.037119649229596 0.000871689061298087 -0.0227716316959137 0.004476289 -0.5364271 0.8439348 217 217 217
-0.0325840742408319 0.000365836108296325 -0.0223600114511545 0.006963593 -0.5344213 0.8451895 207 207 207
-0.0321237716733609 0.00157768188092455 -0.0215172716987122 0.01085582 -0.5357187 0.8443267 216 216 216
-0.0538035214002186 0.00201201329824352 -0.0237043867560562 0.02207967 -0.5273064 0.8493883 173 173 173
-0.0529390511849503 0.00187647284363268 -0.0236999962513273 0.02207967 -0.5273064 0.8493883 166 166 166
-0.0525194968508853 0.00236228362758673 -0.0230952816990906 0.02225769 -0.5285969 0.8485811 172 172 172
-0.0535320387095328 0.00248185138909185 -0.0232904413621846 0.02207967 -0.5273064 0.8493883 180 180 180
-0.0519218208003984 0.00359092963793839 -0.0224367009876847 0.02385551 -0.5326502 0.8459992 166 166 166
-0.0499430013124205 0.00208384449399857 -0.0231436652769479 0.02516415 -0.5292843 0.8480713 172 172 172
-0.0499448671796103 0.00452236801677253 -0.0216845494924207 0.01561356 -0.52839 0.8488582 193 193 193
-0.0495804041346528 0.00522354278829318 -0.0211619854629096 0.0153518 -0.5284426 0.8488302 147 147 147
-0.0427004518532865 0.00263395168144975 -0.008812680929845 0.204045 0.9412214 0.2691986 32 32 32
-0.0424552428807023 0.00277855643393954 -0.0104273815665381 0.2391246 0.8720559 0.4270105 32 32 32
-0.0402707562299958 0.00464668592133588 -0.00920380324503134 0.2689011 0.8047763 0.5291762 32 32 32
-0.0446304405617357 0.00595721965795493 -0.0199511318158937 0.002930999 -0.5302168 0.8478571 136 136 136
-0.0426691281723002 0.00478828498425332 -0.0202677892077536 -0.0006581398 -0.5291183 0.8485478 165 165 165
-0.0398545341370515 0.0026721936635794 -0.0214744474220845 0.004097776 -0.5332636 0.8459392 141 141 141
-0.0422445301939183 0.00643107641414931 -0.0192628212121481 0.007494217 -0.525927 0.8504967 136 136 136
-0.0449178837144613 0.00799152324698582 -0.0184473683622981 0.004388046 -0.5386639 0.8425093 152 152 152
-0.0440310407759372 0.00784643003856633 -0.0185032692474102 0.004853757 -0.5395116 0.8419642 158 158 158
-0.0417658796703666 0.00793168872379169 -0.0181489215744239 0.01051024 -0.5313008 0.847118 159 159 159
-0.041215754664143 0.0105832527512519 -0.0162604469853208 0.0113513 -0.5360664 0.8440995 127 127 127
-0.0390637223217154 0.00941307876088504 -0.0163732734169086 0.01100008 -0.532129 0.8465918 128 128 128
-0.0377853988861974 0.00501845497527631 -0.0196108744962226 0.006025353 -0.5251119 0.8510118 139 139 139
-0.0367919645323931 0.00379915235073924 -0.0204003530720309 0.0085693 -0.5282866 0.8490229 130 130 130
-0.0361238979658653 0.00494981593153843 -0.0194635016210825 0.007103364 -0.5243763 0.8514571 149 149 149
-0.0342187940211083 0.00471693337746193 -0.0194248655967392 0.003639217 -0.5357978 0.8443385 103 103 103
-0.0344742365657864 0.00527286673524108 -0.0190318046304716 0.005942113 -0.5324258 0.8464559 125 125 125
-0.0356826221993607 0.00697386405250477 -0.0182173388006508 0.0126956 -0.5293764 0.8482921 141 141 141
-0.0334053312332465 0.00722925215425496 -0.0176898159000136 0.01691427 -0.531364 0.8469747 141 141 141
-0.038669301103283 0.0108238632003406 -0.0155642639346172 0.01062351 -0.5299242 0.8479785 136 136 136
-0.0379244818207845 0.0117028742828589 -0.0150372223206425 0.01363327 -0.525924 0.8504223 149 149 149
-0.0369024127511706 0.0100981581026847 -0.0158459273311201 0.0140071 -0.5316591 0.8468426 137 137 137
-0.0343623398366804 0.00883050321871859 -0.0165301724317917 0.01687547 -0.5308698 0.8472853 115 115 115
-0.0358575143318332 0.0113894530370267 -0.0149649724921694 0.01740812 -0.5302258 0.8476778 143 143 143
-0.0358530059052147 0.011794827200897 -0.0147506063663596 0.01740812 -0.5302258 0.8476778 125 125 125
-0.0349489267450263 0.0107210512402276 -0.0151312578980781 0.0203247 -0.5313265 0.8469233 134 134 134
-0.0393395816907809 0.0124364896638107 -0.014927414956855 0.01103303 -0.5295419 0.8482121 141 141 141
-0.0369518765748125 0.0128472922705487 -0.0139516808542804 0.01739789 -0.5278904 0.8491343 141 141 141
-0.035106458118259 0.0131262484291308 -0.0137024621593926 0.0235194 -0.5316024 0.8466675 142 142 142
-0.0255579328712709 -0.0132119334257403 -0.0309707774020694 0.00983357 -0.5275546 0.8494642 219 219 219
-0.0226802367770698 -0.0137127087734419 -0.0307467967425546 0.007543998 -0.5307289 0.8475081 229 229 229
-0.025980611099983 -0.00859010565756702 -0.0277838041870699 0.01095668 -0.5336682 0.845623 199 199 199
-0.0229832264400178 -0.0123558691169936 -0.0299019444866916 0.00636633 -0.5305488 0.8476305 221 221 221
-0.0221105510129918 -0.0131110663301255 -0.0303611917173096 0.006930637 -0.5305005 0.8476563 227 227 227
-0.0227290486009664 -0.011486671443645 -0.0295188124506336 0.01201507 -0.5346413 0.8449937 215 215 215
-0.0235560692791266 -0.00902290503037273 -0.0276243258974038 0.01292529 -0.5400281 0.8415477 231 231 231
-0.0229487365441803 -0.00921962643804508 -0.0280266686066664 0.01292529 -0.5400281 0.8415477 213 213 213
-0.024136860499314 -0.00775901883331831 -0.0268438155040172 0.01049163 -0.5339197 0.8454701 220 220 220
-0.0188657820953675 -0.0141821235671291 -0.0309368381922232 0.008627509 -0.5331846 0.8459549 176 176 176
-0.0201248302179031 -0.0127686813645371 -0.0297894400731913 0.007278195 -0.532834 0.8461885 180 180 180
-0.0160106665889064 -0.0132478376583087 -0.0296435233273062 0.01297094 -0.5257493 0.8505406 218 218 218
-0.0163099921965253 -0.00959997413834413 -0.0270679061452326 0.006333984 -0.5311962 0.8472251 223 223 223
-0.0213897266594101 -0.00845225943638539 -0.0270465605543228 0.01726562 -0.5372812 0.8432264 219 219 219
-0.0221187046173246 -0.00704712692046261 -0.0259531196036573 0.01350849 -0.5279869 0.8491451 220 220 220
-0.0183888761586262 -0.00845446738008193 -0.0266942742425247 0.00702778 -0.5402341 0.8414854 214 214 214
-0.0170197498482594 -0.00497894447672476 -0.0242447245449224 0.008128732 -0.534863 0.8448997 119 119 119
-0.029218748643361 -0.00393077214478521 -0.024706144200261 0.006198456 -0.528143 0.8491328 167 167 167
-0.0275939388548045 -0.0040373526729105 -0.0246512280926758 0.00343321 -0.525902 0.8505383 154 154 154
-0.0299919988230484 -0.000918865628793508 -0.0230831437455284 0.008813675 -0.5373267 0.8433281 159 159 159
-0.027269721163022 -0.00273718129264799 -0.0238230816628396 0.005029887 -0.5226085 0.852558 133 133 133
-0.029966919768565 0.0011075519764423 -0.0213515096215295 0.0132996 -0.5342918 0.8451955 209 209 209
-0.0282268888647568 0.000787548337895849 -0.0213750855275024 0.00861218 -0.5404695 0.8413196 194 194 194
-0.0294167799029945 0.00187655833639888 -0.0205936176255035 0.0142722 -0.5321897 0.8465048 219 219 219
-0.0245522334251285 -0.00395597592982955 -0.0241502591380766 0.01141744 -0.5254434 0.8507519 216 216 216
-0.0240836166680274 -0.00401004935356575 -0.0243757090434601 0.01141744 -0.5254434 0.8507519 215 215 215
-0.0248816266108409 -0.000117322888508076 -0.0215633396459768 0.01760185 -0.5293903 0.8481958 130 130 130
-0.0256625704777913 0.00202208587627051 -0.0202758587240279 0.0342174 -0.5409861 0.8403351 209 209 209
-0.0259725814536838 0.00310585894402626 -0.0195435866589879 0.02830971 -0.5333682 0.8454093 209 209 209
-0.0225586317543742 -0.00314482668176597 -0.0235611425754378 0.01514391 -0.5249784 0.8509808 210 210 210
-0.0199264515653881 -0.00324214544519696 -0.0232392418445377 0.002497979 -0.5313626 0.8471408 209 209 209
-0.0240424947759954 -0.00264357675104687 -0.0229895702732497 0.01470441 -0.5241904 0.8514742 206 206 206
-0.021484969553119 -0.00138812047102777 -0.0219515026006276 0.01181181 -0.5387803 0.8423635 229 229 229
-0.0200101453247632 -0.00459776171899207 -0.0241078041552525 -3.180743E-05 -0.527507 0.8495507 211 211 211
-0.0226254905739556 -0.000342362048329825 -0.0215268112459541 0.02839991 -0.5291516 0.848052 214 214 214
-0.021439753123534 0.000289877772611025 -0.02079945304716 0.02256453 -0.5410913 0.840661 217 217 217
-0.023868818115877 0.00320341005543612 -0.019221544704201 0.02961033 -0.5334044 0.845342 211 211 211
-0.0226326099245502 0.00267793085075296 -0.0192445464446459 0.02937117 -0.5372658 0.8429014 186 186 186
-0.0211619218291041 0.0025031432950251 -0.0194685428872957 0.02623982 -0.5335934 0.845334 195 195 195
-0.0195228108071759 0.000889423467609118 -0.020432252763797 0.02325483 -0.5445785 0.8383874 187 187 187
-0.0192236434356632 0.00203680929094152 -0.019506237738301 0.02267962 -0.5387499 0.8421604 190 190 190
-0.0200400331779984 0.00360227687512071 -0.0186836206798031 0.01606942 -0.5369394 0.8434677 122 122 122
-0.0148148710300207 -0.0097320081890071 -0.0266280704970739 0.01994523 -0.5287358 0.8485521 226 226 226
-0.013467738761 -0.0107766982126281 -0.0278066151720744 0.01013114 -0.5269282 0.8498494 161 161 161
-0.01523012365292 -0.00595588784856882 -0.0243601521149572 0.01465882 -0.5264822 0.8500597 148 148 148
-0.0161741452465771 -0.00553545326222404 -0.0245184531185523 0.01195077 -0.5275068 0.8494667 129 129 129
-0.0132791723799766 -0.00596649081611633 -0.0242290002754389 0.02026978 -0.5177924 0.8552662 153 153 153
-0.0147799962644037 -0.0042920790400347 -0.023227266976491 0.01853129 -0.5296452 0.8480168 131 131 131
-0.0159227819297463 0.000310952533172593 -0.0203118410292866 0.02004799 -0.544544 0.8384926 135 135 135
-0.0157779116759766 0.0017104515519144 -0.0192005851828272 0.0141481 -0.542372 0.8400193 138 138 138
-0.040171150198028 0.00380063718321821 -0.00839100886426458 0.2404869 0.9284728 0.2830272 28 28 28
-0.0390272764996435 0.00423080392532071 -0.00568767985847818 0.2394907 0.9291079 0.2817847 27 27 27
-0.0388663440867034 0.00572765189462543 -0.00780195759806335 0.2460519 0.8839976 0.3975007 24 24 24
-0.0366258548538867 0.00598243986786007 -0.00355706586096893 0.3094632 0.9005851 0.3052524 27 27 27
-0.036810848857068 0.00739092608852454 -0.00483358572742609 0.2898692 0.8945238 0.3402985 34 34 34
-0.035874149908435 0.00537340605818026 0.000493579301821256 0.3768806 0.8402967 0.3896953 33 33 33
-0.0366447053304213 0.0060947041129511 -0.00208722531624339 0.3612443 0.8605624 0.359075 22 22 22
-0.0347735760746311 0.0101289132245588 -0.00126681855192401 0.3657739 0.849049 0.3812154 29 29 29
-0.0353676676542867 0.0105099891303408 -0.00401620989506868 0.3494821 0.791267 0.5017557 37 37 37
-0.0345436508759889 0.013552538189074 -0.00502172441048598 0.3989055 0.6596208 0.6370046 32 32 32
-0.034702365172544 0.0134129238080123 -0.00105452872005407 0.3835673 0.8514435 0.3576592 39 39 39
-0.0332510183745958 0.0129900364530047 0.000129984665791616 0.3906439 0.8573754 0.3351191 35 35 35
-0.0330325640944289 0.0142040808374759 0.00224442509070788 0.4053925 0.8247196 0.3943278 38 38 38
-0.0326876271405787 0.00970609634533948 0.00665912078787423 0.4184988 0.7940972 0.4407589 30 30 30
-0.032011337718294 0.0123491150364625 0.00735580181518125 0.422578 0.7933701 0.4381686 34 34 34
-0.0319238120732974 0.0135233191728581 0.0056195490224995 0.3961838 0.8065464 0.4387723 35 35 35
-0.031970239132262 0.0148274702918627 0.00372456018827283 0.381705 0.8319631 0.4026645 38 38 38
-0.0321657632664392 0.00840199142779019 -0.0166191646057269 0.01390895 -0.5313014 0.8470687 138 138 138
-0.0280209078137406 0.00727835866983839 -0.0166451017820219 0.01326529 -0.5314925 0.8469591 135 135 135
-0.0325067133351462 0.0104505769020253 -0.0152509880990729 0.0201498 -0.5358937 0.844045 166 166 166
-0.0289171845828258 0.01259216595072 -0.0132616175106656 0.007190907 -0.5359802 0.8442 157 157 157
-0.0268609750542661 0.00617393818799372 -0.0174684642501 0.02530803 -0.5354397 0.8441942 131 131 131
-0.0263239794562979 0.00644959595934513 -0.0174125209757778 0.01580178 -0.5320125 0.846589 157 157 157
-0.0274301715316347 0.01000458846579 -0.0147865369459586 0.007874664 -0.5357273 0.8443543 160 160 160
-0.0278293686259989 0.0124725919831026 -0.0132875963057263 0.01283944 -0.5398827 0.8416423 131 131 131
-0.0236884131018811 0.00556995396698556 -0.0177018831906367 0.02450431 -0.5300341 0.8476222 191 191 191
-0.0266017267144885 0.00864509879710762 -0.0157091763133623 0.006788126 -0.5326967 0.846279 139 139 139
-0.0255990269929842 0.00943512355508402 -0.0151332816792279 0.003836389 -0.5314949 0.8470528 142 142 142
-0.0224383140079842 0.00554721469359132 -0.0174892299397897 0.01534867 -0.5341643 0.8452414 175 175 175
-0.0215964933309287 0.00638011085516377 -0.0166185082215129 0.007565276 -0.5278274 0.8493179 146 146 146
-0.0201488100974858 0.00679416375400832 -0.0162005111419646 0.0087905 -0.527836 0.8493008 185 185 185
-0.0210082195967265 0.00856809499692535 -0.0150891541155349 0.01070578 -0.5264852 0.8501169 156 156 156
-0.0256529834168822 0.0107413787043666 -0.0141385987181668 0.003037574 -0.5389536 0.84233 122 122 122
-0.0235663517729796 0.0104521076294728 -0.0137340990880171 0.008790808 -0.5312268 0.8471841 122 122 122
-0.0229627621064035 0.0112803446474345 -0.0134583994151163 0.01149837 -0.5359104 0.8441966 137 137 137
-0.022978113716954 0.0122316318728344 -0.0126734479812048 0.0117915 -0.5387855 0.8423604 142 142 142
-0.0329420883588836 0.01318092850223 -0.0133364065303722 0.02107568 -0.5290372 0.8483369 160 160 160
-0.0316668710319179 0.0141202445614705 -0.0125468489154258 0.01770882 -0.5301945 0.8476911 133 133 133
-0.0339267595844035 0.0161795520306147 -0.0112306486095918 0.008074364 -0.04576174 0.9989197 134 134 134
0.0269374323701397 0.0272819773619823 0.030282059383235 -0.5430554 -0.8160018 0.1980706 117 117 117
-0.029951057894265 0.0172595326630127 -0.0099672326886695 0.01178588 -0.52789 0.849231 95 95 95
-0.0299078657133787 0.0193644198352074 -0.00864903600638345 0.01252808 -0.5224178 0.8525976 122 122 122
-0.0298280155697255 0.0199596689164894 -0.00815998174902222 0.01132267 -0.5208653 0.8535638 132 132 132
-0.0251276709089026 0.0162917693447711 -0.0102984404756655 0.006452926 -0.5362644 0.8440254 108 108 108
-0.0226310724970848 0.0160183559589471 -0.0100524840849855 0.01563459 -0.5342204 0.8452007 162 162 162
-0.0224487723839266 0.0181856416301971 -0.00865752668702835 0.01232991 -0.5366349 0.8437245 138 138 138
-0.0263923392977243 0.0207366273975327 -0.00729623060871076 0.01128391 -0.5281905 0.8490509 180 180 180
-0.0250169784775478 0.0194891958386691 -0.00807797825221679 0.01139817 -0.528717 0.8487216 141 141 141
-0.0249975241733948 0.0209468220459612 -0.00686374717530758 0.007151842 -0.5295584 0.8482434 144 144 144
-0.0240189618429587 0.0214278515434183 -0.00651407067320053 0.004453225 -0.5268748 0.8499312 135 135 135
-0.0166432692000782 0.00511594780990543 -0.01684366554883 -0.0008809663 -0.5323457 0.8465266 191 191 191
-0.0164226000151844 0.00599949498468955 -0.0163700551398467 0.002194037 -0.5341728 0.8453724 147 147 147
-0.018659455820373 0.0101959729364269 -0.0135922994470081 0.01928709 -0.5301939 0.847657 174 174 174
-0.0167113935643013 0.00851612056792628 -0.0145776707337276 0.01200732 -0.5370251 0.8434808 158 158 158
-0.0181309734461794 0.0121105703992797 -0.0123232975070172 0.01810928 -0.523576 0.8517865 190 190 190
-0.0165997366489989 0.0101075140070719 -0.0135607075837478 0.01635081 -0.535597 0.8443154 148 148 148
-0.0191870692303442 0.0149298427676774 -0.0102599720084979 0.01436398 -0.5346538 0.8449491 161 161 161
-0.0199239105072224 0.0165066730019876 -0.00940690223256835 0.01398801 -0.5346731 0.8449432 159 159 159
-0.021212730886724 0.0169359395300839 -0.00919536138084998 0.01589373 -0.5338318 0.8454413 155 155 155
-0.0177099479785088 0.0150781674978111 -0.0101451695859338 0.008023319 -0.532977 0.8460917 172 172 172
-0.018678782367695 0.0184556559058753 -0.00784984262464394 0.00680905 -0.5326621 0.8463006 163 163 163
-0.0215315740177191 0.0202362612597655 -0.00686446746798108 0.008871859 -0.5293398 0.8483635 168 168 168
-0.0225372487578177 0.0232306255345591 -0.00496511930620014 0.009076148 -0.5317122 0.8468765 138 138 138
-0.0196864836311679 0.0222732155938568 -0.00522885758339175 0.0107423 -0.527152 0.8497031 129 129 129
-0.0104769055966198 -0.0125195806971818 -0.0287743868558611 0.009548278 -0.5212321 0.8533615 125 125 125
-0.0117182691016762 -0.0108191032492524 -0.0273945849223761 0.01434528 -0.5243643 0.8513732 133 133 133
-0.00864001034042872 -0.012005083053658 -0.0279363454751491 0.01161392 -0.5431 0.8395877 136 136 136
-0.00989107350117657 -0.0105731923663814 -0.0269235785018053 0.01597993 -0.5260481 0.8503047 149 149 149
-0.0123147840109712 -0.007242310632672 -0.0249981831350239 0.02067949 -0.5336094 0.8454782 135 135 135
-0.00941628033559372 -0.00765509022257338 -0.0252011057645271 0.02003214 -0.5324056 0.8462524 130 130 130
-0.00743623513230474 -0.0118645228426042 -0.0273681484069474 0.01067681 -0.5405561 0.8412402 132 132 132
-0.00799061159336345 -0.0106284568461086 -0.0266601595672313 0.007873642 -0.5341056 0.8453811 120 120 120
-0.00626872638760312 -0.0127158018007838 -0.0280349716415208 0.004794685 -0.5372425 0.8434142 156 156 156
-0.0061829049202049 -0.0108007665818208 -0.0268554643016062 0.01625088 -0.5369993 0.8434262 135 135 135
-0.00841868186294659 -0.00875143027010306 -0.0259272997992187 0.01320441 -0.5387519 0.842361 107 107 107
-0.00829388733000247 -0.00875247383531463 -0.0255542631607021 0.01150207 -0.5373001 0.8433127 148 148 148
-0.00245517545248997 -0.0101217663322961 -0.025923274885565 0.0197302 -0.5383184 0.8425106 223 223 223
-0.00326975877826974 -0.00902211293474831 -0.0248382352864854 0.0198453 -0.5405504 0.8410776 156 156 156
-0.00709738333099197 -0.00709034356701377 -0.0244597705528596 0.01598691 -0.5370938 0.843371 143 143 143
-0.00945324649577972 -0.00631351881312336 -0.0241057093124588 0.02054309 -0.5352894 0.8444189 130 130 130
-0.00567189969039972 -0.00675977442695919 -0.0239168071979663 0.01701446 -0.535339 0.8444659 135 135 135
-0.00595173940971394 -0.0053787673119694 -0.0230044672166569 0.007678825 -0.5340681 0.8454066 140 140 140
-0.0112844002961485 -0.00146372600616851 -0.0209181508936802 0.0268763 -0.5283972 0.8485718 162 162 162
-0.013849572720092 0.00114503684148537 -0.019298258609515 0.02384802 -0.5311357 0.8469511 140 140 140
-0.0145664701254831 0.00214053267852443 -0.0187362050758402 0.0145874 -0.5389572 0.8422068 161 161 161
-0.0140083707595289 0.00358638666943945 -0.0175952479770436 0.003138637 -0.5328624 0.8461961 136 136 136
0.0404551268465867 -0.00487733605206708 0.00494024758769729 -0.9672742 -0.2536187 -0.007630348 106 106 106
-0.0130006307910437 0.00403698509615547 -0.0172447057637977 0.007459723 -0.5297423 0.8481258 136 136 136
-0.00947496938829895 -0.00346978904301043 -0.022138628876104 0.02404363 -0.516006 0.8562475 133 133 133
-0.00861473284794556 -0.00274898468238116 -0.0212027650583354 0.01574124 -0.5321986 0.8464732 146 146 146
-0.00661071402893021 -0.00318219576910872 -0.0215146678950309 0.01297022 -0.5331767 0.8459045 160 160 160
-0.00632034149421323 -0.00212847085901369 -0.0207524102251385 0.008551725 -0.5309818 0.84734 166 166 166
-0.00720174851741029 0.00123989272145941 -0.0185164305908424 0.01292476 -0.5336843 0.845585 136 136 136
-0.00569411610340831 -0.000120816052887163 -0.0196380483474056 0.01424341 -0.5370185 0.8434502 130 130 130
-0.00948131598206947 0.00266465986710562 -0.0176303179578793 0.00801073 -0.5189116 0.8547904 129 129 129
-0.0105673757774067 0.00499675989882409 -0.016242871813712 0.007847415 -0.5255318 0.8507378 147 147 147
-0.00904355888453323 0.00370770223610672 -0.017322806361422 0.004262651 -0.5216392 0.8531556 136 136 136
-0.00769783926368395 0.00247295009762061 -0.0176950311413552 0.01015872 -0.53022 0.8477992 157 157 157
-0.00490176133037368 0.00161734250962953 -0.0180550609533657 0.006943691 -0.5300524 0.8479365 144 144 144
-0.00829843384734996 0.00602935601567944 -0.0152351220795128 0.01192328 -0.5363648 0.843902 154 154 154
-0.0143976746821606 0.00647379911618717 -0.0155721434905698 0.009844156 -0.5368536 0.843618 142 142 142
-0.0131716942966209 0.00609154450381588 -0.0158688638858405 0.01024281 -0.5346132 0.8450348 139 139 139
-0.0135663377275363 0.00716741939784682 -0.0151261678071382 0.01521159 -0.5375957 0.8430655 135 135 135
-0.0153963989316519 0.0100110137564431 -0.0133352904633581 0.0164648 -0.5369369 0.8434618 156 156 156
-0.0113706679405357 0.00615235154555793 -0.0156219164640146 0.01590469 -0.5284388 0.8488224 149 149 149
-0.0114369837340269 0.00699190595298305 -0.0147274408136613 0.01782534 -0.530425 0.8475444 123 123 123
-0.0128449012067868 0.00907225187968463 -0.0136465440501785 0.01366938 -0.5412274 0.8407652 147 147 147
-0.00683273459730493 0.00734303891083132 -0.0142652492133981 0.007360785 -0.5405866 0.8412561 121 121 121
-0.00911994437064845 0.0105286380603538 -0.0120337831007425 0.01779622 -0.5337511 0.8454543 140 140 140
-0.0131780105448416 0.0101752991956465 -0.0129923064950349 0.01344446 -0.5416494 0.840497 139 139 139
-0.0123047717973053 0.010653069829567 -0.0125502047516985 0.01976307 -0.5371455 0.843258 169 169 169
-0.01409689110375 0.0122309253022723 -0.0115434636153358 0.01380518 -0.5290097 0.8485035 230 230 230
-0.013971965240253 0.0142779281477976 -0.0101378484450629 0.01129134 -0.5238144 0.8517576 222 222 222
-0.0119650494031145 0.0126205095718634 -0.011157482081822 0.00304028 -0.5283141 0.8490435 206 206 206
-0.0107282155226169 0.0113239274190406 -0.0120769617875555 0.01724769 -0.5372549 0.8432436 153 153 153
-0.00762764578933894 0.0110566098559055 -0.01193642929824 0.007462298 -0.528661 0.8488002 145 145 145
-0.0165090254884626 0.0171786670235787 -0.00845408347483578 0.01095232 -0.5365078 0.8438243 135 135 135
-0.0171751424744027 0.0175706047251929 -0.00844755803712061 0.01128137 -0.5342291 0.8452644 142 142 142
-0.0163528383730067 0.018162984258576 -0.00766046318018776 0.01121517 -0.5333029 0.84585 149 149 149
-0.0163112910838281 0.0202733969693214 -0.00635113649162189 0.01448588 -0.5307996 0.8473736 154 154 154
-0.0134044901655201 0.015529595167928 -0.0091951990264616 0.001004817 -0.5261314 0.8504027 166 166 166
-0.0141218355434545 0.0183700778679496 -0.00726791776031888 0.008355713 -0.5398424 0.8417246 152 152 152
-0.0119026676734457 0.0151014643099914 -0.00935653795027724 -0.001028249 -0.5289471 0.8486542 211 211 211
-0.00958032479165638 0.0181465546377346 -0.0068950051316139 0.02416606 -0.5392001 0.8418309 143 143 143
-0.0150090923537229 0.0202118331761039 -0.0061720793287211 0.01746479 -0.5313183 0.8469923 140 140 140
-0.0132239543094594 0.0198061909443821 -0.00610639301783156 0.01604756 -0.5336543 0.8455505 139 139 139
-0.0166444169361259 0.0230697947217016 -0.00428174593840602 0.02215397 -0.5316397 0.8466808 173 173 173
-0.0314375840738377 0.0125982800554281 0.00906811349216552 0.4370064 0.7870527 0.4354004 33 33 33
0.00188366504984638 0.0380939990458835 0.0309160236769483 -0.3426962 0.8256027 0.4482628 45 45 45
-0.030312307868412 0.0158173365814638 0.00872212042263032 0.3966303 0.7994092 0.4512531 35 35 35
-0.0299265613123945 0.0148950749687486 0.0155871215154181 0.3730888 0.7622439 0.5289509 29 29 29
-0.0287806528426822 0.0162028776470782 0.0167243568734258 0.3800411 0.7649301 0.5200487 36 36 36
-0.0276236187255066 0.0205374583845126 0.0144646467464586 0.3127961 0.8002009 0.5117003 44 44 44
-0.0280021998247058 0.0189655075808817 0.0151372879039402 0.3378869 0.7911392 0.5098345 36 36 36
-0.0305418966702005 0.0170798932593443 0.00690965904627838 0.3840908 0.8053775 0.4514878 44 44 44
-0.0300101728367124 0.0173205481237944 0.0082091856665254 0.3868511 0.7909113 0.4741367 42 42 42
-0.0294792689598617 0.0185355756829333 0.00985259691070783 0.4095341 0.7728891 0.4846898 40 40 40
-0.0295647929440976 0.01871417344787 0.00371469330851015 0.3309644 0.803236 0.495252 44 44 44
-0.0280901446884774 0.0198924043179041 0.0061457378648283 0.3022042 0.7621489 0.5725397 23 23 23
-0.0266270597134797 0.0220520144743723 0.0155691968885455 0.2657616 0.7973704 0.5418221 41 41 41
-0.0252974622627085 0.0211883027246775 0.0159221305185809 0.2692341 0.8004709 0.5354992 22 22 22
-0.0259312380858863 0.0233424587565456 -0.00530067803851719 0.008665493 -0.5256044 0.850685 115 115 115
-0.0269046784111757 0.0235027320770664 0.0067123559657889 0.2704067 0.7253761 0.6330164 47 47 47
-0.0242358218627838 0.0251055717253039 0.00545623861162592 0.2211439 0.5389091 0.8128175 46 46 46
-0.0235191385052829 0.0262897795498001 0.00493338572718882 0.2052123 0.4679169 0.8596172 54 54 54
-0.0238447011036704 0.0265937431778474 0.00450257964382272 0.2052123 0.4679169 0.8596172 59 59 59
-0.0243863889661233 0.0257767791873043 0.00710994567885048 0.1874706 0.5982584 0.7790645 53 53 53
-0.0241692330958403 0.0251387902354352 0.0104464943057163 0.1925318 0.7128922 0.6743265 36 36 36
-0.021872213595977 0.0285505035699227 0.00823517503733284 0.112748 0.575179 0.8102203 53 53 53
-0.0214705031479319 0.0256286606787353 -0.00294459317288243 0.01028672 -0.5294253 0.8482942 131 131 131
-0.0202858174640042 0.0244143932131342 -0.00384107574991888 0.0159959 -0.5277377 0.8492568 132 132 132
-0.0197169643252948 0.029138389624894 0.00460188515943771 0.1218728 0.326139 0.9374329 56 56 56
-0.0195986032375397 0.0299201530760216 0.00596147626446453 0.09009354 0.4133745 0.9060931 66 66 66
-0.0191973706153798 0.0291929969722287 0.00694485427411262 0.09115569 0.4472963 0.8897284 52 52 52
-0.020291468639839 0.0286158953631224 0.00357465726716499 0.0662094 0.3085369 0.9489053 46 46 46
-0.0220127750703529 0.0282606432603245 0.0134764597479523 0.08002655 0.7143986 0.6951477 38 38 38
-0.0206874291429555 0.0287326156609176 0.0131351348014109 0.0700141 0.7006289 0.7100825 32 32 32
-0.0204305654700216 0.0294800233164287 0.00847911535756274 0.07884929 0.5400199 0.8379506 39 39 39
-0.0173235452703662 0.0251986673539895 -0.00294373254525881 0.0188404 -0.5232635 0.8519626 148 148 148
-0.018105603384043 0.0263296542007982 -0.00236081735057092 0.01295379 -0.5242506 0.8514655 155 155 155
-0.0157314791954046 0.0246861921698989 -0.00294752100475193 0.0153722 -0.5258688 0.8504268 177 177 177
-0.0148515521759498 0.0270381424338457 -0.00148056557863907 0.01078567 -0.5302107 0.8477973 164 164 164
-0.0162327107079121 0.0286692714495982 -0.000286655076645936 0.05248862 -0.3258349 0.9439685 172 172 172
-0.0153713198150249 0.0287693768809121 -0.000370436436547439 0.03566538 -0.4341217 0.900148 160 160 160
-0.0136036881519237 0.0268142303469052 -0.00147609425381878 0.004793558 -0.5312053 0.8472296 155 155 155
-0.0121425617771787 0.0288376681683877 0.000295995807908733 0.01522621 -0.5327349 0.8461452 165 165 165
-0.0153740273546683 0.0296004328307184 0.000393973947056536 0.0682935 -0.3242976 0.9434866 155 155 155
-0.0162493300550128 0.0305749019178054 0.000933827439732693 0.09665193 -0.06150774 0.993416 204 204 204
-0.0141399329367382 0.0306288161843411 0.00107666496719749 0.05778692 -0.4083565 0.9109915 161 161 161
-0.0140070968653669 0.0323759348961006 0.00246988550894867 0.1259 -0.2839744 0.9505302 160 160 160
-0.0128469595299494 0.0326279445986835 0.00303379354005118 0.0246953 -0.5344998 0.8448077 122 122 122
-0.0126301747545756 0.0329179350363817 0.00283591662738025 0.0246953 -0.5344998 0.8448077 112 112 112
-0.00165260829955827 -0.0113206379476376 -0.0267535754166518 0.02427539 -0.5395458 0.8416062 216 216 216
-0.000904522606399727 -0.00838639055788226 -0.0244414850052695 0.01357053 -0.5302975 0.847703 177 177 177
-0.00264674030134726 -0.00777112783356948 -0.0242457126391966 0.01017521 -0.5333776 0.845816 158 158 158
-0.00358820872942722 -0.00358815035166282 -0.021301830526815 0.01374841 -0.5389104 0.8422509 134 134 134
1.25719486898657E-05 -0.0115180173785492 -0.0266306333912837 0.01968712 -0.539658 0.8416541 226 226 226
-0.000375933032874087 -0.00934230494196098 -0.0249763306957996 0.01463399 -0.5309105 0.8473015 217 217 217
0.00211522562921629 -0.0109202820118066 -0.0256628515208783 0.02183765 -0.5390613 0.8419834 228 228 228
0.0029572770455697 -0.00956237079482847 -0.0248482759270238 0.009573071 -0.5435568 0.8393178 223 223 223
0.0033879720841874 -0.00864694607851635 -0.0241661500891247 0.01188741 -0.5385302 0.8425224 212 212 212
0.00309529549150778 -0.00799138892756912 -0.0236476493314107 0.01426194 -0.5383327 0.8426117 202 202 202
-0.00167672853334433 -0.00686540608081909 -0.023591763580816 0.01036582 -0.5312875 0.8471282 174 174 174
5.80526281339644E-05 -0.00556168920489264 -0.0224125686289254 0.01863793 -0.5242991 0.8513302 142 142 142
0.000671256177016577 -0.00280536486830552 -0.0202626046383986 0.01191655 -0.5324298 0.8463903 203 203 203
0.0064379564680741 -0.0101612655836494 -0.0245115299850056 0.0217482 -0.535798 0.8440661 222 222 222
0.00496438806957733 -0.00907683047026375 -0.0245873652963549 0.0199871 -0.5395693 0.8417039 231 231 231
0.00831925055996763 -0.0112728151837207 -0.0252433462187145 0.02007779 -0.5302134 0.8476264 186 186 186
0.00952745555692713 -0.0108515104868405 -0.0249724839957576 0.01749175 -0.5296919 0.8480097 154 154 154
0.00745787162263989 -0.00921265371837765 -0.0240285174564453 0.02132423 -0.5332959 0.84566 166 166 166
0.00786716664763887 -0.00840395650850345 -0.0232959589746149 0.01331597 -0.5398793 0.8416371 195 195 195
0.00744628928529756 -0.00782893978323185 -0.0228233327814059 0.01455513 -0.5385953 0.8424389 226 226 226
0.00275058239227177 -0.00430225482200974 -0.0211700815502104 0.01375729 -0.5224915 0.8525335 121 121 121
0.00630237803692113 -0.00587652433989927 -0.0217756097257787 0.01613859 -0.5326549 0.8461787 219 219 219
0.00560646334518711 -0.00332981780491637 -0.0200983688390562 0.02239737 -0.5333117 0.8456222 226 226 226
0.00704582009195254 -0.00536443060457947 -0.0214017831854947 0.007451884 -0.5375013 0.8432299 223 223 223
0.00641679439293874 -0.0041777920042112 -0.0206860347180132 0.01369394 -0.5325128 0.8463112 214 214 214
0.00689643176179899 -0.00340872360017208 -0.0201166990842068 0.01628877 -0.5380624 0.8427476 222 222 222
0.00859778797341293 -0.00390491939122661 -0.0201489875879141 0.007304335 -0.5365618 0.8438294 190 190 190
-0.00284441487088327 -0.00189678282405126 -0.0201105075165801 0.01108116 -0.5335917 0.8456696 198 198 198
-0.00498361655555279 0.00367703091405325 -0.0165537817310977 0.00503327 -0.5258704 0.8505498 160 160 160
-0.00566899418308497 0.00509760899890122 -0.0156126839207855 0.01135844 -0.5261624 0.8503083 167 167 167
-0.00286901356885472 0.000309721562232301 -0.018584410355033 0.01011186 -0.5332379 0.8459049 223 223 223
0.000118149731900719 -0.00148845613462711 -0.0195798656117541 0.0145581 -0.5404456 0.841253 215 215 215
-0.000513675852678919 -5.43177736753719E-05 -0.0185518324217069 0.01578128 -0.5368509 0.8435295 219 219 219
-0.000806256473279365 0.00173837713899139 -0.0173992453709996 0.006315817 -0.5281772 0.8491107 200 200 200
0.00133739001795297 -0.00062504044110212 -0.0185444577388119 0.02009014 -0.5361186 0.8439035 220 220 220
0.00193817013847353 -3.66914168459243E-05 -0.0181350746780394 0.02651563 -0.5305322 0.84725 213 213 213
-0.0033533187508421 0.00421213525037301 -0.0157347358185528 0.001687323 -0.5294586 0.8483341 134 134 134
0.000673087659067484 0.00359800298400748 -0.0158270056685369 0.008529787 -0.5295984 0.8482056 215 215 215
-0.00238701084127069 0.00516674386702665 -0.0147854190020046 0.01143868 -0.5287782 0.848683 140 140 140
0.00264025185492844 -0.00266713399909713 -0.0201297990412178 0.01904708 -0.5278048 0.8491521 225 225 225
0.00489258599142772 0.000624928091153443 -0.0174260832682965 0.006041787 -0.5320885 0.8466672 126 126 126
0.007517342012058 -0.00095672064326302 -0.0181233694107364 0.008834179 -0.5304394 0.8476768 167 167 167
0.00136545385904907 0.00488507064421628 -0.014771661620314 0.0112635 -0.5294728 0.8482522 206 206 206
0.00318973891742202 0.00357710190376137 -0.0154742021535099 0.01037736 -0.5264394 0.8501493 203 203 203
0.00518447988186521 0.00301393539895001 -0.0157994772064733 0.005793925 -0.5324128 0.8464651 146 146 146
0.00545912455767938 0.00355771283224215 -0.015207831543339 0.001460298 -0.5329781 0.8461278 170 170 170
0.00659165062902889 0.00592367590902154 -0.0134456592898045 0.01718572 -0.5279476 0.849103 154 154 154
0.00666389233251818 0.00746820509847446 -0.0124949662835327 0.02168691 -0.5336723 0.8454133 118 118 118
0.00840008896478905 0.00274515603985792 -0.015350271266184 0.007739949 -0.5313434 0.8471212 138 138 138
0.0109814292715977 -0.00832959967101066 -0.0231710959949041 0.01600493 -0.5321481 0.8465 120 120 120
0.0147118252052445 -0.0106364534796581 -0.0241905803539505 0.00196063 -0.536422 0.8439476 185 185 185
0.0147223563600609 -0.00820365490909913 -0.0223348447778663 0.008399844 -0.5410071 0.8409761 185 185 185
0.0161464493553904 -0.00957855729353163 -0.0230728358455738 0.006994542 -0.527323 0.8496361 151 151 151
0.0103436096871317 -0.00525427172532877 -0.0208159199453648 0.01592447 -0.5325168 0.8462696 190 190 190
0.012053239643524 -0.00666154805562469 -0.0215315015265449 0.01213671 -0.5330487 0.8459975 202 202 202
0.0098233769482754 -0.00362035005297079 -0.0198721769993994 0.01749134 -0.5361666 0.8439309 139 139 139
0.0118087961899609 -0.00233820873759627 -0.018657549563131 0.009083387 -0.5354692 0.8445059 145 145 145
0.0143964693583576 -0.00380207223119799 -0.0193595228516192 0.006671441 -0.5395753 0.8419109 147 147 147
0.0153735336132486 -0.00348306572300827 -0.0195069790430674 0.01108223 -0.5374043 0.8432519 144 144 144
0.0175383851449511 -0.00834102076074306 -0.0219107187069526 0.009599146 -0.532464 0.8463982 137 137 137
0.0210413277546582 -0.00988819908102734 -0.0232453422631034 0.008835696 -0.5290365 0.8485531 163 163 163
0.0217876036493756 -0.00594540497085494 -0.0197500043088541 0.01335315 -0.5245799 0.8512565 180 180 180
0.0170584154341749 -0.00459061327670085 -0.0196535267574781 0.008669957 -0.5333582 0.8458451 202 202 202
0.01797685052971 -0.00594037219724419 -0.0201900380980214 0.01176319 -0.5342328 0.8452556 205 205 205
0.0173770951351988 -0.00156307051539839 -0.0173124840867065 0.009966241 -0.5386722 0.8424565 131 131 131
0.0196393863499498 -0.00475251036359436 -0.0191079196743574 0.006679771 -0.5335294 0.8457552 220 220 220
0.0198356070934456 -0.00275244961485988 -0.0178953931537765 0.01173936 -0.5358644 0.8442224 226 226 226
0.0233325412444032 -0.00943460763199044 -0.0221405721685221 0.001237163 -0.5429829 0.8397428 159 159 159
0.0224533042440374 -0.00738814658215881 -0.0208084034620927 0.01321437 -0.531752 0.846797 164 164 164
0.0212190995146628 -0.0048821865448101 -0.0191159297560707 0.007885809 -0.5335302 0.8457443 221 221 221
0.0207320793684349 -0.0024694870708013 -0.017748705053648 0.01213512 -0.5338561 0.8454883 225 225 225
0.00929896783979212 -0.0002651702084977 -0.0174195734913728 0.01151904 -0.5339221 0.8454552 164 164 164
0.0107431316808406 0.000287875425531103 -0.0168827462736038 0.002123491 -0.5308078 0.8474896 191 191 191
0.00971681854299344 0.00210620262074146 -0.0155248320432019 0.01005043 -0.5260231 0.8504109 122 122 122
0.014296583970814 -0.0014543152264308 -0.0175367882106351 0.008990355 -0.5328082 0.8461882 156 156 156
0.0132768102376166 0.000293282786772986 -0.0165637742806114 0.004545437 -0.5333868 0.8458592 142 142 142
0.0132629703023266 0.00162962639160646 -0.0156582659651427 0.007709998 -0.5343769 0.8452111 154 154 154
0.0142724127530238 0.0014187808695556 -0.0159848622733385 0.01477392 -0.5306574 0.8474576 152 152 152
0.0140548526321633 0.00268615599822097 -0.015003782488299 0.02232983 -0.532432 0.8461782 119 119 119
0.0126999371133434 0.00364455474485514 -0.0142739275573673 0.01170735 -0.5290421 0.8485149 184 184 184
0.010659152714648 0.00580348493924387 -0.0129918471483135 0.01896931 -0.5349064 0.8446984 129 129 129
0.0122402505965484 0.00644504054821371 -0.0124182159758792 0.01321029 -0.5395768 0.8418328 170 170 170
0.0131524735027231 0.00525151938285973 -0.0131643834612016 0.01595906 -0.5254697 0.8506626 197 197 197
0.0176976367338886 -0.000505532937396413 -0.0164086029355146 0.01054749 -0.538166 0.8427728 174 174 174
0.0189577765472404 -0.00130364826482543 -0.016794858063478 0.0120672 -0.5371546 0.8433975 163 163 163
0.0207951321618722 -0.000801581118420547 -0.0163986032725217 0.01742554 -0.5405621 0.8411236 159 159 159
0.0140798743845019 0.00477775255218971 -0.0132879842246361 0.01722561 -0.5283101 0.8488768 205 205 205
0.0163078137101775 0.00490892490394135 -0.0128919489743469 0.008386645 -0.5268025 0.8499463 157 157 157
0.0143536263189121 0.00694413064458099 -0.011929076431108 0.003608034 -0.5360823 0.844158 218 218 218
0.0181049641958455 0.0047431185021094 -0.0130184114767057 0.00858223 -0.5273861 0.8495824 129 129 129
0.0202782030167823 0.000795828043151925 -0.0153083366133311 0.0137186 -0.5398262 0.8416647 191 191 191
0.0189072329184257 0.00455435178706254 -0.0127906421645042 0.005600843 -0.5279365 0.8492654 125 125 125
-0.00444591515303072 0.00993767377026322 -0.0120776593099001 0.01473813 -0.5394772 0.8418712 126 126 126
-0.00233908654860882 0.00848878810361953 -0.0127463473857993 0.01438924 -0.5440671 0.8389183 143 143 143
-0.00164745857907045 0.00736418544210404 -0.0133970094695143 0.004710248 -0.5322811 0.8465546 137 137 137
-0.00369705714967772 0.0103672054026318 -0.011454467527537 0.01798324 -0.5389283 0.8421597 126 126 126
-0.00269765011415712 0.011670053417558 -0.0109353819310403 0.01041437 -0.5366594 0.8437347 112 112 112
-0.0013674992391477 0.0109097519408343 -0.0108200595872399 0.00595564 -0.5396968 0.8418384 181 181 181
-0.00287604094398031 0.0133244244897379 -0.00924808248893694 0.008876453 -0.5288484 0.8486699 117 117 117
-0.00451246667605987 0.0143985846448216 -0.00882916617492246 0.01588018 -0.5317804 0.8467334 228 228 228
-0.00321473977558218 0.0146388768454182 -0.00868749150983938 0.02010487 -0.5311699 0.8470268 209 209 209
-0.000542313225327273 0.00983298211989592 -0.0117166000175568 0.01735696 -0.5388393 0.8422297 169 169 169
0.00276577913988474 0.00887714619109237 -0.011929960440288 0.01432197 -0.5361874 0.8439775 208 208 208
0.00182602161980139 0.0106571264073507 -0.0107248356285222 0.01846674 -0.5336056 0.8455318 209 209 209
0.00227385782091694 0.0116004828120926 -0.0101542565112881 0.01601206 -0.5364152 0.8438023 211 211 211
0.00345833127915096 0.0104003563648212 -0.0105511359514475 0.01162572 -0.5364334 0.8438626 213 213 213
0.00559154801512096 0.0106233652844914 -0.0104077117768735 0.01639807 -0.532795 0.8460854 179 179 179
0.000961541431565571 0.0131706734320658 -0.00915101939204177 0.01462009 -0.5370346 0.8434335 220 220 220
0.000892021945152255 0.0150255148814753 -0.00793381669281001 0.02037457 -0.5350961 0.8445454 209 209 209
0.00316004076424314 0.0138808154720658 -0.00823742984017661 0.02853463 -0.5355449 0.8440245 188 188 188
-0.00836258788556732 0.0155469916305615 -0.00824668273159368 0.01084479 -0.531045 0.8472742 191 191 191
