ply
format ascii 1.0
comment File exported by Rhinoceros Version 7.0
element vertex 472
property float x
property float y
property float z
property float nx
property float ny
property float nz
property uchar red
property uchar green
property uchar blue
end_header
0.0134763463886474 0.049412922178631 0.0191361352984172 0.9291497 -0.1287809 0.346549 80 84 42
0.0143421634586547 0.0492952626098444 0.0186220452372295 0.9257339 -0.1279326 0.3558791 116 113 89
0.015216205969641 0.0524833362449457 0.017893736082719 0.941442 -0.181326 0.2842671 106 106 68
0.0147018178852294 0.0535028736938288 0.0190075978819591 0.9335637 -0.2186883 0.2839616 114 113 91
0.00224742735941152 0.0570392172683527 0.011274729687379 -0.8707618 0.4294559 0.2394608 175 173 169
0.00157115305978994 0.0544644754279902 0.0137381300513011 -0.8920699 0.3819769 0.2414643 175 173 167
0.00233826483804922 0.0566156666625788 0.0137809559885723 -0.8644868 0.4330311 0.2552385 172 176 160
0.00390050257761221 0.0608124893058588 0.010589276272462 -0.8837592 0.3936221 0.253044 169 164 169
0.00455400790292959 0.0612782400001337 0.0132754191939098 -0.87515 0.3912368 0.2846861 143 144 151
0.00477049197275381 0.0630345504630854 0.0139094934050304 -0.8901973 0.3466751 0.2955759 150 145 149
0.00204679812509756 0.0537215035308649 0.0158373460356456 -0.8926253 0.3663199 0.2627353 199 201 209
0.00168344821054678 0.0547289412368586 0.0154089376513225 -0.8873013 0.3802769 0.2609325 186 197 195
0.00189444865305166 0.0534114997733881 0.0165656551901561 -0.8900966 0.3737966 0.2607761 175 174 178
0.00288615073282461 0.0560918014396479 0.0152804002348644 -0.866047 0.4260099 0.2616834 176 176 167
0.00300369109232168 0.0569576781143 0.0145949468199474 -0.8665699 0.4333765 0.2474699 168 172 167
0.00458714808542471 0.0570350449432184 0.0196502551619274 -0.8523698 0.4459235 0.2731627 145 156 145
0.0044643625171874 0.0596887033332636 0.0149376735274059 -0.8480325 0.4374866 0.2990758 132 125 121
0.00477835978586416 0.0587854545463373 0.016437117773698 -0.8506575 0.427273 0.3062999 167 177 183
0.00627848948557119 0.0595086973060419 0.0175224289480907 -0.8827556 0.3769246 0.2804826 163 166 165
0.00683078612405996 0.0613174002517511 0.0188576623980266 -0.8791935 0.3796217 0.2879343 159 168 162
0.00680682505686026 0.0627324145187189 0.0181079551760417 -0.8757067 0.3700802 0.3101264 178 173 176
0.017907594099829 0.0564717214454462 0.0105250224653942 0.9092631 -0.1458927 0.3898152 75 78 39
0.0171605094822143 0.054686621939068 0.0129669651571971 0.9285651 -0.1759142 0.3268347 120 118 97
0.0174318298252318 0.0561844270576288 0.0120672926489574 0.9351177 -0.161944 0.315165 109 114 68
0.0169071897419188 0.0561087887634089 0.013495360333131 0.9419916 -0.1715163 0.2885031 90 92 51
0.0164537176044677 0.0553507368911554 0.0145092651430828 0.9475144 -0.158054 0.2779124 106 111 80
0.0176191076191161 0.0586857955802729 0.0133096918646556 0.9367309 -0.2312846 0.2627597 97 96 64
0.0190516456516479 0.0611789982665827 0.00936827512423816 0.9149224 -0.2287496 0.3325516 114 129 90
0.0168843015583251 0.0601422946800043 0.0144664094034893 0.9369001 -0.1388661 0.3208338 78 81 23
0.0179359659107421 0.0622039597381403 0.0137167021815044 0.9023632 -0.1868208 0.3883795 109 105 84
0.0178848251255248 0.0638247292388727 0.0152089938704235 0.9208942 -0.1711203 0.3502452 111 106 78
0.015716169730017 0.0568499725211908 0.0180650994364482 0.9588451 -0.1894763 0.2114588 100 96 73
0.0153246864231322 0.0565894406188776 0.0193931803290111 0.9381586 -0.2695506 0.2172577 112 111 77
0.0165354951770995 0.0595410030235102 0.017401073891328 0.9696562 -0.1247541 0.2102456 76 76 36
0.0222656473072265 0.0468281667579462 0.000200216490433835 0.9014621 -0.07106903 0.4269839 98 96 77
0.0227228149326537 0.0501619141448786 -0.00102075485546765 0.8674219 -0.07346556 0.4921199 115 111 87
0.0235621675403808 0.0542492430557062 -0.000913675111128665 0.8425351 -0.05815657 0.5354926 96 92 64
0.0228086456211303 0.0553182523597529 0.000500117260621213 0.8855201 -0.1199625 0.4488464 118 115 94
0.0232804759891723 0.0584168594230463 -1.40026028889184E-05 0.8886813 -0.1198582 0.4425829 107 105 81
0.0216542228611205 0.0573066037048151 0.00234228821437182 0.9068547 -0.1337961 0.3996413 70 73 0
0.0242066129596923 0.0604278009284784 -0.00106361059506116 0.8957208 -0.05575474 0.4411073 94 93 61
0.0218317254932616 0.0604225557197382 0.00312769861857715 0.8916667 -0.07862671 0.445812 97 95 56
0.0220434411915038 0.0624174635757258 0.0031777069155437 0.8926129 -0.1777214 0.4143155 114 118 80
0.0272299989612792 0.0762841265548517 -0.0112598791535634 0.08400971 0.9963853 0.01259754 118 120 104
-5.10469524170887E-05 0.066925780092602 -0.0144230082448262 -0.8823698 0.357268 0.3062402 154 163 161
0.00129959429819326 0.0698145788062861 -0.0139374688084858 -0.8474158 0.4193827 0.3255835 151 147 145
0.00150546874124746 0.0713297884811213 -0.0133376970704335 -0.8195357 0.4687924 0.3295373 151 157 137
0.00196907366831045 0.0721528690208246 -0.0146443500931996 -0.782107 0.53789 0.3146158 166 164 167
-0.0310570255367066 -0.0371141571651648 0.0277186975065929 -0.8913866 0.2661026 0.366905 147 147 141
0.00279888953287344 0.0726124804366877 -0.0137661054547566 -0.7187589 0.6328681 0.2878603 145 150 146
0.00468299235422354 0.0740607540954401 -0.0133376970704335 -0.485947 0.8571724 0.1706192 142 152 135
0.0131287321003173 0.0753750365127375 -0.0149656787331837 -0.1725578 0.9723592 0.1572938 116 115 85
0.0195388540180419 0.0753746788848688 -0.0144087329324025 -0.03254812 0.9987938 0.03676268 71 77 23
0.0203258737476562 0.076174990450268 -0.0160152569230336 0.006272618 0.9999555 -0.007046215 79 86 53
0.0174544795902465 0.0764463703979303 -0.0153940871175068 -0.08484101 0.992726 0.08542367 141 135 127
0.0184672817142699 0.0767242472518732 -0.0135947421010273 -0.08146729 0.9942864 0.06897563 125 119 124
0.000283692732641505 0.0640850227226069 -0.011538352053954 -0.8853939 0.3614873 0.2922408 176 179 179
0.0011604770572875 0.0686039488662531 -0.0127378955300587 -0.8613487 0.3910138 0.3243249 170 174 174
0.00245127524454336 0.0688992302764704 -0.0114098146374959 -0.841374 0.4343567 0.321596 179 182 185
0.0010987266453002 0.0640930693496515 -0.00746839789707837 -0.8875271 0.3988533 0.2306764 173 185 185
0.00332782115061026 0.0691828887809565 -0.00858228949864087 -0.8478231 0.447913 0.2838483 177 175 173
0.00930354441721182 0.0743063252319147 -0.0121809497292775 -0.1877871 0.9773871 0.0972131 97 106 84
0.00184044684488516 0.0649334352363398 -0.00607606319744763 -0.8919473 0.4006481 0.2095496 193 196 196
0.00242433394510488 0.0648626249183466 -0.00528350023586927 -0.8858867 0.4085036 0.2198398 182 183 179
0.00438020075876455 0.0695604842056086 -0.00668012646992383 -0.8899674 0.393921 0.2297483 165 168 169
0.00411615218240957 0.0687027137626459 -0.00408392695744214 -0.9071344 0.3729548 0.1949666 196 196 203
0.00402519549448233 0.0674092333663752 -0.00254162697155652 -0.8947347 0.4060913 0.1858483 194 193 196
0.00434622611124258 0.072580293928509 -0.00695430783589063 -0.7382978 0.657213 0.1516165 183 182 179
0.00494215334970693 0.0733472268928339 -0.0072113528664845 -0.7011163 0.6928054 0.1686908 168 160 166
0.009529326811621 0.0737838905204584 -0.00637593416531262 -0.2426383 0.9692451 -0.04111613 94 93 54
0.00637457217294912 0.073093251501446 -0.00412678269703565 -0.7397979 0.6679122 0.08119374 167 167 161
0.00735816802103262 0.0745282929290583 -0.00429814605076489 -0.4417202 0.8971514 -0.001664391 106 118 100
0.0103083595188354 0.0733388822425654 -0.0113669887002247 -0.1925292 0.9758767 0.1029428 107 96 86
0.0110512718113158 0.073814527307873 -0.0114954963143605 -0.1667511 0.9798238 0.1101794 58 64 0
0.0136613592060302 0.0753224652160456 -0.0108100428994435 -0.1909933 0.9708855 0.1445787 92 94 61
-0.0259651199428346 -0.0343924004684637 0.0336058482710582 -0.4034691 0.1154298 0.9076831 180 181 177
0.0128603919895385 0.0730260770667841 -0.00931059865315137 -0.1738199 0.9820916 0.07268202 62 78 0
0.015698645964453 0.0750061433662226 -0.0117097154076832 -0.1637875 0.9768731 0.1374502 62 68 0
0.0190711959751342 0.0749591749061396 -0.0113669887002247 -0.09667075 0.9898791 0.103895 70 70 8
0.0154927715213988 0.0741776388038446 -0.00982468871433911 -0.1826814 0.9706213 0.1565941 64 70 23
0.0189175352009032 0.0757007162917902 -0.010081733744933 -0.09667075 0.9898791 0.103895 122 121 107
0.0179835304172729 0.0755351345886042 -0.00939628033001599 -0.1549563 0.9794242 0.1292937 122 118 108
0.0188880905063842 0.0747974675048639 -0.00879647878964124 -0.1105622 0.9877401 0.1102068 108 111 73
0.0181892856510375 0.0746464889396479 -0.008325244468047 -0.1054048 0.9837158 0.1455783 59 69 14
0.00973377074320059 0.0736035268653681 -0.00297006515820203 -0.2698947 0.9620357 -0.04054973 64 66 18
0.0140256627948974 0.0743007223953058 -0.00446947960217176 -0.1227133 0.9924142 0.007446828 89 95 40
0.0194960578830932 0.0753719966758539 -0.006868626159026 -0.1297107 0.985146 0.1125273 98 108 77
0.0197428211124633 0.0744001429427912 -0.00521209387142835 -0.08996722 0.9930162 0.07631899 84 85 47
0.0187852128895019 0.074383215223675 -0.00254162697155652 -0.09074233 0.995529 0.02622735 64 70 23
0.0173662647159789 0.0761404197562983 -0.0120952680524128 -0.133693 0.9834533 0.1222531 114 118 96
0.029236529722998 0.0685541789878656 -0.0133376970704335 0.7703761 0.08127867 0.6323879 122 115 87
0.0240337594898437 0.0745392601836969 -0.0168292477544087 0.1157528 0.9927375 0.0327662 107 110 85
0.0260539993198607 0.0744937222350885 -0.0168292775567311 0.1424859 0.9896517 -0.01694584 127 120 98
0.0211275562198852 0.0750231902946283 -0.0142159119065541 -0.007406854 0.999972 0.001008982 115 113 92
0.0236712440403197 0.0747312467445185 -0.0130663469250935 0.09577239 0.9932806 0.06497052 79 79 29
0.0278765901478026 0.0745216768134882 -0.0140231504853505 0.2226635 0.9734616 0.05285405 70 75 16
0.0315779193790648 0.075740055357342 -0.0156082764085072 0.4504657 0.8927834 0.004290213 172 167 146
0.0340960964115355 0.0660031001914789 -0.0168078198846119 0.8541657 -0.130328 0.503404 118 113 90
0.0341722711475585 0.0671882789481928 -0.0167221680100697 0.8724437 -0.1210146 0.4734949 114 112 83
0.0354124053867553 0.069326059137707 -0.0170648947175282 0.8846563 -0.003052613 0.4662339 150 148 129
0.032424662962744 0.0683669011939814 -0.0137232497151631 0.8910039 -0.0902995 0.4449247 101 100 68
0.033949230566809 0.0693850081313898 -0.0142801955159443 0.8954826 -0.07102668 0.4393929 90 88 55
0.0346188291462157 0.0717232983459284 -0.0156939580853718 0.8929456 0.2183029 0.3936902 94 97 58
0.0315724357517455 0.0737651150573542 -0.0164222672398823 0.6241542 0.7790278 0.05955839 73 71 23
0.0356718048008178 0.0720465343345453 -0.0151798680241841 0.9230191 0.1342368 0.3605777 121 119 84
0.0296265825184081 0.0671190779556086 -0.0116240337308186 0.7966807 -0.2516954 0.5494992 94 94 53
0.0310055955799315 0.06840707472456 -0.010467316191985 0.8261581 -0.2347665 0.5121987 87 90 50
0.0302533849628661 0.0691113036025812 -0.00834664253552136 0.9140138 -0.2482987 0.3208215 97 100 75
0.0266874774845336 0.0756922524322321 -0.0127378955300587 0.0521264 0.9976793 -0.04380524 115 116 109
0.0271177038105224 0.0749893944610407 -0.0121809497292775 0.08629782 0.9954177 -0.04118706 58 64 0
0.0286116346271728 0.0758124153960993 -0.00991037039120374 0.1971435 0.9794965 0.04148494 108 102 73
0.0277029022129271 0.0752405684341242 -0.00918206123669324 0.2146774 0.975886 0.03949687 167 160 141
0.0294306024463866 0.075069443498974 -0.00879647878964124 0.5017673 0.8420585 0.197907 70 71 22
0.0312611802967284 0.0749690692771723 -0.010081733744933 0.6818208 0.7069157 0.1881241 80 87 49
0.0315938934238646 0.0747966926444819 -0.00916066316921887 0.7541445 0.6038663 0.2580921 84 86 40
0.0232153877170775 0.0653022687782099 -0.00515496281941114 0.9024389 -0.106714 0.4173921 105 103 78
0.0250272497089599 0.0651578467239191 -0.00279867200215039 0.8582902 -0.2486742 0.4488865 124 118 96
0.0278405889423583 0.0686816137183954 -0.00488364247639356 0.8065112 -0.3288599 0.4913155 99 99 57
0.0299180492313598 0.0700132410873224 -0.00536918191273389 0.8607114 -0.2202782 0.45897 93 90 70
0.0301799520405028 0.0706305067886164 -0.00601177958805738 0.8696128 -0.1936316 0.454181 109 113 77
0.0265066369922851 0.0682764213432123 -0.00273441819508252 0.7996961 -0.3843508 0.4612598 121 122 89
0.0230797275455688 0.0743509095062067 -0.00468369869549451 0.07632113 0.9970096 0.0121189 83 86 45
0.0239481672199462 0.0741905134071161 -0.00665440706570325 -0.03973947 0.9991902 0.006302794 62 68 16
0.0253540023716186 0.0760811727393915 -0.00614031700451551 0.008871991 0.9978043 0.06563445 108 111 91
0.0216940387638305 0.0745434325088312 -0.00232740787823377 -0.08426955 0.994164 0.06735352 92 99 53
0.0260033353718017 0.0753061335433771 -0.00369834451039014 0.2618219 0.9540422 0.1457834 112 109 85
0.0299181684406493 0.073103861128216 -0.00443735269863782 0.8422375 0.1926413 0.503513 106 103 81
0.0298168405445312 0.075758890425091 -0.00545486358959851 0.4835251 0.8084177 0.3356551 108 122 108
0.0292232974918578 0.0708283942092707 -0.00361266283352552 0.8566353 0.03788315 0.5145298 105 108 70
0.0293889984043334 0.072298185144787 -0.00344129947979627 0.8558615 0.06027055 0.5136814 100 96 66
0.0321655019672606 0.0697672527183344 -0.00952478794415174 0.8930333 -0.2167822 0.3943312 89 87 55
0.0341993316562865 0.0729419153083612 -0.012609387915923 0.9137247 0.207396 0.3494197 135 132 71
0.0319653495701049 0.0736609261382868 -0.0104244604523915 0.8508901 0.4565556 0.2598903 113 113 60
0.0316712602527831 0.0728699128974726 -0.00699713377316175 0.9095905 0.05770495 0.4114792 98 96 73
0.030808304205725 0.076378778730755 -0.00828238872845349 0.4653558 0.873286 0.1442757 93 96 60
0.00325271929819326 0.0639699261535456 0.00238514395396533 -0.8993003 0.4010616 0.1743806 176 180 180
0.00365767325479727 0.0650469224799921 0.00322053285281482 -0.9063117 0.3911983 0.1598843 157 164 160
0.00482437457163076 0.0683605831016352 -0.00155627278645215 -0.9063524 0.3880991 0.1670461 172 172 173
0.00488850916940908 0.0687079589713862 0.000885669905350828 -0.9110464 0.3776775 0.1653906 176 170 169
0.00554308737833242 0.067160622393017 0.0029849156920177 -0.9251901 0.3612941 0.1161461 162 163 167
0.00588140334207754 0.0711952607978632 0.00162467809359851 -0.8461228 0.5131785 0.1439583 178 181 175
0.00718841399271231 0.0741527836669733 -0.000763739627196169 -0.5906969 0.802316 0.08582696 110 117 93
0.00792727316934805 0.0743491809715082 0.00071430655162158 -0.5228488 0.8517518 0.03388288 136 133 122
0.00638255919534902 0.0729649823058893 0.00127125235240283 -0.7915489 0.600575 0.1129605 190 189 201
0.00903901900369863 0.0748764436591913 0.00168538542430224 -0.2444745 0.9688256 -0.04011383 126 126 108
0.00455949153024893 0.0650388758529474 0.00709769578616443 -0.9388887 0.2998735 0.1690086 146 156 146
0.00554582919199209 0.0671178858627131 0.00756895991008105 -0.9072123 0.3680203 0.2037819 123 141 135
0.00609109248239736 0.0693840544570734 0.00418445916812243 -0.9197693 0.3836303 0.08277772 149 151 141
0.00700650061685781 0.0715659420837214 0.00519124122302356 -0.8168443 0.5682629 0.09920998 174 179 177
0.00652942504007559 0.0699265163291742 0.00542685838382068 -0.8946334 0.4297384 0.1222944 162 170 168
0.00729212607462149 0.0732936423171808 0.00505558105151477 -0.7285742 0.6839809 0.03673778 181 179 182
0.00448510493356924 0.0703568618644526 0.0077403232638103 -0.8954974 0.3955365 0.2040474 138 138 102
0.00725278700906973 0.0709446232665827 0.00711197109858813 -0.8484979 0.4959614 0.1845902 134 142 129
-0.00744226132314463 -0.0259815890442083 0.0325026855055553 -0.01557046 0.04723887 0.9987622 170 173 174
0.00812504138071279 0.0746190708030512 0.00709769578616443 -0.6271763 0.7707787 0.1120279 203 197 190
0.00904712523538809 0.074977115904217 0.00649792404811206 -0.4845192 0.8654409 0.1274878 114 138 116
0.00996372546274404 0.0750773113120844 -0.000335301440550662 -0.1537159 0.9872804 -0.04060507 120 121 100
0.0140015825184081 0.0739987652648737 -0.00142776517231641 -0.06387381 0.995681 -0.06737582 90 94 60
0.0100651725681518 0.0744826953758051 0.0029849156920177 -0.1843491 0.9748219 -0.12545 123 132 109
0.0101574405582641 0.0750678937782099 0.00313488097827258 -0.1808607 0.9762292 -0.1194402 119 122 100
0.0155648931415771 0.0740534227241327 0.00144261570613208 -0.07283026 0.9870706 -0.1427843 133 127 118
0.0162491544635985 0.0751263063300898 2.88531367045874E-05 -0.08682069 0.9940501 -0.06577681 113 113 98
0.0180154785068725 0.074335173879986 -0.00108503846485791 -0.05542219 0.998257 -0.02028378 60 70 0
0.0156773075016234 0.0753482144225885 0.00362754316966357 -0.02626589 0.9944436 -0.1019413 62 71 0
0.00844309176523428 0.0750252764571955 -5.68285401600366E-05 -0.3657381 0.9306968 -0.006251698 87 92 64
0.00898561324197988 0.0752737682212641 0.00846860261599841 -0.5189565 0.8356415 0.1799649 177 178 166
0.0110113366993163 0.075486079965954 0.00769746752421679 -0.3762529 0.9228691 0.08213656 88 94 57
0.00768468226511221 0.0690685670722773 0.0115246519629222 -0.8306117 0.4292335 0.3547432 167 171 169
0.0069968446644042 0.0665646355499079 0.0141236826960308 -0.8341026 0.3919653 0.3881188 176 176 174
0.00754210795480947 0.0688307445396235 0.0136952743117076 -0.8130597 0.4407673 0.3803395 155 163 156
0.00818369235117178 0.0716179769386103 0.0101822659556133 -0.7973406 0.5202025 0.3060022 135 139 138
0.00813529337961416 0.0665497939933588 0.0158802017752391 -0.8053443 0.4233066 0.4150085 170 173 167
0.00498208846170645 0.0706454079498102 0.0162657544199687 -0.8124428 0.4212299 0.4031155 129 122 90
0.00988457049448233 0.0698140423644831 0.016629908997224 -0.8603512 0.3476782 0.3727139 191 192 186
0.0118659480961059 0.0676412742484858 0.01429504604976 -0.5479008 0.4255196 0.7202346 100 107 0
0.0190840705784057 0.0682207506049921 0.0102251216952068 0.9333761 -0.2015287 0.296977 100 96 66
0.0203962072284911 0.0678304593910029 0.0107392117563945 0.9013782 -0.2441551 0.357639 70 75 16
0.0195437415989135 0.0677343767036249 0.0144235834662181 0.8614163 -0.2715822 0.4291912 94 94 48
0.0200128301532958 0.0698454540122797 0.0135667666975719 0.9426668 -0.01563108 0.3333693 102 92 69
0.0106557353885863 0.0739615123618891 0.010782067495988 -0.6390583 0.7404898 0.2080367 155 156 151
0.00995836104471426 0.0741325776923945 0.0114032373015148 -0.7137325 0.6530936 0.25309 173 166 171
0.0143437131794188 0.0747068684448053 0.0100965842787487 -0.1708286 0.9852718 -0.007558534 116 109 80
0.0105783685596679 0.0745147030700495 0.0130526468340618 -0.6566438 0.7044863 0.2692917 145 164 150
0.0173742517383788 0.0756687682021906 0.0110391125265819 0.3129141 0.9497043 0.012102 102 109 94
0.0131138309391234 0.0648432534087946 0.0167798444811565 0.109929 0.01752916 0.9937848 102 106 77
0.017547224417517 0.0646478693832209 0.0168655559603435 0.9441321 -0.1921797 0.267734 105 97 73
0.0183411582859252 0.0684318702567865 0.0169940635744792 0.8781243 -0.2973328 0.3748212 113 108 70
0.0115314468296264 0.0736870925773432 0.0167655691687328 -0.7521533 0.621931 0.2178699 148 155 144
0.0110484107883666 0.0704232614387323 0.0178080544058544 -0.8997087 0.2944599 0.3222074 176 176 177
0.00773176993448477 0.0453412096847345 0.0286148235384685 0.1842284 0.05671406 0.9812459 155 160 153
0.0109585269840453 0.0709470670570185 0.0179794177595836 -0.8574872 0.4067374 0.3150878 176 180 179
0.0195057138355468 0.0722390573371698 0.0169655129496318 0.9508483 0.2852699 0.1204511 89 89 66
-0.00805416260640879 -0.0244315702568243 0.0320742473189098 0.02179688 0.02907032 0.9993397 152 152 162
0.0197579606922362 0.074272290979748 0.0169298097674114 0.7565603 0.6495283 0.0756944 117 105 69
0.0135153278263305 0.0755995076049616 0.011467520910905 -0.2182643 0.9755552 0.02555005 98 112 70
0.0123529180439208 0.0763424795020868 0.0141665384356243 -0.393786 0.913802 0.09949148 148 140 143
0.0123742565067504 0.0760004084457209 0.0143807277266246 -0.449564 0.890233 0.07332998 134 138 133
0.0142769559772704 0.076462642465954 0.0134810552183849 -0.1609752 0.9861982 -0.03873176 111 113 97
0.0132174238117431 0.0762462180007746 0.0161158189360363 -0.4558289 0.8899184 0.01628571 179 182 166
0.0138494714649413 0.0764359395850946 0.0193717822615367 -0.5244388 0.8263032 0.2053947 172 175 160
0.0257436975391601 0.0694950383056452 0.00169966073672595 0.9273514 -0.141195 0.3465306 97 93 70
0.0245518430622313 0.0689913790572931 0.00324196072261157 0.9179235 -0.1821959 0.3524502 113 110 76
0.0250355943592284 0.0691504042495539 0.0025993332449657 0.9179235 -0.1821959 0.3524502 94 93 58
0.0205542787464355 0.0742361705650141 0.000243072230027341 0.1320361 0.9905936 0.03592749 84 89 50
0.0206291421802733 0.0750993650306513 -0.000442410987212039 -0.03091181 0.9990135 0.0318811 109 113 86
0.0234218582065795 0.0750590722907831 -0.000399555247618533 0.1089221 0.9816399 0.1565855 68 70 16
0.0258360847385619 0.0711105029929926 0.00127125235240283 0.8650659 0.08778761 0.4939174 107 102 73
0.0255818113239501 0.072775856768017 0.00341332407634082 0.9010706 0.3617829 0.2391337 115 118 86
0.0218450769336913 0.0748748343337824 0.00307059736888232 0.2530014 0.953832 0.1618481 68 75 0
0.0239830955417846 0.0756951134551813 0.00148547144572558 0.3505571 0.9212459 0.1685692 122 121 100
0.0273794874103759 0.0735463064063837 0.0026421889845592 0.9024047 0.1080623 0.4171191 106 84 0
0.0236005529316161 0.0694471161712458 0.00602665992419543 0.8830205 -0.1274993 0.4516843 101 98 66
0.0248862251194213 0.0749788444389154 0.00422731490771594 0.7807689 0.5755099 0.2432864 103 108 73
0.0265298828037475 0.07615454605711 0.00028589816729846 0.2831619 0.9339859 0.2179212 115 117 102
0.0210268243702147 0.0666679303993036 0.00953966828028979 0.9119728 -0.2659626 0.3123612 111 105 77
0.0221147283466552 0.0705562394012262 0.00951108785311999 0.9149402 -0.01926703 0.4031292 105 102 69
0.0218155130298827 0.0725978772987177 0.0134810552183849 0.9458482 0.1739245 0.274083 114 108 32
0.0151722177417968 0.0765614669669916 0.0265048787180645 -0.8237962 0.46004 0.3312447 123 123 114
0.00451407279093008 0.0637053411353876 0.0216637894694072 -0.8691695 0.4115094 0.2742341 128 131 113
-0.0073079124538209 0.0303012888778498 0.0266333863322002 -0.8848325 0.3982609 0.2417843 147 164 184
0.00619087065775137 -0.00302402564393978 0.0205927536074382 0.9469901 0.04955553 0.3174176 73 112 115
-0.0191227451411988 -0.0609649259697149 0.0211496994082195 -0.07831375 -0.9881318 0.1321456 183 191 184
-0.0230937257854249 -0.0138667065750311 0.0223492428843242 -0.9574736 0.2596217 0.1258606 132 123 117
0.00380763854105215 0.0495819013465693 0.0275759145800334 -0.5931835 0.3782499 0.710676 124 132 107
-0.0182729021159913 -0.00600026437150936 0.0291289135996562 -0.7741766 0.3626173 0.5188056 148 146 148
-0.033358480080774 -0.0598363418232153 0.0202928528372509 -0.2597533 -0.949582 0.1755624 170 162 168
-0.0336710468379762 -0.059641226018543 0.0251339420859081 -0.4451679 -0.8601228 0.2490267 187 187 186
-0.031928683861902 -0.0600475210796545 0.0252196237627727 -0.3134335 -0.9340541 0.1711795 139 135 129
-0.0294728532878663 -0.0601946551452825 0.0202071711603862 -0.03933382 -0.9920694 0.1193785 179 176 173
-0.0278213277904298 -0.0608641941200445 0.021685217339204 -0.09634495 -0.9921699 0.07947659 145 147 137
-0.0306018844692018 -0.0599861580978582 0.0239986524168712 -0.194293 -0.9751569 0.106392 131 135 119
-0.0278105989543702 -0.0600050229679296 0.0282613679949504 -0.1194813 -0.9629391 0.2418107 113 113 103
-0.0241307273952271 -0.0605049867283056 0.0217923268858654 -0.05871379 -0.9940376 0.09188014 159 161 157
-0.0162472978679444 -0.060957087958927 0.0231204077784282 -0.1059755 -0.9891287 0.1019488 179 187 177
-0.0257555500118043 -0.0602630514751623 0.0272760138098461 -0.08640224 -0.9768447 0.1957273 199 200 197
-0.0256473079768922 -0.059590949500675 0.0293538317267162 -0.105107 -0.9455839 0.3079343 131 132 121
-0.0359399572459962 -0.0593965489517401 0.0256266340796215 -0.6694801 -0.6910777 0.2724114 224 220 228
-0.0364046350566651 -0.0555051107059668 0.0252482041899425 -0.8921509 -0.06949449 0.4463599 191 188 196
-0.0349357381908204 -0.0516245503078649 0.0254167065207225 -0.8556167 0.2753786 0.4382768 147 150 144
-0.0363188043681886 -0.0495475072513769 0.0234202787462932 -0.8927532 0.2772579 0.3551336 169 162 163
0.0102979883106444 -0.0523028809677313 0.0223064169470531 0.9576961 -0.003251259 0.2877632 112 117 90
-0.0360253110973145 -0.0576848823677252 0.0258622512404186 -0.7791643 -0.5522304 0.2965547 185 180 186
-0.0341574207393434 -0.0590706307541082 0.0275973424498302 -0.511349 -0.7822321 0.3558584 133 140 123
-0.0330691591350343 -0.0490012008796881 0.0276401683871013 -0.8532535 0.2613333 0.4512907 100 101 93
-0.0326404825298097 -0.0534600753437231 0.0310888931338054 -0.7773103 0.1821665 0.6021661 124 124 112
-0.0265772596446778 -0.0591339010845373 0.0316030129973155 -0.1839858 -0.8469179 0.4988779 156 159 154
-0.0217001691905763 -0.0588723261009405 0.0325240835730297 -0.04615574 -0.7380397 0.6731768 155 159 159
-0.0256525531856324 -0.0591620344768713 0.0340449556891185 -0.08165303 -0.6535063 0.752504 146 147 140
-0.017532612427881 -0.0589340467106054 0.0327168747965557 0.01538756 -0.3688212 0.929373 152 162 152
-0.0154881731120851 -0.0586775977264593 0.0332309648577434 -0.01143484 -0.4498532 0.8930293 109 107 92
-0.0337671295253541 -0.0567283470283697 0.0312602862898571 -0.7081746 -0.3032858 0.6375786 131 132 119
-0.0329026237575318 -0.057167990888233 0.031945739704774 -0.6361561 -0.3952613 0.6626264 143 133 129
-0.028958107575586 -0.0550330121170233 0.0347946927134258 -0.3293343 -0.07479656 0.9412462 188 187 189
-0.0314195409862306 -0.050786896432514 0.03117457481067 -0.7560075 0.2265655 0.6141016 141 141 138
-0.0287658229915406 -0.0506641108642767 0.0348303958956462 -0.4042582 0.1091766 0.9081056 154 155 142
-0.0221770063487794 -0.0574211914192388 0.0349874839369518 -0.01190877 -0.3426625 0.9393831 186 188 187
-0.021599675759485 -0.0542945105682562 0.034087811428712 0.04062983 -0.1185586 0.9921154 145 139 143
-0.0203517929164674 -0.0570925910125921 0.0341734931055767 0.02681926 -0.2441333 0.9693708 149 146 140
-0.0182339206783082 -0.0569818157802771 0.0341520652357799 0.02164843 -0.24244 0.9699249 171 170 172
-0.0197583690730836 -0.0542225081573675 0.0345162198130352 0.01944615 -0.08312716 0.9963492 149 152 151
-0.0184461132137086 -0.0525523264061163 0.034387682396577 0.03449063 0.02309389 0.9991382 140 144 149
-0.0168115154353883 -0.052378727878208 0.0339021727625591 0.05675646 0.03054108 0.9979208 151 155 162
-0.0160705104915406 -0.0541639167915533 0.0345162198130352 0.04470188 -0.01639226 0.9988659 167 167 167
-0.0224036232082154 -0.0482923228393743 0.0336594030443889 0.02781176 0.041337 0.9987581 139 143 144
-0.0248277441112306 -0.0520922977577398 0.0341306373659832 0.009120832 0.03227149 0.9994375 129 132 121
-0.0264283672420289 -0.0498313743721197 0.0345590755526287 -0.1525176 0.1025036 0.9829707 168 172 167
-0.0243572250453736 -0.0500025291095922 0.0344305381361705 0.005154969 0.04585265 0.9989349 142 152 149
-0.0168719545451905 -0.0506082613121221 0.0338307365957958 0.05434869 0.03542888 0.9978933 144 143 148
-0.0186530605403687 -0.0499253708969305 0.0343020007197124 0.01280908 0.0164325 0.9997829 181 184 186
-0.0187958732692506 -0.00432662555086116 0.0261192962710124 -0.866257 0.4223532 0.2668642 144 142 130
-0.0179595008937623 -0.0486587125908087 0.0341092094961864 0.03974193 0.02042964 0.9990011 176 179 180
-0.0149030939189698 -0.061173631633396 0.023934368807481 -0.1049479 -0.9875482 0.117194 197 199 199
-0.0127651945201661 -0.0610401470314215 0.0230347261015636 -0.1716304 -0.9793707 0.1066584 124 127 117
-0.0122138515559937 -0.0616209942947576 0.025776569563554 -0.2117732 -0.9732562 0.08902014 127 129 115
-0.00843062554281016 -0.0624006826530645 0.0201214894835216 -0.1764675 -0.981264 0.07733148 220 220 223
-0.00666418229024668 -0.0625049907814215 0.0204642161909801 -0.1471277 -0.9885689 0.03293949 135 135 131
-0.0142991796581056 -0.0612217921863745 0.0256480321470958 -0.1761816 -0.9723382 0.1533572 199 202 204
-0.0108143344966676 -0.0613475877891729 0.0273616954867107 -0.207622 -0.9656913 0.155992 188 194 196
-0.0141507640926148 -0.0605042714725683 0.0297179863039714 -0.1426449 -0.8994697 0.4130456 153 156 153
-0.013607765778711 -0.0601484317432592 0.0314887508932811 -0.1104726 -0.7223218 0.6826764 139 148 139
-0.00863375817220469 -0.0618982452999304 0.0296323046271068 -0.1898109 -0.95182 0.2408536 151 159 143
-0.00590267334859629 -0.0630154449592779 0.0296323046271068 -0.08194148 -0.959877 0.2681824 170 171 163
-0.00603702221792002 -0.0620079774509619 0.0306604847494823 -0.1431812 -0.8818663 0.4492337 155 163 157
0.00145981158334951 -0.0628562409530828 0.0239236697737438 -0.0339079 -0.9943593 0.1004984 165 165 161
0.00447950209696035 -0.0632686454902838 0.0246626779619915 0.1283224 -0.98315 0.1301899 183 175 180
-0.0022039667217042 -0.0624411244045446 0.0216637894694072 -0.01572151 -0.9984988 0.05246897 151 154 139
-0.00190737400930185 -0.0627230841766546 0.0233345970694286 0.002314649 -0.9964896 0.08368497 149 159 151
0.00201294268686514 -0.0626070935379217 0.0273402676169139 -0.007580394 -0.990654 0.1361881 133 136 125
0.00406262721140127 -0.0631229717384527 0.0302749023024303 0.2408991 -0.8780816 0.4134493 172 174 158
0.00559124793131094 -0.062512411559696 0.0310674950663311 0.3660285 -0.804678 0.4674574 159 164 151
0.000992153540441798 -0.0627566713939856 0.0265048787180645 -0.008823191 -0.9971584 0.0748145 210 210 211
-0.00113501702230234 -0.0623743970047186 0.0273616954867107 -0.02442078 -0.9966623 0.07789691 188 190 198
-0.00366845284383555 -0.0623608667503546 0.0289039954725963 -0.04286908 -0.9831175 0.1778829 126 118 107
0.00119528616983633 -0.0625722844253729 0.0289896771494609 -0.04667813 -0.9510656 0.3054428 176 182 183
-0.0136068121043946 -0.0592469412933538 0.033402358013795 -0.0177883 -0.57312 0.8192784 180 179 176
-0.00479855690877695 -0.0577812332760046 0.0341877684180004 -0.01940908 -0.2256418 0.974017 185 184 188
0.0145380243213866 0.0619703095306208 0.0274045512263042 0.4859142 -0.09527308 0.8687983 132 138 131
-0.00392499123494883 -0.0610032815586279 0.033316646534608 -0.03260528 -0.6096729 0.7919822 116 115 109
-9.96843425538074E-05 -0.0578741569172094 0.0337165042940837 0.07964953 -0.2207715 0.9720678 155 159 157
0.00936851348001699 0.0443917672981073 0.0286469504420024 0.5786842 -0.05394688 0.8137656 156 153 151
-0.00202205334584971 -0.0591674584995459 0.0342591747824413 0.01272607 -0.3592248 0.9331643 154 150 145
0.000936363592932032 -0.0577379305015753 0.034087811428712 0.06750822 -0.1641148 0.9841285 192 193 188
0.00530001963693838 -0.0616291899334143 0.0318600580279094 0.3499371 -0.7530708 0.557161 108 108 93
0.00640246714670401 -0.0603799063812445 0.0332309946600658 0.4327393 -0.3921607 0.8117554 149 147 139
0.00386509741861563 -0.0592720646511267 0.0337450847212535 0.1654763 -0.3374217 0.9266953 154 154 153
0.00656423415262442 -0.0591893930088232 0.0337879106585247 0.4726708 -0.1744758 0.8637943 171 184 176
-0.0133285776225831 -0.0540785927425573 0.03370222898166 0.03573306 -0.03638386 0.9986988 163 170 169
-0.0112763897029664 -0.0573844451557348 0.0343020007197124 -0.07712083 -0.1913219 0.9784929 192 196 208
-0.0148946300594117 -0.0551207203518103 0.0343020007197124 0.02513606 -0.07189806 0.9970952 124 133 139
-0.0120940462199952 -0.0552892524849127 0.0338735923353893 0.01812525 -0.02330254 0.9995641 144 147 155
-0.00847282563131113 -0.0521013278614233 0.0334880098883373 -0.004800317 0.04872196 0.9988009 139 147 151
-0.00473823700826426 -0.0531344253669928 0.0338521942679149 0.01975735 0.06508788 0.9976839 163 172 170
-0.0110997215358521 -0.05196486302721 0.033402358013795 0.001850451 0.05062956 0.9987158 151 152 148
-0.0122059837428834 -0.050059391940708 0.033316646534608 0.0309089 -0.001172177 0.9995215 147 151 155
-0.00852968846242685 -0.0500444609771917 0.0339164480749828 0.00231012 0.02995584 0.9995486 168 168 176
-0.00720849190633555 -0.0476011175762365 0.0335737213675243 0.02853935 0.02612277 0.9992512 147 149 156
-0.00187900219838877 -0.0573342580448339 0.0340663835589153 0.06876324 -0.1023321 0.9923708 155 154 156
-0.00186422024648447 -0.0561957795273016 0.0337879106585247 0.04356362 -0.03807016 0.998325 155 152 160
-0.00429060612600107 -0.053085013116474 0.0344305381361705 0.03643877 0.06548333 0.9971882 124 130 143
0.00367173995096426 -0.0544550854812811 0.0332309648577434 0.2449473 0.1104375 0.963226 157 161 161
0.00617704238016348 -0.0550498504291723 0.0334594592634899 0.5275063 0.08370574 0.8454173 158 161 162
0.00526842917520742 -0.0535612840305517 0.0332309648577434 0.4371609 0.1677469 0.8836013 161 162 167
-0.00338986073415537 -0.0503245134006689 0.033316646534608 0.03867804 0.05813901 0.997559 170 173 175
0.00883827056009512 -0.0472573775898169 0.027076070028947 0.952862 0.009184923 0.3032649 96 95 80
-0.000686790093591405 -0.0509927708755682 0.033402358013795 0.06283154 0.05969626 0.9962372 155 155 161
0.00125870551187734 -0.051214678968067 0.0335094675604564 0.08130187 0.05362511 0.9952459 132 136 141
-0.000901605233361913 -0.0475507218490789 0.0332738205973369 0.04721497 0.05587396 0.9973208 166 159 172
0.00201115454752188 -0.0495150823246191 0.033316646534608 0.07918526 0.04267611 0.995946 133 136 135
-0.0066445127574708 -0.0239786941658209 0.0325240835730297 -0.006066078 0.04729395 0.9988626 157 161 170
0.00283417548258047 -0.0496354241024206 0.0332523927275402 0.07808273 0.04482188 0.9959388 126 127 134
0.00192043627817373 -0.0473745007168005 0.0332738205973369 0.05869493 0.05240086 0.9968997 188 190 192
0.00209412421304922 -0.0467198032985876 0.033016775566743 0.05451773 0.05471286 0.9970127 173 176 177
-0.0358777299968507 -0.0476741630684088 0.0200786635462505 -0.9249309 0.2836045 0.2531229 158 167 156
-0.0350104824153687 -0.0471263963829229 0.0219422623697978 -0.89266 0.2800419 0.353178 137 133 119
-0.0339482084361817 -0.0462659735332678 0.023634497839616 -0.893126 0.269339 0.3602534 107 119 101
-0.0331651226131227 -0.0460883218895147 0.0252838775698406 -0.8776626 0.2535188 0.406739 120 122 107
-0.0335231081096437 -0.0431059140812109 0.02344170661609 -0.9002295 0.2704617 0.3412292 115 119 97
-0.031871344193628 -0.038967831815357 0.024319951254533 -0.9177662 0.3204587 0.2345451 116 125 98
-0.0330182567683961 -0.0467229921470831 0.0260764405314189 -0.881043 0.2119218 0.4229095 159 153 146
-0.032593156441858 -0.0445931095730017 0.0267190680090648 -0.8876749 0.2184815 0.4053381 113 114 105
-0.0320534959880616 -0.045675470317478 0.0274902329031688 -0.8832718 0.1858513 0.4304537 114 123 108
-0.0313533798305299 -0.0479497153412054 0.0302749023024303 -0.7999724 0.1674188 0.5762076 204 203 198
-0.0310956493465211 -0.043369277204151 0.0291610405031902 -0.8607942 0.1863379 0.4736154 145 144 139
-0.02988054905813 -0.0419770617138098 0.0307890221659404 -0.6934906 0.1329142 0.7080994 131 130 126
-0.0306471839992311 -0.0351998645912359 0.0200786635462505 -0.8776755 0.4471196 0.1725392 125 118 121
-0.0292092815486695 -0.032792134965534 0.0251339420859081 -0.8967881 0.4096418 0.1672264 90 96 73
-0.0279155031291749 -0.0280754704128454 0.0210640177313549 -0.9224592 0.3725642 0.1013157 105 110 92
-0.029286648377588 -0.0315521497379492 0.023248915392564 -0.9007175 0.4198791 0.1113981 131 130 128
-0.0309250608531739 -0.0362474162231634 0.0286897763792736 -0.8930909 0.2420145 0.3792329 128 125 108
-0.0276474014369752 -0.0347764629970739 0.0315173015181285 -0.6668036 0.1416531 0.731647 110 114 93
-0.028870011910608 -0.0347884137283514 0.0307461664263469 -0.7735022 0.2654616 0.575521 102 102 92
-0.0286133543102052 -0.0333987910400579 0.0286040947024089 -0.8568521 0.3610431 0.3680387 93 97 87
-0.0272919193355348 -0.0270635623584936 0.0236773237768871 -0.9248978 0.3527896 0.1417866 128 124 122
-0.0275749221889283 -0.0294063229213903 0.0258622512404186 -0.9109947 0.3716725 0.1787405 165 165 156
-0.0272609249202516 -0.0296228069912146 0.0274045512263042 -0.9033274 0.3804935 0.1980512 129 135 131
-0.0262238041011598 -0.0262957651268194 0.0274045512263042 -0.9154038 0.3254721 0.2368624 134 129 123
-0.0256662622539308 -0.0272053022037695 0.0313316628519756 -0.7417304 0.3612072 0.5651242 160 153 155
-0.0300501838771607 -0.0472816962848852 0.0329453692023021 -0.6461412 0.1586701 0.7465422 116 120 108
-0.0287742868510987 -0.0427378553997229 0.0329310938898784 -0.5424121 0.1848736 0.8195187 159 163 157
-0.0281759754268434 -0.0479659576069067 0.0345590755526287 -0.3489163 0.1182351 0.9296654 135 140 138
-0.0291352525798585 -0.046351774419422 0.0338307663981182 -0.5415317 0.1541608 0.8264247 117 123 115
-0.0274783626643922 -0.0467634338985632 0.0341734931055767 -0.3404863 0.08541873 0.9363614 165 169 166
-0.0271415964214112 -0.0452829439293096 0.0343448564593059 -0.1920987 0.1267592 0.9731548 185 186 187
-0.027806665047815 -0.0401305694233129 0.0321171030585033 -0.6513733 0.02405958 0.7583759 105 107 101
-0.0233843580333497 -0.0477096874366949 0.0343020007197124 0.03343947 0.04518726 0.9984187 170 174 179
-0.0224943414775636 -0.0447781521927069 0.034473393875764 0.009293094 0.03454217 0.99936 134 134 134
-0.0175196186153199 -0.0443602342258642 0.0337879106585247 0.01203031 0.05024345 0.9986646 159 159 163
-0.0195067182628419 -0.0465661425243566 0.0340449556891185 0.02897911 0.03123143 0.999092 154 163 164
-0.0211205736247804 -0.0427178282390783 0.0338307663981182 0.02018855 0.05170967 0.9984581 202 202 208
-0.0173366323558595 -0.044198556626911 0.0352445289675457 0.02764622 0.04810755 0.9984595 170 168 175
-0.0237518802730348 -0.040678663934345 0.0338593170229656 -0.0944468 0.04345566 0.994581 189 190 196
-0.0241509929744508 -0.0423061091552923 0.0349446281973583 -0.08154407 0.09371327 0.9922542 146 145 156
-0.0193470970241334 -0.0364044744621466 0.0334452137533885 0.03337606 0.03081171 0.9989678 182 185 185
-0.0180114761440064 -0.0363103289257238 0.0336915299479228 0.02268499 0.0506944 0.9984565 155 157 165
-0.0205271497813966 -0.0398477453838537 0.0339592740122539 0.0394548 0.02874353 0.9988078 154 158 163
-0.0281123176662232 -0.0335177619110296 0.0311317488733989 -0.7739023 0.2633395 0.5759579 165 158 159
-0.0230335250942018 -0.0354541976104925 0.033402358013795 -0.1509254 0.08709305 0.9847012 173 178 183
-0.0224856391994264 -0.0346044141899298 0.0336594030443889 -0.1090092 0.1037782 0.9886087 168 167 172
-0.0237469926921632 -0.0336529452453802 0.0332738205973369 -0.2395745 0.1012536 0.9655836 137 142 138
-0.021714831933191 -0.0362947423111151 0.0336593732420665 -0.05187627 0.05299028 0.9972466 176 179 182
-0.0196129337398316 -0.0359273988853643 0.0346875831667644 0.02878574 0.03720294 0.998893 179 181 183
-0.0262105718700196 -0.0292567450653265 0.0316458389345867 -0.7367981 0.3461662 0.5807732 98 109 87
-0.0259620205013062 -0.0291124720226477 0.0325883671824199 -0.6183423 0.2763999 0.735701 108 124 94
-0.0236612812129762 -0.0309004325519751 0.0333595022742015 -0.2599825 0.1063085 0.9597435 158 165 161
-0.0255157009212281 -0.0273246605049322 0.0322884664122325 -0.6631477 0.2764269 0.695574 202 198 198
-0.0248555198756959 -0.0262103218685339 0.0321171030585033 -0.5927895 0.2297515 0.7718905 129 119 125
-0.0226108089534547 -0.0271003682266424 0.0334880396906597 -0.3329309 0.1264719 0.9344313 162 161 165
-0.0203782573787477 -0.0305451888691137 0.0331881389204723 -0.0785836 0.03982566 0.9961117 153 156 164
-0.0193237320033814 -0.0268092889438818 0.0321599289957744 -0.11839 0.08526758 0.9892994 98 100 89
0.00478050555307608 -0.0354345280777166 0.0287754580561382 0.6987684 0.2054324 0.6852155 117 115 89
0.0037469610126708 -0.024381502355213 0.0286469504420024 0.5003781 -0.09669551 0.8603905 125 123 106
-0.0108788267223145 -0.044160201037998 0.0335737213675243 0.05685772 0.06243619 0.9964281 191 189 197
-0.0149233594981935 -0.0436615783821295 0.0333595022742015 0.0370955 0.0768499 0.9963524 151 151 156
-0.0134017721263673 -0.0414489347587774 0.0336736783568126 0.05692976 0.0498538 0.9971327 165 170 173
-0.00760915432851572 -0.0439345974575232 0.03370222898166 0.05150666 0.06628373 0.9964705 183 185 194
-0.00572230969350596 -0.0421856481682013 0.0334452137533885 0.06154137 0.0536129 0.9966636 168 166 170
-0.0149444595424439 -0.0381684739242742 0.0332737907950145 0.07273477 0.03519448 0.9967301 164 165 170
-0.011152292832544 -0.0380604703079412 0.033016775566743 0.02922826 0.02947332 0.9991381 142 150 145
-0.00339129124562998 -0.0454884011398504 0.0334166333262187 0.04626819 0.05992377 0.9971301 148 152 155
-0.000769282921960546 -0.0452030439029882 0.033209566790269 0.04047975 0.04309364 0.9982507 141 143 150
0.00144359911997061 -0.0435195703159521 0.0329310938898784 0.06179205 0.05993743 0.9962877 147 154 159
-0.00496056233327646 -0.0396055121074865 0.0331024572436077 0.0252213 0.02598281 0.9993442 141 138 156
-0.00206449185292978 -0.0392386753212164 0.0328596875254375 0.02036498 0.02749579 0.9994144 158 163 163
-0.00405981694143076 -0.0382186014305304 0.0327168747965557 0.01809686 0.022017 0.9995938 147 151 150
-0.00461819325368662 -0.03615014144289 0.0329739198271495 0.0003464385 0.03384262 0.9994271 133 135 142
0.000159834280798243 -0.0373971004139135 0.0329310938898784 0.09722547 0.0901628 0.9911699 184 184 188
-0.00058832322042246 -0.0374438304554174 0.032631193119691 0.1258196 0.07195947 0.9894398 147 153 147
-0.000409151658227636 -0.0355010170589636 0.0355015739981395 0.06878382 0.0580169 0.9959432 167 174 167
0.00277862395364981 -0.0398090619693945 0.032631193119691 0.2092004 0.1321054 0.9689084 149 151 150
0.00213477458078604 -0.0377459663997839 0.0324170038286907 0.2023201 0.1038544 0.9737971 141 142 145
0.00416049803812246 -0.0365034181724737 0.0324598297659618 0.3541759 0.1101524 0.9286689 153 147 160
-0.0159811035243775 -0.0356577474724005 0.0334451839510662 0.04533473 0.04749007 0.9978424 170 176 178
-0.0135065570918824 -0.0357607442985723 0.033316646534608 0.0604318 0.04072563 0.9973412 160 161 171
-0.0125872150508668 -0.035703374827976 0.0332738205973369 0.06394716 0.04645327 0.9968715 167 181 181
-0.016146566018274 -0.0319765050064276 0.0331667408529979 0.06221589 0.05229073 0.9966919 167 169 176
-0.0147010341731812 -0.0348480779777716 0.034473393875764 0.04699716 0.0600623 0.9970877 168 170 181
-0.00962617550771494 -0.0336297590385626 0.0333595022742015 0.04137257 0.05710658 0.9975105 141 149 151
-0.00597562943380137 -0.0329726178299139 0.0328668102804882 6.166705E-06 0.0737276 0.9972784 192 192 194
-0.0100429311839845 -0.0324539084087561 0.0329953476969463 0.04322375 0.08013305 0.9958466 143 147 153
-0.00554266129415293 -0.0323446232925604 0.0328882381502849 0.009699883 0.09974385 0.9949659 153 156 160
-0.0102164999095704 -0.0303614277492712 0.0324598297659618 0.02569461 0.07148546 0.9971106 150 152 158
-0.00881340657155771 -0.0284280318866919 0.0328882679526073 0.0154753 0.06165367 0.9979776 168 168 174
-0.00990643654744883 -0.0284533638607214 0.0328882381502849 0.02727212 0.05462123 0.9981346 193 196 196
-0.00908317719381113 -0.0258264977585028 0.0321171030585033 0.04250145 0.04416879 0.9981196 164 157 173
-0.0107187286464479 -0.0264437038551519 0.0327597305361492 0.03823429 0.04576326 0.9982203 151 158 164
-0.00607314263265391 -0.0256814796577642 0.0331167325560314 -0.01513298 0.0736755 0.9971675 145 152 158
-0.00341286812703867 -0.0334564585338781 0.0326740488592845 0.01114455 0.08373151 0.996426 148 155 165
-0.00206067715566416 -0.0351748604427526 0.0328596875254375 0.08477131 0.05302298 0.9949886 159 164 164
-0.00402465020101328 -0.0305328507076452 0.0329310938898784 0.009685138 4.443693E-06 0.9999531 130 141 137
-0.000401045426538182 -0.0321952540527533 0.0325455114428264 0.081424 0.06561121 0.9945176 136 142 140
0.000650976553747462 -0.0334602732311438 0.0325883671824199 0.1511352 0.03678817 0.9878283 152 154 159
0.0012372478397582 -0.0316208440910528 0.0325455114428264 0.1383219 0.02914415 0.9899584 183 186 181
-0.00380268250386973 -0.0285873551021765 0.0325026855055553 0.02039431 0.04002548 0.9989905 166 169 170
-0.00389876519124766 -0.0263612706314276 0.032631193119691 0.01528843 0.078485 0.996798 162 166 170
6.42284305785168E-05 -0.0293331880222509 0.0328454122130138 0.07871962 0.0920593 0.992637 129 134 137
0.00400326098520498 -0.0288297075878332 0.0320099935118419 0.4419153 0.09491051 0.8920218 170 173 175
0.00338361109812002 -0.0247475940834234 0.0323312923495037 0.3618493 0.05147723 0.9308143 163 166 173
0.0092391714008544 -0.0614690918575476 0.0215781077925426 0.5979526 -0.7149424 0.3623673 111 117 117
0.00976023520548086 -0.0615653235565374 0.0224349245611888 0.7813626 -0.5518379 0.2914574 93 83 16
0.0105699047001098 -0.0621586281906317 0.022177879530595 0.6265854 -0.7034584 0.3354654 122 125 106
0.0100009187610839 -0.0587744850765417 0.0228776380602581 0.9442823 -0.2368922 0.2285017 89 88 56
0.0132237419040893 -0.0599754888664434 0.0233774528090221 0.9233387 -0.2099742 0.321491 97 97 53
0.00829574908334951 -0.0628586549411962 0.0256480321470958 0.4832124 -0.837971 0.2535949 164 169 156
0.00724551524240713 -0.0625378925453375 0.0297608122412426 0.5208803 -0.7752815 0.3572428 131 123 119
0.0101451620014403 -0.0601677138458441 0.0258193955008251 0.8903342 -0.3438289 0.298474 118 115 109
0.00894806231577139 -0.0574952203880499 0.0305319771353466 0.8674069 -0.1183601 0.4833178 66 68 0
0.0100438341053222 -0.0557956833492468 0.0244056329313976 0.9732999 -0.009849527 0.2293258 92 86 66
0.00990507449228506 -0.0525420446048925 0.0252624497000438 0.9696506 0.007791827 0.2443708 106 107 84
0.00968096102792959 -0.0479201812397192 0.0232917413298351 0.9680254 0.04214901 0.2472859 121 117 102
0.00926897372324209 -0.0550713975082586 0.0280043229643566 0.9495947 0.0181245 0.3129558 90 94 81
0.00870821322519522 -0.0467789907108496 0.0296751305643779 0.8951677 -0.005658817 0.4456936 62 70 23
0.0075454458149169 -0.0529040236126135 0.0321171030585033 0.6705589 0.1406036 0.7284101 121 123 94
0.00744817103464346 -0.0485961277137945 0.0329953774992687 0.5723916 -0.004393281 0.8199686 133 129 131
0.00864574755747061 -0.0426835853706549 0.0211711272780162 0.9688078 0.01439091 0.2473952 155 156 152
0.0101541026981566 -0.0451863546024511 0.0226919695917827 0.9618384 0.02792739 0.2721891 129 122 129
0.0108331188114379 -0.0416241128097723 0.0209783360544902 0.9611055 0.009506954 0.2760179 191 193 198
0.010044668570349 -0.0427464682708929 0.0229490146223766 0.9777362 -0.02780337 0.2079878 159 156 164
0.00985500659067373 -0.0410842437397192 0.0243628069941265 0.9734307 0.02865313 0.227182 183 182 188
0.0104913457782958 -0.0368378598343084 0.0205498978678447 0.9560027 -0.01279153 0.293079 188 196 190
0.00984463538248281 -0.0367924112926672 0.0227776512686473 0.9485452 0.01256244 0.3163925 92 96 70
0.00975904311258535 -0.037484540427799 0.0253481611792308 0.9511971 0.09553468 0.2934232 68 73 0
0.00953957881052236 -0.0429067749630163 0.0276187405173046 0.9574673 0.009562256 0.2883835 106 111 93
0.00839040125925283 -0.0437511641632269 0.0303606137816173 0.8038025 -0.002193731 0.5948922 116 111 103
0.00882658804971914 -0.0349243719230841 0.0259050771776897 0.9106847 0.1202883 0.3952014 100 101 93
0.00826535071451406 -0.0355603534828375 0.0274473771635753 0.8868203 0.1518596 0.4364499 125 125 94
0.00936601008493643 -0.040127499784107 0.0290325030867321 0.9060079 0.1294719 0.4029724 109 107 92
0.00838801707346182 -0.0389008063923071 0.0307461664263469 0.7561758 0.1668132 0.6327491 96 101 77
0.00744519080240469 -0.0313619811187933 0.0253481611792308 0.9021813 0.05433676 0.427921 75 78 23
0.0087520822437499 -0.0296062965046118 0.0246626779619915 0.9320449 0.0941296 0.3499027 123 116 102
0.0101072534473632 -0.0244994599472235 0.0206784352843029 0.9407089 0.07733135 0.3302826 108 106 86
0.00834343279916983 -0.0264983017097662 0.0252624795023662 0.9196187 0.09576897 0.3809592 108 96 107
0.00736770476419668 -0.0311522025715063 0.0299107775274974 0.7919233 0.09414286 0.6033196 112 110 103
