ply
format ascii 1.0
comment File exported by Rhinoceros Version 7.0
element vertex 465
property float x
property float y
property float z
property float nx
property float ny
property float nz
property uchar red
property uchar green
property uchar blue
end_header
0.0250049576254874 -0.0240742711220907 0.00670576779648901 0.3690294 -0.1830031 0.9112229 171 171 171
-0.00783047017956395 -0.0274154977911395 0.00548776297523745 -0.2817982 -0.9404154 -0.1902855 97 97 97
-0.0379893808675953 0.0196165009845147 0.0118664539747805 0.120214 0.707124 0.6967957 179 179 179
0.0436427586419681 0.00357959118253426 0.00890819540837512 0.2811288 -0.2227217 0.9334675 201 201 201
0.0400304032330241 0.0269015298372702 0.0144544417400143 0.1931246 0.1974399 0.9611037 207 207 207
0.0127962181133254 0.00424380772793298 0.0155124121690473 0.2442178 -0.172547 0.9542459 221 221 221
-0.00538318001220617 -0.00511857383935876 0.0155301875372462 0.243585 -0.2341412 0.941193 152 152 152
0.0350382603807948 -0.0201900762317453 0.00520887747311727 0.3686205 -0.2709175 0.8892259 208 208 208
0.0585892731032951 0.00255758691986918 0.00462895075498357 0.6187868 -0.3427508 0.7068414 207 207 207
-0.0519810838828789 -0.0152731952143675 0.0195049495797769 -0.1353205 -0.8012124 0.5828782 179 179 179
0.0545450600639126 0.0233305979021478 0.0114551458895206 0.5214064 -0.2311116 0.8214151 154 154 154
0.025465805956248 -0.00875333740324602 0.0105704356768415 0.3397252 -0.209291 0.9169428 202 202 202
0.0500645284438344 -0.00769236414529817 0.00446480602421082 0.4074883 -0.2813929 0.8687757 154 154 154
0.0107880066393098 -0.0317413727328747 -0.00149365611258515 -0.2768085 -0.9586616 -0.06591593 107 107 107
-0.0607376214902509 0.0147888047349487 0.00103746821297498 -0.09596386 0.5021103 0.8594627 190 190 190
-0.0363261946761377 -0.00392808847654558 0.0203090291353382 0.2490375 -0.2512465 0.9353371 200 200 200
0.0502075602506955 0.0238562493273075 0.0128830527261393 0.3383373 -0.23643 0.9108396 183 183 183
-0.0551200368599822 0.0201838316824224 -0.000468247148297435 -0.3125747 0.6417245 0.7003475 186 186 186
0.0139628990426925 0.0187056262200178 0.0141647685529158 0.05755081 0.2778612 0.9588957 168 168 168
0.0480213541870151 0.00200192968556434 0.00784584625496548 0.2967407 -0.2504777 0.9215237 220 220 220
0.0518602565151549 0.0207489074861111 0.0115595746488499 0.3866098 -0.2518936 0.8871767 179 179 179
0.0041361563825375 -0.00724795777921849 0.0140347517808003 0.238362 -0.1933619 0.9517325 208 208 208
-0.0590020188011131 -0.000423070329614861 0.0158029268426436 -0.8461744 0.3014669 0.439439 165 165 165
0.016520540689593 -0.034302596369377 0.00220137311220434 -0.2440212 -0.9631495 0.1131219 141 141 141
0.0199385780653278 -0.0344546616877641 0.00563034197007428 0.07287612 -0.7298271 0.6797363 158 158 158
0.0213432066153536 -0.0342460071273166 0.00558511096576153 0.1626358 -0.7223168 0.6721666 217 217 217
0.00428610054395939 -0.00344573009044979 0.0150387572123434 0.2570641 -0.2310313 0.9383723 222 222 222
-0.0215529909442136 -0.000697366596323246 0.0191153197459481 0.2723208 -0.2650259 0.9249879 170 170 170
0.0101063118046323 -0.0318780103721852 0.0014374394921389 -0.2644545 -0.9585448 -0.1060929 132 132 132
0.000623069930933084 0.0276059933655292 0.00972514738595048 -0.01080769 0.873576 0.4865677 150 150 150
-0.00869801665624559 -0.0282471357772675 0.0123630287494889 -0.1086976 -0.6936732 0.712041 190 190 190
-0.063743350049319 -0.00751461464644476 0.0137586258530899 -0.5017362 0.07467991 0.861791 189 189 189
-0.0564000671685965 0.0122531190443403 0.00501152637633906 -0.4354947 0.5213751 0.733834 203 203 203
-0.0639029975141119 0.00798739086079514 0.00412812227344836 0.01479135 0.4435173 0.8961437 190 190 190
-0.0133371295288844 -0.0251289619007417 0.00240116512099495 -0.2280886 -0.9667062 -0.1159945 134 134 134
-0.0620717933024988 -0.00980103197033411 -0.00273384028262649 -0.3663352 -0.9183236 -0.1499342 79 79 79
0.0102252518035755 0.0246029608292724 0.013016236328784 0.08707011 0.1806513 0.9796856 122 122 122
0.0212047411297704 -0.0235029285089631 0.00786168072385224 0.3658518 -0.1700541 0.9150049 157 157 157
0.0454715410865432 -0.00937856071680876 0.00532527351154366 0.4028146 -0.280588 0.8712122 205 205 205
0.0394821422267251 -0.0386563056514784 -0.00583400872899811 0.3707736 -0.911695 -0.1770289 163 163 163
-0.0414865333383418 -0.015067712280469 0.0181394315212846 0.1920188 -0.46663 0.8633569 180 180 180
-0.0397338537037908 -0.0146773592603694 0.018305664728783 0.2044282 -0.3201839 0.9250359 191 191 191
0.038842925924496 -0.0360581020884674 -0.000720564149751218 0.5550163 -0.4085868 0.7245783 192 192 192
-0.0487262507580244 -0.0158884807255272 0.0191435153510381 -0.002058072 -0.7156587 0.6984472 182 182 182
-0.0566130437031731 -0.0112685685978468 0.0197881753987015 -0.3197202 -0.316042 0.8932505 206 206 206
-0.0537658478369765 0.0221671287399429 -0.00168331430094407 -0.1112346 0.8762163 0.4689049 171 171 171
0.0643102575317012 0.0283765542141966 0.00520354544193447 0.780363 -0.01742115 0.625084 172 172 172
-0.00177997402839081 0.0139398425760284 0.0155913623675814 0.07721154 0.4981226 0.8636621 160 160 160
-0.0156387175141011 -0.00836306230081774 0.0161095618176605 0.2101299 -0.2443005 0.9466587 178 178 178
-0.0444967661074327 -0.0150690570348454 -0.00496074256528314 -0.3478035 -0.9259477 -0.1471514 112 112 112
0.00645544057604308 -0.014723349003686 0.0127649621580094 0.263074 -0.1489013 0.9532158 201 201 201
-0.0177851827062927 -0.00515992277431154 0.0172416274598313 0.2429391 -0.2930258 0.9247251 234 234 234
0.0624194555121242 0.012154284130382 0.00482758995730345 0.6142955 -0.2434751 0.7505737 185 185 185
0.0192039958015884 0.029299439875628 0.00801372865170941 0.05295436 0.908097 0.4153983 125 125 125
0.05404551536355 -0.0053842893008178 0.00353488603390181 0.529348 -0.312497 0.7887562 137 137 137
-0.0520599336804994 0.00241983813011282 0.0223407300251032 -0.295084 0.3190361 0.9006339 174 174 174
0.0302708937130638 -0.0387924208254387 -0.000299265332312421 -0.135689 -0.8835788 0.4481931 179 179 179
-0.0133197932025038 -0.0247088438384442 -2.9637248908726E-05 -0.2476432 -0.9625715 -0.1101315 113 113 113
0.0487664807538528 -0.0193939116415501 0.000411625508508567 0.4968673 -0.4455291 0.7447326 162 162 162
0.0633171868222573 0.0103573200236938 0.00362198203490724 0.7028466 -0.2457848 0.6675302 167 167 167
-0.0506189705311448 0.00965653583419324 0.0144047557743833 -0.6347213 0.5414792 0.5512977 152 152 152
-0.032583665543644 -0.0205028933402249 0.0150164636415677 0.1119598 -0.6438606 0.7569072 162 162 162
0.0062354226524115 0.0203499971461075 0.0134216148663781 0.09460674 0.1428666 0.98521 164 164 164
-0.0300268245620332 0.00234560243502646 0.0211864226999716 0.2657849 -0.02736411 0.9636439 203 203 203
-0.00648386631602138 0.0170225430013126 0.0127294863741108 0.08869056 0.3676319 0.9257326 161 161 161
-0.0587278589156681 0.0205434275997352 -0.00173563965907611 -0.1546683 0.6250165 0.7651354 200 200 200
-0.0135604514156187 0.00352998682336048 0.0189102884624594 0.2365732 -0.1447193 0.9607754 225 225 225
-0.063747979889778 -0.0101938899168419 0.0138304759261491 -0.5412923 -0.1374407 0.8295256 201 201 201
-0.0119225408183321 -0.00667353323044539 0.0158420549991341 0.2230723 -0.2202748 0.9495882 157 157 157
-0.0479548805916052 -0.0157911039819891 0.00850325443243632 -0.320577 -0.9382761 -0.1298782 95 95 95
0.00737416027889104 -0.0304073852589499 -0.00792534120026292 -0.3173471 -0.9480215 0.02336975 160 160 160
-0.0570353605271827 0.0223329918752493 -0.00312298247469625 -0.0995191 0.786944 0.6089458 186 186 186
-0.0264393295411196 -0.0190545492463924 0.0147967841863355 0.213819 -0.3833055 0.8985312 166 166 166
0.00472956257928736 0.025772097202664 0.0129124434576324 0.07188334 0.2650385 0.9615546 188 188 188
0.00825630697834701 -0.0128741340907064 0.0128481107130231 0.24979 -0.1811428 0.9512057 204 204 204
-0.043025123273952 0.0118818991683727 0.0175204938637122 -0.02516195 0.5320939 0.8463114 194 194 194
-0.0286513392564989 0.0139191087146019 0.0154028645085212 0.1482908 0.6143742 0.7749543 183 183 183
0.0286468744507142 0.0125984040572407 0.0136924575741019 0.304827 -0.1693893 0.9372234 172 172 172
0.0469721870776079 -0.00880728879131576 0.00503158596433706 0.3814155 -0.2789783 0.8813021 185 185 185
0.0578300772541369 0.0249102618059579 0.00935815410418966 0.6300879 -0.2342318 0.7403545 169 169 169
-0.0582141181614788 0.00497359846927248 0.0114816458702016 -0.7477219 0.5246724 0.4069777 186 186 186
0.0141670034634718 -0.0157808356752438 0.0112513044547612 0.2833843 -0.236948 0.9292734 226 226 226
-0.0587947450834454 -0.0107657780685919 0.018648920099413 -0.5152022 -0.2369464 0.8236644 194 194 194
-0.0334688072724374 -0.0192596553186603 -0.00079910934272312 -0.2475251 -0.9479049 -0.2005185 97 97 97
-0.0530539403044483 0.0235195217704566 -0.0043553958051035 -0.09651743 0.8848429 0.4557822 153 153 153
0.0668252105703631 0.0153861948702224 0.00235956275474067 0.7330714 -0.2375137 0.6373331 162 162 162
0.00410551964748018 -0.0225244469717031 0.0119527007077322 0.2782265 -0.1665565 0.9459646 185 185 185
0.0609378823403377 0.0188561369569252 0.007344668521029 0.5644109 -0.1663232 0.8085648 182 182 182
-0.0729840788076888 -0.00354891885833342 0.0071284042342743 -0.6568478 -0.2346807 0.7165723 192 192 192
0.0299272716548535 -0.0376204755693142 -0.00920773800775468 -0.239281 -0.9676139 -0.08042408 107 107 107
0.0425973304846852 -0.0211658076271206 0.00221070585241498 0.5065424 -0.3441182 0.7905678 184 184 184
-0.0709165469387809 0.00729609010434262 0.000499413842740964 -0.781224 0.6068868 0.1462106 118 118 118
-0.0281883583058455 0.0261768493704241 -0.0021680819009651 -0.1639587 0.9793741 0.1180845 91 91 91
-0.00839817547970645 0.0132191369708395 0.0152418306254244 0.09373366 0.5077214 0.856407 176 176 176
0.0441977994114717 -0.0316614235088896 -0.00121810625750987 0.5377644 -0.3570736 0.763746 191 191 191
-0.0418406424624753 -0.00875545956777768 0.0194567037147477 0.2515763 -0.2282021 0.9405494 198 198 198
0.0588634167252731 0.0143931004123604 0.00689254235549164 0.5115549 -0.2371978 0.8258625 164 164 164
-0.00282360958714278 0.0144302678352619 0.0143420426074961 0.059343 0.4725321 0.8793132 172 172 172
-0.0519282474589109 -0.0142153632605929 0.00667335788422818 -0.3660588 -0.9236922 -0.1131092 109 109 109
0.0047889246696764 0.0283468885998779 0.00303019845285943 -0.00850985 0.98071 0.195283 110 110 110
-0.0257155110172702 -0.00572676101597958 0.0178382809906496 0.3055582 -0.3097259 0.900391 210 210 210
0.00656411931461864 -0.031221329757199 0.00300815091675541 -0.2758701 -0.9596061 -0.05524372 170 170 170
0.024537564411466 0.0336643941370848 -0.00195579495305034 0.03950411 0.9383014 0.3435548 126 126 126
0.01755290342106 0.0329069687753761 -0.00297805362840545 -0.08325935 0.9037597 0.4198646 138 138 138
-0.0500912186926281 -0.00174033924772243 0.0221630436955029 -0.003146749 -0.160644 0.9870074 192 192 192
-0.0319093588203616 -0.0180630903168015 0.0162902707717256 0.2375041 -0.4523571 0.8596306 180 180 180
-0.019933588790471 0.0137524918968992 0.0148827755088054 0.1045735 0.5572836 0.8237107 177 177 177
0.0405300459565106 -0.0222692557128893 0.00265667840642389 0.4983703 -0.2984319 0.8139812 178 178 178
0.0289050412214151 -0.0188990079588021 0.00700052377513094 0.3309995 -0.2463042 0.9109191 237 237 237
0.0323111666108273 -0.0384872208652653 -0.00752400260192834 -0.1792841 -0.972465 -0.1488926 178 178 178
-0.0490210299372049 0.0136139617237593 0.0131090242593807 -0.7193736 0.3684192 0.5888708 143 143 143
0.0477557720285664 -0.0110839431910545 0.00408696166374753 0.3830363 -0.3082145 0.8707967 185 185 185
0.0396229905573144 0.00526365444714694 0.00994381784946213 0.3024648 -0.2188536 0.9276951 182 182 182
0.0334189802195226 0.00399129848815916 0.0109100883211677 0.3545335 -0.2012168 0.9131362 203 203 203
0.0309635144542066 -0.000673251266063546 0.0105365369906088 0.3701815 -0.1678734 0.9136652 184 184 184
0.00378740303054093 0.0291026525207946 0.00285422589550985 0.006078238 0.9804237 0.1968053 111 111 111
0.00235402193770629 -0.00733693849697437 0.0143494765813588 0.2502373 -0.1977614 0.947772 223 223 223
0.0261160701375061 -0.0252968950069531 0.00617072774297522 0.3611227 -0.1973061 0.9114059 191 191 191
-0.00981098707134054 0.00142509328769791 0.0178702441591942 0.2472455 -0.2635003 0.9324362 197 197 197
-0.0750765880554218 0.000342389354510919 -0.000343200734351151 -0.9680231 0.2373371 -0.08125534 105 105 105
0.0546598322329053 0.0276015941645671 0.0127627833714489 0.4728496 -0.1505437 0.8681877 187 187 187
0.0121474968495887 0.0195860029307804 0.0133869552957002 0.1259042 0.1803772 0.9755061 171 171 171
0.0220039035985935 -0.0353759539806242 -0.00966225575961824 -0.3117568 -0.9500907 -0.01163609 155 155 155
-0.0485493370737031 0.00200475462282457 0.023466100054615 0.03820059 0.0728979 0.9966075 209 209 209
-0.0476752215445284 0.0232068167154381 -0.00300669151586 -0.09871569 0.9679337 0.2309971 147 147 147
0.0140932381020176 -0.0228303216173233 0.00948037630662174 0.3658458 -0.1582976 0.9171144 196 196 196
-0.00275002506750655 -0.0287156778279453 0.00614317339458081 -0.3041451 -0.9507291 -0.06008364 111 111 111
0.0130270262605028 0.0299597596949144 -0.000147223481469921 -0.1687475 0.9335636 0.3162014 132 132 132
-0.00772836124412457 -0.00903773702115529 0.0153227990416903 0.2259446 -0.1647542 0.9601068 170 170 170
0.0408040227928868 -0.0320079748070238 3.7934541973178E-05 0.4996707 -0.2239934 0.8367533 198 198 198
-0.0284989688870767 0.00930455152786436 0.0189256334966145 0.1963704 0.5052344 0.8403434 160 160 160
0.0137676461885547 -0.0330126169357656 -0.00908306477158896 -0.313934 -0.9473688 0.06275189 144 144 144
-0.0125214295434861 0.0224987900576979 0.011494763859646 0.02433938 0.3320371 0.9429523 173 173 173
0.0296465828100927 0.03099755340022 0.000127103260912448 0.01082077 0.9641976 0.2649641 95 95 95
-0.0421183683962454 -0.0167677866015559 0.0182680998744985 0.03725893 -0.6291089 0.7764237 197 197 197
0.0425160091892769 0.00255622808831157 0.00875660390014005 0.2859793 -0.2176052 0.9332008 187 187 187
0.0081708794155162 -0.0100972146977402 0.0132842850795507 0.225906 -0.196408 0.9541438 209 209 209
-0.0600730563105651 -0.00426233820518729 0.0146997347595633 -0.7641234 0.3762474 0.5239783 150 150 150
-0.053750547378872 -0.014394947496063 0.012800861188609 -0.3523732 -0.9342707 -0.05451073 95 95 95
0.0272258385847235 -0.019833455381152 0.0072182336498462 0.3351943 -0.2265494 0.9145054 224 224 224
-0.0195755414913266 0.00706764752073175 0.0199757426404232 0.1268553 0.3482989 0.9287602 186 186 186
0.00110244497107725 -0.0279886218344778 0.0110125732984507 0.232807 -0.4665824 0.8532888 187 187 187
-0.00322680299173861 -0.0279474515107294 0.000209340728794055 -0.3581955 -0.9333907 -0.02185833 149 149 149
-0.034385490488722 -0.0183249935040066 -0.00308594638922302 -0.219326 -0.9401882 -0.2606575 90 90 90
-0.0282280291604029 -0.0179664355872632 0.015215545617923 0.2154211 -0.4299838 0.8767598 165 165 165
0.0522639334831494 -0.0170423370782743 -0.00079796859598838 0.5201498 -0.4292769 0.7383533 133 133 133
-0.0187351543413183 -0.023055745148697 -0.00215510926347165 -0.3174211 -0.925921 -0.2047292 115 115 115
-0.00732396074711339 0.0271871202790256 0.0100904959701069 0.006962386 0.7675594 0.64094 183 183 183
0.019727831519023 -0.0287229280657246 0.00753001855153562 0.3624956 -0.2121138 0.9075267 208 208 208
-0.00699630946022145 0.00596046055237176 0.0189113355990021 0.249548 -0.04984468 0.9670787 198 198 198
0.0418203640866466 0.00102249756853867 0.00859184769447835 0.3030359 -0.2144681 0.9285325 190 190 190
0.0240918446962772 -0.0354880424629962 0.00380057241625584 0.04899595 -0.7953537 0.6041622 195 195 195
0.00736391011039128 -0.031495995836309 0.00540843935194257 -0.1989394 -0.9721378 0.1239806 144 144 144
-0.00836940648325513 -0.0261643099485208 -0.006159030640881 -0.3092197 -0.9495009 -0.0532096 150 150 150
0.0478490075608291 -0.0241982937298165 -0.00207003780047713 0.5380911 -0.3329608 0.7743353 100 100 100
0.0545793585856127 0.0261000332864578 0.0123589372962827 0.5086285 -0.2452344 0.8253224 170 170 170
-0.0561810379329715 0.000630224571080862 0.0198608838641699 -0.5588977 0.3224342 0.7639827 205 205 205
-0.000919351834520743 0.00550759308754689 0.0174431924716209 0.2507658 -0.1404777 0.9578009 180 180 180
-0.0119247110242418 -0.0267474420563163 0.0084466129569401 -0.3691702 -0.92275 0.1106609 129 129 129
0.0267499502850579 -0.0240063586382359 0.0062963491585073 0.3564028 -0.1898036 0.9148506 195 195 195
-0.0424813584890447 -0.0114722908314865 0.0191465135830572 0.2782206 -0.1979051 0.9399079 187 187 187
-0.0390133188279411 -0.0186097959077854 0.00436870010728116 -0.2979981 -0.9524028 -0.0642335 80 80 80
0.00418985994694898 -0.029729660648014 -0.0100293376929759 -0.3357044 -0.9407753 -0.04737612 176 176 176
0.0370014915483323 -0.0383521773764396 -0.00946290471173475 0.07317001 -0.9472553 -0.3120155 134 134 134
0.0266044048715846 0.0275933268703487 0.0135154121250234 0.05561131 0.2863708 0.9565036 211 211 211
-0.0319280896481646 -0.00565937590783649 0.0193622194415938 0.2783812 -0.2595307 0.924742 201 201 201
-0.00902022949479386 0.00961817261554188 0.0184446419598961 0.1562162 0.4059659 0.9004378 184 184 184
-0.0581376591852401 -0.0124423268946937 0.00980453141698406 -0.3595929 -0.9327595 -0.02554826 96 96 96
-0.0657145827478702 0.017321791916865 -0.00182491250763642 -0.5872825 0.5597243 0.5846435 176 176 176
0.0469365880624921 0.0327539768651296 0.00622655970047914 -0.1204559 0.9665061 0.2266195 77 77 77
0.0510570637085452 -0.0141442540570217 0.00192376933089031 0.4686075 -0.3644491 0.8047259 193 193 193
-0.0485657522928347 0.0142428524182803 0.0138614731221169 -0.6335446 0.4041637 0.6597522 171 171 171
0.00230999509257668 0.0283859550646409 0.00146096844210827 0.04600371 0.9676022 0.2482531 138 138 138
0.0600997035794917 0.00429332238783564 0.00422725873322746 0.6790639 -0.2936116 0.6728034 192 192 192
-0.0320681383213346 0.021897466792006 0.00986014283428999 0.04052921 0.6407558 0.7666742 167 167 167
0.011657125066209 0.0227832146219146 0.0129109957322436 0.1435999 0.1042457 0.98413 174 174 174
-0.000431396742717638 0.0126160340370723 0.0158437793027634 0.1156879 0.4726324 0.8736331 165 165 165
0.00358575359634239 0.0294103888651148 -0.00215887640802095 0.06040115 0.9690537 0.2393463 64 64 64
-0.0395959810696112 0.000214305789700386 0.0218789173393074 0.2510181 -0.1698467 0.9529648 197 197 197
0.0201142962138032 -0.0179602508401199 0.00947139482238374 0.3607664 -0.2593776 0.8958632 160 160 160
0.0180558619400122 -0.0116374674823895 0.0117790384314165 0.3280291 -0.2135457 0.9202147 217 217 217
-0.0540034347667557 -0.0122048798353908 -0.00346319541013809 -0.3279691 -0.9360193 -0.1276874 71 71 71
0.024093889826363 -0.0354919970032713 -0.0123201279012642 -0.2979712 -0.9538224 -0.0378958 129 129 129
-0.00704762040298235 -0.0266380944918797 0.00321157463853758 -0.2975072 -0.946569 -0.1244849 100 100 100
-0.00661699325521337 0.0278909663965673 -0.00149115939784408 -0.1085416 0.948593 0.2973046 90 90 90
0.0245550101361047 -0.0339714996173821 0.0049351935167917 0.2316612 -0.5959935 0.7688465 187 187 187
0.0534057100324339 0.0223135828742093 0.0119152417108992 0.4116767 -0.2689242 0.870748 203 203 203
0.0187855358482207 -0.028079621170283 0.00738103614780705 0.3612392 -0.2052093 0.9096128 176 176 176
0.0555732819123786 0.0293121080776755 0.0124998411466431 0.4910975 0.0943548 0.8659794 179 179 179
0.0519486809247822 -0.00385283440056639 0.00520960832867012 0.4264489 -0.3309241 0.841802 160 160 160
0.0499006083747449 -0.01220647047088 0.0029246109469053 0.4285478 -0.3237598 0.8435202 167 167 167
-0.0684485472763781 -0.0071570954961313 -0.00174058717969086 -0.4015414 -0.9063842 -0.1312713 65 65 65
0.0296724910360302 0.014607185544394 0.0138360259653034 0.2705352 -0.2055619 0.9405078 161 161 161
0.0290004469437553 -0.0303763505266322 0.00431478843990704 0.3916402 -0.204382 0.897132 186 186 186
-0.0505060199604088 0.0187703036490457 0.0066298919769604 -0.6996287 0.3510857 0.622301 151 151 151
-0.0505264648775658 -0.00944767705400451 0.0208968887703722 0.1234963 -0.1624777 0.9789534 200 200 200
0.021246876291674 0.00100148980007297 0.0137114071883149 0.3323339 -0.1801169 0.9258035 230 230 230
-0.0332384723356638 -0.019907747875203 0.00429256488199822 -0.2605338 -0.9624708 -0.07597519 135 135 135
-0.0204928739252184 -0.0239649910717378 0.0132240617869809 -0.008324185 -0.8009374 0.5986902 148 148 148
-0.0737964924585719 -0.00339985193701031 0.00578646218636791 -0.698669 -0.3233455 0.6382079 188 188 188
-0.034590517193724 -0.0192138664651657 0.0160660383592336 0.1681599 -0.6453558 0.7451431 205 205 205
0.0623075246800475 0.0307674653496494 0.00900741971988833 0.7172661 -0.3025239 0.627701 169 169 169
-0.0389057914051478 0.00736436997126055 0.020707452321918 0.135414 0.4326772 0.8913212 184 184 184
0.0432683747727598 -0.0365079351173824 -0.00404221207033653 0.6260923 -0.6217455 0.4705752 125 125 125
-0.0308332616005531 0.02364765636566 0.00879900464361899 -0.03706589 0.7421603 0.6691967 183 183 183
-0.0587142295242162 -0.00815879756428073 0.0185268042247813 -0.5767292 0.03744235 0.8160769 193 193 193
-0.04673252230792 -0.0146156557526851 0.0198396667662952 0.07791153 -0.5645403 0.8217202 204 204 204
0.0486590611935527 -0.0250599926168328 -0.00288330372332882 0.5622437 -0.2871875 0.7755033 128 128 128
-0.0611608744296226 -0.00407530244176257 0.0114751785644197 -0.5085879 0.4847744 0.7115702 136 136 136
-0.00639910654706144 -0.0273348793947708 0.0124709182120913 0.06501129 -0.56019 0.8258092 183 183 183
-0.0352509657182614 0.0247722713515571 0.00323248573809862 -0.07345582 0.974903 0.2101627 124 124 124
-0.0132142375541986 0.0258169602062364 0.0100219693925311 -0.006669282 0.457 0.8894417 190 190 190
-0.0160090130013297 -0.00473477203160222 0.0171702772565458 0.2589235 -0.2692813 0.9276024 200 200 200
0.024295341306082 -0.0272910403413047 0.00655853628975289 0.3739405 -0.1899782 0.9077867 198 198 198
0.0200981030748499 -0.0277794572647306 0.0071642409987982 0.361076 -0.1937273 0.9121918 189 189 189
-0.0393365967322405 -0.0190751099946599 0.0101363899577715 -0.3108069 -0.9496315 -0.03999057 79 79 79
-0.0461073341993607 0.0197702473822589 0.0114571384725394 -0.3045169 0.6861828 0.6606229 192 192 192
-0.0191752858828766 -0.0234513896914725 0.00361984659937351 -0.2941648 -0.9509155 -0.09605601 152 152 152
-0.0153586416853857 0.0237763278588932 0.0106246202150985 0.007523589 0.3567606 0.9341655 191 191 191
-0.02221308629588 0.0244518361062021 0.00863155453757808 -0.008150223 0.6006397 0.7994783 161 161 161
0.0383951167350576 -0.0287274036035078 0.00150741676703189 0.4901428 -0.2444291 0.8366687 199 199 199
-0.00593521245347306 -0.0259937176132883 -0.00718941970177514 -0.3286912 -0.9405072 -0.08607111 99 99 99
0.0455340624245126 0.0318618694911436 0.00982817000846331 -0.145207 0.835062 0.5306471 76 76 76
-0.0443655761408759 0.0231470334431985 -0.00194962014966052 -0.07670241 0.9945302 0.07089756 154 154 154
-0.0508168390382089 -0.015407091465053 0.0140334031010947 -0.2909497 -0.9552146 0.05397559 120 120 120
-0.04409232968449 -0.00163582991995548 0.0223395160407682 0.2349407 -0.2260879 0.9453503 186 186 186
-0.0355583841644695 0.0232051142820594 0.00824566659412457 0.01499512 0.9058297 0.4233765 158 158 158
-0.0561516848921912 0.0149125697034316 0.00270530446154291 -0.415077 0.4827284 0.7711578 184 184 184
0.0261831601439857 -0.0263997398779622 0.00632988059482908 0.3689362 -0.1930186 0.9091919 216 216 216
-0.0443697871514868 -0.0182352492467167 0.0148795914872388 -0.2172205 -0.9495028 0.2264061 113 113 113
0.0144543356825477 -0.0206226408387323 0.00996700703885484 0.3323041 -0.2242102 0.9161353 185 185 185
0.0204813937540416 0.025091089588633 0.0131052723646118 0.04125091 0.2665586 0.9629356 156 156 156
0.0190184759286192 0.0198557890879051 0.0136794747972919 0.06932245 0.2701846 0.9603097 162 162 162
-0.0256607708588925 0.0264138612494871 -0.00566741268368356 -0.1470234 0.9754522 0.1639424 114 114 114
-0.0581960314187162 0.00391600654970015 0.0131880328954719 -0.734503 0.4925158 0.4668335 177 177 177
0.044921521678146 -0.0322674657704429 -0.00185161360370159 0.5557294 -0.3495353 0.7543141 211 211 211
-0.0414820024909597 -0.0161130411765341 -0.00562218599884703 -0.2736189 -0.9434409 -0.1872216 70 70 70
-0.0566787432956963 -0.0092172912094084 0.0206099188123333 -0.289241 -0.03759511 0.9565178 199 199 199
0.000615983911543605 -0.0291805973602133 -0.0044757103412584 -0.3471781 -0.9345301 -0.07823573 157 157 157
0.0566161199699939 0.0359456469865287 -0.00234520966310239 0.1959128 0.9482501 0.2498797 49 49 49
-0.0517101920195047 0.0125172427518617 0.00905973754187211 -0.6645331 0.4589245 0.5897322 157 157 157
0.0264481019728837 0.0326749286847167 -0.00301909707863871 0.04908855 0.9470407 0.3173393 115 115 115
-0.0737066158784847 -0.00540791498241744 0.000286770083595095 -0.7009389 -0.7121066 0.03986168 159 159 159
-0.023116078639537 -0.00246241660837421 0.0188478612726783 0.2665892 -0.2902096 0.9190803 200 200 200
0.000306223229824543 -0.0231934535148673 0.0121961206343288 0.3173496 -0.1635811 0.9340934 175 175 175
0.0154336050297084 -0.000369982554992987 0.0143580015959849 0.2514507 -0.183849 0.9502484 204 204 204
-0.0277443876661549 -0.00372948869878509 0.0190124062759532 0.2675243 -0.2699291 0.9249697 210 210 210
-0.0577823138676417 -0.00164606470834738 0.0190038354977917 -0.6671093 0.2570982 0.6991893 192 192 192
0.0501575903549658 0.0263280918126663 0.0134589385685794 0.3108673 -0.1326831 0.9411465 169 169 169
-0.0276640906535919 -0.00458059651007303 0.0191594593934606 0.2725642 -0.2713329 0.9230857 211 211 211
-0.026751700792369 -0.00305611915858384 0.0193026971165677 0.2698542 -0.2660867 0.9254062 211 211 211
-0.0238169665421668 -0.00603173206986429 0.017514832396255 0.2862419 -0.3201233 0.9030984 184 184 184
0.00758471014784012 0.0141093281245697 0.0150394712728028 0.1360461 0.3638741 0.9214592 155 155 155
0.0263737198171321 -0.0368406542091041 0.000188739927135501 -0.1692381 -0.9446016 0.281223 149 149 149
-0.052498687614047 -0.0150829847274292 0.017408884902114 -0.271511 -0.8553187 0.4412614 137 137 137
-0.0526506879199076 -0.0131428451691764 0.00285833968327806 -0.3414879 -0.9331098 -0.112659 78 78 78
-0.018724676008774 0.0142536076836222 0.0150057085298028 0.1127939 0.5511699 0.8267341 142 142 142
0.0554670560960941 0.0346675855062474 -0.00123793354142768 0.1975487 0.9427094 0.2688374 102 102 102
0.0584519908441155 0.00749509916162683 0.00554622579245445 0.5348927 -0.1704822 0.8275419 185 185 185
-0.0152862448575295 0.00429784084106299 0.0196765125949442 0.261349 -0.1307862 0.9563429 219 219 219
-0.00666610482107499 -0.028603083823201 0.0101354612621998 -0.1592266 -0.9551826 0.2495458 96 96 96
-0.0612795490536082 -0.0119311671648156 0.0110852218268999 -0.3949758 -0.8709206 0.2923892 79 79 79
0.0585535250003391 0.0184236717680333 0.00779940141315888 0.5256786 -0.1969818 0.8275628 169 169 169
-0.0114405138239357 -0.0155894586881834 0.0144511823707308 0.1509186 -0.1308465 0.9798483 207 207 207
-0.04084913065586 -0.0182948140752188 0.0128791990717977 -0.2472243 -0.9656089 0.08049618 101 101 101
-0.0207976598122683 0.016584603766998 0.013309451222437 0.1028927 0.5190575 0.8485236 174 174 174
0.0265888673344175 -0.0372239612971367 -0.00360936982629637 -0.299164 -0.9535638 0.03488538 131 131 131
0.00129055271705347 0.0155401064495274 0.0147322514044513 0.08374739 0.4006534 0.9123942 151 151 151
0.0379701122662937 0.000167580102009124 0.00914608080635887 0.3325225 -0.1863755 0.9244961 192 192 192
-0.0748733998034004 0.000571813976852242 0.00542927202512922 -0.7664329 0.2087354 0.607462 212 212 212
-0.0469507806706986 -0.0174378554030434 0.014831268442667 -0.227 -0.9530022 0.2006434 137 137 137
-0.0438612688884854 0.0067291719123449 0.0212696431405007 0.07722341 0.5056216 0.8592923 203 203 203
0.0146997145441872 -0.00843453013223228 0.0128991629202078 0.2709567 -0.2307861 0.9345161 232 232 232
-0.0259098109820695 0.0139102373024483 0.0155824890754531 0.1347982 0.599116 0.7892334 175 175 175
0.0118920967472569 -0.0299026807738167 0.00873356656012153 0.23552 -0.4762917 0.8471579 193 193 193
0.0210383412604336 -0.0164589978277982 0.00947424254630896 0.3518288 -0.2837581 0.892019 161 161 161
-0.0475251579907536 -0.016266252405302 0.00698059849308597 -0.3453306 -0.9333925 -0.09759753 104 104 104
-0.0439861190018842 -0.0168903068473875 0.00751691511575253 -0.3247031 -0.9428391 -0.07498237 112 112 112
-0.0519445559707474 -0.00019649972728486 0.0226471898229392 -0.2246819 0.0284942 0.9740155 228 228 228
0.0643497352053934 0.029618684056562 0.00542706994539333 0.8154855 0.07057451 0.5744585 169 169 169
-0.0622765422347094 -0.00694750710395164 0.0143289271862685 -0.5648736 0.322674 0.759473 167 167 167
0.056791338197999 0.0173249140869798 0.00854487525363462 0.5058096 -0.2184096 0.8345382 194 194 194
-0.0481168880810463 -0.0169406607874388 0.0133699135052942 -0.3208185 -0.9471141 -0.007100649 140 140 140
-0.0310115759529253 0.015591244027394 0.0133934992214903 0.1324455 0.5978557 0.7905864 163 163 163
-0.00456903243749851 0.0202532486743858 0.0126178781794289 0.03081852 0.238186 0.9707305 146 146 146
0.0182571453491405 -0.0080012339331863 0.0126415057916164 0.3325389 -0.2130844 0.9187017 190 190 190
-0.00027752555010796 -0.0300608320344428 0.00586185733097433 -0.326079 -0.9451125 -0.02085336 87 87 87
0.0459415560898098 -0.0107318889185933 0.00449464274940367 0.4050069 -0.2891122 0.8674005 154 154 154
-0.0459541181896039 -0.0170012746054677 0.0105199814209241 -0.2924477 -0.9505203 -0.1048119 87 87 87
-0.076438613447948 -0.00388763380675883 0.00129696393430742 -0.9487934 -0.2472827 0.1965769 151 151 151
0.0218219400626025 -0.0353661860946928 -0.0113057800760288 -0.3007653 -0.9534815 -0.02032724 143 143 143
-0.0249988605531928 0.0271303104960507 -0.0051708340412934 -0.1497729 0.9767814 0.1531865 119 119 119
-0.0520873564060125 0.000985906152498273 0.0227467790473555 -0.2605263 0.1831319 0.9479392 227 227 227
0.0551173590727911 0.000417876133951722 0.00567121130889847 0.4837251 -0.3008619 0.8218833 182 182 182
-0.0325507448876632 -0.0177255664092646 -0.00506413090597627 -0.2409077 -0.9344292 -0.2623082 65 65 65
-0.00643194232866007 0.0285829156449099 0.00324586232371757 -0.0291532 0.9666886 0.2542895 50 50 50
-0.0535943881371139 -0.0118929741594843 0.0202942219222816 -0.09610277 -0.3389265 0.9358916 196 196 196
-0.0759879909608672 -0.00238430508088272 0.00477794185376487 -0.8791272 -0.1460505 0.4536569 179 179 179
-0.0448852189878646 0.0102532257429789 0.0181234829896074 -0.1391938 0.6111014 0.7792177 192 192 192
-0.00653760726052344 -0.0265646367827082 -0.00392714629590987 -0.3261965 -0.943473 -0.05877454 128 128 128
0.00388602595212761 0.0296282995404913 7.62627344809974E-05 0.04139414 0.9664318 0.2535668 83 83 83
0.0522939972829146 0.0113510417669975 0.00896871418274098 0.3976054 -0.2213424 0.8904591 207 207 207
0.0293689799420371 -0.0372951322503662 -0.0117716542817667 -0.2075091 -0.9710308 -0.1184866 112 112 112
-0.0659247764589144 -0.00883279988167385 0.0123505677084432 -0.4627043 -0.05210641 0.88498 213 213 213
-0.0581039916605177 -0.0131882224174946 0.0156080760952158 -0.5015636 -0.779785 0.3746589 152 152 152
-0.0591740562327701 -0.012278348281794 0.00945043713211552 -0.3809129 -0.9241612 -0.02883466 115 115 115
-0.0580487555266975 -0.0127954056227332 0.00913324216877059 -0.3557647 -0.932734 -0.05864122 73 73 73
-0.053697899374725 -0.0144986049395015 0.00871986058932434 -0.3472312 -0.9274877 -0.1385531 69 69 69
-0.0567872114901484 -0.0140354082867993 0.0123546281863787 -0.3943395 -0.9188001 0.01740126 67 67 67
-0.049029920938445 -0.0156525741853508 0.00757628383189574 -0.3237295 -0.9361215 -0.1373896 51 51 51
-0.045736159791065 -0.0164696068670879 0.007173408076943 -0.3419663 -0.9361238 -0.08204396 79 79 79
-0.0415397569816145 -0.0174154069238521 0.00738044974096386 -0.2938283 -0.9539704 -0.06004521 121 121 121
-0.0455447387926884 -0.0174079825089448 0.011719276122521 -0.266701 -0.9614189 -0.06741059 68 68 68
-0.0423267928324207 -0.0181348477754495 0.00998091891997283 -0.2947237 -0.9533625 -0.0650997 92 92 92
-0.0427932122488568 -0.0184605630762513 0.0147666941674618 -0.1871278 -0.9570843 0.2212981 145 145 145
-0.0445987120528213 -0.0176488082458665 0.0179522376320567 0.0009589695 -0.7725377 0.6349681 150 150 150
-0.0488868297960234 -0.0165500015236779 0.0114418666998773 -0.3218794 -0.9430988 -0.08341615 124 124 124
-0.0447226326551271 -0.0177202575455467 0.0133624609493927 -0.2189732 -0.9743164 0.05251856 118 118 118
-0.0448436740818239 -0.0171772197033678 0.0120228763951367 -0.2553213 -0.965732 -0.04661167 116 116 116
-0.0425823704842481 -0.0179828961095062 0.01286791390143 -0.2321394 -0.9691889 0.08236643 148 148 148
-0.0581558966775186 -0.0103966065444472 0.0194630338160265 -0.4886657 -0.2127579 0.8461323 209 209 209
-0.0567072960509538 -0.0128430484583357 0.0194979885155377 -0.3661536 -0.4913249 0.790273 206 206 206
-0.0545948262250859 -0.00996971407620828 0.0207229546336021 -0.1113192 -0.1472057 0.9828217 194 194 194
-0.0610770877546805 -0.0100081865200028 0.0157907445344975 -0.5962952 -0.04218577 0.8016561 213 213 213
-0.0588129753295399 -0.00942829042433602 0.0178316819013051 -0.5876543 -0.115242 0.8008631 175 175 175
-0.0613297181160712 -0.00785357176772328 0.0162575430451929 -0.6708515 0.1040968 0.7342494 196 196 196
-0.0573801023608365 -0.00833639988522805 0.0204064051478096 -0.3376523 -0.0209358 0.9410381 194 194 194
-0.0567083138326954 -0.00853843978497937 0.0205557169536008 -0.3376523 -0.0209358 0.9410381 195 195 195
-0.0525944683232833 -0.00960945859753848 0.0208651537855297 0.003023586 -0.19627 0.9805452 177 177 177
-0.0587003405191573 -0.00775107300930422 0.0179753504246955 -0.5902641 0.05296893 0.8054704 213 213 213
-0.058714985714841 -0.00589012683380341 0.0189544164424247 -0.5984285 0.1510672 0.786805 193 193 193
-0.05945045262659 -0.00604601876634836 0.0177557978915938 -0.6632824 0.1351711 0.7360606 188 188 188
-0.0599346167443042 -0.00608154537278571 0.0171439861961104 -0.6964842 0.1884433 0.6923864 164 164 164
-0.0589266860793232 -0.00479268947674893 0.0180851032585684 -0.6552739 0.2045924 0.7271575 194 194 194
-0.0584168873181152 -0.00350682386705903 0.0190773694846266 -0.641201 0.1704107 0.7482122 205 205 205
-0.0564855580967172 -0.00609929828537303 0.0198921317189029 -0.398003 0.08930689 0.9130268 205 205 205
-0.0525293770195212 -0.00596490002955041 0.021091368956381 -0.0269307 -0.107765 0.9938115 187 187 187
-0.0535510802547248 -0.00588265842615887 0.0210283458739093 -0.1235605 -0.1051209 0.9867535 172 172 172
-0.0524188613861236 -0.00438375131202784 0.0212081646528468 -0.04543763 -0.1093604 0.9929631 201 201 201
-0.0505939913971725 -0.0159952089195347 0.0191582886419958 -0.1978258 -0.8109744 0.5506228 152 152 152
-0.0482238406673909 -0.0148211732457948 0.0198559181503363 0.070454 -0.6413637 0.7639953 190 190 190
-0.0451951028813293 -0.0132447563069727 0.0194437132754607 0.203873 -0.3513609 0.9137731 181 181 181
-0.0422348344422576 -0.0137572174395302 0.0189238643733882 0.2483902 -0.3341523 0.9092 197 197 197
-0.0435878618185082 -0.0121265933003115 0.0191306322848915 0.2775723 -0.2188904 0.9354361 184 184 184
-0.0494949918864465 -0.0089597383120833 0.0206612428005393 0.1895284 -0.1740225 0.9663308 201 201 201
-0.0488266227893743 -0.00574815439209786 0.0214234828259549 0.1492569 -0.2198511 0.9640477 202 202 202
-0.0483925414460615 -0.00470082575106612 0.0216445827316378 0.1349713 -0.2382686 0.9617748 199 199 199
-0.0463823292648939 -0.00424503422521083 0.0214813910040203 0.205618 -0.2612959 0.9431043 216 216 216
-0.0463688552452162 -0.00309564220021985 0.0219400451519517 0.1816286 -0.2509149 0.9508169 206 206 206
-0.0525631725888482 -0.00183152330702441 0.0221711119860395 -0.2054407 -0.07865544 0.9755037 208 208 208
0.0272651879656278 0.0291708901184697 0.011524637085932 -0.1260902 0.7906177 0.5991868 136 136 136
-0.0467424655163318 -0.000119748668562791 0.0226911981441077 0.1698789 -0.09758032 0.9806219 204 204 204
-0.0445523993650374 -0.00274059373621316 0.0218813017702166 0.2377277 -0.270851 0.9328051 198 198 198
-0.0420747802306596 -0.000300055227990592 0.0220672206153729 0.2594373 -0.1912585 0.9466321 205 205 205
-0.00716779226113751 0.0275317657329956 0.0115133388521966 0.01250635 0.6106364 0.7918124 95 95 95
0.0611860009424769 0.0270450048946942 0.00817485598584494 0.7217183 -0.1760618 0.6694214 148 148 148
-0.0342368653860143 0.0111700917987434 0.0179074773324925 0.1658324 0.604523 0.7791351 171 171 171
-0.0406810178416546 -0.0178683870900214 0.0166772671914714 -0.06728888 -0.8318459 0.5509126 171 171 171
-0.0610910317333508 -0.00159965119913841 0.0104154811292533 -0.4442612 0.5499069 0.7072725 153 153 153
-0.0125481947603081 0.0164619491213918 0.0135226544368176 0.0935789 0.4157736 0.904641 162 162 162
-0.0178518737763484 -0.0243428185596632 0.00191272203795831 -0.2732212 -0.9553368 -0.1126135 131 131 131
-0.0352667561935918 -0.0190636249778268 0.00164783009456035 -0.2878276 -0.9511882 -0.1113386 133 133 133
0.0243830325669805 0.0319474448008243 -0.00165718948079677 0.03466469 0.9452858 0.3243966 129 129 129
-0.0509802882841521 -0.0135138663814174 -0.00139843117597718 -0.361664 -0.9273054 -0.09645666 63 63 63
-0.0533860648584681 -0.0122812057079955 -0.00338866410291352 -0.3404835 -0.9310433 -0.1312611 130 130 130
-0.0558501875942525 -0.0116789825747206 -0.00408243272315637 -0.3214402 -0.9355898 -0.1461093 35 35 35
-0.0510048411237394 -0.0123546339072031 -0.00495010770300633 -0.3747241 -0.9214462 -0.1025607 136 136 136
-0.0526848563057065 -0.0122613148244396 -0.00418395105696992 -0.3607705 -0.9259263 -0.1118268 80 80 80
-0.0419304358898964 -0.0158208438429734 -0.00727348400313946 -0.2750578 -0.9430163 -0.1872525 83 83 83
-0.0451965828735177 -0.0158187380368942 -0.000257848682629819 -0.3809144 -0.9241524 -0.02909365 80 80 80
-0.0454655235947592 -0.0160256088454247 0.00172721240851245 -0.3736441 -0.9254549 -0.062636 64 64 64
-0.047548300611802 -0.0152858669904498 0.000362213749305423 -0.4178228 -0.9070359 -0.05205674 60 60 60
-0.0429643620197959 -0.0176235614472029 0.00345966769386061 -0.3467676 -0.9368003 -0.04644749 110 110 110
-0.0407386531159202 -0.0175962946319445 0.00218056139349773 -0.3266096 -0.9437126 -0.0522753 114 114 114
-0.0404557420273108 -0.0179518837120674 0.00331845058765876 -0.3044408 -0.9515231 -0.04381299 69 69 69
-0.0428890142010676 -0.0173654221975593 0.00211024114702282 -0.3408863 -0.9389727 -0.04611795 103 103 103
-0.040911591433106 -0.0178499128548572 0.000989339040206455 -0.3347451 -0.9385055 -0.08457619 148 148 148
-0.0400012731606667 -0.0167301134578101 0.00291374707587086 -0.3044408 -0.9515231 -0.04381299 105 105 105
-0.0477792066711702 -0.0137395026875012 -0.0058919882884694 -0.398063 -0.9130509 -0.08879127 78 78 78
-0.0460057368265328 -0.014882704301292 -0.00602373806948278 -0.3761103 -0.9164096 -0.1368743 55 55 55
-0.0474516527327409 -0.0147911153876062 -0.0043805581653841 -0.4109552 -0.9070843 -0.09118073 118 118 118
-0.0501665212613127 -0.0131107534047359 -0.00298084576086025 -0.3690957 -0.9263538 -0.07508082 115 115 115
-0.0461877534768145 -0.0155210737059679 -0.00239093861302034 -0.4078134 -0.9093294 -0.08251285 91 91 91
-0.045453569170518 -0.0148884352404554 -0.000266165715016281 -0.4027034 -0.9145308 -0.03825577 74 74 74
-0.0495288469980424 -0.0139818275152926 -0.00428985674809992 -0.4196539 -0.9017071 -0.1039953 90 90 90
-0.0491842063167747 -0.012775717749086 -0.00448136898407728 -0.4196539 -0.9017071 -0.1039953 85 85 85
-0.0467483593093276 -0.0144400377236878 -0.00354393954394253 -0.4101477 -0.9072547 -0.09310056 123 123 123
-0.042711144648826 -0.0170435490752611 -0.00197142016828447 -0.3053549 -0.9459632 -0.1091424 91 91 91
-0.0400616447998989 -0.0170580393203316 -0.00398789029511273 -0.2573243 -0.9470769 -0.1919101 84 84 84
-0.0402986840573947 -0.0167178386605404 -0.00440733599670642 -0.2530462 -0.9439937 -0.2117628 96 96 96
-0.0443953786056035 -0.0163627789449505 -0.00478858357203674 -0.3257569 -0.9365883 -0.1291698 114 114 114
-0.0436223478119628 -0.0153444398133663 -0.00666595846445342 -0.3288816 -0.9292665 -0.1682279 98 98 98
-0.0432075439096162 -0.0156355769659955 -0.00415081552649579 -0.3209741 -0.9376078 -0.1336681 151 151 151
-0.0444885392281709 -0.0158087535249666 -0.00224126521656878 -0.3450798 -0.9329328 -0.102744 106 106 106
-0.0607577472643488 -0.00940265535154616 -0.00661325243218716 -0.3505751 -0.9221232 -0.1636639 48 48 48
-0.050385635142189 -0.0123017670308104 -0.00778401172494095 -0.3666961 -0.9245723 -0.1034408 59 59 59
-0.0516463926138857 -0.0110546492249763 -0.00854786737074856 -0.364235 -0.9218439 -0.1324257 58 58 58
-0.0532275065292342 -0.0112475881141368 -0.00606127067596976 -0.3363064 -0.9367284 -0.09714915 77 77 77
-0.0551537155755812 -0.0106986399237652 -0.0072754476619056 -0.3313675 -0.9362994 -0.1163574 47 47 47
-0.0522386841929241 -0.0122837552261864 -0.00614122540632625 -0.3571183 -0.9289092 -0.09794965 55 55 55
-0.0408351349098597 -0.0157521718167478 -0.00859664830385246 -0.2589171 -0.9439819 -0.2045977 44 44 44
-0.0485400505522913 -0.0130374526300294 -0.00923108721374813 -0.3883047 -0.9062089 -0.1673464 32 32 32
-0.0491617270773568 -0.0127966505834153 -0.0081887417128528 -0.3963116 -0.9057131 -0.1504022 78 78 78
-0.0751114069219114 -0.00508114910665713 0.00160411352779885 -0.8180298 -0.5582321 0.1385795 174 174 174
-0.075393145889791 -0.00506725846246725 0.00224438859113738 -0.8401887 -0.4950856 0.2212989 167 167 167
-0.0759259343103253 -0.00277756011406127 -0.000547516410709187 -0.9976379 -0.06840796 0.006240997 134 134 134
-0.0765436524076475 -0.00281909271150071 0.0025237863604731 -0.9380789 -0.1965416 0.2852705 170 170 170
-0.0763249820947265 -0.00139306103122938 0.00177831477784493 -0.9808699 -0.04530164 0.1893199 147 147 147
-0.064413279745914 -0.0101901001912361 0.00307335962395225 -0.3431222 -0.9338986 -0.1005017 67 67 67
-0.0703540182769458 -0.00696145014142757 -0.00139622106727535 -0.4545228 -0.8827003 -0.11937 112 112 112
-0.0700378568280997 -0.00705254277105216 -0.00294913718256443 -0.453896 -0.8790154 -0.1459809 70 70 70
-0.0647334479004105 -0.008334737644486 -0.00376006182921509 -0.3435397 -0.9255797 -0.1590054 78 78 78
0.0200479638419364 0.0131521746553874 0.0158200372946628 0.2415505 -0.007547474 0.9703589 198 198 198
-0.0651475385878322 -0.00883498560412943 0.00150992220235976 -0.3487362 -0.9279231 -0.1316884 68 68 68
-0.0707439872503079 -0.00741140656576866 0.0046185613252466 -0.5231602 -0.8262409 0.2088767 145 145 145
-0.0650503005122478 -0.00962752869777772 0.00322520094333764 -0.356023 -0.9306722 -0.08424339 92 92 92
-0.0674993373400965 -0.00959947529724503 0.00969860415148921 -0.5029976 -0.1792799 0.8454893 152 152 152
-0.068023081425137 -0.00918131006837852 0.00828244923812421 -0.5743902 -0.6970031 0.429258 161 161 161
-0.0693264564032248 -0.00858933694310948 0.00271288189902849 -0.4783623 -0.8763581 0.05626764 100 100 100
-0.0691571279310446 -0.00747731915695837 0.00168622714640418 -0.4384174 -0.8987452 -0.006872685 96 96 96
-0.0735691566340835 -0.00553910806834434 0.00363577939751078 -0.7076273 -0.6451109 0.288263 214 214 214
-0.0747782698525978 -0.00514128547159476 -0.00258120796054209 -0.8359704 -0.4468061 -0.3186186 111 111 111
-0.0752982324941494 -0.00302195127155713 -0.0021519858333863 -0.9245325 -0.2108518 -0.3174606 65 65 65
-0.0755394181144462 -0.00197348500228112 -0.00165767518688401 -0.9820944 -0.111767 -0.1516533 65 65 65
-0.0677790591253919 -0.00639786318300661 -0.00512254712207463 -0.4153853 -0.8947335 -0.1640337 72 72 72
-0.0727431080012693 -0.00541414004160923 -0.00340157847467806 -0.7444484 -0.4998 -0.4427149 67 67 67
-0.0690197378080279 -0.00681065313310858 -0.00382315126503799 -0.4437998 -0.8810961 -0.163436 74 74 74
-0.0652444787748037 -0.00747777269098393 -0.00656185639121001 -0.3453881 -0.9250864 -0.1578674 62 62 62
-0.066106505838031 -0.00786437061498724 -0.00370020888569292 -0.3501965 -0.9243795 -0.1512778 66 66 66
-0.0664309462935839 -0.00665655514352625 -0.00491827607343612 -0.3579603 -0.9221761 -0.1464778 68 68 68
-0.0627804728533752 -0.00902108437708515 -0.00439152805916568 -0.3519364 -0.9241931 -0.1483506 72 72 72
-0.0744337345836228 -0.00262197660962948 0.00531648727880385 -0.7759977 -0.1944738 0.6000062 194 194 194
-0.0755565824517634 -0.00157878018971802 0.00490054763729195 -0.8845583 -0.1143124 0.452205 217 217 217
-0.0747143201734866 0.00283534216034731 0.0048802214826725 -0.7488632 0.4603665 0.4767249 192 192 192
-0.0695839606020008 -0.00695530901399166 0.0102867397023806 -0.4872084 -0.1177875 0.8653058 216 216 216
-0.0709106927338827 -0.00593346599472089 0.00920380251424008 -0.5459445 -0.1872246 0.8166343 197 197 197
-0.0699852496070852 -0.00766195383328938 0.00945594723010584 -0.553993 -0.0826553 0.828408 204 204 204
-0.071617710999504 -0.00478529011609685 0.00797084176514867 -0.5775251 -0.2167847 0.7870636 204 204 204
-0.0702923604689221 -0.00509341473308034 0.0092619171380442 -0.5044428 -0.1633902 0.847845 209 209 209
-0.0693403260349021 -0.00417277654731174 0.0103759211830978 -0.3890548 -0.05141609 0.9197786 214 214 214
-0.0713071535771475 -0.00224331919438181 0.00910666528482357 -0.4124459 0.118997 0.9031767 208 208 208
-0.0702884090216829 -0.00378948319125283 0.0094155542811592 -0.4863282 -0.1127877 0.8664663 224 224 224
-0.0698051368926684 -0.00289340258049053 0.00950632601182627 -0.3716024 0.1752217 0.9117066 196 196 196
-0.0696819039902503 -0.00128738307587983 0.00949615948382226 -0.2689528 0.2891552 0.9187239 205 205 205
-0.0682036009148295 -0.00793548867070892 0.0107591357033992 -0.4102974 -0.009130468 0.9119061 216 216 216
-0.0652856961783961 -0.00599038898677362 0.012088369601624 -0.4018935 0.09496766 0.9107484 200 200 200
-0.0674753443697522 -0.00589817154740613 0.0113928988937333 -0.3974539 0.01511686 0.9174976 213 213 213
-0.0670080380394884 -0.00335890536934036 0.011216029328023 -0.1685617 0.2704668 0.9478579 170 170 170
-0.0661948231425242 -0.00313278209158829 0.0111069965097476 -0.1292465 0.3250265 0.9368314 161 161 161
-0.0680754320441914 -0.00153600149477517 0.00969897815177584 -0.1561102 0.3966059 0.9046178 184 184 184
-0.0733197583864276 -0.00138032341921057 0.00713679761797392 -0.6025677 -0.06845866 0.7951261 201 201 201
-0.0729097613085719 -0.00158450661293841 0.00833818725708796 -0.4801631 0.02366019 0.8768601 182 182 182
-0.0713333206418034 -0.000537377218386093 0.00881899845886042 -0.3706384 0.2573238 0.892419 207 207 207
-0.0637061464472812 -0.000100767915301225 0.00934937160123511 -0.08825671 0.5439577 0.8344584 179 179 179
-0.0681958085785221 0.00179358193991952 0.00810184248552209 -0.03951243 0.5079508 0.8604794 199 199 199
-0.0674762421609216 -3.13431896620253E-05 0.00908606879914159 -0.08124966 0.4801853 0.873396 196 196 196
-0.0656431078943824 0.00315120395864854 0.00689254537165607 0.02093142 0.5410681 0.8407182 157 157 157
-0.0647653826572507 0.00275733486713881 0.00689578786230216 -0.007026456 0.5612678 0.8276044 166 166 166
-0.0622486184701914 0.00285406072101968 0.00738298206999988 -0.223028 0.5645762 0.7946774 160 160 160
-0.075602448433544 -0.000163537398185198 0.000730989268712817 -0.9939108 0.1100621 0.005243762 118 118 118
-0.0758764532769174 -0.000357208496854167 0.00166838502668784 -0.9790216 0.07120134 0.190911 122 122 122
-0.0749639351158553 0.00128101083981413 0.000885907637259681 -0.9269721 0.368613 0.0696216 112 112 112
-0.0754990975955439 0.00103229372277636 0.00170790325531997 -0.9465376 0.3060121 0.1020938 119 119 119
-0.0734166606368021 0.00295447388674308 -0.000444806314115836 -0.8582137 0.5132358 0.00763462 138 138 138
-0.0750771223471007 0.00253278073142282 0.00279210421015227 -0.8807048 0.4227355 0.2136676 149 149 149
