ply
format ascii 1.0
comment File exported by Rhinoceros Version 7.0
element vertex 474
property float x
property float y
property float z
property float nx
property float ny
property float nz
property uchar red
property uchar green
property uchar blue
end_header
-0.151130935367205 0.0687155771482155 0.0194863907269975 -0.53676 0.2322828 -0.8111309 179 179 179
0.0638141990717531 -0.107420625357706 -0.101343378714705 -0.04256644 0.5346115 -0.8440253 92 92 92
-0.0297976508930535 0.0679909551183202 0.0140148610920824 -0.06137403 0.5262909 -0.8480868 197 197 197
-0.114371882123438 -0.020444227513349 0.000608425010060365 -0.9847314 0.1200816 -0.1260336 69 69 69
0.100275298257629 0.0538241149469139 -0.000165954668614687 -0.03418032 0.5324248 -0.8457869 145 145 145
0.102201598632309 -0.0017902368760514 -0.0357282592385945 -0.04138944 0.5356277 -0.8434393 152 152 152
-0.0425280578319787 0.0766636764943947 0.0200675913294746 -0.004616154 0.5507643 -0.8346481 80 80 80
-0.101978136751385 -0.0230153776367783 -0.0404237265097661 -0.5986214 0.2065314 -0.7739491 116 116 116
-0.130968014586639 0.0686364063079068 0.0182486746798391 -0.04029825 0.5280855 -0.8482345 171 171 171
0.0419543904793045 0.139481973306265 0.0640254084212755 0.1733935 0.7027007 0.6900336 70 70 70
-0.0797934050811542 -0.0207236977399679 -0.040685740932078 -0.01156455 0.5110272 -0.8594868 130 130 130
-0.0645130667058811 -0.0793154790155993 -0.0464804209710519 -0.9248382 -0.3559248 0.1341335 54 54 54
-0.0790042489306693 0.0175253867601262 -0.0163468242914057 -0.02134966 0.5446926 -0.8383639 146 146 146
0.0316807031906556 -0.0217760841797112 -0.0453494903129892 -0.004889458 0.5548925 -0.8319077 86 86 86
-0.0307477863974053 -0.152315224012499 -0.126545818474294 -0.02450843 0.5347023 -0.844685 117 117 117
-0.0636023077018282 -0.0876915241279763 -0.0623108857256714 -0.9767063 -0.212763 -0.02787101 64 64 64
0.105417619098497 0.0255159788050296 -0.0184051248482047 -0.03520378 0.5385007 -0.8418894 123 123 123
0.00242968162941937 -0.140560985607542 -0.120379496802455 -0.03259322 0.5504948 -0.8342021 99 99 99
-0.0647639628601484 0.10011873403008 0.0359572126511845 -0.04947747 0.539749 -0.8403708 142 142 142
0.0149395147645359 -0.080541262596877 -0.0826336848192833 -0.03457135 0.53946 -0.8413012 123 123 123
-0.0367455010147548 -0.10932459400566 -0.0992334743453638 -0.02654561 0.5349995 -0.8444353 133 133 133
0.100866618116519 0.0855161319776605 0.0775903208837456 0.9535428 0.2604936 0.1513251 80 80 80
-0.146468657903345 0.0677486329679702 0.0184233965574939 -0.273683 0.3451612 -0.8977535 213 213 213
0.0756841874488998 0.0729661002239865 0.0131655146324277 -0.02368576 0.535372 -0.8442842 159 159 159
0.0421391984897843 0.0129722470489015 -0.0234426404150176 -0.03579189 0.5314964 -0.8463041 117 117 117
-0.0103540504044299 0.148282456663347 0.0646674479365326 0.09742634 0.8113992 -0.5763153 130 130 130
0.0748382524645352 0.0476935444440454 -0.0029397341628149 -0.04346049 0.5361589 -0.8429976 129 129 129
-0.128037143704482 0.0291749087225035 0.0444725068327167 -0.910868 -0.2410382 -0.3349926 73 73 73
-0.106636429635434 -0.0339722708664407 -0.0118221175105042 -0.9455746 -0.3100735 -0.09870724 66 66 66
-0.0242141644414628 0.117092023622711 0.0963059502763002 0.9353145 0.3222978 0.1459825 45 45 45
-0.150043419668253 0.0548885803671642 0.0360415793510268 -0.5650188 -0.5741552 -0.5925364 97 97 97
-0.145189238179543 0.146103097416782 0.121983604247707 -0.4798918 0.6572387 0.581155 56 56 56
0.00246156640448225 0.0935574891806716 0.0289969028309963 -0.04604558 0.5342144 -0.844094 200 200 200
-0.067748581221593 0.150861446265289 0.0909570678920251 0.5071664 0.7111233 0.4869146 66 66 66
-0.00364159930714569 -0.0995595121054408 -0.0941339103485835 -0.03182328 0.5470116 -0.8365199 129 129 129
0.0533209621078075 0.059562766271001 0.00595420898921772 -0.009229223 0.5283325 -0.8489874 110 110 110
-0.0516894196714532 -0.0986502054556514 -0.0918124965445585 -0.0001383626 0.5431705 -0.8396224 131 131 131
0.119196876675849 -0.0315284036857928 -0.0554644448434183 0.005990447 0.522752 -0.8524637 202 202 202
0.109888393375856 -0.0264038189569074 -0.0517075722029502 -0.02936361 0.5285964 -0.8483652 183 183 183
-0.0660885005902259 0.125847577890556 0.0524155056207375 -0.01293581 0.5324136 -0.8463855 154 154 154
-0.0284946585486052 0.0208713549669202 -0.0159456127566276 -0.02509008 0.5341659 -0.8450073 138 138 138
0.0851541961378803 0.0664218341070208 0.00860234012781541 0.003588303 0.5358763 -0.8442888 127 127 127
-0.0167560159232485 -0.0169382956964672 -0.0407508632510081 -0.02918073 0.5325094 -0.8459209 170 170 170
-0.0673914253164125 0.0466660398183765 0.00239544207433107 -0.06502939 0.546692 -0.8348048 142 142 142
0.00311925736124596 -0.109256032523734 -0.100621451417839 -0.003057618 0.5336695 -0.8456876 99 99 99
-0.130766376772643 0.0948869396342611 0.034888492353893 -0.01824136 0.5480859 -0.8362231 184 184 184
-0.0532578424498 -0.0154807722898542 -0.037755509679852 -0.05522881 0.516628 -0.8544269 127 127 127
-0.0550524945845199 -0.109300472829441 -0.0634889642023386 -0.9146652 -0.3156344 0.2525125 66 66 66
-0.0308182875600544 0.13446321771667 0.0883304526567389 0.6452711 0.5227039 0.5571408 53 53 53
0.144379850877895 -0.0502983381000451 -0.0681913343655764 -0.06360239 0.5517364 -0.8315898 192 192 192
-0.00984197152164024 -0.110096498299201 -0.100524276380651 -0.02428905 0.5151218 -0.8567728 147 147 147
0.0550280988734002 -0.057892786205511 -0.0689986177610146 -0.03327958 0.5446537 -0.8380005 168 168 168
-0.0167737785761641 0.0501482956773744 0.00235538790232642 -0.03057153 0.5324538 -0.8459068 171 171 171
-0.123658051253827 0.0273401496591159 0.0164794787651084 -0.961432 -0.1214809 -0.2467609 31 31 31
0.0617323750602665 0.0022504742699776 -0.0313417650875081 -0.0119603 0.5619117 -0.8271108 122 122 122
-0.14468216582485 0.121953538430962 0.0526912682180834 -0.03941641 0.538363 -0.8417907 182 182 182
0.0093778630062169 0.01514075501057 -0.0211315395259606 0.01421123 0.5631745 -0.8262158 217 217 217
0.123042623155541 0.00685667915629606 -0.0309845539519847 -0.020536 0.5463294 -0.8373186 171 171 171
0.151795853353505 -0.118849642496397 -0.0940517547682013 0.294531 -0.8021737 -0.5193927 53 53 53
0.0884450561050523 -0.0767808382392081 -0.0830352619404298 -0.02927779 0.5310578 -0.8468297 74 74 74
0.0213225006066238 0.00770764386593226 -0.02611736443514 -0.03175674 0.53259 -0.8457774 133 133 133
0.0763473568795381 -0.0920381424109945 -0.0923948446700284 -0.04591369 0.5180956 -0.8540895 104 104 104
0.138397599964736 -0.00624771157023107 -0.00133261002283436 0.9520824 0.2711244 0.1415298 106 106 106
0.0677306147128829 -0.104007855994536 -0.0995472956811782 -0.02788381 0.5246444 -0.8508647 101 101 101
0.0191130245943567 -0.146628872162841 -0.124336902467458 -0.0240074 0.08264615 -0.9962897 120 120 120
-0.130355786221903 0.0799835363436978 0.025492185611217 -0.04408846 0.530458 -0.8465639 179 179 179
0.0717383610703766 0.0381611896357279 -0.00882641976219356 -0.05338797 0.5191803 -0.8529956 141 141 141
-0.0863329235480357 -0.047215074124713 -0.0326208877007382 -0.510793 -0.8346397 -0.2060754 75 75 75
0.0719626222101506 -0.140336958141903 -0.107650849553883 0.3082261 -0.7971371 -0.5192004 90 90 90
0.0854874664733081 0.104791767130825 0.0331658379356543 -0.05828179 0.5195606 -0.8524436 104 104 104
0.0897451336822774 -0.0934396508927092 -0.0936104467475193 -0.05813012 0.5327359 -0.8442827 104 104 104
-0.025667953391566 -0.175965522854469 -0.109499696096224 0.257778 -0.7975243 -0.5454406 126 126 126
-0.0602447881633408 -0.0881534552999053 -0.0479902764533941 -0.9599431 -0.2649152 0.09126507 35 35 35
-0.098601150970796 -0.0488609491879917 -0.00681034790587531 -0.6392381 -0.7540988 -0.1506973 115 115 115
0.0800488199210303 0.120916004623843 0.0932007004847854 0.002367989 0.7570434 0.6533603 69 69 69
-0.0933615348768617 -0.0450547404480406 -0.027398367497764 -0.500649 -0.7973484 -0.3370253 44 44 44
-0.102757054549702 -0.0441544435258796 -0.00947309702906024 -0.8187583 -0.5727882 -0.03935014 74 74 74
-0.028074780521437 0.127490510898676 0.0925086031753212 0.8449094 0.4357305 0.3102692 65 65 65
0.105694211792073 0.0674306718133466 0.0086762773433825 -0.06891561 0.5285919 -0.846074 143 143 143
-0.189478814178215 0.0852174823400902 0.0540850246095846 -0.4694322 -0.5349702 -0.702453 55 55 55
0.140095220361543 0.00250831853411171 -0.03164621522321 0.8755344 0.4620191 -0.1413434 153 153 153
-0.0142767044314183 -0.0449123454060343 -0.0585060113301374 -0.04319231 0.5437719 -0.8381208 79 79 79
0.0388746227056691 -0.144737081784905 -0.12019469872741 0.2666697 -0.3488893 -0.8984228 121 121 121
0.102146970157471 0.0960000944340156 0.0481219127021725 0.9569809 0.2609446 0.1268675 126 126 126
-0.119916920420509 0.137121352875843 0.0616523304956326 -0.02252115 0.5509742 -0.8342183 154 154 154
-0.0206142240123195 0.0962681022404357 0.0317398540021467 -0.0101956 0.5176557 -0.8555282 132 132 132
-0.0241249636620156 -0.027186065497864 -0.0471305790271816 -0.006099083 0.507315 -0.8617391 89 89 89
0.0357018372124736 -0.0737018912728242 -0.0787496178089962 -0.05632807 0.5420299 -0.8384693 122 122 122
0.1027294617769 -0.14424257161832 -0.0839960399642699 0.3071443 -0.7914047 -0.5285272 95 95 95
0.0116854486255709 -0.109873433489938 -0.101021846499748 -0.04906937 0.5340177 -0.8440482 179 179 179
-0.0556572225471981 -0.111227435364753 -0.0797496618946887 -0.9297327 -0.3679186 -0.01526818 83 83 83
0.00158178671676446 -0.147941587113006 -0.125098942655946 -0.01788332 0.5212088 -0.8532418 147 147 147
-0.0628780131890572 -0.0902716158744302 -0.0698066623177577 -0.9830379 -0.1813262 -0.0275196 65 65 65
0.121886971249299 0.0512812817862398 -0.000345356576893607 0.8004174 0.5093077 -0.3161292 151 151 151
0.0125795210371531 -0.0857785896110418 -0.0856825752673469 -0.01925531 0.5412932 -0.8406134 99 99 99
0.0774169781481979 0.104430178358562 0.0331088249578205 -0.0239729 0.5442026 -0.8386112 124 124 124
-0.0591386945120638 0.150203156305963 0.083295639786463 0.4568167 0.5526516 0.6970615 86 86 86
-0.145117321900659 0.0577204990875231 0.0293307998999148 -0.7472697 -0.5336112 -0.3960392 36 36 36
-0.0261734596385828 0.016382244300839 -0.0192965079807008 -0.03954944 0.5196286 -0.8534764 108 108 108
0.155748640399713 -0.0406382365407782 -0.053168004155811 0.9561797 0.26327 0.1280983 94 94 94
-0.115511897827881 -0.0209484909399529 0.0130795414504767 -0.9832876 -0.1512926 0.1012716 67 67 67
0.15497046607308 -0.0836684379110555 -0.0898173349282372 -0.03296557 0.5255568 -0.8501196 120 120 120
-0.00226161843680117 0.109144186555018 0.0947476674210884 0.0707441 0.8240396 0.5620979 51 51 51
-0.040907275856144 -0.165780247082114 -0.0879978018774011 -0.9178975 -0.3541625 0.1789784 38 38 38
0.125160788640109 0.0305560852878146 0.0174836097631401 0.9551244 0.2665889 0.1291032 91 91 91
0.0520214161417587 0.115272989200234 0.0410516096425758 -0.05810163 0.5336199 -0.8437263 174 174 174
0.108428115231955 -0.0722524959440238 -0.0809045196067283 -0.02915289 0.5357195 -0.8438926 116 116 116
0.078673501656624 -0.0511442853358557 -0.0665377034029964 -0.02424048 0.52373 -0.8515394 80 80 80
0.0435096449971604 0.00467186188026325 -0.0291756106395557 -0.03624838 0.5223387 -0.8519673 103 103 103
0.124125674089742 0.0372490142866928 0.0104848767618944 0.9535553 0.270022 0.1334931 129 129 129
-0.0625889301264384 -0.00304527993192005 -0.0298181031073144 -0.04926653 0.5497956 -0.8338451 114 114 114
-0.0620585317667404 0.14673988947041 0.089068660068087 0.4183865 0.7437791 0.5212921 72 72 72
0.115181045926822 0.0197541491066928 -0.0223110975466729 -0.04800057 0.5386816 -0.8411409 155 155 155
0.140056851531892 -0.0164800310747255 0.00562384015150585 0.9538066 0.2686569 0.1344483 91 91 91
-0.0453798501177856 -0.121703442068017 -0.106806541245769 -0.06925703 0.5394314 -0.8391765 104 104 104
-0.0136947156643092 -0.0140552965777729 -0.0391006896154192 -0.02392861 0.5158639 -0.8563363 124 124 124
0.0876325321326012 -0.0971810229103812 -0.0959904833162988 -0.063651 0.5556285 -0.8289907 96 96 96
-0.103891358275782 -0.0405655076095723 -0.0168717858544926 -0.7871847 -0.5639915 -0.249507 107 107 107
-0.196836633047213 0.113703229826666 0.0613745303032485 -0.9279092 0.2245172 -0.2976181 70 70 70
0.108319736162208 0.0763745539209091 0.0139574585729898 0.1846737 0.5945564 -0.7825588 176 176 176
-0.136628691926965 0.0929975318956904 0.0340601700554417 -0.0350991 0.5398459 -0.8410317 148 148 148
-0.19257041363718 0.137487996572068 0.0730111690945778 -0.9568675 0.1007231 -0.2725059 84 84 84
0.0425590866420329 0.133263043128141 0.067099689440082 -0.1689682 0.6422485 0.7476407 92 92 92
0.00449899116523778 0.0529984112684145 0.0032632597615867 -0.02461736 0.5520926 -0.8334193 110 110 110
-0.0462234410714686 -0.0298855735398142 -0.0479124581273494 -0.03564341 0.5514511 -0.8334454 125 125 125
0.00751223516762956 -0.00182464402756266 -0.0319711947701417 -0.007957354 0.5094776 -0.8604471 107 107 107
-0.0919689753973079 0.0881618771343673 0.0293605157676105 -0.0323692 0.5479898 -0.8358585 114 114 114
0.049179986095945 -0.153019858956277 -0.100759988421438 0.2926828 -0.8003458 -0.5232431 95 95 95
0.12133853924631 0.0377063214904063 0.030419960980836 0.9549372 0.2627107 0.1381231 96 96 96
0.0293365418994695 -0.0710261814391515 -0.0770740235100787 -0.02520751 0.5282053 -0.8487424 121 121 121
-0.0108011982804683 -0.0358895134857544 -0.053156443482536 -0.01472822 0.5557883 -0.8311934 219 219 219
0.152310297478633 -0.134124151139114 -0.0707247606135618 0.3066466 -0.8021637 -0.5123488 97 97 97
0.143011738983563 -0.0193773316167083 -0.00907449665898902 0.9510202 0.2770388 0.1371501 92 92 92
-0.0964743573038911 0.0242938272262125 -0.0110759040826789 -0.03048559 0.5392586 -0.8415883 147 147 147
-0.0265194340826946 0.074163106011911 0.0179394227114484 -0.05392852 0.5505444 -0.8330622 110 110 110
-0.13491561511247 0.146436593503752 0.0681796300531901 -0.01657579 0.546002 -0.8376198 170 170 170
-0.0398200110736884 -0.179020036391199 -0.104570615177658 -0.7089288 -0.7046542 0.02970636 82 82 82
0.0793596780534829 0.0871001867324757 0.0220257246875287 -0.02473183 0.5291889 -0.8481436 126 126 126
-0.125078166858206 0.0305549342350822 0.0329680220636451 -0.9584615 -0.2146701 -0.1877988 45 45 45
-0.0777598705831455 -0.0196108254539999 -0.0399086044967281 -0.01569241 0.5178383 -0.8553346 151 151 151
-0.00601295441180305 -0.161912997141839 -0.118406467491182 0.2922862 -0.804551 -0.5169782 127 127 127
-0.0901650617303067 0.162144829892838 0.0918404775841883 0.4440285 0.8539841 0.2712008 83 83 83
-0.0129409709532848 0.0955739227877601 0.0312747554227147 -0.03986872 0.5499143 -0.834269 193 193 193
0.0914735974569019 0.128897626392051 0.0600639982675321 0.9621327 0.2474875 0.1142394 119 119 119
-0.00597072111852048 -0.0516698340685087 -0.0634972721340698 -0.02663367 0.5317612 -0.8464754 124 124 124
-0.0325204558591703 0.0824371941807382 0.0232367133514754 -0.01727679 0.5318104 -0.8466872 80 80 80
-0.146282527756457 0.0469395832625814 0.0433755287854365 -0.4953687 -0.6700855 -0.5528067 52 52 52
-0.150290320393721 0.145645286012047 0.0679844710758454 -0.02942714 0.5664133 -0.8235958 171 171 171
-0.197211231912707 0.111819162073431 0.0609023513520384 -0.9021078 0.3143804 -0.2955783 59 59 59
0.0111059410248231 0.109453042596485 0.0391471704010376 -0.03372839 0.518821 -0.8542173 162 162 162
-0.0946778695848678 -0.0399830183740995 -0.0341515744573951 -0.6955653 -0.6655677 -0.2705707 39 39 39
0.0941394705577157 -0.142050688102866 -0.0925684156453328 0.2992345 -0.8057585 -0.511089 58 58 58
-0.0473875289837205 0.0525410176117429 0.00507733189422538 -0.06728464 0.5370634 -0.8408542 87 87 87
-0.136356228936721 0.154414951740079 0.0733730351857448 -0.04095386 0.5388005 -0.8414373 183 183 183
0.0205638234545313 -0.074965665989427 -0.0792764431304996 -0.01200434 0.5153918 -0.8568706 146 146 146
0.0747325669112162 0.11696946172044 0.0413423876486411 -0.03770788 0.5329584 -0.8453008 160 160 160
0.00127496613812594 -0.110887730490305 -0.101121636152033 -0.02801325 0.52008 -0.853658 129 129 129
-0.0823606569938178 0.0684724162765176 0.0162255376186219 -0.04948121 0.5287775 -0.8473169 133 133 133
-0.198197710999754 0.118331460382564 0.0700927300545925 -0.9127636 0.3871719 -0.1302326 80 80 80
-0.00112948556697434 -0.14325532651155 -0.121772479072531 -0.03348013 0.5545397 -0.8314835 116 116 116
0.146587319320703 -0.0401074645611557 -0.0620604012701519 -0.04675466 0.5380774 -0.8415977 158 158 158
0.119413814974326 -0.0693121642019081 -0.0795035994408532 -0.0519787 0.5522131 -0.8320811 148 148 148
0.0301497494164624 -0.0902282723456571 -0.0893959502434187 -0.05286525 0.5211053 -0.8518535 162 162 162
-0.0991079048768051 0.166268584688682 0.0854613347502458 0.3224736 0.9450697 -0.05342319 127 127 127
-0.041982603502654 -0.168439953679006 -0.10477050354408 -0.9337183 -0.3378949 0.1183095 41 41 41
-0.13875523663786 0.105133006571739 0.0423521184959954 -0.01561013 0.5269299 -0.8497654 147 147 147
0.107075360051929 0.00533847250505226 -0.0312069854894981 -0.02047205 0.5307541 -0.8472786 133 133 133
0.0244724334382109 0.116905306833011 0.0429131202796583 -0.05621124 0.5323985 -0.8446255 205 205 205
-0.0400754894132094 0.132266301931918 0.0964843490133419 0.2009013 0.7124698 0.6723284 102 102 102
0.0915693158777739 -0.0588186000182741 -0.0717272121597907 -0.0337457 0.5340832 -0.8447581 51 51 51
0.105585884195131 -0.105200631141856 -0.101227458643096 -0.08062637 0.5273897 -0.8457893 116 116 116
0.00307394029429098 -0.00904575098673455 -0.0368653227342045 -0.02606804 0.554203 -0.8319733 161 161 161
0.129524772885149 0.0219884114615474 0.00366583039540269 0.9529459 0.2659602 0.1454621 133 133 133
-0.00881874508221347 0.146741001863363 0.0681939579830233 -0.06733565 0.8060124 0.5880561 75 75 75
-0.0956860639326245 0.0700113672917908 0.0180946553573674 -0.05518572 0.5667562 -0.8220352 119 119 119
0.103481929618976 0.0939662414456073 0.0252305123266187 0.3206335 0.4969629 -0.8063635 127 127 127
0.150388550774436 -0.0612235072230142 -0.075277018630543 -0.04606895 0.5179963 -0.8541414 196 196 196
0.134376314861339 -0.135660486164345 -0.0796064955650859 0.2998964 -0.7981581 -0.5224996 90 90 90
0.120570697930667 0.0442304519877916 0.0220416115027784 0.9521026 0.2772467 0.1289766 140 140 140
-0.0532314895846127 0.0855083158740497 0.0265269217570807 -0.04228009 0.5229474 -0.8513157 117 117 117
0.0245855895004321 0.112118337736005 0.0963908688481701 -0.1096386 0.8819019 0.4585067 86 86 86
-0.0426848261954604 -0.174934116594244 -0.112890990317456 -0.802035 -0.5968587 -0.02235111 93 93 93
0.0669814402344504 -0.0796173776133987 -0.0840721051109049 -0.03996667 0.5326362 -0.8454002 140 140 140
0.105764659283147 0.0548841906931536 0.000494064454954202 -0.01176894 0.5645183 -0.8253367 100 100 100
-0.00444126010544643 0.14661557413885 0.0697345997491042 0.03637531 0.6324093 0.7737799 48 48 48
-0.0214098941201684 0.0424731212750693 -0.00219584264789696 -0.03553518 0.5503852 -0.8341543 187 187 187
-0.0616957424682449 -0.0938441384695307 -0.0659509313423512 -0.936479 -0.3507237 -0.0001073984 51 51 51
-0.0872325596057164 -0.0338319876572937 -0.0490482582086036 -0.03990918 0.5368556 -0.8427297 108 108 108
-0.146467878684953 0.0928902754961636 0.034560843053687 -0.03758699 0.5414014 -0.8399237 123 123 123
-0.12074678382972 0.0405026308010987 -0.000244203147678645 -0.02136468 0.5507912 -0.8343696 169 169 169
0.0183895807075363 0.0593954022885075 0.00654018061525813 -0.03251349 0.5477672 -0.8359988 206 206 206
0.12021848776609 -0.072960601529182 -0.0821106121677237 -0.03143946 0.5342656 -0.8447318 156 156 156
-0.0474440466226418 -0.145427608019743 -0.0824880643362747 -0.9718484 -0.2247447 0.07071397 18 18 18
0.173567138192399 -0.114933960894506 -0.0873785712749007 0.2665206 -0.8036091 -0.5321457 112 112 112
0.0401141157703653 -0.0695791240303612 -0.0767078961776769 -0.002905932 0.5502629 -0.8349864 147 147 147
0.119962350243291 -0.118272453404308 -0.110347189860483 0.0546134 -0.002171635 -0.9985052 77 77 77
-0.0307603994311325 -0.0893551916362199 -0.0865090175511485 -0.03444868 0.540558 -0.8406012 115 115 115
-0.064758722669932 -0.0801073307855891 -0.0356810690463721 -0.8322798 -0.513819 -0.2080872 33 33 33
0.0476423489878357 0.0902866215136773 0.0253941000032436 -0.05769351 0.5324568 -0.8444887 65 65 65
-0.103006739314509 -0.0421109802051349 -0.0161214965008176 -0.7563667 -0.6228803 -0.1998239 81 81 81
-0.00587921707675587 -0.120911232238525 -0.106939394012145 -0.04854669 0.5122741 -0.8574488 119 119 119
-0.0146896086149999 0.0340426835172019 -0.00846578281801647 -0.04084587 0.5490348 -0.8348008 101 101 101
-0.101324663929037 0.0116721219150109 -0.0187458262087028 -0.02591555 0.5301106 -0.8475324 150 150 150
-0.0453937381003984 -0.0821306247111542 -0.0814477164437091 -0.0379707 0.5359515 -0.8433945 75 75 75
0.0284962134055626 -0.163909496869861 -0.0955143327668644 0.2985671 -0.7981903 -0.5232112 114 114 114
-0.0509901592625517 0.0189096511422868 -0.0165161519534608 -0.007685225 0.5268137 -0.849946 152 152 152
-0.00906352832778756 -0.167435209669782 -0.1127360900102 0.2727795 -0.8116626 -0.5165222 92 92 92
0.045944130122956 0.118560104033531 0.0875688226533127 -0.2723215 0.7697762 0.577309 89 89 89
-0.0799789016805548 0.00115069239497023 -0.0263430964899528 -0.03271611 0.5515918 -0.8334724 154 154 154
0.0528968818378437 0.0168149323380635 -0.0219322454662564 -0.01971382 0.548673 -0.8358046 122 122 122
-0.145866877888684 0.153336169906812 0.109118566165291 -0.5003033 0.6504279 0.5715244 56 56 56
0.0659530619279223 -0.149475553561549 -0.0972603669749502 0.3177043 -0.7945314 -0.5174783 63 63 63
-0.111018081354019 -0.0153983343231097 -0.0181592431839122 -0.9436087 -0.1142173 -0.3107362 78 78 78
0.121807797004387 -0.0646892806108836 -0.0766265308308479 -0.007263963 0.5247178 -0.8512452 150 150 150
0.0715353309697209 0.101537721126265 0.0319864536453854 -0.02183837 0.5355729 -0.8442065 126 126 126
-0.0631057484971524 -0.0837037689690338 -0.0663078587887624 -0.9828837 -0.1321892 -0.1283185 37 37 37
0.00171450920274197 -0.0499434309186264 -0.0623687250289567 -0.01912652 0.5465032 -0.8372386 171 171 171
0.0807996010432452 -0.136612787565382 -0.108068605488894 0.30536 -0.7957212 -0.5230517 93 93 93
0.0592554161701546 0.106184706737706 0.0348777877871631 -0.04741658 0.5347685 -0.8436672 172 172 172
0.0637596605675985 -0.0483061492485086 -0.064093430224675 -0.02709592 0.5421427 -0.8398494 148 148 148
0.0740461797306171 0.0817410094660105 0.0185456275301404 -0.03797728 0.5444648 -0.8379235 164 164 164
0.00271097623221772 0.1314555248116 0.0532006664777639 -0.04135958 0.5380391 -0.8419046 189 189 189
-0.0599712294690415 0.0468202308996899 0.00103228020376922 -0.02072456 0.5419134 -0.8401788 68 68 68
0.153372671391901 -0.0322464323927547 -0.0550926150291171 0.8589511 0.3602858 -0.3638642 99 99 99
-0.0312815375261444 0.00143619288443397 -0.0285500707375277 -0.07594804 0.547906 -0.8330852 89 89 89
-0.0199677725170759 0.0518092908236538 0.00348963152462661 -0.04382933 0.5296972 -0.8470536 109 109 109
-0.0462638704963139 -0.159814135170772 -0.10783427937913 -0.9400713 -0.3113732 0.1389701 70 70 70
-0.191391008272096 0.126436043016705 0.0573251837250957 -0.315139 0.4298526 -0.8461171 168 168 168
0.165196938385688 -0.06710968600997 -0.072345102936807 0.9479529 0.3033859 0.09665529 83 83 83
0.0380911696472679 0.130231376754521 0.0698639382603914 0.06345559 0.6529338 0.7547522 124 124 124
0.0542223799133241 -0.0135754925370115 -0.0411799439855129 -0.03673748 0.5711647 -0.8200129 103 103 103
0.119818032260224 0.0272269815215285 -0.0179414360210046 -0.02890656 0.5230947 -0.8517842 131 131 131
0.146808670147201 -0.0167698060096777 -0.0414997480576316 0.8947946 0.4388818 -0.08200768 123 123 123
0.0858322005670078 -0.138812217638737 -0.101932227996627 0.3061093 -0.7969528 -0.5207334 88 88 88
0.00333277103916574 -0.13002066041681 -0.113516464707175 -0.01883303 0.5177121 -0.8553476 118 118 118
0.0252069733738187 0.027806094462026 -0.0135384877140145 -0.03125941 0.5300398 -0.8473964 127 127 127
0.0851138953411388 -0.0879807032502873 -0.0900842841345927 -0.03853197 0.5314351 -0.8462222 148 148 148
-0.0695266813384854 0.0134304379551917 -0.019273132487433 -0.04666527 0.5227197 -0.8512264 95 95 95
-0.156353195260951 0.0977552731031297 0.0378046952783759 -0.04253034 0.5448211 -0.837473 93 93 93
0.162447845550061 -0.110805276097181 -0.100547757029097 0.3115203 -0.7614846 -0.5684156 91 91 91
0.150302147582599 -0.0279752568505531 -0.0431945199796518 0.9564915 0.2688912 0.1132322 88 88 88
-0.129515924778809 0.154668161019715 0.113450392389351 0.3240029 0.6845498 0.6530036 45 45 45
0.128254072321561 0.0329731636710495 -0.00927845520104703 0.9148567 0.4026394 -0.03030891 147 147 147
0.0586765896102754 -0.113354782935575 -0.105197665001797 -0.01987449 0.525813 -0.850368 187 187 187
-0.0532884062745373 -0.12922129428524 -0.108070170316359 -0.8523654 0.2547211 -0.456717 83 83 83
-0.107241978491085 0.162828894684409 0.0965375964733703 0.09614014 0.6727859 0.733564 102 102 102
0.123733091151225 0.0232306551475272 -0.0202905375772117 -0.04545603 0.5325591 -0.8451713 146 146 146
-0.149818684643287 0.154478607823342 0.106757298536447 -0.05408807 0.547395 0.8351247 85 85 85
0.0327284247764847 0.0246405413202542 -0.0155515968954819 -0.04294061 0.5315919 -0.8459114 122 122 122
0.104441678563119 0.0800514836700736 0.0659270124042511 0.9525725 0.2742118 0.1319601 110 110 110
-0.131759721576049 0.0523142213457743 0.00808916378234087 -0.02521289 0.5148869 -0.8568873 182 182 182
-0.0661671429072432 -0.0733288939865432 -0.061456393914839 -0.9499627 -0.2751164 -0.1479248 67 67 67
0.130656146547185 0.0202436813566693 0.000756030407791486 0.9523246 0.2692768 0.1434154 98 98 98
0.0817340216771032 0.109188126617054 0.0360457465378641 -0.0556049 0.5250532 -0.849251 134 134 134
0.0128096363993992 -0.135679687189072 -0.117252937837689 -0.02109207 0.5602741 -0.8280387 114 114 114
0.0811611447274965 0.0564670390747182 0.00201550878069456 -0.03940395 0.5394501 -0.841095 164 164 164
0.0493454382262768 0.0354560316694252 -0.0104281429427652 -0.02279143 0.5233429 -0.8518173 146 146 146
-0.110371254079121 0.0703320511020031 0.0187940617425888 -0.04403378 0.5207086 -0.8525981 92 92 92
0.141274096037825 -0.0142376581305961 -0.00492257063512008 0.9549252 0.2611394 0.1411523 101 101 101
-0.0742443024776094 0.100118011706565 0.0361715001046521 -0.03463382 0.5501837 -0.8343251 137 137 137
-0.00696356646338003 -0.060636320784728 -0.0689280968175021 -0.06799414 0.5329942 -0.8433824 117 117 117
0.125430373930719 -0.0267294495872237 -0.0524604826927466 -0.04658603 0.5451129 -0.8370673 185 185 185
-0.143262556412265 0.158793223404784 0.105830418638252 -0.3457924 0.7847778 0.5143456 115 115 115
-0.12121858216897 0.00347032188513818 0.0258185493410436 -0.9757754 -0.2140346 0.04529314 37 37 37
-0.105383390468839 -0.0376685541747799 -0.0096905839772386 -0.9246452 -0.3767202 -0.05579492 59 59 59
0.0930980491520432 -0.0389507865244476 -0.0587902000196679 -0.03741032 0.5447669 -0.8377526 131 131 131
0.0132407886035226 -0.037381141056801 -0.055094116706826 -0.04349394 0.5418774 -0.8393314 135 135 135
0.0148608491253928 -0.147346103565035 -0.123583055994433 -0.07210364 0.2185507 -0.9731581 58 58 58
-0.0769744858883401 0.108074855447547 0.0415994324782862 -0.0408479 0.5583146 -0.8286232 96 96 96
0.0443912202883721 0.0337374925465737 -0.0108914095952435 -0.05129261 0.5177739 -0.8539785 164 164 164
0.131724366907549 0.0140695366403016 -0.0269118556298684 0.07869699 0.5719947 -0.8164734 186 186 186
0.119558733047573 0.0420503635957012 0.033555720115215 0.9547207 0.259832 0.1448986 103 103 103
-0.0673528504947085 0.135837036359241 0.0592639054602607 -0.06227492 0.5364603 -0.8416247 160 160 160
-0.156301965139973 0.123107404851538 0.0541356101773712 -0.01831822 0.5265601 -0.8499405 132 132 132
-0.056576121306859 -0.109867479611221 -0.0893650858491453 -0.9221854 -0.3856821 0.02869639 77 77 77
0.123591612757105 -0.12992641057345 -0.0936340742975727 0.299333 -0.7991052 -0.5213738 101 101 101
-0.157454323041047 0.130479888379992 0.0587659420513635 -0.01054666 0.5367176 -0.843696 140 140 140
-0.110720154284516 0.141505573879455 0.0639792862550933 -0.05746446 0.5321754 -0.8446817 150 150 150
-0.120402824961353 0.0985271932378351 0.0372666171692642 -0.06707303 0.5377466 -0.8404343 119 119 119
0.0223087521511434 -0.0667814624618761 -0.0739767819870472 -0.02411623 0.5460513 -0.8374045 130 130 130
-0.092714259111832 0.130834489484876 0.0566273138561351 -0.03089866 0.5353659 -0.8440549 173 173 173
-0.181515642356883 0.149108602445383 0.0862778095098997 -0.581589 0.7688397 0.2657815 96 96 96
-0.107550835490883 0.0937578744633074 0.0332548586731503 0.01006418 0.539366 -0.8420113 149 149 149
0.0642296051855977 0.122774864716658 0.0452404415111051 -0.02976362 0.5540913 -0.8319237 124 124 124
-0.0893529249231848 0.0771011592331556 0.0223743878511744 -0.03052345 0.5360382 -0.8436418 141 141 141
0.0924905225406039 0.104885004169951 0.0324442478505275 -0.05812431 0.527736 -0.8474174 149 149 149
0.087114573271192 -0.0466925767758251 -0.0636326081462261 -0.01463295 0.5234326 -0.8519415 147 147 147
0.10097724460759 0.0485562131621189 -0.00396065762838366 -0.02992429 0.5109376 -0.8590968 153 153 153
-0.159921375158413 0.167224045864983 0.0828441999373359 -0.3336551 0.8989718 -0.2837676 108 108 108
0.120646514355522 0.0507933396670055 0.00946293238978579 0.9530305 0.2787282 0.1185052 122 122 122
-0.191556322444782 0.122232960220195 0.0555253401191049 -0.4873042 0.3988916 -0.7768012 219 219 219
0.160183412236889 -0.0578024030626301 -0.0730955705248886 0.2999742 0.5638088 -0.7695032 169 169 169
0.143118036041877 -0.0133427974935623 -0.0213666097708077 0.9525886 0.267973 0.1441023 83 83 83
0.108227354305345 -0.0683014179924581 -0.0783427342222527 -0.02039451 0.5378157 -0.8428157 81 81 81
-0.0853342350166646 0.160626657652089 0.0850178775355029 0.3766953 0.9184254 0.1208112 121 121 121
0.0677761425234089 -0.0349883829100739 -0.0555118277670238 -0.0329712 0.535527 -0.8438742 143 143 143
-0.191403273905878 0.138951476015462 0.069146581453354 -0.9117602 0.3491037 -0.2163794 76 76 76
-0.119132210544494 0.00356710767174806 0.00699925215511765 -0.9806792 -0.0587842 -0.1865818 69 69 69
-0.137324507955685 0.0547559213640825 0.0635991462390384 -0.5047191 -0.6261674 0.5942836 20 20 20
0.0184592170526536 -0.00905950996100846 -0.0367134702244099 -0.008964356 0.5475318 -0.8367369 123 123 123
0.132976895404344 -0.0851578146511641 -0.0900433851159053 -0.007174867 0.5037665 -0.8638101 133 133 133
0.115995634709638 0.0670220390520084 0.008206745346789 0.6360142 0.5775394 -0.5117951 174 174 174
-0.194074233034083 0.141489929011493 0.0807470770696682 -0.8206833 0.5379709 0.1925259 83 83 83
0.0922423510176968 -0.147489862702739 -0.0854283472904143 0.3116013 -0.7828524 -0.5385599 58 58 58
-0.0413163416039768 -0.174093859552682 -0.118607305807668 -0.2763875 -0.8663225 -0.4160473 165 165 165
-0.0132479480467214 0.0399572236126382 -0.00424958232408562 -0.02678658 0.5105492 -0.8594312 142 142 142
-0.0930682811772512 0.15296512194492 0.0706102538845882 -0.01505694 0.5357633 -0.8442339 196 196 196
0.0692206716329533 0.0567303333653695 0.00310342073000425 -0.02408949 0.5324981 -0.8460883 163 163 163
-0.0637684461587431 0.105094189115792 0.038976553456695 -0.03951752 0.5446247 -0.8377483 157 157 157
0.00396622737696983 -0.10598299076111 -0.0984889357742024 -0.0008385348 0.5246632 -0.8513095 160 160 160
0.145522307174842 -0.0249234044648454 -0.0149389993983698 0.95175 0.2775944 0.1308175 107 107 107
-0.0758576618202773 -0.0656918990428766 -0.0234268986152759 -0.8208573 -0.5560591 -0.1303521 73 73 73
0.0165197157121919 -0.043770035363891 -0.0591082327744126 -0.04185731 0.5393778 -0.8410229 144 144 144
-0.0207397544958652 -0.117318349736661 -0.104665803687907 -0.03540773 0.53536 -0.8438815 88 88 88
-0.115964987040271 -0.0141330849115662 0.00550445440736619 -0.9607047 -0.107753 -0.255804 74 74 74
-0.0284204642994679 -0.0680814696831831 -0.0729804318412866 -0.03245933 0.5299875 -0.847384 97 97 97
-0.176033859887214 0.137620405718657 0.0643722864270568 -0.04590449 0.5297414 -0.8469161 124 124 124
0.139494233966635 -0.00393793428159106 -0.0148613856846916 0.95097 0.2689725 0.1526754 86 86 86
-0.0266865451464744 0.122027817577943 0.0983986021531515 0.813224 0.5225856 0.2560684 76 76 76
-0.11631235938777 0.0999887297645479 0.0376049724922984 -0.03427703 0.5252548 -0.8502544 120 120 120
-0.126963387382358 0.0357009252444151 -0.00352112496732288 -0.1710594 0.472936 -0.8643323 119 119 119
-0.142108462575123 0.170565379748487 0.0938980922785081 -0.2717727 0.7426738 0.6120256 86 86 86
0.0979051281520422 0.0741914157770276 0.0130802311249552 -0.02510118 0.5213934 -0.8529472 128 128 128
-0.126348608718351 0.131821115212414 0.0588318724999082 -0.02209387 0.5369104 -0.8433499 182 182 182
0.162521425990727 -0.0875197193830668 -0.0928554947568502 -0.0004384061 0.547705 -0.8366714 172 172 172
0.134184554644494 0.00766319289811457 0.000326515417901907 0.9555462 0.256611 0.1451971 92 92 92
0.00127255440934126 0.0629231295145833 0.00989563914515135 0.02346552 0.5534564 -0.8325475 173 173 173
-0.0015788596786841 0.12420328557546 0.0488236198524059 -0.05562757 0.5406203 -0.8394255 156 156 156
0.0650599421845675 -0.0953275836688245 -0.0939967249127937 -0.06225564 0.5384898 -0.8403291 142 142 142
0.0261379925790997 0.0845204258878856 0.0224488739999804 -0.02621162 0.5331221 -0.8456322 151 151 151
0.0248788955236678 0.112707946173505 0.0404695377809721 -0.03423954 0.5288572 -0.8480199 163 163 163
0.0821502323409384 0.039655139116803 -0.00838467143257948 -0.03068994 0.5328767 -0.8456362 164 164 164
0.0247903243282899 0.141941834533587 0.0595588847579697 0.04344638 0.7047257 -0.7081484 144 144 144
0.0883218622396784 -0.139283936512973 -0.0993609258234718 0.2985413 -0.7898053 -0.5357991 94 94 94
0.175559208653429 -0.105836891347759 -0.10070805937568 0.3719836 -0.5757961 -0.7280707 102 102 102
-0.0214039091091527 -0.122688595986852 -0.108100845350961 -0.05314938 0.5435758 -0.8376756 120 120 120
0.0570440433007122 -0.0870438396533263 -0.0884547308188232 -0.01766537 0.5458101 -0.8377227 160 160 160
-0.0854393266791467 -0.0457958682646926 -0.0365828018798362 -0.5513936 -0.8152571 -0.1769775 43 43 43
0.0982481042756334 -0.0930511491163889 -0.0938957623254467 -0.04120884 0.5274668 -0.8485757 145 145 145
0.169764103298959 -0.0874944616824411 -0.0620514429308849 0.9503832 0.2797164 0.1361265 73 73 73
-0.116426062992409 0.0145276242940369 -0.00963733223941882 -0.9540626 -0.1925251 -0.2295617 44 44 44
-0.0270689284557113 -0.0997070724373321 -0.0934505458154847 -0.03808711 0.5451108 -0.8374984 137 137 137
-0.0586114842445187 0.00898071596583438 -0.0213023790505216 -0.04452397 0.535131 -0.8435949 82 82 82
-0.0532130721347603 -0.11908252481651 -0.0735517261033124 -0.9792783 -0.1996322 0.03407495 69 69 69
-0.182844185328503 0.152259712401777 0.0782986693566971 -0.5700213 0.7945146 0.2093376 81 81 81
-0.136342183410758 0.0474540728375528 0.00521834592145232 -0.145296 0.5231754 -0.839748 90 90 90
0.00667091932603991 0.0167019202498906 -0.019998889227589 -0.01037273 0.5433251 -0.8394583 136 136 136
-0.0909041535541879 -0.041943560257039 -0.0362486242757051 -0.6354905 -0.7502049 -0.1826049 57 57 57
0.0309861985945901 0.0589830856613578 0.0064960122415163 -0.04593733 0.5322167 -0.845361 111 111 111
-0.052529747030396 -0.13816488675129 -0.105816123953748 -0.9799032 -0.1534219 0.1274808 55 55 55
0.0834986713920234 -0.0764758633144078 -0.0824715406754261 -0.0195874 0.5429105 -0.8395621 105 105 105
-0.122284976186047 0.0130629363478718 0.0274763350617485 -0.9783307 -0.09058946 -0.1861787 34 34 34
0.0982548850169196 0.112596455445054 0.0425389265937373 0.9310401 0.3641647 -0.02341744 144 144 144
-0.164566745489529 0.107114803827207 0.0444037233109785 -0.03737691 0.5225427 -0.8517935 125 125 125
-0.0801996367113393 0.143626657757726 0.110542433803511 0.2266949 0.6915206 0.6858635 90 90 90
-0.0351243155949081 -0.02080213198946 -0.0426449621411193 -0.04465083 0.5476927 -0.8354873 171 171 171
-0.0461690641849102 -0.07271743657253 -0.0752572860740685 -0.0004449816 0.5421583 -0.8402762 112 112 112
-0.0118983103775903 -0.00558997250873561 -0.0335174383151981 -0.0325277 0.5408919 -0.8404629 135 135 135
-0.0454382522295464 -0.159059811249459 -0.125921392641773 -0.6015352 0.2780112 -0.7489093 130 130 130
-0.0703921385859185 -0.0289794179301677 -0.046538152470067 -0.02449974 0.5457003 -0.8376222 148 148 148
-0.0663386577885619 0.0992238249926651 0.03542295911025 -0.05425267 0.5417273 -0.8388016 145 145 145
-0.040903702880021 -0.0539172383765721 -0.0632195227380773 -0.04411585 0.537591 -0.8420509 131 131 131
-0.0104022997033684 -0.168025179906586 -0.112474209987202 0.2858565 -0.8121361 -0.5086463 91 91 91
-0.145610242665132 0.171049795073794 0.0919330937291551 -0.3378192 0.7123742 0.6151432 74 74 74
-0.0591214673184273 -0.093915629666868 -0.0553716433230874 -0.886411 -0.439189 0.1462484 41 41 41
0.00226131830259524 0.0616848030439077 0.00989217178789364 -0.001257656 0.554206 -0.8323786 122 122 122
0.0614403501347929 -0.14645905096877 -0.104404302469047 0.2991709 -0.7960616 -0.5261014 117 117 117
-0.0265409005082011 0.13835633912532 0.0814253650378114 0.9352022 0.252231 0.2485485 25 25 25
-0.00258277327988132 -0.103464822106088 -0.0964419070304993 -0.03255407 0.5351702 -0.8441167 155 155 155
0.141230347504997 -0.00696928362258165 -0.0190644891593661 0.9518341 0.2745424 0.1365221 106 106 106
-0.158523007624767 0.16364220205043 0.09101490185941 -0.4793653 0.8220366 0.3073511 55 55 55
0.0998369130660093 -0.105415464126451 -0.100903659745585 -0.02151004 0.5380769 -0.8426212 82 82 82
0.0548545918930818 0.116946672247064 0.0422761218639793 -0.03924682 0.5565816 -0.8298654 142 142 142
0.00238285831601814 0.144996401112537 0.0682964882007684 0.1860308 0.7191533 0.6694856 65 65 65
-0.114930208031169 0.159537297501963 0.0999365395301626 0.1189022 0.7418634 0.659925 64 64 64
0.0225028345454015 -0.0747296109492164 -0.0792191835032578 -0.0305853 0.5182976 -0.8546532 140 140 140
0.0636233192726405 0.112850429585015 0.0982516166377608 -0.1847661 0.7009115 0.688901 60 60 60
-0.0301983123014127 -0.0265079743899257 -0.046584451001233 -0.0301019 0.5305792 -0.8471007 133 133 133
0.00120939578021639 0.111015705477271 0.0401541132506595 -0.03365704 0.5430188 -0.8390458 132 132 132
-0.0288075735928253 -0.0781782298210894 -0.0794592158848417 -0.06684502 0.5583386 -0.8269158 155 155 155
-0.17886181940257 0.114218208026267 0.0493136031551636 -0.03138762 0.5426317 -0.8393841 87 87 87
0.077552060672514 0.027862563503958 -0.0155474560336376 -0.04287113 0.5191033 -0.8536356 127 127 127
-0.023468924611401 -0.00506999413033404 -0.0328866815891036 -0.008760323 0.5345906 -0.8450658 112 112 112
-0.0135127123735872 -0.181720062337081 -0.0933866788034233 0.2730448 -0.7980884 -0.5371233 57 57 57
-0.0753244687025605 -0.0665353348855648 -0.0214302877051276 -0.8106694 -0.5801568 -0.0789514 47 47 47
-0.100860181470448 0.113141770497755 0.0458622505688887 -0.02192421 0.5565432 -0.8305293 129 129 129
0.0137114486320082 -0.0157331135174792 -0.041177608517441 -0.03145175 0.530659 -0.8470017 127 127 127
0.136555567253607 -0.00237114660679527 0.00335770866840157 0.9528438 0.2687277 0.1409756 95 95 95
0.120522884877293 0.0375281377891221 0.0356732133416222 0.9532567 0.2667214 0.1419911 96 96 96
-0.105163516268062 0.0626507397017275 0.0136141273666262 -0.05703121 0.5383494 -0.8407897 76 76 76
-0.146086316623764 0.108225591502464 0.0444326055858434 0.01362563 0.521174 -0.8533416 132 132 132
0.100158464938422 -0.117566325860039 -0.109374069009904 -0.005150385 0.526246 -0.8503168 124 124 124
-0.0613472749719848 0.141143146097686 0.0621263790228744 -0.03191636 0.550593 -0.8341635 125 125 125
0.107205397368728 0.0695066265020836 0.0669534269419101 0.951875 0.273422 0.1384717 113 113 113
0.0930753060598399 -0.129993819304671 -0.111105745410983 0.319595 -0.7277617 -0.6068129 112 112 112
0.0572200987706259 0.139993517028041 0.0651148673313269 -0.1057253 0.8641231 0.4920502 91 91 91
0.114496450277877 0.0488966603717054 0.0535670318195929 0.9600695 0.2305563 0.1584624 76 76 76
0.00587522563861187 -0.114428409476144 -0.103835105901536 -0.02908026 0.5467371 -0.8367992 99 99 99
0.00886687538155151 0.0276447091508323 -0.0132804121260623 -0.05155452 0.5231372 -0.8506877 88 88 88
-0.0444409506949532 -0.162750141491256 -0.102903669259149 -0.9097574 -0.3732532 0.181724 43 43 43
-0.0469110116429765 0.155932171274341 0.0713803410028255 -0.04015931 0.8062373 -0.5902276 198 198 198
-0.0549099936916253 -0.105621261907953 -0.0594353751784311 -0.9248765 -0.3088378 0.221862 38 38 38
-0.110049414346795 -0.00726975327390655 -0.0271405806658516 -0.8917091 -0.03301214 -0.4514035 83 83 83
-0.0665713172708278 0.0848238569249076 0.0262100525991601 -0.03280307 0.53598 -0.8435931 209 209 209
0.000124700152759338 0.0611072426210411 0.00839436386711784 0.02038752 0.5471013 -0.836818 164 164 164
0.0127791362386027 0.136876833159429 0.0564479709595655 -0.01920504 0.5420377 -0.8401347 133 133 133
-0.00792112494157093 -0.0985073028312753 -0.0930391857517986 -0.05948967 0.5321069 -0.8445846 152 152 152
0.0071952611802919 0.0313499523919023 -0.0108754684810987 -0.04046227 0.5251898 -0.8500226 115 115 115
0.108396085632742 -0.0806604943640695 -0.0857291630074769 -0.0764599 0.5477417 -0.8331464 141 141 141
0.170395353147191 -0.0891469207719175 -0.0616182339447232 0.9503355 0.2804998 0.1348419 97 97 97
-0.0526785199518223 -0.121473106430438 -0.0652942732359374 -0.9801947 -0.172177 0.09784406 85 85 85
-0.0256183781503232 -0.0729515797338136 -0.0761921813584088 -0.04054853 0.5243238 -0.850553 92 92 92
0.0386926718755394 0.0351522086696445 -0.00967392772357867 -0.03973632 0.5617812 -0.826331 111 111 111
-0.016155154367679 -0.182763547764481 -0.0936406421557931 0.2908358 -0.802134 -0.5215319 83 83 83
-0.184975462780275 0.092090948835295 0.0480336541806919 -0.6412352 -0.3241499 -0.6955173 88 88 88
0.0679749305203829 0.12101252577766 0.0440257702730454 -0.02108087 0.525228 -0.8507004 174 174 174
-0.0929778151458684 0.00620146689839607 -0.0232707648110783 -0.0259737 0.5295879 -0.8478573 189 189 189
0.0684953405769013 -0.0585049185096511 -0.0702788474511357 -0.02398689 0.5522137 -0.8333575 116 116 116
-0.0537093415811079 -0.109870112192717 -0.0507732056455589 -0.9779469 -0.2037912 -0.04570627 67 67 67
-0.0241558732093079 0.131934998896465 0.076070436751196 0.6429626 0.4130858 0.644949 27 27 27
0.0769736666389673 -0.0329596430033576 -0.0551736818733833 -0.03192215 0.5342615 -0.8447163 98 98 98
0.0216966621898274 0.12571327427547 0.0786089221212642 0.1329685 0.6610868 0.7384332 68 68 68
0.0872064969262909 -0.124056285836804 -0.113054966332459 -0.0540492 0.5450308 -0.8366721 125 125 125
0.0617377111301427 0.123598685748043 0.0461934407664993 -0.02136879 0.5575383 -0.8298761 131 131 131
-0.0450536169123184 0.131228264079125 0.0551301771484534 -0.02941753 0.5583209 -0.8291034 145 145 145
0.0541994049511421 -0.0453347804365738 -0.0615828556980945 -0.06183695 0.5348296 -0.8426942 86 86 86
-0.0872462455444236 0.152936391357942 0.102648740267461 0.1967115 0.6832605 0.7031783 84 84 84
-0.160680733538812 0.0625175376906648 0.0397676565687893 -0.7217469 -0.574099 -0.3866417 65 65 65
-0.000175967248334352 0.0495257531171585 0.00102799297359191 -0.009119656 0.5239951 -0.8516724 116 116 116
0.06251596503281 0.0839193010427124 0.0206779305132932 -0.02529564 0.5388731 -0.842007 133 133 133
0.101027287883125 -0.102247812518702 -0.0991977508054199 -0.04442816 0.4837441 -0.8740811 125 125 125
0.129916995343287 0.0121894520789365 0.0223036420804693 0.9557028 0.2576232 0.142346 87 87 87
-0.148208652622037 0.0715325623849801 0.020815569124404 -0.2940775 0.4269301 -0.855131 176 176 176
0.127116203298828 0.017965148439141 0.0241266959146101 0.9481543 0.2860231 0.1385434 134 134 134
-0.111271853618516 0.0858980187761944 0.0287120342473405 -0.005130355 0.5169125 -0.8560229 121 121 121
0.13194373282151 -0.0192695065585078 -0.0482514398624646 -0.05604742 0.5275688 -0.8476614 166 166 166
-0.122397445481325 0.0701331150036657 0.0194953891795261 -0.01302998 0.5281502 -0.849051 124 124 124
-0.0475032065681926 0.115413496072378 0.0452920631436684 -0.05102852 0.5254256 -0.849308 130 130 130
0.0250915093440631 -0.136331663179487 -0.118290649510783 -0.05672863 0.5839769 -0.8097857 109 109 109
-0.102389792552503 0.14490677632494 0.0662924239153147 -0.02293807 0.5197538 -0.8540081 174 174 174
0.0789502855594808 0.117748593168643 0.0962545125586237 -0.02301864 0.6652572 0.7462593 61 61 61
-0.153508066457305 0.110454104880083 0.0457062273345982 -0.0513739 0.5376097 -0.8416273 145 145 145
0.0590074045300137 0.0236807418944522 -0.0175503916777983 0.003857909 0.5252612 -0.8509323 138 138 138
-0.0244292426228538 -0.0599930648227477 -0.0679409437726436 -0.03649119 0.5471259 -0.8362545 94 94 94
0.0152592301646353 -0.131264650493648 -0.114415218422385 -0.0359014 0.5312837 -0.8464329 114 114 114
-0.0292209934277823 -0.161214245037511 -0.130253238392649 0.2781266 -0.2603067 -0.9246005 120 120 120
0.0905281375308746 0.124920695125381 0.0726341122703283 0.9518967 0.2770395 0.1309269 115 115 115
0.142570093885658 -0.0219842542846258 -1.69977815960842E-05 0.9547729 0.2683526 0.1280452 97 97 97
-0.073162072700482 0.0251555312847611 -0.0116198599852044 -0.03341845 0.5466207 -0.8367133 125 125 125
0.0434806464201869 0.106179499475805 0.0355123768808955 -0.03320332 0.5399444 -0.8410456 114 114 114
-0.0271835599672041 0.00989732101319452 -0.0233912476516021 -0.06109593 0.5641074 -0.823438 142 142 142
0.0456196181656465 0.0517373361160962 0.001055165391525 -0.0545304 0.5276769 -0.8476931 146 146 146
-0.0318269497426837 0.0871978965708342 0.0265040317661339 -0.02797805 0.5350215 -0.844375 87 87 87
0.11839845473033 -0.107951147499179 -0.104070350684565 -0.01296593 0.5005794 -0.8655936 125 125 125
0.165615494122867 -0.0791129660011505 -0.0484849977283732 0.9534571 0.2724513 0.1291895 75 75 75
-0.0393726542658155 -0.108948523627391 -0.0985453653182528 -0.06047376 0.5284776 -0.8467906 101 101 101
-0.117322409152097 0.00635254361454352 -0.0010430975279267 -0.9837695 -0.1454548 -0.1050733 42 42 42
0.0179251291460543 -0.0742046493547577 -0.0785622786516892 -0.03670882 0.5187485 -0.8541384 156 156 156
-0.135871104318289 0.0600535700613896 0.0127432842806876 -0.1102097 0.4811261 -0.8696962 164 164 164
0.164002500423602 -0.0628247010325761 -0.0684264686817844 0.9548889 0.2696095 0.1244909 128 128 128
0.0381589829417468 -0.156942922721659 -0.101681144364085 0.3048357 -0.7963513 -0.5223981 89 89 89
-0.0880244225922102 0.141460681105086 0.063397214826748 -0.02900942 0.543583 -0.838854 200 200 200
0.0542402624149751 -0.0934343053128387 -0.0923839470710359 -0.02596977 0.5350562 -0.8444172 137 137 137
-0.134513151050728 0.0721471219367198 0.0207699249497678 -0.05979951 0.5319064 -0.844689 165 165 165
-0.0281187029983569 0.128176268183661 0.0895083787805766 0.8982119 0.3875049 0.2074978 58 58 58
0.00896499364952019 0.145334561036414 0.0621688938196296 -0.08214672 0.7179989 -0.6911798 168 168 168
-0.0676883132223121 0.12518848362829 0.0522600607483347 -0.01902064 0.5345992 -0.8448917 136 136 136
-0.0410968299081507 0.152548926672684 0.0792261161659175 0.1127823 0.6048907 0.7882813 50 50 50
0.122051152566332 0.0373561984144879 0.0242442893754949 0.9561197 0.2609432 0.1332059 83 83 83
-0.133617258967844 0.158192725052149 0.0756800441230718 -0.03071306 0.5341036 -0.844861 165 165 165
-0.0406865622249466 -0.0322834799809433 -0.0494736664044184 -0.05169005 0.5338695 -0.8439855 115 115 115
-0.0361665893940781 -0.137570423837508 -0.11715056634633 -0.0143762 0.5407513 -0.8410597 107 107 107
0.0987100981168236 0.103177956635782 0.0579445864559714 0.9527918 0.2793754 0.1188996 118 118 118
-0.053869649038933 0.123643080966785 0.0505238638553185 -0.0283992 0.5352982 -0.8441856 179 179 179
