ply
format ascii 1.0
comment File exported by Rhinoceros Version 7.0
element vertex 478
property float x
property float y
property float z
property float nx
property float ny
property float nz
property uchar red
property uchar green
property uchar blue
end_header
0.0105169062574382 0.0238419666082392 0.0175910877225811 0.5560657 0.4713988 0.6845247 62 62 62
-0.0473740351283869 -0.00567640758306132 -0.00592634450153051 -0.9361823 0.2961995 0.1892842 38 38 38
0.022023050718502 -0.00831597150760777 0.01702504474539 0.7834054 0.4686072 0.4082687 83 83 83
-0.0223784438536505 0.0158818797357285 0.00403190499139372 -0.6464859 0.731797 -0.2157062 99 99 99
-0.0180814180671713 0.00887044244828639 -0.0250296674794774 0.09086732 0.39408 -0.9145732 49 49 49
0.0412260286982373 -0.00747557300506596 -0.0166219743123297 0.4717228 0.6380253 -0.608606 78 78 78
-0.0197752043672923 0.0226736240672833 0.0207885378575122 -0.5776538 0.7639911 0.2874608 94 94 94
0.00827046116557129 0.00644412274855743 0.0321818929294057 0.5346467 0.2608835 0.803799 74 74 74
0.0224775936800314 0.0256040026567973 0.00287272033507524 0.6441712 0.4412156 0.6247978 60 60 60
-0.00179041941640734 0.00749213830315643 -0.0267227147278393 -0.1338331 0.4978903 -0.8568512 33 33 33
-0.0127087669095602 0.00973043186957701 0.035394907986113 0.00179945 -0.197262 0.9803491 115 115 115
-0.0321601763876713 0.016200090007424 0.0197679499856778 -0.5980682 0.7893641 -0.1386315 141 141 141
-0.0508428186877661 -0.00943566149041097 -0.0160107716100236 -0.8612787 0.1968955 0.4684348 30 30 30
-0.0169635401907005 0.0174883073882925 0.0349505793605123 -0.3597259 0.5394946 0.7612771 159 159 159
0.0350227749031509 -0.017952616514101 0.0045713174635823 0.7147298 0.3164461 0.6237172 49 49 49
-0.00644692452674178 -0.0115546676907549 0.0303904549487056 -0.01043741 -0.2613707 0.9651821 144 144 144
0.041419256618231 -0.020134571120021 -0.031205046436634 0.4648967 0.6000259 -0.65103 89 89 89
-0.0295018178698718 0.0136524624910811 0.00893978997132838 -0.4010399 0.8970882 -0.185472 94 94 94
-0.0508992082481359 -0.00498946048195459 -0.0200931070314774 -0.7942353 0.5965459 0.1154266 29 29 29
-0.00956230536335823 0.0132680526400526 -0.0218885785107538 0.06190016 0.3181814 -0.9460068 100 100 100
0.0362906405222765 0.000835344191027931 -0.0116902588005838 0.7131856 0.5054906 -0.4856393 80 80 80
-0.0248562361378364 0.0146807186522668 0.0253812353059437 -0.1783632 0.685012 0.7063605 45 45 45
0.00655996153842775 0.0239139625961033 0.0209218219779336 0.5270203 0.4801668 0.7012057 90 90 90
-0.0492172733992338 -0.00282558071702699 -0.0180586447392385 -0.7736084 0.6231859 0.1147582 51 51 51
-0.0412075402619483 0.00452143538830019 -0.00555605062094511 -0.7547721 0.6549718 0.0364813 44 44 44
-0.0411502306463245 0.00380268667524308 -0.0182254220519602 -0.2577756 0.8764077 -0.4067694 82 82 82
-0.0329795914439608 -0.00161578456821476 -0.0309686460176695 -0.06024529 0.5425263 -0.8378757 42 42 42
-0.0216055385327336 0.0169531727764882 0.00315973308281248 -0.6733747 0.7145098 -0.1898479 63 63 63
-0.0115310075874027 0.000501226500902674 -0.0293674678945145 -0.09829476 0.497818 -0.8616933 46 46 46
-0.0523105096716121 -0.00582814261436349 -0.0251615129432696 -0.7054621 0.6675724 -0.2380554 83 83 83
-0.0204058093211819 0.0119236333173069 0.0349222680746323 -0.2354939 0.2303467 0.9441838 6 6 6
0.0178371676035172 0.0322074077912948 0.00279217850047309 0.545441 0.6284771 0.5545364 67 67 67
0.00153631991639913 -0.0206653776445698 0.0281165984030031 0.07157527 -0.2804155 0.9572064 120 120 120
0.0237851109807738 0.00224031961873772 0.00672051740333668 0.8208009 0.03502354 0.5701397 26 26 26
0.0533450520908165 -0.0189677858407697 -0.0193461505630097 0.5858232 0.6429162 -0.4934267 79 79 79
0.0209192935640496 0.0161576179771413 0.0118147366504903 0.8297189 0.1282326 0.5432522 65 65 65
0.0250906124135664 -0.00163499593789806 0.00576540031651429 0.7937762 0.2285592 0.5636312 30 30 30
-0.0176622878969448 0.0155293382147792 -0.0125068120143336 -0.6164023 0.7644461 -0.1888658 92 92 92
0.0322192157227714 0.000428726017398851 -0.00317810193872858 0.6866045 0.1526647 0.7108219 39 39 39
-0.00874961732640922 0.0190826289356247 0.0319002481101962 0.3481948 0.5676318 0.7460258 59 59 59
-0.0276052936626636 0.00939029001900549 -0.0123859563646003 -0.4603491 0.8717838 -0.1675464 115 115 115
0.0051838897827734 0.0345952187199023 0.00748806619115117 -0.1222832 0.9842561 -0.1276195 86 86 86
-0.00202441739467463 -0.00456294548166747 0.0319529769142959 -0.0398474 -0.2262155 0.9732619 144 144 144
0.00598898520618474 0.0287239863440898 0.0171747278051637 0.5027434 0.5927491 0.6292039 57 57 57
-0.0116276823974966 0.0198114876186428 -0.0173135148859963 -0.55526 0.7479001 -0.3637744 82 82 82
-0.0329880586582141 0.0108096738260973 -0.00338670460623958 -0.1913034 0.9647676 -0.1806283 95 95 95
0.040505824527864 -0.0147853151623457 -0.0264113779211751 0.4277527 0.7286161 -0.5349264 87 87 87
0.0373259509575949 -0.00893771675399646 -0.0210137532146598 0.4672664 0.6793219 -0.565848 76 76 76
0.0335887713809193 -0.00387397678161805 -0.0182440064766971 0.4994108 0.5949056 -0.6298224 78 78 78
0.0250871839519931 -0.0100828624351442 -0.0307875552819824 0.3916746 0.5775473 -0.7162613 39 39 39
-0.0159279709512063 -0.0128385674242196 -0.036130155796527 -0.03051873 0.3840753 -0.9227973 139 139 139
0.0163443395095839 0.0195341208008466 0.0163756349219762 0.5828182 0.5002341 0.6403819 81 81 81
-0.0089117531722096 0.0243126422619903 0.0285519253116988 0.1762782 0.6254278 0.7601092 65 65 65
-0.0379823241877659 -0.0119340134174133 -0.036432791804216 0.1030678 0.3972753 -0.9118932 57 57 57
0.024933437728061 0.00419445676125929 -0.022205629813556 0.662448 0.3244283 -0.6752102 104 104 104
-0.0130855356377282 0.0186144104314662 -0.0181489800098713 -0.5625573 0.7477219 -0.3527625 57 57 57
0.0300197919016063 -0.0105500333564271 0.00370660638030074 0.6654291 0.442625 0.6010718 81 81 81
0.0334510622428874 -0.0155418124301236 -0.0327881455749531 0.2466631 0.7282562 -0.6393749 54 54 54
7.15764459990886E-06 -0.0166836632998064 0.0291038329646222 0.04400374 -0.2451114 0.9684958 124 124 124
0.00441199822365967 0.00180391138221925 -0.0292212729415098 -0.03873465 0.33258 -0.9422793 30 30 30
-0.0332639821396665 0.00641941711391736 -0.0139503228498246 -0.1638552 0.8883325 -0.4289718 77 77 77
0.0268538494396906 0.0162043155007509 0.00334265707767611 0.8153844 0.2163417 0.5369772 37 37 37
-0.00627265297516089 0.0253340210857809 0.0273871838161107 0.3395717 0.4561393 0.822574 59 59 59
-0.0420850304146405 0.00259406947673335 0.000156091029548722 -0.7824288 0.6224411 -0.01929515 56 56 56
0.00708643209012272 0.0195870257344969 -0.0219657161772523 -0.07004022 0.6156979 -0.7848634 241 241 241
0.0314853674340951 0.0034228205494341 -0.00220087585651085 0.7097883 0.07988599 0.6998706 56 56 56
0.0363048294144048 -0.0177776448249558 0.00377171053434466 0.6989217 0.3245595 0.6373144 39 39 39
0.0338700760484627 0.0064332809825014 -0.0110131488013476 0.6554982 0.5192138 -0.5483969 116 116 116
-0.00703162068521901 -0.0135527187279844 -0.0349858176766206 0.05168351 0.351224 -0.9348639 44 44 44
-0.00325701964894143 0.0212368987846727 -0.0178082937601951 0.08718238 0.639537 -0.7638009 189 189 189
0.0202450152949494 0.0179310336884224 0.0123338453578955 0.7951182 0.2632329 0.5463474 54 54 54
-0.0501190009834267 -0.0127810283075435 -0.00880413317252715 -0.9310314 0.29719 0.2117985 60 60 60
0.0429011468255036 -0.00513954514012682 -0.0128807373883807 0.6521949 0.6564808 -0.3790447 89 89 89
-0.0316389154360626 0.00847363589158778 -0.00969078891394759 -0.2054776 0.9157845 -0.3451343 81 81 81
0.0187167793709808 0.017514197749405 0.014753111628096 0.7590531 0.3099957 0.5724867 119 119 119
0.0234851283702204 0.0275747148008127 -0.00574973886666486 0.6963888 0.3254775 -0.6396148 62 62 62
0.0220745243837515 0.0340580222718238 -0.00174589900933964 0.4526464 0.8895807 0.06129821 133 133 133
-0.0449276955555851 -0.00138982801236209 -0.0247340054345836 -0.2426197 0.7302321 -0.638668 52 52 52
-0.00689619896465765 0.0273042691371653 -0.00345734623511695 -0.6687906 0.6964261 -0.2602111 63 63 63
-0.052584247806954 -0.00621395167176209 -0.0236709711209774 -0.7568347 0.6534766 0.01301927 61 61 61
-0.0281555499059221 0.0108826840933319 0.0273544139585223 -0.218666 0.7838868 0.5811253 93 93 93
-0.0466360987166266 -0.0045885349763426 0.0082568121939538 -0.9770477 0.09705126 0.1896279 57 57 57
0.0171106580969249 -0.00357450042474683 0.0260106400509891 0.8415293 0.2720164 0.4667286 100 100 100
-0.0171645193046766 0.0204825035689682 0.002197534083477 -0.6332776 0.7509822 -0.1870434 78 78 78
0.0252661110770409 -0.0161975957426563 0.0175156968602566 0.8126848 0.455076 0.3639358 61 61 61
0.0279652356655544 0.0173886110070043 0.000896513868828164 0.7826664 0.1864405 0.593863 36 36 36
-0.0191418695781078 0.0134189762638917 -0.0187790873341523 -0.5212595 0.8405694 -0.1474166 87 87 87
-0.000906336284776765 0.030638045092534 -0.0058090107334563 -0.01183285 0.9121246 -0.4097423 78 78 78
0.00931665639260992 0.0300022561871377 -0.00595099218703332 -0.1535976 0.8599376 -0.4867392 60 60 60
0.0398297729145847 -0.0142107212367578 -0.00321950828421902 0.6060585 0.4719205 0.6403 50 50 50
-0.0109761379055902 0.00121921479330245 -0.0279429973441507 -0.08437062 0.5176285 -0.8514355 37 37 37
0.0470700511331299 -0.00997292403817895 -0.0139219924149951 0.6812182 0.6888958 -0.2477183 80 80 80
-0.0465809471164531 -8.76678242494044E-05 -0.0231628327140098 -0.4061243 0.8021482 -0.4377458 59 59 59
0.0505141645359026 -0.0124806820591722 -0.0140750400819163 0.7290118 0.6830218 -0.04497684 105 105 105
0.0411853309201111 -0.0141834531686593 -0.00445216754127997 0.6393325 0.4283136 0.6385933 47 47 47
-0.0118646242750171 0.00123260327329211 0.0333854677145278 0.02540518 -0.2120706 0.9769241 124 124 124
0.0307657030267976 0.00968918294413945 -0.000208553457044625 0.8375114 -0.02792699 0.5457057 34 34 34
-0.0431799350098649 0.00253794705317478 0.00377380575850939 -0.7672107 0.6336367 -0.09946025 50 50 50
-0.0191402997094328 0.00653867831932475 0.0348253280129945 0.02459018 -0.1501905 0.9883512 150 150 150
0.012226378628559 0.0306215025044718 0.00880459070074369 0.6407202 0.4837357 0.5962192 62 62 62
-0.00636805108650362 0.0131988183318776 -0.0225595395559456 -0.0547979 0.3799045 -0.9234012 158 158 158
-0.0130484276737139 0.0187066945264481 0.0343168100061978 0.07753782 0.6238041 0.7777251 61 61 61
-0.0237877796547525 0.0172932286502409 0.0246086714142105 -0.3126591 0.6274978 0.7130854 33 33 33
-0.0316300435668113 0.00596087178639326 -0.01826603445577 -0.5020267 0.8241555 -0.2621772 55 55 55
-0.00459965594136547 0.0302287009758014 -0.00138747301406994 -0.5540663 0.8033505 -0.2182623 93 93 93
0.0277860146358624 -0.00844324268252405 0.00792505475768324 0.8313347 0.3269445 0.449433 51 51 51
-0.0268256909429772 0.0132171329500291 0.00453289342856267 -0.2847392 0.9110249 -0.2982571 77 77 77
-0.00972086599048461 0.0277988931218692 0.00442480863227679 -0.5992478 0.7840527 -0.1617513 108 108 108
0.0134583480659087 0.0313399608539315 0.00686096193023333 0.5926889 0.4966763 0.6340604 59 59 59
-0.0325265848545173 0.0144336208184357 0.0253935530005627 -0.5339779 0.5907541 0.6048778 97 97 97
-0.00450702682458171 -0.0163388158980535 0.0292727147372361 -0.1242564 -0.2843738 0.9506271 117 117 117
0.00733574506593748 0.0212629722180776 0.0220354095235749 0.5443377 0.4697923 0.694976 67 67 67
-0.0154216841535051 -0.0149074070697774 -0.0378681698725868 -0.0195294 0.3636191 -0.931343 78 78 78
-0.0292854800450109 -0.00861235466515553 0.0204459479574134 -0.4925331 -0.438819 0.7515644 34 34 34
0.0153670566958675 0.0298595397809633 -0.00906874900907495 -0.1086493 0.8522965 -0.5116503 82 82 82
-0.032141330513823 0.00741022952899828 0.0308975477536507 -0.6469688 0.3194201 0.6923888 75 75 75
-0.00671340201786896 0.0252281139491668 -0.012278712545159 -0.3681907 0.8934958 -0.2571008 105 105 105
0.0192034339187583 -0.0123314654437723 -0.0331211677046461 0.117889 0.388484 -0.9138831 39 39 39
0.0208794461598896 -0.00113513628374928 0.012382175963812 0.8755875 0.2796205 0.3939022 24 24 24
-0.0246475873477239 0.0116981732101771 -0.0158140782644022 -0.504179 0.8559324 -0.1148185 101 101 101
0.000300490752066063 0.0296839432475384 -0.00640800474115943 0.128199 0.8773841 -0.4623441 71 71 71
0.0199283162603303 -0.00792231085702322 0.0210372908950209 0.8867382 0.3400477 0.31315 64 64 64
0.0152006613341726 0.0190319946002812 -0.0212169774097638 0.4189797 0.5385902 -0.7310107 64 64 64
-0.00515516895516321 0.016374216402343 -0.0217192609604466 -0.05562918 0.4949132 -0.8671599 207 207 207
-0.00241536296195988 0.0315002490942236 0.00812184441159314 -0.415022 0.9094334 0.02622254 78 78 78
0.000274751124272443 0.000208449317666504 0.0329565715294696 0.02036846 -0.1605442 0.9868185 125 125 125
-0.0323045460760765 0.0071122006076707 -0.0126015441896985 -0.2343806 0.8961732 -0.3767483 97 97 97
0.0212533751773882 -0.00649746080027613 0.015508780064194 0.8131941 0.4124497 0.4106101 62 62 62
-0.0410473353676519 0.00594929889989682 0.0153734000633589 -0.8151522 0.5723097 0.08937866 111 111 111
-0.0349281566312227 0.0105165697847865 0.00319470836054103 -0.4807473 0.8745438 -0.0636808 100 100 100
-0.00617298543208755 0.0278484407869041 -0.00554078423445326 -0.6555935 0.7094304 -0.2586614 37 37 37
0.0310057917867754 0.0168347890964584 -0.00304089344158942 0.9172474 0.1993305 0.3448545 57 57 57
-0.0300029455715227 0.0115960473165784 0.0273530307001351 -0.2924666 0.6459945 0.7050918 86 86 86
0.050222808096386 -0.0173168881739858 -0.0125909758962883 0.6980059 0.3283203 0.636391 29 29 29
0.00749118621431166 0.0268209630552529 -0.0109297001649702 -0.1294666 0.8429922 -0.5221134 51 51 51
-0.0317176378272137 0.0075597981297082 -0.0137481703871781 -0.3046039 0.8984373 -0.3162702 76 76 76
0.013990202413585 0.0301125829359906 0.00694422810965134 0.5624455 0.4972334 0.6606164 45 45 45
-0.0479518133067134 -0.000546199791447655 -0.0210576912419128 -0.6307095 0.7655255 -0.127186 59 59 59
-0.047787382949003 -0.00135373536814631 -0.0236636615084608 -0.4845497 0.7588586 -0.4351382 70 70 70
-0.0434504548363599 -0.00879093775049045 0.00997005093973613 -0.924295 -0.1682183 0.3426097 35 35 35
-0.0139628630531174 0.0111021144715554 -0.0238957815897889 0.1347947 0.2689169 -0.9536844 50 50 50
-0.0426113878045451 0.00227839160437227 0.0146149858684063 -0.9071509 0.3423575 0.2446805 110 110 110
-0.037939092708082 0.00866148585011584 0.00311897830281038 -0.6984194 0.7140862 -0.04786745 101 101 101
-0.0321994575614133 0.0158298882143748 0.0232809610794865 -0.5651169 0.7192568 0.4041194 109 109 109
-0.0413873574718913 0.00385675830526833 -0.00759084297381951 -0.724458 0.6879457 0.04348846 52 52 52
0.0360969266970061 0.00648612198048859 -0.00723043502408294 0.8774487 0.393853 0.273795 85 85 85
0.00164265244079442 0.00663982736076107 -0.0275082030196446 -0.1160401 0.4630005 -0.8787293 101 101 101
0.0291362163453981 -0.00526244575394941 0.00223067733208959 0.7541566 0.3287034 0.5685084 65 65 65
-0.0206375509135708 -0.0083690244624538 -0.033366977762314 -0.04586954 0.5200824 -0.8528835 117 117 117
0.017296200326989 0.017209803997177 -0.0187882711007367 0.6703922 0.4093125 -0.6189004 52 52 52
-0.0358346507178153 0.000355465795672472 -0.0267886943286822 -0.4539614 0.7964406 -0.3995014 81 81 81
0.0320461118743876 -0.0116080300652602 -0.0283030502213465 0.3276803 0.7272212 -0.6031376 77 77 77
-0.0225677961236073 0.0113564586015714 -0.0205441239366765 -0.4883698 0.8582582 -0.1577589 74 74 74
-0.0381941995870896 0.00870899345413312 0.0132859848986794 -0.7277635 0.685438 -0.02313041 142 142 142
-0.0129420077309552 0.00519005993757304 0.0342546740628372 0.03087069 -0.2213915 0.9746963 115 115 115
0.0229021351477379 -0.0133340420448904 0.0213233600892041 0.8157981 0.2843736 0.5035923 129 129 129
-0.0383013410855442 0.00785281452298614 -0.00103637432909376 -0.700905 0.7124506 -0.03385604 60 60 60
-0.042429338844421 0.00236399081596328 -0.00100568176847748 -0.7944332 0.607192 0.01392025 50 50 50
-0.0557505982818938 -0.0114432116330228 -0.0296878873854692 -0.4936159 0.6652642 -0.5601489 66 66 66
0.0292996523887157 0.0140078171828589 0.000161025633080847 0.8165008 0.1036238 0.5679688 54 54 54
-0.0249479064775517 0.0109230079813881 0.0345277456147193 -0.528288 0.4028434 0.7474148 73 73 73
0.0300978098794815 0.0159226630521702 -0.00234241603422902 0.8725306 0.2342675 0.4287295 61 61 61
-0.0101192590953825 -0.002686922765611 -0.0309422829204322 -0.08559981 0.4756682 -0.8754498 49 49 49
0.0206073172571959 0.0153716325775848 -0.0168429872656749 0.6248615 0.4014027 -0.6696446 54 54 54
0.0312760460375237 -0.0116312017796416 -0.0277149141913257 0.3627731 0.7135081 -0.5994179 121 121 121
0.0175287356229672 -0.0034736525780058 0.0243143220799585 0.8724895 0.3487464 0.3422544 109 109 109
0.0411400552050865 -0.00340627939852023 -0.0103169703217536 0.7849916 0.5515126 0.2821737 67 67 67
0.0507288380076543 -0.0214402553366821 -0.00984358188497436 0.5951777 0.4336114 0.6765683 36 36 36
0.0331669180126706 0.00611728307885362 -0.0126500978704002 0.6249269 0.5217903 -0.5806903 105 105 105
0.0354960842724197 0.0051808567353353 -0.0105732284498026 0.790119 0.4423714 -0.4242871 109 109 109
-0.0270763844078676 0.0105368502229204 0.0324848369761389 -0.6095662 0.6164759 0.498384 59 59 59
0.034147549158809 -0.0152191252258972 0.00353119266524715 0.6727264 0.4740247 0.5681019 62 62 62
0.0194187786597857 -0.00392861756322127 0.0210900606118311 0.9061545 0.2881449 0.3096072 50 50 50
-0.0251808689320752 0.0175721390898845 0.0149949457989457 -0.3564112 0.928963 -0.09999406 73 73 73
-0.0517501873668882 -0.00601469777373254 -0.0177178421887377 -0.8713247 0.3499674 0.343971 36 36 36
-0.0510612579246204 -0.0044202684468857 -0.0235379985877082 -0.7035583 0.7075207 -0.06648416 45 45 45
0.0279433033375434 -0.0177475490927591 0.0145818991682316 0.6165971 0.6169363 0.4890783 79 79 79
-0.0103377991956408 -0.00266636406392384 -0.0300844113910397 -0.1023687 0.4657166 -0.878993 40 40 40
-0.0107641119866464 0.0048177598307183 -0.0259600995230089 -0.05033502 0.4480303 -0.8926002 76 76 76
-0.0163377238890003 -0.00773174733916149 -0.0331372414398267 -0.04623975 0.481442 -0.8752574 182 182 182
-0.0399268723784563 0.00611669257399039 -0.0115913719236126 -0.547481 0.8321289 -0.08846491 64 64 64
0.0434639466446931 -0.0077485006707112 -0.0105697907668917 0.6356915 0.4483376 0.6284025 63 63 63
0.0199075247830631 -0.0101363633787056 0.0246406762610153 0.8099633 0.1220126 0.5736482 73 73 73
0.0279372085756073 0.0242385525318247 -0.00168644454020128 0.9258654 0.3517596 0.1379798 71 71 71
0.0546069411563235 -0.0218247715045989 -0.0135609322168676 0.6580209 0.5600467 0.503345 23 23 23
-0.0551449512547892 -0.00931988105517834 -0.0240020216146479 -0.7802676 0.6215132 0.07002676 46 46 46
0.0219221660202233 -0.0108913730645599 0.0194768279184602 0.8363206 0.3734582 0.4013687 70 70 70
0.00322827715068796 -0.00965524184032995 -0.0325730418367887 0.09216159 0.4001645 -0.9117975 236 236 236
-0.0119988280011001 0.0262945757114162 0.0267067712700491 -0.4729342 0.7291999 0.4945712 57 57 57
-0.0222150454574566 -0.00143846873874898 -0.0289532260582488 0.1005563 0.3720084 -0.9227666 226 226 226
-0.0079519742665155 0.0282190669072893 0.000863322865989669 -0.6298281 0.7298136 -0.2658733 69 69 69
0.0514876442034746 -0.0207755110115807 -0.0225069351139272 0.5364347 0.6607242 -0.5250537 105 105 105
0.00655722025095717 0.0317373841255818 0.0132679219694435 0.5576155 0.5707183 0.6027816 53 53 53
0.00845082516267515 0.002060399999811 0.033202013049683 0.3817257 -0.04729455 0.9230648 131 131 131
0.0235905724557315 0.00739571120067606 -0.0199246280646194 0.4911985 0.6590381 -0.569555 79 79 79
0.0287555397421706 0.0175864058949972 0.00016273532185973 0.7771668 0.172848 0.6050912 33 33 33
0.00302009598486186 0.0274630532424579 -0.00933514734417629 0.06977823 0.8507935 -0.5208468 64 64 64
0.0225971960453994 0.0157825006157518 0.0107576526898723 0.8057207 0.1246034 0.5790407 50 50 50
-0.0335510719049539 0.0121590344367026 0.00992509999805025 -0.4532493 0.8859607 -0.09817682 120 120 120
0.0512380678938917 -0.014947908216269 -0.0159613508751493 0.7092226 0.6977811 -0.1005231 92 92 92
0.00594483488222708 0.00289678765065449 0.0333120603582316 0.2427116 -0.07507625 0.967189 127 127 127
0.0155285093829887 0.0308372014989062 -0.0063202335468916 -0.1557007 0.8851464 -0.4384897 76 76 76
0.0220313269171413 0.0247730682359916 0.00429491511468949 0.6782054 0.4695315 0.565312 64 64 64
0.0222743679593613 0.0174868798727827 0.00966913309424 0.8051774 0.2339847 0.5449225 29 29 29
-0.024826458990111 0.010385976914096 -0.0204404759623094 -0.5420715 0.8199923 -0.1837694 92 92 92
0.00749587275580144 0.0317545194807859 -0.00240603776085491 -0.1516362 0.8769821 -0.4559703 47 47 47
0.00848134526446942 0.0277907207354878 0.0163642139784314 0.5186399 0.5994182 0.6096806 70 70 70
0.0410734433242821 -0.00204892650184119 -0.01080319220436 0.7317405 0.6718662 -0.1146807 110 110 110
-0.00589748764113707 0.0171919533543728 0.0327278983116646 0.3272625 0.6050859 0.7257894 58 58 58
-0.022960651116847 0.0196268520564955 0.0228194588686416 -0.4693827 0.7359281 0.4879444 111 111 111
0.00706838012859357 0.0214581182585 -0.0199344490881683 -0.09981393 0.7463112 -0.6580704 201 201 201
0.0235537292597543 0.0136474458159899 -0.0158951310411234 0.6027936 0.3369196 -0.7232739 63 63 63
0.0320715592164211 -0.0110431188523721 0.00382374607638802 0.6527423 0.4817255 0.5846948 79 79 79
0.0188310552040842 0.0335030800656573 0.000257556118728797 0.4430794 0.7949879 0.4143366 96 96 96
0.0434142618346083 -0.00958076835940269 -0.00942690095244769 0.5810552 0.4097877 0.7031706 69 69 69
0.0137026312990918 0.0329661105806804 -0.00139451328476936 -0.1112326 0.9124139 -0.3938631 40 40 40
-0.045384028170002 -0.00393140833756656 0.00985535939359217 -0.9294049 0.02938069 0.3678903 46 46 46
0.0160585885756859 0.00295816425446782 0.0229911278598302 0.8629624 0.3057922 0.4022275 60 60 60
0.0061787624762053 0.0258084067332583 0.0196108226355239 0.5012979 0.5339871 0.6808511 39 39 39
-0.0382572978280571 0.00668636884786966 -0.0142767044743644 -0.2096235 0.914672 -0.345591 84 84 84
-0.0161072686033814 -0.00676454317085295 -0.0323646792247404 -0.05040269 0.5411664 -0.8394037 206 206 206
-0.0133385091484837 -0.00607835156118153 -0.0320995175532056 -0.006028562 0.5156634 -0.85677 136 136 136
0.00364268790281619 -0.00484948613035185 0.0321985270939105 0.1217003 -0.2644286 0.9566957 135 135 135
-0.00992953401773122 0.0279780337161052 0.00670896228543105 -0.5493008 0.8315393 -0.08252846 89 89 89
0.0246239091302194 0.00807243611290476 0.00676331356790894 0.8022017 -0.09194613 0.5899307 34 34 34
0.0113923232337181 -0.00326547653523046 0.0308797730366016 0.4043441 -0.08301513 0.9108317 102 102 102
0.016099190155779 0.0328601783656106 -0.00205123896771009 -0.05737249 0.9550956 -0.2906902 30 30 30
-0.044816111804671 0.00260750005906696 -0.0195759152053074 -0.4508903 0.870828 -0.1958481 77 77 77
-0.0445819471277844 0.000908361981054262 0.0043962204534379 -0.8230013 0.537722 -0.1830955 43 43 43
0.0213126393257876 -0.00433089635282013 0.015388338192784 0.8621174 0.3387125 0.3768652 40 40 40
-0.0251465775178377 0.012229771497003 -0.0055912124632399 -0.5172969 0.8481256 -0.1143979 105 105 105
-0.0303952291652696 -0.00266622663954497 -0.0300199259086787 0.08803622 0.4150777 -0.9055165 35 35 35
-0.0459332684132459 -0.00449279126758872 -0.000128831017984332 -0.9565011 0.2726897 0.1036625 38 38 38
-0.0116002314308556 0.0188180453058245 -0.0201378430158028 -0.3691911 0.7285897 -0.5769358 88 88 88
-0.0289465027277753 0.0062962981613206 0.0330609545896128 -0.5784091 0.2097438 0.7883213 55 55 55
-0.000255535495917281 0.0243440822971582 0.0236267630287542 0.4458383 0.4635699 0.7657227 63 63 63
-0.00280308427851295 0.0319066374076171 0.012367824971296 -0.5090554 0.8531094 -0.1143111 95 95 95
-0.00779534116263458 0.0272030118916041 -0.00168344257367536 -0.6632721 0.6961429 -0.274691 64 64 64
0.000812198927079733 0.0293077669489651 0.0213252537258862 0.5171016 0.5040373 0.6917748 82 82 82
-0.0177210670005297 -0.000656716924268941 -0.0283405538849349 -0.001158802 0.4194939 -0.9077574 183 183 183
0.0441867443981405 -0.0138174628782475 -0.0222653587612065 0.4959828 0.7125611 -0.4962437 82 82 82
0.0120331979679398 -0.0152567533370342 0.0271206215169589 0.3446659 -0.2182598 0.9129995 27 27 27
-0.0242870783131901 0.00968371714955329 -0.0241142301040537 -0.3849553 0.8071876 -0.4475016 127 127 127
-0.0506380668850743 -0.0102724800765472 -0.0306110316159224 -0.249823 0.6191501 -0.7444741 52 52 52
0.0051863162290342 0.0309884991025355 0.0154349045395938 0.5488519 0.582706 0.5993457 53 53 53
0.0139923355308862 0.00468843794415996 0.024428877576732 0.8494948 0.2982889 0.4351808 53 53 53
0.0197665757473053 -0.000894983718786824 0.0159312945650468 0.8885723 0.2957271 0.3506918 39 39 39
-0.0260323094236583 -0.002497625502349 -0.0312683881254512 0.08681293 0.3903851 -0.9165495 228 228 228
-0.0321421059940121 0.00630559800060426 -0.0177117112032302 -0.4540472 0.8321738 -0.3183202 55 55 55
0.0213620260343894 0.00857193241273857 -0.0198332391241843 0.5254272 0.5841689 -0.6186057 66 66 66
-0.00333848179292784 0.00161535050027772 0.0335246656731072 0.005393872 -0.1849333 0.9827363 132 132 132
0.017411114825401 0.00977293226993636 -0.0229591563385581 0.6424693 0.4195029 -0.6412882 47 47 47
-0.00177079182119111 0.0208032471528909 -0.0187243595758279 -0.02276352 0.6539918 -0.7561591 131 131 131
0.000409187936917688 0.0134962366506801 -0.0231802653312532 -0.1941166 0.4161323 -0.8883426 120 120 120
-0.0460473650333968 -0.000526718822255967 -0.00793084005063449 -0.8394641 0.5234681 0.1458807 46 46 46
0.00180342864756811 0.0202860564840351 0.0268500644057231 0.4152521 0.5724388 0.7070215 36 36 36
-0.0110595934938811 0.0267751478144096 0.00278288381184777 -0.6449078 0.7186699 -0.2600145 99 99 99
-0.0262662007504162 0.00972343121810881 0.0341724511125183 -0.5010242 0.3571722 0.788291 70 70 70
0.0247869610247549 -0.00304801555105794 0.00716935366333338 0.7811749 0.3564954 0.5125201 46 46 46
0.000206202793086474 0.0268143683409297 0.0231075612431569 0.476274 0.4408134 0.7608197 75 75 75
-0.0282877899521725 0.00903638516942318 0.0326852588545736 -0.5085946 0.6397665 0.5762208 61 61 61
-0.0553441997544026 -0.0096127092393119 -0.0264615293200673 -0.6885308 0.7026742 -0.1793721 81 81 81
0.0139267870001141 0.000950774879655114 0.0290009654925757 0.7922221 0.3084667 0.5265287 87 87 87
-0.0170806825171408 0.0208655677228973 0.00435595349782958 -0.6642649 0.7232179 -0.1889655 78 78 78
0.0271022958140097 0.000425844164870792 0.00250424378043723 0.7717815 0.1736378 0.6117215 41 41 41
0.0274035023127916 0.0078206464380548 0.00261549960105056 0.8055248 -0.1040848 0.583349 25 25 25
0.0281871418533777 0.0188715196810976 0.000380340762641485 0.7485327 0.2180796 0.6262109 22 22 22
-0.0450044857552141 -0.0114105227060932 -0.0343694956698329 -0.417887 0.6491801 -0.6355593 73 73 73
-0.0474743609557009 -0.00382389807083949 -0.0263844116658438 -0.2718011 0.6461169 -0.713202 41 41 41
-0.0286274448739563 -0.0110929221568108 -0.0346261422172253 0.03365289 0.4608441 -0.8868428 198 198 198
-0.00100224766205392 0.0149312795417196 -0.0235753716206158 -0.1609324 0.4415192 -0.8827013 122 122 122
-0.0482032572090734 -0.0016196911030899 -0.0192546209263562 -0.7316723 0.6792384 0.05736495 64 64 64
0.00294945649758493 0.033843093812443 0.0156656789040243 0.297227 0.8020011 0.518122 58 58 58
0.00138887290285106 0.0289011946263681 -0.00690498181216903 0.1489622 0.860734 -0.4867723 57 57 57
0.0299029573033391 0.00510223888140915 -0.016562798346809 0.6313339 0.4623609 -0.6226074 70 70 70
0.025132950115222 -0.00472758262817574 0.007207930464185 0.7712528 0.4115954 0.4855496 101 101 101
0.0138274905846594 0.0195862026083825 -0.0216856804490939 0.302 0.5692208 -0.7647114 100 100 100
0.0554709789122723 -0.0222667085489894 -0.0123564051107429 0.6326901 0.5207661 0.5731544 19 19 19
0.0337414616007929 0.000634547102559946 -0.00402920891278835 0.6974632 0.1437402 0.7020569 29 29 29
0.00567759834375603 0.0145466621006514 -0.0244157972286542 -0.06195771 0.4100259 -0.9099671 231 231 231
0.0332791535561345 -0.00923294218315185 3.83348861144883E-05 0.7063257 0.431678 0.5610332 72 72 72
0.0227603002905432 0.0323951321389291 -0.000897452560014944 0.5581949 0.7371644 0.3807981 81 81 81
0.0239181973832276 0.030168341774105 -0.00426215808925268 0.7059698 0.519759 -0.4811001 90 90 90
0.017147142008435 0.0264101254725845 0.00897381118056695 0.5777764 0.5854822 0.5686696 57 57 57
-0.0233812197084444 0.0125488051131448 -0.00598984314601969 -0.5482952 0.8258669 -0.1315911 125 125 125
-0.0488656068216391 -0.0082354743674371 -0.0118423848542383 -0.9394271 0.2264463 0.2572911 53 53 53
-0.0208878860639339 0.000343350111521312 -0.0283118088431461 0.07695983 0.3280673 -0.9415142 211 211 211
-0.000996027827958157 0.0325530274555813 0.00357440404866405 -0.2853692 0.9552798 -0.07749148 97 97 97
-0.029581330987253 0.0168638800172669 0.0172383922734577 -0.3398505 0.9009826 -0.2696886 117 117 117
0.0265557106958798 0.020816984857629 0.00156862364441346 0.7221385 0.2737679 0.6352693 81 81 81
0.0261360862401758 0.019998432117925 -0.00835365604314631 0.6217771 0.5260866 -0.580195 88 88 88
-0.00293991852884701 0.0342555741468071 0.0189683228895884 -0.2612896 0.9596563 0.1038629 95 95 95
0.0212987197638086 0.0308972146295906 -0.00645016897007877 0.5019911 0.6237117 -0.5991566 60 60 60
-0.00569187899810664 0.0256707119408688 0.0264143678043154 0.3431687 0.453395 0.8225985 76 76 76
-0.0108562787402513 0.0239859217725533 -0.000415404429642607 -0.6313956 0.7349017 -0.247506 61 61 61
0.0215262570700141 0.0270525718460549 0.00290802806121115 0.6326703 0.4525013 0.6284671 50 50 50
-0.0252974710134868 -0.0072954433816369 -0.0320517335330895 0.08592683 0.4393818 -0.8941813 217 217 217
0.0167930511074268 0.00864366086793256 -0.0236111816756323 0.6225415 0.4458586 -0.643158 53 53 53
-0.0382401709956086 -0.00366683334525253 -0.0316114510703047 -0.3399495 0.6548561 -0.6749799 67 67 67
-0.0474481869555552 -0.0124602723876299 -0.0337461999989356 -0.3523809 0.6648106 -0.6586764 66 66 66
0.00119009706867113 -0.00424403681283492 -0.0323240391982872 -0.01502998 0.3220392 -0.946607 79 79 79
0.0237694856449944 0.000566455431098234 0.00738787286911946 0.81924 0.1236602 0.5599588 31 31 31
-0.0496277736510953 -0.00303233617622911 -0.0249807362112743 -0.5333341 0.7372194 -0.4148039 76 76 76
-0.0290080174419975 0.0140903013998585 0.0261957509022895 -0.09207647 0.5860476 0.805028 57 57 57
-0.00666135586458272 -0.00904798001983942 -0.0335719452459212 0.04308807 0.351588 -0.9351627 70 70 70
0.0157155046106416 0.0245736247588684 0.0126063684001767 0.593501 0.5872492 0.5503589 80 80 80
-0.0385289092008165 0.00730264799639457 -0.00707666954079711 -0.6273758 0.7768859 -0.05336634 78 78 78
0.018867211517509 0.0321851520333227 -0.00501252230913163 0.04104443 0.8700428 -0.4912646 63 63 63
-0.0450971661687321 0.00121841344356954 -0.0213185541971825 -0.4129474 0.8496411 -0.3280007 71 71 71
0.021066713910517 -0.0138845049013329 0.024013519130781 0.6423897 -0.02255351 0.7660462 39 39 39
-0.0345791383507046 0.00991306747287712 -0.00312921699161217 -0.4017372 0.9060803 -0.132762 90 90 90
-0.00116716367027792 0.0132164640642096 0.0340004316003444 0.3033538 0.5219501 0.7972105 76 76 76
0.0152573262504656 0.0265446549626387 0.0111868980526065 0.5772338 0.6258095 0.5245604 71 71 71
0.0193735789374865 -0.00366347230359587 0.0197888749907179 0.9127418 0.2564349 0.3180306 57 57 57
-0.0490077253032231 -0.00248936502617525 -0.0214550284793016 -0.7449231 0.6671392 0.003843605 67 67 67
-0.00583435574341062 0.0300724947096436 0.0239972517112117 -0.01905019 0.7819141 0.623095 133 133 133
-0.032020307534282 0.0113206281476371 0.00246239345735111 -0.3147509 0.941844 -0.1177356 105 105 105
0.0210466070896185 -0.00129737598133983 -0.0288937049973557 0.5313047 0.2927221 -0.7950026 125 125 125
-0.0346723039813852 0.0119228493604635 0.0151701579294781 -0.5998269 0.7974874 -0.06497311 156 156 156
0.028075236204949 -0.00558703051649978 -0.0238104774090385 0.5103581 0.5817356 -0.633339 87 87 87
-0.042651386763042 0.00253190081378707 -0.0053708491441411 -0.73932 0.668983 0.07660025 41 41 41
-0.0183529166107195 0.0191550071582053 0.0247644738505963 -0.5417821 0.6829045 0.4900138 90 90 90
0.0461247742736175 -0.0192970731113575 -0.0071206508028715 0.6460992 0.4188804 0.6380401 55 55 55
0.0262491973859131 0.00295603436747915 0.00330959762306393 0.8116608 0.02086608 0.5837562 23 23 23
-0.0150919564713721 0.025585401384855 0.0186058603212335 -0.5336837 0.843244 -0.06419786 104 104 104
-0.000376617787287037 0.0191142015355411 0.0287743570798671 0.3655789 0.5636232 0.7407299 33 33 33
0.015116836416786 0.011009560531801 -0.0249551713413176 0.5294449 0.3873754 -0.7547373 80 80 80
-0.0527540083812184 -0.00695119378922437 -0.0275847479167066 -0.5853172 0.6580768 -0.473644 99 99 99
-0.0016814391386839 0.017144809819879 -0.0212525069872489 -0.1171999 0.5980793 -0.7928211 69 69 69
0.00905209446364519 0.000992214720226814 0.0327736244099009 0.3716914 -0.09559613 0.9234213 110 110 110
-0.0461328596802961 -0.0017936522218065 -0.0258414790068114 -0.2409182 0.7081333 -0.6637059 57 57 57
0.0375239386339434 -0.0142689340990356 0.00021797777735888 0.6456319 0.5121341 0.566461 83 83 83
-0.0282929843161412 0.0146007472520137 0.00926638063873353 -0.4262713 0.8676863 -0.2557601 107 107 107
0.0249707870516742 0.00738589967908043 -0.0190025870208104 0.4944668 0.6510039 -0.575931 79 79 79
0.0177302390772935 0.00362310910419439 0.0179207279882666 0.8925512 0.2802735 0.3532692 33 33 33
0.0466753727487654 -0.0220548154399498 -0.00602795537709555 0.6443669 0.4286637 0.6332762 45 45 45
-0.0151793909399676 -0.0110117609821772 -0.0349258993404573 -0.004473414 0.4554424 -0.890254 202 202 202
0.0349707883290975 -0.0111434717717027 -0.0249845996259899 0.3809271 0.7290464 -0.5686703 86 86 86
0.0102409372860091 0.0267872356530242 -0.0120418224956217 -0.1777188 0.8364328 -0.5184556 51 51 51
-0.0124730066215573 0.0068257368033553 -0.0249225470178457 0.02517806 0.3978865 -0.9170891 37 37 37
-0.0162046448082456 -0.00313514869720155 0.0324513302649461 -0.06481044 -0.2898936 0.9548619 110 110 110
0.00415830811874551 0.0188640090763093 0.0261246338330395 0.4768404 0.5522211 0.6838678 51 51 51
-0.00629410954903276 0.0107827215961201 0.0354561651893988 0.07300553 -0.1111886 0.9911141 84 84 84
0.0103697032042558 0.00836363603393508 0.0288607563350171 0.6884053 0.3526632 0.6338192 51 51 51
0.0105066818233983 0.0242652805195068 -0.0157826028736473 -0.1009222 0.8247213 -0.5564616 64 64 64
0.0270736107640304 -0.00162764054790765 0.00348118770156425 0.7728515 0.2282599 0.5921131 35 35 35
0.0151225269516948 0.00281435787501871 0.0252102375755443 0.8424201 0.3250134 0.4297611 81 81 81
-0.0455718676893784 -0.00329360160891645 0.00239488057505877 -0.9438688 0.3121482 -0.1080523 43 43 43
0.0182061549602486 0.0218353529887155 -0.0148968632194574 0.6360573 0.5522301 -0.5389556 74 74 74
-0.0349992383796101 0.0112701104668684 0.011325667273888 -0.5343792 0.8402992 -0.09130227 118 118 118
-0.0197104086364384 -0.00628943743626109 -0.0323394476417594 -0.06721976 0.489175 -0.8695915 59 59 59
-0.00208236804854356 0.0252062332880451 -0.0134831713278101 0.06531784 0.8027555 -0.5927201 36 36 36
-0.0364824069592597 -0.0125604294965219 -0.0362851731528587 0.1164429 0.3666034 -0.9230617 116 116 116
0.00902195838075204 0.0339890312020861 0.00153638645039034 -0.193546 0.9186171 -0.3445034 32 32 32
-0.0449133899212586 0.00140801715792604 -0.0179132698076768 -0.6300021 0.7765912 -0.001853491 63 63 63
0.0232006845926132 0.0196449828438799 -0.0107125203602471 0.6078323 0.5694341 -0.55343 115 115 115
0.0296882552901574 0.0185406747766942 -0.00117367725257378 0.8257782 0.2215941 0.518639 30 30 30
-0.011988049017581 0.0240838399531715 0.00077306276735245 -0.6231738 0.7315063 -0.2766821 55 55 55
0.0298026108958969 0.0073477094484925 -0.000304625899247957 0.8019773 -0.05946558 0.5943874 31 31 31
0.012639097063317 -0.00576069538591317 -0.0318258992243198 0.05192505 0.3263374 -0.9438261 226 226 226
0.00968804053422745 0.0164347256940307 0.0237415440911649 0.5299739 0.5612772 0.6356851 64 64 64
0.0151267478526071 0.0281316897228663 -0.0117076011956895 -1.51315E-05 0.7708879 -0.6369708 79 79 79
0.0301751985632734 -0.00857817392936211 -0.0256495307544403 0.4459779 0.6684054 -0.5952629 75 75 75
0.0239003174329289 -0.00604258473189778 -0.0278945345289531 0.5968658 0.4742562 -0.6471725 94 94 94
0.00282927062942284 0.0330853123589837 0.00229784277429945 -0.1177463 0.9636083 -0.2399892 73 73 73
-0.0250533678796028 0.0056932069352752 0.0349616052371018 -0.2671551 0.008480332 0.9636163 142 142 142
0.0265879790411043 -0.0173831573967941 0.0154835560393854 0.7018528 0.5618446 0.4378736 87 87 87
0.0402046388876649 -0.0199284125292438 -0.000174132300248653 0.6875911 0.29974 0.6613429 71 71 71
0.046333824631023 -0.00856480094850598 -0.0117144939759191 0.7663577 0.5328932 0.3587766 79 79 79
0.0259794358405463 0.0103798358270925 -0.0148719639477974 0.6145779 0.4121745 -0.6726115 101 101 101
0.00733203508269686 0.0271822383390667 -0.0100025085230629 -0.1214229 0.8542743 -0.5054422 77 77 77
0.0204179714248167 0.0335093531345581 -0.00346101438075086 0.247985 0.9413207 -0.2289517 105 105 105
-0.0281381997911794 0.0115308134729014 -0.000215052053793685 -0.2085723 0.9454749 -0.2501497 76 76 76
0.0377919978665706 -0.0107733375145497 -0.00333820721741729 0.5943096 0.4826906 0.6432775 50 50 50
0.0268885829476879 0.0116823363086784 0.00449353556909027 0.8211939 0.0001991875 0.5706492 45 45 45
-0.0252056530208742 0.00298929675272941 -0.0281173040350798 0.03532217 0.3327957 -0.9423372 57 57 57
-0.0356769839459636 0.0109079966406961 0.0237626884952238 -0.7839067 0.5334591 0.3176661 103 103 103
-0.0467996049984054 -0.00499778535758777 0.00642413291188371 -0.9926015 0.1144831 0.04044773 43 43 43
0.030071860487457 0.00660953870645797 -0.00177333677305092 0.7873461 0.009516219 0.6164377 39 39 39
-0.00561294683413993 0.00410149452387809 0.0337843870680886 0.009946383 -0.2027658 0.9791768 123 123 123
-0.0148531756920243 0.0247785461443877 0.00850964649244534 -0.6499801 0.7377822 -0.182218 90 90 90
-0.0230218845887866 0.00910033069789562 -0.0259548005204645 -0.1253811 0.6731203 -0.7288269 53 53 53
-0.00913585395903538 0.00291566838133517 0.0336872480045798 0.01280215 -0.213543 0.9768498 139 139 139
-0.0125515603936621 0.00305769114580856 -0.0265166510940823 -0.03383905 0.5334509 -0.8451539 50 50 50
-0.0183232216621738 0.0234826165932891 0.0167907543682547 -0.677406 0.7150744 -0.1725973 88 88 88
-0.0126424690615174 0.0224788138908701 -0.00549640072833213 -0.5668522 0.8102816 -0.1487359 102 102 102
0.0201095940337164 0.00751696789740719 -0.02297386601998 0.5135652 0.6008804 -0.6125304 66 66 66
-0.0127723489207063 -0.00957146908367024 -0.034331364133635 0.009448745 0.466467 -0.8844881 170 170 170
-0.0333158674528524 0.000491720848137644 -0.0298646772497221 -0.2423799 0.6154068 -0.7500176 51 51 51
-0.0408459727567696 0.00530234974268262 0.00897076985347456 -0.7347948 0.676588 -0.04801356 136 136 136
0.0245993176206605 -0.00900811088615783 0.0146378162901719 0.8260891 0.3769782 0.4188845 72 72 72
-0.0395671346727553 0.0060021901635694 -0.00288497476402494 -0.7520633 0.6590857 0.002614814 51 51 51
0.0246181740528171 -0.0190409047379284 -0.0350772916493117 0.1094813 0.3976214 -0.9109946 41 41 41
0.0477927616961604 -0.0211875513327293 -0.00750133531207209 0.6291025 0.4515107 0.6327465 30 30 30
0.00745313610641918 -0.00551778169326822 -0.0312051377599787 0.03238649 0.2816091 -0.9589825 90 90 90
-0.0447205700329969 0.00100076357494139 -0.0114238200175345 -0.7244577 0.6873115 0.05257246 40 40 40
0.0047320828075903 0.0273723571007803 0.0191330075938873 0.4946095 0.5566776 0.6674365 38 38 38
-0.0360551519295045 0.00748790003618582 -0.0132628601989685 -0.1021787 0.888806 -0.4467475 64 64 64
-0.011626549012298 0.0196151186278118 -0.0185203721199558 -0.4620287 0.7522911 -0.4696676 99 99 99
0.00113050327192243 0.0316998173772588 -0.00241750576148503 0.0120573 0.9383596 -0.3454504 69 69 69
0.0240466206626777 0.0175123611376847 -0.0128480424713103 0.6058083 0.5464094 -0.5783019 86 86 86
0.0137846036399643 0.0264002646188426 0.012156555106359 0.6033341 0.6259972 0.4940803 77 77 77
0.0331730568022661 -0.0107613926930306 -0.0256032739835254 0.3720275 0.7257646 -0.578672 91 91 91
0.0344487002431537 -0.0111126088264185 -0.000456955103198542 0.6821935 0.4832126 0.5487418 76 76 76
0.0127525012988268 0.0312384999371512 0.00814257780949001 0.6159747 0.472696 0.6301854 65 65 65
0.0095970167706072 -0.0187981914354124 0.0268898410256446 0.2947971 -0.2420365 0.9243987 32 32 32
0.0403369389954491 -0.00952708306255445 -0.0195575799726104 0.4572333 0.6963344 -0.5532234 78 78 78
0.027938565148615 -0.0172046647544319 -0.0339326613794256 0.1115222 0.533179 -0.8386196 68 68 68
0.0119105990049122 -0.00597013322876883 -0.0310550628724278 0.06581116 0.3222197 -0.9443746 190 190 190
-0.0149419996484885 0.0227075630023025 0.028832254158903 -0.60164 0.7543189 0.2627398 58 58 58
0.0332837478636192 -0.00205055835400925 -0.00318748373261157 0.6871115 0.1846574 0.7026944 38 38 38
-0.020433185387595 0.0128640876027925 0.0351755746574246 -0.2572216 0.2616934 0.9302438 51 51 51
0.0073016631109033 0.035103605602251 0.00983579840937754 0.269208 0.9037209 0.3328899 71 71 71
0.0276992111966781 -0.0188791770940653 0.0158296654938815 0.6826757 0.5730257 0.4534262 75 75 75
0.0278335259974938 -0.00445575125909303 -0.0219724750039629 0.5226008 0.5411999 -0.6587799 66 66 66
-0.0181447212968056 -0.0117922216501907 -0.0349044932807441 -0.05473096 0.42984 -0.9012448 201 201 201
0.00767391889904756 -0.01074350760271 -0.0335345971707515 0.01888682 0.4541216 -0.8907395 113 113 113
0.00195484134757717 0.00130047953349144 0.0330412363339408 0.02649031 -0.1551391 0.9875374 126 126 126
0.0107369268058954 0.0295386584456885 -0.00727996183000101 -0.1907592 0.8586295 -0.4757797 55 55 55
-0.01384373903458 0.0218471583192739 -0.00460764749967357 -0.5918061 0.7842203 -0.1864514 82 82 82
0.0218854484887032 0.00694100025995614 -0.0220167677993798 0.4766076 0.6600416 -0.5806809 68 68 68
0.0316253754924785 -0.0210612147255079 0.0115378977678382 0.8287116 0.3334617 0.449489 21 21 21
-0.00791258525943106 -0.00774080768326602 -0.0332647517701783 -0.03643988 0.4268666 -0.9035801 39 39 39
0.0406144340226116 -0.0182973236608021 -0.0309111279751788 0.4494337 0.6467063 -0.6162632 99 99 99
0.0196262675814733 -0.0184292469765961 0.0229323574509011 0.5250307 -0.2062113 0.8257237 36 36 36
0.0127216498372615 0.00406167272265745 -0.0278392814347919 0.1577585 0.3033784 -0.9397201 156 156 156
0.0108115992964957 0.0260972587484386 0.0159716660378454 0.5636744 0.5421037 0.6232132 46 46 46
-0.0404295331024447 -0.00898397738430012 -0.0353480844851534 -0.1561634 0.583913 -0.7966546 84 84 84
0.0085274772444528 0.0113618880214396 -0.025331756837751 -0.06725673 0.466077 -0.8821841 103 103 103
0.0301043064415556 -0.0128418030702393 -0.0305971412760275 0.3311432 0.6816631 -0.6524413 59 59 59
0.0267040575534805 -0.00368126709132843 -0.0237021154635539 0.5932854 0.5029832 -0.6285064 76 76 76
-0.0212960033599623 0.0126710845771707 -0.016426153745894 -0.4894297 0.8617501 -0.1335865 97 97 97
0.0135921590553096 0.00138293041028736 0.0280019598560854 0.8204156 0.3520712 0.4505155 96 96 96
-0.0185778439540016 0.0186760705567537 -0.000974225201199053 -0.6946895 0.6935704 -0.1907004 65 65 65
0.0288094017533935 -0.0187944901473907 0.0147180362547554 0.736002 0.5277063 0.4240603 64 64 64
0.038108310893781 -0.00250973652736863 -0.00787811312616471 0.6807636 0.4195041 0.6004808 30 30 30
0.0334189821876392 8.68099870023897E-05 -0.0151416317465778 0.6234614 0.4204641 -0.6591706 79 79 79
-0.0494297107791899 -0.00505701688207782 -0.0140472934681968 -0.8968681 0.3049236 0.3203892 29 29 29
0.0199304683673491 0.0319558499619155 0.000696272936023812 0.3866849 0.7757429 0.498696 46 46 46
0.00778763427911922 0.0324252049441727 -0.000611001227246666 -0.168189 0.9031767 -0.3949485 45 45 45
0.00708929310961559 0.0293748116014263 -0.00591725263176113 -0.1101491 0.864201 -0.4909418 41 41 41
-0.0535510883476931 -0.00688072482141333 -0.025310098786829 -0.7380543 0.6695611 -0.08344855 77 77 77
0.0275188623800182 -0.00426718461935138 0.00429379064159552 0.7605317 0.3582615 0.5415167 92 92 92
0.00571682867666801 -0.00876668375628042 -0.0335807800311299 0.07494604 0.3304208 -0.9408534 227 227 227
0.00470435054640084 0.0350634782031071 0.0119086979559196 0.235965 0.9411631 0.2419351 56 56 56
0.0144506163153288 -0.00661867960024753 -0.032211934184095 0.03068729 0.3603908 -0.9322965 191 191 191
0.0334126200836999 -0.0045040358961439 -0.0194613429475265 0.4778329 0.6073067 -0.634708 114 114 114
-0.00310581215471362 0.0032175290490285 0.0333669283393789 0.0155724 -0.1917005 0.9813299 135 135 135
-0.0381047628335449 0.00748360853174201 -0.00449924778246236 -0.6486186 0.7605079 -0.03035758 90 90 90
0.0123304308889181 0.0264753236125987 -0.0132137592759112 -0.04193478 0.8089557 -0.5863721 55 55 55
-0.0145442894094414 0.00340611672817781 -0.0274338590882354 0.05226055 0.4854094 -0.8727236 38 38 38
0.0452221553155041 -0.0100287089222094 -0.0156734282531011 0.5372316 0.6744023 -0.5065213 87 87 87
-0.0266982519302876 -0.00576094487998702 -0.0320128266541729 0.07656227 0.4282512 -0.9004105 218 218 218
0.00673491764917089 0.0189408568012338 0.0239056891498896 0.5324266 0.5327392 0.6578076 37 37 37
-0.0436741090374426 0.00141575731649324 -0.00339808686573018 -0.7963115 0.5913947 0.1270447 38 38 38
-0.0563996878404365 -0.0100846659176649 -0.0288228901650537 -0.5623037 0.648974 -0.5124913 96 96 96
-0.0201070294156482 0.0102236757388052 0.0351995145662883 -0.1311184 0.03265784 0.9908286 84 84 84
-0.0260171510030276 0.00894305148502572 -0.0189663023423017 -0.5612957 0.8114072 -0.1629889 98 98 98
-0.0289348723338765 0.0164926637030833 0.0151301444811149 -0.3998312 0.8949432 -0.1980191 118 118 118
-0.014785404683568 0.0259052606101698 0.0170831438718813 -0.5308267 0.8446455 -0.06926066 95 95 95
-0.0277000654835924 0.0148604101633241 0.0262425920493728 -0.05874071 0.6267953 0.7769666 74 74 74
0.0303079777537174 -0.0198086530216566 0.0128876566690097 0.7761132 0.4409792 0.4507613 42 42 42
0.00747243917350882 0.0176620209590841 0.0239409970210905 0.5136632 0.5539788 0.6551775 35 35 35
-0.0252833684101661 0.0045599103660604 -0.0281862612350451 -0.06894831 0.4583316 -0.8861029 38 38 38
0.0236511833628323 0.0235546809143821 0.00289126014622842 0.6944551 0.40276 0.596252 75 75 75
-0.0124008939161209 0.0245587360337123 0.00278697079857027 -0.6408188 0.7125296 -0.2857497 45 45 45
-0.048646926533068 -0.0148631567767589 -0.00422067595109044 -0.9448843 0.2417484 0.2207971 87 87 87
-0.052767335983205 -0.0126339992496545 -0.0187203221480043 -0.8629512 0.2333606 0.4481719 32 32 32
0.0135370205225949 0.027595971519668 0.00984738527198459 0.5814663 0.6243919 0.5215667 73 73 73
-0.0344728128393019 0.00939974995804094 -0.00577114974028992 -0.323625 0.927811 -0.1855631 101 101 101
0.0131691852845679 0.0291377692177035 -0.00912843978203148 -0.1881176 0.8610829 -0.4723854 61 61 61
0.0371255736184908 -0.0213369450390344 0.00385010950780884 0.7156506 0.2717888 0.643409 69 69 69
-0.0273620276983619 0.0113921739878013 -0.00805230589089612 -0.4048225 0.9042644 -0.1357372 65 65 65
-0.00031680731379824 -0.00201256194234889 0.0327161856757906 -0.0006429233 -0.1850293 0.9827328 124 124 124
0.0165548671487878 0.025811404621825 0.00984835101304649 0.567804 0.6074958 0.5554705 52 52 52
-0.0511322334447935 -0.0138083050089327 -0.0105782385001615 -0.9131899 0.3263473 0.2440936 93 93 93
-0.0106407430275033 0.00510801985478371 -0.0255662770501507 -0.05033502 0.4480303 -0.8926002 105 105 105
0.0228499048336712 -0.000918751183553002 0.00825330696575766 0.8259229 0.2199442 0.5191106 44 44 44
