ply
format ascii 1.0
comment File exported by Rhinoceros Version 7.0
element vertex 468
property float x
property float y
property float z
property float nx
property float ny
property float nz
property uchar red
property uchar green
property uchar blue
end_header
-0.0432680307771558 -0.0218154703526581 0.0183070124902704 -0.7896276 -0.4615226 0.4043329 118 118 118
-0.0464822708513135 -0.0162221704869354 0.00190999822997839 -0.9739075 -0.226623 -0.01209147 82 82 82
-0.0468660055543775 -0.0153568302540863 0.00173937993430884 -0.9727104 -0.2303529 -0.02778556 95 95 95
-0.0467941223527784 -0.014109662666806 0.000625145606038879 -0.9735369 -0.2245143 -0.04265274 76 76 76
0.0127170623396045 0.0457639182658112 0.00347707884692938 -0.2253971 0.9359137 -0.2706689 48 48 48
-0.0468180834199781 -0.0155466114430511 0.00301620083236487 -0.9715283 -0.2368856 -0.004235073 80 80 80
-0.0468180834199781 -0.0148911987691009 0.00661050992393286 -0.9561888 -0.2927391 -0.002596946 101 101 101
-0.0466741978074903 -0.0149426971821869 0.00601158755206854 -0.9577003 -0.2868696 -0.02271706 91 91 91
-0.0482692181016797 -0.0116800581364715 0.00374863760852606 -0.9667594 -0.2471225 -0.06562585 132 132 132
-0.0471778570558423 -0.0135403190999115 0.0052836360254267 -0.9646283 -0.2598355 -0.04447236 120 120 120
-0.0477775989915723 -0.0118316923527801 -0.000366511770250488 -0.9687095 -0.2471339 -0.02295246 111 111 111
0.0122613252256518 -0.0068429027943695 -0.0364773152551672 0.582492 -0.7152994 -0.3860697 38 38 38
-0.0479374586488599 -0.00971775402117614 -0.00057804865455835 -0.9680876 -0.2496566 0.02186386 79 79 79
-0.0485611616517896 -0.00807290424395446 0.00285929160499365 -0.9957048 -0.0869742 0.03174109 149 149 149
-0.0479694067384595 -0.0128626142888153 0.00923722701453955 -0.9814271 -0.1916713 -0.00793682 109 109 109
-0.0471538959886426 -0.0137097155003632 0.00761164443874152 -0.9598652 -0.2801753 -0.01267787 85 85 85
-0.0485931097413892 -0.0101824318318451 0.00711570399188788 -0.9967753 -0.02895593 0.07483744 118 118 118
-0.0482892452623243 -0.0118041550068939 0.0114133776941279 -0.9934925 0.007035967 0.1136795 194 194 194
-0.0489289223100537 -0.0102195059208954 0.00610439198398383 -0.9964001 -0.05847178 0.06138317 125 125 125
-0.0484011827852124 -0.00898521293688659 0.00479717271709235 -0.9956404 -0.06020337 0.07124467 117 117 117
-0.0488808809663648 -0.00835590709734801 0.00579017119788916 -0.9915497 0.06620792 0.1115604 168 168 168
0.0057129205320483 -0.0143706118016327 -0.0328123299560568 0.697531 -0.5933964 -0.4016605 40 40 40
-0.0485131203081006 -0.00582843174029235 0.00277231352710516 -0.9891626 -0.00645332 0.1466827 157 157 157
-0.0485931097413892 -0.00773291935015563 0.00664344149017126 -0.9587259 0.1822754 0.2182207 224 224 224
-0.0465782343294019 -0.00638227809954528 0.0090288193740824 -0.8936732 0.2845835 0.3469299 164 164 164
-0.0491687714006299 -0.0111822401433075 -0.0164511082849523 -0.8587078 -0.4974754 0.1230414 59 59 59
-0.0478158651735181 -0.0116509710698212 -0.0133894710025808 -0.8631102 -0.500747 0.06552228 77 77 77
-0.0490248857881421 -0.0109079395680511 -0.0145609555921575 -0.8681952 -0.4903644 0.07602467 88 88 88
-0.0472818075563306 -0.0116311823277557 -0.0112232593975088 -0.8912982 -0.4530623 0.01794449 75 75 75
-0.0466261564638013 -0.013063839569577 -0.00956400019741266 -0.9083636 -0.4181725 0.00269755 85 85 85
-0.0481492935563916 -0.0104983364491547 -0.012314531036379 -0.8547568 -0.5133899 0.07629906 91 91 91
-0.0497444330598706 -0.00944559921313171 -0.0140912858924886 -0.8944316 -0.445215 0.04213951 137 137 137
-0.0495045839692945 -0.00902800907183532 -0.0111163286647817 -0.8898569 -0.4562368 -0.00166606 71 71 71
-0.0503441749956006 -0.00757723201800231 -0.0161352036676428 -0.9993786 0.01138912 0.03335589 124 124 124
-0.0508958755876416 -0.00719933857012633 -0.0132202534160635 -0.993086 -0.08353887 -0.08247133 118 118 118
0.0254301370237475 -0.0230635916142548 0.00765250342273505 0.8223084 -0.4716635 -0.3183433 149 149 149
-0.0498883186723584 -0.0100764547734344 -0.0169536946496984 -0.8938926 -0.4360241 0.1041101 97 97 97
-0.049840396537959 -0.00540225853014831 -0.0135479746541998 -0.9830309 0.1512688 -0.1037688 64 64 64
-0.0490248857881421 -0.00444989551592712 -0.0163661120615026 -0.9211473 0.373998 -0.1077642 41 41 41
-0.0508958755876416 -0.00714474071551208 -0.00888248068905084 -0.9697523 -0.2254058 0.09366313 96 96 96
-0.0504000841523999 -0.00614612449694518 -0.00914143306827753 -0.9977912 -0.05438959 0.03813909 116 116 116
-0.0504640995408887 -0.00540726532030944 -0.00686858875370233 -0.9897221 -0.07524668 0.1216066 150 150 150
-0.0492327867891187 -0.00964599002886657 -0.00735923928833215 -0.8756154 -0.47458 0.08984171 115 115 115
-0.0486170708085889 -0.00980728019762878 -0.00838420075988977 -0.874298 -0.4808257 0.06640446 93 93 93
-0.0490728079225415 -0.00889699806261901 -0.00553432387924402 -0.9166722 -0.3797688 0.1244498 137 137 137
-0.0484171568300122 -0.00292401660967712 -0.014787453242304 -0.9093087 0.3723718 -0.1857333 82 82 82
-0.0496245085145826 -0.00172191013384704 -0.0116418181142828 -0.9293407 0.3449284 -0.13172 82 82 82
-0.0485211073305005 -0.00132994998980407 -0.0114411739788076 -0.9333093 0.3342367 -0.1312232 91 91 91
-0.0484251438524121 0.000431367263308724 -0.0108242808065435 -0.9186423 0.37794 -0.1151419 86 86 86
-0.0482092558290357 -0.00367956508684997 -0.0206749765357992 -0.8701516 0.4833892 -0.09576527 96 96 96
-0.0488329588319654 -0.00429575790453796 -0.0191731481037161 -0.8895686 0.4516505 -0.06840762 71 71 71
-0.047633594169795 -0.00251846660662536 -0.0219624517641088 -0.8629236 0.4963837 -0.09468897 62 62 62
-0.0474057852174634 -0.00147037853289489 -0.0172327933988592 -0.9141528 0.3789403 -0.1439756 97 97 97
-0.0471538959886426 -0.000455669060238639 -0.0172865418872854 -0.9124749 0.3699428 -0.1747337 128 128 128
-0.0467700420762891 -0.000118068352230827 -0.0191217688999197 -0.8927265 0.4164636 -0.1720387 102 102 102
-0.0461624323274488 0.000488468513003548 -0.0194948939762136 -0.8880967 0.4148473 -0.1979547 112 112 112
-0.0450909792329663 0.00217098842572327 -0.0217034397802374 -0.8749566 0.4494196 -0.1802024 87 87 87
-0.0447551666643018 0.00248987327527161 -0.0239578215560934 -0.8713678 0.4579247 -0.1761341 100 100 100
-0.043567842140376 0.00409299980115052 -0.0251210061988851 -0.8554488 0.4884535 -0.1721062 61 61 61
-0.0454748331453199 0.00264138828229066 -0.0193869797668478 -0.8783091 0.4229448 -0.2229147 101 101 101
-0.0483052193071241 -0.00159221042681579 -0.0152672259292623 -0.9201147 0.3436154 -0.1879292 75 75 75
-0.0478734432603711 -0.000505617752560417 -0.0136276660642645 -0.9232519 0.3484569 -0.1618136 84 84 84
-0.0468660055543775 0.00142879138898011 -0.0154851107082388 -0.9076157 0.3729507 -0.1927213 99 99 99
-0.0465301929857129 0.00250608573865052 -0.0153358159742376 -0.8876044 0.4250618 -0.1774287 101 101 101
-0.0413010774995679 -0.0221212421803558 0.0230562509813288 -0.5585724 -0.5141937 0.6508469 137 137 137
-0.0472738205339307 0.00194031845044251 -0.0128026632747671 -0.8972318 0.4190159 -0.1392872 95 95 95
-0.044611281051814 0.00428433071087952 -0.0184710500917455 -0.8591218 0.4655575 -0.2125229 78 78 78
-0.0446592031862134 0.00468189369153138 -0.0178712038478872 -0.8550867 0.472249 -0.2140272 62 62 62
-0.0422605930711621 0.00680989871930238 -0.0223892657241842 -0.8845184 0.419086 -0.2049245 60 60 60
0.0356964410398608 0.0328038419337189 0.0211245538511255 0.8023295 0.5946066 -0.05206074 114 114 114
-0.043076103820979 0.00696451316784974 -0.0205925731143972 -0.8886418 0.4084755 -0.2084789 100 100 100
-0.043124145164668 0.00685007224988099 -0.0176390586576483 -0.8804271 0.4354481 -0.1877044 119 119 119
-0.0491687714006299 -0.00559978832293395 -0.00136952383136957 -0.9837059 -0.1467949 0.103798 150 150 150
-0.0499363600160474 -0.00475185264635924 -0.00327432436561792 -0.9922401 -0.0507426 0.1135107 182 182 182
-0.00177091945666019 0.0333750928492462 0.0404058219709376 -0.5639616 0.1863865 0.804492 45 45 45
-0.0491687714006299 -0.00706713546801452 -0.000819134541513611 -0.9782983 -0.1929726 0.07545844 151 151 151
-0.0493606983568067 -0.00564067710924987 0.000595149568555664 -0.987305 -0.0948596 0.1273988 162 162 162
-0.0350645243074292 0.0378385270686066 0.0212181778469065 -0.3795351 0.515602 0.7681847 135 135 135
-0.049288695945918 -0.00438588012743835 -0.000898274608614136 -0.9929368 -0.06195268 0.1011848 215 215 215
-0.0493606983568067 -0.00174610961962585 -0.00119927806472986 -0.9845437 0.1650434 0.05860342 149 149 149
-0.0493606983568067 -0.00125782836962585 -0.00616534335231989 -0.9463376 0.3231182 -0.006309759 91 91 91
-0.0492647348787183 -4.23704533660807E-05 -0.0078917322835943 -0.9152654 0.4002304 -0.04587856 136 136 136
-0.0472840725328321 0.00219626079510804 -0.00907926542377679 -0.8802235 0.4708652 -0.05909895 103 103 103
-0.0473697840120191 0.00198561798047181 -0.00748034102535455 -0.8945953 0.4443855 -0.04712492 120 120 120
-0.0493606983568067 -0.00476937641192321 0.00312557535552771 -0.9763715 -0.004165045 0.2160584 169 169 169
-0.0474177061464185 -0.00315885891009215 0.00533871071719916 -0.9391348 0.06000336 0.3382682 144 144 144
-0.0476816355134839 -0.0014030252842987 0.00632370727443488 -0.8853807 -0.1255269 0.4475979 194 194 194
-0.048353260650813 -0.00168400157976989 0.00526293831252844 -0.9325603 -0.1113697 0.3434067 194 194 194
-0.0464102684404248 -0.00190930713702087 0.00698537843608649 -0.8671862 -0.052942 0.4951618 168 168 168
-0.0488569198991651 -0.00043290008593444 0.00350337939643652 -0.9837174 -0.08458106 0.158575 153 153 153
-0.0485211073305005 0.000439473494998177 0.0032130451717356 -0.9952752 -0.06087041 0.07564463 122 122 122
-0.0468180834199781 0.00342054019879456 -0.0043163327655813 -0.9137012 0.3499196 -0.2066554 103 103 103
-0.0477295576478833 0.00322420249890443 -0.000617953964235474 -0.9698344 0.1146255 -0.2151328 91 91 91
-0.0484492241289014 0.00410790096234437 0.00219194310092719 -0.9562226 0.002156318 -0.2926324 138 138 138
0.04220884452802 0.000453420981875619 -0.00308373851394861 0.7658291 -0.5750158 -0.2878587 151 151 151
-0.047505682602107 0.00641400466870423 -0.000986176558496643 -0.9320045 0.1342463 -0.3366685 90 90 90
-0.0488329588319654 0.00554890285443421 0.000718993119237732 -0.9437987 0.04242661 -0.3277867 94 94 94
-0.0484492241289014 0.00538761268567201 0.00134388821506293 -0.9476076 0.03131201 -0.3178984 146 146 146
-0.0456506668474073 0.00474185596417542 -0.00900957269287317 -0.8913005 0.446887 -0.07665104 96 96 96
-0.0454108177568311 0.00557250629376527 -0.0127062229595205 -0.8657753 0.4815737 -0.1360878 76 76 76
-0.0460313021089429 0.00440711627911683 -0.00696142298794 -0.9039026 0.3926547 -0.1696536 83 83 83
-0.0450550972368116 0.00637001644085999 -0.00878888649559229 -0.9191348 0.3659337 -0.1458894 88 88 88
-0.0455587564851636 0.00622183929394837 -0.00690655691242426 -0.9291244 0.3049989 -0.2090537 69 69 69
-0.0341290890123243 -0.0137738500981415 0.0285742999830225 -0.1727211 -0.09005655 0.9808452 231 231 231
-0.0439276157762403 0.0086147273631012 -0.0109814582548162 -0.9350473 0.3106615 -0.1708099 90 90 90
-0.0441795050050611 0.00868339191388245 -0.00935799164390771 -0.940729 0.2750885 -0.1983814 85 85 85
-0.044611281051814 0.00713081012677308 -0.0084441928348562 -0.9253556 0.3185723 -0.2054962 82 82 82
-0.0442754684831494 0.00643880020093079 -0.0132227717123052 -0.8764718 0.4613018 -0.137833 63 63 63
-0.0462183414842481 0.00638634811352845 -0.00383587462520807 -0.9303184 0.2075896 -0.302348 81 81 81
-0.0445633589174146 0.00865394721936341 -0.00588533563232629 -0.9307713 0.2023599 -0.3044919 73 73 73
-0.0445153175737256 0.00994426856946107 -0.0057620434246084 -0.9332395 0.1842888 -0.3083856 74 74 74
-0.0470259844209546 0.00809926639508363 -0.00252501947498529 -0.9177544 0.158847 -0.3639979 106 106 106
-0.0464182554628247 0.00863320480298158 -0.00316664857483118 -0.9101301 0.1822892 -0.3720671 91 91 91
-0.0460025726701612 0.00997419010113831 -0.00454451424694269 -0.9199066 0.1811948 -0.3477646 102 102 102
-0.0459545313264722 0.0107475007624542 -0.00272618515110223 -0.9166577 0.1859717 -0.3537699 96 96 96
-0.0438796936418409 0.0131979669184601 -0.00717015845394342 -0.9186717 0.240989 -0.3129962 128 128 128
0.0360801757429248 0.0322873080820953 0.0173576595106104 0.8171851 0.566645 -0.1054604 105 105 105
-0.0439396559144849 0.0107660974116242 -0.00947206003284662 -0.9391795 0.2325315 -0.2527271 69 69 69
-0.0429082571412915 0.0111275399775421 -0.0127043007097265 -0.9480125 0.2555309 -0.1896739 74 74 74
-0.0499842821504468 0.0024337256998932 0.00617901699924261 -0.9390459 -0.2185446 0.2653885 173 173 173
-0.0423805176164502 0.0119068111033356 -0.0130481152019521 -0.9493878 0.2499279 -0.19026 97 97 97
-0.0426923691179151 0.0138837779612457 -0.0110202459774038 -0.9487765 0.2246047 -0.2222068 69 69 69
-0.0424525200273389 0.0137196267695343 -0.00935751480674951 -0.9396852 0.2305049 -0.2527038 111 111 111
0.0121053994749194 -0.0294155393986786 0.0277463765659312 -0.2315831 -0.1394774 0.9627644 76 76 76
-0.0440356193925733 0.0138198817820465 -0.00712189359283655 -0.9169728 0.2427705 -0.3165809 128 128 128
-0.0426923691179151 0.0171073163599884 -0.00745883864975183 -0.9293384 0.2533578 -0.2685888 127 127 127
0.017226630554021 0.0372273410410797 0.0499963434257487 -0.2641931 -0.2641705 0.9275861 69 69 69
0.0283405126188403 -0.00935833801318053 -0.0103699145994207 0.6430675 -0.6725181 -0.3663109 155 155 155
0.0127651036832934 0.0455085719675934 0.0480764480152109 -0.4930097 0.1454621 0.8577775 83 83 83
0.0106782258604174 -0.0534527813344086 0.0171158881702402 0.6709723 -0.741418 0.009772478 79 79 79
0.039886051521123 0.0243333066553986 0.0147634716548899 0.8926337 0.441908 -0.08900741 128 128 128
-0.00356191982287113 -0.0239869867711151 0.0257410527982691 -0.1173715 -0.1839213 0.9759082 93 93 93
0.00297849784833248 -0.0325964008717621 -0.0192374764165899 0.5992253 -0.5142516 -0.6135751 66 66 66
0.0388306916807299 0.0267120088190949 0.0174843044795969 0.8879706 0.4488303 -0.1002976 101 101 101
-0.0311786590959424 0.00160545955609437 0.0268135787763575 -0.5133178 0.2065706 0.8329666 213 213 213
-0.0344888626481885 0.0250230516047394 -0.0167908845624944 -0.4921518 0.7805718 -0.3853497 76 76 76
0.0133407653425341 -0.0431671654133881 0.00727805214309485 0.7760774 -0.442669 -0.4491638 97 97 97
-0.0148677288438672 0.0433694804758942 0.0178404571332911 -0.1090248 0.9725851 -0.2054067 133 133 133
0.0237989963148242 -0.0216738497166717 0.000631016663549255 0.7650576 -0.5362636 -0.3565224 97 97 97
0.0195773185346728 -0.0208383118062103 -0.00809510333156793 0.7106881 -0.5937299 -0.377369 159 159 159
0.00855534683209713 -0.0352781330494965 -0.00930226130104272 0.7581255 -0.490933 -0.4292208 144 144 144
-0.00599259723681156 -0.06554400075961 0.00130237357997687 0.660825 -0.6891161 -0.2973706 97 97 97
0.0205207408521777 -0.019697836533078 0.030476269296644 0.1390307 -0.1485708 0.9790798 87 87 87
-0.0234069286729688 0.0112331594080841 0.0288358302631357 -0.3414562 0.1246931 0.9315897 203 203 203
0.0262456477735644 0.0549131120295441 0.0489803971567133 0.5075697 0.7867452 0.3512904 113 113 113
-0.0497924744035596 0.00342971931408997 0.00690023320102484 -0.9348094 -0.2521197 0.2501338 206 206 206
0.0424007714841967 0.0185859883875763 0.0137043269195536 0.9110788 0.4063294 -0.06951141 88 88 88
0.0288122237775927 -0.0125728165059174 -0.00183216018295496 0.7076246 -0.6263326 -0.3270702 67 67 67
0.0222998202894336 0.00242108951520081 0.0387043030776957 -0.07778133 -0.3586232 0.9302362 82 82 82
0.0165550054166919 -0.0416665588765228 0.0131898047246912 0.8037727 -0.4352376 -0.4056078 142 142 142
-0.0386145769502515 0.00659138809155579 0.0184447886266688 -0.7930164 0.002793655 0.6091939 119 119 119
-0.00637633193987552 -0.0690197860150421 0.00726036446475775 0.5856125 -0.7876427 -0.191512 116 116 116
-0.00733584751146976 0.00262076507519837 0.0350325228490809 -0.3145516 -0.2630879 0.9120538 211 211 211
0.0287242473219043 -0.00543313373614196 -0.0168655542812368 0.6664481 -0.6523954 -0.3608702 118 118 118
0.0318744720075732 -0.00395779956866149 -0.0146394847116491 0.6655796 -0.6279241 -0.4033796 154 154 154
0.0431323588941699 0.00365860115002747 0.0398985268392542 -0.01715391 -0.4390915 0.8982786 113 113 113
0.0244225801084643 -0.0287513052373016 0.01316757219219 0.7576591 -0.557171 -0.3398723 73 73 73
0.0189056933973437 -0.0327712808995331 0.010546443037031 0.7599383 -0.5160371 -0.3952208 117 117 117
0.0468071044538623 0.0107479775996124 0.0126283736743906 0.8513449 0.4993407 -0.1608439 112 112 112
0.0474498809431201 -0.00495427002001647 0.0171757163324335 0.7155871 -0.6033393 -0.3520181 62 62 62
0.0403018535230761 0.0150216306300079 -0.00383213443374841 0.9073073 0.3847337 -0.1696273 99 99 99
0.0314747632597094 0.0305731977076447 0.0504637630500773 -0.0589938 -0.3500981 0.9348535 77 77 77
-0.0271489082719678 -5.0357475765983E-05 0.0290044518032053 -0.2310957 0.0700745 0.9704042 29 29 29
0.0150198281858569 -0.045868924751767 0.0196580858745554 0.7986096 -0.5883849 0.1265942 26 26 26
0.0263895333860522 -0.0178348337559784 0.000987482241628479 0.7891757 -0.5489825 -0.2753541 130 130 130
0.0233192981336718 -0.00688033451128844 -0.022812652417185 0.6397095 -0.6233988 -0.4496061 122 122 122
-0.00371379245775882 0.0311685288996613 0.0395947815694788 -0.5290601 0.1817072 0.8289016 42 42 42
0.0323862374876147 0.0130680287928497 0.0438494654216746 -0.05333551 -0.2957796 0.9537661 246 246 246
-0.00196284641283695 -0.0584141527562225 -0.0028759418211004 0.7857069 -0.5303959 -0.3183472 49 49 49
0.0370876134489184 -0.00296109069872741 -0.00613010210609644 0.6621181 -0.6795768 -0.3158719 115 115 115
0.00101154457074459 0.0379340137095368 0.0421613426723459 -0.6254556 0.1571673 0.7642667 35 35 35
-0.0454267918016309 0.033726760253421 0.0116269560375193 -0.8338448 0.5133669 -0.2028726 144 144 144
0.0242786944959765 0.0222191299052155 0.0461731077947596 -0.1508026 -0.3383045 0.9288749 216 216 216
0.00384193073254879 -0.0429366146473968 -0.00887422544574945 0.7359512 -0.4459712 -0.5093971 151 151 151
0.0151157916639453 0.0352359498591339 0.0483809085407236 -0.2058343 -0.2681888 0.9411201 61 61 61
-0.00340206016558353 0.0396383489222443 -0.00437669736957758 -0.2358356 0.9233671 -0.3029435 95 95 95
-0.0356043039705152 0.0307867015452301 0.0211722375669459 -0.1791456 0.01567038 0.9836978 88 88 88
0.0280206740949756 -0.0042115961461151 -0.0207828758440038 0.6658722 -0.6308901 -0.398236 63 63 63
-0.0193292557145948 0.0163919414133942 0.0301938177862147 -0.544452 -0.0515913 0.8372039 44 44 44
-0.0393582044984693 0.0304684127421295 0.0207788618125895 -0.1933924 0.08572234 0.9773694 110 110 110
-0.0333854614641065 0.0262907231898224 -0.0157030103883764 -0.3444615 0.8495369 -0.3995414 82 82 82
0.0275168956373339 -0.00763337959338073 -0.0150908706865331 0.6669217 -0.6471471 -0.3693455 128 128 128
0.0301554740522509 -0.00754540313769225 -0.0107896207056066 0.6181737 -0.6775709 -0.3984457 136 136 136
0.0146840156171923 -0.0318662439732635 -0.00167882723427026 0.7745817 -0.5036218 -0.3826071 166 166 166
0.0103184522245532 0.0247923816294586 0.0446932585754374 -0.05797994 -0.2455745 0.9676422 234 234 234
0.0409734786604052 0.00817484508465882 -0.0106899617395422 0.9340245 0.1634332 -0.3176284 127 127 127
-0.0118613897706861 0.0419849837870514 0.00922356264972479 -0.1915829 0.9423347 -0.2744108 133 133 133
-0.00532097209948246 -0.0279071842579925 -0.035869794913294 0.7495651 -0.6099378 -0.2571535 12 12 12
-0.00522500862139408 -0.0274653946309174 -0.036853197046282 0.7605862 -0.61485 -0.2084899 31 31 31
-0.00479323257464115 -0.0259092365651215 -0.0366759626350424 0.7727727 -0.592074 -0.2286278 57 57 57
0.035504514083684 0.0334046567530548 0.0272068055191019 0.8172965 0.5656309 -0.1099462 127 127 127
0.0158833802793628 0.016172000274173 0.0424542547979334 -0.1026183 -0.4365087 0.8938286 95 95 95
-0.00750369419115726 0.0464252914042389 0.0316133918085078 -0.4275972 0.8461156 0.3181965 133 133 133
0.0123620570753222 -0.0238602672963226 0.0303495349206904 -0.2297005 -0.2997905 0.9259391 58 58 58
-0.0466741978074903 -0.0120209967045868 0.017715153268812 -0.9057468 0.2261159 0.358461 138 138 138
-0.0163069425966138 0.0276205028147614 -0.0275479434213659 -0.2413019 0.9107158 -0.3352165 107 107 107
0.0305920184705859 -0.015262178078183 0.00700597184085638 0.6695038 -0.6563665 -0.3477753 101 101 101
-0.00572068084734623 -0.0577146326451385 0.0169955314912775 -0.2236049 -0.2567869 0.9402453 175 175 175
0.0361841262434131 0.0266223634333527 0.0485546560802439 -0.02211637 -0.4053398 0.9138985 63 63 63
0.00729613910657223 -0.0546848093419159 0.0103067429580668 0.7756119 -0.5407991 -0.3255187 59 59 59
0.0341932118986255 0.0359804118723785 0.0291831018247584 0.8577143 0.493302 -0.1448422 142 142 142
0.0428925098035937 0.00382310996960755 -0.00553269965267389 0.9005642 -0.3045478 -0.3102173 123 123 123
0.0479536594007617 0.00985831867169495 0.0231572510519007 0.8361219 0.5483207 -0.01563876 90 90 90
0.0249023974989062 -0.0304135595707977 0.019314599207876 0.8098272 -0.5502634 -0.2034456 137 137 137
-0.00666422237414066 -0.0426533733754242 -0.0199968693933508 0.7018324 -0.4963978 -0.5109017 56 56 56
0.015691453323186 -0.0425276075749481 0.0118036689081171 0.8227909 -0.4069084 -0.3967879 66 66 66
0.0424126924131518 0.0179081643671906 0.0466081173934916 0.2125102 -0.1325626 0.9681253 75 75 75
-0.0468660055543775 -0.00867658008623962 0.0111247869052866 -0.8993629 0.3359806 0.2797561 164 164 164
0.0218320430372363 -0.0388826643376434 0.0265961261310557 0.7157806 -0.5074083 0.4797863 199 199 199
0.0112299264524585 -0.0407169376759613 0.00168315785312445 0.7974929 -0.4578426 -0.3929189 188 188 188
-0.016115015640437 -0.011102489128598 0.0321275414743403 -0.2163087 -0.1258183 0.9681841 102 102 102
0.0364640296552783 -0.0132070099263275 0.0134940566339472 0.6100211 -0.7018378 -0.3678287 131 131 131
0.0527749599073535 0.00199575077008363 0.0252312840738276 0.9756579 0.1646111 -0.1448962 131 131 131
-0.0251819549943799 0.0310589755625641 -0.0102014271698019 -0.2390297 0.9073491 -0.3458068 94 94 94
-0.0105980097200269 -0.0151151930241669 0.0300675006427744 -0.003408021 -0.7934895 0.6085744 168 168 168
0.0458508075330859 -0.00885253299761657 0.0235383631505945 0.6673487 -0.6885414 -0.2838249 114 114 114
-0.0345369039918775 0.0289133275599396 -0.00892332477188318 -0.2845818 0.8496343 -0.4439987 86 86 86
-0.0431481062318677 0.00253553043316956 0.0127588631429651 -0.7827934 -0.03571546 0.6212559 157 157 157
-0.0405623375322217 0.0260526622385895 0.021132660082815 -0.2736439 -0.07006624 0.9592757 86 86 86
-0.00389773239153568 -0.0639017139821136 0.00244894342803748 0.7004027 -0.6356258 -0.3246779 76 76 76
-0.00536889423388187 -0.069120398655423 0.00997443216228278 0.5752822 -0.8161996 0.05355986 74 74 74
-0.00388175834673588 -0.0683002387433136 0.0117329927005747 0.5917803 -0.7579737 0.2743572 30 30 30
-0.00263447155016605 -0.0668265735058868 0.0129145802774409 0.5713553 -0.6773828 0.4633633 160 160 160
-0.00136310447710697 -0.065857938423642 0.0114669324674586 0.7018169 -0.694303 0.1593623 65 65 65
-0.00225061763781254 -0.0633441721348846 0.00453500168704779 0.6999716 -0.6149396 -0.3631653 42 42 42
-0.00119525779741947 -0.0635293637662018 0.00655692534827979 0.7124709 -0.6260021 -0.3170275 55 55 55
-0.000139778747736852 -0.0642193471341217 0.0107263298549631 0.7311006 -0.6775005 0.08053014 57 57 57
-0.00570470680254642 -0.0675682937054718 0.0140967340984324 0.2122309 -0.4928874 0.8438128 197 197 197
-0.00325805534380619 -0.0663232718854034 0.0137608470239619 0.3598971 -0.6127126 0.7036031 195 195 195
-0.0436998068239087 0.00459975849103089 0.0120526822128275 -0.70502 -0.1633891 0.6901093 124 124 124
-0.00268239368456547 -0.0645140324978912 0.0138855548419932 0.443422 -0.5998219 0.666026 211 211 211
-0.00148302902239505 -0.0647395764737213 0.0136321307935694 0.4114805 -0.6287467 0.6598192 238 238 238
-0.00596863616961185 -0.0632871304898346 0.0152594121017435 -0.08882788 -0.3414352 0.9356984 136 136 136
-0.00292224277514164 -0.0613537942319 0.0162226827659586 0.01229681 -0.4597144 0.8879817 145 145 145
4.10686475094124E-06 -0.0621511851697052 0.0158878834762552 0.1875463 -0.6066381 0.7725391 58 58 58
-0.0016270338441724 -0.0614030872731293 0.0164088280715922 0.06305403 -0.4976753 0.8650685 123 123 123
-0.00661630023974125 -0.0642387782483185 -0.00402288419819086 0.6622126 -0.6632969 -0.3485852 110 110 110
-0.00632840980547611 -0.0610055242924774 -0.00887054485893457 0.6495062 -0.5538902 -0.5209103 68 68 68
-0.00690407146471683 -0.0644223009495819 -0.0026063649139425 0.6691341 -0.6809683 -0.2975595 88 88 88
-0.00594455589312259 -0.0650125061421478 -0.00327992720222681 0.668633 -0.674222 -0.3136154 127 127 127
-0.00582463134783451 -0.0637557422070587 -0.00307686907863824 0.7043155 -0.6345566 -0.3182414 85 85 85
-0.00527293075579349 -0.0626448904423798 -0.00300731045818536 0.7203277 -0.6274894 -0.2956096 113 113 113
-0.00412160743731205 -0.0634726201443756 -0.00199836773491113 0.7267178 -0.631305 -0.2708048 53 53 53
-0.00309819568651859 -0.0615703975110138 -0.00182016474819391 0.746991 -0.5921779 -0.3022083 85 85 85
0.0356964410398608 -0.00191240657854919 -0.0101055679998419 0.6798328 -0.6152511 -0.3991158 109 109 109
-0.00301820625323002 -0.0597311769871796 -0.00295274240589349 0.7655185 -0.5549521 -0.325591 91 91 91
-0.00222665657061283 -0.059272221222409 -0.0029115555963537 0.7724583 -0.5329062 -0.345426 89 89 89
-0.00153107036608402 -0.0589047585873688 -0.00105445367908685 0.778398 -0.5434681 -0.3142276 75 75 75
-0.00133914340990726 -0.056014290943631 -0.00463901741123407 0.7662706 -0.5337457 -0.3576938 103 103 103
-0.00033170570391361 -0.0571801577954376 -0.00162184519386499 0.7801769 -0.5372372 -0.3204688 30 30 30
-0.00172299732226078 -0.0545954619793976 -0.00770871622181146 0.6871828 -0.4434883 -0.575411 76 76 76
-0.000571554794489781 -0.0532237802891815 -0.00815733058071344 0.6991658 -0.4394305 -0.5639752 46 46 46
0.003698045120061 0.04844445835065 0.0303615452566126 -0.1876478 0.9720531 -0.1410713 75 75 75
-0.00033170570391361 -0.0543467914013946 -0.00620447380161493 0.7640253 -0.5387697 -0.3549542 109 109 109
-0.0069521128084058 -0.0488185202031219 -0.0134075610122701 0.5946326 -0.4606274 -0.6589646 46 46 46
-0.00570470680254642 -0.0479144369511688 -0.0131722418746969 0.5992771 -0.4648873 -0.6517259 36 36 36
-0.00589663375872318 -0.0472587858586395 -0.0145275918922445 0.6436732 -0.5121127 -0.568705 30 30 30
-0.0223036466981763 0.0360047305674469 0.000908938220975708 -0.2098 0.8997984 -0.382553 42 42 42
-0.00196284641283695 -0.0609038983731354 0.00257247405433447 0.7592238 -0.5581583 -0.3347217 27 27 27
-0.000523632660090367 -0.0605238591580475 0.00470904724979193 0.7399767 -0.571314 -0.3550138 41 41 41
0.00201898227673825 -0.059253922596463 0.00740688758277686 0.7203315 -0.5845533 -0.3733897 54 54 54
0.00398593555432614 0.0384931052775299 0.0444957734861353 -0.5635661 0.1784526 0.8065655 64 64 64
0.00345819602948483 -0.0569075857548798 0.00573685484313757 0.7274461 -0.5570408 -0.4006591 70 70 70
0.0225276292417651 -0.0341343199162567 0.0175214679756144 0.8323889 -0.4920397 -0.2550015 112 112 112
0.000435882911503871 -0.05733608354617 0.00187708156490118 0.7528216 -0.5535938 -0.3560807 54 54 54
0.00350611816388424 -0.0596692477612579 0.00843029933357031 0.7318137 -0.5948722 -0.3325294 113 113 113
-0.00156301845568363 0.0065543140025055 0.0384206892766932 -0.237501 -0.312913 0.9196079 42 42 42
0.00650447021466549 -0.0541243468670929 0.00728790181064398 0.7767164 -0.5034187 -0.378525 143 143 143
0.00715213428479489 -0.0536150251774872 0.00836041288757117 0.7903011 -0.4899086 -0.3679861 63 63 63
0.00676839958173092 -0.0552441989331329 0.010504779390333 0.7644492 -0.5695862 -0.3019753 57 57 57
0.00681632171613034 -0.0515556847004974 0.00460725741767676 0.803392 -0.4653183 -0.3715377 176 176 176
0.00782375942212399 -0.049354008331784 0.00475965159320624 0.8143228 -0.4383596 -0.3804199 92 92 92
0.00935893665295895 -0.0473310266881073 0.00698719637775214 0.7848828 -0.4564771 -0.4190318 69 69 69
0.00408189903241452 -0.0508843575863922 -0.00245614630794733 0.7828195 -0.4666009 -0.4116761 51 51 51
0.00532918582898434 -0.0546579276471222 0.0199000956335047 -0.09573556 -0.475302 0.8745986 142 142 142
0.00465756069165524 -0.0503678237347687 -0.0015898524007818 0.7871559 -0.4677576 -0.4019807 47 47 47
0.00307446132642086 -0.0452416454701507 -0.0077495603046438 0.7637895 -0.4100679 -0.4984674 152 152 152
0.004849487647832 -0.044433525696286 -0.00644339902019708 0.7761016 -0.4105047 -0.4786983 175 175 175
0.00648050914746578 -0.0482545410542572 -0.000745805927278687 0.8283087 -0.4297052 -0.3595249 116 116 116
-0.00366587032335941 0.00816650043439027 0.0384506257095316 -0.3689315 -0.2943432 0.8816188 117 117 117
0.00289445529919918 0.0289569581599152 0.0442689331092814 -0.3959833 -0.06950699 0.9156233 65 65 65
0.00691228519421871 -0.0462850843815887 -0.000842439957620789 0.8295149 -0.4299741 -0.3564089 113 113 113
0.00672035823804196 -0.0469925915150726 2.93524780252685E-05 0.8280576 -0.4401684 -0.3472352 81 81 81
0.00700824867230709 -0.0461687361149872 0.000404176286695312 0.8268003 -0.4329791 -0.3590688 71 71 71
0.00764792572003659 -0.0450029884724701 -0.000963094659807373 0.8214614 -0.4418421 -0.3605227 124 124 124
0.00873523365002926 -0.0468204533009613 0.00515246110343726 0.7930412 -0.4604587 -0.3988275 77 77 77
0.0090231240842944 -0.0459216152577484 0.00490210669421942 0.7884953 -0.4629997 -0.4048536 86 86 86
0.010078603133977 -0.0432568107991302 0.00277165787601263 0.7893938 -0.4723856 -0.3920578 152 152 152
0.00870328556042965 -0.0395422493367279 -0.00456279797172754 0.7713449 -0.4502097 -0.4498202 119 119 119
0.00959878574353512 -0.0415443693547333 -0.00225755853271692 0.8014769 -0.4481121 -0.3960181 89 89 89
0.00995855937939938 -0.0398995195775116 -0.00285843295669763 0.797361 -0.4459617 -0.4066124 117 117 117
0.0105822623823291 -0.0378516231923187 -0.0024603186330816 0.7900991 -0.4510395 -0.4150985 157 157 157
0.0110860408399707 -0.0381837402730072 -0.000225889512064148 0.8044074 -0.4523549 -0.3851023 140 140 140
-0.00352198471087162 -0.0600618039517486 0.016934764555929 -0.1219058 -0.3927383 0.9115348 164 164 164
-0.00199479450243656 -0.0601055537610138 0.0171220274486521 -0.003340573 -0.4646783 0.8854733 169 169 169
-0.00360185493487064 -0.0576450144200409 0.0174769433059672 -0.171866 -0.28605 0.9426757 161 161 161
-0.00455338348406498 -0.055836490288266 0.0178611101427057 -0.2242084 -0.2081348 0.9520559 180 180 180
-0.00340206016558353 -0.0539547120480621 0.0182255031385401 -0.2293317 -0.2104194 0.9503319 168 168 168
-0.00210673202532474 -0.0535144125371063 0.0185859771289805 -0.2291632 -0.2241815 0.9472206 157 157 157
0.00911908756238278 -0.0357965742497528 0.0269105704345682 -0.1226687 -0.1538691 0.9804472 191 191 191
0.00213890682202633 -0.0597209249882782 0.0167616279640177 0.06255593 -0.5466999 0.8349887 131 131 131
0.000855618820012172 -0.0595574294476593 0.0173918576755503 0.0502098 -0.5135045 0.8566166 189 189 189
0.000707680091679652 -0.0575185929684723 0.0183044345893839 -0.05132904 -0.4199998 0.9060715 200 200 200
0.00331431041699703 -0.0569282685666168 0.0181242199459055 0.128595 -0.497479 0.8578916 166 166 166
0.00134735713940914 -0.0537376915364349 0.019117576054571 -0.1968524 -0.2867807 0.9375532 173 173 173
0.004849487647832 -0.0535607849507416 0.0201226444759348 -0.1863029 -0.4297476 0.8835204 169 169 169
0.00838344703656491 -0.055651775494107 0.0151872010745981 0.6662496 -0.7454515 -0.02033904 61 61 61
0.00597684989911373 -0.0570438419728363 0.0190353365459421 0.1572409 -0.6957766 0.7008354 116 116 116
0.00842350135785397 -0.0539179955868805 0.0217981459417322 0.01049809 -0.605509 0.7957692 196 196 196
0.0103184522245532 -0.0535587583928192 0.0218190820732096 0.5002934 -0.717806 0.4842119 224 224 224
0.00855296264630612 -0.051852754250058 0.0226912768402079 -0.1322504 -0.5044148 0.8532735 165 165 165
0.0119015515897876 -0.0523344789891327 0.0217559160509089 0.6952789 -0.6089636 0.3817729 159 159 159
-0.00508112300890629 -0.0516381179242218 0.0184935303249338 -0.2322512 -0.2410633 0.9423099 182 182 182
-0.00392014373797123 -0.0498099838643158 0.0191735746183375 -0.2413521 -0.2818686 0.9286007 171 171 171
-0.00143510688799564 -0.0522158061413849 0.0188955636539438 -0.2314499 -0.2334373 0.9444247 157 157 157
-0.00412160743731205 -0.0508887683301056 0.01855326908016 -0.2414774 -0.252188 0.9370645 170 170 170
-0.00556082119005863 -0.0502232824711883 0.0185151519098261 -0.2367623 -0.2626667 0.9353875 197 197 197
-0.0037857948686475 -0.0476716076283539 0.0195866050043085 -0.2215279 -0.3215926 0.9205996 195 195 195
-0.00586063255327884 -0.0474358116536224 0.0197036834278086 -0.2174736 -0.3111905 0.9251301 209 209 209
-0.00227457870501224 -0.0477397953419769 0.0201785089292505 -0.2419789 -0.2911907 0.9255562 175 175 175
-0.000571554794489781 -0.0529137169270599 0.0194923700609186 -0.2065754 -0.2571327 0.9440389 148 148 148
0.00312238346082028 -0.051798335209378 0.0203071059503535 -0.2553086 -0.2954042 0.9206269 185 185 185
0.000589424476445277 -0.0497452532200897 0.0207997085370997 -0.2349055 -0.2934963 0.9266495 186 186 186
0.00181108127576168 -0.050029925003537 0.0207465858974436 -0.2205789 -0.2907122 0.9310378 184 184 184
0.00720017562848385 -0.0563960586934174 0.0132824750461558 0.7571567 -0.6522887 -0.03511738 75 75 75
0.00782375942212399 -0.0557586466221893 0.0137233109989146 0.7013571 -0.7122963 -0.02705923 173 173 173
0.038526827201665 0.0106725181193268 -0.0157791255197546 0.933901 0.1812406 -0.3081896 95 95 95
0.00988667617780026 -0.0528460656552399 0.0142102958478907 0.7766756 -0.5969769 -0.2009815 76 76 76
0.0106542647932177 -0.0514724170117462 0.013069790772436 0.8059312 -0.5074024 -0.3049882 166 166 166
0.0108460725401049 -0.0523430024533356 0.015143063835142 0.8210974 -0.5217761 -0.2314059 88 88 88
0.0121094525907641 -0.0500704561619842 0.014519494942663 0.8123189 -0.5139402 -0.2756871 154 154 154
0.0113738120649463 -0.0494343553929413 0.012237128786085 0.8010178 -0.4960432 -0.3351294 91 91 91
0.0130649150465136 -0.0462379967122162 0.0111115993776301 0.7877533 -0.492908 -0.3694406 186 186 186
0.013100916251958 -0.0465218340306366 0.0127240987338999 0.7916478 -0.5057313 -0.3428259 63 63 63
0.00828748355847653 -0.0496944700627411 0.0229606600322703 -0.207837 -0.4668553 0.8595638 183 183 183
0.014036351547063 -0.0475464378743256 0.0176044227399805 0.8279002 -0.5494308 -0.1127255 74 74 74
0.0160272658918506 -0.043090752258786 0.0133854718723276 0.8183076 -0.4646519 -0.3383361 170 170 170
0.0172745526884204 -0.0439183031468475 0.0191711159267405 0.8002992 -0.5870057 -0.1222519 120 120 120
0.0108460725401049 -0.044785669937619 0.00553059296989233 0.7742541 -0.4669439 -0.4271931 129 129 129
0.0131488383863574 -0.0449960743336761 0.00946843343162329 0.7876218 -0.4545862 -0.4159367 71 71 71
0.0143961251829272 -0.0402042185216034 0.00755893903159888 0.8159931 -0.4046341 -0.4128274 137 137 137
0.0144441665266162 -0.0414296900181854 0.00929194407844336 0.8172922 -0.3908714 -0.4233829 146 146 146
0.0156194509122973 -0.0396392856984222 0.00899749713325293 0.8183588 -0.3891141 -0.4229411 67 67 67
0.0120838225935107 -0.03967171062518 0.00287818627738745 0.8059393 -0.4389678 -0.3972017 86 86 86
0.0158594192121631 -0.0356300388722504 0.00501681583308966 0.8208237 -0.4597664 -0.3389149 85 85 85
0.0162191928480273 -0.0376508747487152 0.00926239507579596 0.820156 -0.392395 -0.4163776 94 94 94
-9.18566133374377E-05 -0.0454305921940887 0.0223603071489313 -0.2484062 -0.322063 0.9135479 209 209 209
0.00439363132458981 -0.0457075153737152 0.0226589115180948 -0.3260058 -0.3319222 0.8851824 182 182 182
0.00307446132642086 -0.0444198166279877 0.0224961312332133 -0.3088928 -0.3378591 0.889065 211 211 211
0.00401788364392575 -0.0441022430806244 0.0231489511051157 -0.3552765 -0.3384726 0.8713294 197 197 197
-0.00541693557757084 -0.0432642017750824 0.020809498600004 -0.2226834 -0.2949034 0.9292169 210 210 210
-0.00563616146105472 -0.0419076000599945 0.0213739396848658 -0.2278993 -0.2894179 0.9296769 175 175 175
-0.00349790443438236 -0.0408803736119354 0.0224525900402048 -0.2628317 -0.3235897 0.9089605 145 145 145
0.000627809867680629 -0.0440724407582367 0.0219781817712763 -0.2394151 -0.3338853 0.9117022 208 208 208
0.00108354698163327 -0.039885333672055 0.0235197814025858 -0.2564113 -0.339373 0.90503 225 225 225
0.0048574746702319 -0.0415673767476166 0.0247303964414576 -0.3607646 -0.302681 0.8821752 226 226 226
-0.00316209186571781 -0.0353912626652801 0.0246564121761301 -0.2912332 -0.2887042 0.9120489 110 110 110
-0.00172299732226078 -0.0339963947682465 0.0254874201335886 -0.239475 -0.2116295 0.9475572 78 78 78
0.00428980003339108 -0.0394723926930511 0.0249534817256907 -0.3012505 -0.2806374 0.9113127 201 201 201
-0.00107533325213138 -0.0384228741078461 0.023902994565008 -0.2594242 -0.3433291 0.9026762 155 155 155
0.00177913318616207 -0.0353774343876923 0.025697615913389 -0.1927344 -0.2751306 0.9418899 94 94 94
0.00506525646191891 -0.0334865366368378 0.0263580800809839 -0.1420228 -0.1182265 0.9827777 82 82 82
0.00785582672101315 -0.0478280102162445 0.0232584895410517 -0.3321224 -0.3488469 0.8763564 192 192 192
0.0408775151823169 -0.00663047184039001 0.00735163407707007 0.7097638 -0.5994925 -0.3699245 177 177 177
0.0103184522245532 -0.0487695251851166 0.0244866879501322 -0.1548415 -0.3899606 0.9077196 206 206 206
0.0099466384504443 -0.0476626669316376 0.0247890921154001 -0.2078902 -0.3624702 0.9085136 224 224 224
0.00625663410168942 -0.0474535738377655 0.0225498946228007 -0.367231 -0.318192 0.874011 171 171 171
0.00537710796338375 -0.0464551960377777 0.0223774434843043 -0.3471815 -0.3422263 0.8731244 181 181 181
0.0110060514066821 -0.0462333475499237 0.0255780340948084 -0.076353 -0.3624316 0.9288776 222 222 222
0.00662451396924313 -0.0450368439107025 0.0243438752212504 -0.3663664 -0.3297893 0.8700659 198 198 198
0.00712817321759518 -0.0441278730778778 0.0252378554859141 -0.3338138 -0.3031709 0.8925558 206 206 206
0.00862329612714108 -0.0438339029698456 0.0255801649608591 -0.2861894 -0.2930746 0.9122515 224 224 224
0.00907104621869381 -0.0424991165547455 0.0256547899761179 -0.1575658 -0.1650302 0.9736211 228 228 228
0.0125252545927172 -0.0493267094044769 0.0239063622274378 0.5574592 -0.5105284 0.6546755 210 210 210
0.0122373641584521 -0.0479858433156097 0.0249744774618128 0.2410663 -0.4366896 0.8667117 233 233 233
0.0134846509550219 -0.0478834425358856 0.024043363503454 0.6494253 -0.5107493 0.5633666 121 121 121
0.0128610671613818 -0.0453601395039642 0.0257666976966837 0.01235257 -0.3078626 0.9513506 227 227 227
0.0137245000455981 -0.0444556986241424 0.0259155304946879 0.09478208 -0.3131451 0.9449638 185 185 185
0.014588052139104 -0.0451480661778534 0.0260865958251932 0.2937963 -0.4427456 0.8471482 61 61 61
0.00632064949017819 -0.0420324121861542 0.0252879531898478 -0.3122996 -0.2750904 0.9092823 200 200 200
-0.002078002586543 -0.0141326700596893 0.0327658923187235 -0.1076951 -0.4146055 0.9036061 62 62 62
0.0121293605421191 -0.0419384752659882 0.0262185009040812 -0.09755672 -0.1345208 0.9860967 206 206 206
0.0157714427564746 -0.0415839468388641 0.0267173172750452 0.05492156 -0.2756818 0.9596787 170 170 170
0.00595276962262448 -0.0402095829396332 0.0252885492362955 -0.2789602 -0.2140833 0.9361354 230 230 230
0.00614469657880123 -0.0373751436619842 0.0263740392246226 -0.1972421 -0.1676735 0.9659095 186 186 186
0.0103903354261523 -0.0395408188252533 0.0264279814281443 -0.09529189 -0.1252348 0.9875402 192 192 192
0.00950282226544674 -0.0384152447133148 0.0259986491718271 -0.1069079 -0.1338609 0.9852167 214 214 214
0.0101985276792651 -0.0371927534489715 0.0265696914710978 -0.08807769 -0.1300948 0.9875817 178 178 178
0.00227802406293209 -0.00585847248125915 0.034430486134527 0.01406476 -0.3089553 0.9509726 233 233 233
0.0076798738096362 -0.0339806591420257 0.0270020635642985 -0.1355678 -0.1110705 0.9845226 81 81 81
0.00993459831219967 -0.0356495891957367 0.0266981096782664 -0.1087082 -0.1440548 0.9835806 146 146 146
0.0131248773191577 -0.0396140133290375 0.0264477254667261 -0.1023069 -0.132662 0.9858672 193 193 193
0.0137725413892871 -0.0397999798207367 0.0263407947339991 -0.08993009 -0.1449502 0.9853436 207 207 207
0.0163630784605151 -0.039834669723996 0.0268529476442316 0.04313695 -0.2618487 0.9641444 168 168 168
0.014588052139104 -0.0375865017323578 0.0270320894041041 -0.1036274 -0.1529654 0.9827833 201 201 201
0.0122013629530078 -0.0357038294224823 0.0270505519428232 -0.1239821 -0.1603851 0.979237 153 153 153
0.0143207849119311 -0.0358202968983734 0.0272222431220988 -0.1115021 -0.2042571 0.9725463 170 170 170
0.0141083539579516 -0.0344946895985687 0.0276592643775919 -0.1366532 -0.1984486 0.970538 181 181 181
-0.00277835716265384 -0.0318940197377289 0.0254177721061686 -0.2398342 -0.1585775 0.9577749 57 57 57
0.00240283618909176 -0.033466032639035 0.0261718602695444 -0.1514793 -0.1368652 0.9789392 58 58 58
0.0180421413038379 -0.0363978659062469 0.0108491899290064 0.7932349 -0.4243324 -0.4367153 88 88 88
0.0204887927625781 -0.0312938009648407 0.0103442491807917 0.7408453 -0.5436938 -0.3943921 124 124 124
0.0179222167585498 -0.0430970703511322 0.0204972596683481 0.7874805 -0.6153589 0.03475325 122 122 122
0.0277808250043994 -0.0068588768391693 -0.0160933016023657 0.6646015 -0.6622329 -0.3460525 86 86 86
0.0181620658491259 -0.0424836193471039 0.0224215956249216 0.7426321 -0.6500939 0.1608587 125 125 125
0.0187377275083667 -0.0415567671208465 0.0192175032415369 0.8253314 -0.5433397 -0.1536555 37 37 37
0.0199931205366259 -0.0398525511174286 0.0212534935989359 0.8362182 -0.5438135 -0.07075347 73 73 73
0.0220526994321948 -0.037544778481015 0.0229700179615 0.8433253 -0.5369351 0.02243132 109 109 109
-0.0150756298448438 0.00575108180951234 0.0321427257575968 -0.4803827 -0.252397 0.8399572 37 37 37
0.0196732820127612 -0.0418365513234222 0.0266545237817744 0.4957268 -0.6369572 0.5903732 124 124 124
0.0175144017789965 -0.0396419083027924 0.0269266487874964 0.2342495 -0.3831214 0.8935016 142 142 142
0.0228875220869189 -0.0379739319233978 0.0251882048168162 0.8110336 -0.5375394 0.2308157 69 69 69
0.0192894281004077 -0.0380992208867157 0.0271704019823054 0.246937 -0.2516468 0.9357863 178 178 178
0.0205368341062671 -0.034082225456723 0.0276737036027888 0.1891598 -0.2603451 0.9468046 136 136 136
0.0214483083341723 -0.034733704224118 0.0274723293104151 0.3135139 -0.3295945 0.8905484 146 146 146
0.0234631837461596 -0.0359503542332733 0.0247680069723109 0.8426541 -0.4971336 0.2068628 118 118 118
0.0234631837461596 -0.0370069061665619 0.0267343045988062 0.7571597 -0.5132123 0.4041315 88 88 88
0.0201050580595141 -0.0384700809865082 0.0168842049159983 0.8544503 -0.4546278 -0.2514523 125 125 125
0.0208726466749316 -0.0342573439030731 0.013862100414274 0.7740232 -0.4925541 -0.3978424 132 132 132
0.0408775151823169 0.0112792934031403 -0.00739498717403619 0.901109 0.3594408 -0.2424972 72 72 72
0.0222318709943896 -0.031092575684079 0.012992617658613 0.7580838 -0.5438527 -0.3599072 110 110 110
0.0243586839292651 -0.0317203318028534 0.018703398279188 0.8195773 -0.5280389 -0.2224139 73 73 73
0.0248784364317065 -0.0296353613286102 0.016928386858938 0.7825605 -0.5629421 -0.2658857 141 141 141
0.0231752933118945 -0.0345608507542694 0.0226961346187571 0.8427541 -0.5349635 -0.05982937 112 112 112
0.0237989963148242 -0.0332798277287567 0.0213291765966395 0.8444375 -0.4844108 -0.2286297 85 85 85
0.0251662076566821 -0.0311080728917206 0.0226523848094919 0.845322 -0.5308986 -0.0598111 137 137 137
0.0269293130491381 -0.0283231054692352 0.0187348993339518 0.8015332 -0.5603247 -0.2087601 157 157 157
0.0259577573392993 -0.0280249630360687 0.016753193906782 0.7820163 -0.5661199 -0.2606888 94 94 94
0.0286282838438159 -0.0254308496861542 0.0169332744398096 0.7806408 -0.5619251 -0.2735692 135 135 135
0.0285003722761279 -0.0258867060093964 0.0190099002637842 0.7860306 -0.5871535 -0.193408 119 119 119
0.0279486716840869 -0.0274113928227508 0.021065858177183 0.8069639 -0.5657084 -0.1696564 72 72 72
0.0271091998670703 -0.0279847895054901 0.0215033711709955 0.8139068 -0.5597176 -0.1557947 124 124 124
0.0291001142118579 -0.0249418531804169 0.0205803336420038 0.7821072 -0.593731 -0.1891875 72 72 72
-0.00704795707720463 -0.0435711656956757 -0.020079213210108 0.6984313 -0.5110643 -0.5010061 49 49 49
-0.00632840980547611 -0.0424143587498749 -0.0198099045238516 0.7018324 -0.4963978 -0.5109017 63 63 63
-0.00133914340990726 -0.043439439430722 -0.0147566376409551 0.5957785 -0.5700662 -0.5657496 43 43 43
-0.00258643020647709 -0.0431422506718719 -0.0163923828086874 0.6035123 -0.5505891 -0.5767361 46 46 46
0.00156324516278561 -0.041841915741452 -0.0126499859771749 0.6686573 -0.5234341 -0.5281233 88 88 88
0.0476898492429858 0.00703329692792054 0.00773504095458777 0.9236672 0.1935706 -0.3307103 154 154 154
0.000771695480168422 -0.0415117060093964 -0.0141925094804785 0.6304228 -0.5376097 -0.559949 97 97 97
0.000291997299016078 -0.035896829262265 -0.0190070150575659 0.5899692 -0.5048573 -0.6301234 44 44 44
-0.00709599842089359 -0.0341001068501556 -0.0288880793533346 0.7245203 -0.509623 -0.4640632 14 14 14
-0.00589663375872318 -0.0372765575795257 -0.025344225593569 0.7288878 -0.4758775 -0.4922024 25 25 25
-0.00484127391833011 -0.0371487652211273 -0.0234145699224493 0.7053073 -0.4954822 -0.5069901 24 24 24
-0.00349790443438236 -0.0339129482655609 -0.0243504075489065 0.6670224 -0.4943984 -0.5573611 60 60 60
-0.00664026130694095 -0.0317010198979462 -0.0303916810235998 0.7306193 -0.5723594 -0.3722906 35 35 35
-0.00551289905565922 -0.0296360765843475 -0.0337456641874334 0.7486567 -0.6053314 -0.2703461 24 24 24
-0.00121921886461918 -0.0335989509968841 -0.0224002776823065 0.6235995 -0.5097649 -0.5926748 69 69 69
0.00160318027478512 -0.0317394052891815 -0.0212442455968878 0.5780738 -0.5262892 -0.6235787 80 80 80
0.00240283618909176 -0.0274600302128876 -0.0242528794488928 0.5772883 -0.5626723 -0.5917247 46 46 46
0.00307446132642086 -0.0278102671055878 -0.0226970790109655 0.5776779 -0.5672396 -0.5869645 87 87 87
0.00494533191663082 -0.0273732458500946 -0.0219507692537328 0.5825779 -0.5812241 -0.5681386 64 64 64
0.00700824867230709 -0.0238431011586273 -0.0234845308742544 0.5727682 -0.5769292 -0.5823137 116 116 116
0.00480144630414303 -0.0381355797200287 -0.0129192350587866 0.7029915 -0.514886 -0.4906071 39 39 39
0.00460951934796627 -0.0393643890767181 -0.0112128434858343 0.7160857 -0.498103 -0.4889936 95 95 95
0.00542514930707272 -0.0392058407216156 -0.0107999174079916 0.7197224 -0.4997238 -0.4819499 90 90 90
0.00763195167523678 -0.0373697792439545 -0.00833338780021875 0.7495968 -0.4867839 -0.4484931 146 146 146
0.0068643630598193 -0.0354904447941864 -0.0119672743759176 0.732199 -0.5079365 -0.4537457 55 55 55
-0.00586468566912357 0.0427319491953766 0.00773095803642065 -0.2671698 0.9331237 -0.2406252 101 101 101
0.00518530021649655 -0.0340282236485565 -0.0162742613039037 0.6772662 -0.4979408 -0.5416322 68 68 68
0.00955086360913571 -0.0315366302876556 -0.0126882670602819 0.7482508 -0.4953079 -0.4413512 80 80 80
0.0090231240842944 -0.0326707874684418 -0.0115337697944662 0.7427722 -0.5103735 -0.4333686 80 80 80
0.0114937366102343 -0.0369999920277679 -0.00247794670677393 0.7873198 -0.4613591 -0.4089932 109 109 109
0.0118055881116992 -0.037382892265805 -0.00110186917400568 0.7898332 -0.4723727 -0.3911874 93 93 93
0.0127170623396045 -0.033409527435788 -0.00413795096492975 0.7515228 -0.5120139 -0.4159991 133 133 133
0.0131488383863574 -0.0331671749501312 -0.00277345163440912 0.7581066 -0.5122103 -0.4036273 177 177 177
0.0122852862928515 -0.0291346823124969 -0.0103665171346685 0.7593483 -0.4884557 -0.4298849 133 133 133
0.00667243610364254 -0.0323255573659027 -0.0161365447721502 0.6890833 -0.4891789 -0.5346665 152 152 152
