ply
format ascii 1.0
comment File exported by Rhinoceros Version 7.0
element vertex 469
property float x
property float y
property float z
property float nx
property float ny
property float nz
property uchar red
property uchar green
property uchar blue
end_header
0.0115568515200262 -0.0365308934214666 0.000642462950774858 0.1108723 -0.6446492 0.7563959 197 202 212
-0.00577214854880426 -0.0838414815223522 -0.0454996977630383 -0.6413767 0.2890904 0.7106776 167 177 178
-0.037236297220907 -0.0737789425767398 -0.026256662119138 0.108006 -0.6422833 0.7588193 196 198 207
-0.069951979043819 -0.0547242211516967 -0.00617086541778483 0.1180722 -0.6635683 0.7387395 196 201 211
0.154642380741506 -0.0486448451999891 -0.02109422945989 0.1086642 -0.6496907 0.7523922 213 218 230
-0.142869906733384 0.0629832237601877 0.0214120567743196 -0.9950981 -0.06915831 -0.07068854 196 199 195
0.0593926168091139 0.0306384259630519 0.0528770925184915 0.1293268 -0.6576244 0.7421622 212 217 227
-0.0735245370581028 -0.0202947279984645 0.0237339536437164 0.09526835 -0.646321 0.7570952 199 204 215
-0.108540289011848 -0.0768945733808638 -0.078412247799715 0.1288517 -0.08376418 -0.9881198 157 164 154
-0.153582993353359 -0.0297746768492934 -0.0585870165654292 -0.8985952 0.3656764 -0.2425027 184 189 190
-0.0262646752489819 0.0017613771732149 0.0366524756171391 0.1018857 -0.6455067 0.7569283 204 207 220
0.0104962143045211 0.0766361983053169 0.0790017975916921 0.1228588 0.755852 0.6431124 206 213 220
-0.0385858230959935 -0.110135872865468 -0.0715178450339714 0.1577145 -0.2654889 -0.9511266 166 172 169
-0.152945899886615 0.00508798741378524 0.00578083555155356 -0.8800072 0.2808681 0.3830149 196 199 205
-0.0493512283275401 0.0973816612595876 0.0650854547509579 0.1097969 0.7487791 0.6536624 197 200 206
-0.153975088453744 -0.0959341130093285 -0.0434789791050422 -0.9944457 -0.08761141 0.05832687 158 165 165
-0.148129025347481 0.023444409401411 0.0221358988129778 -0.9867948 0.1187958 0.1101066 165 173 171
-0.131609000193285 0.0601771372860423 0.0933687692693721 -0.98365 -0.1334127 0.1209698 189 193 189
0.158108264269881 -0.0483353010897843 -0.025685397991895 0.09645806 -0.6511417 0.7528017 202 206 216
-0.138213477505954 -0.0836696679786585 -0.0817517655851273 0.316959 -0.3217932 -0.8921806 151 161 151
0.0654788304707248 -0.00776602375755087 0.0195251942559001 0.06825718 -0.6458424 0.7604135 254 217 209
-0.132289967835824 0.0689534708640724 0.0984908260669832 -0.9911908 -0.1212132 0.05336884 183 192 182
0.189422293745701 -0.0245589937445603 -0.00875962260504837 0.0987839 -0.6513854 0.7522891 204 208 217
0.189268124993919 0.0912940302936532 0.0385153498079366 0.1196788 0.7603579 0.638383 188 192 191
0.0883642181528392 0.0691503868221452 0.0774337713006475 0.07767528 0.629445 0.7731529 216 218 222
0.156904905660793 -0.0766617565846766 -0.0499912528355158 0.1067814 -0.6384673 0.7622055 196 201 212
-0.154356674547277 -0.0282261805594018 -0.0205015193819472 -0.9538987 -0.1164524 0.2766155 174 179 181
-0.136732246186713 0.0584577502764676 0.0751661814484166 -0.9681557 0.03374639 0.2480637 206 211 214
-0.138150133534961 0.0286711219609892 0.0528925245515899 -0.969409 -0.04188956 0.2418499 172 182 187
0.212169955669438 0.0576807002843825 0.0586230311288422 0.217294 -0.5863065 0.7804025 206 213 221
-0.0371829881499988 -0.0858268021754869 -0.0360134845849693 0.1059524 -0.653307 0.7496426 201 204 215
0.193473603822764 -0.0402353644368842 -0.0225808818961048 0.0999022 -0.6433372 0.7590367 210 215 224
0.156369844434796 -0.0610698192361441 -0.0364739073815136 0.1052444 -0.6510834 0.7516742 201 205 215
-0.0331453288274521 -0.0119727828716624 0.0265447255185257 0.09693666 -0.6473909 0.7559685 203 208 218
0.107706485682577 -0.0116360322510763 0.0112792596811335 0.08662933 -0.6528092 0.7525527 206 213 221
-0.142013013324233 0.0771468597015826 0.0260420757488533 -0.9793173 0.1946334 0.05527655 194 197 194
-0.00730606166237546 0.038568951994009 0.0623528382445835 -0.05971484 -0.394704 0.9168658 162 166 169
0.172399157008852 -0.0394996392162744 -0.0199698629318191 0.1008411 -0.6417623 0.7602448 204 208 217
-0.108717080117601 -0.0990752883129833 -0.0716132627699667 0.1036769 -0.159622 -0.9817188 175 178 177
-0.103349253799727 -0.0773552357364405 -0.0606071966263975 -0.1442955 -0.5456833 0.8254747 135 144 135
0.0841204378727016 0.0980947566009686 0.0447150999756824 0.1103863 0.7258467 0.6789414 188 193 197
-0.0944630095796071 -0.0906776077301552 -0.0545476638228602 -0.06111174 -0.4038947 0.912762 141 145 139
-0.147055600765487 -0.105971618853093 -0.0418729501135237 0.08549549 -0.6365631 0.766471 196 201 212
-0.152583593723238 -0.0996786565396374 -0.0796744847625784 -0.7355204 -0.3284163 -0.5925813 174 177 179
-0.130013556985656 0.0953933055134234 0.0686415915321316 -0.8737832 0.4180322 0.2484994 230 236 235
0.0963793812880356 -0.0179966644609632 0.00714715375526209 0.09215344 -0.6452352 0.7584057 201 211 220
0.178249937726088 -0.0332335649286039 -0.0151318494800605 0.09922709 -0.6445034 0.7581354 211 215 229
-0.141116645533873 -0.0440323544670855 0.010808986824317 0.07563973 -0.6352248 0.7686145 195 199 208
-0.0299592328056755 -0.0838619716138865 -0.0681558152318923 -0.01000177 0.1602587 -0.9870244 144 150 134
-0.107857943187648 -0.0591456330005643 -0.0149260744004368 0.7365299 -0.6283503 -0.2503989 164 174 180
-0.157273364816455 -0.0542923809866913 -0.0308165979610707 -0.9682576 0.07802647 0.2374638 191 194 201
-0.113429763262578 -0.0826511724959331 -0.0256615474340047 0.09194858 -0.6384389 0.7641605 189 193 201
-0.146325638052194 -0.123899119164137 -0.0575458616524979 0.06371924 -0.6473087 0.7595599 197 203 215
0.0317073129705423 0.0240884431874868 0.0501592701335192 0.05258093 -0.6063753 0.7934383 207 212 223
-0.154437295060617 -0.0661232169880956 -0.0387371450052337 -0.9547562 -0.2120624 0.208495 150 158 158
-0.157465992140014 -0.0717647378653407 -0.0631168318915957 -0.9716149 -0.1080103 -0.2104716 174 179 182
-0.151731764927357 -0.0662893990085911 -0.0171069411821536 -0.9282814 0.04840491 0.3687147 166 172 175
-0.107854006872262 -0.0564015962588362 -0.0752122083169742 0.2487042 0.1704234 -0.9534684 135 146 143
-0.138125294812003 -0.068353308919658 -0.0106838577312772 0.09480427 -0.6503978 0.7536543 192 198 208
0.209966833835928 0.0253560132119525 0.00619759754041049 0.988197 -0.02631901 -0.1509105 209 212 215
0.168765782228677 -0.0544585591979119 -0.0365717136240715 -0.2981485 -0.3291226 0.8959832 151 160 161
0.209734152994064 0.0435708423195282 0.00396509902574554 0.9813458 0.005321243 -0.1921773 194 198 198
0.038413923747874 0.0943944020344146 0.0564567422043575 0.1079404 0.7541117 0.6478151 209 211 216
0.186036005052192 -0.0618851844168884 -0.0405400955036544 0.08381379 -0.625898 0.7753882 202 205 214
0.0124679432471715 -0.0763493216883491 -0.0338258033107771 0.0987635 -0.6405439 0.761544 191 196 205
-0.12886079575922 -0.0956784507457713 -0.0705618693368119 -0.1037586 -0.1646434 -0.9808806 161 163 163
0.0987115549787623 0.0718346417838956 0.0724314759230169 0.1307063 0.7405912 0.659121 218 224 230
-0.0167342401519686 -0.0979807757328861 -0.065448858687321 0.00924859 0.004605063 -0.9999467 168 174 170
0.173601845401049 0.0871466844488963 0.0459650960292516 0.1077408 0.7287478 0.6762533 226 231 240
-0.128967453826224 0.0421786262673119 0.0830974009814844 0.10794 -0.6298375 0.7691903 190 195 205
-0.0332661769378748 -0.0983417646535151 -0.0475463213571551 0.1060244 -0.6497507 0.752717 189 195 204
-0.122591846563529 -0.0499551591854142 0.00358029167531332 0.07726484 -0.6442674 0.7608874 190 196 206
0.201915948446616 -0.0467186239978685 -0.0466372546344319 0.9901591 -0.04158446 -0.1336252 194 199 199
-0.156235826924863 -0.0141007582285234 -0.0426753931504098 -0.8542368 0.2309277 -0.4657808 176 180 183
-0.104260161685438 -0.0636305339710489 -0.0101759750410863 0.1153733 -0.6259779 0.7712592 190 195 206
-0.122965985451495 -0.0945264880525363 -0.0744044871493432 0.07017437 -0.3786623 -0.9228708 169 172 171
-0.0288518314116271 -0.104426788877852 -0.0688573930263421 0.2866467 0.02094585 -0.9578074 161 168 165
-0.0280038187279237 -0.0555773839518826 -0.0117747802928621 0.1119144 -0.6493628 0.7521989 196 200 211
-0.149810983543845 0.00712907062622326 -0.0325708778644006 -0.8618311 0.3364329 -0.3795525 197 203 209
-0.114363943615418 -0.0428168847451017 0.00853987473904022 0.09109705 -0.6518808 0.7528298 187 192 201
-0.0856373735611178 -0.0415603260552779 -0.0658307812550384 0.1774508 0.3223613 -0.9298357 140 145 136
0.0929990767201958 0.0420753370244266 0.0588874460264455 0.1022682 -0.639896 0.7616261 209 212 226
-0.106544259747251 -0.083024874720571 -0.0765330086384793 0.09311974 -0.3893885 -0.9163544 165 171 167
-0.0586858774013583 -0.087118137490483 -0.0448250305057664 0.3994712 -0.8822626 -0.2490692 168 174 182
-0.157917023589385 -0.0557387924795509 -0.0513534390545691 -0.9871528 0.1114449 -0.1144967 180 182 185
0.143823586548694 0.0893231126611443 0.0480915224885418 0.1386243 0.7395102 0.6587169 212 218 222
-0.153249206025261 -0.0933449720999587 -0.0777048242572653 -0.9977143 -0.06747805 -0.003591738 166 173 173
-0.127724225407811 -0.021659678126323 0.0177594406132137 0.8622811 -0.4052176 0.3037599 159 167 173
-0.0400176981090232 0.0462802841319 0.065536772350529 -0.9884543 -0.007501648 0.1513334 156 164 166
-0.153819222564815 -0.0924901818581743 -0.0558060656293557 -0.9774699 -0.2089396 0.02994766 150 158 154
-0.0162326578927074 0.0181752002370794 0.0504733880690504 0.1051002 -0.6361738 0.7643539 199 204 214
-0.0741750559308123 -0.0609721183988577 -0.0221114521056687 0.6264603 -0.6789287 -0.3828881 164 173 176
-0.0473203979549739 0.0644408943510063 0.0935041223209165 0.09709749 -0.6283693 0.7718317 200 202 218
0.127977580358667 0.0280840855967013 0.0433872321077191 0.1097962 -0.6458765 0.7555053 229 233 249
0.125940031400177 0.00641851929196724 0.0248873853651601 0.1141344 -0.6367198 0.7626017 214 218 230
-0.0861228176012219 -0.0571870698118582 -0.0154115482790581 0.5205498 -0.6607441 -0.540782 165 170 176
0.0545597663240316 -0.062416888797893 -0.0265975420382204 0.09657941 -0.6531436 0.7510499 196 200 213
-0.149408808986385 -0.0497173962959755 -0.00759547798124494 -0.9374715 -0.1195925 0.3268712 190 193 199
0.0341771896116363 0.0321283362705328 0.0568589702249043 0.1004754 -0.6440151 0.758386 212 218 229
-0.0666344978449938 -0.114084477606138 -0.0713514482879441 0.2108681 -0.553879 -0.8054519 182 185 186
0.0951779701847917 0.0980587106171199 0.0442170137882267 0.1275019 0.7211009 0.680997 195 198 204
-0.144119097860949 0.0522494344281041 0.0232621673702224 -0.9221326 0.1312504 -0.3639296 182 190 180
-0.0253462681759671 0.0651280821097874 0.0915100124520001 0.1068321 -0.5093623 0.8538952 211 215 229
-0.103588060177912 0.0856569010912293 0.0848950633310071 0.1259543 0.7570389 0.6411144 186 192 200
-0.0283625117469009 -0.0494553443687034 -0.00608257795356931 0.09719726 -0.6402135 0.7620232 195 199 211
-0.0741317461657176 -0.108597596048436 -0.0719271506741259 -0.0177251 -0.2133629 -0.9768122 163 168 162
0.185965375088702 -0.0385720732372897 -0.0205495531481941 0.1181412 -0.6393197 0.7598112 199 202 208
-0.0945108304753237 -0.0319681815468972 0.0161626154618674 0.1035889 -0.6402899 0.7611164 195 200 210
0.024393474328622 -0.0868714172080952 -0.050888811012859 -0.4032112 -0.03604408 0.9143968 138 153 139
0.212096003968471 0.0707137929583063 0.0174653501305574 0.9883378 -0.01100415 -0.1518796 206 208 207
0.187661444195319 0.0536732109704507 0.0508509383254193 -0.3748929 -0.7976099 -0.4725185 142 146 150
-0.0351573779142176 -0.0780012129370065 -0.0297362011077377 0.1100853 -0.6419781 0.7587788 192 197 207
-0.0464780159950267 -0.114433511575391 -0.0600908042755119 0.09952322 -0.6413585 0.7607591 193 197 208
-0.152641825847872 -0.0727762410599323 -0.0875761900065538 -0.3646711 0.1243236 -0.9227993 154 156 152
-0.133716514268098 -0.0854754546945872 -0.0256141894269271 0.09666338 -0.6516483 0.7523369 195 201 212
-0.0402865084889523 -0.0376922019545991 0.00518895310209272 0.09842783 -0.6346557 0.7665012 188 194 202
-0.155740489980676 -0.0415388489506087 -0.0668327979105774 -0.933264 0.3554902 -0.05142932 179 180 183
-0.14796767257722 -0.0345224470677826 0.0057125395833158 -0.9964038 -0.07722759 0.03486272 196 201 206
-0.0784933320409094 0.0333307827011059 0.0700907585608385 0.1241942 -0.6433418 0.7554383 192 198 207
-0.0448135930961855 -0.104510497725502 -0.0517174971413625 0.1031831 -0.6394433 0.7618828 191 197 207
0.145448799947528 0.0961695131682839 0.0396141498251444 0.1229241 0.7771252 0.6172245 207 211 217
0.157442041858862 -0.0254242738786185 -0.00610112191184575 0.102875 -0.6461487 0.7562464 202 207 217
0.166742421610793 -0.0444813861694657 -0.0301179872412717 -0.9645221 -0.03129663 0.2621406 148 149 153
-0.0535059729526441 -0.0866347991739689 -0.0352877754437044 0.1124628 -0.6345354 0.7646679 186 192 202
-0.0876484836003262 -0.0467387817905069 -0.0674334692197444 0.1765017 0.25545 -0.9505748 159 161 157
-0.0826834046122613 -0.120240835588432 -0.0611635115112018 0.1044351 -0.6538246 0.7494042 197 202 214
-0.116839116184428 -0.0606290168929032 -0.0784596234160315 0.12681 0.2004981 -0.9714524 157 168 159
0.201585681406095 0.00828498024043267 -0.0217594949053278 0.8477008 0.1541786 -0.507575 118 122 86
0.173160120520095 -0.0842333470872897 -0.0632342862312643 0.3753484 -0.793442 -0.4791278 180 181 175
-0.116709422280235 -0.0924761966999361 -0.0607140403661931 -0.970012 0.2345066 -0.06390093 148 152 151
-0.0598169277853513 -0.0844731144588494 -0.0326525271049086 0.1031798 -0.6391699 0.7621127 190 194 204
-0.107381449618217 -0.0932229907504498 -0.0350661962084294 0.09276024 -0.6483909 0.7556353 198 203 214
-0.12217198478921 -0.0984124509855898 -0.0537801807282525 0.1186844 0.1682785 -0.9785686 141 151 143
-0.126553621733137 -0.0372261225218162 0.014636280122455 0.09135587 -0.6403428 0.762637 188 192 198
0.0583204584569663 0.0771369131819474 0.0716111984958914 0.1054772 0.7582021 0.6434315 198 203 205
-0.108652926251039 -0.0690977050863808 -0.0783644593167032 0.2608835 0.07845315 -0.9621772 146 154 145
0.139241321463948 -0.0272418259478154 -0.00554438309632177 0.09123515 -0.6356418 0.766574 204 209 220
-0.0146590954364263 0.0270997657718344 0.0579321413595817 0.1109211 -0.6411697 0.7593404 208 212 226
0.10965722721505 -0.0134702049536189 0.00973548729224166 0.09565137 -0.6429599 0.7599036 208 211 222
0.174066171802087 -0.0576512696648153 -0.0469704147114478 0.148923 -0.6350745 -0.7579593 113 116 96
-0.0417571456249033 -0.0744893749422862 -0.0260233703745758 0.1101093 -0.6447946 0.7563834 192 198 206
-0.107383441273202 -0.0185426402979112 0.0289106872420867 0.09545845 -0.6556146 0.7490375 195 199 208
-0.145529178958714 -0.103683122020082 -0.0400856519905978 0.1021985 -0.6387999 0.762555 198 202 215
0.0666087560487756 -0.0918364225139432 -0.0589986792208251 0.4726865 -0.8590672 0.1963951 165 172 167
-0.0953473286496394 -0.0879948907855393 -0.0320467789008225 0.09393816 -0.6534023 0.7511598 199 204 215
-0.0395961209558449 0.0882562628058338 0.0736829735861972 0.1109479 0.7307308 0.6735896 189 195 200
0.0646474784497979 0.0783160794729398 0.0691890263798446 0.1111292 0.755141 0.6460745 195 198 206
0.205082549363914 0.0617662485243051 0.0635377752634264 0.1266947 -0.440555 0.8887405 235 238 251
0.194337196990293 0.0576194538266909 0.0608709863987416 0.1014631 -0.6436161 0.7585931 214 217 228
-0.0575735759201601 -0.113296457643259 -0.0689639136318907 0.08331075 -0.6797248 -0.7287204 178 186 187
-0.0119350872259281 0.0124611797343498 0.0451654693864066 0.09737669 -0.6479474 0.7554349 199 203 215
-0.132951018120665 -0.0315334291077718 0.0202659246125537 0.1052782 -0.6371419 0.7635225 185 190 197
-0.00437439389208949 0.0381969171902029 0.0666244487010152 0.007057216 -0.7103984 0.7037643 205 210 222
-0.142058098491413 0.0801494507343955 0.0298029693383774 -0.9753277 0.2118907 0.06195357 225 233 233
-0.0630650304314444 -0.0985900617086712 -0.0446442015999214 0.09618937 -0.6503289 0.7535383 196 199 209
-0.081614986015067 0.0193334445213215 0.0501032271146105 -0.7901974 -0.4851138 0.3745033 164 164 178
0.144968399679092 0.0786163004243141 0.05943195092642 0.1340899 0.7017442 0.6996964 214 218 224
0.165754721293125 -0.0445212075039942 -0.0427271132068976 -0.6888062 0.7019245 -0.1812402 122 122 93
-0.153320671375691 -0.068001358232859 -0.0310479971247726 -0.9549634 -0.278118 0.1034182 165 174 176
-0.150854616029836 -0.11148495123037 -0.0461701596079812 -0.2517412 -0.6124737 0.7493346 196 201 210
-0.145866237129229 -0.0932525935398371 -0.0427304345096897 0.09183567 -0.5866651 0.8046057 170 177 179
-0.0132821758996244 0.0954897907807045 0.0630677773368241 0.1349674 0.7519615 0.6452423 237 236 244
-0.0595314137468503 0.0665731827110159 0.0965498541063608 0.1319356 -0.3725556 0.9185833 197 201 210
-0.157350285541774 -0.0401208859044107 -0.0469113106077161 -0.975117 0.0488981 -0.216231 185 188 190
0.189098544411664 0.0057957383349162 0.00931554853967081 0.4942874 -0.8597744 0.1283282 144 151 149
-0.102180532779952 -0.125743197092718 -0.0641005348531505 0.1178954 -0.6390919 0.7600409 204 208 220
0.0514046642824866 -0.102224531966217 -0.0617759714467254 0.2155408 -0.9764217 0.01195101 172 178 179
-0.086388095759566 -0.112985034261245 -0.0727410346350978 -0.05156406 -0.01286369 -0.9985868 161 164 159
-0.139519106465396 -0.0151728999376222 0.03455812345836 -0.5461813 -0.5049763 0.6683449 178 183 191
-0.0369200311396209 0.0990336372965331 0.0613025767984178 0.1235586 0.7555876 0.643289 190 194 200
0.10221152313066 -0.0576863063850023 -0.0276462308862936 0.1261182 -0.6154115 0.7780507 204 208 219
-0.127220989440398 -0.0965936110801304 -0.0361409507342582 0.1036048 -0.6472834 0.7551757 198 202 214
-0.0691271811052028 0.0806787422120654 0.0861393694658162 0.1098852 0.7487572 0.6536726 184 187 193
-0.0231227733406323 -0.0803064346147246 -0.0407834860590531 0.3165393 0.7921705 0.5217938 171 174 181
-0.0875447095962594 0.0781266114668702 0.09167399162748 0.08626777 0.7554948 0.6494501 183 187 192
-0.108488927960566 -0.0904657635777977 -0.0739474967227416 0.0361262 -0.3081616 -0.9506478 164 171 165
-0.148117659658563 -0.034344968567077 -0.00661431003930535 -0.9739782 -0.06912361 0.2158433 177 184 188
-0.115758072059891 0.00869852591418685 0.0529468159288213 0.09967902 -0.6409638 0.7610713 185 191 199
0.0604700559597711 -0.0122748190229732 0.0159464096066603 0.1094981 -0.6446164 0.756624 209 214 224
-0.144441229724522 -0.0461329200377939 0.00890108516356286 -0.4475059 -0.5457065 0.7084793 184 189 195
-0.136154252957228 -0.0633272968251848 -0.082661950028132 0.1892055 0.1652071 -0.96794 125 135 120
-0.137620809607255 -0.0573835935663668 -0.0817677334593702 0.1581596 0.2494708 -0.9553794 115 126 112
0.0436761354383117 -0.0419987585418807 -0.00755646245503322 0.1029192 -0.6468425 0.755647 195 200 210
0.205062491469601 0.0847376767689351 0.0442597277797019 0.148167 0.7558025 0.6378159 213 216 215
-0.138385930038798 -0.100792684176326 -0.0385540046527281 0.106309 -0.6473937 0.7547051 208 211 225
-0.0587056141588493 -0.0966370030211092 -0.0752605256119465 0.03380873 -0.184008 -0.9823431 168 172 167
0.13910480514742 -0.0883500733917263 -0.0581624365148571 -0.1458122 -0.7669539 0.6249164 194 199 208
-0.129730230214716 0.0682122410770877 0.104647163665601 -0.2338152 -0.2508639 0.9393603 185 190 190
-0.040930864136727 0.0445878971448578 0.0756361273296898 0.07457388 -0.593748 0.8011879 201 211 218
-0.145366828644547 0.0491391798410439 0.029300849582743 -0.9794795 0.09052458 0.1800701 200 203 209
-0.122283218672041 -0.119588322989998 -0.068036506373858 0.1154384 -0.1387394 -0.9835778 152 161 153
0.0422635269862668 -0.073077177657121 -0.0340300753859858 0.09555969 -0.6538578 0.7505587 196 199 212
-0.125900337330961 -0.0707043572272132 -0.013950500680731 0.09490717 -0.6405746 0.7620084 189 194 204
-0.0257896829983224 0.0870677040439448 0.0730244074945943 0.1146306 0.7233464 0.6809037 196 201 206
-0.134672948165032 0.0858282121037456 0.0733345187293484 -0.929159 0.3671973 -0.04277458 197 197 193
-0.113457748483929 0.08915439412787 0.0825033553764787 0.0780682 0.7306738 0.6782486 181 185 189
-0.150098310007464 -0.0624563874745422 -0.012825027045864 -0.9293069 0.1235139 0.3480416 183 189 192
0.000307179061699525 -0.0553615288867262 -0.02510501572786 -0.8909765 -0.1371714 0.4328334 164 169 176
-0.0752553125439372 0.0657906568214592 0.0974881248415235 0.1128331 -0.5832663 0.804406 212 217 229
-0.0843918607348972 -0.118852293038944 -0.0598406006883735 0.05147309 -0.6560956 0.7529204 199 205 215
0.0408844255797391 -0.0971315455853543 -0.0636450000897882 -0.4052403 -0.1965366 -0.8928346 160 169 169
-0.135112714154356 -0.103906302700242 -0.0414145158277851 0.1039838 -0.6408058 0.7606282 196 202 213
-0.152915897202129 -0.0955427833704701 -0.0794620396064619 -0.991511 -0.1256657 -0.03337681 175 178 180
-0.0873296586299026 -0.0838799491353611 -0.0293862602749813 0.1147365 -0.6383137 0.7611775 191 197 206
-0.111707657646523 -0.0396932619612813 0.0111358972237783 0.09484167 -0.6468614 0.7566872 192 197 207
-0.121979741477879 -0.0473773189727892 -0.0755546467911626 0.1964822 0.2306578 -0.9529909 130 137 123
-0.0765049472635382 -0.0449139370289523 -0.00752678540818374 0.7441321 -0.2061185 -0.6354389 161 168 175
0.0455761762002247 -0.00916448051629948 0.00935731223591441 -0.7244437 0.3700375 0.5815957 160 166 172
0.00850460275628118 -0.0124407232255802 0.0219320543378615 0.1242898 -0.681555 0.7211344 181 187 192
-0.102998010065169 -0.103505230261061 -0.0445229906348018 0.1019425 -0.6441838 0.7580468 192 198 209
-0.108906987216879 0.10286831077928 0.0663052068349007 -0.02741981 0.7680237 0.6398341 186 191 195
-0.121465306212497 -0.0649966410758809 -0.00962815116933285 0.1454324 -0.6463196 0.7490796 189 194 201
-0.137688580167779 0.0604588571368473 0.0649275926992046 -0.9803799 0.06081451 0.1875018 207 212 219
0.135101939558223 -0.0516460724575262 -0.0309884192780326 -0.3630962 -0.8726686 0.3265128 148 159 164
-0.106685159299213 -0.048761573510101 0.00271151565952638 0.1001828 -0.647968 0.7550502 193 196 209
-0.152242669240839 -0.111460919428095 -0.0720229486978655 -0.9991849 0.03928204 0.009298755 174 177 178
0.138846125249302 0.00425520655774148 0.0215196371721487 0.104728 -0.6096523 0.7857201 206 210 222
-0.0330939569367659 -0.0853870541410667 -0.0679311541390578 0.008322683 0.1709791 -0.9852395 158 158 167
-0.126225397964966 0.00153718181386286 0.0480979081520799 0.09876301 -0.6434143 0.7591205 183 190 197
-0.151850582294609 -0.117247043553157 -0.0677470130090901 -0.9905732 0.05436034 0.1257371 173 177 181
-0.0554489416393409 -0.0744509334943219 -0.0243747838348324 0.08980419 -0.6278108 0.773168 190 198 208
-0.142493346273855 0.0468302567331415 0.0447323688867781 -0.9829393 0.07692996 0.1670692 203 209 214
-0.0720380663614213 -0.0483425642386152 -0.000472683442241606 0.1061117 -0.6469193 0.7551396 190 196 205
0.0199202855530012 -0.0306748234740446 -0.00386183561733394 0.7233677 -0.690463 -0.0002367347 169 171 178
0.00692035286863169 -0.0208467400301997 0.0146106704782946 0.1303729 -0.6779554 0.7234496 246 202 192
0.106648182692505 0.00304197113300742 0.0241396358058962 0.07173855 -0.5994884 0.797162 219 222 233
-0.151165870975095 -0.112074833229339 -0.0575423700686924 -0.9970545 0.04790878 -0.05989171 168 173 172
-0.0783684217171552 -0.110725193434086 -0.072343258726896 0.05245817 -0.05045485 -0.9973477 161 168 162
0.155295786087888 0.0743973133620038 0.0629103792030785 0.1266222 0.7272544 0.6745872 226 232 239
-0.133326193845972 -0.0888957462942794 -0.0613606240816796 -0.3617766 -0.7827381 -0.5063978 152 158 143
0.155129946929249 0.0768375930859985 0.0594181552458363 0.08350611 0.7438358 0.6631252 202 205 210
0.155819547717361 -0.0953852966871482 -0.0657645941975787 0.4512144 -0.8824477 0.1330103 183 183 184
-0.110295661746153 -0.0598894976217011 -0.00634553826118606 0.1096195 -0.6441106 0.7570371 192 199 208
-0.123155794045405 -0.0792602325778271 -0.0288500509351134 0.3659886 -0.2850331 -0.8858942 170 173 182
-0.156086323289263 -0.0317915954728397 -0.0508335540894296 -0.977564 0.1774093 -0.1135541 175 181 182
0.0389550530120517 -0.103551700067497 -0.0601853292804813 0.1152491 -0.8041976 0.5830814 196 200 209
-0.142418153954431 0.0289326962680353 0.0442819057152298 -0.7102109 -0.4410734 0.5486846 164 171 176
0.045148550148391 0.0949076592128731 0.0551018045111332 0.1214659 0.7641552 0.6334925 204 208 213
0.0424166439270079 0.0014753509550135 0.0297236704092205 0.1058615 -0.6451392 0.7566959 210 215 228
0.105880588811804 -0.0552168347728441 -0.0258356300847528 0.09370115 -0.6431085 0.7600207 199 203 217
0.088995934801984 -0.0836141265210795 -0.0485737093492065 0.08649608 -0.6765676 0.731283 193 198 210
-0.0104576426625509 -0.00022306304171027 0.0293958440254539 0.060195 0.1714173 0.9833578 189 138 136
-0.127663209592867 -0.0818653533101503 -0.0232519982298226 0.06863797 -0.617493 0.783576 199 203 214
-0.0434497518027355 -0.0753499074072776 -0.0267564111267176 0.1048116 -0.6512401 0.7515988 193 198 205
0.0407889040573743 -0.00439660722055968 0.0248752280455002 0.08188456 -0.6442096 0.7604531 205 210 221
-0.151010722665422 -0.0384004865996381 -0.018381318493949 -0.9000082 -0.08067739 0.4283415 162 167 168
0.115607317699211 0.0315458609000376 0.0475315607719344 0.07332796 -0.6349134 0.7690955 223 228 243
-0.0867553047712901 -0.036519925443918 0.0112604316385905 0.09909406 -0.6389773 0.7628161 189 195 202
-0.145889585471987 0.0475496861552809 0.0248843575568686 -0.9676795 0.1149772 -0.2244475 193 195 196
0.133796821064943 -0.0371073007946182 -0.0134279865997096 0.1051247 -0.6411444 0.7601859 201 206 217
-0.135855097065882 -0.0422866783111552 -0.0612202116589124 -0.4534752 0.1723276 0.8744503 132 136 130
-0.0722335985654388 -0.0633368269725048 -0.0133152975252643 0.07970043 -0.6440188 0.7608466 192 197 206
-0.0592031050638488 -0.0299653916527988 0.0138371178176622 0.09815294 -0.6484704 0.7548855 193 200 208
0.00215548980006153 -0.0718088123418912 -0.0287255755113042 0.1391959 -0.6355099 0.7594417 192 196 204
0.0514134327301443 -0.0231130864839486 0.00778064569898856 0.09661517 -0.6411679 0.7612944 205 211 224
-0.146384155965808 -0.0485529523798304 -0.000812925463727077 -0.9582433 -0.1645829 0.2338424 173 178 182
-0.15618493204965 -0.0760860600574149 -0.0504299303064306 -0.903266 -0.1127409 0.4140048 170 175 179
-0.151922755436658 -0.119156922072376 -0.0541836696725218 -0.7718021 -0.4494241 0.4498216 186 189 195
-0.125907501396852 -0.0740629618994034 -0.0168489307523187 0.08901858 -0.62834 0.7728289 190 197 207
0.0481301076068528 -0.0520797102806899 -0.0270542287768625 0.4937126 -0.3319663 -0.80377 159 166 171
-0.0888465412759065 -0.00543339886377514 0.0377002337030949 0.09898377 -0.6448903 0.7578382 187 191 200
0.187795047805202 0.0306484380616099 0.0386109899679058 0.1130812 -0.6392077 0.7606748 214 218 230
0.0291080496576805 -0.0872143072271677 -0.0448904825012644 0.08908792 -0.6153618 0.7831942 202 205 216
-0.120933551169945 0.0385973615478065 0.0791605597208722 0.1094955 -0.6367607 0.7632474 191 196 205
0.0149757551277356 -0.0902737967813337 -0.0459742413714053 0.08869728 -0.6513209 0.7536006 185 191 202
-0.100235050907756 -0.0731989754669685 -0.0186060510484514 0.09653296 -0.6457775 0.7573987 194 198 210
-0.154686124275835 -0.0179975412539438 -0.0468810843535813 -0.8584495 0.2230002 -0.4618823 190 191 192
-0.0492965939737773 0.0350957336145959 0.0610847761802428 -0.8984027 -0.2369526 -0.369765 160 165 171
0.0189125581060279 0.0761636306920999 0.0786259090668828 0.08996943 0.740655 0.6658345 199 204 209
0.0562479387947463 0.00888013761904916 0.0346175966222304 0.09510422 -0.655296 0.7493613 208 214 224
-0.152860473754932 -0.101883911119269 -0.0633416343854289 -0.9644515 -0.2642435 0.002956846 152 157 157
-0.11525084476265 -0.0508765786612495 -0.061625449555783 -0.07128231 -0.3555543 0.9319335 129 138 128
-0.106036055769942 -0.0570192501671467 -0.0154281632800117 0.7774894 -0.5285192 -0.3408486 164 175 179
0.202697285806364 -0.0412110610341936 -0.0402435534085348 0.9867607 0.008590557 -0.1619556 198 198 201
0.0102403956409174 0.0150943634344936 0.0449116343242635 0.09572323 -0.6357747 0.7659162 197 200 209
0.132224200210681 -0.0652742292591082 -0.0373506887827544 0.09661303 -0.6487598 0.7548355 195 199 210
-0.119647227061226 0.0814634822393715 0.0929269942996711 0.1139745 0.7682279 0.629949 158 170 170
0.0358326436625149 -0.0574099826140676 -0.0200337186188407 0.09587835 -0.6474905 0.7560181 190 195 205
-0.0721668744187087 0.0195392996467115 0.0578536356544727 0.09545921 -0.6450909 0.7581196 192 197 206
0.0676856729655793 -0.0901997650974109 -0.05560216675882 0.4420198 -0.8424114 0.3081583 178 179 181
-0.0884838573244751 -0.0507154476962677 -0.000901015678762607 0.1029961 -0.6407958 0.760771 187 193 202
0.148181368073091 -0.00344030625302139 0.00548755035276832 0.6681097 -0.7362294 0.1076836 160 167 174
0.169277936367628 -0.0826354263561228 -0.0566502120575278 0.106476 -0.6608135 0.7429592 198 203 208
0.0566905247188738 -0.0739571365432727 -0.0365704633405728 0.0975544 -0.6489722 0.7545319 198 203 214
0.0657405985351889 -0.0583488132511969 -0.0241789205853911 0.09953043 -0.6424925 0.7598007 202 204 215
-0.113162742737905 -0.102953961769513 -0.05599961162631 -0.6308343 -0.7177711 0.2947079 143 144 136
-0.090677562373418 -0.0962553585922548 -0.0397867112459531 0.1052132 -0.5948728 0.7969044 191 196 206
0.11082435426969 -0.0576254008157424 -0.0382617524855248 0.4360327 0.7150247 0.546457 129 141 133
-0.133136138234619 -0.0517724731996526 -0.0794568644612353 0.1751346 0.2370407 -0.9555834 98 112 107
-0.136865583837748 -0.0758374489504287 -0.0574671789967982 0.8464676 -0.4887283 0.2112751 142 148 142
-0.155608223041454 -0.00688557191437378 -0.0380362479497579 -0.7977064 0.5635881 -0.2145529 188 193 198
0.202911484040711 0.0730059080639445 0.0577171131865182 0.1262613 0.7087975 0.6940203 226 229 237
-0.0595403024775907 0.0346395215665178 0.0691503776237993 0.09657694 -0.6394957 0.7627045 204 209 220
-0.119238569043318 -0.0609833017076093 -0.0785094839082758 0.1205021 0.1754929 -0.977078 130 140 133
-0.0696269712134789 -0.122444333650554 -0.0641684211308614 0.1653925 -0.7006267 0.6940948 196 195 206
0.0174017629026357 -0.0920755735834644 -0.0627554304761454 0.1851042 0.1156853 -0.9758859 162 172 166
-0.110157401899607 -0.0618596709333284 -0.00813662120937925 0.1053756 -0.62868 0.7704917 190 195 205
0.110100501008898 -0.0531432595094576 -0.0244142860194446 0.09179204 -0.6358389 0.766344 206 211 224
0.081062241167412 0.0851555603845821 0.0598707433184413 0.08332829 0.7273177 0.6812234 187 195 199
-0.104496781128472 -0.0194420594234073 0.0273165192317845 0.09871932 -0.6520712 0.7517031 191 192 200
-0.0880618007092617 0.0690481501648468 0.101322517368598 0.1135828 0.05782875 0.9918441 202 208 214
-0.156532154193954 -0.0595076230624977 -0.0727265741723573 -0.9811184 -0.02101106 -0.1922634 175 179 181
-0.0390022758879081 -0.10192680109311 -0.0499761995120232 0.1031721 -0.6518052 0.7513358 189 196 204
0.12808755805022 0.0104161724558404 0.028081135699308 0.1085117 -0.6427614 0.7583423 221 224 238
-0.149632079926182 -0.0586062191948303 -0.0128326804954103 -0.9162999 -0.05045474 0.3973019 170 174 175
-0.0780260753903828 -0.106658920983162 -0.072804269554286 -0.0116531 -0.2098653 -0.9776608 160 164 164
0.175498127485787 -0.00479858479578488 0.00885809350275674 0.1060037 -0.6425412 0.7588834 196 201 208
0.0484937729288166 -0.00747732956301317 0.0214299083624557 0.10334 -0.6568231 0.7469299 207 212 225
-0.137814409173327 -0.0133812935356352 0.0363132470245671 -0.1606553 -0.669149 0.7255546 185 190 196
0.153201926869373 0.0755103112446112 0.0624077097097965 0.1083295 0.7501046 0.6523862 233 235 244
-0.148540157156654 -0.0304544422418747 -0.00636882680735168 -0.9414438 -0.2413052 0.2354898 171 178 179
0.0839633227902064 -0.0367578647549619 -0.00740225080955764 0.06648204 -0.6039121 0.7942734 243 204 196
-0.0674134532510497 -0.0966144168085811 -0.0680826570460499 -0.04118187 -0.994365 -0.09768423 151 156 163
-0.0421464686749893 -0.0806532660885034 -0.049490962215669 0.08657295 -0.8491654 0.520983 115 124 107
0.164753839934371 0.066259105864742 0.0676535014747148 -0.06860884 0.4108427 0.9091211 228 234 242
-0.142544078370963 0.0569863181868077 0.0146738994942724 -0.9968988 -0.06362105 0.04631626 197 199 199
-0.121187325146611 -0.0801246526136976 -0.0541383822055068 -0.04266775 -0.6594957 0.7504964 142 145 146
-0.0596864595985376 0.00830840888932227 0.0469530850414198 0.09245646 -0.6426255 0.7605816 206 212 222
0.0116969320034634 -0.0436232206594808 -0.0122993937375348 -0.8580295 -0.5133089 -0.01730078 156 163 174
-0.121464918872787 0.0999827090077742 0.0692926469858455 0.2004181 0.8925344 0.4039987 197 200 205
-0.0549364977039413 -0.0431655930659599 0.00218911556473528 0.06375986 -0.6877729 0.7231205 197 201 210
0.0607658232327584 0.0857678991449441 0.0619740604804858 0.1547819 0.7302797 0.6653826 189 191 197
0.075149535391497 -0.0683661225831744 -0.0340156063217512 0.061555 -0.6340074 0.7708732 167 173 181
0.183707201787802 -0.0497874842877067 -0.0365295939120791 0.9484264 -0.2179996 -0.2301382 142 145 156
-0.0605645110224846 -0.0903988116435608 -0.0756860210855621 0.07211913 0.0845217 -0.9938083 152 160 149
-0.137641048318652 0.0458223611225009 0.0752536408806987 -0.9501085 0.05414378 0.3071844 208 213 219
-0.0132213908216898 0.0830772669008834 0.0753493210071297 0.1061509 0.7134778 0.6925904 199 201 210
0.0494282314721977 0.0221829363774327 0.0466507867397888 0.1051997 -0.655166 0.7481247 216 221 232
-0.0106019595337741 0.0888363224182184 0.0686114371165171 0.1474388 0.7046621 0.6940556 200 203 208
0.00527597678851421 -0.098429955899203 -0.0521043835587837 0.1012052 -0.6590121 0.7452922 185 190 201
-0.0868488094363786 0.0410731406839905 0.0776951470504673 0.09771005 -0.6391978 0.7628098 192 198 207
-0.099214883339565 -0.0466917142003822 -0.00526422761656276 0.8054765 0.5516553 0.2165274 166 172 180
0.19429531897003 0.0880082208059135 0.0427987468760921 0.1139993 0.7428256 0.6597077 231 236 234
-0.0839793767959516 -0.101504725601837 -0.06059533982546 -0.1478872 -0.9847579 -0.09154914 129 139 132
-0.14898403982814 -0.0423374744770828 -0.0104202736869894 -0.9859817 0.08920985 0.1410025 169 179 179
-0.0656209999815376 0.0729023162987058 0.0944965216653413 0.1191105 0.7446067 0.6567903 187 191 198
-0.116579523121384 -0.127319900696207 -0.0634164934970502 0.148035 -0.9399346 0.3075853 196 204 211
-0.0524060212624402 -0.118128487288074 -0.0626250080304884 -0.006233706 -0.8146312 0.5799459 199 203 214
-0.155842200209138 -0.0359860590711929 -0.0330142830630072 -0.8619676 -0.183188 0.4727092 168 174 178
-0.157680964144419 -0.0799010858365464 -0.0551850148198502 -0.9612917 -0.1317736 0.2419791 173 177 180
0.0864860731587669 -0.0857335663672403 -0.0502457736596143 0.05619292 -0.780416 0.6227306 203 207 215
-0.109246226935787 -0.107099012017348 -0.0469161631125288 0.1101518 -0.6430604 0.7578521 199 205 215
0.0201616232846225 -0.0726389410037758 -0.0313648865837993 0.1266474 -0.5913061 0.7964405 191 195 206
-0.0751773476932343 0.00416775620720977 0.0374006380295286 0.895166 -0.403122 -0.1901854 164 171 176
0.112432777803654 -7.273415877318E-05 0.0205270562991661 0.1030488 -0.6371952 0.7637822 203 207 217
-0.0294132757370265 -0.0926330675183232 -0.0432366188242151 0.1098511 -0.644084 0.7570261 195 200 208
0.0336622813460923 -0.0579501002682306 -0.020147757458768 0.03082377 -0.653797 0.7560419 192 197 207
-0.13850400493461 0.0149107376952996 0.0522933038176605 -0.984037 0.08477325 0.1564756 178 186 187
0.114526815739958 0.00338291168738969 0.0233946179259883 0.09990337 -0.6487506 0.754415 210 216 225
-0.139279023701448 0.0906855143907922 0.0496126432918767 -0.9834321 0.1355826 0.1203273 224 227 233
0.213105453310275 0.0413908803976365 0.0322493665098875 0.9878111 -0.01455382 -0.1549755 205 207 210
-0.141165778529492 0.0708143435520641 0.0452660636684348 -0.9528255 0.01669082 0.3030594 203 207 212
0.0980038010953752 0.0293034318203707 0.0475326073261935 0.1242808 -0.6051112 0.7863808 224 229 240
-0.0334823285550199 -0.00765698265294146 0.030295286454341 0.1065099 -0.6446341 0.7570353 197 202 212
-0.0786025033642663 -0.122472267042864 -0.0699660713131028 0.6319253 -0.5254083 -0.5697513 169 176 172
-0.152585380059867 -0.107134610574062 -0.0772856469975788 -0.595387 -0.4831161 -0.6419603 177 180 172
0.0787089952119775 0.0885746390046541 0.0574640593619322 0.112843 0.7077878 0.6973543 205 208 215
-0.10706820799327 0.0276862995273495 0.068396855140385 0.1036224 -0.6437657 0.7581742 186 190 201
0.153807991892358 -0.0408340065707837 -0.0188920019229965 0.07467103 -0.6979738 0.7122196 202 206 218
-0.0638473519826217 -0.0524135817414519 -0.0137456600659214 0.06544284 -0.4682172 -0.8811866 167 171 180
0.0688246967875923 -0.0570846166996459 -0.0332391664976714 0.5922492 0.7075074 0.385583 136 147 143
-0.156078802462366 -0.00645432988621553 -0.0242168185980158 -0.9931073 0.06869676 0.094967 182 186 191
-0.153096190395222 -0.0983838737724138 -0.0376093873114755 -0.8469557 -0.2608837 0.4632556 168 175 182
-0.117542795381444 -0.0959526806759817 -0.0365802886768113 0.09387226 -0.6449621 0.7584273 197 202 214
0.0910496793176563 -0.0824338521563002 -0.0476773129104226 0.1042183 -0.6512989 0.7516305 194 196 208
-0.0487353649802165 -0.109010991128013 -0.0551754662266174 0.101696 -0.6491348 0.7538447 194 198 207
-0.0556131301480667 0.00374709340143908 0.0423322248542237 0.09976671 -0.6494545 0.7538272 190 195 203
0.0582900270019824 -0.0656265483422077 -0.0295611152346785 0.09809194 -0.6379749 0.763784 200 204 215
-0.145162744277416 -0.0754989858860909 -0.0861841351088419 0.1533337 -0.2708602 -0.9503281 176 179 181
0.0333514315126471 -0.0111773276253705 0.0200291162656404 0.09259553 -0.6457338 0.7579274 208 212 223
-0.148684097610046 -0.0146317415349415 0.00137226040932786 -0.5671606 -0.2558865 0.782848 169 177 183
-0.153777570799163 -0.0579241592113442 -0.0232204002298291 -0.8928652 -0.03044763 0.4492935 170 175 180
-0.0903174580058903 0.0191893012185621 0.0592868159364588 0.1092757 -0.6317536 0.7674283 189 194 203
0.133666074271691 -0.0359559762810308 -0.0125749292890274 0.1476467 -0.5721083 0.8067791 201 206 216
-0.103080650958408 -0.111067593144036 -0.0511279931307075 0.1100782 -0.6660591 0.7377316 195 199 211
0.180246423106486 -0.0503241505552039 -0.0302018709297622 0.09845471 -0.5996696 0.7941681 196 199 206
-0.155245661583064 -0.00634408523448915 -0.0101935812395599 -0.9858753 -0.1096454 0.126601 187 194 201
0.14336990568244 0.0816959066159438 0.0565383382666074 0.1153036 0.7425625 0.6597772 219 223 230
0.162837750834853 0.0394238378646206 0.0379329739662663 0.9119128 -0.3535123 0.2084325 152 160 164
0.127076115852743 0.0885424087035572 0.0508294741322319 0.1100122 0.76239 0.6376981 208 213 216
-0.107769373994056 -0.109908491077489 -0.0574485408433897 -0.8819592 0.1272463 0.4538242 134 136 126
-0.048119520058056 -0.106457814225354 -0.0724844931504964 0.01879308 -0.3051348 -0.9521237 162 169 164
-0.0414913732659796 -0.0171857746903223 0.0229006371310173 0.1044137 -0.6431348 0.758601 189 194 203
0.11009769813227 0.0042514333474104 0.0247903248315772 0.1131427 -0.6395561 0.7603728 212 217 226
0.154520250230657 -0.0893578765747135 -0.0606255475857327 0.1224031 -0.6469046 0.7526832 195 198 210
0.0759501236825626 -0.0804461142096975 -0.0439776498943174 0.1057581 -0.6474892 0.7547005 195 199 211
-0.0605972837624287 0.0299864328050009 0.0653110684562684 0.08498679 -0.6517735 0.7536369 199 203 215
-0.0484343094341786 -0.0994278105270276 -0.046932427365157 0.0993265 -0.6451942 0.7575346 189 195 204
-0.0352232950597937 0.00805623261522947 0.0327793834298485 0.9875029 0.1480651 0.05398747 162 161 175
0.201935940533609 -0.05825326014909 -0.0397092015083046 0.7263147 -0.4455146 0.5234346 194 197 200
-0.092031324633941 -0.110960684341716 -0.0724736796731917 -0.2501823 0.1014118 -0.962873 163 167 163
-0.145731412187813 -0.0579627630316473 -0.0013331937934814 -0.5481107 -0.5300922 0.6469753 179 181 188
0.184169625470066 0.0359095638263733 0.0435422373825701 0.1048587 -0.6466378 0.7555556 221 224 237
-0.152556367525755 -0.0105192935815143 -0.000376279359678544 -0.7066496 -0.3897037 0.5905738 170 177 184
0.207715114730651 -0.00422527734484257 -0.00784788887697024 0.9936392 0.06001887 -0.09528347 199 200 203
-0.119118284615788 -0.105679482061997 -0.0446860342596878 0.1489271 -0.6183496 0.7716635 198 203 214
0.202186564304903 -0.0318340062290422 -0.0166080697197592 0.1389069 -0.6493716 0.7476773 205 209 219
-0.0930766338180753 0.0953688430983642 0.0729276705371011 0.1303557 0.7165129 0.6852857 184 188 191
0.107408623433774 0.0964912919604325 0.0439198658847216 0.1018882 0.7388179 0.6661583 189 195 199
0.169089353140478 -0.0842176926887326 -0.0579110295243369 0.1306718 -0.703811 0.6982657 194 196 203
0.0196195234739682 -0.076843450294922 -0.0469770826452219 -0.02708866 -0.6112663 0.7909612 129 142 128
-0.118220276903993 -0.0659033982628617 -0.0529044580973566 0.01576108 0.9984364 0.05363208 154 153 160
-0.0815296560567687 -0.0511256633380825 -0.0109934321320602 0.9746208 0.2227924 -0.0218588 164 167 179
0.207114245141824 0.0127040802351297 0.0212958232820215 0.2076823 -0.6501493 0.7308721 194 198 201
-0.158839721437693 -0.019944756993732 -0.0325978932210526 -0.965327 -0.07008278 0.2514602 190 195 201
-0.124832000049145 -0.0415672194991996 0.0110390206161135 0.1144252 -0.6576455 0.7445866 184 189 199
-0.139151944391446 -0.0886927980637561 -0.0327877371381393 0.6940489 -0.5817314 -0.4241281 171 176 183
-0.102036591312646 -0.0657754864485151 -0.0230943890204953 0.6005401 -0.794972 -0.08585513 164 173 176
-0.0795099495884082 0.0785505595026599 0.0901821969056732 0.105754 0.7508435 0.6519588 184 188 193
-0.00768403952651431 0.0428541372714297 0.0706736160157945 0.09328049 -0.6360109 0.7660214 212 216 229
-0.153720105979831 -0.0575716499363693 -0.0792272966049563 -0.9379998 -0.07255979 -0.3389562 170 175 175
-0.129642926130356 -0.0862593505994373 -0.0682029726415288 -0.1706843 -0.8399726 -0.5150853 164 164 160
0.209498884591438 0.00789298938090899 0.00297138414111647 0.9913405 0.01861327 -0.1299909 189 192 194
-0.0674706735861261 -0.0157141074985955 0.0270356825107024 0.1036923 -0.6433768 0.7584947 198 203 214
0.0684504177893319 0.0686533705583826 0.0809277200583869 0.2276334 0.4640015 0.8560874 216 218 223
-0.0426535959018817 -0.0922810301482627 -0.0716015314593803 0.2602252 0.2107475 -0.9422677 157 162 158
0.0643123257976801 0.0645540515798688 0.0812393438666764 0.1267852 -0.3892544 0.9123632 228 233 239
-0.0885392641706142 -0.0963229568457021 -0.0719012710188759 -0.09284242 -0.2555517 -0.9623272 162 168 164
-0.00445529446992099 -0.0875339757498949 -0.0576410394411088 -0.8509361 -0.0847451 0.5183879 163 166 173
-0.145869510264894 -0.122854681323336 -0.056603418414408 0.09086049 -0.6418249 0.7614494 197 203 215
0.0287566416868135 -0.0892892567790992 -0.0466918938915976 0.1073504 -0.6466622 0.7551847 190 196 205
0.102448264627354 -0.0653975728540314 -0.0341028143768793 0.09231532 -0.6420971 0.7610448 197 202 214
-0.14527224515939 -0.00858055496394139 0.00604647268266439 -0.7645259 -0.2596387 0.5899897 173 179 184
-0.140948482635276 -0.0310266912269451 0.0217124064985647 -0.2073108 -0.6061555 0.7678527 190 194 202
-0.152520498002416 -0.103878360596635 -0.0412611115653028 -0.808214 -0.3644766 0.4625439 177 181 188
-0.0528836227537033 0.10414053799917 0.0573165133347706 0.1248213 0.7445506 0.6557927 187 188 194
-0.0424198083641532 -0.112759084049078 -0.0591339583004785 0.1021346 -0.6509852 0.752188 193 197 208
0.0658515369284154 -0.022962617962543 0.00624347888558879 0.101618 -0.6565633 0.7473944 253 220 203
-0.0578849107642045 -0.0712780404833737 -0.0215855611866338 0.1198784 -0.6622604 0.7396218 191 196 206
-0.146626818839243 -0.0507905462795711 -0.00448271337033179 -0.9016493 -0.167704 0.3986275 166 170 176
-0.140796156781791 -0.0200391418792574 0.0309191448714749 -0.5019252 -0.4439287 0.7422926 192 197 203
-0.0626113984725483 -0.12077089323879 -0.0635830269609564 0.2095076 -0.9147019 0.3455819 199 201 209
-0.0866662410448411 -0.11755449090321 -0.0583734545694529 0.08591264 -0.6755889 0.7322558 188 193 204
0.184987965716403 0.0714762855646742 0.0625123604497192 0.1386894 0.7112981 0.689072 236 240 248
-0.133909484926113 -0.0705430429434993 -0.0129631434836502 0.09821811 -0.6424903 0.7599733 190 196 205
0.13038882934721 -0.0556629004569948 -0.0290387175530162 0.1698296 -0.6461267 0.7440956 202 205 217
-0.0633742052609678 0.0789389132167169 0.0870405713743671 0.1185468 0.7521319 0.6482625 188 192 197
0.0381753791610047 0.0138825550817079 0.0291569940685444 -0.1617654 0.1332762 0.977788 157 161 166
-0.159234144523892 -0.0197653592553287 -0.0320924548617504 -0.9591542 -0.02926781 0.2813656 213 216 225
-0.0413951925572951 0.0921008238484308 0.0695597284078325 0.1172987 0.721502 0.6824045 188 191 197
-0.104409785926733 -0.100183591954845 -0.0418060101905697 0.1060114 -0.6434379 0.7581221 187 192 204
-0.0836638831075724 0.0627452886407158 0.0958936760190267 0.1033383 -0.6417133 0.7599508 206 210 222
-0.0862281476451692 -0.0762624714650127 -0.0230491423519986 0.09819339 -0.6367952 0.7647548 199 205 215
-0.140047282635047 -0.0817129643608807 -0.0217562220267244 0.09159468 -0.6399723 0.7629194 201 205 217
-0.152608866006968 -0.0145685397353783 -0.00264796501684322 -0.8164154 -0.3707496 0.4427308 164 173 174
0.129115214960845 0.0984158790426836 0.0391382183030269 0.1118175 0.8535164 0.508927 201 205 210
-0.144849031185081 0.0354548692627844 0.00863869637219528 -0.9950339 0.005282735 0.09939606 197 201 205
-0.127008978482119 -0.0956659670886166 -0.0351720364147231 0.1067669 -0.6408479 0.7602071 198 203 214
-0.110663924937029 0.0111232329856685 0.0538549995815711 0.1128004 -0.6462999 0.7547003 175 184 190
-0.15566725919133 -0.0161933438474154 -0.0164999908159681 -0.9134595 -0.3504322 0.206855 170 173 181
-0.046676397006348 -0.113270147601564 -0.059122255340382 0.1067574 -0.6416176 0.7595589 191 196 207
-0.143553726254741 0.0731023982986618 0.0252926740218407 -0.992916 0.1167634 0.02200264 196 202 202
-0.155504459057145 0.00314878041974431 -0.000409144504107339 -0.9290751 0.1874455 0.3188788 178 184 186
0.114646593444115 -0.0348205660089029 -0.0200502307265362 -0.2234791 -0.9450989 0.2384223 149 151 167
-0.117208208798318 0.0355413046420043 0.0761395897451052 0.09654923 -0.6527331 0.7514105 201 209 217
-0.136751996128822 -0.106938035116303 -0.0437411056203891 0.09731087 -0.6422459 0.7602965 191 198 209
-0.0164291740676945 0.0258370720823752 0.0570653634831272 0.1082118 -0.6404878 0.7603062 209 214 224
-0.142613796778274 -0.0870818404672208 -0.0262698468129592 0.09851214 -0.6384665 0.763319 184 192 200
0.0391732079257285 -0.101407714528046 -0.0582745844683696 0.1092712 -0.6589352 0.7442206 189 194 204
-0.109559304248461 -0.0675740650224136 -0.0128567906086638 0.09234779 -0.656855 0.7483405 187 194 204
-0.102749101793723 -0.0551592973148646 -0.00294536740893603 0.1037864 -0.6455938 0.7565957 194 198 209
-0.0399973588159663 0.104873543062551 0.0555030326832424 0.09865271 0.7555732 0.6475931 209 217 222
-0.13882393232923 -0.0851929866940546 -0.0617556435756734 -0.09610229 -0.9923785 0.07713202 149 150 154
-0.0125525106276974 0.0280946168625096 0.0585609353355436 0.1494007 -0.6653003 0.7314745 204 209 222
0.153635562974431 -0.0271101460383507 -0.0150571574544993 0.8399624 0.01425309 -0.5424573 157 160 167
-0.0488529871081576 -0.0414659959568688 0.00290484918306644 0.1033313 -0.6385749 0.7625908 196 199 210
-0.130046722365281 0.0952977668213245 0.0698854351921199 -0.8868189 0.4446516 0.1258458 195 203 201
0.110731069596073 -0.0181122805064088 0.00531286093260008 0.09245801 -0.6540816 0.7507521 198 201 210
-0.131544980656631 -0.0936691278430448 -0.0328976932089199 0.09961157 -0.6412411 0.7608466 196 202 214
