ply
format ascii 1.0
comment File exported by Rhinoceros Version 7.0
element vertex 470
property float x
property float y
property float z
property float nx
property float ny
property float nz
property uchar red
property uchar green
property uchar blue
end_header
-0.0125134927087656 -0.046450198891737 -0.0244106433165852 0.6801051 -0.7202995 0.1364762 57 57 57
-0.0107294892120389 -0.0430425704762781 -0.0273933896229576 0.8091819 -0.5584716 -0.1825764 92 92 92
-0.0106758260499906 -0.0453986494983382 -0.0237132852855395 0.6767494 -0.7159297 0.1716245 34 34 34
-0.0104041581858056 -0.00218954333761623 0.0149336027190686 -0.2264096 -0.6531161 0.7226189 43 43 43
-0.00929530595962591 -0.0430562409170352 -0.023200084818933 0.7170363 -0.6803437 0.1516288 59 59 59
-0.0114664764676999 -0.0436775454722 -0.0211952447243647 0.3528774 -0.6559749 0.667214 86 86 86
-0.00919511493293568 -0.0430997897092534 -0.0217142797457499 0.4857854 -0.7498724 0.4491146 78 78 78
-0.0127048011475472 -0.0428089646389838 -0.0204743205757214 0.207484 -0.5843862 0.7845019 118 118 118
-0.0104619791118385 -0.0423389618660486 -0.0204417448038048 0.294215 -0.6435136 0.7066314 92 92 92
-0.0247950809821087 -0.0399226731354561 -0.0190846253695328 -0.03896519 -0.4099066 0.9112948 56 56 56
-0.0250836875609184 -0.0391568620550496 -0.0185727744736816 -0.03792167 -0.413986 0.909493 74 74 74
-0.0151072568944435 -0.040353603674929 -0.0187504325234474 0.05811047 -0.4717526 0.879814 83 83 83
-0.00916791651852389 -0.0403314875031597 -0.0263426323585547 0.8052777 -0.5742407 -0.1475649 87 87 87
-0.00798241794673649 -0.0381898700095678 -0.027138499940507 0.8180419 -0.5208285 -0.2440186 80 80 80
-0.00545795107829994 -0.0341766589462722 -0.0285435260323598 0.8593564 -0.4248021 -0.2846924 60 60 60
-0.00455955486128401 -0.0321602492163965 -0.0276217451401675 0.8720922 -0.4176995 -0.2549162 75 75 75
-0.00456745157252714 -0.0330693162765392 -0.0252780555413642 0.8778341 -0.4110784 -0.2458086 38 38 38
-0.00406040891079185 -0.0322850263322589 -0.0253100887109551 0.8826446 -0.4119886 -0.2262827 56 56 56
-0.00407143072467564 -0.0300843300446904 -0.0261618437459832 0.8554846 -0.4635281 -0.2308414 47 47 47
-0.00381916186403952 -0.0306968920077086 -0.024793080990511 0.8854316 -0.4075389 -0.2234342 25 25 25
-0.0127786224550084 -0.0387936571847751 -0.0183667816079659 0.06617967 -0.4871786 0.8707911 55 55 55
-0.00606858641054453 -0.0368998609429213 -0.0243425851882803 0.8174211 -0.538117 -0.2055552 25 25 25
-0.00750293448706074 -0.0405651946811605 -0.0203128504456016 0.5296204 -0.6703745 0.5197117 38 38 38
-0.00822651189820034 -0.0400222663612215 -0.0194917507657031 0.3393218 -0.5883531 0.7339627 86 86 86
-0.00701418192904368 -0.039812488884989 -0.0195647013475014 0.5147778 -0.6443698 0.565501 88 88 88
-0.00727070037797972 -0.0390510289447872 -0.0188453231094368 0.3909258 -0.6098331 0.689406 105 105 105
-0.00425285514954643 -0.0335554658364877 -0.0239637153722112 0.8928421 -0.3780676 -0.2447406 42 42 42
-0.00357522938229549 -0.0343959870195553 -0.0215177162180098 0.8941042 -0.4246613 -0.1422687 66 66 66
-0.00402901520395638 -0.0336907667986945 -0.0202678001314574 0.8812474 -0.4371902 -0.1796323 28 28 28
-0.0244314260883827 -0.036937943779486 -0.0176317313607679 -0.05985873 -0.4924739 0.8682663 107 107 107
-0.0233396234384373 -0.0372247647228775 -0.0178220421297 -0.06345186 -0.4926443 0.8679144 103 103 103
-0.025283139780115 -0.0359947650817888 -0.0170994770607779 -0.06464034 -0.4987718 0.8643196 117 117 117
-0.0233828437050065 -0.035929986167433 -0.0172208934688433 -0.07599054 -0.5058857 0.8592468 52 52 52
-0.0222363260488674 -0.0347571811261796 -0.0156647502428739 -0.09216359 -0.5037012 0.8589476 82 82 82
-0.0201044621626467 -0.0380140180238983 -0.0177461646050167 -0.05191737 -0.4943834 0.8676922 69 69 69
-0.016188882006265 -0.0373334916464071 -0.017409884625117 0.008372206 -0.5285899 0.8488361 109 109 109
-0.019960041930124 -0.0367356297283469 -0.0169081561671958 -0.05840714 -0.5179765 0.8533984 110 110 110
-0.0247690745879017 -0.0333932489503999 -0.0152867902888591 -0.06315179 -0.5076445 0.859249 61 61 61
-0.0245580387878808 -0.0295638231797516 -0.013271695811168 -0.05307935 -0.5484259 0.8345128 113 113 113
-0.0225717808356451 -0.0298387775776935 -0.013363949682676 -0.08348549 -0.5239127 0.8476707 86 86 86
-0.0185885531813028 -0.0327857689167854 -0.014275511438287 -0.07556466 -0.5135939 0.8546996 116 116 116
-0.0169879266485351 -0.0328229899146441 -0.0144395545896367 -0.1049126 -0.529789 0.8416157 73 73 73
-0.0167801209240048 -0.0303639833486027 -0.0129992675840218 -0.1352632 -0.516477 0.8455503 120 120 120
-0.0202168529686046 -0.0287878895098652 -0.0123308869565102 -0.07609182 -0.5411264 0.8374916 103 103 103
-0.0184059471841889 -0.0294933706676872 -0.0126175411140794 -0.1196471 -0.5269595 0.8414263 93 93 93
-0.0104547394068724 -0.0369992469526611 -0.017493716604781 0.04505849 -0.6175781 0.7852178 82 82 82
-0.0118911450488484 -0.036885654664494 -0.0171795248168187 0.03421558 -0.616523 0.7865931 88 88 88
-0.0103215727846688 -0.0361844888425433 -0.0173371798912688 0.05070249 -0.6310952 0.7740466 120 120 120
-0.00859864358741769 -0.0374225564740069 -0.0176364459331089 0.2243533 -0.6281452 0.7450498 102 102 102
-0.00959799531665961 -0.0356378262631241 -0.0165722857200871 -0.020071 -0.7150634 0.6987714 59 59 59
-0.0120464376501084 -0.0349877622391036 -0.0147046277730165 -0.04641395 -0.6480799 0.7601566 88 88 88
-0.00692235997208979 -0.0369726021014715 -0.0177783701725432 0.4526559 -0.5584704 0.6951356 101 101 101
-0.00530680411528195 -0.0357326003311972 -0.0163552283259653 0.532064 -0.8384701 0.1177953 76 76 76
-0.01238026662489 -0.0330780592247217 -0.013429302112726 -0.1822101 -0.6408312 0.7457445 92 92 92
-0.0144535280838176 -0.0308543243342578 -0.0126706744060792 -0.2062986 -0.529063 0.8231241 100 100 100
-0.00449610977694803 -0.0352693494924708 -0.00984710576133183 -0.2978907 -0.8812265 0.3670162 36 36 36
-0.00994825554820222 -0.031761334722161 -0.0122118481207146 -0.2761983 -0.6210027 0.7335327 97 97 97
-0.0120641125400671 -0.0312054868519243 -0.0124374075680923 -0.2496476 -0.5376183 0.8053836 104 104 104
-0.0144847491503985 -0.0287346255832228 -0.01123078455517 -0.2088613 -0.5505101 0.8082794 73 73 73
-0.00931348749648864 -0.0309385856336327 -0.0112264004678351 -0.2998449 -0.5101357 0.8061356 58 58 58
-0.00739021252371908 -0.0323109913946674 -0.010780370663699 -0.4295613 -0.5143746 0.7422236 79 79 79
-0.00479157102435668 -0.0331300028366573 -0.00920830941160572 -0.4114428 -0.7667879 0.4926977 33 33 33
-0.0436723899150144 -0.0244265541091848 -0.0227815708518247 -0.9103075 0.2036389 0.3603767 68 68 68
-0.0419611223615868 -0.0229501922995956 -0.0198096756523992 -0.9066818 0.2014073 0.3706255 71 71 71
-0.0415393511962328 -0.0240043234784535 -0.0177086447410042 -0.8775135 0.1376105 0.4593838 82 82 82
-0.0407367225409621 -0.0234347248620479 -0.0155421431721744 -0.8496575 0.1484116 0.5060198 61 61 61
-0.0396881929069677 -0.019497801247121 -0.0180728192568223 -0.8917596 0.1782454 0.4159248 87 87 87
-0.0396706048825166 -0.0186376417497456 -0.0171080623345146 -0.8988323 0.1954803 0.3922856 105 105 105
0.0293942190900864 0.00500800326958029 0.0160008159593996 0.07976096 -0.3132268 0.946323 130 130 130
-0.0388793335566864 -0.0204771271632924 -0.0144028305313944 -0.8692417 0.1623458 0.4669719 72 72 72
-0.0386512005249027 -0.0271331800265933 -0.0122180305093137 -0.4156357 -0.2074871 0.8855485 131 131 131
-0.0379171813508501 -0.0178972092744438 -0.0148464323876354 -0.8931283 0.1154832 0.4347245 84 84 84
-0.036461695930385 -0.0247676669099768 -0.0106552249985761 -0.2860388 -0.306872 0.9077507 106 106 106
-0.0337579222528608 -0.02615214224929 -0.0107828250320217 -0.07539715 -0.4582679 0.8856104 104 104 104
-0.0379781816647471 -0.0237012211367167 -0.0106331209731583 -0.470301 -0.1818548 0.8635658 138 138 138
-0.0305178415018053 -0.0261791324634849 -0.0108918529837796 -0.01084208 -0.4969624 0.8677043 121 121 121
-0.0280532690111501 -0.0282143856496183 -0.0122382351473248 -0.004010752 -0.5501202 0.8350759 86 86 86
-0.030789004590714 -0.022498137698419 -0.00908903646851975 -0.06178467 -0.4679158 0.8816107 65 65 65
-0.0375776458838386 -0.018457914451051 -0.013025796345021 -0.8984651 0.0253598 0.438312 108 108 108
-0.0359790540574143 -0.0224264226546811 -0.00998351499444777 -0.416189 -0.2723022 0.8675472 105 105 105
-0.0343711076899962 -0.0212845949491947 -0.00908289504294121 -0.2062335 -0.3744076 0.9040391 129 129 129
-0.0329373897592546 -0.0220200340010177 -0.00912967810251197 -0.1172705 -0.4414317 0.8895986 94 94 94
-0.0323323501439106 -0.0210541463860392 -0.00860402577443542 -0.1306614 -0.5083327 0.8511906 97 97 97
-0.0357322703719096 -0.0197136627992305 -0.0084687174734463 -0.5064346 -0.3876146 0.770246 175 175 175
-0.0329764714826344 -0.0193433728457129 -0.0077295943432989 -0.2725136 -0.5462276 0.792068 125 125 125
-0.032000816828877 -0.0220369473346123 -0.00943827159581667 -0.1065911 -0.4480386 0.8876372 100 100 100
-0.0305317158425287 -0.0210872055960583 -0.00835285602260102 -0.1265975 -0.5324764 0.8369241 79 79 79
-0.0290977427654333 -0.0222339742085393 -0.00915530674248491 -0.08651738 -0.5274687 0.8451577 101 101 101
-0.0383832005614071 -0.0161953510834241 -0.016115151072276 -0.9218706 0.131928 0.3643482 83 83 83
-0.0156932788087971 0.0395799966867987 0.0230436229966129 0.1312624 0.8379133 0.5297844 95 95 95
-0.037362409923944 -0.0127387450766236 -0.0141624340538708 -0.972975 0.07517412 0.2183314 93 93 93
-0.0372968608821291 -0.0106957906380036 -0.013609485169474 -0.9769113 0.03628545 0.2105415 99 99 99
-0.0369181519368134 -0.0107253081650474 -0.0124215415528076 -0.9719254 -0.001697434 0.2352832 92 92 92
-0.0369878456321735 -0.014807046916939 -0.0105977214880935 -0.9351086 -0.07872991 0.3455047 128 128 128
-0.0370760603809384 -0.0136525840376358 -0.0118841015866216 -0.9538738 -0.04726404 0.2964638 133 133 133
-0.0368646952770662 -0.0162651221731356 -0.00853733474317825 -0.8837402 -0.2174949 0.4143659 143 143 143
-0.0365855731882063 -0.0118356487431059 -0.00838547082565627 -0.9851226 -0.09977452 0.1399233 91 91 91
-0.00991111591610716 0.0354785971101694 0.0283305856761486 0.1248503 0.7853853 0.6062857 95 95 95
-0.0368641515206014 -0.00711325420003317 -0.00869519159161466 -0.9986256 0.02416105 0.04650879 62 62 62
-0.0248005617676599 -0.0252612451537982 -0.0103492399700049 -0.06723414 -0.5234239 0.8494157 95 95 95
-0.0227330958122294 -0.026932434434746 -0.0114037336093327 -0.07623116 -0.5475231 0.833311 100 100 100
-0.0227872097225692 -0.0248037180079421 -0.00989260068760037 -0.08911512 -0.5444012 0.8340778 86 86 86
-0.0187234256128885 -0.0265155849283936 -0.0105535970092036 -0.1056263 -0.5550333 0.8250946 95 95 95
-0.0186865296910708 -0.0254740203846703 -0.00989543491908995 -0.116918 -0.5718489 0.8119846 90 90 90
-0.02022950437813 -0.022879141924546 -0.00818171680475938 -0.1236179 -0.6167004 0.7774312 104 104 104
-0.0190025311723052 -0.0229025297038066 -0.00832398854026098 -0.1414299 -0.620643 0.7712327 58 58 58
-0.0167109449234224 -0.0232210359921097 -0.00791899544339084 -0.1574989 -0.6396307 0.752374 83 83 83
-0.0148958392485365 -0.0231956249869534 -0.00794677889514317 -0.2020343 -0.6278305 0.7516721 103 103 103
-0.0126818694243025 -0.0287155338201946 -0.0105686280134314 -0.2405071 -0.5382384 0.8077474 72 72 72
-0.0113207489726928 -0.0270119366192444 -0.00865828234643198 -0.2520963 -0.5498466 0.7963141 126 126 126
-0.0124623822842902 -0.0236513481905603 -0.00771586915326697 -0.2313952 -0.6209064 0.7489536 147 147 147
-0.0105377536540607 -0.0250642878280549 -0.00752227136205927 -0.2564457 -0.5793333 0.7736979 116 116 116
-0.00785346512365193 -0.0282956863687053 -0.00895474920946035 -0.3730625 -0.4945753 0.7849966 75 75 75
0.00948893219370639 0.0149283812944463 0.0228291842455708 0.1074221 -0.4187296 0.901735 217 217 217
-0.0270161441980941 -0.00726172579309736 0.00822577460870372 -0.08902851 -0.5853789 0.805857 79 79 79
-0.0367211013951065 -0.00511482335136049 -0.00936138656481453 -0.9962626 -0.01722748 0.08464146 67 67 67
-0.00660961305978702 -0.0234903878956063 -0.00464267937600912 -0.3814235 -0.5985349 0.7044658 81 81 81
0.0433994933820601 0.00689431141933805 0.0180200467549702 -0.1698174 -0.3689713 0.9137955 189 189 189
-0.0347482226765963 -0.0171074287222197 -0.00471979740030054 -0.3655961 -0.77004 0.5228556 130 130 130
-0.0291925424646893 -0.0200441382510825 -0.00718973648544408 -0.1398227 -0.6333464 0.761132 58 58 58
-0.0265845797663702 -0.0202621760156294 -0.00694795667253109 -0.1266227 -0.6618849 0.7388336 98 98 98
-0.0304046461743321 -0.0195360779301559 -0.00743429288902717 -0.1733741 -0.6012191 0.7800493 57 57 57
-0.0310269108621011 -0.0176023928222906 -0.00584528326452105 -0.1731719 -0.7964172 0.5794231 70 70 70
-0.0270931032133781 -0.0194162484204781 -0.005963097869743 -0.1596643 -0.7025649 0.6934766 99 99 99
-0.0266287218111199 -0.0181647091567563 -0.00470011744256302 -0.1470164 -0.7384634 0.6580714 100 100 100
-0.0283471926649685 -0.0173143083547296 -0.00424644617833211 -0.1180813 -0.8007134 0.5872945 106 106 106
-0.0263667617424441 -0.0172987978908457 -0.00375156722814513 -0.1057208 -0.7851709 0.6101883 108 108 108
-0.0323184176240878 -0.016066644081175 -0.00263644142269848 -0.189577 -0.8578006 0.4777433 93 93 93
-0.0299271889056856 -0.0154663776252184 -0.00175956858799872 -0.05852758 -0.8703442 0.4889535 49 49 49
-0.0362190488053815 -0.00853565493972597 -0.00681203915265075 -0.9979254 0.007537472 0.06393787 51 51 51
-0.0361914680238433 -0.00759561529817288 -0.00601434025307496 -0.9966444 -0.003605794 0.08177292 54 54 54
-0.0346443060101693 -0.0149098988406964 -0.00171680461653345 -0.3840827 -0.7676341 0.5130482 71 71 71
-0.0358278592057109 -0.0130930613626694 -0.000763154141212474 -0.5815536 -0.6467654 0.4934471 194 194 194
-0.0343704223304093 -0.0118809524242989 0.00243726907292652 -0.5230232 -0.6360816 0.5673155 117 117 117
-0.0341717272944484 -0.0121981985029489 0.00253475060185182 -0.3318495 -0.7188427 0.6108527 124 124 124
-0.0332436093306456 -0.0112153837704225 0.00383624197856647 -0.3046278 -0.686464 0.6602795 132 132 132
-0.0304006561290238 -0.0149000969833823 -0.000383086635671076 -0.05361557 -0.8599852 0.5074946 81 81 81
-0.0266445273006974 -0.0148852437844271 -0.000206126935375028 -0.001043871 -0.8264211 0.5630515 93 93 93
-0.0287831622011772 -0.0140363248005795 0.00140067622267148 0.0324808 -0.8274958 0.5605316 58 58 58
-0.0306524787761266 -0.0139526961792908 0.00162901299898516 -0.1040262 -0.8076683 0.5803882 84 84 84
-0.0309422193829061 -0.0133323748691294 0.00226392165495015 -0.1145396 -0.7841337 0.6099303 82 82 82
-0.0304480022224216 -0.0127867044165826 0.00311093657768491 -0.1062542 -0.7463495 0.6570179 105 105 105
-0.0288343734255325 -0.0123770478628684 0.00321940816085575 -0.002163984 -0.7466785 0.6651816 66 66 66
-0.0284263945694789 -0.0132586372617991 0.00205690820172477 0.04551102 -0.8022512 0.5952493 73 73 73
-0.03019608379299 -0.0113393643161732 0.00408897625925597 -0.09636161 -0.6927654 0.7146962 51 51 51
-0.0328692987971788 -0.0104118346809261 0.00483121732019076 -0.217428 -0.6453852 0.7322589 94 94 94
-0.0322941751291843 -0.00927112918075301 0.00560048050225537 -0.2030392 -0.6155097 0.7615266 99 99 99
-0.0340354513109702 -0.00848920315325863 0.00582711987109052 -0.2174187 -0.6015435 0.7686836 78 78 78
-0.0324131566036345 -0.00629386930382592 0.00770785481726111 -0.1512807 -0.5317538 0.8332779 87 87 87
-0.0308638738818261 -0.00911467121323439 0.00613596017858803 -0.1403569 -0.6024606 0.7857106 36 36 36
-0.0265372601012555 -0.0103243850505603 0.00557768214978321 0.01963116 -0.7218502 0.6917709 91 91 91
-0.0283370320528973 -0.00933452438299121 0.00635224250975303 -0.0688128 -0.641586 0.7639582 94 94 94
-0.0263456652234315 -0.00888094836050657 0.00712576288041472 -0.02284734 -0.6626227 0.7486048 109 109 109
-0.0267167217334685 -0.00471798307276039 0.00969869373819165 -0.1310437 -0.5268569 0.8397912 225 225 225
-0.0251088761520064 -0.0203825155259607 -0.00683452572761309 -0.1230804 -0.6961303 0.7072862 87 87 87
-0.0224308867152319 -0.0206383895664779 -0.00689892066108211 -0.1135722 -0.6688085 0.7347085 61 61 61
-0.0242526301459605 -0.0186182897308307 -0.00482380818277794 -0.09641442 -0.7315874 0.6748956 117 117 117
-0.0223277496097749 -0.0192839185538785 -0.00533927309280857 -0.1062612 -0.7046767 0.7015263 112 112 112
-0.0206906247405456 -0.0183974243288116 -0.00430916389252758 -0.1264627 -0.7400617 0.6605421 60 60 60
-0.0189239849295095 -0.0210800236203024 -0.00638384522155075 -0.1668108 -0.6769856 0.7168436 68 68 68
-0.0168262219713555 -0.0222706198692009 -0.00681426678186908 -0.1621648 -0.6604242 0.7331729 94 94 94
-0.0170308460814228 -0.0201445255703543 -0.0048974568790737 -0.1883192 -0.6864648 0.7023546 99 99 99
-0.0189878968578472 -0.0197331491787776 -0.00539499479759303 -0.1762827 -0.6847503 0.7071361 65 65 65
-0.020197540892263 -0.016698060868066 -0.00222040158440484 -0.1218735 -0.779404 0.6145537 81 81 81
-0.0159642296684654 -0.0184393366748175 -0.00289532146760418 -0.1578048 -0.7166505 0.6793451 73 73 73
-0.0167936277664702 -0.017411185673436 -0.00219646087366451 -0.1516494 -0.7501392 0.6436564 97 97 97
-0.0102167754062119 -0.0243451631813045 -0.0070077093740526 -0.24399 -0.5906255 0.7691752 100 100 100
-0.00428622910536358 -0.0268720415952896 -0.00639643087576469 -0.5621889 -0.4504975 0.6935385 57 57 57
-0.00651427506951974 -0.0249047623056288 -0.00598497299585118 -0.3429808 -0.5550024 0.7578499 79 79 79
-0.00799038517640982 -0.0236238263806361 -0.00551042336604568 -0.3042578 -0.5727768 0.761153 95 95 95
-0.00391826603033785 -0.0255679942017752 -0.00521801416904349 -0.5834066 -0.486218 0.6505604 98 98 98
-0.00538318514052882 -0.0230550916386894 -0.00473070337360734 -0.3961649 -0.5932967 0.7007514 114 114 114
-0.0147174504908718 -0.0221027972617907 -0.00604296334452242 -0.1976405 -0.6776088 0.7083675 47 47 47
-0.0129379726113825 -0.0218500851133456 -0.00583708922941076 -0.1951837 -0.6732262 0.7132109 94 94 94
-0.0126911097106372 -0.0203156582592319 -0.00383107838706925 -0.1661852 -0.6755981 0.7182964 71 71 71
-0.00902159628669086 -0.020849043702015 -0.00368153231626403 -0.2473293 -0.630096 0.7360756 94 94 94
-0.01409579742336 -0.0177751337538608 -0.0019085014223682 -0.1000876 -0.7198894 0.6868346 56 56 56
-0.0106255461545537 -0.0189956154371969 -0.00246972970491657 -0.1739987 -0.6689964 0.7226121 77 77 77
-0.00800851139427028 -0.0202093850408007 -0.00281192308151157 -0.3134686 -0.6278636 0.7124076 35 35 35
-0.00507278118544541 -0.0222112542114885 -0.00275371567918811 -0.5353987 -0.5705459 0.6227564 48 48 48
-0.0118020464006494 -0.0172705006584288 -0.00158226769280714 -0.1413275 -0.6867428 0.7130293 48 48 48
-0.0114871574544906 -0.0172712630842913 -0.00139888636262306 -0.1440369 -0.6949698 0.7044646 44 44 44
-0.00741113255273618 -0.0181500916229547 -0.000921398962428849 -0.3526722 -0.6375183 0.6849764 54 54 54
-0.00796246450239879 -0.0171506796259704 0.000277452453121274 -0.3073217 -0.6737943 0.6719782 76 76 76
-0.00436345146546291 -0.0186942512637425 0.00197406406052081 -0.5615155 -0.5564561 0.6124189 28 28 28
-0.00308394688263069 -0.0197152065531081 0.0027644457404693 -0.5756299 -0.5149765 0.6351767 74 74 74
-0.0178746550347717 -0.0167562954583198 -0.00169661411407615 -0.154526 -0.7643067 0.6260647 82 82 82
-0.0253411765795555 -0.0154743540607649 -0.00154161570096845 -0.05418794 -0.8073859 0.5875301 71 71 71
-0.0248024890124454 -0.0151311110149575 -0.000576929637256668 -0.04493525 -0.7975163 0.6016216 66 66 66
-0.023992040653571 -0.0158010618084343 -0.00116345713238217 -0.07616525 -0.7924002 0.6052279 133 133 133
-0.0219265483804549 -0.0153353085912009 -0.000627444427370505 -0.09440381 -0.7854469 0.6116871 127 127 127
-0.020381866231785 -0.0151752939574903 -0.000135546922099883 -0.1236987 -0.7756999 0.6188605 87 87 87
-0.0226422023610513 -0.0141204492142248 0.00115405454424639 -0.08409084 -0.7658108 0.6375442 58 58 58
-0.0205333522207263 -0.0142811885823477 0.000996777393557025 -0.1389203 -0.7561253 0.6395121 86 86 86
-0.0248087930216618 -0.010605655187548 0.00507662737391468 0.03282759 -0.733669 0.6787136 57 57 57
-0.024207192062299 -0.0128395577777138 0.00190934755744432 0.01272416 -0.7832603 0.6215637 84 84 84
-0.02418156900174 -0.0115147319669382 0.00348503710468534 0.01992448 -0.7550179 0.6554014 71 71 71
-0.020587326589216 -0.0122645396718077 0.00321804623283611 -0.1384803 -0.7377766 0.6606882 52 52 52
-0.0181994178631339 -0.0160736824095258 -0.000569580604781073 -0.1407087 -0.7713548 0.6206552 121 121 121
-0.0183595613328325 -0.0154536442040014 0.000107825792127647 -0.1420196 -0.7750102 0.6157838 79 79 79
-0.0182459391426897 -0.0148996933777832 0.000856377757739224 -0.1167642 -0.7696574 0.6276891 82 82 82
-0.0170079516357058 -0.0154418880631557 0.000227769214840523 -0.1163834 -0.7703061 0.6269637 105 105 105
-0.0165053364289633 -0.0149257809645893 0.00125510238926901 -0.08845373 -0.7713821 0.6301949 71 71 71
-0.0145725597487472 -0.0148275399479691 0.00143626194560287 -0.03616675 -0.7758443 0.6298869 64 64 64
-0.0203703143582468 -0.01302971280071 0.00225355786680964 -0.1409819 -0.74513 0.6518477 65 65 65
-0.01076035621589 -0.0157110118711619 0.000478680419561645 -0.1649229 -0.7135469 0.6809194 32 32 32
-0.0108013507008247 -0.0147522675067362 0.00137883208998729 -0.1609049 -0.7250592 0.6696259 54 54 54
-0.013057384583024 -0.0128621250919303 0.00370347090058748 -0.009097616 -0.7400197 0.6725236 73 73 73
-0.0101156170978878 -0.0134716009126041 0.00235895319394702 -0.1559408 -0.7040973 0.6927695 116 116 116
-0.00481866658652175 -0.0160584036038123 0.00297368175495871 -0.5124235 -0.564225 0.647358 103 103 103
-0.00428093602104074 -0.0156377489980772 0.0041687202669114 -0.5306216 -0.551395 0.6437423 49 49 49
-0.0204790936433263 -0.0108340302791365 0.00499492883414121 -0.1214636 -0.7041609 0.6995742 66 66 66
-0.0228401092202484 -0.00856422604713969 0.00691070680032091 0.002671116 -0.6955729 0.7184506 93 93 93
-0.0208512718461051 -0.00925443202839804 0.00589138782504978 -0.06292871 -0.6967398 0.7145583 27 27 27
-0.0209567477456765 -0.0071895057887903 0.00803985511599209 -0.02026927 -0.657714 0.752995 202 202 202
-0.0221608122908368 -0.00645015088517109 0.00898176032242298 -0.008693204 -0.6191359 0.7852358 232 232 232
-0.0222985060831298 -0.00508867878873343 0.00997581485891552 -0.04424108 -0.5917029 0.8049412 226 226 226
-0.0190975131848341 -0.0102316075422035 0.00553816589853107 -0.1337602 -0.6759288 0.7247264 131 131 131
-0.016584050331069 -0.00841829333140498 0.00764726351721978 -0.09047642 -0.6074877 0.7891595 159 159 159
-0.0184998329100154 -0.0062803995731906 0.00918783081763092 -0.05792827 -0.6230401 0.7800419 226 226 226
-0.014485394374431 -0.0068338771877019 0.00929139709565846 -0.1466 -0.6331412 0.7600268 216 216 216
-0.0165315481808874 -0.0048506133456947 0.0101060332143747 -0.1107683 -0.6260802 0.771851 230 230 230
-0.0211036788593608 -0.00481058909287624 0.0101885931819211 -0.03210014 -0.6017998 0.7980016 230 230 230
-0.0130061921158617 -0.0111671250552527 0.00547531634144821 -0.00642318 -0.7138337 0.7002857 72 72 72
-0.0110165927964823 -0.0117506849051714 0.00452199144208915 -0.0673526 -0.713187 0.6977305 93 93 93
-0.00858930617070719 -0.0110178076540313 0.00570425983600159 -0.1886909 -0.6757149 0.7126045 65 65 65
-0.00399209774161768 -0.0145646825669727 0.00500012303377761 -0.498063 -0.5271997 0.688472 32 32 32
-0.00643714391410599 -0.0122075951579472 0.00544379449673854 -0.3249825 -0.6206999 0.7135251 66 66 66
-0.0044677232060697 -0.0131773974487812 0.00580867300809784 -0.4618402 -0.5486195 0.6969364 32 32 32
-0.00422774462760911 -0.0106588046779612 0.00785790869383995 -0.4369638 -0.5835649 0.6844813 82 82 82
-0.0107914183721696 -0.0106719856511854 0.00544806398340458 -0.05894002 -0.6997187 0.711983 75 75 75
-0.0103965527826801 -0.00964533006122537 0.00647970147922072 -0.07803671 -0.7205569 0.6889906 50 50 50
-0.0105087597443574 -0.0086354295033888 0.00787783974700063 -0.08140595 -0.7263458 0.6824917 61 61 61
-0.00846001209406078 -0.0088062436661891 0.007937848033783 -0.1463221 -0.7243026 0.6737771 96 96 96
-0.0142133999835341 -0.00793279023937177 0.00867966838280987 -0.1013133 -0.6487547 0.7542235 211 211 211
-0.0110967394003891 -0.0081532785224594 0.0086182010132082 -0.10176 -0.7123304 0.694428 73 73 73
-0.0111599159653801 -0.00704890859808982 0.0097061779491554 -0.1529445 -0.702282 0.6952755 177 177 177
-0.00678659776128088 -0.0103270144429866 0.00712331662374027 -0.2679534 -0.6429677 0.7174911 51 51 51
-0.00612248187762754 -0.00825094671587157 0.009157256145577 -0.2372576 -0.7335678 0.6368573 167 167 167
-0.00789078027287271 -0.00781556832044372 0.00954233036821334 -0.1571242 -0.7486568 0.644069 44 44 44
-0.00698556187655264 -0.00748185280325697 0.00988290784077855 -0.208234 -0.7459711 0.6325865 56 56 56
-0.012410022835188 -0.00491243712280576 0.0113673453929995 -0.2484536 -0.6749957 0.6947314 224 224 224
-0.0117196486478361 -0.00593987898175552 0.0106996330883742 -0.1969754 -0.6936461 0.6928606 206 206 206
-0.010651071504717 -0.00523176699872585 0.011909062373296 -0.211978 -0.6955776 0.6864672 185 185 185
-0.00860146335946421 -0.00654523766763293 0.0112663971565765 -0.1548734 -0.7368208 0.6581104 118 118 118
-0.0105156654788252 -0.00468210181781537 0.0129866580589876 -0.2279904 -0.6760322 0.7007145 130 130 130
0.0472854558039155 0.00815767675207124 0.0187076617491122 -0.1677945 -0.3967285 0.9024697 62 62 62
0.017927928220741 0.03709669424717 0.0189275032541308 0.1316097 0.8381207 0.52937 72 72 72
0.048416953915531 0.0298784040991009 0.0234051459054367 0.130566 0.7937937 0.5940069 53 53 53
0.00426307180242969 -0.0202642671659554 0.00813729178275058 -0.3890563 -0.5781434 0.7172067 91 91 91
0.0361406740039736 -0.00610984170472184 0.0169652761827433 -0.2747281 -0.1574161 0.9485487 86 86 86
-0.00218531229206453 0.0211682025135449 0.0274376801271927 0.3054458 -0.3586464 0.882086 84 84 84
0.0584813015612755 0.0280673031257825 0.0226134279812107 0.6393228 0.3908263 0.6622093 126 126 126
0.044771262921818 -0.00304665943715854 0.0164244923729291 -0.1785454 0.1307953 0.9751995 52 52 52
0.0215541997394171 0.0248493484510013 0.0270498827227198 0.04094911 -0.4276334 0.9030243 93 93 93
0.018145606914024 -0.0179032978701601 0.00823112581682711 0.5623248 -0.7548932 0.3375308 109 109 109
0.021262791951989 0.0233322467223862 0.0264182292152535 0.05032659 -0.4454406 0.8938959 99 99 99
0.00646448435563718 0.0381596972653191 0.0198951866773724 0.1185463 0.8389859 0.5310833 80 80 80
0.0364726413490208 0.0303551721020587 0.0254252545971567 0.1307671 0.6911601 0.7107726 100 100 100
-0.024678589871149 0.0188593603722369 0.0239097879677258 -0.08915093 -0.4968742 0.8632312 219 219 219
0.00159910288536347 0.0312889893655317 0.0303587858430175 0.1375759 0.2566684 0.9566578 133 133 133
0.0532289914196262 0.031950189487105 0.0185260417655001 0.1285499 0.8381112 0.5301363 85 85 85
-0.00297627170976877 -0.0229514504212649 -0.000463779231569345 -0.614263 -0.5522614 0.5636384 19 19 19
-0.00820547775463831 0.0348178173063811 0.0288153151906289 0.129088 0.7828578 0.6086624 91 91 91
-0.0362508028964044 -0.00186610275492693 -0.00674651028021223 -0.9881824 -0.106603 0.1101425 78 78 78
-0.0357782073768531 -0.00256094375581184 -0.00299374873860703 -0.9970622 -0.05857457 0.04935533 69 69 69
-0.0362755752610888 -0.000840340809838747 -0.00442276827655941 -0.9901169 -0.110433 0.08644708 61 61 61
-0.03698135089377 0.00130954569933395 -0.00662636556957877 -0.9808699 -0.1508849 0.1229953 65 65 65
-0.0372067863575953 0.00196052850487316 -0.0057352995811171 -0.9811876 -0.1576868 0.111381 86 86 86
-0.0356932510400538 -0.00210914261233697 -0.000748123007317747 -0.9983788 -0.05266539 0.02158985 70 70 70
-0.0361894685833959 -0.000135259816020916 -0.000673156720423479 -0.990586 -0.1297145 0.04374251 55 55 55
-0.0361501446545911 1.61832678737817E-05 0.000273864595650652 -0.9888941 -0.1448612 0.03322224 87 87 87
-0.0365296149182321 0.00334742799615406 -0.000826380004883331 -0.9896411 -0.1324057 0.05549176 60 60 60
-0.0367969161733024 0.0019523336424403 -0.000646267239022447 -0.9882527 -0.1426833 0.05475445 46 46 46
-0.0373753028658146 0.00402759959351173 0.00132492041166421 -0.99332 -0.1102786 0.0339704 88 88 88
-0.0367258536198083 0.00536014474118995 0.00129210532499463 -0.9943439 -0.09718405 0.04284331 55 55 55
-0.0375503172634279 0.0067973104407737 -0.000735914865001241 -0.998763 -0.03065711 0.03914928 65 65 65
-0.0368866222091238 0.00744970937745681 0.000881066210511122 -0.999534 -0.02008882 0.02298268 56 56 56
-0.0374539984764852 0.00721740202295251 0.00098297629687627 -0.9984949 -0.03732916 0.04018204 70 70 70
-0.0376272254631536 0.00904260255351064 0.000965149085227518 -0.9989927 0.04122309 0.0177233 41 41 41
-0.0366125425494892 0.00945198143632053 0.00184777506138623 -0.9974796 0.06695716 0.02347766 46 46 46
-0.037510942800711 0.010980630912456 0.000706640654599966 -0.9962252 0.08028487 0.03301142 33 33 33
-0.0373001420323673 0.0107783903671044 0.00224880495916829 -0.9926939 0.1079537 0.05389589 64 64 64
-0.0368659640478963 0.011292019969922 0.00298480984755634 -0.9898666 0.1297433 0.05771375 56 56 56
-0.0366617159820533 0.0132789544407268 0.000899877798044429 -0.9857795 0.1448826 0.08513439 53 53 53
-0.0365456848946488 0.0133463455379716 0.00227840747526903 -0.9819198 0.1753561 0.07130099 66 66 66
-0.0364131467775834 -0.000551308466949507 0.00389795435867002 -0.9577965 -0.2760847 0.08001988 82 82 82
-0.0354983613958861 -0.00354818780563493 0.00906524990437296 -0.6894663 -0.4360285 0.5783731 114 114 114
-0.0368034724017314 0.00173796781675684 0.00530190222731974 -0.9797003 -0.187354 0.07131543 43 43 43
-0.0374262609324507 0.00640593945738854 0.0055327701798869 -0.9993672 0.008817697 0.03445788 45 45 45
-0.0360999082858071 -3.52882561693857E-05 0.0104915614886172 -0.5916492 -0.4285737 0.6828439 208 208 208
-0.0343509568335283 -0.00141911821355767 0.0101452853956245 -0.3026298 -0.4617355 0.8337958 124 124 124
-0.0344822981124273 -4.36164158237329E-05 0.0107383246923717 -0.3598291 -0.416923 0.8346845 127 127 127
-0.0323671667644287 -0.000148923596828832 0.0110854724035927 -0.2600558 -0.4667026 0.8453163 217 217 217
-0.0282118263661091 -0.00412204042476461 0.00986849667573642 -0.1547917 -0.4956147 0.8546377 198 198 198
-0.0307691306395981 -0.00286595763345665 0.0100861288067154 -0.1483294 -0.4776883 0.865917 216 216 216
-0.0286603809488888 -0.00277895926970562 0.01053861672885 -0.1744512 -0.4776759 0.8610415 218 218 218
-0.0281545490840873 0.00034948525265821 0.0123120124623116 -0.1645971 -0.4623995 0.8712603 207 207 207
-0.0266454803936633 8.59286844385743E-05 0.0125321671096318 -0.1609057 -0.4619253 0.8722008 203 203 203
-0.0342792061577075 0.00346272132026559 0.012802238694926 -0.2776926 -0.5549065 0.7841974 217 217 217
-0.0348562909152159 0.00541893850582342 0.0139787447489878 -0.2453977 -0.5632277 0.7890213 223 223 223
-0.035649209734284 0.00659218740829037 0.0150370240646698 -0.2029297 -0.5298393 0.8234621 217 217 217
-0.0344417973709019 0.00565630175727283 0.0144364958146749 -0.1382054 -0.5534592 0.8213295 226 226 226
-0.0334004072275369 0.00501016123068454 0.0140427261648932 -0.1348538 -0.5463746 0.8266131 222 222 222
-0.0301929152652209 0.00165382356827259 0.0125623879447195 -0.1575487 -0.4911964 0.8566823 222 222 222
-0.0265434361364956 0.00128940053088855 0.0129341298712633 -0.1636408 -0.476649 0.8637288 193 193 193
-0.028226525604965 0.00364099468163004 0.013873007276122 -0.1503433 -0.524892 0.8377859 148 148 148
-0.0267054700504366 0.00401129865027983 0.0146790459335971 -0.1631278 -0.535521 0.8286173 196 196 196
-0.0304886275925833 0.00587951058208747 0.015113561855316 -0.149096 -0.5517714 0.82056 217 217 217
-0.0264507183239799 0.00504539791903036 0.0154801737870086 -0.1611978 -0.5595749 0.8129522 159 159 159
-0.0370236608371068 0.00858683779786307 0.0038258276753767 -0.9960616 0.07797807 0.04219964 36 36 36
-0.0375539690130142 0.0075961290385731 0.00498006668594531 -0.9964639 0.0668338 0.05092095 39 39 39
-0.036716978842271 0.0112336427245103 0.00483366654574324 -0.9811304 0.174993 0.08222293 60 60 60
-0.0372846157110094 0.00755115596240907 0.0065086933780753 -0.9957789 0.06360923 0.06616938 54 54 54
-0.0366467013679204 0.01303112781042 0.00491247370255277 -0.9824845 0.1683442 0.07990331 47 47 47
-0.036133268779571 0.0153700932370164 0.00459750777225615 -0.9846883 0.1665343 0.05152817 62 62 62
-0.0349477877995432 0.0179311029613853 0.00716218698636062 -0.9947853 0.08276031 -0.05960677 61 61 61
-0.032537955834675 0.00715945363532011 0.0154422467308822 -0.1255499 -0.5568172 0.8210919 230 230 230
-0.0357457044151208 0.0178181880865127 0.0105481194019371 -0.9874857 0.05072789 -0.1493272 75 75 75
-0.0249377081354973 -0.00378613518272863 0.0107366914299084 -0.1031285 -0.5308256 0.8411829 221 221 221
-0.0232674455917041 -0.00380274812927994 0.0109764808318772 -0.0685989 -0.5581937 0.82687 236 236 236
-0.0205826977354651 -0.00406555933535535 0.0107766647258308 -0.03270351 -0.5839562 0.8111262 232 232 232
-0.0202427003235219 -0.00262817252125802 0.0116134930362086 -0.06366176 -0.5511079 0.832002 155 155 155
-0.021757083908422 -0.0013568529917225 0.0123478530269369 -0.09470996 -0.4979386 0.862025 142 142 142
-0.0245155614796806 -6.11551677789368E-05 0.0128457267711322 -0.1401451 -0.4664386 0.873381 124 124 124
-0.022451919503808 -0.000757184693755963 0.0128341953417784 -0.1133322 -0.4790093 0.8704631 128 128 128
-0.0204050648899834 -0.000136904417629591 0.0132870306575756 -0.1278154 -0.4968305 0.8583838 35 35 35
-0.0156294622455788 -0.00419867375876426 0.0105476589690688 -0.1614899 -0.627872 0.7613789 230 230 230
-0.0167562124397533 -0.00329884436807037 0.0114610696603033 -0.13732 -0.6247518 0.7686536 120 120 120
-0.0146958672087307 -0.00332076309492857 0.0118962074314418 -0.2374295 -0.6537544 0.7184932 99 99 99
-0.0204471158720141 -0.00144140275164806 0.0123146581626739 -0.1027074 -0.5085486 0.8548856 108 108 108
-0.0203234246508703 0.00123429284274601 0.0138387897628562 -0.1557288 -0.5137998 0.8436577 45 45 45
-0.0148471394491705 -0.000690005563327434 0.0140495982054253 -0.3003917 -0.6170795 0.7273085 41 41 41
-0.0246559337837238 0.00298779952102057 0.0140426755247328 -0.1424979 -0.5178928 0.8434935 95 95 95
-0.0228145753437636 0.00235564199877825 0.0145355472860658 -0.1371878 -0.5136191 0.8469799 76 76 76
-0.0225760524618854 0.00372424224503698 0.0150563346988821 -0.1582903 -0.5481726 0.8212496 74 74 74
-0.018481678397039 0.00185048399753684 0.0145792061261263 -0.2355911 -0.5415897 0.8069556 68 68 68
-0.0165822032387459 0.00168577972534023 0.0153116193163521 -0.2927731 -0.5716175 0.7665098 58 58 58
-0.0134634702491954 -0.0034532921898367 0.0120892465226602 -0.2458549 -0.6588998 0.7109194 157 157 157
-0.0129161931166979 -0.00161500665418779 0.0142318347859737 -0.2777601 -0.6380372 0.7181628 66 66 66
-0.0123976109790416 -0.00067477344272282 0.0155142889310152 -0.26698 -0.625157 0.7334169 79 79 79
-0.0137994488277982 -0.000139623073908801 0.0152728768531777 -0.3139984 -0.6024296 0.7338144 45 45 45
-0.00815384760753712 -0.00453641082056278 0.0134014245707105 -0.1817773 -0.6966923 0.6939573 80 80 80
-0.00789771165896225 -0.00248707960582317 0.0149925430410586 -0.1884935 -0.6534323 0.7331415 70 70 70
-0.00638577665832152 -0.00341036940057604 0.0144360141581072 -0.2209857 -0.6510857 0.7261217 48 48 48
-0.00646947427576494 -0.0026763602763864 0.0152649848351085 -0.2235215 -0.639713 0.7353947 52 52 52
-0.00434238024694533 -0.0043357069812251 0.0146869462321472 -0.3114414 -0.6424578 0.7001801 73 73 73
-0.00477827722069124 -0.00262927156280579 0.0158067205726587 -0.2914025 -0.615499 0.7322879 65 65 65
-0.0359496933263559 0.0194437860084553 0.0102924021740766 -0.987293 0.04409884 -0.152669 56 56 56
-0.0359423524855882 0.023878143385536 0.0105324116326201 -0.9795784 0.05655058 -0.1929463 47 47 47
-0.0360216532826154 0.0229773144788705 0.0133048231383244 -0.982002 0.04026868 -0.1845278 40 40 40
-0.0369036395199407 0.0213214103568569 0.0136427114293694 -0.994051 -0.05236184 -0.09550269 51 51 51
-0.0358307236959203 0.024898379556419 0.00947599055888348 -0.9773563 0.07094954 -0.1993509 66 66 66
-0.0363844631295218 0.0261122419913191 0.012637568893571 -0.9784926 0.05335968 -0.1992609 46 46 46
-0.0368609987132062 0.025652389665147 0.0149094591068441 -0.976697 0.06085549 -0.2058143 43 43 43
-0.0356841418272413 0.0293094269754026 0.0128517477261016 -0.9664555 0.08742443 -0.2414969 63 63 63
-0.0354022650734729 0.0313698108603173 0.0128184813849528 -0.9667134 0.09137574 -0.2389888 63 63 63
-0.0359262128393674 0.00782812385884002 0.0157367556841503 -0.1911112 -0.5421365 0.8182692 153 153 153
-0.0337651138064419 0.00818188831830646 0.0163960434177921 -0.1825845 -0.5351442 0.8247931 222 222 222
-0.0345229781702194 0.0101925380604788 0.0175426400216441 -0.1762109 -0.5419802 0.8217099 221 221 221
-0.0359935077931999 0.0122168299736007 0.0185310553376105 -0.3699456 -0.4560263 0.809432 153 153 153
-0.0323671679728079 0.011568322653734 0.0185694316195603 -0.08827961 -0.5419886 0.8357363 228 228 228
-0.0304260591554741 0.00911740769953018 0.0175671021364566 -0.1172277 -0.5226841 0.8444282 186 186 186
-0.0287552625158813 0.00795004449840908 0.0169588038923639 -0.1575778 -0.5278984 0.8345613 176 176 176
-0.0288723984082471 0.00693049866236461 0.0159447538923002 -0.152715 -0.5451473 0.8243133 169 169 169
-0.028994166229916 0.00920636953575982 0.0176373872346919 -0.1472365 -0.5005634 0.8530872 204 204 204
-0.0269661321815602 0.00865234092890521 0.0175578403218734 -0.1492513 -0.4845053 0.8619621 114 114 114
-0.0263499010062493 0.011738657602681 0.0192976799901572 -0.1054608 -0.4662974 0.8783193 87 87 87
-0.0361552788779282 0.0132749879150662 0.0191613365978416 -0.5113428 -0.3629177 0.778986 143 143 143
-0.0343037704804399 0.0131636031561053 0.0196030102112991 -0.1724213 -0.5304804 0.8299767 219 219 219
-0.0343108235683234 0.0139367371498706 0.0203909981618763 -0.2045543 -0.5056945 0.8381113 201 201 201
-0.0325370809419279 0.0133066877618873 0.0196646292131135 -0.08656058 -0.5359889 0.8397757 226 226 226
-0.0321860610048934 0.0145119235226812 0.0206694336822817 -0.08673368 -0.52032 0.8495554 225 225 225
-0.0278793643976356 0.0131101424193392 0.0198129519044469 -0.06557322 -0.5080034 0.8588555 188 188 188
-0.0261361949619512 0.0129664271932455 0.0198136618273587 -0.0939747 -0.4843423 0.8698168 118 118 118
-0.0337687735000727 0.0168508088725725 0.0214752349010091 -0.1619186 -0.4534585 0.8764461 94 94 94
-0.0318461620443449 0.0164184880500351 0.022040639100281 -0.1497159 -0.4643575 0.8729016 226 226 226
-0.0320316370335818 0.0180255061684553 0.0226895195797404 -0.1772717 -0.4356872 0.8824689 172 172 172
-0.0303927296389803 0.015689967772256 0.021465971085514 -0.06411804 -0.5277007 0.847007 218 218 218
-0.0284365644318747 0.0153498005735699 0.0212829555231117 -0.04417374 -0.5492778 0.8344715 146 146 146
-0.0282734062244638 0.0179686801193639 0.0230824674821276 -0.07425402 -0.5135252 0.8548557 225 225 225
-0.0250047302942669 0.00510483046892651 0.0156186858363929 -0.1562462 -0.5587251 0.8145019 71 71 71
-0.0242363921730591 0.00581895854602221 0.0166974762847735 -0.1598995 -0.5539417 0.8170561 69 69 69
-0.0224423423487221 0.00557439224625433 0.0166528822538549 -0.1961174 -0.5596617 0.8051812 39 39 39
-0.0161140144054666 0.00345538422281377 0.0170840357350256 -0.2957146 -0.5695122 0.7669477 32 32 32
-0.014414400990491 0.00220409848046166 0.017047013299183 -0.3226523 -0.5635152 0.7604907 30 30 30
-0.0160761199445298 0.00495310968788876 0.0179806983704257 -0.2626596 -0.5115123 0.8181474 34 34 34
-0.0180111981138569 0.00600331571319601 0.0185120416906224 -0.245552 -0.5033077 0.8284839 40 40 40
-0.0143518635687601 0.00552917037898681 0.0190285049037721 -0.2430377 -0.4489022 0.8598951 43 43 43
-0.0161770371937484 0.00560545878193608 0.018666073186714 -0.2496676 -0.4855694 0.8377878 43 43 43
-0.0110640798410833 0.000358303820365613 0.0172866859446778 -0.2317807 -0.6106756 0.7572008 48 48 48
-0.00637688134226178 -0.00132664279832784 0.01644942462263 -0.2036609 -0.6386221 0.7420809 53 53 53
-0.00469066620567693 -0.000721213221435368 0.0175274774119336 -0.2551418 -0.5953761 0.7618595 71 71 71
0.0314702963523614 0.0047924839364426 0.015775154896952 0.006645266 -0.3398443 0.9404582 158 158 158
-0.00238151784768537 -0.0024191919518608 0.0169351792169706 -0.277592 -0.5830302 0.7635565 80 80 80
-0.00595991440973487 0.000486865312826046 0.0179359174397551 -0.1982262 -0.6034472 0.7723715 49 49 49
-0.00526205300835425 0.000530188446670632 0.0183250200632356 -0.2296162 -0.5817547 0.7802806 80 80 80
-0.0102759170225899 0.00354644905774015 0.018858964286088 -0.204064 -0.4749947 0.8560011 68 68 68
-0.00897695724748182 0.00198486047153246 0.0187446253805149 -0.1946816 -0.5211121 0.8309881 82 82 82
-0.0128218076676738 0.00524392747925573 0.0192160268869614 -0.2309206 -0.4421912 0.8666849 80 80 80
-0.00851076579321353 0.00353931625270243 0.0193447624505767 -0.2012407 -0.471043 0.8588485 67 67 67
-0.00675422573817253 0.00167443442856507 0.0187227180271377 -0.2053579 -0.5208948 0.8285509 65 65 65
-0.0064407859580875 0.00345727720247591 0.0197367206668454 -0.2181364 -0.4955786 0.8407249 45 45 45
-0.0023686928461335 0.00156461132255736 0.0201086029189846 -0.1455682 -0.4971717 0.8553538 94 94 94
-0.00632198171565967 0.00542496007619198 0.020917240413533 -0.2578402 -0.4630173 0.8480173 48 48 48
-0.0207480206394921 0.00717742583344161 0.017769026393659 -0.2187782 -0.5077995 0.8332321 82 82 82
-0.0238554012530665 0.00853777932801769 0.0183985960900969 -0.1828296 -0.4619206 0.8678725 43 43 43
-0.0202329721462147 0.00733171955821277 0.0185729130393388 -0.2086378 -0.4975781 0.8419538 69 69 69
-0.0206424700199745 0.00956514800658259 0.0194736358838515 -0.2193157 -0.4352863 0.8731703 48 48 48
-0.0244895735016111 0.00999284609521633 0.0188731766807897 -0.1686191 -0.4397846 0.8821321 54 54 54
-0.02277895127291 0.0117398031893554 0.0199041042645379 -0.208952 -0.4233926 0.8815202 44 44 44
-0.0217962158027953 0.011890399702255 0.0203162781282858 -0.2079286 -0.4175176 0.8845591 36 36 36
-0.0209705536994882 0.0114382342205412 0.0200293507226948 -0.2205811 -0.4250755 0.8778694 46 46 46
-0.0187112578924378 0.00718657283056578 0.0190252072768796 -0.2217695 -0.4898686 0.8431175 48 48 48
-0.0187239906321941 0.00919425351764702 0.0197938517525597 -0.1994784 -0.4393854 0.8758703 94 94 94
-0.0166086875789104 0.00742449298789016 0.0193532179297471 -0.2275488 -0.4559328 0.8604341 53 53 53
-0.0147675302685295 0.00769028881781897 0.0199912032272447 -0.2135097 -0.4311432 0.876658 72 72 72
-0.0183253638531706 0.0101402093110385 0.020280267715979 -0.2106246 -0.4121059 0.886457 99 99 99
-0.0183022534946042 0.0114316927681206 0.021015382842887 -0.1959691 -0.4127131 0.8895302 55 55 55
-0.0152708595045499 0.00945695653342327 0.0202149841795344 -0.2046054 -0.4126685 0.8876043 46 46 46
-0.0228654578986629 0.012938156625804 0.0200032785316984 -0.1796945 -0.4508148 0.8743431 66 66 66
-0.0223926022976642 0.0134814774087642 0.02069086921966 -0.1892494 -0.4656084 0.8645192 67 67 67
-0.0223373261055926 0.0151074266708433 0.0216653151937393 -0.1663842 -0.5011046 0.8492411 163 163 163
-0.0224845156046873 0.0160461223841211 0.0222581900104206 -0.1352352 -0.5233887 0.8412941 80 80 80
-0.0204705379449965 0.0155404000190194 0.0225657036458453 -0.1768089 -0.484625 0.8566664 131 131 131
-0.0224321472932818 0.0177756246267005 0.0234493467690873 -0.1121687 -0.5275762 0.8420698 191 191 191
-0.0200561744158216 0.0146504715851419 0.0217141892621885 -0.1880751 -0.4693491 0.8627509 28 28 28
-0.0178537447374363 0.0141387886962845 0.0224640626168136 -0.1816801 -0.4501208 0.8742903 43 43 43
-0.0183294036215322 0.0156169416510255 0.0228351367695246 -0.1644963 -0.4725085 0.8658387 74 74 74
-0.0166261008614246 0.0131499571179519 0.0219334964563374 -0.1709039 -0.4261816 0.8883474 61 61 61
-0.0163445643061673 0.0140280984397816 0.0223787050724569 -0.1734403 -0.4404767 0.8808511 67 67 67
-0.0144802759129754 0.0136528740191049 0.0226714335421191 -0.1854453 -0.4388515 0.8792152 49 49 49
-0.0161899435038251 0.0151643202208691 0.0228395125106469 -0.1801019 -0.4754838 0.8610914 100 100 100
-0.0152306629047305 0.0158760038272261 0.0235176000451416 -0.1982424 -0.5182979 0.8319058 107 107 107
-0.0134871822583462 0.00767722507965818 0.020531288954234 -0.2132916 -0.4123361 0.8857119 74 74 74
-0.0123933191467445 0.00771709073820226 0.0207202371037726 -0.2149667 -0.4125067 0.8852274 58 58 58
-0.00854722464436231 0.00739131376142788 0.0212767521941846 -0.264841 -0.4465548 0.8546625 42 42 42
-0.0122291112048547 0.00967015907798152 0.0216654469828023 -0.2205415 -0.3832434 0.8969314 44 44 44
-0.0111137435336692 0.0106361231721355 0.02212677531267 -0.2364009 -0.379625 0.8944269 55 55 55
-0.0104762297505068 0.0119089878925569 0.0225544838005382 -0.2707477 -0.4256765 0.8634207 49 49 49
-0.00641800782159585 0.00946218976093216 0.0232336810403311 -0.2360566 -0.4132073 0.8795095 87 87 87
-0.00447747728662717 0.0114960600910636 0.0248569231760273 0.009081738 -0.4456546 0.8951589 168 168 168
-0.00418228792258679 0.00993847841756201 0.0246810339913209 0.01175284 -0.4132466 0.9105433 98 98 98
-0.0125692825348058 0.0152672192315482 0.0235540663327801 -0.2695684 -0.507776 0.8182276 46 46 46
-0.0118184814394202 0.0123917162686795 0.0224976846067714 -0.2306041 -0.4086062 0.8830984 49 49 49
-0.0105810769194736 0.0145667967609131 0.0236906832052197 -0.3286847 -0.4968341 0.803195 62 62 62
-0.0144457362539838 0.0166319443558007 0.024008143763312 -0.2066932 -0.5283253 0.8234988 108 108 108
-0.0124014044953737 0.0161680333365324 0.0248011065294909 -0.2933036 -0.5582151 0.7761242 91 91 91
-0.0124032659372486 0.0171130404741133 0.0253317925763159 -0.3187059 -0.5828977 0.7474335 180 180 180
-0.0120999383060005 0.0180265566992521 0.026624894601087 -0.3375747 -0.6048155 0.7212777 228 228 228
-0.00856100116097114 0.0162862198885008 0.0265591575369578 -0.2704601 -0.602117 0.7512033 66 66 66
-0.0103268113953683 0.0178072286430357 0.0272442299027836 -0.3174471 -0.5961992 0.7374102 104 104 104
-0.00820425465069041 0.0136951942538939 0.0246741735053216 -0.2816785 -0.5151849 0.8094701 57 57 57
-0.00399796732997304 0.0134364353664966 0.0254569791843454 0.1293443 -0.3934118 0.9102182 226 226 226
-0.00527597815244052 0.0140035339767404 0.0263198841780147 0.1266277 -0.4332235 0.8923469 194 194 194
-0.00270997480241819 0.0156321648912909 0.0258117469624223 0.2921846 -0.3514958 0.8894262 230 230 230
-0.00398824692010402 0.0155173799283153 0.0258973118116025 0.209359 -0.3869781 0.8980071 230 230 230
-0.00844510497942297 0.017677619582771 0.0278131442491955 -0.1768343 -0.5264769 0.8315959 69 69 69
-0.00781940031848993 0.0180942418049967 0.028398663578044 -0.1098679 -0.4941762 0.8623914 81 81 81
-0.0384289659479244 0.025895276487977 0.0226679388740124 -0.9027122 -0.3562745 0.2412036 60 60 60
-0.0381953178934396 0.0256467677604197 0.0250398595057819 -0.3058303 -0.4713466 0.8272244 105 105 105
-0.0391185459190866 0.0288176855624755 0.0247516861936765 -0.8172368 -0.4304091 0.3832389 101 101 101
-0.0399689788608617 0.0300171479543345 0.0255378290055407 -0.6712431 -0.4677994 0.5749752 106 106 106
-0.0365979274381467 0.0184678794211168 0.0161806899217401 -0.9762226 -0.1909861 0.1025365 34 34 34
-0.0359846110695199 0.0195326766804802 0.0223061705309455 -0.5223107 -0.4556418 0.7208204 79 79 79
-0.0360465540623722 0.0193262396525231 0.0218210110774948 -0.495187 -0.4446964 0.7463477 88 88 88
-0.0362740741030669 0.0218093237164345 0.0233456324870124 -0.2369596 -0.4381928 0.8670855 56 56 56
-0.0344649409170454 0.0214201555779534 0.0234250314078327 -0.2017714 -0.4362403 0.8769166 61 61 61
-0.0326248122222839 0.0212816325057403 0.0236456993819253 -0.1998163 -0.4202454 0.8851368 75 75 75
-0.0373867042149394 0.0214433583925913 0.0230394394934902 -0.6493036 -0.4432625 0.6179993 68 68 68
