ply
format ascii 1.0
comment File exported by Rhinoceros Version 7.0
element vertex 470
property float x
property float y
property float z
property float nx
property float ny
property float nz
property uchar red
property uchar green
property uchar blue
end_header
0.0488963230153181 -0.0109668046797796 0.0133218107216385 0.05149629 -0.5299193 0.8464831 159 159 159
-0.0642203562715056 0.0324441239293053 0.0269139583210645 -0.045512 0.7160513 0.6965623 64 64 64
-0.0234445261198997 0.0125913737639013 0.0331544332611508 0.0325824 -0.5359133 0.8436441 144 144 144
-0.0508173793619997 -0.044492366223411 -0.0376794827392665 -0.8790979 -0.4743734 -0.04644037 80 80 80
-0.0604597521762387 0.0382746034072005 0.0240411177040115 0.04117973 0.6503928 0.758481 77 77 77
-0.0226196981858384 -0.0413184592701132 -0.041038869437756 0.5493274 -0.6015419 -0.5799885 74 74 74
0.00121787578491972 0.0190056793435924 0.0394555396795791 0.06874201 -0.279253 0.9577538 161 161 161
0.066186727548154 0.0368815570033456 0.0261925506034802 -0.2189535 0.9437729 0.2476935 44 44 44
-0.0467234498336691 -0.0560739498396434 -0.048324862463363 -0.4026737 -0.6338469 -0.6603726 119 119 119
0.0617445486469053 -0.0238425873582859 -0.0129528770780354 0.8288391 -0.5259918 -0.1906787 72 72 72
0.0165162429961878 -0.00175233106592032 0.0212145455624202 0.03847155 -0.5349945 0.8439792 169 169 169
0.0363196648454391 0.0379020889028242 0.027861738729388 -0.1229926 0.8066574 0.5780802 57 57 57
0.0459724134562567 -0.0156091207536094 0.00949475156565933 0.04045878 -0.5292116 0.8475247 148 148 148
-0.0085881540096564 -0.046578160788705 -0.0191135478933285 0.0445499 -0.5273492 0.8484799 157 157 157
0.0311891395526374 -0.0413389523731299 -0.0205374682242136 0.4927999 -0.8680018 -0.06100158 90 90 90
0.034330465481176 0.0283069590868802 0.036511852554392 -0.08809562 0.830477 0.5500429 46 46 46
0.0642353523925541 -0.018364813533403 0.00433305283127634 0.7897897 -0.4727848 0.3907771 69 69 69
-0.0560122744188609 -0.0375487360833098 -0.011731573033421 -0.2622378 -0.5041347 0.8228484 162 162 162
0.0060172033178596 0.0285602550998389 0.0354259908660752 -0.1661905 0.8109481 0.5610205 84 84 84
-0.0529367926169888 -0.050301803688014 -0.0228724119323795 -0.1891835 -0.7406448 0.644713 131 131 131
0.0276658554931639 -0.0014063943299043 0.0216045029731497 0.02999615 -0.5246716 0.8507761 148 148 148
0.0446683842129492 -0.0119974516280246 0.0125101884793134 0.04344598 -0.5288988 0.8475721 144 144 144
0.0114561710004666 -0.0200927968821675 0.00475228268246904 0.04939441 -0.5299899 0.8465642 135 135 135
0.0817005855818214 0.0192667528637454 0.0410981780394825 0.2427798 -0.6042577 0.7589009 133 133 133
0.00459285958274913 -0.0343836669277658 -0.03606357347979 0.1880211 -0.8498572 -0.4923321 61 61 61
-0.0116015122162554 -0.00261870631723538 0.0198779004527779 0.03966029 -0.5392028 0.8412416 153 153 153
0.0454143111721854 0.0176698065454238 0.0390351906601602 0.04811385 -0.5251758 0.8496325 166 166 166
0.00265963401401148 -0.0399505823538966 -0.0312415093560557 0.3017855 -0.671932 -0.6763378 52 52 52
0.0629698553314177 0.0186501637287494 0.0400754400570143 0.03203883 -0.5232856 0.8515549 145 145 145
0.0855774720906866 0.0366930561844779 0.031426874878262 0.8050517 0.5908244 0.05308739 86 86 86
-0.0473961278309474 -0.0492009046933333 -0.0227920930846393 0.0526949 -0.5388302 0.8407646 171 171 171
-0.0438269121126251 -0.0373750719658503 -0.0113515603141888 0.05734967 -0.5357043 0.8424559 182 182 182
-0.0251470026561904 0.0181729488102046 0.0381262085329475 0.02582737 -0.5175775 0.8552465 137 137 137
0.0243733050590962 -0.0417864083901307 -0.0142367410161464 0.1491456 -0.6711161 0.7261947 173 173 173
0.0291782773239135 -0.0313587362809925 -0.0289770502686822 0.2976678 -0.6935256 -0.6560611 45 45 45
-0.029097884037053 -0.0588578826725017 -0.0304820436371809 0.1501213 -0.9355842 0.3196026 97 97 97
0.0682128966572872 -0.00347372807823909 -0.00741513634199702 0.9797429 -0.1874758 -0.07040334 44 44 44
-0.0357248946546345 -0.0602352058691201 -0.0358834849247966 0.5333586 -0.8444385 0.04951943 105 105 105
0.0148857958472506 0.0203378165494884 0.0407157476668598 -0.06657223 -0.2791574 0.9579349 124 124 124
0.0811206541304692 0.0237766276952537 0.0273359885334443 0.9770194 -0.2112067 -0.02871957 91 91 91
0.0448496481213159 -0.0317866133694447 -0.0182004537398571 0.6266614 -0.764235 -0.1524477 78 78 78
-0.0165638998196351 0.00890728648363492 0.0302110872505849 0.04007925 -0.5251657 0.8500556 151 151 151
0.0504825628323242 0.0162717668547073 0.0375068333364605 0.04169155 -0.5365597 0.8428319 128 128 128
-0.0362661723103013 -0.0490928361460916 -0.0498397193471812 0.5431733 -0.648468 -0.5333405 63 63 63
-0.020069943975771 -0.0557696054845662 -0.0281652089199676 0.3308252 -0.9108116 0.2469349 50 50 50
-0.00409868001678659 -0.0212034023093526 0.00350298322919014 0.0459338 -0.5356185 0.8432099 164 164 164
0.00443825100671003 -0.0404087986140709 -0.0132967495785743 0.04747056 -0.5139018 0.8565346 172 172 172
-0.0116469829945642 0.0038005905837899 0.0255565323547329 0.05030901 -0.5297652 0.8466509 169 169 169
-0.012193961426618 0.0113899308244562 0.0324078544378052 0.05561433 -0.5295558 0.8464501 152 152 152
-0.0255413434104099 -0.0474532114082183 -0.0198728180243465 0.02435406 -0.5330831 0.8457122 179 179 179
0.0201651354144241 -0.0326598097500915 -0.0320483190242665 0.4846974 -0.7540354 -0.4432822 50 50 50
-0.056924833066452 -0.0127755305123793 0.0103569128848988 0.04229731 -0.5289938 0.847571 151 151 151
-0.0713800113339007 0.0026372185711836 0.0107531271773695 -0.9766578 -0.2104345 -0.04309064 87 87 87
0.0147449236318342 -0.0237239961925262 0.00174596244684318 0.04286499 -0.5282826 0.8479859 164 164 164
0.0548401616665779 0.020211775232797 0.0411994321450177 0.0422486 -0.402929 0.9142556 169 169 169
-0.0546273128047083 0.0282506856408219 0.0318395498342819 -0.1560119 0.7742271 0.613378 50 50 50
0.0115575643003263 -0.0164529194554879 0.00817972225333592 0.05124492 -0.538066 0.8413435 142 142 142
-0.0150207710028283 -0.0493564083105783 -0.0216117169450231 0.07972313 -0.560591 0.8242463 183 183 183
-0.0634881656045692 -0.0112400421468406 -0.0223819660851652 -0.9455214 -0.01363537 -0.3252744 48 48 48
-0.0584967681600528 -0.0103518273575527 0.0124845519775704 0.04249509 -0.5331188 0.8449725 166 166 166
-0.0546981999126235 -0.0478462687704352 -0.0260246520206497 -0.8181555 -0.572203 -0.05661608 82 82 82
-0.0672898780603399 -0.0127435762076439 -0.00898557195922771 -0.9652401 -0.1595269 -0.2070334 101 101 101
-0.0621267185530379 0.00148294216009215 0.022865062085963 0.04454985 -0.5280593 0.8480381 145 145 145
-0.0359198888673384 0.0205083998007011 0.0402245518476017 -0.02312111 -0.04605884 0.9986711 135 135 135
-0.051043399711695 -0.028193283319032 -0.00334207638328092 0.04152127 -0.5388021 0.8414085 146 146 146
0.0554350342350085 -0.0272763169725094 -0.01320812459652 0.4939433 -0.8615633 -0.117169 70 70 70
-0.03195600572955 -0.00855159828502861 0.0143876624892329 0.04625691 -0.5294909 0.8470535 191 191 191
-0.00720565204507007 -0.0389632441886366 -0.0342794517657479 0.3622045 -0.7096158 -0.6043619 66 66 66
-0.0715189097903697 0.00578225788727238 0.00599199784256339 -0.9697289 -0.1676223 -0.1775629 63 63 63
-0.0133834404569249 0.0380114241563431 0.0249133000609491 0.08625497 0.8059671 0.5856425 48 48 48
-0.0507574970699427 -0.0048961010173677 0.0173936096867681 0.04142935 -0.5306186 0.8465976 158 158 158
0.0816625725714242 0.0166630656875579 0.038426006988424 0.5703512 -0.5871374 0.5744294 134 134 134
-0.047537873475535 0.0348677619114524 0.0267408560113557 -0.1626763 0.8465723 0.5068054 35 35 35
0.082170176105786 0.0260218171819027 0.0237397133719383 0.9628413 -0.2487997 -0.1050496 58 58 58
0.00604960204751981 -0.0408371419490224 -0.0290070462493566 0.2855165 -0.6949893 -0.6599016 72 72 72
-0.0333182793577551 -0.0552406311914094 -0.035780315942704 0.609486 -0.7357963 -0.2951789 82 82 82
-0.0617945673228213 0.034990015706529 0.0258041043145703 -0.0363288 0.6886532 0.7241802 69 69 69
-0.0282475507196838 -0.00299464906586178 0.0192059083023066 0.03498605 -0.523778 0.8511361 193 193 193
0.0365078147395688 -0.0380999437155694 -0.0210445233830029 0.6171091 -0.7581027 -0.2108477 94 94 94
0.0276157489227629 0.0301556971198551 0.0336158131148024 -0.0547568 0.8510783 0.5221756 37 37 37
-0.0272018053689085 -0.0258594382988153 -0.000812765348421493 0.03435996 -0.5372144 0.8427455 175 175 175
-0.0389355054923399 -0.0284489973574833 -0.00356507048327574 0.05082452 -0.5381025 0.8413457 162 162 162
0.0673941199715076 -0.00614439052635829 0.00329869168802173 0.9856463 -0.1659015 -0.03127383 83 83 83
-0.0480376392291533 -0.0601815167045721 -0.0331339802097911 -0.4573359 -0.7641024 0.4549631 160 160 160
0.00667823484584495 -0.0462775206398663 -0.0186521348521637 0.138715 -0.6416821 0.7543224 171 171 171
-0.0661605057779442 0.00932398526951683 0.0297550987856177 0.03304169 -0.5303649 0.8471253 147 147 147
-0.0634236389730503 0.038599672111397 0.0238306136193642 -0.03925192 0.631968 0.7739999 72 72 72
-0.058103771760537 -0.041787125431717 -0.0188629064583157 -0.8264903 -0.497922 0.2626547 102 102 102
0.0700208860479741 0.00339157901809128 -0.00826239135466615 0.9644328 -0.2582361 -0.056422 38 38 38
0.077570163090094 0.0148580838565022 0.0195803784294935 0.9562036 -0.2554735 -0.1428561 52 52 52
0.0757022477609335 0.00565803625560313 0.0256790115778007 0.8700455 -0.4646265 0.1647513 84 84 84
0.0652499960355468 -0.0125206315802925 -0.00423835813073085 0.9753566 -0.2113895 0.0631975 80 80 80
0.0171053666181675 0.0118091552474167 0.0332834388688881 0.03712843 -0.539714 0.8410293 149 149 149
-0.0260281786905656 0.00764304378889846 0.0288185329709741 0.03922789 -0.5316274 0.8460694 146 146 146
0.00140961861316957 -0.00159463380600366 0.0208875497626059 0.05062211 -0.5336978 0.8441588 189 189 189
-0.0514677643252663 -0.0350987483310172 -0.00945277694690753 0.03596033 -0.5215826 0.8524426 160 160 160
0.0110276037696173 -0.0236692903062294 0.00164425781095941 0.05264347 -0.5227544 0.8508564 117 117 117
-0.0240969632945904 0.0367763943176699 0.027515113779843 -0.1207307 0.8052839 0.580467 66 66 66
-0.0551764373384693 -0.0264688509142597 -0.0363966168227739 -0.9831793 -0.1035087 -0.1504806 51 51 51
0.0182500702134152 0.0109172988983974 0.0322778013707697 0.04009956 -0.5390118 0.8413432 125 125 125
-0.0563327171242269 -0.0388528087842731 -0.0296093001706257 -0.8475671 -0.4823429 -0.2213036 94 94 94
-0.0463993208869229 0.000660473243569215 0.022295350965356 0.04153095 -0.5319359 0.8457656 160 160 160
0.0195066017596492 0.00869796516689725 0.0305603597526945 0.03031904 -0.5316442 0.8464249 131 131 131
0.0815786494609168 0.0290510278963723 0.0197589093117766 0.9509423 -0.2334877 -0.2029585 99 99 99
-0.0099430246267711 -0.0174000010698941 0.00701018450430586 0.03537336 -0.5224907 0.8519109 167 167 167
0.0235207158994526 0.00848292812934426 0.030132104582043 0.03269507 -0.5265946 0.8494875 104 104 104
0.070976041742743 -0.000419292203417854 0.0164251754522075 0.9641405 -0.264233 -0.02477988 67 67 67
-0.0741679442254166 0.0337758817576548 0.0273569213236405 -0.573493 0.5433682 0.6130716 67 67 67
0.0300043541798543 0.0204576981201061 0.0412569722086433 0.007532672 -0.07270704 0.9973249 138 138 138
0.0569804934593452 0.0284194878907654 0.0386103680188461 -0.220352 0.7679025 0.6014738 47 47 47
-0.0433508804757108 -0.0418018825905876 -0.0151930015927725 0.03141675 -0.537879 0.8424364 189 189 189
0.0300055060524373 -0.0420790507840906 -0.0196472451053002 0.4229372 -0.9046845 -0.05167344 94 94 94
0.0018436677211231 -0.0176546775867159 0.00687247284455512 0.04443052 -0.5348846 0.8437561 201 201 201
-0.0531194769545613 0.0238904546898838 0.0358950022653344 -0.03127939 0.5649653 0.8245215 60 60 60
0.0770587560591676 0.0156391070660644 0.009272476273758 0.9586258 -0.2839178 0.02067118 75 75 75
0.0387438475503625 -0.0225694102876162 0.00299185631577555 0.04171101 -0.5364811 0.8428809 153 153 153
0.00384242290285752 -0.0280491812587471 -0.00272001829779327 0.04857304 -0.5282902 0.8476734 151 151 151
0.0791570755335655 0.0120786119823206 0.0337786689304419 0.7663457 -0.5378527 0.3513241 90 90 90
-0.0336604984606634 -0.0438331562936256 -0.0168303242087956 0.04529804 -0.5324326 0.8452595 190 190 190
-0.0133661878307854 -0.0123570721843754 0.0112195347453985 0.04136806 -0.5353265 0.8436315 156 156 156
-0.066723942547521 0.00777752426088729 -0.00198156536897358 -0.9237441 -0.001393927 -0.3830076 32 32 32
-0.0185004891347869 -0.044552029313302 -0.036372042424521 0.4811054 -0.6373186 -0.6019657 44 44 44
0.00295077230258722 -0.00988684025921105 0.0131830798165056 0.03955824 -0.5264992 0.8492548 128 128 128
0.0626870301372309 0.0379601229990878 0.0252345582866258 -0.1632443 0.9516512 0.260214 52 52 52
0.0191784617464366 -0.0167184616199052 0.00815079847080642 0.03521654 -0.5400224 0.8409135 177 177 177
-0.00809206934217399 -0.0185924343161508 0.00597543599211443 0.04543462 -0.5290345 0.8473831 181 181 181
-0.0465248131162519 0.0329184581641923 0.0296984494098208 -0.09589081 0.7877869 0.608438 82 82 82
-0.0340017994608877 -0.0249080257686091 -0.000121206961668327 0.04693282 -0.5300193 0.8466858 222 222 222
-0.0246483462347993 -0.0487102534490811 -0.0212560596188819 0.03659324 -0.5377858 0.842287 184 184 184
0.00752505473675713 -0.0427319471296552 -0.0154315876296693 0.05420316 -0.5409818 0.8392859 168 168 168
0.0665067029973256 -0.0123249209626695 0.00496644930562891 0.9585515 -0.2829088 -0.03378922 78 78 78
-0.0629625909872518 -0.0257886975281602 -0.0130218504797732 -0.8396726 -0.4798848 0.2542844 73 73 73
-0.0607535567998154 -0.0315846736794754 -0.0213425969911686 -0.9012747 -0.4290557 -0.0601265 78 78 78
0.06744280797058 -0.00649317558128448 -0.00697686952929559 0.9774898 -0.1986014 -0.07121155 79 79 79
-0.0591089060401024 0.0208445711446301 0.0386633515036645 -0.03298421 0.2611936 0.9647228 47 47 47
0.0671194323717661 0.0229692841727325 0.0438864660125167 -0.08620894 0.1238683 0.9885467 164 164 164
-0.0426785636297404 0.0325494586461099 0.0304062119386393 -0.03421661 0.8044544 0.593028 70 70 70
-0.0177129078938314 -0.0338143594881617 -0.00788176310878068 0.03846261 -0.5372937 0.8425177 201 201 201
0.0579081904147738 -0.0177232612020356 -0.0272083079512331 0.7743964 -0.5327271 -0.3413388 66 66 66
-0.0440796920348616 -0.0524971112692837 -0.0251304625967122 0.08093 -0.58591 0.8063249 98 98 98
0.0749899800301324 0.00508247106294679 0.0279908817069167 0.3487639 -0.5212094 0.7789124 129 129 129
-0.0557269928567017 0.015390772883571 0.0353624927822725 0.04577138 -0.5265669 0.8489007 128 128 128
0.0570749798605892 -0.0275381239937992 -0.00508144731464315 0.4600148 -0.8555504 0.2375287 83 83 83
-0.0647360535084442 0.0341111878959717 0.0264679929357196 -0.05458551 0.700119 0.7119367 72 72 72
-0.0120580833592554 -0.0408490910060526 -0.0353762729912586 0.4116414 -0.6986603 -0.5851711 67 67 67
-0.0598831941258964 -0.0298096081773376 -0.0109177895539686 -0.7813219 -0.4943008 0.3810548 74 74 74
-0.0419521783123509 -0.0602088344763411 -0.0353290315802762 0.2040801 -0.7590234 0.6182513 137 137 137
-0.0167526316107327 0.0363804061663582 0.0285350993984381 0.07933044 0.8362589 0.5425658 32 32 32
-0.0464761101017299 -0.0573697371875677 -0.0460748704671802 -0.6014756 -0.6738663 -0.4291052 135 135 135
0.026472082957834 0.0125644211916047 0.0343437413364911 0.04722755 -0.5313333 0.8458455 122 122 122
0.0106701497686692 0.0336627775468726 0.0280123020805988 -0.1933126 0.8110105 0.5521704 51 51 51
-0.033856760531312 0.0363595455893091 0.0263714150570717 -0.1959005 0.7706205 0.6064381 96 96 96
-0.0397672901963726 -0.0131808805815771 0.0102120271649097 0.04083731 -0.536676 0.8427996 145 145 145
-0.0468771415743723 -0.0123603784211258 0.0106984717326212 0.03956517 -0.5417903 0.839582 130 130 130
-0.067354837427992 -0.00334239849287654 -0.00728776128271839 -0.912894 -0.04275399 -0.4059516 38 38 38
0.063226376584935 0.0207179320446946 0.0419063504731924 0.02988108 -0.4363959 0.8992584 163 163 163
0.0241640468116811 0.0130501352798584 0.0344599806118969 0.03880316 -0.5378642 0.842138 149 149 149
-0.0326703896546856 0.0362396838904873 0.0262334860022905 -0.2160718 0.7699004 0.6004719 88 88 88
-0.00554468914028572 -0.0419177577418572 -0.0153191427709426 0.03731564 -0.5423317 0.8393354 185 185 185
-0.045452479364712 0.0397299737437963 0.022430365821183 -0.1314121 0.8358564 0.5329868 86 86 86
-0.042713025013791 -0.0616950359738562 -0.043295777495806 0.07038382 -0.9372935 -0.3413604 144 144 144
0.0613985751061079 0.020492673771135 0.0416497441553352 0.03871956 -0.5188982 0.8539587 175 175 175
0.0430802206405114 -0.0121830502210913 0.0124574643725181 0.04247785 -0.5340786 0.844367 196 196 196
-0.0506103283554107 -0.0301914712242566 -0.00543694259913068 0.04426509 -0.5377229 0.8419588 140 140 140
-0.0755098534360661 0.0234344648928804 0.0267367839650253 -0.9975808 -0.0647663 0.02525741 72 72 72
-0.0321842746144958 -0.0150671426757506 0.00843555825537097 0.04941722 -0.5341138 0.8439671 156 156 156
-0.0350987942865106 -0.0360390175007238 -0.0100914771479372 0.02344334 -0.5272864 0.8493642 194 194 194
-0.00582694898924596 -0.0365762173409034 -0.0102409383622362 0.04977801 -0.5228934 0.8509434 176 176 176
-0.0599045001733678 -0.0283246856487551 -0.00770513340096339 -0.6979574 -0.5431353 0.4667543 107 107 107
-0.050785697056182 -0.0500059463584627 -0.0232860416446083 -0.1033107 -0.6732166 0.7321928 160 160 160
0.0342571075710802 -0.0127927251689852 0.0115557065292529 0.04760798 -0.5295553 0.8469384 195 195 195
0.0502066452024612 0.0325026065048956 0.0335335735401898 -0.1249354 0.8785827 0.4609593 43 43 43
-0.00726190442059527 -0.0514393317179729 -0.0233289550429887 0.1959768 -0.8963462 0.3976892 170 170 170
0.0669349386365294 -0.0108961335568285 0.00480718776927531 0.9734983 -0.2050219 -0.1013267 85 85 85
0.0211681136198305 -0.0317811865773809 -0.0321569258119644 0.4909622 -0.7569222 -0.4313059 66 66 66
0.0820273381939507 0.0157156733209701 0.0366617388762804 0.8568138 -0.5004941 0.1239987 77 77 77
-0.069148408882111 -0.00145556608818809 0.000298665457526506 -0.96917 -0.04782512 -0.2417071 41 41 41
-0.0594923936969032 -0.00470605349961195 0.0173498882960159 0.05008655 -0.5297228 0.8466907 143 143 143
-0.0660733804461788 0.0108241037586609 0.0311251074920266 0.03542453 -0.5349602 0.8441343 156 156 156
-0.0465247441188934 -0.0539372016462819 -0.0264557582942257 0.003180552 -0.607742 0.7941282 161 161 161
0.0711188896864163 5.72484279768304E-05 0.0234304871463229 0.4935796 -0.5784697 0.6494244 173 173 173
-0.0316536957232991 -0.0216940672981522 0.00286334463128175 0.0414259 -0.5282244 0.8480936 157 157 157
0.0548330390797684 0.0131560483797658 0.0347874238159169 0.03880331 -0.5283094 0.8481648 142 142 142
-0.033787985310862 -0.0502017122559075 -0.0468564357649532 0.6493087 -0.6599284 -0.3780114 77 77 77
0.0750144292721293 0.0265561687031595 0.0437860937171898 -0.1778942 0.4095114 0.8947927 58 58 58
0.0169131251512402 0.0325380484981865 0.0300374406648354 -0.1291009 0.8012651 0.5842151 74 74 74
0.0724052316762545 0.00677776569814759 -0.000626427654339554 0.928368 -0.3577449 0.100755 61 61 61
0.0593610818051951 -0.0256085604701561 -0.0133019097545284 0.6062295 -0.7878426 -0.1085812 97 97 97
-0.0504279142894999 0.0352816478357563 0.0259641701688744 -0.1795624 0.8476795 0.4991962 60 60 60
-0.0591937914852718 -0.0396965330604158 -0.0224919361245374 -0.8738871 -0.4570846 -0.1655143 86 86 86
-0.0561290017076019 -0.0205712240083372 0.00340751441062188 0.01488348 -0.5290655 0.8484504 133 133 133
0.0642061460118177 -0.0176456681834726 -0.00530700395327237 0.9733276 -0.2221705 0.05721657 75 75 75
0.0673696813744455 -0.00584955578536239 -0.00890546039115085 0.9735485 -0.1932566 -0.1218821 67 67 67
0.0406836492337852 0.0341464895928102 0.0300276137867303 -0.1116589 0.8204947 0.5606432 73 73 73
-0.0188525338736678 -0.0490798876534951 -0.0215064710447196 0.03361009 -0.5340573 0.84478 154 154 154
-0.0507459883590085 -0.0216458387335063 0.00260882393848945 0.04300427 -0.5309026 0.846341 177 177 177
0.0073000523867901 -0.0020249956375088 0.0210872003749236 0.03904185 -0.5248829 0.8502786 202 202 202
0.0615918399574522 -0.0181839626511517 -0.0160871975206874 0.8768387 -0.3090865 -0.3682655 74 74 74
-0.00085416180175546 -0.00142159671007258 0.0212843905689847 0.04650733 -0.5332746 0.8446628 199 199 199
0.0356303240341538 -0.0374586008166329 -0.0233673167438057 0.5240325 -0.6996411 -0.4856874 90 90 90
-0.0679598523404952 0.0257950538139631 0.0330532060033714 -0.09941937 0.7739323 0.6254155 87 87 87
-0.0553700254784726 -0.0384616914626925 -0.0446176403722769 -0.944025 -0.2693438 0.1904485 35 35 35
0.0538945916396105 0.00367585069948961 0.0265489808805294 0.05189928 -0.5342273 0.8437462 139 139 139
-0.0104804385472321 -0.042935920366993 -0.0330829340674106 0.3778355 -0.6370339 -0.671884 64 64 64
0.0280614319946983 -0.0421929291083296 -0.0152385564016977 0.3774187 -0.7232113 0.5783775 115 115 115
-0.0412072203270086 0.00174250378587582 0.0233749960435649 0.03709566 -0.5369806 0.8427786 143 143 143
0.0160017459780204 -0.0345189271277379 -0.00830762266369471 0.04883403 -0.5246667 0.8499059 154 154 154
-0.0469467650915985 -0.0547552241568294 -0.0485785474678956 -0.4952757 -0.5725837 -0.6533375 125 125 125
0.0255541230362566 -0.00283405245278234 0.0205320772004096 0.04945511 -0.5300056 0.8465508 174 174 174
-0.065680209483304 -0.0118504802973134 0.0103158391439465 -0.3742496 -0.7327715 0.5683161 83 83 83
0.00360153029964927 0.0135366059812994 0.0344596184328501 0.03757442 -0.5383123 0.8419074 136 136 136
-0.0430508374585938 -0.0325418899509721 -0.00747004936105604 0.05053601 -0.5159919 0.8551015 183 183 183
-0.000606044114619397 -0.0330902289092626 -0.0382701238907658 0.2995589 -0.8353419 -0.460943 78 78 78
-0.0491019279073237 -0.0542940619865353 -0.0269422991103599 -0.2758273 -0.657865 0.7008088 165 165 165
-0.0238314770320536 -0.043651199177602 -0.0167320276248573 0.04411913 -0.533105 0.8448979 173 173 173
0.0159011157443361 0.0154659247560593 0.0364495136187437 0.03147006 -0.5318055 0.8462816 122 122 122
-0.037085202031208 -0.0332679770387286 -0.00741929628043707 0.03381579 -0.5409529 0.8403728 192 192 192
-0.0120245189047608 -0.0420525084592049 -0.0150725355782256 0.03747874 -0.5329121 0.8453402 171 171 171
-0.0457892405707192 0.00831080852970989 0.0291503524605197 0.04377054 -0.5325229 0.8452832 173 173 173
0.0687613865515924 0.00637978742365453 0.0293522165111046 0.04756182 -0.5289196 0.8473381 105 105 105
0.0360258776486886 0.0311292718548157 0.0316998624832218 -0.09514281 0.8340142 0.5434778 50 50 50
-0.0504838588454184 -0.0466226439210777 -0.0456398680017454 -0.7868438 -0.5606458 0.257979 108 108 108
0.0295599264046738 0.0164200487496925 0.0376914714131236 0.05534081 -0.5268859 0.8481324 164 164 164
-0.00137397907554293 0.0184698375553066 0.0387039832029483 0.04380277 -0.3857436 0.9215656 137 137 137
0.0190449251165952 -0.0263779370534001 -0.000621232844235584 0.03958903 -0.5347546 0.8440795 187 187 187
0.0699516032566885 0.000409497626108646 -0.00365607639313408 0.9805524 -0.1939505 0.03000323 86 86 86
-0.0274510727265582 -0.00113083105552358 0.0210938723533424 0.0272896 -0.5269307 0.84947 111 111 111
-0.0695424794119108 -0.00890489829253327 0.00438097174305015 -0.9023721 -0.4127895 0.1238121 90 90 90
0.0152361071270068 -0.000623421893195863 0.0222129890373132 0.04459087 -0.5357682 0.8431869 147 147 147
-0.034574557653869 -0.048192389584595 -0.0207915520050051 0.03731436 -0.5305282 0.8468456 156 156 156
0.0598923094779411 0.0212981185278237 0.0421435801783155 -0.0765257 -0.1975096 0.9773095 193 193 193
-0.0669276712957143 -0.0153300651467263 -0.00941100424575274 -0.9581753 -0.25483 -0.1302372 115 115 115
-0.0390202516387048 -0.0502499502797615 -0.0228067087266205 0.0490808 -0.5809067 0.812489 134 134 134
-0.0733156408338924 0.0221069386997251 0.0110564829832124 -0.9421315 -0.197265 -0.2710621 52 52 52
-0.0347868324112024 -0.050135812668908 -0.048008236712989 0.5907511 -0.6913777 -0.4159447 61 61 61
0.0597261366216657 -0.0252135495768658 -0.0102093497041226 0.6154189 -0.7881504 -0.008855935 67 67 67
-0.0528657724710755 -0.0435439783281999 -0.0448320199732977 -0.7202611 -0.6033267 0.3423752 90 90 90
-0.0535059739506336 -0.0453940614169833 -0.0304350920303783 -0.8625615 -0.4167517 -0.2868898 80 80 80
0.0383562239209592 -0.0369102655890312 -0.0161876952204535 0.5795718 -0.8096473 0.0925623 82 82 82
-0.0663647660924458 0.00220443507011436 0.0234640567005475 0.04047051 -0.5335032 0.8448293 128 128 128
0.0734121360532873 0.0369223974962793 0.0323050146719665 -0.2500666 0.9338237 0.2558123 73 73 73
0.00578611303357723 -0.0470638365720929 -0.0249582490571141 0.4060915 -0.8086318 -0.4256811 68 68 68
0.0386133393521486 0.0361685673433646 0.0271571335678544 -0.08347847 0.8251138 0.5587652 63 63 63
-0.0496750510303341 -0.0478258871839695 -0.0207591486560724 0.03885353 -0.5324574 0.8455647 167 167 167
-0.0717691323975509 0.00757872118598846 0.0109433208235296 -0.9781014 -0.1950456 -0.07262829 104 104 104
0.0777132453185585 0.0187346563907164 0.00763282726168586 0.9747871 -0.2227256 -0.01354754 60 60 60
0.049752470944495 0.00153854391130248 0.0245918887349448 0.05132129 -0.5282013 0.8475668 119 119 119
-0.0646505225819507 0.0366211591065146 0.0249842240613412 -0.07152341 0.6530161 0.7539591 57 57 57
0.011370159429021 -0.00665753659242641 0.0165670476386785 0.03886978 -0.5275613 0.8486273 134 134 134
-0.0516097217919105 -0.0471109296744645 -0.0500790562312372 -0.7500112 -0.6448421 0.1471795 79 79 79
-0.0750060324175894 0.0263149165408885 0.0227015172486661 -0.9908217 -0.1346981 -0.01134853 82 82 82
0.0510290869491006 -0.00660394319781876 0.0175093221766397 0.04731899 -0.5280848 0.8478723 131 131 131
0.0706579263901923 0.0388019320735771 0.0252156479984819 -0.2516141 0.9383184 0.2371686 58 58 58
0.0257688261773332 -0.0302606747418439 -0.0306319134171977 0.3870193 -0.7924193 -0.471474 40 40 40
-0.070836433208959 0.00465841798062006 0.0254337408678639 -0.40615 -0.5274906 0.7461876 125 125 125
-0.0715728091884626 0.000571961129244736 0.0162042085193981 -0.9631659 -0.254946 0.08552117 108 108 108
-0.0409937993834928 -0.0534909335066469 -0.0268874192134438 0.1254068 -0.6436568 0.7549696 117 117 117
0.0566516487564865 -0.0243509467443113 0.000904733917799952 0.1386738 -0.660858 0.7375881 153 153 153
0.00701017084713529 -0.0354692792394486 -0.00888039796232214 0.04991493 -0.5411608 0.8394364 179 179 179
0.00477802921933468 -0.003323939189117 0.0197619483317597 0.04176379 -0.5367119 0.8427314 103 103 103
-0.0667201578288323 -0.0165722268467652 -0.00504855696563471 -0.9166153 -0.3828689 0.1150123 88 88 88
-0.0416134918222186 -0.0167567668309846 0.00699507451340627 0.04018897 -0.5228867 0.8514543 162 162 162
-0.04366587204529 -0.0340859821346955 -0.00840696339119999 0.03670665 -0.5175285 0.8548782 188 188 188
-0.0408148010007561 -0.0510556538959606 -0.0235474366291067 0.0618927 -0.5935629 0.8024041 149 149 149
-0.0156334791045616 -0.0347895808624076 -0.0435049146543577 0.380851 -0.7724101 -0.5082667 56 56 56
-0.0261522622591939 -0.0401006023238218 -0.0135877874383935 0.04278954 -0.5291646 0.8474396 155 155 155
-0.074112132734113 0.0137554209959889 0.0255840804193544 -0.9605777 -0.2780116 -0.0001737805 100 100 100
0.087589237713718 0.029940035921976 0.0382994239630554 0.9137932 -0.2900812 -0.2843148 57 57 57
0.0407945172812199 -0.0183951773669228 0.0069603107662964 0.03613978 -0.5288771 0.8479286 205 205 205
-0.0479310516193878 -0.0521899488180431 -0.0490605581019351 -0.4321895 -0.5887308 -0.6830873 107 107 107
-0.0377424865848117 -0.0299633768384648 -0.00474451893054932 0.04097316 -0.5402926 0.8404791 148 148 148
-0.00328205757630817 -0.0231168708465643 0.00178562645221543 0.05051202 -0.5343667 0.8437421 176 176 176
-0.0686711530474997 0.0295185774180844 0.0302159408002211 -0.04247406 0.7417342 0.6693477 61 61 61
0.0715746186065993 0.000210598845800991 0.0180006330977204 0.9180804 -0.3957398 0.02276901 82 82 82
0.0546063689086373 0.034896967899305 0.0304334889192761 -0.1452666 0.921195 0.3609673 59 59 59
0.0624175162689553 0.00976763645572321 0.0320335399974203 0.04745975 -0.5282149 0.8477833 146 146 146
-0.00120975404292767 0.00946652695713146 0.030962968393933 0.05452073 -0.5424079 0.8383443 135 135 135
0.0187401822254338 -0.0327463195097348 -0.00652004784206488 0.03572621 -0.5402754 0.8407295 186 186 186
0.0532298224468588 0.00608653737501363 0.0287093104765214 0.05179353 -0.5401475 0.8399751 139 139 139
-0.0141212914133171 -0.0368637141998855 -0.040986527354119 0.3820689 -0.7623115 -0.5224027 47 47 47
-0.0207452979658609 -0.0500015128602748 -0.0335716446674625 0.4312727 -0.6492047 -0.6265278 73 73 73
0.057716823293215 -0.00395477175024628 0.0199372865103219 0.0316323 -0.5365739 0.8432602 126 126 126
-0.0499520899975883 0.0370185226458448 0.0235401174372343 -0.1099738 0.8128748 0.5719619 54 54 54
-0.0460637498595438 -0.0588137596497531 -0.0322972536523678 -0.1868107 -0.7607144 0.6216232 111 111 111
0.0602746338268367 -0.0161632878486734 0.00909930541311706 0.2210296 -0.5661932 0.7940851 144 144 144
-0.0286298414278452 0.0186507307378114 0.038493583183256 0.04885421 -0.518604 0.8536177 146 146 146
0.0294265179036732 -0.025138524265511 0.000802200778279041 0.04450499 -0.5297226 0.8470025 172 172 172
-0.0385475688249701 0.00265148347126409 0.0242343479025558 0.0442393 -0.5297644 0.8469903 153 153 153
-0.06525146311427 -0.00576915473966566 0.0162581258904699 -0.05249987 -0.5760545 0.8157237 167 167 167
0.0237809629660082 -0.0441284701797151 -0.0203424787570399 0.3993903 -0.9157263 -0.04396253 89 89 89
0.00996067769704201 0.00255785071084658 0.0248634426131082 0.02874991 -0.5265393 0.8496646 187 187 187
0.0396630454731315 -0.0358403398137626 -0.0213414064727046 0.6547847 -0.7326818 -0.1855652 68 68 68
0.0108237391274606 0.00817732252075343 0.0301752516640199 0.04272231 -0.5337154 0.8445843 122 122 122
-0.0308047470139756 -0.0468071172192563 -0.0195243098602587 0.04440611 -0.525937 0.8493635 151 151 151
0.0710566575473324 0.0144953095306968 0.0366659462137435 0.03635626 -0.5437379 0.8384672 152 152 152
-0.0178932135399945 0.0303526018610142 0.0341083802503428 0.08382089 0.7103954 0.6987936 87 87 87
0.0279572522033391 0.012307032296852 0.0340751123488388 0.05114875 -0.5315353 0.8454905 139 139 139
-0.0739279082079471 0.0243481578224601 0.017285561832794 -0.968377 -0.2259653 -0.1057622 84 84 84
0.0602724986124463 -0.0164569067296154 -0.0193098179869713 0.8757239 -0.300312 -0.3780481 22 22 22
0.0669048586444263 -0.0096519982440868 -0.00662575587611207 0.9663708 -0.2563809 -0.01990708 104 104 104
-0.0575597172976663 -0.0100032072578993 0.0127569003572426 0.04426077 -0.5326676 0.8451664 171 171 171
0.032606358286567 -0.0279425249028596 -0.0019933587102388 0.04100284 -0.5315818 0.846014 161 161 161
-0.0171809685697319 -0.0269749907366967 -0.00171118592006018 0.04689134 -0.5222098 0.8515269 186 186 186
0.017911111015946 0.0306741097156618 0.031822688895946 -0.1422841 0.8163711 0.5597261 55 55 55
-0.0431009510979841 -0.0572746344610197 -0.0303439959033909 0.1826454 -0.6685371 0.7209013 103 103 103
0.0595952085153868 0.0190432643080563 0.0404660157379435 0.04169053 -0.5221623 0.8518265 166 166 166
-0.0503405637882821 -0.0119139708831431 0.0108146636792561 0.03746269 -0.5308176 0.8466576 152 152 152
-0.0751547607547147 0.0170086158973097 0.0305968046927654 -0.9523569 -0.2354771 0.193822 95 95 95
0.0698228237168566 0.00421254699327245 0.00489885264642816 0.9694139 -0.2424125 -0.03837725 68 68 68
-0.0548810897302978 -0.0259330886420119 -0.00157871416979753 -0.05519416 -0.5399182 0.8399059 162 162 162
-0.00775808311278481 -0.0376060805549047 -0.011005927244242 0.03926942 -0.5341172 0.8444979 174 174 174
-0.0521560747231284 -0.0510416195853859 -0.0298342142012512 -0.8647164 -0.49324 -0.0947625 79 79 79
-0.0020310766269569 0.00864241686721068 0.0299863395194445 0.05522132 -0.5429273 0.8379622 138 138 138
0.0391453930349999 0.00883036433385187 0.0310762925952692 0.04661277 -0.5328981 0.8448946 212 212 212
-0.0127769878515065 -0.0350724395600052 -0.00877309692888044 0.03431506 -0.5370966 0.8428225 170 170 170
0.0251229840746456 -0.0112675095823944 0.0131686941836996 0.05087694 -0.5306059 0.8460904 182 182 182
-0.00349094712524467 -0.0470902531146247 -0.0197778060423669 0.03925854 -0.5321219 0.8457571 159 159 159
0.0735909485870925 0.00906291204214094 0.0135025799403736 0.9337225 -0.3513149 -0.06884861 78 78 78
-0.028446657282639 0.0079994833519037 0.028889352286154 0.04016893 -0.5317035 0.8459774 161 161 161
0.0663482171587599 -0.0142427509856261 0.00737595615464477 0.8194465 -0.5236512 0.2330167 64 64 64
0.0457825457133443 0.0151562594597665 0.0366969798070246 0.04755434 -0.5314533 0.8457518 127 127 127
0.0792201293680164 0.023565880671456 0.0150532465051014 0.9814183 -0.189438 -0.03051712 50 50 50
-0.0255131932863366 -0.0556902367169816 -0.0315844176728845 0.4299594 -0.8395303 -0.3321502 81 81 81
-0.0518846801044632 0.0167154337104169 0.0364863405819729 0.0228889 -0.3779432 0.9255458 144 144 144
0.000461757670258578 -0.0339747142682163 -0.0367350321781325 0.2728548 -0.8195808 -0.503823 65 65 65
-0.0748802320519997 0.0157726128541846 0.032342283401918 -0.8393097 -0.3388419 0.4251416 94 94 94
0.0438084810823642 0.00386836167714488 0.0266213935770368 0.043161 -0.5373142 0.842277 156 156 156
-0.0187232620147098 -0.0492583207405241 -0.0328381907480588 0.4388655 -0.6374863 -0.6332521 70 70 70
0.0262666946135663 0.00766610439766402 0.0297653388762121 0.04182976 -0.5317094 0.8458933 164 164 164
-0.058102132567633 0.0336976673722977 0.0265351776999801 -0.05549831 0.7502652 0.6588035 53 53 53
-0.0160153118552504 -0.0182308359267548 0.00598261005235275 0.03952168 -0.5323625 0.8455934 197 197 197
0.0587115791391981 0.0322104931895248 0.0363103534421578 -0.2387396 0.8383547 0.4900661 57 57 57
-0.000710232171234004 0.0369568379253864 0.0249568493019012 -0.02309866 0.7630126 0.6459708 75 75 75
-0.0425141440507171 -0.0303362214465063 -0.00508109277614403 0.0499364 -0.5371989 0.841976 145 145 145
-0.031043151676418 -0.0242239210730947 0.000234767682347384 0.02573062 -0.5342177 0.8449553 169 169 169
-0.034130108111361 0.024741890835252 0.0400806702912511 0.00594378 0.3167828 0.9484795 76 76 76
0.0457309123712266 -0.0321145120283257 -0.00555130818472986 0.2943739 -0.7568182 0.583584 101 101 101
0.000540975340450611 -0.00669977091243668 0.0163514133838287 0.05041092 -0.5401834 0.8400362 139 139 139
0.0218035536442884 -0.0139059547014455 0.0104456150675059 0.0417351 -0.5334848 0.8447794 147 147 147
0.0239935385539103 -0.0311010736703581 -0.0303708830793448 0.4193006 -0.7489101 -0.5131478 62 62 62
0.00054760642835161 -0.00787158434218505 0.0154775342341584 0.04874865 -0.5330532 0.8446762 140 140 140
-0.0343188746640584 -0.0512645757019995 -0.0238957861342571 0.0231796 -0.5968546 0.8020145 123 123 123
0.00225413847009936 0.00929503869856052 0.030747038614891 0.04906513 -0.539199 0.840748 119 119 119
-0.0546315912479567 -0.0332792048186008 -0.0413276428561156 -0.9908744 -0.1125773 -0.07412343 50 50 50
0.0213025092788361 -0.0398065573505498 -0.0258800602507308 0.294429 -0.7022383 -0.6482075 83 83 83
-0.037471550124935 -0.00613225266360595 0.0166095625525051 0.03894035 -0.526328 0.8493895 138 138 138
0.019101672097485 0.00299313978414983 0.0256659373183612 0.05079862 -0.5325305 0.8448851 174 174 174
-0.0632055272744978 0.0409712512439098 0.0224375623120074 -0.006124372 0.6566432 0.7541765 48 48 48
0.0352995235181315 -0.00553990135725346 0.0184698843225962 0.04647698 -0.5292429 0.8471965 161 161 161
0.0196005712318965 -0.0230498377074694 0.00229798156064349 0.02783909 -0.5273803 0.8491731 171 171 171
0.0645904495047027 -0.0172840632042567 -0.00551014921373687 0.977994 -0.2072881 0.02365282 77 77 77
-0.0359429070203869 0.0223749990693282 0.0403557787604769 -0.1136113 0.07432039 0.9907416 93 93 93
-0.0304212918450149 -0.0212568857089086 0.00286350696464029 0.03958348 -0.5272921 0.8487615 196 196 196
-0.045050644667697 -0.0261797229527421 -0.00155918855034758 0.04604975 -0.5362942 0.842774 180 180 180
-0.0229721751416836 -0.00992984618403192 0.0133566519610063 0.03906521 -0.5324604 0.845553 160 160 160
0.0666510736282495 -0.0129908200876716 0.0119532794266261 0.6205152 -0.583391 0.5240381 124 124 124
-0.0010025775667637 0.0285947835649532 0.0329177551106589 -0.06322803 0.8812773 0.468351 60 60 60
-0.0349107471052259 -0.0415377934508424 -0.0153015948896078 0.04942328 -0.537681 0.8416986 169 169 169
0.0123715979395851 -0.0125890439370741 0.011527401490996 0.04274626 -0.535579 0.8434026 142 142 142
-0.00466407493308441 0.0253922366421004 0.0381094966013274 0.07491812 0.5733011 0.8159125 54 54 54
0.0497740810078804 0.00421296797240411 0.0268503077203445 0.05248117 -0.5299577 0.8463986 133 133 133
-0.0725348650235909 0.0102874905587786 0.0143680524176225 -0.9720805 -0.222428 -0.0747348 88 88 88
-0.06523395944857 0.00462990444248057 -0.00886423612680746 -0.9287385 -0.04186744 -0.3683639 42 42 42
-0.0390656380403462 -0.0306939010834998 -0.0054513355807793 0.04014185 -0.5432072 0.8386385 173 173 173
-0.0720523661130801 0.0189849286417196 0.00976344530233715 -0.9130843 -0.1738901 -0.3688349 46 46 46
-0.0194523318537603 -0.0370360903398543 -0.0107853775109742 0.0521602 -0.5231846 0.8506216 180 180 180
-0.0102701763794852 0.0199257041758415 0.0401669342917181 0.03296659 -0.1627055 0.9861238 152 152 152
0.00538411839814246 0.0141975668837547 0.035265630216836 0.04133422 -0.5417916 0.8394959 108 108 108
-0.011663602717042 -0.0060507630828035 0.0170675531724788 0.0428542 -0.5346865 0.8439632 149 149 149
-0.0425232589347435 -0.0514897446033595 -0.0240684590920365 0.06863353 -0.585858 0.8075023 147 147 147
-0.0263987716566618 -0.00689411907264692 0.0159635391305652 0.03982181 -0.5334964 0.8448644 137 137 137
0.0770025243473884 0.00798911289475746 0.0308301454209024 0.5435482 -0.5715051 0.6147661 152 152 152
0.00825806799190065 -0.0309118559996872 -0.00483683616516277 0.03933962 -0.5181277 0.8543981 212 212 212
0.0417682308739808 -0.0243061066773389 -0.0307640568933067 0.4489463 -0.6729046 -0.5879173 49 49 49
-0.0188144341846772 0.037702088223503 0.0270255143124454 0.03245327 0.8404264 0.5409532 60 60 60
-0.0180450412205362 -0.0355551824273873 -0.0441803015301317 0.4066164 -0.7501673 -0.521452 73 73 73
0.0591911334253885 0.010669525127381 0.033001026253093 0.04194594 -0.5237024 0.850868 137 137 137
0.0390664708313442 -0.00231191782092033 0.0209390749141478 0.04298207 -0.5242857 0.850457 191 191 191
0.082419626393117 0.025019350317482 0.0309405923522039 0.9377772 -0.2768455 -0.2095961 77 77 77
-0.0143809700842226 0.0323743381394397 0.0303632948658375 0.1399228 0.7804595 0.6093477 63 63 63
0.0105658193840199 0.0114902225302046 0.0327822938180948 0.04946685 -0.5282742 0.8476316 126 126 126
0.0596985348604817 -0.0150027856577053 0.0101873109143136 0.0467736 -0.5407664 0.8398714 144 144 144
0.0673415172538339 0.018552572513107 0.040110365760645 0.04364625 -0.5291457 0.8474077 171 171 171
0.0232420168479908 0.000284560102811082 0.0227651669742706 0.05303731 -0.5251746 0.8493401 100 100 100
0.0370998374021485 -0.00234126260281298 0.0211906769254342 0.0398373 -0.5284297 0.8480418 133 133 133
0.0138644838246926 -0.0148084522912919 0.00969382611410104 0.03961892 -0.530232 0.8469264 166 166 166
0.053827259576432 -0.0202824254683346 -0.0278842799948262 0.589951 -0.7187288 -0.3679494 74 74 74
0.0386626570476027 0.00620506170108415 0.0284839509242762 0.04091456 -0.5322986 0.8455674 202 202 202
-0.0716661892464145 -0.00136136900525186 0.0157245134223637 -0.9373375 -0.3230903 0.1304267 97 97 97
0.029636409292209 -0.0365377114874986 -0.00928426135462461 0.06797369 -0.5625973 0.823932 179 179 179
0.0647850297610557 0.00464025026094139 0.0276202742556357 0.04885747 -0.5340201 0.8440589 118 118 118
0.057108768160032 -0.0220356292435978 -0.0246688728562107 0.6773068 -0.6378521 -0.3666063 83 83 83
-0.0242291355346416 -0.0524843004801406 -0.0242733767398115 0.04279708 -0.5305154 0.8465942 172 172 172
0.0160201745230741 -0.0308104320241986 -0.00457891339822507 0.05430002 -0.5407013 0.8394603 171 171 171
0.0450565928615332 0.0331800080377684 0.0318966905954715 -0.1319041 0.8807565 0.4548289 34 34 34
-0.0160188711703884 0.00263615067261813 0.0244744454502124 0.05031101 -0.530573 0.8461448 171 171 171
-0.0596117568607768 -0.0380525573176917 -0.021239228455093 -0.9010124 -0.4184151 -0.1144792 77 77 77
0.0736469793987957 0.0145653342245385 0.0366684483670291 0.04452026 -0.5285288 0.8477471 152 152 152
-0.0601412776376093 -0.0281068218682279 -0.00701181156662305 -0.7188575 -0.5165316 0.4652301 79 79 79
-0.0131805328102557 -0.0326286587692703 -0.00676035505185106 0.03732743 -0.5384951 0.8418015 131 131 131
-0.0741939160518108 0.0200566383836793 0.0218503427065837 -0.9730252 -0.2123094 -0.09025864 71 71 71
-0.0550825234270897 -0.042489187743818 -0.0284960575808489 -0.8567486 -0.4298757 -0.2849365 76 76 76
-0.0332261659871396 0.0343401027300299 0.0284614900414464 -0.201557 0.8089093 0.5523047 76 76 76
0.00735387844861912 -0.0329182209201122 -0.0364308732530127 0.1209262 -0.8784583 -0.4622638 76 76 76
5.48050226338859E-05 0.0349561475912783 0.024723978408556 -0.08779711 0.7864273 0.6114112 78 78 78
0.000569747134981702 -0.0322655437470781 -0.0397507415398793 0.2730384 -0.8661943 -0.4185182 75 75 75
-0.0591523847069841 -0.0290082233851144 -0.00640954704776502 -0.6214556 -0.5374545 0.5700312 90 90 90
0.0729271981136865 0.00960856603606053 0.00413830130553068 0.9015577 -0.4306171 0.0419843 81 81 81
-0.0449016838810732 0.0147622578674697 0.0347128674404992 0.04340759 -0.5311996 0.8461341 160 160 160
-0.0404159148772405 -0.032825238804601 -0.00734666092359697 0.04961956 -0.5338331 0.8441327 184 184 184
0.0690805101057141 -0.00423459522090097 0.00742253576595926 0.9764518 -0.1746715 -0.126617 90 90 90
-0.00145326299411574 0.0338638690293711 0.0263569519320077 -0.05059857 0.7894232 0.6117604 64 64 64
0.0770775393189014 0.0196196753034223 0.0410037908768108 0.03905511 -0.5192831 0.8537094 138 138 138
-0.0158930784221292 0.00388913486547215 0.025781487280404 0.0473959 -0.5235839 0.8506548 142 142 142
-0.0323655981548649 -0.038886435384645 -0.0124079533605251 0.02658219 -0.5239159 0.8513551 159 159 159
-0.0644291530329741 -0.0207495286474562 -0.00497351388184634 -0.7689509 -0.5745341 0.2804015 73 73 73
0.00594922925063801 -0.0336521179744989 -0.00745102994888984 0.04311208 -0.5334343 0.8447421 197 197 197
-0.0410674835608156 -0.0199792699775191 0.00415335213626485 0.04545608 -0.5313672 0.8459212 224 224 224
0.0643457338666433 0.00763423829905574 0.0303433666984722 0.04806972 -0.5343968 0.8438658 125 125 125
0.030565938424121 0.03261480866958 0.0316929131668567 -0.06674849 0.842008 0.5353197 54 54 54
-0.0441773772269287 0.0294240264940763 0.0323724963265796 -0.08674418 0.8081074 0.5826129 51 51 51
-0.0526161815880186 -0.000670677720026935 0.0209736121622838 0.04563705 -0.5385272 0.8413713 161 161 161
-0.0631172269916911 -0.0228355450375872 -0.0049668492522698 -0.7354113 -0.5853444 0.3413827 76 76 76
0.0412205771548189 0.00659804130999975 0.029166496778545 0.04002099 -0.5289269 0.8477232 190 190 190
0.0110798972928685 -0.0396577120907046 -0.012610371795297 0.02708769 -0.5389237 0.8419189 141 141 141
-0.0588047625328358 -0.0333807792106364 -0.00997512286794382 -0.7279477 -0.4746456 0.4947765 85 85 85
0.0715671122368093 0.0183491199130223 0.0397764732385387 0.03912681 -0.5286034 0.8479667 137 137 137
0.0106985197514278 -0.0421276037053466 -0.0269045572952557 0.2307335 -0.7451097 -0.6257584 86 86 86
-0.0184663495615867 0.0081362364110027 0.0287807491728774 0.03678202 -0.5198033 0.8534938 135 135 135
-0.0200092379084806 -0.0239376982666027 0.000859418642786339 0.04783016 -0.5222801 0.8514316 160 160 160
-0.0640464160884811 -0.0209438893583296 -0.0211616792216425 -0.9084107 -0.2386377 -0.3432812 63 63 63
-0.0384760628369099 -0.052779423656696 -0.0449771698990601 0.550553 -0.6996536 -0.4553858 85 85 85
0.0249235067164755 -0.0249411947070023 0.000773114662391008 0.0421024 -0.5337136 0.8446166 179 179 179
-0.0507665932997898 -0.0334227775067276 -0.00819278971090258 0.03658638 -0.523248 0.8513947 178 178 178
-0.0749421455363235 0.0147556198103767 0.0281207422771066 -0.9434976 -0.3106384 0.1153952 87 87 87
-0.046198944540486 -0.0572320330599848 -0.0474359377498634 -0.3438773 -0.7237299 -0.5983005 172 172 172
-0.00393556404410189 -0.0278072119385113 -0.00220473478865295 0.05008165 -0.5216338 0.8516983 126 126 126
-0.045542483757242 -0.0589399171840983 -0.0468157607030249 -0.0414351 -0.7633063 -0.6447066 157 157 157
-0.0458386002679974 -0.0593054984380944 -0.0455600266293447 -0.5547029 -0.7414474 -0.3775718 153 153 153
-0.0470107996544207 -0.0574060162242203 -0.0450586079150264 -0.7535408 -0.5924875 -0.284842 140 140 140
-0.0471656211589335 -0.0565988019043141 -0.0465828123174216 -0.6775164 -0.6155783 -0.4025356 136 136 136
-0.0459831778883015 -0.0599824552827304 -0.0437720425613521 -0.5161637 -0.8051628 -0.2920407 158 158 158
-0.0474456739047868 -0.0589151371659344 -0.0422715202768976 -0.7986829 -0.5741025 -0.1803108 129 129 129
-0.0486940707572365 -0.0552570146694324 -0.043515428961637 -0.9042732 -0.413492 -0.106369 108 108 108
-0.0467797350902897 -0.0578261781946545 -0.0434689474813314 -0.7409436 -0.6204639 -0.2569576 93 93 93
-0.0465652854987657 -0.0611295470676461 -0.0415534838498266 -0.5412496 -0.8323094 -0.1196246 208 208 208
-0.0456847887680361 -0.0617345141890948 -0.0399856453653787 -0.4168756 -0.9089502 0.004931205 223 223 223
-0.0460281618244793 -0.062136383287807 -0.0384903745619543 -0.2447091 -0.941392 0.2321606 189 189 189
-0.0466551439393443 -0.0611443495730741 -0.0403484579955932 -0.5445119 -0.8385276 -0.0194493 217 217 217
-0.0479578049638452 -0.0562655152296112 -0.0410766059875581 -0.9168296 -0.3805705 -0.1207874 93 93 93
-0.0479168995840586 -0.0565753107694541 -0.0392473553533278 -0.9161971 -0.3913013 -0.08640707 76 76 76
-0.0477350084217827 -0.0610224538269171 -0.0375405756974558 -0.5447147 -0.7951181 0.2665954 192 192 192
-0.0488674179079716 -0.0562821103112391 -0.0385177395049529 -0.9307948 -0.3492095 -0.1080451 77 77 77
-0.0489145185991662 -0.0584602056103145 -0.0370229833974924 -0.864627 -0.501168 0.03536697 74 74 74
-0.048910663608952 -0.0565376438514557 -0.0368373073192824 -0.9170198 -0.3968022 -0.04028215 77 77 77
-0.0472229542391629 -0.0613136405375688 -0.0358405303396653 -0.4196886 -0.7907541 0.4456111 172 172 172
-0.0462560342306582 -0.0611405841989132 -0.0353395700528166 -0.3824677 -0.7785578 0.4975601 130 130 130
-0.0493748361204229 -0.0570609505360704 -0.0341551845690897 -0.7927016 -0.5954561 0.1305992 79 79 79
-0.0474020751745312 -0.0581733262890016 -0.0308481536402333 -0.255659 -0.6967561 0.6702009 122 122 122
-0.0489052795718066 -0.0572758341016437 -0.029886799784926 -0.3782147 -0.7815583 0.496105 102 102 102
-0.0477972687530002 -0.0572728043554381 -0.0296472230752534 -0.2409427 -0.7386247 0.6295873 132 132 132
-0.0435624724652517 -0.0623239223281391 -0.043949318400866 0.07837 -0.9240513 -0.3741488 74 74 74
-0.0423070520923974 -0.0608034294649401 -0.043589498336979 0.1633203 -0.882039 -0.4419657 103 103 103
-0.0419852616763692 -0.0618235966562274 -0.0419044433282273 0.2263002 -0.9596443 -0.1669464 93 93 93
-0.0444462392614309 -0.0596133852159062 -0.0462860103943991 0.09938703 -0.8193924 -0.5645515 139 139 139
-0.0428944094336257 -0.0563834149937039 -0.0472940482706233 0.2516714 -0.6647955 -0.7033551 88 88 88
-0.0418180728305377 -0.0578347965005823 -0.0461329713487183 0.3930922 -0.6356974 -0.6643548 78 78 78
-0.0395980280960957 -0.0577786062304152 -0.0438099479787403 0.6505984 -0.5967305 -0.4697174 51 51 51
-0.0374052275114165 -0.0568000402674108 -0.0409905960847182 0.7228438 -0.5816536 -0.3730628 87 87 87
-0.0420164546943904 -0.0623805474419372 -0.038207235120467 0.1933219 -0.9419808 0.2744061 98 98 98
