ply
format ascii 1.0
comment File exported by Rhinoceros Version 7.0
element vertex 466
property float x
property float y
property float z
property float nx
property float ny
property float nz
property uchar red
property uchar green
property uchar blue
end_header
-0.0300135456672415 -0.00178411858489658 0.0262507891159872 -0.7086896 -0.4991028 0.4986536 76 76 76
-0.0341068890080065 -0.00214795678267898 0.0210384256837866 -0.816634 -0.4934424 0.2993718 82 82 82
-0.0339947539251457 -0.00324841345821558 0.0179382148833473 -0.8531978 -0.399492 0.3353499 98 98 98
-0.0339385056634176 -0.00458492069723859 0.0161911530104561 -0.879441 -0.2963868 0.3724761 98 98 98
-0.0337072605570865 -0.00397986175211495 0.0168588851070738 -0.8790507 -0.2989577 0.371341 93 93 93
-0.0315591200648599 -0.00499079039222239 0.0223589362221121 -0.7735347 -0.4456441 0.4506056 72 72 72
-0.030707443164725 0.00874900711801829 0.0217808637975842 -0.3854377 0.8116794 0.4388785 85 85 85
-0.0258462204680214 0.0124666183039388 0.0198531740330744 -0.3035393 0.8776829 0.3708594 92 92 92
-0.0199760397644206 0.0118231854698994 0.0242899308842454 -0.2959802 0.8778316 0.3765732 78 78 78
-0.0294368379950616 0.0126715755791273 0.0172432891882278 -0.3405492 0.8880001 0.3090019 117 117 117
-0.000550029472776492 0.00163478659398897 -0.0207560005951042 0.07743995 -0.2521013 -0.9645973 107 107 107
-0.0285059056191208 0.0126792862932164 0.0167116534094879 -0.3046428 0.9059638 0.2939767 93 93 93
-0.0300548318517035 0.0135561624599456 0.01326096124388 -0.3499844 0.9111028 0.2177211 49 49 49
-0.0273384730220985 0.0133164249110285 0.0140889718377636 -0.3280922 0.9037623 0.2748985 105 105 105
-0.0266307151700078 -0.00814127830607858 0.0264147687676707 -0.8089488 -0.474186 0.3474903 65 65 65
-0.0152144053496144 0.0131500125776574 0.0260320390779484 -0.3351497 0.8811495 0.3335419 51 51 51
-0.0123616983132848 0.0144107727081304 0.0264209033442201 -0.3691498 0.8557029 0.3626306 58 58 58
-0.00773791901221332 0.0170922669244604 0.0254505816635672 -0.4100341 0.8483435 0.3349408 90 90 90
-0.0223090449115337 0.0130874575732405 0.0205475722290435 -0.2683831 0.8827323 0.3856865 72 72 72
-0.02004846272495 0.0131218016448982 0.0212948373028797 -0.2696191 0.88592 0.3774271 103 103 103
-0.0232779598054675 0.0144157630796513 0.0169050519732734 -0.2928056 0.90408 0.3112944 97 97 97
-0.0271079086825372 0.0139556505109295 0.0138354454217893 -0.3341424 0.8868955 0.3190068 66 66 66
-0.0229777724722582 0.0138853129965442 0.0174326924361967 -0.2974716 0.89899 0.3214462 98 98 98
-0.0215018673728846 0.0147826677825542 0.0172155530016282 -0.2585463 0.9082097 0.3291032 90 90 90
-0.0204480721572988 0.0149280290185103 0.0172752136233322 -0.2559414 0.9120701 0.3203468 89 89 89
-0.0197890075139682 0.0147266930942254 0.0181933736188758 -0.2629011 0.9039537 0.3372695 69 69 69
-0.0204703484633131 0.0159274108850755 0.0144711456258617 -0.2318269 0.900585 0.3676995 105 105 105
-0.021329810586403 0.0166435479445994 0.0125866745227339 -0.2673032 0.8548452 0.4447343 69 69 69
-0.0169753372782442 0.0166717409858179 0.0151859960425355 -0.3347921 0.8815578 0.3328215 92 92 92
-0.0160160980113744 0.0175683557416029 0.0141850270423999 -0.3509889 0.8622599 0.3651226 78 78 78
-0.0141658624432635 0.0144274976553376 0.0236244040152943 -0.3580305 0.8597468 0.3642111 58 58 58
-0.0147673540551996 0.0147022886499937 0.0226951866524862 -0.3352489 0.862991 0.3779612 82 82 82
-0.0125496123788444 0.0146269501646701 0.0249986218812364 -0.3759418 0.8538563 0.359996 46 46 46
-0.0159398633841983 0.0152172314037486 0.0211890500086921 -0.3259093 0.8638617 0.3840913 99 99 99
-0.0116922633514347 0.0161994355322157 0.0210174838803627 -0.3826092 0.851656 0.358179 45 45 45
-0.0123160588072988 0.0165190566533788 0.019988410532695 -0.3878264 0.8475974 0.362173 78 78 78
-0.0115487797229912 0.0180056435198226 0.0186671153016085 -0.3906208 0.8367576 0.3837345 81 81 81
-0.00903675290690575 0.0170290525632895 0.024566490329687 -0.3923402 0.8508855 0.3493753 40 40 40
-0.00594485884443818 0.0176321781133553 0.0246484755439475 -0.4218557 0.8471095 0.3231769 47 47 47
-0.0130065823640655 0.0173556113206008 0.0188525069614457 -0.3777465 0.8512194 0.3643255 59 59 59
-0.0156503251758124 0.0156578069909366 0.0178670116570394 -0.3363741 0.8772953 0.3423527 90 90 90
-0.0125196873083344 0.0182649881134889 0.0161964827755143 -0.4040192 0.8435547 0.3538133 100 100 100
-0.0124705304209412 0.0188611645699541 0.0166093254812187 -0.3974409 0.8469715 0.3531007 95 95 95
-0.0129375612077183 0.0185661056046496 0.0149884292569385 -0.3878149 0.8473039 0.3628716 93 93 93
-0.0122152207630546 0.0186728237847194 0.0143342902016032 -0.4147346 0.8215296 0.39126 90 90 90
-0.00473891840787721 0.018460472422446 0.024023370278817 -0.4464855 0.8293208 0.3359726 61 61 61
-0.00708857924607553 0.0188044802917477 0.0207978603413059 -0.4115154 0.8380091 0.3583238 57 57 57
-0.00539582709477915 0.0206757877578159 0.0203348591021966 -0.4455737 0.8075228 0.3864855 47 47 47
-0.00734321448706221 0.0195086109369746 0.0185114706333933 -0.394817 0.8327702 0.3880894 75 75 75
-0.00595312249741653 0.0207106238571979 0.0191215249669158 -0.4329159 0.816575 0.3818234 50 50 50
-0.00426790047770109 0.0207401204769078 0.0192695901122046 -0.4618755 0.8027016 0.3772813 65 65 65
-0.00324997621964385 0.0217912846397506 0.0185677763149532 -0.477237 0.786759 0.3914782 66 66 66
-0.000622753564819556 0.023311896102632 0.0195814965848213 -0.4634891 0.795303 0.3907312 75 75 75
-0.00103202634508337 0.0234851895544319 0.0183973776949967 -0.4479494 0.8025746 0.3939737 70 70 70
-0.00918651968875617 0.0203159160920363 0.0150950352919763 -0.4455773 0.8005475 0.4007301 84 84 84
-0.00923084879392078 0.0231584850485402 0.0124988800392817 -0.4577384 0.7620502 0.4579903 52 52 52
-0.00791733795653049 0.0211343596902778 0.0155650415725214 -0.4221246 0.7941311 0.437226 58 58 58
-0.00381821302091168 0.0224193218904325 0.015458357254533 -0.4536333 0.7833728 0.4249045 83 83 83
-0.000925931082577103 0.0251893310602418 0.0156209090961023 -0.4869811 0.7749454 0.4028759 70 70 70
0.00127371751127536 0.0253127529135562 0.016768662241366 -0.4857319 0.7702633 0.41323 85 85 85
-0.00279627521220149 0.0249787933561028 0.013444896178389 -0.4381954 0.786258 0.4356411 66 66 66
-0.00130145506430557 0.0253382089434619 0.0128987502311846 -0.4379535 0.80052 0.4091021 86 86 86
-0.036182508454732 -0.00282386260141831 0.0141570729586806 -0.8971105 -0.287304 0.3356324 95 95 95
-0.0373890475709133 -0.00244988865363172 0.0106322990447202 -0.9705362 -0.1404587 0.1957827 110 110 110
-0.0376804127755352 0.00487928746139743 0.0145080614553598 -0.9905469 -0.06353086 0.1215759 102 102 102
-0.0373002167780694 -5.13185316368681E-05 0.0133650757478436 -0.9383951 -0.2530792 0.2352989 138 138 138
-0.0384623513923048 0.0048761808440545 0.0115895583315395 -0.9754589 -0.1577519 0.153604 118 118 118
-0.0376045539481609 -0.00151282227741922 0.00939406016795602 -0.9714819 -0.1315348 0.1972851 105 105 105
-0.0372614782576297 -0.00503255816282766 0.00733155368147259 -0.9771326 -0.09342272 0.1910083 101 101 101
-0.0377343681312834 -0.00465136581560466 0.0039859571703999 -0.9659121 -0.1075917 0.2354523 112 112 112
-0.0374965806506571 -0.00137272529299159 0.00881887014860766 -0.9743528 -0.1315292 0.1825834 115 115 115
-0.0390750417080559 0.000824173350872259 0.00382850100430404 -0.9529328 -0.1406566 0.2685792 125 125 125
-0.0387232632068841 0.0101519089927316 0.00976975988487133 -0.8159341 0.5325083 0.2251366 73 73 73
-0.0381875034575763 0.00961826223915385 0.0101394734648814 -0.8348525 0.4975621 0.2354854 105 105 105
-0.0334049104349694 0.0130155290688514 0.0109954897224313 -0.3895035 0.8986604 0.2017339 72 72 72
-0.0311984726259773 0.01246943345104 0.0132357994903577 -0.3694568 0.9092928 0.1915419 107 107 107
-0.0316411625204525 0.0133435870274188 0.0100423536561697 -0.4460219 0.8501382 0.2798739 126 126 126
-0.0401423086736741 0.00840110798179849 0.00723886879317609 -0.9714648 0.1582137 0.1767046 102 102 102
-0.0403343125330797 0.00771340034459977 0.00566144840720056 -0.9938853 -0.01745401 0.1090296 133 133 133
-0.0399512599191452 0.00700025965882989 0.0057347248361595 -0.9862735 -0.08769795 0.1399061 120 120 120
-0.0400805102194719 0.00921605295345818 0.00199146071470263 -0.9896116 0.1019159 0.1014007 136 136 136
-0.0397460678445689 0.0059308528722879 0.00501330780277037 -0.9850898 -0.1318469 0.1105193 126 126 126
-0.0386242255191822 0.0119839977003016 0.00365930629838623 -0.82813 0.4850914 0.2808682 93 93 93
-0.0416014143592047 0.0113300225875748 -0.0059475281061912 -0.9662611 0.201091 0.1609408 121 121 121
-0.0409632617159716 0.0147159792860474 -0.0101533566862858 -0.936207 0.3331119 -0.1120399 114 114 114
-0.0402682355792001 0.000328906382973004 0.00110671825667735 -0.9476126 -0.0145389 0.3190909 110 110 110
-0.0397457968854578 0.00336314716328157 0.00170388866852184 -0.9727622 -0.08932395 0.2139038 116 116 116
-0.0409414039761151 0.000309037363673825 -0.00160758421430002 -0.9477668 0.02814747 0.3177198 139 139 139
-0.0403837578342192 0.00404808349737773 -0.000261241689804292 -0.9739159 -0.01215571 0.2265834 121 121 121
-0.0403909200936399 0.0031314336620516 -0.000345053779278015 -0.9707087 7.340124E-05 0.2402595 109 109 109
-0.0388494760636418 -0.00403565222632474 0.00221049333023976 -0.9015782 -0.1024807 0.4203028 86 86 86
-0.0403895495502227 -0.00780560009771158 -0.000367363336818249 -0.8563682 -0.04968932 0.5139693 119 119 119
-0.0396686117083125 -0.00327342085606586 0.00103856996327084 -0.8761042 -0.05495268 0.4789797 84 84 84
-0.040574284919964 -0.00312574911791397 -0.00109776999908001 -0.8931556 0.04484138 0.4475068 113 113 113
-0.039444208344023 -0.0060773121428721 0.00114523671253169 -0.8620714 -0.03550647 0.5055414 97 97 97
-0.0423157595026138 -0.00412957620758214 -0.00396055570523873 -0.9565805 0.06102724 0.2850077 107 107 107
-0.042822813829275 -0.00349267897930461 -0.0071628672374629 -0.9880485 0.04194008 0.1483279 160 160 160
-0.0412593997539457 0.000448465372763662 -0.00346562929906119 -0.9566603 0.0615862 0.2846196 119 119 119
-0.0414993437042928 -0.000144487108362013 -0.00470947543637729 -0.9626776 0.08494258 0.2569759 125 125 125
-0.0412426766876999 0.00237918876519605 -0.0034212607053879 -0.9628004 0.02716657 0.2688446 129 129 129
-0.0417486856484011 0.00220185261302297 -0.00526168261435017 -0.9655529 0.05687442 0.2539152 133 133 133
-0.0417001666383949 -0.00637068446351186 -0.00202297604578089 -0.9108441 0.01304138 0.4125445 100 100 100
-0.041154418293047 -0.00731259807786011 -0.00149526938595651 -0.8739906 -0.06979054 0.4809051 99 99 99
-0.0423937873727613 -0.00731488832598992 -0.00338875018808144 -0.9499187 -0.05166501 0.3081966 106 106 106
-0.042106405740151 -0.00600876614753276 -0.00345610002980395 -0.9492398 -0.01039085 0.3143817 128 128 128
-0.0405252252728567 0.00724122330948052 -0.0005446949268893 -0.9786119 0.01896539 0.2048389 113 113 113
-0.040862467823471 0.00941112810760836 -0.00230556764585282 -0.9515225 0.1318761 0.2778735 109 109 109
-0.0406520649122761 0.00520284575770025 -0.0020352734503703 -0.9720141 0.01746453 0.2342722 136 136 136
-0.0403638015716001 0.00662561567779929 -0.00210597447978383 -0.9700156 0.01976329 0.2422377 145 145 145
-0.0402186800836191 0.0109442008716354 -0.00178140322096615 -0.9464134 0.2014402 0.2524352 130 130 130
-0.0392568906701696 0.0153324507713275 -0.00224231119409407 -0.8393643 0.4332182 0.3283133 83 83 83
-0.0409245303763546 0.00637821430317831 -0.00385114844913509 -0.9695376 0.02060409 0.2440742 150 150 150
-0.0414636117289113 0.00546433518231626 -0.00511976552254795 -0.9705325 0.03210673 0.2388219 121 121 121
-0.0418737179204838 0.00902750317118506 -0.00655119173706836 -0.983677 0.09638137 0.1519548 140 140 140
-0.0414451707075436 0.00930085355078192 -0.00518120145832129 -0.9754473 0.08221229 0.2043129 141 141 141
-0.0422505367823389 0.00563740266358947 -0.0067507251468108 -0.9755993 0.04349188 0.2152076 129 129 129
-0.0278825248463097 0.0174101297491569 0.00869991562960476 -0.3664597 0.7961476 0.4815145 90 90 90
-0.027667523932976 0.0172050303030782 0.0086432737249344 -0.3664597 0.7961476 0.4815145 110 110 110
-0.0334842535995923 0.0180567455401672 0.00150500580306473 -0.4845986 0.6861051 0.5426086 81 81 81
-0.0276576094670018 0.0180836002572493 0.00572054183630283 -0.3631423 0.8041531 0.4706012 92 92 92
-0.0284089985339231 0.0199268856038699 0.00228673087673908 -0.3277357 0.8411889 0.4301052 116 116 116
-0.0393997035896698 0.0166525434872729 -0.00356410912407962 -0.8524819 0.4358928 0.288569 117 117 117
-0.0387811306401169 0.0189913679509968 -0.00425464527106439 -0.6892853 0.6670512 0.2827163 103 103 103
-0.0401040949879889 0.0168712269819238 -0.00867966840834528 -0.850419 0.5244947 -0.04114315 112 112 112
-0.039637165607209 0.0187003341085952 -0.00989830166764732 -0.7990471 0.5919344 -0.1055342 122 122 122
-0.0324490885226452 0.019328582549915 -0.000163183800593159 -0.4040944 0.7704657 0.4930419 68 68 68
-0.0386753030133993 0.0166959389461405 -0.00185333696230622 -0.7333819 0.5254199 0.4313756 82 82 82
-0.0361168763079212 0.0190259074938071 -0.00256333430677697 -0.5665812 0.7291583 0.3838151 85 85 85
-0.0336053731927675 0.0202168122718114 -0.0026294012642693 -0.4014035 0.8437645 0.3562818 113 113 113
-0.0309683508522156 0.0223033607155265 -0.00436124997003745 -0.299085 0.9186646 0.2580765 119 119 119
-0.0259927141490155 0.0220042335357646 -0.000139094307144261 -0.2669926 0.8910117 0.3671691 137 137 137
-0.026119821972596 0.0216441630053994 0.00042491426472685 -0.28445 0.8728382 0.3965371 115 115 115
-0.0251303554729676 0.0228484517424918 -0.0016485527537729 -0.2444708 0.9140555 0.3236302 118 118 118
-0.0289354613608424 0.0235704366665208 -0.00547312895779689 -0.2454975 0.9601804 0.1333588 122 122 122
-0.0369148189807607 0.0206887306042323 -0.00713453657178525 -0.5210435 0.8507416 0.06893755 146 146 146
-0.0365840898375989 0.0206980165689943 -0.00807828374764036 -0.4986457 0.8663949 -0.02668831 155 155 155
-0.0366170988911858 0.0201885897845269 -0.0106518605683377 -0.455037 0.8485386 -0.2700437 138 138 138
-0.0332735024082373 0.0208976327355128 -0.0109529938244806 -0.3279075 0.8763939 -0.3527185 137 137 137
-0.0308595806216041 0.0222979576881597 -0.00994578045418054 -0.2591643 0.948037 -0.1845528 141 141 141
-0.0261318045324685 0.0235083883707332 -0.00416846179703895 -0.2357885 0.9579231 0.1636677 159 159 159
-0.0245037597930575 0.0241733076256743 -0.00593930235821655 -0.2769105 0.9580101 0.07441185 104 104 104
-0.0264720642141671 0.0241702513300959 -0.00624147334569441 -0.190815 0.9803265 0.05049368 125 125 125
-0.0252268677013492 0.0237507176894474 -0.00814332953675417 -0.2042225 0.9605313 -0.1888725 136 136 136
-0.0223607496660307 0.0246178483702579 -0.00635208158809047 -0.274608 0.9576927 0.08611143 114 114 114
-0.0266875766130175 0.022990115428587 -0.0104181723403905 -0.1393391 0.918005 -0.3712835 100 100 100
-0.0263816262248275 0.0228847619458381 -0.00924295950167459 -0.1601995 0.9433604 -0.2905293 102 102 102
-0.0250341252922535 0.023132267117939 -0.00979608321626141 -0.1677383 0.928459 -0.3314025 75 75 75
-0.0228407980926353 0.0240259756021357 -0.0105804892106342 -0.1535013 0.8659025 -0.4760779 119 119 119
-0.0337482562387568 -0.00744341278023986 0.0155211962351268 -0.8532878 -0.2957256 0.4294721 113 113 113
-0.0360097471590823 -0.00601025613180606 0.0120989331732607 -0.8989195 -0.2100041 0.3845024 98 98 98
-0.0347525472822388 -0.00779775840081265 0.0137642848592538 -0.8510255 -0.318088 0.4178226 110 110 110
-0.0365072683075238 -0.00692081426963465 0.0106456609673819 -0.9134272 -0.2254862 0.3388314 105 105 105
-0.0376744881578299 -0.00769054343483266 0.00687549625605949 -0.9586369 -0.1643189 0.2324102 95 95 95
-0.0236598693657439 0.0170023302005811 0.011521408609368 -0.276894 0.8185427 0.5033066 78 78 78
-0.0244699689972925 0.0172796155753996 0.0104159696118347 -0.2918359 0.819711 0.4928547 94 94 94
-0.0267982482251321 0.0165699160426109 0.00866416345803184 -0.3470123 0.7990541 0.4910143 116 116 116
-0.0248416908536619 0.0189498190387509 0.0060914028082017 -0.295848 0.8404549 0.4539929 106 106 106
-0.0236628257719811 0.0189039839255434 0.00761938987687832 -0.2646809 0.8320199 0.4875315 105 105 105
-0.0215514834665018 0.0181029912909196 0.00922522689501842 -0.2722166 0.8213032 0.5013572 116 116 116
-0.0203997458148863 0.0180719544770198 0.00989158425995446 -0.2619871 0.8243558 0.501797 97 97 97
-0.00385680789937948 -0.0218504217447462 -0.015159880171619 -0.1005334 -0.4016876 -0.9102418 45 45 45
-0.0195412628962057 0.0203167628911423 0.0070030474024993 -0.2648087 0.8412383 0.4713751 109 109 109
-0.0174979762048699 0.018785062403756 0.0101381658822434 -0.301262 0.823726 0.4803298 111 111 111
-0.0162732774748588 0.0192482222942842 0.0116034245712477 -0.3270877 0.8319831 0.4481268 82 82 82
-0.0191345811445878 0.0195809019218249 0.00878860398540054 -0.2669681 0.8245788 0.4987964 85 85 85
-0.0183639898453005 0.0210585314529654 0.00687620923214965 -0.2739749 0.8330113 0.4806558 94 94 94
-0.025471262320224 0.0191877196388825 0.00627595058727598 -0.295848 0.8404549 0.4539929 85 85 85
-0.0215154636391457 0.0214565558918089 0.00430105892573257 -0.2740681 0.8581557 0.4341146 138 138 138
-0.0221328339131224 0.0206474238435368 0.00543868114654428 -0.273542 0.8458115 0.4580149 111 111 111
-0.0241065643228302 0.0216083209864684 0.00239606638505091 -0.2901169 0.8626092 0.4144123 137 137 137
-0.014037286366263 0.0207419179372155 0.0104232273806594 -0.3903399 0.7979071 0.4593245 97 97 97
-0.0158694725577548 0.0214701558871682 0.00758605120908656 -0.3255928 0.8085684 0.4901088 91 91 91
-0.0124946029160593 0.0222923637069556 0.00848611163228979 -0.4220743 0.7844684 0.4543816 76 76 76
-0.0139824980825287 0.0219363258376972 0.00755421075020607 -0.3746332 0.7943917 0.4781127 88 88 88
-0.0209901760495514 0.0235695407618668 -7.12590457168649E-05 -0.231343 0.925014 0.3013793 124 124 124
-0.0169809226247277 0.0230810723994959 0.00340682719281221 -0.3121538 0.876474 0.3665425 134 134 134
-0.0150932431779081 0.0247633414458865 0.00260734886770625 -0.4197942 0.8463604 0.3277909 131 131 131
-0.0159158567691751 0.0248430090320217 0.000921622468461891 -0.4069591 0.8711531 0.2747299 140 140 140
-0.0137513247398577 0.0251938911882024 0.00267886967790715 -0.4602059 0.8268414 0.3233325 96 96 96
-0.0110049213436394 0.0274206719970975 0.000756589591798529 -0.4437544 0.8651567 0.2336363 119 119 119
-0.0115070506500765 0.0209262843307181 0.0115038868257524 -0.4561278 0.7842124 0.4206642 101 101 101
-0.0127697173172956 0.0204858454793617 0.0106193249828911 -0.4251478 0.8002691 0.4228697 109 109 109
-0.00951254465911755 0.022354122786332 0.0117009241650227 -0.46244 0.7640005 0.4499471 116 116 116
-0.0103999384592071 0.0241157361170192 0.00772821748643387 -0.4535132 0.7816941 0.4281124 99 99 99
-0.0101925181733222 0.0239962627103172 0.00831186085219254 -0.4649903 0.7749 0.4281519 99 99 99
-0.00819966652620008 0.025356715536762 0.00817715336255248 -0.4132791 0.8097078 0.4166216 81 81 81
-0.00945284232225019 0.0257016889421096 0.00615473088269408 -0.4303276 0.7930985 0.4310603 99 99 99
-0.00264692447232573 0.0258862026261706 0.0109463720239422 -0.4202339 0.8259938 0.3756829 82 82 82
-0.0106740447681151 0.025405966758816 0.00431634108945883 -0.4111412 0.806093 0.4256488 113 113 113
-0.00734047356300449 0.0281846913785968 0.00319806259600214 -0.3023525 0.8824666 0.3603271 101 101 101
-0.0071766034059999 0.0285029499208533 0.000759721982200701 -0.2998135 0.9018282 0.3111554 107 107 107
-0.0233054704507702 0.0229578155661689 -0.000257149474977958 -0.2414056 0.9195334 0.3101315 62 62 62
-0.0207175063260812 0.023626286416141 -0.00217767047500245 -0.2254497 0.9378983 0.2636648 126 126 126
-0.0150893968479366 0.0252126995211011 -0.00188573581203716 -0.4307117 0.87888 0.2050789 146 146 146
-0.0146923993075598 0.0255684065010306 -0.00227239072342239 -0.4494805 0.8666446 0.2165514 128 128 128
-0.0113693259586565 0.0273698566460328 -0.00143317979842911 -0.4574563 0.8558728 0.2412788 106 106 106
-0.0124039800818383 0.0271792103507906 -0.00287049944589129 -0.4616655 0.8640947 0.2005126 121 121 121
-0.0103315183333537 0.028474199199745 -0.00189699542191185 -0.4455135 0.8607793 0.2461233 94 94 94
-0.0116419565685295 0.0284892925895617 -0.00545639922356095 -0.4546484 0.890349 -0.02394771 114 114 114
-0.0125772309712471 0.0288940229947869 -0.00628764998714187 -0.4036369 0.9134727 -0.05142809 69 69 69
-0.0193277414555413 0.0262783618863816 -0.00807199007616594 -0.233761 0.9252455 -0.2987919 109 109 109
-0.0180594896215649 0.0250717477502509 -0.00994726832199505 -0.1076974 0.788746 -0.6052116 164 164 164
-0.0178126340414899 0.0268020681267476 -0.0074976614477032 -0.2116191 0.9693333 -0.1249412 81 81 81
-0.0188016637881929 0.0265830905573783 -0.00752152484589536 -0.2024338 0.9755417 -0.08566754 82 82 82
-0.014226283400627 0.027303953552231 -0.0073005663808135 -0.2023248 0.938818 -0.2787209 149 149 149
-0.0137859464751973 0.0270946353086925 -0.00890805660515365 -0.1747351 0.7578259 -0.6286235 98 98 98
-0.0107492332069541 0.0278273054466991 -0.0091677605868507 -0.1805256 0.6779032 -0.7126414 105 105 105
-0.015298889935518 0.0249019359322731 -0.0101957533707542 -0.1152532 0.690496 -0.7140952 105 105 105
-0.0123241017304256 0.0237906833753485 -0.011029093534057 -0.08312599 0.6082324 -0.7893943 121 121 121
-0.0103082024756938 0.0256301108201968 -0.0104438420279163 -0.1359568 0.5788225 -0.80404 138 138 138
-0.00904849576747613 0.0250958334496458 -0.0106033654710667 -0.1041221 0.5390873 -0.8357891 101 101 101
0.00108682691063677 0.0269529514113167 0.0141328359821715 -0.503278 0.7720494 0.388138 81 81 81
0.00146173991451759 0.0276829860137948 0.0140128182065085 -0.4935541 0.7906278 0.3623699 78 78 78
-0.000952431745023796 0.0276967805002097 0.0107471230040604 -0.43407 0.8263285 0.3588376 71 71 71
0.0019596468646228 0.0283982703230061 0.0111111079055398 -0.4490218 0.8472322 0.2838608 112 112 112
0.000299607071974295 0.0286499058645624 0.00840187591545943 -0.3598937 0.8777994 0.3161403 85 85 85
-0.00302427167925701 0.0276155739501081 0.00736261414922484 -0.3593079 0.8523383 0.3800227 85 85 85
-0.00185726928775343 0.0286488352082606 0.00697345390608523 -0.3715639 0.871743 0.3193813 69 69 69
-0.000474895351935345 0.0287785451107385 0.00820187643624753 -0.374488 0.864221 0.3359774 62 62 62
-0.00245043449644067 0.0289345465394024 0.0055962464540526 -0.3232225 0.8946865 0.3083234 87 87 87
0.0011469923928924 0.0289840120466598 0.00832856409564858 -0.3566403 0.8876888 0.2912323 83 83 83
-0.00368146330831221 0.029039116073873 0.00436296148460363 -0.290334 0.9134575 0.2851343 85 85 85
-0.00501330663075072 0.0295725583591018 -0.000249535644017584 -0.2475772 0.9220531 0.2975293 95 95 95
0.000342369631195494 0.0296999929041626 0.00532509757979133 -0.3026702 0.9211358 0.244744 96 96 96
-0.000418470896649259 0.0303270733939891 0.00209017739303435 -0.2636201 0.9398695 0.2171399 68 68 68
0.000950512159905603 0.029725436445416 0.00522886115707383 -0.303071 0.9219064 0.2413226 78 78 78
0.00375947225045237 0.0307496832282756 0.00380054235514099 -0.2357744 0.9594939 0.1542138 92 92 92
0.0023873817303468 0.0313710586120528 0.000943396583225231 -0.1934691 0.9682208 0.1584873 99 99 99
0.00513831813328958 0.0314755845250574 0.000839336280124392 -0.1005739 0.9920543 0.07558476 83 83 83
0.00309330862212498 0.0316552296243999 -0.00029351953120621 -0.1399488 0.9775195 0.1577018 100 100 100
-0.00843332873626901 0.0299573216766678 -0.00346469538575062 -0.3743131 0.9138295 0.1574974 119 119 119
-0.00808465123260427 0.0306738379322027 -0.00434470632233513 -0.375964 0.9259722 0.03502107 68 68 68
-0.0085783789973688 0.0302303812610674 -0.00732730960884792 -0.295352 0.8407436 -0.4537812 121 121 121
-0.00182444780423729 0.031227210540582 -0.00248204953069214 -0.1670341 0.9773885 0.1296583 97 97 97
-0.00479724367338652 0.031158781755759 -0.00544168105739246 -0.07711064 0.9375955 -0.3390703 134 134 134
-0.0046892072135134 0.0317358296125632 -0.00433241607496221 -0.1746548 0.9845297 0.0140337 86 86 86
0.00254447139448577 0.0324120279860411 -0.00457759836189148 -0.1305572 0.9900857 -0.05181873 50 50 50
0.00395178763205295 0.0319793269039679 -0.00398192642993306 -0.1075218 0.9941479 -0.01044036 121 121 121
0.00278469970118311 0.0318181826155965 -0.00577197518218414 -0.1694836 0.9397016 -0.2970457 136 136 136
0.00419505416808907 0.0327608452762795 -0.00555863594942746 -0.1042209 0.9638641 -0.2451611 119 119 119
0.00342423019304783 0.032525623335075 -0.00620042726558939 -0.1591508 0.9388944 -0.3052021 109 109 109
-0.00544082235273513 0.0279821553468784 -0.00932659629247806 -0.06829844 0.6633831 -0.7451565 108 108 108
-0.00423902663298237 0.0285554930233902 -0.00894127183620214 -0.09133812 0.688016 -0.7199246 106 106 106
-0.00382056021383015 0.0300305043997147 -0.00764884394763937 -0.0554468 0.8227519 -0.5656898 140 140 140
-0.00383834248380999 0.02796900655915 -0.00962679726163768 -0.09315614 0.6499206 -0.7542713 79 79 79
0.000492276870773134 0.0296462140243057 -0.00826977961641889 -0.09969437 0.7956579 -0.597486 134 134 134
0.000455712498641292 0.0286077328758776 -0.00944254924885318 -0.06554845 0.6997771 -0.7113476 105 105 105
0.000960017291010695 0.0283481500202527 -0.00967135598252372 -0.06241122 0.6591931 -0.7493793 95 95 95
0.00273430124957241 0.0263518986257318 -0.0114517789737862 -0.04665354 0.5669397 -0.8224371 112 112 112
0.0045154088465198 0.0259515949792297 -0.011445177326788 -0.006156716 0.5436485 -0.8392904 123 123 123
0.00509223477283194 0.0285759746932215 -0.0096772231917544 -0.07369392 0.6284943 -0.7743153 122 122 122
-0.0417552592148391 0.0107548621186415 -0.0113286830277353 -0.9792362 0.1727374 -0.1061049 121 121 121
-0.0415365253886513 0.0125432353179928 -0.0121669096766009 -0.9354518 0.2594791 -0.2400011 159 159 159
-0.0414710808760499 0.0101923067265142 -0.0134971194377453 -0.9471771 0.142336 -0.2873951 150 150 150
-0.0407114350068745 0.0135407838028441 -0.0139322808750057 -0.848247 0.3357334 -0.4095852 169 169 169
-0.0402991773846728 0.0114255646067301 -0.0156189871743016 -0.7732029 0.2337228 -0.5895175 141 141 141
-0.043054296692054 -0.00654877173577417 -0.00804207303442633 -0.9943302 -0.07016192 0.0799049 161 161 161
-0.0429283539363581 -0.00364156330458765 -0.00907960841583338 -0.9985784 0.01457436 0.05127126 138 138 138
-0.0430242643988126 -0.00540035411436723 -0.0129078701617928 -0.9806061 0.008873542 -0.195788 196 196 196
-0.0429455281845983 0.00263581137301006 -0.00860974405833176 -0.9921896 0.07435392 0.1001561 161 161 161
-0.0423780650355836 -0.000444220291677899 -0.0132100707183054 -0.9631709 0.05794019 -0.2625734 169 169 169
-0.0428231145496074 -0.00650492558532245 -0.0132820533296044 -0.9826319 -0.01631446 -0.184847 134 134 134
-0.0422556478690679 -0.00691869780619325 -0.01508592545116 -0.8847411 -0.03654012 -0.4646482 165 165 165
-0.041909402370135 -0.00580675946620635 -0.0154253539072306 -0.8847695 -0.005573244 -0.4659956 185 185 185
-0.0412642314440113 -0.0043585706788829 -0.0164227492452525 -0.8062693 0.01002064 -0.5914637 203 203 203
-0.0416614797543164 -0.0015062612450325 -0.0150849623710473 -0.9060349 0.087143 -0.4141338 182 182 182
-0.0410516479883409 0.000139656785484332 -0.016480078818389 -0.7874057 0.07656945 -0.6116613 135 135 135
-0.039602801537556 0.000379042932125762 -0.0175000630437068 -0.6489388 0.04837686 -0.7593011 125 125 125
-0.040035684578885 -0.010505799834897 -0.0169130640772351 -0.5366988 -0.292579 -0.791424 180 180 180
-0.0395795030059116 -0.00946040456423058 -0.0174750945451363 -0.5301716 -0.2521127 -0.8095413 195 195 195
-0.0390304464355786 -0.0068176769097732 -0.0184091759589984 -0.4521573 -0.1538492 -0.8785694 184 184 184
-0.0372848846595273 -0.00845437799288029 -0.0185993217020572 -0.201257 -0.2475746 -0.9477354 174 174 174
-0.0396268946414908 -0.0045390639450178 -0.01820399036431 -0.561323 -0.006976919 -0.8275674 174 174 174
-0.0388128612847385 -0.000754511922822276 -0.018323610813605 -0.5663338 0.05318535 -0.8224581 127 127 127
-0.0380810476891467 0.0010550570935004 -0.0185275525346776 -0.5401164 0.06523529 -0.8390582 111 111 111
-0.0369657747519934 -0.00162614260444705 -0.0195910366174867 -0.3839665 -0.02453552 -0.923021 146 146 146
-0.042485635930736 0.00494557531362916 -0.00994409589167972 -0.9967154 0.06314031 -0.05071185 110 110 110
-0.0418074034620275 0.00809648110440775 -0.0125418060175608 -0.9607129 0.0928442 -0.2615545 185 185 185
-0.0410717134429404 0.00778129006090755 -0.0146632969702109 -0.8972453 0.08495988 -0.4332812 155 155 155
-0.0411808039204311 0.00352521596965283 -0.0157015383884099 -0.8200062 0.07798413 -0.5670171 158 158 158
-0.0405288231201981 0.00278147968307896 -0.0167357088129887 -0.7608385 0.04795248 -0.6471671 146 146 146
-0.0408777708829231 0.005209846980476 -0.0159910529688373 -0.7950085 0.1010775 -0.5981176 150 150 150
-0.0397723606755804 0.00891231632391709 -0.0167267469462959 -0.6811778 0.1594925 -0.714534 147 147 147
-0.0391794797022877 0.00609722188403761 -0.017750463679685 -0.6634351 0.08471525 -0.7434226 134 134 134
-0.0391369616691395 0.00159399050712294 -0.0179967580749055 -0.6152697 0.05082387 -0.7866766 123 123 123
-0.0369141198663512 0.00750675339658824 -0.019064543899116 -0.4557197 0.1638245 -0.8749177 170 170 170
-0.0369744801850513 0.00955591912490417 -0.0185307887951814 -0.4736906 0.205506 -0.8563787 137 137 137
-0.0368225854780673 0.00287678704588257 -0.0194192272044678 -0.4498669 0.0272008 -0.8926813 139 139 139
-0.0350840512920765 0.0019121386748886 -0.0200728220213169 -0.347255 -0.005295845 -0.9377558 127 127 127
-0.0345545884806249 0.00353971994114199 -0.0202480189210102 -0.3271101 0.02330176 -0.9446989 113 113 113
-0.0321849163444761 0.0104247945899083 -0.0198314794665558 -0.2339315 0.3099711 -0.9215173 127 127 127
-0.0318329994425131 0.00982855654087644 -0.0201774541666574 -0.2358995 0.2645051 -0.9350874 126 126 126
-0.0384588039064788 -0.00833396784513041 -0.0184261682266356 -0.4278495 -0.2095634 -0.8792201 197 197 197
-0.036162644991818 -0.00412050105427242 -0.0198112366290926 -0.2287137 -0.1157677 -0.9665857 177 177 177
-0.0363886728890277 -0.00521714315345378 -0.0193611240602548 -0.1883097 -0.155693 -0.9696902 160 160 160
-0.0346268786033976 -0.000571767336873252 -0.0201760770371398 -0.2746411 -0.08349389 -0.9579149 129 129 129
-0.032384351374674 -0.00182023210863425 -0.0206217761441493 -0.1302721 -0.1756031 -0.9758036 87 87 87
-0.032868461874566 0.00301800345619552 -0.0207408917516075 -0.2240776 -0.001047505 -0.9745708 127 127 127
-0.0325083617539892 0.00474225489413338 -0.0209090375178347 -0.2570638 0.04596866 -0.9653005 124 124 124
-0.0311582984081489 0.00483602615593592 -0.0210912000506843 -0.1964379 0.02766405 -0.980126 148 148 148
-0.0299444204692121 0.00376260644609983 -0.0212851244069213 -0.1411071 -0.02502326 -0.989678 94 94 94
-0.0394600989778502 0.0181976227507337 -0.0116621502966299 -0.7820824 0.5904232 -0.1993675 147 147 147
-0.0371345675038017 0.0191222986458055 -0.0126806773871067 -0.451518 0.7821948 -0.4293049 123 123 123
-0.0317907528472345 0.0197272899644105 -0.0139317916895417 -0.2539268 0.7502993 -0.6103868 151 151 151
-0.0298499144197741 0.0219562995786615 -0.0125096885427996 -0.1631524 0.8541818 -0.4937153 97 97 97
-0.0275394448707473 0.0221344815165272 -0.0133722391354158 -0.08948724 0.8061675 -0.5848811 113 113 113
-0.0296942904186912 0.0204975306672817 -0.0144898084570178 -0.1571122 0.7573526 -0.6338239 152 152 152
-0.0292059448027717 0.0182586192326297 -0.0165404562537481 -0.06241488 0.5938926 -0.8021197 130 130 130
-0.0292445550563329 0.0188483299631079 -0.0162046478725866 -0.1088749 0.6419669 -0.7589629 108 108 108
-0.0249246988132581 0.0202379083112152 -0.0148147393946292 0.01395641 0.7073877 -0.7066879 111 111 111
-0.0250661770157428 0.018546824709966 -0.0159171571470734 0.04331551 0.6095912 -0.7915316 56 56 56
-0.0372412508820517 0.0139871865870995 -0.016544417583435 -0.4544237 0.434714 -0.7775106 162 162 162
-0.0361356736605163 0.0130550782715162 -0.0179271468592996 -0.4003395 0.3693179 -0.8386492 160 160 160
-0.0341724168641953 0.0120698314360073 -0.0188169652624176 -0.2879328 0.3529853 -0.8902225 186 186 186
-0.0336788397650607 0.0152625195835487 -0.0174414125576053 -0.2682453 0.4933964 -0.8274083 152 152 152
-0.0314926372790303 0.0158427075842329 -0.0176676571423054 -0.1886894 0.5190551 -0.8336535 115 115 115
-0.0297772178125746 0.0148278526956982 -0.0183212946589803 -0.1293904 0.4790433 -0.8682026 101 101 101
-0.0313247784084263 0.0132789596459821 -0.0189392907020413 -0.1921367 0.4133812 -0.8900559 109 109 109
-0.027249664398515 0.0136581796446207 -0.0192703616905254 -0.09634685 0.4933753 -0.864464 71 71 71
-0.0348986290117912 -0.0105480468701129 -0.0178397484034522 -0.08815821 -0.3364006 -0.9375835 111 111 111
-0.0361263613145548 -0.0103313467289865 -0.0181213694752296 -0.121531 -0.3363189 -0.9338735 167 167 167
-0.0321138733490294 -0.0137851721092643 -0.0170300350948212 -0.004247766 -0.4153007 -0.9096743 154 154 154
-0.0287474421890821 -0.0110878038129252 -0.0177653777071148 0.04101891 -0.3500792 -0.9358216 92 92 92
-0.0280118650903918 -0.0138010597205105 -0.0166623824829576 0.01635404 -0.3916079 -0.9199868 96 96 96
-0.0257623231362578 -0.0147629060438146 -0.0162039963804655 -0.06805269 -0.3594815 -0.9306675 154 154 154
-0.0244720078663698 -0.0111217588698171 -0.0173642853652659 -0.01806851 -0.3138289 -0.9493076 172 172 172
-0.025021849671323 -0.0108110544391786 -0.0175650428648909 0.0191586 -0.3250288 -0.94551 151 151 151
-0.0244085720088572 -0.00897898555755039 -0.018278208377339 0.02051649 -0.3215829 -0.9466591 160 160 160
-0.0217625305407212 -0.0165627001930411 -0.0162031785508837 -0.1110227 -0.2936644 -0.9494394 135 135 135
-0.0210606214699538 -0.0147580412158239 -0.0167210959374637 -0.0783909 -0.2678827 -0.9602571 85 85 85
-0.0226985114361542 -0.0145149727719247 -0.0166748298676329 -0.08896586 -0.2920827 -0.9522462 151 151 151
-0.0230061735111151 -0.0120308837097836 -0.0172968942183134 -0.05140961 -0.2957673 -0.9538757 186 186 186
-0.0201704807415735 -0.0132871856284018 -0.0171714542334498 -0.06227905 -0.2667141 -0.9617614 97 97 97
-0.0212629462581353 -0.0117845223731796 -0.017371380095372 -0.05719592 -0.2835042 -0.9572638 90 90 90
-0.0193809712702537 -0.0111696812732534 -0.0176508180783262 -0.03485605 -0.2626831 -0.9642524 94 94 94
-0.0198494717957931 -0.00885216190743132 -0.0184546374408517 -0.0185011 -0.2599547 -0.9654436 91 91 91
-0.0189013664276432 -0.017851414236614 -0.0160622491641756 -0.04062634 -0.2850376 -0.957655 113 113 113
-0.0180390741433945 -0.018683082665315 -0.0158990317269194 -0.02359134 -0.2910526 -0.9564161 83 83 83
-0.0157016937849288 -0.0194420616451858 -0.0156083332332868 -0.01311961 -0.2864283 -0.9580119 186 186 186
-0.0165266142405003 -0.0164669446739822 -0.0164966750928618 -0.009302098 -0.2771166 -0.9607913 206 206 206
-0.0160624082423075 -0.0173909477806735 -0.0161960943964799 -0.0005496343 -0.2786386 -0.9603959 214 214 214
-0.014450381285539 -0.0178004404614212 -0.015947814832228 0.003190482 -0.2792599 -0.9602103 198 198 198
-0.0167816186906484 -0.0128041149728138 -0.0172725517185275 0.001914875 -0.249203 -0.9684494 119 119 119
-0.0155886273215897 -0.015023057040082 -0.0167892631961695 0.003191657 -0.2670195 -0.9636859 195 195 195
-0.013929863145006 -0.0156561151157872 -0.0166684235037344 0.0004641309 -0.2781146 -0.9605478 169 169 169
-0.0120266229237729 -0.0122207676653605 -0.0174245743258878 -0.01064386 -0.2492804 -0.9683729 197 197 197
-0.011358721381223 -0.0108044282354853 -0.0177485559263533 -0.006338833 -0.2473874 -0.9688959 199 199 199
-0.0329045237690275 -0.0101592949335478 -0.0182191751435705 -0.01584275 -0.3152812 -0.9488661 145 145 145
-0.0332527902775914 -0.0071015867576516 -0.0189485998790392 -0.03413964 -0.2601882 -0.9649542 109 109 109
-0.0325872568674319 -0.00572095426044306 -0.0191846487368864 -0.04232282 -0.2535712 -0.9663904 88 88 88
-0.0312200501878144 -0.00382787718131561 -0.0201170569779834 -0.06621189 -0.2514951 -0.9655911 98 98 98
-0.0318382702666471 -0.00824509042512145 -0.0186389456733381 0.0006832976 -0.290331 -0.956926 163 163 163
-0.0296306333455811 -0.00704817486762566 -0.0192678555620697 0.007527875 -0.2945633 -0.9556023 152 152 152
-0.030391680881235 -0.00500322758706084 -0.0196348566755857 -0.04000341 -0.2762876 -0.9602421 86 86 86
-0.029776583025978 -0.00317924685411763 -0.0202762672775235 -0.066218 -0.2628317 -0.9625667 98 98 98
-0.0289184729470606 -0.00760673301238701 -0.019203583013425 0.01076877 -0.3064762 -0.9518174 177 177 177
-0.0274320484174788 -0.00773217524956471 -0.0189068716658951 0.03235188 -0.3282923 -0.944022 209 209 209
-0.0250901991354764 -0.00696378674276965 -0.0187836633963612 0.03227472 -0.3357313 -0.9414047 169 169 169
-0.0244809800815846 -0.00575867179414469 -0.0192576732061256 0.03425406 -0.3375464 -0.9406854 162 162 162
-0.0234256550763545 -0.0071404401580446 -0.0188605784842686 0.01407598 -0.3289949 -0.9442268 188 188 188
-0.0295630648115346 -0.00061078201596243 -0.0211024091282704 -0.1232676 -0.1835671 -0.9752477 87 87 87
-0.0303697828592366 0.00199680444892825 -0.0211389594267941 -0.1573239 -0.06674597 -0.9852889 103 103 103
-0.0279571287797509 0.00255579654833604 -0.0215300595762554 -0.09663202 -0.0503715 -0.9940447 81 81 81
-0.0278978864719028 0.000577922762987404 -0.0213349476822971 -0.08319752 -0.1225151 -0.9889733 76 76 76
-0.0268056634667102 6.56980036424226E-05 -0.0215617245365508 -0.05368589 -0.1672943 -0.9844442 119 119 119
-0.0288729296251928 0.00541180466521252 -0.0215496296883143 -0.128807 0.03351291 -0.9911032 112 112 112
-0.0273092805043362 0.00447057812603258 -0.0216750261119376 -0.09174237 -0.01084634 -0.9957237 67 67 67
-0.0271133138924611 0.0065592207598868 -0.0216691035752335 -0.120511 0.08313545 -0.9892247 100 100 100
-0.0260665584190252 0.00483857292005285 -0.021533221846925 -0.09266314 -0.006969729 -0.9956731 83 83 83
-0.0248162340148899 0.00327494950648322 -0.0217104170279916 -0.05852 -0.06327868 -0.9962787 157 157 157
-0.0257058698549133 0.00685044170020377 -0.021712898031161 -0.1091392 0.0759397 -0.9911215 75 75 75
-0.0240974977150781 0.00523235542559086 -0.0218279681144142 -0.0816116 -0.0100165 -0.9966139 145 145 145
-0.0241338793632881 -0.00105425332467868 -0.0211779346797183 0.03268249 -0.256985 -0.9658626 86 86 86
-0.0208210738024237 -0.00174769347077608 -0.0207002644074423 0.04617623 -0.3027718 -0.9519438 126 126 126
-0.0216913431700092 -0.00011449058412949 -0.0212200099303794 0.0238924 -0.2162816 -0.9760386 149 149 149
-0.0234880927874492 0.00308147580600893 -0.0217255402850383 -0.02573934 -0.1046312 -0.9941779 193 193 193
-0.0222377528206825 0.00263462642982204 -0.0217375461498622 -0.03393954 -0.1554662 -0.987258 184 184 184
-0.0193355149245118 -0.000835181830250553 -0.020954356739001 -0.005661809 -0.297692 -0.9546452 175 175 175
-0.0210380153707144 0.00178302424274546 -0.0216237214906703 -0.02252031 -0.2041483 -0.9786809 183 183 183
-0.0200927622383624 0.000817315408297103 -0.021133201064874 -0.02544475 -0.2394569 -0.9705735 170 170 170
-0.0187348198044617 -0.00727226340222642 -0.0188476136310206 0.009717017 -0.2571577 -0.9663206 98 98 98
-0.0181862090541121 -0.0100012002893808 -0.0181715920529313 -0.008519108 -0.2478372 -0.9687642 52 52 52
-0.0168090552750939 -0.0104904771764776 -0.0181098411570198 0.009600896 -0.2479472 -0.968726 84 84 84
-0.0160443185398393 -0.00851578822090882 -0.0183729125300878 -0.009576534 -0.2421225 -0.9701984 101 101 101
-0.0206499496135131 -0.00421953553256649 -0.0199165806661432 0.04445668 -0.3215957 -0.9458328 104 104 104
-0.0202345505126582 -0.00604726749577167 -0.0191253206965543 0.02348925 -0.3135407 -0.9492842 83 83 83
-0.0171387013124591 -0.00400577529547586 -0.0195819239638823 0.002532552 -0.3289971 -0.9443275 106 106 106
-0.0181674848023086 -0.00541272222982747 -0.0193035798579185 0.02498037 -0.300468 -0.9534647 101 101 101
-0.0150468889603697 -0.00461204928743153 -0.0193881377246739 -0.01391014 -0.3223937 -0.9465035 103 103 103
-0.0158074280774709 0.00212225094963148 -0.0219871113903439 -0.0003948052 -0.2510937 -0.9679627 170 170 170
-0.0136628478288485 0.000786117577574741 -0.0216170250744804 0.05259487 -0.2836808 -0.9574753 182 182 182
-0.013237024645794 -0.00759777825068109 -0.0185794842538117 -0.02061276 -0.251117 -0.9677373 121 121 121
-0.0131424345644688 -0.00484865291607117 -0.0195485580121227 -0.01691257 -0.2975318 -0.9545621 115 115 115
-0.0105237175592285 -0.00850214582528674 -0.0187048988979302 -4.055036E-05 -0.2672348 -0.9636315 146 146 146
-0.0105341874577591 -0.00663323445168085 -0.0194205428678969 -0.01008649 -0.2816885 -0.9594529 111 111 111
-0.0120579912328984 -0.00310891046110373 -0.020167632842477 0.006701883 -0.2963132 -0.9550673 88 88 88
-0.0109925285136618 -0.00421525881725304 -0.0198607245467443 0.01339453 -0.2827625 -0.9590964 95 95 95
-0.00964956683271612 -0.0049226936579394 -0.0196208955537207 0.03709842 -0.261242 -0.9645602 83 83 83
-0.0106502570256153 -0.00268790431897004 -0.0202399315886866 0.02619576 -0.268928 -0.962804 73 73 73
-0.0233980941789775 0.0189843823641789 -0.0151345672394061 0.04808823 0.6230677 -0.7806883 91 91 91
-0.0222076724454277 0.0196372570564594 -0.0149191064789005 0.03837635 0.6398019 -0.7675812 114 114 114
-0.0210533014098633 0.0184888359808857 -0.0156708887790591 0.02727655 0.6283742 -0.7774328 89 89 89
-0.0268139924380835 0.0108845432034046 -0.0209664745639473 -0.1316043 0.364939 -0.9216831 104 104 104
-0.0260308987141651 0.0126483869145286 -0.0200158084870646 -0.09719218 0.4555572 -0.884885 110 110 110
-0.0241399367717692 0.00989850018791594 -0.0214798953751381 -0.1104329 0.2980347 -0.9481455 138 138 138
-0.0244582366393413 0.0115140293058957 -0.0208752707072207 -0.09697195 0.4020017 -0.9104895 119 119 119
-0.0225503285874786 0.0125087950270617 -0.0206868739046199 -0.04973525 0.4544866 -0.889364 79 79 79
-0.0242223525537026 0.0152107844239688 -0.0186643837642413 -0.02821085 0.5806988 -0.8136296 75 75 75
-0.0197922278536968 0.0154123383102622 -0.0180926117003915 -0.0202823 0.6114016 -0.7910605 48 48 48
-0.0232436986897568 0.0132286102051455 -0.0199803408071473 -0.03727869 0.5205197 -0.8530355 97 97 97
-0.0180601820637978 0.0150824700397874 -0.018178790254878 0.005136777 0.5910713 -0.806603 77 77 77
-0.0148337603725832 0.0132281314898697 -0.0199169309857681 0.0515147 0.5249869 -0.8495499 71 71 71
-0.0220881388153473 0.0222709083798744 -0.012597614773496 -0.07947684 0.7484279 -0.6584369 144 144 144
-0.018616839445381 0.0213101874659356 -0.0132293211189725 0.01431879 0.6580066 -0.752876 66 66 66
-0.0193882396596436 0.0225516734739151 -0.0124690198132096 -0.009461592 0.6984401 -0.715606 100 100 100
-0.0157509248736265 0.0209778900035806 -0.0134926322154108 0.02019694 0.6662653 -0.7454413 78 78 78
-0.0132086921761549 0.0195005359387797 -0.0149230787438515 0.004675293 0.6728368 -0.7397761 87 87 87
-0.0130762475218333 0.0227534409874013 -0.0112648183608747 -0.04561766 0.6093366 -0.7915984 120 120 120
-0.0143924870144021 0.010805788292586 -0.0208459865003151 0.06096734 0.4174442 -0.906655 110 110 110
-0.0140980108654312 0.0124190680158176 -0.0199929350233639 0.06236343 0.4811274 -0.8744296 63 63 63
-0.0131358207341192 0.0104742075585562 -0.0211150065319368 0.06674735 0.4046611 -0.9120275 82 82 82
-0.012778453887998 0.0114146595820188 -0.020522539654707 0.07885194 0.4508244 -0.889123 93 93 93
-0.0110891634893726 0.0137662287044698 -0.0190310432326196 0.08129442 0.5125489 -0.854801 32 32 32
-0.00690421972505573 0.0106829929868899 -0.0202593251886308 0.08741235 0.4433669 -0.8920677 186 186 186
-0.00875402823172755 0.0196871385298725 -0.0146757297128194 -0.04225078 0.6159732 -0.7866333 107 107 107
-0.00970657474593595 0.0183511328109793 -0.015708799275185 0.01711754 0.6181872 -0.7858445 93 93 93
-0.0083767247787967 0.0177282971528758 -0.0160763225759006 0.003018062 0.5949294 -0.8037723 68 68 68
-0.0086433018879648 0.0235508626312046 -0.0119353377800699 -0.09060611 0.5555282 -0.8265464 81 81 81
-0.0089922875792865 0.0220876665905372 -0.0129517386444014 -0.06794664 0.6032709 -0.7946367 88 88 88
-0.00773912084040762 0.020806715335574 -0.0137225099314822 -0.03060104 0.6119171 -0.7903297 118 118 118
-0.00482198108875642 0.0212360001571128 -0.0136380143407476 -0.0630792 0.5707935 -0.8186671 87 87 87
-0.00543557248104354 0.0227281522477008 -0.0122694422573311 -0.08265495 0.5562276 -0.8269094 84 84 84
-0.00474054136703939 0.0242389409067834 -0.0115794067421485 -0.09736171 0.5381275 -0.8372213 133 133 133
-0.00801545237500467 0.0204524187582724 -0.0140386114621178 -0.03219491 0.6134934 -0.7890433 112 112 112
-0.00602665769702848 0.0190196892636616 -0.0154680948978996 -0.01773116 0.5825822 -0.8125783 159 159 159
-0.00413711259703398 0.0223580706586743 -0.0130472868405329 -0.08467943 0.5600023 -0.8241522 116 116 116
-0.00274415499183145 0.0228271446107657 -0.0126888851908724 -0.08627923 0.5378473 -0.8386156 98 98 98
-0.000169878926424394 0.0234608555504432 -0.0128109284833979 -0.09313404 0.5098776 -0.8551905 101 101 101
0.000611932132426274 0.0219515959518095 -0.0135897430589167 -0.05892235 0.4926234 -0.8682455 101 101 101
-0.0020075877882384 0.0201836688371093 -0.0146329325601692 -0.05516602 0.5447267 -0.8367972 49 49 49
-0.00404010596691173 0.0192736561924656 -0.0152828615009568 -0.01343262 0.5934299 -0.8047736 127 127 127
0.00115659054453388 0.0194006837468017 -0.0148353991415394 -0.05705862 0.5132213 -0.8563575 101 101 101
-4.55308109257313E-05 0.0207019573939513 -0.0142750101653967 -0.058124 0.5140801 -0.8557706 87 87 87
-0.0117477642536643 0.0162322834151654 -0.017249909541208 0.03571038 0.5825953 -0.8119775 88 88 88
-0.00722227513817275 0.0164237833471017 -0.0172832780766126 -0.001478887 0.5559474 -0.8312162 97 97 97
-0.00438100365944694 0.0138572501851415 -0.0183811566712582 0.01776377 0.445192 -0.8952589 86 86 86
-0.000128381391222065 -0.0285529104810498 -0.0103187789072165 0.01482595 -0.8293634 -0.5585128 50 50 50
-0.0036694507040369 0.0144524494339529 -0.0184596989828806 0.01202772 0.4545748 -0.8906274 101 101 101
-0.00588055436225732 0.0171046441071956 -0.0170057341405099 -0.01012089 0.5705696 -0.8211868 63 63 63
-0.0017310104797017 0.0138652450815113 -0.0187749858885057 0.0123077 0.4407459 -0.8975475 86 86 86
-0.000408121571933817 0.0152752520172206 -0.0180721855142019 0.02680542 0.4710135 -0.8817186 99 99 99
-0.0249953607399505 0.00840450041167462 -0.0217083286235398 -0.1229302 0.1526286 -0.9806083 126 126 126
-0.0258095187744234 0.00808902536175515 -0.0218206628879558 -0.1326732 0.1268304 -0.9830116 151 151 151
-0.0254577451179365 0.00993769914763853 -0.0212355154030793 -0.1391968 0.2868374 -0.9478125 160 160 160
-0.0219200310667882 0.0071101578981525 -0.0221823962247081 -0.1191513 0.05143348 -0.9915431 110 110 110
-0.0212412582737207 0.00977529393165066 -0.0218932940963897 -0.05523065 0.2654627 -0.9625379 100 100 100
-0.0190832754041821 0.009482576727742 -0.0218182171383671 -0.003203844 0.2489792 -0.9685035 125 125 125
-0.0209447344546336 0.00841199810192905 -0.022363193031374 -0.0587552 0.1744901 -0.9829044 83 83 83
-0.0180265604617311 0.00489889949069933 -0.023008058657269 -0.05592239 -0.098629 -0.9935517 156 156 156
-0.0147269095240443 0.00354177737132289 -0.0223640074174608 0.01099741 -0.1896354 -0.981793 155 155 155
-0.0138594676310493 0.00575783820819376 -0.0225468027390008 0.02906549 -0.006431796 -0.9995568 194 194 194
-0.0136471670968816 0.00703295989893005 -0.0225201424811839 0.03211184 0.1362917 -0.9901482 174 174 174
-0.0143844743417945 0.00303749523055941 -0.0219693049809742 0.04224599 -0.2201564 -0.9745494 223 223 223
-0.0127453744795274 0.00242353423824926 -0.0220148818890333 0.05592745 -0.2382857 -0.9695835 187 187 187
-0.0115367658816103 0.00767898976955927 -0.0225386041510426 0.05084262 0.2128482 -0.9757616 216 216 216
-0.00974564832195468 0.00159486743292336 -0.0213376595233164 0.0447863 -0.2770934 -0.9597986 153 153 153
