ply
format ascii 1.0
comment File exported by Rhinoceros Version 7.0
element vertex 471
property float x
property float y
property float z
property float nx
property float ny
property float nz
property uchar red
property uchar green
property uchar blue
end_header
0.0167083449978868 0.0128885516700052 -0.0118438167386548 -0.04015651 0.2851611 0.957638 88 88 88
-0.0547332453817572 -0.00616067667621567 -0.00233371578228597 -0.7455914 -0.5839437 0.321097 70 70 70
-0.052501595737503 -0.00684397616539356 -0.00445362481142436 -0.7346213 -0.6058875 0.3053388 71 71 71
-0.050726073120382 -0.0127675299935495 0.00352497539792274 -0.7373998 -0.5853001 0.3371427 64 64 64
-0.0529975295174663 -0.00951499410488754 0.00135418544425936 -0.7431437 -0.5808015 0.3322755 99 99 99
-0.0524485761922404 -0.0088562499360203 -0.000370642503775886 -0.7415525 -0.5832921 0.3314667 99 99 99
-0.054073106425196 -0.00750482539005981 -0.000462866160099218 -0.7433772 -0.5829769 0.3279151 112 112 112
-0.0535511820280189 -0.00858817257992972 5.09441078513362E-05 -0.7429156 -0.5806143 0.3331118 116 116 116
-0.0514104289408865 -0.011654917737318 0.00334045618004458 -0.7391041 -0.5834532 0.3366119 86 86 86
-0.0502363468487252 -0.0097598462975037 -0.00242496213960502 -0.7486604 -0.5973632 0.2875147 93 93 93
-0.0506369789595826 -0.0102819064526689 -0.000684727796190387 -0.7528794 -0.581469 0.3083282 71 71 71
-0.048541985287142 -0.0121385662269755 -0.000367507089341024 -0.7448075 -0.6023783 0.2870576 60 60 60
-0.0519046717772448 -0.00670157792374182 -0.00631135479354761 -0.7037286 -0.6328903 0.3228249 68 68 68
-0.0507881921118097 -0.00742133752970497 -0.00704250976558052 -0.640249 -0.6374261 0.428683 35 35 35
-0.0504392764452881 -0.00752581516793538 -0.00830764517178645 -0.5914558 -0.5664689 0.5738406 56 56 56
-0.0509179484606217 -0.00709487160225786 -0.00771402689428707 -0.6312712 -0.6130231 0.4750783 65 65 65
-0.0496679724055918 -0.00779835383833616 -0.0094492990397268 -0.5374882 -0.571148 0.6204001 42 42 42
-0.0469032224483856 -0.0123398217754747 -0.00640071471868364 -0.7196183 -0.5978962 0.353086 41 41 41
-0.0462460693448853 -0.0134721296303146 -0.00634886726802308 -0.7545205 -0.5723114 0.321183 74 74 74
-0.0506839491051916 -0.0090713534497886 -0.00400084114026927 -0.7259585 -0.6395763 0.2528369 100 100 100
-0.0480982940884751 -0.0112117207225191 -0.00596969928952878 -0.7279472 -0.6501193 0.217802 69 69 69
-0.0481156383760176 -0.0104142510592811 -0.00844396954813048 -0.6432571 -0.5579352 0.5243363 64 64 64
-0.0476493759059055 -0.01115791344884 -0.00797434266825287 -0.6922185 -0.6051221 0.3932693 73 73 73
-0.0652784976733176 0.00617745033705552 0.000377586879538538 -0.1809196 -0.9481871 -0.2611692 94 94 94
-0.0656721678029922 0.0055200002934106 -0.00381712661314398 -0.2869982 -0.9375175 0.1967053 100 100 100
-0.065286941086829 0.00585349837104787 -0.0053036439376799 -0.3085601 -0.8881382 0.3405894 144 144 144
-0.0618242353315541 -0.000225076207303498 -0.00177938274883221 -0.7275804 -0.6359276 0.2573382 85 85 85
-0.0638063075694539 0.00192691122498423 -0.00165121998958667 -0.6261294 -0.7720841 0.1088484 94 94 94
-0.0643720203404864 0.0035081072823564 -0.00355523959734538 -0.5019964 -0.8456331 0.1813953 107 107 107
-0.0655273006381065 0.00406140840916258 -0.00169746180970215 -0.4308453 -0.9009513 0.05156722 107 107 107
-0.0635014907168492 0.00154696579712366 0.000306297305774139 -0.6315261 -0.7719887 0.07216794 59 59 59
-0.0628040107035397 0.00198777500839276 -0.00542666890501936 -0.6461122 -0.6517206 0.3972394 139 139 139
-0.0642170961729978 0.00466282532803852 -0.00558446551581965 -0.4141161 -0.8062204 0.4225122 154 154 154
-0.0639437025229682 0.00357922461307192 -0.00506867103184039 -0.5438303 -0.7504752 0.3755469 150 150 150
-0.0628539890635917 0.00119563027830649 -0.0029731752106818 -0.7188916 -0.641316 0.2681579 131 131 131
-0.0650171262493441 0.0074782540049223 0.000439996573549706 -0.01868835 -0.9830774 -0.1822349 90 90 90
-0.0635718254704586 0.011703765690769 0.000654301457089612 0.4620181 -0.8824084 -0.08885164 81 81 81
-0.0661340114131385 0.00671073463550154 -0.00359888915089668 -0.1005955 -0.9833481 0.1513511 98 98 98
-0.0653698256863188 0.00745583753556911 -0.00553214256159384 -0.06488502 -0.9411234 0.3317781 93 93 93
-0.0650991737707993 0.0100251003106375 -0.00373226366997353 0.3163528 -0.9419711 0.1123 55 55 55
-0.0646669882559338 0.00959412629760692 -0.00538208142632285 0.3089722 -0.885626 0.3467029 89 89 89
-0.0652328240866161 0.00812659003007532 -0.000926330573722323 0.05038596 -0.9946895 -0.08974504 57 57 57
-0.0647663596522969 0.0104156720512305 -0.00163485594985552 0.3427963 -0.9394059 -0.002691365 52 52 52
-0.0629123426320424 0.01149704124268 -0.00546954260306048 0.5417423 -0.7608024 0.3573441 42 42 42
-0.0643287541036145 0.0123234936203407 -0.00172423140573597 0.4618137 -0.8863351 -0.03373838 31 31 31
-0.0627512335356672 0.0143155793962071 -0.000903331737397428 0.6221839 -0.7742158 0.1160915 56 56 56
-0.0615245849537783 0.0153462015537609 -0.000295336442655114 0.736215 -0.6700094 0.09526195 87 87 87
-0.061070086232845 0.0152455459103664 -0.000786368113562919 0.7544581 -0.6448004 0.1225783 69 69 69
-0.0607209790122237 0.0140839492949505 -0.00395404194522481 0.7151352 -0.6473443 0.26368 71 71 71
-0.0624597378181483 -8.34364986368463E-05 0.00234681721514762 -0.687204 -0.7122232 0.1431391 57 57 57
-0.0602271177972498 -0.00305070041093991 0.00122982900810342 -0.7489231 -0.6165103 0.2429594 67 67 67
-0.0583109578850078 -0.00434132645972496 0.000991865625970756 -0.7364148 -0.6200334 0.2706504 56 56 56
-0.0596520268172202 -0.00191411453006118 -0.000901990572851952 -0.7391 -0.6198176 0.2637372 76 76 76
-0.0603316748028104 -0.0014772787844155 -0.00175453542382464 -0.7453216 -0.6150976 0.2571977 59 59 59
-0.0570952512150995 -0.00484370420895264 9.10380947546363E-05 -0.7435063 -0.589574 0.3155961 84 84 84
-0.0568831061897131 -0.00567741140381206 0.00125302697751811 -0.7407664 -0.5887396 0.3234977 88 88 88
-0.0597785150790298 0.0159522448665641 0.000392048941880718 0.8076633 -0.5583245 0.1896144 86 86 86
-0.0600473636801639 0.0162692503702755 0.0018721997967322 0.7638703 -0.6369185 0.1041003 96 96 96
-0.0574950232401721 0.0167477913280902 0.00149761827725825 0.8118402 -0.5440902 0.2118522 86 86 86
-0.0623651225309121 0.00581026140098184 -0.00898792189408731 -0.2456811 -0.6449562 0.723652 150 150 150
-0.0596720340111144 -0.000710176699765253 -0.00506251521375711 -0.7301649 -0.5921771 0.34086 92 92 92
-0.0573907253671434 -0.00158609010483568 -0.00687294842746522 -0.7115949 -0.5713285 0.4089211 129 129 129
-0.0619540406581159 0.00311361567815904 -0.00712472156497496 -0.5159237 -0.666574 0.5380538 163 163 163
-0.0611418982950878 0.00032912360182058 -0.00502367737968473 -0.7146154 -0.6156387 0.3321353 124 124 124
-0.0585563510194587 0.00151745656269409 -0.00909024948996145 -0.540235 -0.5258636 0.656973 125 125 125
-0.0614173977428368 0.00334945886039639 -0.00808313077289735 -0.5138448 -0.6332931 0.5787083 164 164 164
-0.0605621372793058 0.00487062062136512 -0.0100205954378286 -0.187857 -0.5244088 0.8304849 121 121 121
-0.0578442742154691 -0.000177545704338478 -0.00848902362426157 -0.6092179 -0.5639277 0.5575295 133 133 133
-0.0554114450212557 -0.00269539346799852 -0.00805257644979934 -0.674119 -0.5457464 0.4977192 76 76 76
-0.0548042976030851 -0.00140550790877003 -0.0113923264437307 -0.4346449 -0.3774341 0.8176963 126 126 126
-0.0590933351520382 0.00271903090654457 -0.0101608132119908 -0.3279696 -0.5402555 0.774958 132 132 132
-0.0573155739847358 0.00315265204740811 -0.0112999799510109 -0.1562527 -0.4139389 0.8967941 142 142 142
-0.0569284416778399 0.00514516725964431 -0.0114515286652381 0.03798409 -0.3208849 0.9463562 100 100 100
-0.0567730359479005 0.000623597557381839 -0.0108590283272041 -0.4023339 -0.4162551 0.815389 100 100 100
-0.0547013167788303 0.00098563463653889 -0.0115452367559269 -0.2663188 -0.3044467 0.9145417 84 84 84
-0.0532298182769706 0.00238775613719344 -0.011731349789728 -0.08187425 -0.1917531 0.9780222 108 108 108
-0.0639628179966161 0.0063497488970774 -0.00751122828767559 -0.1585301 -0.8204442 0.5493082 176 176 176
-0.0613321792510835 0.0113055043708759 -0.0075676779459507 0.5465661 -0.6183946 0.5646713 75 75 75
-0.0605835213688767 0.00610893881505636 -0.0106054283706444 -0.1095425 -0.4835447 0.8684382 159 159 159
-0.0599188065193714 0.0106037103461367 -0.0097358694741585 0.4171808 -0.4610436 0.7831979 81 81 81
-0.0589194416802967 0.00866413314775349 -0.0101604211435082 0.27007 -0.4019756 0.8749159 100 100 100
-0.0581511512956743 0.0102595819979459 -0.00998577031055686 0.3880548 -0.4098306 0.8255013 79 79 79
-0.0598509799071677 0.0133679225908065 -0.00573541555390267 0.6956581 -0.5872331 0.4137838 108 108 108
-0.0600307292831855 0.0121030567907821 -0.00798179791128228 0.6199609 -0.4711764 0.6274084 80 80 80
-0.0584401509131103 0.0131383497142799 -0.00762087298432806 0.6006298 -0.5126369 0.613553 88 88 88
-0.0577299739016344 0.0128758821197084 -0.00968193308300508 0.5351158 -0.4353815 0.7239434 100 100 100
-0.0587816606640403 0.00558207271296851 -0.0108687364462856 -0.04789579 -0.427101 0.9029345 81 81 81
-0.0578809615125314 0.00798512079402447 -0.0102924246649136 0.2223099 -0.3755821 0.8997313 77 77 77
-0.0563802126235953 0.00748908452163555 -0.0109001018642083 0.1084104 -0.254118 0.9610782 84 84 84
-0.0564278844038489 0.00876975112513723 -0.0106892301814408 0.2409329 -0.3130408 0.9186713 85 85 85
-0.055601990740921 0.0101935106003075 -0.0105854412100733 0.248694 -0.3408746 0.9066178 57 57 57
-0.0543182411681291 0.0109865351701874 -0.0107191431921149 0.3096208 -0.3104435 0.8987546 84 84 84
-0.052129818694556 0.00847078097620635 -0.0116175030182735 0.0868938 -0.1824452 0.9793687 104 104 104
-0.055582222816383 0.0136432741375734 -0.00914182441330974 0.5655696 -0.4665027 0.6800781 98 98 98
-0.0557045878213017 0.0109737278146009 -0.0102930569739429 0.3646404 -0.3595443 0.8589327 101 101 101
-0.0536253681300635 0.0133363153550117 -0.010522919152666 0.4794408 -0.4072889 0.7773366 167 167 167
-0.0577881702019659 -0.00285857218175578 -0.00286485927114355 -0.75621 -0.5736912 0.314682 93 93 93
-0.0556747189344315 -0.00448076158489852 -0.00429863306022943 -0.7529942 -0.5719897 0.3253114 96 96 96
-0.0586983141283702 -0.00185043309471467 -0.00330397112727787 -0.7595668 -0.5711321 0.3112336 75 75 75
-0.0556979067657518 -0.00313424260315509 -0.00666897000687666 -0.7356688 -0.5776787 0.3536648 103 103 103
-0.0527223169402542 -0.00586131368082077 -0.00565397665970396 -0.7186981 -0.6107292 0.3323897 61 61 61
-0.05261213583353 -0.000761544955821147 -0.0113248156993021 -0.2877674 -0.2791577 0.9161118 79 79 79
-0.0524426460713697 0.000473175094213074 -0.0114858580332463 -0.1531686 -0.1600147 0.9751588 80 80 80
-0.0525139674152968 0.00464375237768455 -0.0116014294353318 0.02490833 -0.1227718 0.9921223 103 103 103
-0.0537075683055058 0.0167990744539819 -0.00373959024512571 0.7783162 -0.5411133 0.3184654 108 108 108
-0.0558923465973777 0.0151386266141902 -0.00665021188248793 0.768576 -0.4736593 0.4300438 87 87 87
-0.0517593792473898 0.00625987767706504 -0.0115207498794048 0.06554174 -0.1536268 0.9859529 67 67 67
-0.0520269473044412 0.0107920706472178 -0.0113798852211845 0.2605021 -0.2701398 0.9269105 89 89 89
-0.0521434583145649 0.0161294793456876 -0.00777908492138119 0.7146525 -0.4964215 0.4927854 109 109 109
-0.0534316545311837 0.0146090758637636 -0.00940861057936931 0.6047445 -0.4207191 0.6762245 121 121 121
-0.0518279079986963 0.0151806501422873 -0.00950465948624835 0.5888447 -0.4334519 0.6821887 127 127 127
-0.0493138751411387 0.0159151770959918 -0.010397007250932 0.5343461 -0.366091 0.7618738 189 189 189
-0.00664888545875886 0.0470931676590176 -0.0114655550418247 0.6652057 -0.504561 0.5503812 96 96 96
-0.0564641725119036 0.017508689934951 0.00223910325761956 0.8034295 -0.5616691 0.1975575 80 80 80
-0.0560863149226782 0.0173065177801157 0.00115468356146753 0.8097986 -0.5408016 0.2275078 98 98 98
-0.0533657455646824 0.0196771417388075 0.000144495462046923 0.7281188 -0.6167426 0.299118 88 88 88
-0.0515930621325728 0.0192281824457761 -0.00270717252220803 0.7101044 -0.6145448 0.3436371 94 94 94
-0.0511384399254448 0.0184080030805638 -0.00469834505224359 0.7129002 -0.6023079 0.3591636 88 88 88
-0.0505724426956269 0.021284323394958 -1.35755943203586E-06 0.7039208 -0.6288569 0.3302037 73 73 73
-0.048922301561774 0.0217434965810608 -0.00211135122922046 0.7003619 -0.6257683 0.3433762 77 77 77
-0.0492904125126108 0.0207252064030576 -0.00322711903266082 0.694739 -0.616626 0.3702838 96 96 96
-0.0488719320559622 0.0226392800181856 0.000857297615706243 0.6832966 -0.6412189 0.3492049 98 98 98
-0.0476809695931905 0.0222935470740235 -0.00248987956081309 0.6918873 -0.6344965 0.3445377 107 107 107
-0.0510604810640886 0.0175970932688216 -0.00603409004704825 0.7376537 -0.5634009 0.372084 87 87 87
-0.0505009977029464 0.0162689602029267 -0.00962649721007858 0.5938996 -0.4321587 0.6786178 180 180 180
-0.0485575046953514 0.0178672953330983 -0.00889286543779455 0.6347119 -0.4605253 0.6205298 206 206 206
-0.0467907497968371 0.0185870315709271 -0.00904283202501438 0.6047667 -0.4367245 0.6659797 144 144 144
-0.0312442693230642 -0.0262269882052952 -0.00830123928137383 -0.7564625 -0.5563272 0.3438961 30 30 30
-0.0482342746972284 0.0191057596081619 -0.00707985065525973 0.7053594 -0.5546076 0.4414504 127 127 127
-0.0467061721174186 0.0192483149739864 -0.00820405380279726 0.6357906 -0.4767848 0.606998 143 143 143
-0.0456114954938831 0.0226700514165357 -0.00319732921319554 0.677333 -0.6294813 0.3807536 81 81 81
-0.045379497381358 0.0226261340247655 -0.00500371305968078 0.6635262 -0.5745453 0.479198 88 88 88
-0.0433778001565897 0.0250120578004926 -0.00364488170396887 0.5980924 -0.6498252 0.4690551 46 46 46
-0.0430927489622968 0.023586231327158 -0.00613343792624649 0.6026255 -0.5354761 0.5916991 106 106 106
-0.0429562563975382 0.023936412337856 -0.00565823533774579 0.594353 -0.5517917 0.5850387 113 113 113
-0.0435743751005868 -0.0184648262003655 0.0027388950546347 -0.7466468 -0.5932652 0.3009235 48 48 48
-0.0414742082158001 -0.0206714740015659 0.00405300548346305 -0.7554986 -0.5964669 0.271015 90 90 90
-0.0428819492572757 -0.0181867350031084 0.000478790998880319 -0.7439874 -0.607162 0.278993 59 59 59
-0.0412938982670253 -0.0213381810980906 0.00473760402305928 -0.7562745 -0.6017015 0.2569129 93 93 93
-0.0407108375489061 -0.0204655252703214 0.00100878022193079 -0.7440773 -0.6287883 0.2257749 68 68 68
-0.0406001005624554 -0.0193981101862255 -0.00142754612470658 -0.7139692 -0.6593845 0.2354993 75 75 75
-0.0379720313947817 -0.022988779395912 0.001068407554708 -0.7662637 -0.623746 0.1542105 98 98 98
-0.0370339019509617 -0.0244015843126271 0.00344011726006005 -0.7691181 -0.6214071 0.1493669 89 89 89
-0.047646575867215 -0.016032146472915 0.00410574995280083 -0.7412491 -0.5904278 0.3192881 80 80 80
-0.0490212915618862 -0.0130019475265093 0.00181559839405038 -0.7386797 -0.5935578 0.3194392 48 48 48
-0.0489419501863576 -0.0137623937218136 0.00315077559095361 -0.7379814 -0.5934706 0.3212103 63 63 63
-0.0472832000603304 -0.015900423746791 0.00255424006207672 -0.7402855 -0.5975881 0.3080032 63 63 63
-0.0484689843444132 -0.0127508634918889 0.000318258369094049 -0.7368442 -0.6020819 0.3075029 51 51 51
-0.0449582171523769 -0.0176420549638008 0.00432675609255356 -0.7415634 -0.5928046 0.314112 59 59 59
-0.0446325239667722 -0.0174930979707284 0.00243417280100072 -0.7402355 -0.5993084 0.3047635 67 67 67
-0.0465431888211593 -0.0136285571985972 -0.00184015986131753 -0.7495308 -0.6193422 0.2337067 75 75 75
-0.0460526528177962 -0.0147706408206412 0.000631970107431323 -0.7494799 -0.5948338 0.2906073 53 53 53
-0.0455446243737342 -0.015151710206214 -0.00149546107517862 -0.7617102 -0.6036854 0.2352904 43 43 43
-0.0428694256713414 -0.0163416110464363 -0.00327116338816852 -0.7616711 -0.5956408 0.2550868 38 38 38
-0.0438129528956278 -0.0155331351788444 -0.00302930453476258 -0.765689 -0.6077965 0.2104844 69 69 69
-0.0427911666244199 -0.0174510717254723 -0.00128203309237429 -0.7418872 -0.6233537 0.2470498 62 62 62
-0.0431134361651033 -0.0169766618049225 -0.00206748657396338 -0.7523941 -0.6158159 0.2338244 68 68 68
0.0128629304375172 0.0564444615673048 -0.00909890264866026 0.8748282 -0.3845838 0.2945693 70 70 70
-0.0339620750841257 -0.0281959221658166 0.00498990045502562 -0.7096289 -0.6679261 0.22428 91 91 91
-0.0342101635628234 -0.0271221367964927 0.00328601116117461 -0.7295948 -0.655116 0.196251 58 58 58
-0.04701682986169 0.0239736155122474 0.00149827062882829 0.649298 -0.6709374 0.3581273 80 80 80
-0.0462200051229969 0.02544175821186 0.00197956276490691 0.634496 -0.6880621 0.3521154 119 119 119
-0.0451512647800382 0.027273330935407 0.00196095882862235 0.5693291 -0.7335744 0.3711239 114 114 114
-0.0434750295394797 0.0263723479001547 -0.00175761399087587 0.5655647 -0.7194559 0.4031374 81 81 81
-0.0426140750859234 0.0259306742585752 -0.00362893036670331 0.581044 -0.6535 0.4851038 77 77 77
-0.0413932534939188 0.0247220830274397 -0.00583094309859328 0.5705541 -0.5041782 0.6482841 91 91 91
-0.0436682614896205 0.0292561671471727 0.00222196627911675 0.5438129 -0.7511896 0.3741413 100 100 100
-0.0425581131596655 0.0292950134812262 0.00125002496432836 0.5438129 -0.7511896 0.3741413 83 83 83
-0.0430229518365594 0.0291325192938181 0.00153914664990307 0.5438129 -0.7511896 0.3741413 79 79 79
-0.0406622787714721 0.0326426156310242 0.00225084542415793 0.5573671 -0.7251501 0.4043504 71 71 71
-0.0402000471018354 0.0330699211410155 0.00218176481139704 0.5431601 -0.7122124 0.444669 44 44 44
-0.0397817921925559 0.0329097459666221 0.00112188462931245 0.5546224 -0.6977066 0.4534307 74 74 74
-0.0408596395549973 0.0300926452326067 -0.00124172436547965 0.5502711 -0.7082077 0.4423161 59 59 59
-0.0409643172865127 0.0287962641599038 -0.00190664461016637 0.5227751 -0.714863 0.4644104 68 68 68
-0.0417515188737782 0.0295498442933884 -0.000122229628649606 0.5417992 -0.7308753 0.4150603 90 90 90
-0.0402044843126156 0.0309629563704745 -0.000694663767641823 0.5600585 -0.6925769 0.4546115 73 73 73
-0.0395402708665331 0.0326977569396023 0.000764598442232312 0.5593573 -0.6897311 0.4597721 76 76 76
-0.0389379634032173 0.0322066942146555 -0.000890501067655813 0.5607747 -0.6587065 0.5016348 65 65 65
-0.0402432915061385 0.0281742371985698 -0.00396997658018872 0.5342021 -0.5918779 0.6035799 98 98 98
-0.0401008147188232 0.0289605950964815 -0.00279106607614948 0.5477225 -0.6525924 0.5235678 98 98 98
-0.0379122198495181 0.0318521941434764 -0.00228012624124457 0.5666795 -0.6394249 0.5196251 65 65 65
-0.0377061644508154 0.0305923877361178 -0.00399004829519528 0.5174751 -0.5826858 0.6266552 88 88 88
-0.0372437100657518 0.0316969283956829 -0.00319034280957181 0.5341928 -0.6133484 0.5817575 73 73 73
-0.0363427998655404 0.0355255535900376 0.0009090196276062 0.4640564 -0.7073152 0.5332512 89 89 89
-0.0369227678548992 0.0337750740226908 -0.00104683469616051 0.5164421 -0.6643611 0.5402887 73 73 73
-0.0361420130294383 0.0350324496707524 -0.000543363461873336 0.4865731 -0.6882941 0.5380501 77 77 77
-0.0358087675174978 0.0331366867308864 -0.00323222715090693 0.5076916 -0.6218039 0.5963297 84 84 84
-0.0352969783262657 0.0389677042841519 0.00263302938667737 0.3841155 -0.7209825 0.5767491 43 43 43
-0.0334250292480222 0.0393278068855001 -0.000928770572316662 0.3510443 -0.6776417 0.6461962 76 76 76
-0.0343410530301348 0.0381770830520338 0.000148783972531652 0.3952841 -0.6925179 0.6034644 79 79 79
-0.0329772698980634 0.0416001862621793 -0.000441874529033048 0.3493198 -0.6417984 0.6826936 71 71 71
-0.0324369163668604 0.0440238657559278 0.00190687878815365 0.3440438 -0.6540974 0.6736397 85 85 85
0.0254003897519076 -0.0201790646516151 -0.00204864672164817 -0.09484927 0.5569118 0.8251381 61 61 61
-0.0314385526340949 0.0449577200880837 0.000579027661531006 0.367373 -0.5917766 0.7175218 71 71 71
-0.0305250441241911 0.0473162009635901 0.00226589582837117 0.3734681 -0.5585009 0.7406743 69 69 69
-0.0285863328961817 0.0500892914076998 0.00115694226805241 0.4117266 -0.5365517 0.7366095 87 87 87
0.0461164988419034 0.0105306469505464 0.006294649913622 0.001758619 0.5119093 0.8590377 102 102 102
0.0108291166965552 -0.00509170638885537 -0.0107253397351902 -0.05484982 0.04755872 0.9973614 141 141 141
0.0191088021417579 0.042064875955266 -0.0141154376683937 0.02392183 0.4614214 0.8868585 230 230 230
-0.0229416946373902 -0.00814921426023218 -0.0118568497115684 0.009001342 0.01443873 0.9998552 57 57 57
-0.00698862143675383 0.0493445577637932 -0.00799879060469588 0.7322345 -0.44527 0.5153321 80 80 80
-0.0306638276966826 -0.00323332554042111 -0.0117818398166765 0.01418713 -0.1181904 0.9928896 125 125 125
0.0351303639537975 -0.0225676048497134 0.00539475579172038 -0.1091276 0.3833503 0.9171335 125 125 125
0.0411212693328707 -0.00843904636031567 0.00568299442290809 0.02004744 0.4501482 0.8927288 47 47 47
-0.037739532304971 0.00692893373776227 -0.0116893390215391 -0.06771382 -0.05077234 0.996412 117 117 117
0.0255527274662654 0.0517426809345447 -0.00923692919786023 0.08263192 0.5836834 0.8077658 62 62 62
0.0256957876962475 0.0674110706443423 0.000575993398568064 0.8291079 -0.4379464 0.3475385 75 75 75
-0.012821392097966 0.0133393976068452 -0.0120315539915454 0.04874546 -0.01799914 0.9986491 122 122 122
0.0292554606711333 0.0434995005227772 -0.00607595865750216 0.03571532 0.5666051 0.8232151 71 71 71
-0.0281779698498891 -0.0156202840919577 -0.0119752154671927 0.0443964 -0.0910419 0.994857 88 88 88
0.0361253117894528 -0.0285367711047999 0.00589332535119175 -0.1253474 0.3161239 0.9404008 95 95 95
-0.00277608491095616 0.041847822653313 -0.0142616359739722 -0.01930034 -0.03729341 0.999118 71 71 71
-0.0157129153443612 0.00914853678163308 -0.0121410685920484 0.007305527 -0.03829096 0.9992399 119 119 119
0.014716438619845 0.0164404662466715 -0.0130650833130584 -0.1220179 0.05193184 0.9911684 107 107 107
-0.0104429578482866 0.00483445517914061 -0.0118816337862217 0.06894138 -0.07140351 0.9950621 133 133 133
-0.0309049481469826 0.0186271725356697 -0.0118198485496114 0.091378 -0.1140883 0.9892593 112 112 112
0.0317131952119306 0.0034049679246122 -0.00230140306799426 -0.2258437 0.430416 0.8739203 140 140 140
-0.0114404653508383 0.0367788573769632 -0.0134170681585316 -0.1698732 -0.08883294 0.981454 102 102 102
0.0452850675207194 0.00854748936008343 0.00618430129978037 -0.04662389 0.5330281 0.844812 77 77 77
-0.0506098095789452 0.00401902807351773 -0.0118377170279251 0.008088114 -0.04674135 0.9988743 75 75 75
-0.000274347121145047 0.0541810868540993 -0.00544401620578733 0.7996045 -0.312072 0.5130727 66 66 66
0.00963121869747763 0.0592547431889301 -0.000610732701769756 0.7807894 -0.4378015 0.4457553 57 57 57
-0.0154626056333679 0.0336500944163576 -0.0125509919057943 -0.1635029 -0.06399165 0.9844653 75 75 75
0.0365240042060683 0.00108657524490186 0.000973255071857304 -0.1650518 0.5199043 0.8381273 56 56 56
-0.0129077044491824 -0.0031856972245925 -0.0118947319590016 -0.02035164 -0.03337569 0.9992356 86 86 86
-0.0282221624061081 0.0389833205936414 -0.00451931242901965 0.4137195 -0.5404441 0.7326366 92 92 92
0.0214088358978433 0.0326094120206433 -0.0108614941798311 0.01022035 0.5487059 0.8359529 230 230 230
0.00445696168151133 0.0519129556733613 -0.0135171883937807 0.7206845 -0.362254 0.5910887 52 52 52
-0.0150495511752605 0.0412367774648417 -0.0122846987726633 0.4955946 -0.4341029 0.7522903 67 67 67
-0.0461559353786432 0.0144349505950985 -0.0114919844393167 0.3119195 -0.1811575 0.9326779 178 178 178
-0.0279763443440583 -0.0142099510047882 -0.0120432171836891 0.03539137 -0.08098218 0.996087 88 88 88
-0.0063445189931281 0.0279771510121167 -0.0118569828050251 -0.07129895 -0.1188991 0.9903431 226 226 226
0.0451175167162434 -0.017480115357982 0.00970105768946977 -0.01528175 0.4717282 0.8816115 53 53 53
0.00133718409206263 0.0440287090662177 -0.014809262906907 -0.09909194 -0.1032077 0.9897116 73 73 73
0.0332108047033703 0.0473206400616355 -0.00313251699471756 0.03174094 0.5383643 0.8421142 82 82 82
-0.0132471995297382 -0.0308811695668114 -0.0114048383077691 0.09326717 0.1566214 0.9832451 104 104 104
-0.0348548799033817 -0.0261189119038916 0.000594221876795364 -0.7691103 -0.6185486 0.1608318 102 102 102
-0.0272832252627476 0.0342305344335827 -0.00777679650039848 0.4309582 -0.6134759 0.661757 96 96 96
0.0278425992664298 0.0555010578259467 -0.00724379588427648 0.09719798 0.5026068 0.8590338 84 84 84
0.0155552169968254 0.0586996807742532 -0.00579309298614544 0.7889929 -0.4719447 0.3933935 86 86 86
0.0389099279026002 0.00285328096071136 0.00220597864136268 -0.1004796 0.5470841 0.8310252 43 43 43
0.0492325947928049 0.0117510010726076 0.00865004553537352 -0.008821151 0.4916692 0.8707374 89 89 89
0.0301522274436625 -0.0284354928948729 0.00436022562222765 -0.1223457 0.4690821 0.874639 113 113 113
0.0132368590694385 -0.0212609004832911 -0.0088628751855695 0.08556166 0.24093 0.9667636 89 89 89
0.0249914196311758 -0.000213498964568348 -0.00612347240872296 -0.2111291 0.5211046 0.8269671 57 57 57
0.0254524222653075 0.0436084104942815 -0.0088135567409946 0.03576371 0.5446217 0.8379189 88 88 88
0.0235581505786273 -0.0140027634088429 -0.00441032398028546 -0.02594406 0.4949262 0.8685477 53 53 53
0.0297488953099503 0.0296828039095747 -0.00549740441812008 0.2190761 0.4850041 0.8466266 73 73 73
-0.0432513368032321 -0.0151377238807735 -0.00738660357243404 -0.7077013 -0.49761 0.5015408 62 62 62
-0.00777602679877204 0.0127047971878373 -0.0119043477812475 0.04061637 -0.06943065 0.9967596 69 69 69
0.00524795469841821 0.0174622238198956 -0.0124844296304141 -0.09253533 -0.08950038 0.9916788 126 126 126
0.0244640627185902 -0.00435244492157305 -0.00460753347291409 -0.06381214 0.4928019 0.8677986 96 96 96
0.0352146962386107 -0.0164795027131608 0.00338368949069329 -0.1772407 0.3352388 0.9253111 239 239 239
0.0348284360280809 -0.000822011376623299 -1.84919454512822E-05 -0.1324776 0.525844 0.840201 61 61 61
-0.0419736625834247 -0.0145171579220158 -0.00898047620451292 -0.5902005 -0.4776836 0.6507547 53 53 53
0.0318560209609786 0.0494229836772411 -0.00433522989516805 0.1151668 0.4794066 0.8700034 94 94 94
-0.0368719660653457 0.0240902797068052 -0.00744730621388723 0.4836289 -0.4781144 0.7331505 60 60 60
0.0342262644831738 0.0149715121296068 -0.00255659354762694 0.02597684 0.5278729 0.8489261 33 33 33
0.0240602998087276 -0.0117988509622713 -0.00443620770174363 -0.03301816 0.4521365 0.8913375 59 59 59
-0.0249499039297887 0.0468015439516605 -0.00214359583815954 0.3884329 -0.4888004 0.7811491 91 91 91
0.0146877815658044 -0.03467016539519 -0.00455147597870587 -0.1878924 0.6031238 0.775202 190 190 190
-0.0304572143706522 -0.0282052575436387 -0.00344127190990834 -0.7632362 -0.5979649 0.2447621 77 77 77
0.00742547967119311 0.0235163744696583 -0.0135078925426323 -0.0857194 -0.1346928 0.9871727 232 232 232
-0.0234405010399201 -0.0264908134397281 -0.0131655412976362 -0.00500754 -0.1870354 0.9823404 124 124 124
-0.0213369073279077 0.0348641684069757 -0.0121505515987879 0.2695563 -0.4195285 0.866796 94 94 94
-0.0160113123960237 -0.0182723558660323 -0.0115916528034305 -0.005437313 0.04716521 0.9988723 63 63 63
0.0250124773046483 0.0616523210605737 -0.00810154025708537 0.4982731 0.07839838 0.8634683 97 97 97
-0.0336384691267312 0.0285451513056298 -0.00771454971566288 0.4686158 -0.5355136 0.7025841 94 94 94
0.0290292668443234 0.0270970316096437 -0.00644975044659346 0.1671295 0.5100266 0.8437657 71 71 71
-0.0122753443257683 0.0515270790890017 -0.00359487677717951 0.6652091 -0.3023403 0.6827058 65 65 65
-0.0155647638245944 0.0536446084886399 -0.000778880277935878 0.6816106 -0.2873236 0.6729429 75 75 75
-0.0282535929923749 0.00629531155775243 -0.011695328882954 0.0371488 -0.0698045 0.9968687 131 131 131
0.016335034081868 0.0614090529556799 -0.0010521155137404 0.8069054 -0.4742162 0.3521684 80 80 80
0.0177680021655517 0.0630751807372329 0.00110523946290242 0.7975631 -0.5001804 0.3372132 91 91 91
0.0357950581020217 0.0553467535542285 -0.000392616385300693 0.08936726 0.557789 0.8251575 96 96 96
-0.0135267840204865 -0.0109692887516564 -0.0117614388976988 0.05539317 -0.06273063 0.9964921 63 63 63
-0.021621444017474 0.0137850462115157 -0.0118853181866597 0.03492644 -0.1019139 0.9941799 219 219 219
-0.0248121008626973 -0.0268655806914586 -0.0132799433020755 -0.1880102 -0.3226983 0.9276411 99 99 99
0.00234392703174557 0.0339174631993309 -0.0136077491327365 -0.04101208 -0.117773 0.9921933 244 244 244
0.00705738083390872 0.0608282830064815 0.00366951800163223 0.7770677 -0.3953558 0.4897546 84 84 84
-0.0276751607079744 -0.00596250977991497 -0.0117450038643197 0.007340127 -0.09449989 0.9954978 112 112 112
-0.021509008954087 0.042266590038172 -0.00693718302691432 0.4729397 -0.6025301 0.6428729 103 103 103
0.0234915226331485 0.022024550912463 -0.00939139031244635 0.008850366 0.4371459 0.8993471 58 58 58
0.0157992394594129 0.0244819482951035 -0.0139001820328015 -0.008412095 0.1725162 0.9849707 134 134 134
-0.00489850407403758 0.0469345885867336 -0.0122756101050339 0.6160048 -0.4648547 0.6359624 89 89 89
-0.0328102384579683 -0.0277240736086637 -0.000492224781156403 -0.7636332 -0.6123455 0.2046885 59 59 59
-0.0429653632175204 -0.000313983116852601 -0.0104638810638094 -0.07221765 -0.130715 0.9887862 96 96 96
0.0444410040315172 0.0402114395260169 0.0069507670586042 0.2131937 0.660597 0.7198333 128 128 128
0.0408075957073654 -0.0213629853576429 0.00754951976480378 -0.1005037 0.4063323 0.9081812 115 115 115
0.0145558429406428 0.0580578859642196 -0.00622185892955018 0.8168436 -0.4508401 0.3598747 90 90 90
-0.0189461245571232 0.00103190105991624 -0.0114895930009545 0.04631759 -0.08435333 0.9953588 169 169 169
0.03010002550937 0.00952398288439782 -0.0050183586953701 0.01654245 0.422442 0.906239 101 101 101
-0.0108480668611237 0.0129275050202131 -0.0117177067165833 0.04371721 -0.02625139 0.998699 121 121 121
0.0396484714293776 0.00682923924956103 0.00206715092046278 -0.02457686 0.5682991 0.8224549 68 68 68
0.0384355900609913 0.0210427876852095 0.000212594699273705 0.05040064 0.5490394 0.8342755 75 75 75
0.0154916723999433 -0.0231730217293977 -0.00805794870956333 -0.0331617 0.4319472 0.901289 68 68 68
0.042793402103347 -0.00503539171748346 0.00629127851000671 -0.05902414 0.4600432 0.8859325 46 46 46
-0.0290232887426258 0.0284122991751088 -0.0102990484319799 0.3144991 -0.5724648 0.7572148 78 78 78
0.00644155060187779 0.00968923753859885 -0.0120995538032564 -0.02911112 -0.07843314 0.9964942 238 238 238
0.0307320815648068 0.0510557397145868 -0.0050594654697193 0.08668866 0.5148669 0.8528758 99 99 99
-0.0249091806210823 0.0109722583685377 -0.0117129099538168 0.01919721 -0.0387551 0.9990643 107 107 107
0.0193711467865593 0.0363987134871773 -0.0125003256294692 -0.05033731 0.5729734 0.8180267 90 90 90
0.0421459700707019 0.0168551431006942 0.0036181755871309 0.05897346 0.5537231 0.8306099 89 89 89
0.038774992936097 0.0301677566869609 0.000424792503147697 0.1192249 0.5109565 0.8512983 64 64 64
0.0368895723509156 -0.00096062709054201 0.00210270132454066 -0.1509843 0.5134904 0.8447078 88 88 88
-0.0448025466756153 -0.0146009904290951 -0.00562976797465192 -0.7694051 -0.5662056 0.2956804 53 53 53
-0.0445299966939356 -0.0123205623138765 -0.0097667958671605 -0.4319564 -0.4145258 0.8009882 61 61 61
-0.0460133515711375 -0.011695555655556 -0.00947347760492506 -0.5074547 -0.4088947 0.7584819 59 59 59
-0.0461009126200253 -0.012076187789372 -0.0085724009983294 -0.5466897 -0.4171126 0.7260492 49 49 49
-0.0474544947471482 -0.00659331767765625 -0.0102426640864352 -0.2579778 -0.267567 0.9283617 65 65 65
-0.0497846748902703 -0.0033991824764501 -0.0107342922595887 -0.3991784 -0.1678135 0.9013852 98 98 98
-0.0503637424596163 0.00465921684427562 -0.0116871349683339 0.02385109 -0.06367789 0.9976854 89 89 89
-0.0492993869273421 -0.000515562044024698 -0.0112478697534497 -0.1515511 0.02666478 0.9880897 67 67 67
-0.045502438536029 -0.00434329311958392 -0.0100172045138299 -0.0935266 -0.07923135 0.9924592 74 74 74
-0.0452319142330254 -0.00249914634321069 -0.0101093436905028 -0.06902605 -0.03409802 0.997032 87 87 87
-0.0435220121683721 -0.00660956748812902 -0.00986591657854979 -0.02252392 -0.2276436 0.973484 80 80 80
-0.0464037781770254 0.000545246429497492 -0.0106659357603519 -0.1216221 0.06639625 0.9903533 86 86 86
-0.0442961092915247 3.7182861998275E-06 -0.0105325919074277 -0.101273 -0.03516586 0.9942369 136 136 136
-0.0442918757608313 0.00265991908985019 -0.0108492225909088 -0.09799966 0.01039418 0.9951321 78 78 78
-0.0415993484018381 0.00199062009773288 -0.0109884587703143 -0.06522924 -0.1201834 0.9906064 130 130 130
-0.0404740813824878 0.00363769111776935 -0.0110135318174003 -0.07751991 -0.08512413 0.9933501 102 102 102
-0.040491187397622 -0.00106894605942331 -0.01109288204964 -0.01300898 -0.2315428 0.9727377 69 69 69
-0.0504308879568124 0.00808535686158551 -0.0117111160139227 0.06894839 -0.1374091 0.9881117 108 108 108
-0.046347435506963 0.00803787813591517 -0.0116632928016592 -0.005290233 -0.06505632 0.9978676 105 105 105
-0.0473324314459255 0.00937668908891176 -0.0117752215928907 0.04047161 -0.1152694 0.9925094 78 78 78
-0.0459081632345559 0.00575221164007678 -0.011848959611152 -0.07730304 0.003031395 0.997003 89 89 89
-0.0501364857583771 0.0108705282573249 -0.0120947759779313 0.1543192 -0.2178168 0.9637123 120 120 120
-0.049268106377488 0.012060656610416 -0.0117010038490748 0.2410061 -0.2270215 0.943598 115 115 115
-0.0485406493703367 0.012306263944931 -0.0118117862907991 0.224795 -0.2253163 0.9479977 143 143 143
-0.045874768676573 0.0118935150316672 -0.0120627762152333 0.1383129 -0.1265461 0.9822707 133 133 133
-0.0480872595864269 0.0139335478834239 -0.0110405081833937 0.3540426 -0.249279 0.9013954 175 175 175
-0.0453378989832813 0.0046901700375237 -0.0112342958737559 -0.07508026 0.01489492 0.9970663 74 74 74
-0.0417809838175066 0.00750692897368266 -0.0118489896876552 -0.1104125 -0.04588899 0.9928259 135 135 135
-0.0400433559708421 0.00526236092618282 -0.0113370425927142 -0.06688641 -0.07379788 0.9950277 109 109 109
-0.0426125954249491 0.00588426244771201 -0.011169840753892 -0.1090402 -0.03009726 0.9935816 79 79 79
-0.0437381568626038 0.011736160255609 -0.0121006666279993 0.07867373 -0.1048372 0.9913726 166 166 166
-0.0446538286015059 0.0128595961424609 -0.0117407098772732 0.2032574 -0.1293463 0.9705442 129 129 129
-0.0434989101917561 0.0160727760994286 -0.0109070748783919 0.3741448 -0.2314264 0.8980297 144 144 144
-0.0398966241809345 0.0133336541943567 -0.0120872460151744 0.1653943 -0.1020197 0.9809366 182 182 182
-0.0408161665917982 0.00482844873414101 -0.0111675207410349 -0.07308947 -0.08048131 0.9940728 121 121 121
-0.0399546558098545 0.00933834044181081 -0.012107403998774 -0.05333466 -0.03508513 0.9979602 41 41 41
-0.0380127885021873 0.0092252609377248 -0.0121184795110519 -0.0503394 -0.03538689 0.998105 74 74 74
-0.0386873678039862 0.0113827637789541 -0.0119230195477668 0.04553707 -0.05102857 0.9976585 76 76 76
-0.0376654182376228 0.0151207995536613 -0.0116612053034091 0.1451089 -0.15154 0.9777418 187 187 187
-0.0374732406443907 0.0134836759502122 -0.011991916191456 0.1313377 -0.09625594 0.9866535 147 147 147
-0.0465805206906951 0.0174742116738646 -0.0101052591013492 0.537508 -0.3628474 0.761201 177 177 177
-0.0451191950385541 0.0176768446979125 -0.0102218148514384 0.5083706 -0.3491825 0.7871664 190 190 190
-0.0438939104345453 0.0200910800645966 -0.00908713847558501 0.5878693 -0.3702938 0.7192303 145 145 145
-0.042826493424815 0.0177533019017977 -0.0105779409928405 0.4708993 -0.2501603 0.845975 208 208 208
-0.0416301134916879 0.017806837517546 -0.0107220001675042 0.4683765 -0.2442718 0.8490905 164 164 164
-0.0415334172554275 0.0161001421954343 -0.0110407932445027 0.2987568 -0.1882983 0.9355683 199 199 199
-0.0392133474741644 0.0214274047430085 -0.00895227691747141 0.5291613 -0.352546 0.7718158 74 74 74
-0.0393174965278955 0.0192116313073374 -0.0105860701094014 0.4133917 -0.3070137 0.8572339 118 118 118
-0.0430563840159186 0.0215290838771316 -0.00802553979420123 0.638452 -0.4143978 0.648578 160 160 160
-0.0406143955584224 0.0217623509520213 -0.00796143127573462 0.5668424 -0.3828956 0.7294386 54 54 54
-0.041021619660508 -0.0183438833021785 -0.00329384514210396 -0.723649 -0.6363043 0.2672996 78 78 78
-0.0397062283782571 -0.0192480874861587 -0.00481283054971016 -0.6637654 -0.6736103 0.3250609 89 89 89
-0.038145880752513 -0.0197985653130608 -0.00650700996522918 -0.6071293 -0.7012087 0.3737651 79 79 79
-0.0359004476198995 -0.0249794392022924 -0.000680242506469086 -0.7727913 -0.6190489 0.1399002 82 82 82
-0.0376932037088599 -0.0232687150204665 -0.00122199239700799 -0.7482154 -0.6396 0.1763106 96 96 96
-0.0392645528792419 -0.0208941901052462 -0.00105215482301518 -0.7032654 -0.6800377 0.2072836 98 98 98
-0.0372204282845641 -0.0236728348048774 0.00044086808874183 -0.7640949 -0.6276255 0.1491482 98 98 98
-0.0376490730709557 -0.022117095715056 -0.00472850309639067 -0.6809208 -0.6759885 0.281756 64 64 64
-0.0362474988505519 -0.023514457847438 -0.00458989335217991 -0.7123837 -0.6456059 0.2751408 96 96 96
-0.0359472712583973 -0.024589525991964 -0.00372676883234174 -0.7527095 -0.6148527 0.2353393 52 52 52
-0.0376104076081705 -0.0196348494833447 -0.00762403239769166 -0.5856616 -0.6929392 0.4205184 81 81 81
-0.0367534012392751 -0.0196231174135866 -0.0091021676482228 -0.5314425 -0.7022053 0.4737896 87 87 87
-0.0353606071923474 -0.0215115094442628 -0.00963662096887224 -0.581831 -0.6361591 0.5067289 80 80 80
-0.0356706976259738 -0.0202553215798311 -0.010469072709662 -0.4417788 -0.6303478 0.638352 114 114 114
-0.0337762065636267 -0.0254300898202868 -0.0047271746887772 -0.7868663 -0.5651383 0.2479116 87 87 87
-0.0317209418373259 -0.027250198833852 -0.00442786338444129 -0.7771938 -0.578477 0.2476574 90 90 90
-0.0311318707684379 -0.0272104309112757 -0.00676794220071703 -0.7705857 -0.5681549 0.2887864 58 58 58
-0.0370319153798643 -0.0223833431429719 -0.00646022563831755 -0.659784 -0.6619929 0.3555987 54 54 54
-0.0351592857058387 -0.0234021214108022 -0.00672735803062524 -0.6933804 -0.6318055 0.3464757 106 106 106
-0.0345560862071393 -0.0242901810617693 -0.00595042441444427 -0.7405539 -0.601166 0.3002986 116 116 116
-0.0350198121936409 -0.0228616154459438 -0.0088558033379354 -0.6667631 -0.645072 0.3732413 115 115 115
-0.0329109464447101 -0.0246498928817112 -0.00846205357673274 -0.7152602 -0.5768848 0.3944702 94 94 94
-0.0336104433440676 -0.0238488208624457 -0.00918928795858237 -0.6608475 -0.605936 0.4428568 102 102 102
-0.0330803952245533 -0.02353151641894 -0.010425285391749 -0.5896243 -0.5126998 0.624085 88 88 88
-0.0330572357724837 -0.0250049845883293 -0.00734350186906213 -0.7466075 -0.5698571 0.3432785 86 86 86
-0.0417807861695819 -0.0160808289385987 -0.00757117578615513 -0.650113 -0.5727898 0.4992644 67 67 67
-0.0391361757959519 -0.0186373294176709 -0.00693511513104778 -0.6226075 -0.658972 0.4220377 96 96 96
-0.0387295341950676 -0.016116199322538 -0.00957339334897678 -0.4672889 -0.5737603 0.6726367 99 99 99
-0.0377438705210543 -0.0162195579582367 -0.0114979754102015 -0.3424968 -0.5727795 0.7447279 88 88 88
-0.0366431836651043 -0.0165493004161108 -0.0122222852182849 -0.2273957 -0.4492708 0.8639716 112 112 112
-0.0399330826760061 -0.0121676125714938 -0.0104435848417302 -0.2263169 -0.4771272 0.8491939 60 60 60
-0.0398283626011008 -0.0107559458011806 -0.0115725663263326 -0.09620991 -0.3889103 0.9162382 40 40 40
-0.0381018762366373 -0.0109490312881004 -0.012122014174225 -0.03941331 -0.2833129 0.9582173 83 83 83
-0.0375831988976983 -0.0110558096508253 -0.0126264453982775 -0.02725926 -0.2634299 0.9642934 72 72 72
-0.0362109467869806 -0.0134132170409123 -0.0124590131164051 -0.06877184 -0.2539627 0.964766 72 72 72
-0.0357503466714172 -0.0116573061720793 -0.0123257025924998 0.01166082 -0.13753 0.990429 110 110 110
-0.0356421110771892 -0.00881617255906719 -0.0119322802284474 0.08099402 -0.1383211 0.98707 50 50 50
-0.0337003472978836 -0.0272914503551638 0.00148277088733695 -0.7422602 -0.6354889 0.2126116 57 57 57
-0.0325089561298471 -0.0293282046048657 0.00349408586021199 -0.7035483 -0.6699365 0.2370757 87 87 87
-0.0329227163983857 -0.0293917212162613 0.00457828277129058 -0.7026756 -0.6724633 0.2324653 94 94 94
-0.0323208169931922 -0.0282807008447747 -0.000421645971300955 -0.7489635 -0.6218824 0.2287267 58 58 58
-0.0333953778410104 -0.0272315380937653 -0.000377664422489987 -0.7843183 -0.5901139 0.1913384 85 85 85
-0.0298099971885432 -0.0289858740124922 -0.00420320846256578 -0.7539964 -0.6032265 0.2600136 79 79 79
-0.0292356085707813 -0.0291114617092536 -0.00600044292410301 -0.7419912 -0.5978889 0.3032787 85 85 85
-0.0298718540305369 -0.0281859769107282 -0.00686838730920436 -0.7518906 -0.5824942 0.3088058 66 66 66
-0.0341807903170346 -0.0214232749252374 -0.0120451294409996 -0.2828894 -0.3682951 0.8856254 50 50 50
-0.0350902134310173 -0.0199949432458215 -0.0119473244234458 -0.3203146 -0.4893255 0.8111468 82 82 82
-0.0311917227819598 -0.0255363379296125 -0.0100574816803061 -0.6480149 -0.5009037 0.5737352 120 120 120
-0.0276507459747107 -0.0264623157075805 -0.0120396273706589 -0.381634 -0.3716008 0.8463264 70 70 70
-0.0323576925182971 -0.0227644700017293 -0.0124906024980616 -0.3361294 -0.3480478 0.8751456 141 141 141
-0.0310649360344549 -0.0239207994174599 -0.0114095889034534 -0.4199143 -0.3751477 0.8263995 86 86 86
-0.0303876473129373 -0.0200674550562741 -0.0118968681290729 0.03933633 -0.09445469 0.9947517 56 56 56
-0.0307058590810215 -0.0216083059719852 -0.0123883965188546 -0.1214503 -0.1956438 0.9731255 104 104 104
-0.0287339378311022 -0.0214499536705717 -0.0121157160176896 -0.01209416 -0.13124 0.9912769 75 75 75
-0.0285120905266006 -0.0198030437615584 -0.0120619636205304 0.06864686 -0.08725996 0.9938176 96 96 96
-0.0267492341325621 -0.0276272216807418 -0.0123325063072806 -0.4850697 -0.3918957 0.781745 63 63 63
-0.034355664705999 -0.0189369649732078 -0.0125687260606437 -0.1709972 -0.2888259 0.941987 103 103 103
-0.0332901905309587 -0.0123909965944062 -0.0116087141366089 0.05285816 0.003590859 0.9985956 61 61 61
-0.0338431629830543 -0.00944307148518031 -0.012060117639135 0.07347426 -0.002643648 0.9972936 55 55 55
-0.0323415318424551 -0.0107104423164248 -0.0117805199176901 0.06469867 -0.02740536 0.9975284 37 37 37
-0.0319489325539272 -0.0173985775634378 -0.0117202672741234 0.01154644 -0.068118 0.9976104 72 72 72
-0.0305736974297972 -0.0174903864786224 -0.0117054497492581 0.05553684 -0.05280114 0.9970595 47 47 47
-0.0303938099804902 -0.0157496821499028 -0.0118978727545521 0.05843501 -0.03768444 0.9975797 58 58 58
-0.0292398320761503 -0.0192206952237917 -0.0116565564542669 0.06722667 -0.05353568 0.9963004 59 59 59
-0.0260441710273351 -0.019777052214522 -0.012245185012345 0.0787271 -0.08668354 0.9931203 87 87 87
-0.0263843303716864 -0.0177486953839505 -0.0119813446733864 0.04085556 -0.1020284 0.9939421 89 89 89
-0.0298106243463556 -0.0133015559829279 -0.0118527527907413 0.03087202 -0.05706411 0.9978931 54 54 54
-0.0317383601150045 -0.0095179584814995 -0.0118220093628487 0.06136766 -0.05110662 0.996806 37 37 37
-0.0303020286557261 -0.00970374891219561 -0.0117732801990093 0.04617703 -0.06749886 0.9966502 78 78 78
-0.025568581217819 -0.0120182066244587 -0.0119096611785093 0.06648011 -0.06756111 0.9954978 64 64 64
-0.027819441438495 -0.00960039939337221 -0.012161886992738 0.05000862 -0.05452787 0.9972591 55 55 55
-0.0274602954525085 -0.0100710173284824 -0.0118626704290097 0.0451901 -0.05166738 0.9976414 34 34 34
-0.0276759082553399 -0.0297262876106639 -0.00689346995009998 -0.7291943 -0.5993249 0.3302805 38 38 38
-0.0275425089676763 -0.0292824210944147 -0.00807528333600471 -0.7328545 -0.5830306 0.350713 63 63 63
-0.0261168416722579 -0.0310826854903665 -0.00785405772410069 -0.6926387 -0.6176791 0.3724571 60 60 60
-0.0254352787616429 -0.0302129730795384 -0.0100954499624852 -0.5625988 -0.5314206 0.6333046 59 59 59
-0.0262917726545028 -0.0287469282149027 -0.0103111811722018 -0.5590298 -0.5596625 0.6117709 62 62 62
-0.0255990453267154 -0.0281619551366168 -0.0125497120190416 -0.3980193 -0.4508219 0.798962 102 102 102
-0.021655488589013 -0.0310740886332346 -0.012782941866322 -0.2135062 -0.2629218 0.940897 104 104 104
-0.0192528256856523 -0.0310696091503511 -0.0125057375466978 -0.0009468502 -0.00169455 0.9999981 73 73 73
-0.0213165846971667 -0.0280349123269774 -0.0128023929122264 -0.002314444 -0.06716423 0.9977393 119 119 119
-0.0212598713089575 -0.0292013566671396 -0.0133926556480808 -0.07511535 -0.1013773 0.9920082 127 127 127
-0.0189267463613637 -0.0267915928512805 -0.0124443314158573 0.1337263 0.05086735 0.9897119 178 178 178
-0.0246399782272632 -0.022141748846521 -0.0122190280796827 0.1049145 -0.09171488 0.9902431 82 82 82
-0.0223305482979166 -0.0221702038804459 -0.0120642273874167 0.1095263 0.002088776 0.9939817 68 68 68
-0.0207261816182049 -0.0204346814169438 -0.0118675737140396 0.06507962 0.0005294893 0.9978799 82 82 82
-0.0188480629201607 -0.0244798642831001 -0.0122562702995322 0.1473801 0.05419738 0.9875939 155 155 155
-0.0187537087570143 -0.0285666704430483 -0.012498003810856 0.0800582 0.05994719 0.9949859 169 169 169
-0.0174421509544638 -0.0297759037935825 -0.0123312712855057 0.07648881 0.1012826 0.991913 127 127 127
-0.0168422003978689 -0.0281211418983915 -0.012171878787086 0.1031148 0.1152703 0.9879677 176 176 176
-0.016912002764137 -0.0269142273391763 -0.0120611755322447 0.1213749 0.1110044 0.9863803 174 174 174
-0.0170051140254585 -0.0245143445882769 -0.0119479982301167 0.1210552 0.04778035 0.9914952 120 120 120
-0.0186814400840117 -0.0210101803509397 -0.011899087676771 0.06485403 0.02097496 0.9976743 72 72 72
-0.0163376496764379 -0.0205197700181785 -0.0116546428503218 0.03032315 0.05272675 0.9981485 53 53 53
-0.0239521682506486 -0.0122479541788745 -0.0118334908186026 0.07955068 -0.07155835 0.9942591 66 66 66
-0.0243980107718167 -0.0103583739693673 -0.0116386201482104 0.04783883 -0.02440535 0.9985569 46 46 46
-0.0241134597779682 -0.0183142821853568 -0.0120564573279537 0.05005353 -0.08029065 0.995514 100 100 100
-0.0222792389057181 -0.018012630897172 -0.0122810123744805 0.0362598 -0.05106386 0.9980369 98 98 98
-0.0236294674348654 -0.0161872982927476 -0.0124079350991574 0.05403657 -0.08982374 0.9944907 71 71 71
-0.0219164567702492 -0.0167557797466273 -0.0123462532952162 0.03354342 -0.04440206 0.9984505 86 86 86
-0.022252858640941 -0.0145978291768476 -0.0121304674794169 0.05641436 -0.08314267 0.9949396 109 109 109
-0.023619984596583 -0.0141006785170508 -0.0119400504423078 0.06663956 -0.08658538 0.9940131 54 54 54
-0.0237415396305331 -0.00988463666779982 -0.0118212403315342 0.05627494 -0.03036149 0.9979535 52 52 52
-0.020233465618834 -0.0139581390558963 -0.0122124459947295 0.1065549 -0.04818652 0.9931385 95 95 95
-0.0211624889885221 -0.0100875020497055 -0.0117010155904312 0.09479981 -0.0271604 0.9951258 60 60 60
-0.019427746083551 -0.0126593579257568 -0.0119832153607338 0.1207389 -0.04359281 0.9917267 51 51 51
-0.0179078378819282 -0.0167851160844319 -0.0120514423403729 0.006300673 0.0227638 0.999721 111 111 111
-0.0163532577974231 -0.0167878498668885 -0.0116672882854601 -0.009160849 0.04097662 0.9991181 75 75 75
-0.0140762353090159 -0.0193931369452571 -0.0113641471555508 0.01325648 0.06319653 0.9979131 67 67 67
-0.0184373392713357 -0.00961260257193874 -0.0109926498215523 0.07710496 -0.03797391 0.9962996 59 59 59
-0.0177577729693991 -0.0128210193454894 -0.0121934885062334 0.09126096 -0.01967474 0.9956326 83 83 83
-0.0149062692148132 -0.0104472863936318 -0.0118839693307572 0.08587731 -0.0563311 0.994712 46 46 46
-0.0406678121541361 -0.00698455978132295 -0.0101652595266504 0.02517124 -0.3396577 0.9402122 46 46 46
-0.0370833731791542 -0.00658523985513959 -0.0120406598175773 0.1032469 -0.238851 0.9655518 76 76 76
-0.0368398179598281 -0.00500565006706499 -0.0119531975647713 0.06296594 -0.2228537 0.9728163 91 91 91
-0.0371600805643045 -0.00266944688894233 -0.011724431336227 0.03451133 -0.2140999 0.9762019 85 85 85
