ply
format ascii 1.0
comment File exported by Rhinoceros Version 7.0
element vertex 471
property float x
property float y
property float z
property float nx
property float ny
property float nz
property uchar red
property uchar green
property uchar blue
end_header
-0.0122034542211141 0.0245051117457349 0.00320110402838514 -0.367669 0.4748792 0.7995682 101 101 101
0.0266353350140112 -0.0386634425940331 0.000197788871405147 0.379465 -0.3569604 0.8535722 69 69 69
0.0474402070610547 0.0198264837996593 0.00721395128665492 0.2263714 0.4670934 0.8547395 122 122 122
0.036172669176527 -0.0148049358836129 -0.00189840554389281 0.3099419 -0.5912395 0.7445616 63 63 63
-0.0294423977814203 -0.0491188347012526 0.0202314943820329 -0.131569 -0.05993961 0.9894933 82 82 82
0.0368405668901262 0.00873144298953688 0.0124243658233334 0.5531326 -0.3596007 0.7514863 116 116 116
0.00555477214646216 -0.0069229740844019 0.0236139022658586 0.2433299 -0.2185798 0.9449939 166 166 166
0.0177365004261936 0.0481968596372935 0.0074236047795595 -0.1493509 0.323667 0.9343094 131 131 131
0.0549118377913869 0.0215350347267029 0.000985136563125821 0.8149353 0.3655134 0.4497559 141 141 141
0.00423775055937392 -0.0573190406848352 -0.00286091633821334 0.1891676 -0.9402328 0.2831571 58 58 58
0.018259197750592 -0.0116087097746176 0.0178770922889808 0.5274653 -0.2702043 0.8054625 213 213 213
0.0252884717474675 0.0397752883641749 0.00692861129081102 0.4131908 0.166145 0.8953598 94 94 94
0.0230421682230793 0.0747488245040773 -0.00683354701927419 0.1679602 0.4721655 0.8653607 95 95 95
-0.0249204539552824 0.02571170290425 -0.00159940956283067 -0.1789137 0.5385182 0.8234003 115 115 115
0.0338351971738224 -0.0362083987816555 -0.00354150665171854 0.6478657 -0.1076253 0.7541133 49 49 49
0.00188261936716599 -0.00746219090105149 0.0240819915707751 0.2266937 -0.177066 0.9577357 225 225 225
0.069292840058401 -0.00736201840120732 -0.0137797680078607 0.7371156 -0.0351919 0.6748497 85 85 85
-0.0259404531406631 0.0267864374172073 -0.00264175775061865 -0.1635874 0.4729871 0.8657496 136 136 136
0.0231377694577745 0.0299797680808072 0.00942240234299568 0.2955885 0.2808913 0.9130868 126 126 126
0.0173512094405576 -0.0155289458775534 0.0172166241599678 0.5436221 -0.2282037 0.8077116 203 203 203
0.0372656946084014 0.0399138802785908 0.00027413441084817 0.4120265 0.2392926 0.879189 104 104 104
0.00247696211176157 0.0483226881390981 -0.00333659993964502 -0.4922844 0.3868699 0.7797357 133 133 133
0.0479497184252405 0.0419396155747496 -0.00674830307374158 0.7340831 0.3987157 0.5496796 103 103 103
0.0027258158837955 -0.0306995172028091 0.0213522804791255 0.3080382 -0.07526588 0.9483921 240 240 240
0.065194197715584 -0.00510669093502458 -0.00889416071956151 0.6241289 -0.07486156 0.7777268 102 102 102
0.0131312598074141 0.0492287366883548 0.00372360967691593 -0.5162445 0.3848836 0.7650858 51 51 51
0.0237495688243679 0.0145793882269678 0.0174396375034377 0.1780417 0.4428554 0.8787379 168 168 168
-0.0262912088236862 -0.0580604097835791 0.000719190738150688 0.02993472 -0.9978207 0.05880279 50 50 50
0.0171509682950914 0.0359328709572742 0.0103381791375088 0.2772518 0.1876228 0.9422999 79 79 79
0.0538107061431262 0.0271531572417991 -0.003291890648839 0.7854065 0.4892307 0.3791964 104 104 104
0.0680609432761824 -0.00312606380307301 -0.0125357584645058 0.7854838 0.144865 0.6016888 109 109 109
0.0207286459206213 -0.0296161863359226 0.012459990447074 0.5895597 -0.1394772 0.7955912 104 104 104
0.0253926939247856 0.018949191439267 0.0147264318534567 0.1652236 0.482129 0.8603795 122 122 122
0.0226773622597077 0.0693959817938339 -0.00412835259387873 0.1809848 0.4247211 0.8870493 106 106 106
-0.0294996669721831 -0.0374636212387931 0.0200988269414864 -0.08924316 -0.1023815 0.9907339 42 42 42
0.0150129860523015 0.0460052590605724 0.00696724108466668 -0.4176609 0.4091581 0.8112639 112 112 112
0.0276429166759249 -0.0247049437977533 0.00490465760495012 0.7355236 -0.306431 0.6042392 74 74 74
-0.0161868109163407 -0.0565724341470573 0.0136246350362747 0.1691506 -0.9150749 0.3660955 126 126 126
0.0174456066850353 0.0157986631976073 0.0183984587672927 0.2428571 0.5347425 0.8093644 93 93 93
0.0111325323249598 -0.0150067396427847 0.0202689820526218 0.3139875 -0.2238366 0.9226641 113 113 113
0.0174681961582087 0.0713108717358653 -0.00394009716761518 0.1865672 0.42558 0.8854797 101 101 101
0.0687142865895353 -0.0136636662302509 -0.0129909122139542 0.5168945 -0.2076815 0.8304748 137 137 137
0.0107284992580657 0.0409438354066427 0.00719505431856043 -0.4799367 0.4391839 0.7594591 188 188 188
-0.00449154711110672 -0.0254480552144325 0.0230183906812815 0.2177477 -0.137729 0.9662384 176 176 176
0.067843239331961 -0.0112536995853751 -0.01175174715713 0.5825021 -0.1572276 0.7974778 104 104 104
0.00826806539517327 -0.00492098720497225 0.0234765661153035 0.2736224 -0.2549451 0.927434 147 147 147
-0.0196182914008404 0.0297715430171765 -0.00287746637513669 -0.203782 0.3728633 0.9052325 142 142 142
0.0330779075787869 0.0254592752482454 0.00813176684512879 0.2953048 0.4690748 0.8323244 206 206 206
0.0315379519015445 -0.0240273250182297 -0.000361239757366072 0.8334052 -0.1965783 0.5165198 58 58 58
0.00282957488959995 0.0419684744386899 0.00109589640221947 -0.4916316 0.46962 0.7333182 125 125 125
0.0410217369853978 0.0424799236035052 -0.00213628625082191 0.4738999 0.2222316 0.8520752 151 151 151
-0.0301178272587914 -0.00253387644222025 0.0110269581023423 -0.2334606 0.4909299 0.8393354 55 55 55
-0.0268559394830301 -0.0356828822940745 0.020593851271436 -0.2054433 -0.1694313 0.9638911 79 79 79
-0.0256649507828623 0.0377916978953692 -0.00634788724340102 -0.1512962 0.3084137 0.9391435 111 111 111
0.0248436912401164 0.0689533293042022 -0.00403262349123118 0.2349219 0.4022553 0.8848742 111 111 111
0.0600208119804722 0.00974055107437044 -0.00265329522882646 0.9019437 0.1950671 0.3852874 87 87 87
0.0579483736658249 0.0131745982976477 -0.000574206713959413 0.8885763 0.1820978 0.4210374 84 84 84
0.0113897732483738 0.0225266239418307 0.0169442521788307 0.2015077 0.4418422 0.8741682 120 120 120
0.00541261292956241 0.0182597859280942 0.0163267814429012 -0.5140469 0.3629193 0.7772035 147 147 147
-0.0067528656171375 0.0121151228740781 0.0130917307550051 -0.3456942 0.4544157 0.8209761 86 86 86
0.0247631566260779 -0.0217001639374574 0.00845533383611713 0.5947855 -0.2178215 0.7738114 126 126 126
0.0216006327248219 0.00233797092971311 0.0204128549499393 0.4659232 -0.196081 0.8628255 141 141 141
0.0275863173463834 -0.0443429681977141 -0.00261663056588607 0.2792162 -0.4350361 0.8560268 69 69 69
0.0357732450912449 -0.0125295717513769 0.000472360754890488 0.3548044 -0.6319941 0.6889828 54 54 54
0.0153353274257664 0.0441619853482478 0.00818489664660882 -0.3072053 0.3584922 0.8815374 199 199 199
-0.0318441349431919 0.037648750806889 -0.00724329331887474 -0.1440507 0.2676585 0.9526848 101 101 101
0.00287694948096656 -0.0317756303401104 0.0209935980532897 0.3191059 -0.09519481 0.942926 242 242 242
-0.0205941030162081 -0.00255345783840899 0.0150948210466081 -0.3011263 0.5184006 0.8003647 105 105 105
0.0060351423602325 0.041471260766357 0.00363155614311755 -0.5033184 0.4442325 0.7411667 88 88 88
-0.0147533903398144 -0.0307102475517775 0.0247538269833102 0.2608746 -0.1483264 0.9539097 149 149 149
-0.0208719534421228 -0.020892121375055 0.0249482886845099 -0.4798028 -0.02200205 0.8771005 45 45 45
0.0290392413221461 -0.0121689086621184 0.0106022517081938 0.6218603 -0.3357782 0.7074905 107 107 107
0.0319775295283219 -0.00755959724484301 0.00744616507989193 0.7663113 -0.3495642 0.5390472 91 91 91
-0.000943301533035845 -0.035071662931575 0.0216948980052513 0.2017411 -0.1356606 0.9699983 219 219 219
-0.0050063764069001 -0.0348131680177513 0.0221580776310205 0.1863555 -0.152907 0.9705107 130 130 130
0.0152385196780537 0.0110515630673791 0.021620015517234 0.2531517 0.4040622 0.879004 107 107 107
-0.0151886302176701 0.0171825757290975 0.00690655084064323 -0.3643914 0.4532239 0.8135152 109 109 109
0.0178997706764664 0.0583049849135393 0.00438500138367087 -0.02347673 0.4745829 0.8798977 132 132 132
0.0431943574334996 0.0396607157211424 -0.00234701146383087 0.4538987 0.3354666 0.8254927 150 150 150
0.0303680007962692 0.0712737457235866 -0.00741557607660343 0.3395993 0.3891333 0.8562988 85 85 85
0.0450678307094315 0.00726387692655561 0.00713551849122912 0.3146715 -0.4139444 0.8541849 103 103 103
-0.0145161625609552 -0.0171365170245332 0.0265727234948362 -0.006137923 0.04775145 0.9988404 115 115 115
-0.0338182682754385 0.0233810617317556 -0.00127729510396474 -0.05224878 0.5129862 0.8568052 59 59 59
-0.0334685906995572 0.0216352454779913 -0.000576706918795966 -0.09364061 0.4956162 0.863479 81 81 81
0.0173868623155891 0.00871309659935182 0.0218246553028568 0.3029008 0.2609667 0.9165956 127 127 127
0.00571593982634522 0.048886755215189 -7.06621377279948E-05 -0.5294127 0.3733914 0.7617749 79 79 79
0.00573926694205568 0.00833861073482778 0.021577952946853 -0.4589049 0.4616148 0.7591562 127 127 127
0.00813857949165847 -0.0398722187879195 0.0177490546576246 0.4433247 -0.2010544 0.8735218 121 121 121
0.0638300328499971 -0.0194425406020682 -0.0126963840354213 0.3914284 -0.3047165 0.8682924 119 119 119
0.019696184508076 0.0422232302622472 0.00832448262086122 0.2383398 0.2597249 0.9358083 58 58 58
0.0344536912270106 0.033284572612283 0.00370796465239182 0.3896624 0.3414119 0.8553368 114 114 114
0.000597496839388478 0.0458384805774443 -0.00286351516927702 -0.4622305 0.4208189 0.7805476 118 118 118
-0.0270531284605791 -0.00764696898704376 0.0166012803334534 -0.207358 0.6272995 0.750665 92 92 92
-0.0337077102462601 0.037860783301507 -0.007623322525319 -0.1257239 0.270342 0.9545201 103 103 103
0.0139038589319411 0.0263092753185619 0.0132331432070472 0.2512734 0.3798187 0.8902805 104 104 104
0.0134576772660545 0.0395129562755481 0.00969620151062672 -0.2340495 0.3654178 0.9009387 105 105 105
-0.0225257009115303 -0.0212531577087525 0.0242815422387626 -0.5197411 -0.01398334 0.8542094 47 47 47
0.0154597813739334 -0.0503007070348809 -0.00182264434506368 0.5274569 -0.5658507 0.6337209 88 88 88
-0.0310872418776064 -0.0369739855203162 0.0203370342297344 -0.06866504 -0.08865598 0.9936927 54 54 54
-0.0205963859568821 -0.009218189447606 0.0200507883953272 -0.2752992 0.655051 0.7036466 186 186 186
0.0264185852639721 -0.0240377878669529 0.00663806057538735 0.7297629 -0.2742766 0.6262735 102 102 102
-0.00767889422621398 -0.0545933598066932 0.0131592742959238 0.2081467 -0.84989 0.4841095 157 157 157
0.0640348111202593 -0.00279030317999385 -0.00815418411394159 0.6597826 -0.01747062 0.7512534 124 124 124
0.00704756601585482 0.0212220321469907 0.0164491686954771 -0.4710535 0.4297801 0.7703232 139 139 139
0.0195431261990173 -0.0481267107610959 -0.00265168293040857 0.3072757 -0.4973198 0.8113289 84 84 84
-0.0333399060223221 -0.0032489393887396 0.0110553892990691 -0.2411585 0.491616 0.8367534 71 71 71
0.00521518030243834 0.0283164970623186 0.0105242940903371 -0.4711171 0.4354907 0.7670701 187 187 187
0.0158019042262416 0.0207535706768411 0.0155733070450212 0.2890949 0.4648043 0.8368878 99 99 99
0.0626273471275101 0.00300900197381293 -0.00581921647509098 0.8385209 0.1078608 0.5340868 119 119 119
0.0412240096512795 0.0338099872327127 0.00124541747345402 0.3331717 0.3693557 0.8675097 100 100 100
0.051965088210741 -0.0110827287243627 -0.00445536815397046 0.3845868 -0.3720227 0.844803 112 112 112
0.0527244016893527 0.0016226771162775 0.00182157107769138 0.4035651 -0.4356446 0.80458 113 113 113
0.034135447194777 -0.0077105747560926 0.00488286858439818 0.5732597 -0.4392799 0.6916693 63 63 63
0.0198224590421284 0.0147275242330211 0.0178723668139673 0.2277705 0.514083 0.8269458 129 129 129
0.0462836746710201 0.00536123447622483 0.00583472764656351 0.3250283 -0.3992361 0.8573022 87 87 87
-0.0144339300399947 -0.0360329248807807 0.0243013644138124 0.1936067 -0.101151 0.9758509 224 224 224
0.0152555006100321 0.0601040058573044 0.00283301555702403 -0.4159314 0.3381836 0.8441759 126 126 126
-0.000385257794632499 -0.000901947802120828 0.0243069024816784 -0.3340255 0.3476032 0.8761272 172 172 172
0.0384934707727599 0.0651857701948122 -0.0154324812105132 0.7448955 0.5254529 0.4111326 99 99 99
0.0458493988537564 -0.0156209150293236 -0.00448389126261267 0.185362 -0.5370872 0.8229084 85 85 85
0.0612466056868604 0.00912503200871484 -0.00756095411130742 0.9197924 0.3501583 0.1771188 74 74 74
-0.0153952052438553 -0.0509508787768276 0.0203238941261744 0.2495464 -0.6339589 0.7319991 106 106 106
0.00801395739128563 0.02495345512157 0.0147931601965344 -0.3681568 0.502252 0.7824343 133 133 133
0.0212110305090334 0.0174738481002101 0.0163866971410965 0.1643357 0.4834727 0.8597953 113 113 113
0.0451642937854406 0.0411091604626432 -0.00401558902896115 0.5746199 0.3285334 0.7495851 110 110 110
0.056178970162802 -0.00341975022887131 -0.00314492226103602 0.4538502 -0.3824766 0.8048178 113 113 113
0.0211167747894783 -0.0301435186169796 0.0116320340915113 0.5888535 -0.1392919 0.7961466 106 106 106
-0.00940586351202055 0.00661252015596303 0.0146945903304948 -0.2748184 0.420736 0.8645554 86 86 86
-0.0319224268073107 0.0180438051641225 0.00177178830497637 -0.1735937 0.4772133 0.8614712 110 110 110
-0.0246203869157596 -0.0429246848822169 0.0212677210586992 -0.3372974 -0.009454425 0.9413507 40 40 40
-0.00620936981128484 -0.0572377236958075 0.00374982001851681 0.1871044 -0.9701204 0.1544615 110 110 110
0.0611541729220002 0.0107563186785524 -0.0128124247111423 0.8805318 0.4249769 0.2099009 59 59 59
0.0227190111652062 -0.0136376806181218 0.0137316564458018 0.5306759 -0.3524858 0.7708027 99 99 99
0.042362125046583 -0.00416445923235487 0.00306308925640503 0.3350705 -0.3627218 0.869575 101 101 101
-0.0326087636471033 -0.0587934974638491 0.0014275361589271 0.05796151 -0.990585 0.1240232 100 100 100
-0.0114572848823501 0.0181320334078685 0.00753509153678461 -0.228852 0.5019056 0.8340968 106 106 106
-0.0276592093014531 -0.016655357261387 0.0215728330178305 -0.3940245 0.02504456 0.9187587 172 172 172
-0.0111589174083528 0.00891591904109656 0.0127923142402632 -0.3481119 0.4558769 0.8191424 104 104 104
0.0137539919519945 0.0221685784622578 0.0154093831820072 0.3484181 0.4437911 0.8256235 97 97 97
-0.0333211906968447 -0.054950337169313 0.0180051166257326 -0.04350422 -0.5903698 0.8059596 148 148 148
0.030173995407863 -0.0348549521369459 -0.00042669753235719 0.6159928 -0.1645165 0.7703812 78 78 78
0.0110492846221248 0.0183761677969234 0.018929207285366 0.01539048 0.4017889 0.915603 144 144 144
0.0429617109229368 -0.00212752934995541 0.0032644262914247 0.3314439 -0.3929862 0.8577335 76 76 76
-0.0189876962989331 0.0117246838792693 0.00773588395408148 -0.3363048 0.3614773 0.8696167 102 102 102
0.0542961367982581 0.0290583527422936 -0.011560757733324 0.8898444 0.4549795 0.03421346 62 62 62
0.0176329212342808 0.0544710662141885 0.00477120074210818 -0.3402031 0.217241 0.9149143 96 96 96
0.0251135821415209 -0.0155835877682378 0.010821012124112 0.4597483 -0.4220664 0.7813396 114 114 114
0.00809092310122916 0.00301419881200915 0.0256257302602948 -0.04922764 0.03958704 0.9980028 148 148 148
0.0343809189728151 0.0258164587527288 0.00744577117846323 0.3051008 0.4498717 0.8393623 214 214 214
-0.0287426002281425 -0.0150754416930501 0.0211094024749213 -0.3439348 0.214927 0.9140652 153 153 153
-0.0313121891535812 -0.03883441450298 0.0202288445973409 -0.05886012 -0.07216904 0.9956541 70 70 70
0.0148654773198816 -0.0443239919876008 0.00289579435612464 0.6196512 -0.5754173 0.5337858 136 136 136
0.0166159004079924 0.0145761439916365 0.0195601819508965 0.2738268 0.510141 0.8153374 122 122 122
-0.0333560103648989 -0.00688899926111608 0.0144033752644534 -0.3105698 0.5679857 0.7621933 55 55 55
0.0420318258797417 0.02096768739275 0.00704755266457574 0.2110953 0.5046579 0.8371136 126 126 126
-0.017982597313473 0.00282222814390698 0.0124305328053601 -0.3661337 0.4509626 0.8139894 210 210 210
0.0408835475703703 0.0258267124155711 0.00510419543343726 0.2761778 0.4416645 0.8536149 92 92 92
0.0271515991243335 -0.0379070315190129 0.000570088827564763 0.436632 -0.328131 0.837665 47 47 47
0.0239167371282645 -0.0463410722585189 -0.00280617623573892 0.2184784 -0.4516681 0.8650221 69 69 69
-0.017636887348821 0.0210188061522156 0.00335064923194722 -0.2745999 0.5640194 0.7787663 88 88 88
0.06422770131093 -0.0047642440430673 -0.00797528089907512 0.5954158 -0.1039159 0.7966691 105 105 105
0.01799200955346 -0.0401360420209866 0.00776050075347545 0.6373178 -0.6926932 0.3376419 67 67 67
0.0386148304333933 0.0546089814909785 -0.00420953276319352 0.5733812 0.2767097 0.7711457 122 122 122
-0.0334579906929796 0.0274204101997186 -0.00371149854367286 -0.03732709 0.4396221 0.8974069 89 89 89
0.00100560931076271 0.0388368061991222 0.00170376352810803 -0.4779114 0.4658661 0.7446943 118 118 118
0.0129698701943928 0.0614891959910036 0.000434952615169071 -0.4387673 0.2840356 0.8525298 134 134 134
-0.00267187162544991 0.00866755178089917 0.0165487100763834 -0.4334218 0.4245977 0.7948977 111 111 111
0.0423352880171099 0.0553998280622241 -0.00748067007063208 0.6995743 0.2791405 0.6577814 71 71 71
0.00701864775229022 -0.0437376127660634 0.0169207185510844 0.4669066 -0.4541466 0.7587813 132 132 132
-0.0150682774285056 0.0469507673202054 -0.00669271389128634 -0.156396 0.2236433 0.9620416 138 138 138
0.021969530084793 -0.0264849594460883 0.0105937384131491 0.6931771 -0.03947527 0.7196855 108 108 108
0.0113298098506886 0.0373823182362616 0.00987190139107857 -0.3969648 0.4005664 0.825812 167 167 167
-0.0252706272971283 -0.00755528399503791 0.0169723067796606 -0.2133903 0.625746 0.750271 63 63 63
-0.023781201085573 0.00680732415009189 0.00851568027219396 -0.2491068 0.4184088 0.87343 92 92 92
0.044799252570916 0.00180606011452844 0.00494553524758062 0.3267586 -0.4079401 0.8525337 85 85 85
0.0446336394286183 0.033458782585235 -0.000286533173676495 0.3486083 0.4269971 0.8343535 113 113 113
0.00862508377337701 0.0383025670829631 0.00720684399974986 -0.5179425 0.4119037 0.7497139 187 187 187
0.0500767083048604 -0.0155914490795159 -0.00604668630638378 0.242315 -0.4587921 0.8548645 116 116 116
0.0355669730959384 0.0116841725632886 0.0146581433783729 0.5615139 -0.08970798 0.8225902 101 101 101
0.0305662676528339 0.00227390448406628 0.0153264676342107 0.5019059 -0.3418493 0.7944995 125 125 125
0.029891840691951 -0.0337467866420886 -1.08603581168709E-05 0.6624421 -0.1566616 0.7325487 59 59 59
0.0424197334479148 -0.00580238053918514 0.00249616767337063 0.3381244 -0.3830885 0.8596017 74 74 74
-0.00884388665153951 0.000709559769554113 0.0195785515634799 -0.3657563 0.5672764 0.7378481 114 114 114
-0.0288540923940087 0.0369909386272669 -0.00607177137304293 -0.1551512 0.2801947 0.947322 103 103 103
-0.0231828893327015 -0.0469635016351002 0.0217681647020154 -0.3062799 -0.08330929 0.9482891 61 61 61
-0.0188419001651016 -0.0578538108948816 0.0110683883411126 0.07072321 -0.9800048 0.1859808 112 112 112
0.0132886066330436 -0.00894609700439419 0.0208834559861075 0.3276591 -0.2027394 0.9227872 128 128 128
0.0158625162962783 0.0263956200329627 0.0127467285010769 0.256058 0.3114103 0.9151273 97 97 97
0.0552025619351058 -0.0218973900552961 -0.00972298094774721 0.2429873 -0.3911468 0.8876718 81 81 81
-0.0225671583035215 -0.0308047002490439 0.024039192386841 -0.4659673 -0.1612907 0.8699769 235 235 235
0.00979773171968157 0.0130759125963946 0.0216860531580116 -0.2159885 0.4244363 0.8793195 121 121 121
0.0325369304178024 -0.0229719112443427 -0.00178569309023097 0.8275862 -0.154992 0.5395169 93 93 93
0.0252095389655052 -0.00987870613298791 0.0134416513450817 0.4656348 -0.3034013 0.8313434 122 122 122
0.00311425396639925 0.0203316289458109 0.0133737081803325 -0.5167867 0.4244882 0.7434658 108 108 108
0.0190398538981649 -0.0197338048169202 0.0148844379736444 0.6244765 -0.1545984 0.7655903 112 112 112
-0.00341670091483776 -0.0569534314039069 -0.00232558549695611 0.08542617 -0.9919891 0.09305947 75 75 75
0.0550473827111118 0.0257046402085781 -0.00456411274879581 0.8366464 0.4487817 0.3140346 88 88 88
-0.0309351110239189 -0.0408066472194235 0.0203650764655531 -0.05471414 -0.03118783 0.9980149 37 37 37
0.0670137223712542 -0.0130570138529622 -0.0117450135055404 0.4928413 -0.1996339 0.8469084 109 109 109
0.0381291563938273 -0.0211651282952869 -0.0055989360798141 0.2954339 -0.276972 0.9143333 76 76 76
0.0273196042026823 -0.0462236154633919 -0.00362286475117296 0.216816 -0.433138 0.8748613 62 62 62
0.0468420150976377 0.028463846211469 0.00220125247277358 0.238801 0.5393749 0.8074954 121 121 121
-0.019449669496582 -0.0560542147092518 0.0147525677913904 0.1318673 -0.9078056 0.3981205 123 123 123
-0.0234973067010201 -0.0264353950938994 0.0232486230243817 -0.5214238 0.0003048329 0.8532978 234 234 234
-0.00956831903603589 -0.0540749416949493 0.0142047317848162 0.2110554 -0.8091425 0.5484014 124 124 124
-0.0112384290367724 0.00243020767741942 0.0163611835124322 -0.3050113 0.4494752 0.8396072 101 101 101
0.0196451608306283 -0.0235824579679322 0.0132984563905946 0.6352787 -0.108801 0.7645805 90 90 90
0.0152302197688819 0.040611948950827 0.00979165904165774 -0.1376992 0.3493081 0.9268348 135 135 135
0.00351069636422841 -0.0245793603106426 0.0210400809237773 0.3079689 -0.1061626 0.9454547 192 192 192
0.052608969256379 0.000461573440314833 0.000741176385876063 0.3954608 -0.4433867 0.8043749 91 91 91
-0.0324783673845937 0.00657010532483659 0.00724273305422546 -0.1450676 0.4307505 0.8907353 55 55 55
-0.0216194608857065 0.0272699240350325 -0.00203896394879438 -0.1942587 0.4862199 0.8519706 133 133 133
0.00468400194456103 0.02477403146279 0.0118905053190141 -0.4944015 0.4171353 0.7626043 119 119 119
0.0172531752491171 -0.0457037455446951 -0.00022341867698733 0.4962207 -0.5702534 0.6546572 65 65 65
0.0263973812375471 -0.00316539651100056 0.0152393277633225 0.4954094 -0.3218676 0.8068276 140 140 140
-0.00172495595138383 -0.0530843792949947 0.0116618293186669 0.3487012 -0.8346602 0.4263213 114 114 114
0.0295395948038989 0.00448071686056539 0.0167869151938344 0.4545523 -0.3099257 0.8350618 133 133 133
0.0642600292305983 -0.0203460324122762 -0.0131803296296351 0.3896895 -0.2768463 0.8783497 111 111 111
0.00942616728334184 0.0542292854710897 -0.000462392342105378 -0.5797551 0.2203868 0.7844193 54 54 54
0.00707251838178813 -0.0369047401826288 0.0185766123335068 0.4168245 -0.0855499 0.9049522 112 112 112
-0.0235724142878915 0.0416578920029624 -0.00734705391064938 -0.1729685 0.2830639 0.9433752 123 123 123
0.0487263564099371 -0.00258509922088002 0.00110127290270035 0.3562746 -0.4105266 0.8393666 94 94 94
0.0579076560215217 0.00980205475401097 0.00121861348992586 0.8158239 -0.004349471 0.5782841 162 162 162
0.0220423465416265 -0.0240286513723711 0.0111440433809347 0.7193806 -0.05820622 0.6921731 97 97 97
0.0571407383055685 0.0218698264626682 -0.00425341722018119 0.9170237 0.2988128 0.2641562 102 102 102
0.0096650134766022 0.00591345116905928 0.0252191825248098 -0.1018235 0.2636029 0.9592421 127 127 127
0.00189956229345112 0.0107315650552819 0.01851556096656 -0.4314077 0.4645633 0.7733488 137 137 137
0.0451780762556597 0.0393261962021678 -0.00332561533453374 0.5386627 0.3645338 0.7595773 119 119 119
-0.0327600772094471 -0.0590204460507153 0.00110381580379371 0.05296111 -0.9918665 0.1157412 93 93 93
-0.0298694560350676 -0.0585681215836202 0.00145139381605913 0.06994452 -0.9952161 0.06820972 88 88 88
-0.0309327719551855 -0.0590389280592418 0.00101921587025361 0.07559459 -0.9941702 0.07688277 72 72 72
-0.0318526396433438 -0.05852622142018 0.00322992333359301 0.0615505 -0.9894095 0.1314546 150 150 150
-0.0279931903974623 -0.0581756710734502 0.000645245575374542 0.035567 -0.997512 0.06086758 53 53 53
-0.0280182565334354 -0.0582380159543892 0.00204755681045776 0.05535351 -0.9971192 0.051859 52 52 52
-0.020890526708457 -0.0589345986474843 -0.00110920961895372 -0.05469069 -0.9962217 0.06746222 78 78 78
-0.0237563361425325 -0.058170391342601 0.00291401703868871 -0.0497238 -0.997013 0.05909743 59 59 59
-0.0223080855446272 -0.0582016174851239 0.00188082837225251 -0.07945929 -0.9943109 0.07093702 53 53 53
-0.0203458833893772 -0.0586035122940245 0.000452103804474524 -0.0576929 -0.9948236 0.08365125 108 108 108
-0.0184369092174683 -0.0591435899094499 0.000316721199326686 -0.02107932 -0.9977637 0.06342948 119 119 119
-0.0184736678331052 -0.0586306255802425 0.00278783957395762 -0.009852732 -0.9890739 0.147091 130 130 130
-0.0143533598123222 -0.0586734411966752 0.000135699596692851 0.07424214 -0.9912845 0.1088266 87 87 87
-0.0129658627461672 -0.0583442602320248 0.000123574960159301 0.1194269 -0.990186 0.07258737 109 109 109
-0.0120513890757826 -0.0582188271301816 0.00216048481641379 0.1310944 -0.9840387 0.1203421 102 102 102
-0.0348384792572194 -0.0582613699073167 0.0052515643028434 0.01922763 -0.9868601 0.160429 53 53 53
-0.0321758426636584 -0.0580172680759781 0.00675104220260975 0.02036882 -0.9869207 0.1599146 121 121 121
-0.0302528199163851 -0.0578021555354216 0.00675312449062154 0.02521208 -0.9900157 0.1386838 118 118 118
-0.0332768574193186 -0.0576147622544101 0.007001935221286 0.02136634 -0.9856718 0.1673158 89 89 89
-0.0322059396682006 -0.0577073266790746 0.00892787976154563 0.00729412 -0.9888645 0.1486395 107 107 107
-0.0279357073877794 -0.0580869742641406 0.00693520441032475 0.006574359 -0.9955071 0.09445901 87 87 87
-0.0261617723995502 -0.0579068618532579 0.00541256248074845 0.02867944 -0.9951705 0.0938786 98 98 98
-0.0257598969523121 -0.0579991154330517 0.00349977319732087 0.009829279 -0.998441 0.05494525 60 60 60
-0.0240047561647806 -0.0580564087777498 0.00701229672023707 -0.001090233 -0.9939824 0.109534 108 108 108
-0.026292450312365 -0.0579659964360066 0.00839318910643422 0.01688508 -0.9945269 0.1031074 134 134 134
-0.0338329635305052 -0.0570494701956761 0.0122344835446457 0.01495796 -0.9805413 0.1957421 117 117 117
-0.0295754363595765 -0.0572702817545565 0.0108974545271788 -0.02135369 -0.99141 0.1290357 129 129 129
-0.0295280494276288 -0.0568574436201694 0.0149677234117087 -0.009908704 -0.9550718 0.2962088 130 130 130
-0.032463684644457 -0.056993839578019 0.014784215397257 -0.02522753 -0.9502687 0.3104076 149 149 149
-0.0184385380565535 -0.0579210282880307 0.00628686193951683 0.01443341 -0.9844857 0.1748702 132 132 132
-0.0216264769182906 -0.0576842170881604 0.00813046278778312 3.315598E-05 -0.991344 0.1312899 119 119 119
-0.0197395149028228 -0.0575594247090654 0.00801596525424042 0.03223934 -0.9877939 0.1523936 138 138 138
-0.0160069083230095 -0.058534708921584 0.00394780274651479 0.02973422 -0.9830907 0.1806892 113 113 113
-0.0143463409217402 -0.0584486927505479 0.0040984065959821 0.1003986 -0.9801598 0.1709001 130 130 130
-0.0137240207835057 -0.0583488282730851 0.00304568991045906 0.107475 -0.9829772 0.1490133 126 126 126
-0.0167489299875986 -0.0576705086037772 0.00702815998858325 0.04247372 -0.9805821 0.1914545 116 116 116
-0.0216152591164913 -0.0572784882822708 0.0122085654416157 0.03465783 -0.9770559 0.2101442 106 106 106
-0.017437159545781 -0.0571772289673993 0.0123175769802766 0.1356172 -0.9499816 0.2813237 99 99 99
-0.0173745223497816 -0.056357269116561 0.0139735974034343 0.1706901 -0.9006799 0.3995505 131 131 131
-0.0154820288248739 -0.056186006788274 0.0138085197562376 0.206656 -0.8971017 0.3905148 112 112 112
-0.0136250572003297 -0.0554500443496464 0.0137161420330563 0.2432175 -0.8807212 0.4064178 134 134 134
-0.0235217490362629 -0.0573939168342934 0.0105470984257539 0.02153247 -0.9895881 0.1423089 106 106 106
-0.0218358486333272 -0.0573741502773961 0.00997285368787421 0.02240851 -0.9879498 0.1531437 116 116 116
-0.0157135666368908 -0.0570276710344575 0.0104384907000223 0.1311933 -0.9641495 0.2306599 113 113 113
-0.014163676640521 -0.0569716727502827 0.00997320188568973 0.1335366 -0.9627231 0.235228 113 113 113
-0.0135342710583949 -0.0562252910610774 0.011505039274068 0.2037352 -0.919807 0.3353314 123 123 123
-0.0350111489232141 -0.0558175016971341 0.0173918813011822 0.03761835 -0.7379279 0.6738303 139 139 139
-0.0315838759580529 -0.0559342625514934 0.0171540792397247 -0.05463277 -0.7697188 0.6360411 155 155 155
-0.0308447966536546 -0.0564254394439971 0.0163412151535742 -0.06064046 -0.8881633 0.4555093 126 126 126
-0.0292416189865289 -0.0559872988493169 0.017265040110337 -0.06846003 -0.7870914 0.6130255 164 164 164
-0.030816463770249 -0.0552129155849621 0.0181347510469644 -0.07933892 -0.6767672 0.7319095 147 147 147
-0.0290687812595891 -0.0550144374261186 0.0189361516872784 -0.09384995 -0.6033372 0.7919447 171 171 171
-0.0313244257206882 -0.0529011219746298 0.0193184457464232 -0.1148724 -0.3772406 0.9189635 136 136 136
-0.0274572141420362 -0.0555492666696504 0.0184056115837724 0.009706701 -0.7176535 0.6963328 150 150 150
-0.0253437188336041 -0.0563264199846736 0.016468146313591 0.06205567 -0.8789685 0.4728251 147 147 147
-0.0248968911246982 -0.0561207936538597 0.0169085385612724 0.09506184 -0.8571186 0.5062716 147 147 147
-0.0252644311494395 -0.0548895507674438 0.0187338006314504 0.01741159 -0.7291017 0.6841838 197 197 197
-0.0231759865945869 -0.0558665972785832 0.0170391131802998 0.112983 -0.8611212 0.4956865 125 125 125
-0.0236214306070828 -0.0553385264422481 0.0182363071295711 0.08175842 -0.7993055 0.5953371 152 152 152
-0.0291351001436548 -0.0533025280617256 0.0200225805456065 -0.1419846 -0.4107995 0.9006021 158 158 158
-0.0278755684960036 -0.0535516040653981 0.019543874998023 -0.05887827 -0.5079634 0.8593641 134 134 134
-0.0271048897207571 -0.0531424407327912 0.0201119316054182 -0.09061299 -0.4755396 0.8750151 148 148 148
-0.0251813966592594 -0.0536363244100366 0.0198662196307949 -0.02019711 -0.5548823 0.8316837 170 170 170
-0.0294671167067293 -0.0515247859580692 0.0199370694120438 -0.09895647 -0.2982299 0.9493506 93 93 93
-0.0270028938250781 -0.0510024963951197 0.0206041702379444 -0.1388644 -0.1991798 0.9700743 138 138 138
-0.0252537163749239 -0.0512234021931275 0.020476029125542 -0.1294804 -0.2953699 0.9465683 141 141 141
-0.034752634731484 -0.050301162451692 0.019833764217239 -0.08760591 -0.1934394 0.9771931 112 112 112
-0.0335510894218378 -0.050807242443939 0.0198483596037767 -0.0806563 -0.2387808 0.9677181 103 103 103
-0.0314889747796427 -0.0488138994191212 0.020051754198181 -0.07708186 -0.05007919 0.9957663 100 100 100
-0.0305229890743441 -0.0477029152157833 0.0199284551729838 -0.09855195 -0.02402744 0.9948418 76 76 76
-0.033196217112261 -0.0469108406420495 0.0199030911952979 -0.04118098 -0.03592103 0.9985058 67 67 67
-0.0346237765973916 -0.045136263024858 0.0198736424712753 -0.03646946 -0.02537628 0.9990125 48 48 48
-0.0311999340761561 -0.0451020713483219 0.0200113941346752 -0.07021008 -0.01895825 0.9973521 85 85 85
-0.0294427072895706 -0.0447637118779476 0.0198464978929828 -0.1170414 0.008208627 0.9930931 39 39 39
-0.0271462294990586 -0.0493809608133609 0.0208734228705894 -0.1608834 -0.07973661 0.9837472 127 127 127
-0.023432769005478 -0.0491617836903511 0.0215578590893041 -0.2412802 -0.1996146 0.9497041 141 141 141
-0.025530789197615 -0.0486741167182116 0.0208774736992758 -0.235694 -0.08203224 0.9683589 189 189 189
-0.0274686207006234 -0.0453001271600546 0.0202482239562568 -0.205369 0.01728814 0.9785319 119 119 119
-0.025666178227119 -0.0465688873633454 0.0208671379763344 -0.2548738 -0.02453975 0.9666629 107 107 107
-0.0235777355838399 -0.0446638789262368 0.0216588661483221 -0.3539363 -0.0005518305 0.9352694 30 30 30
-0.0254448172264402 -0.04441796291925 0.0208332958726531 -0.2773868 0.02633218 0.9603974 64 64 64
-0.0211251645850583 -0.0556998553009067 0.0165157170683684 0.1195545 -0.864313 0.4885384 135 135 135
-0.0203755268823061 -0.0555196515652205 0.0166678651092385 0.144699 -0.8688576 0.4734434 125 125 125
-0.0213694869224618 -0.0549922019614522 0.0182852084853081 0.1224593 -0.7871599 0.6044692 151 151 151
-0.0230570491379709 -0.0539645852648782 0.0190296385880405 0.04586864 -0.6831675 0.7288197 184 184 184
-0.0215363335060402 -0.0529764584360193 0.0204643900112123 0.03077013 -0.615037 0.7878976 171 171 171
-0.0174054506610719 -0.0535825119598883 0.0184173599225269 0.201682 -0.7574772 0.6209289 163 163 163
-0.0191402711998495 -0.0530829400982868 0.0196589833173976 0.1524994 -0.7060773 0.6915193 168 168 168
-0.0156466837601167 -0.0552597022481023 0.0158375701152878 0.2126959 -0.8476212 0.4861057 134 134 134
-0.0136473797792229 -0.0541610758570377 0.016328519728105 0.2630946 -0.7769656 0.5719316 153 153 153
-0.0174956865105727 -0.0544138794533717 0.0175232946208237 0.172676 -0.8037778 0.5693191 153 153 153
-0.015699323714184 -0.0534824363584119 0.018330852082547 0.2541513 -0.7372844 0.6259544 180 180 180
-0.0170173548714071 -0.0525747852207958 0.0194114524781765 0.2269401 -0.6902432 0.6870681 199 199 199
-0.0212196244995945 -0.051536520082536 0.0213610604673442 -0.06224765 -0.4850877 0.8722472 188 188 188
-0.0196225981305371 -0.0519289446120486 0.0208866464018953 0.06194654 -0.59543 0.8010154 160 160 160
-0.017210385771687 -0.0508324804131808 0.0213376991017549 0.1749572 -0.5763326 0.7982673 141 141 141
-0.0193419088743866 -0.0488249973809642 0.0226846341879631 -0.01063658 -0.3633189 0.9316041 137 137 137
-0.0131147023170078 -0.0520340250487092 0.018684253868555 0.273663 -0.7069926 0.6521273 108 108 108
-0.0170250051619488 -0.0494454363692256 0.0220050714516517 0.1260495 -0.4701999 0.8735121 138 138 138
-0.0193972432862005 -0.0481138069686009 0.0229868290431059 -0.07580415 -0.2605466 0.9624808 113 113 113
-0.0128455741679882 -0.0498832362014869 0.0199243739535548 0.2619865 -0.6157662 0.7430983 127 127 127
-0.0131851214038963 -0.0491228986847774 0.0216702628016727 0.2804599 -0.5090603 0.8137567 148 148 148
-0.0144325403109094 -0.0475388218579209 0.022422019404042 0.234882 -0.3842365 0.8928565 131 131 131
-0.015464818560785 -0.0470145096699213 0.0230212278801059 0.1858995 -0.3163975 0.9302333 125 125 125
-0.0131688810683079 -0.047069188456007 0.0223508610197476 0.2685769 -0.3391487 0.901579 163 163 163
-0.0104559173491908 -0.0579410856781311 0.00311425178066771 0.16253 -0.9793873 0.1199353 122 122 122
-0.00847622539718784 -0.0576268686126373 0.00206712175997964 0.1689385 -0.9826719 0.07626159 103 103 103
-0.0078042108633376 -0.0575405446107571 0.00434313977814971 0.1792551 -0.9732426 0.1437585 104 104 104
-0.0103504612665612 -0.0576619680249804 0.00597500489788394 0.1464557 -0.9728352 0.1792832 107 107 107
-0.0126142068464355 -0.0574531598372019 0.00752628415241346 0.1121126 -0.9630971 0.2446931 111 111 111
-0.0098802941410438 -0.0571260563775158 0.00745825533864058 0.1535141 -0.9602714 0.2330499 126 126 126
-0.00393940589287933 -0.0566679941261197 0.00320737788704162 0.174386 -0.9690046 0.1749847 85 85 85
-0.00352220330382741 -0.0567732669694285 0.00162864639767363 0.1402024 -0.9763637 0.1644905 85 85 85
-0.00532976253069573 -0.056362384805472 0.00607526670136666 0.2139371 -0.9527357 0.215698 112 112 112
-0.00261511618061977 -0.0564025882890444 0.00425659174923182 0.1743051 -0.9618754 0.2107448 109 109 109
-0.0109519153856425 -0.0566719328742709 0.00852635097052606 0.1413772 -0.9492393 0.2809932 119 119 119
-0.0115508811163666 -0.0558219135639879 0.0122879119994219 0.2046404 -0.9006531 0.3833358 137 137 137
-0.00752181783533257 -0.0551823516011034 0.0118567468040651 0.2131331 -0.8751855 0.4343094 150 150 150
-0.00612363638710234 -0.0555954590701115 0.00934340320182675 0.2389092 -0.9140046 0.3278995 146 146 146
-0.003588440769898 -0.05514015872449 0.00949063915696996 0.3314604 -0.8652928 0.3760351 126 126 126
-0.00351673442750267 -0.0552872093492391 0.00817643874224805 0.2913852 -0.8919034 0.3458367 146 146 146
-0.00189941194272392 -0.0553207868227386 0.00757942621895036 0.2790466 -0.8815817 0.3807186 125 125 125
-0.00576002812977527 -0.055029140253698 0.0115255818994083 0.2695812 -0.8692539 0.4143956 151 151 151
0.00163191977202892 -0.0560060654186325 0.00270214194677321 0.2041689 -0.9270881 0.3143609 129 129 129
1.27000202739258E-05 -0.0562833242234482 0.0037442917223231 0.1586701 -0.9450116 0.2859666 116 116 116
0.00129480822672162 -0.0563440584949022 0.00186235437938137 0.1766305 -0.9443751 0.2774119 121 121 121
0.00317691204177606 -0.0554744132055121 0.00308822628868227 0.3261051 -0.8651317 0.3810547 150 150 150
-0.000775425794388496 -0.0548669983924139 0.00602868219870334 0.2408129 -0.8890443 0.3893704 95 95 95
0.00379920035007097 -0.0548496976876183 0.00352791295132082 0.3540171 -0.8401472 0.4108827 138 138 138
0.01288455013326 -0.0418918422129526 0.0126422996877256 0.6330374 -0.6092162 0.4776184 103 103 103
-0.000283610422870562 -0.0552618637595466 0.00709037835203502 0.2812649 -0.8646554 0.4162464 126 126 126
-0.000129749788593647 -0.0543352498612337 0.0077987737800605 0.3195781 -0.8453258 0.4281286 116 116 116
0.00248551422000914 -0.0548974221523666 0.00603882766166497 0.3416243 -0.8354437 0.4304958 115 115 115
0.00335950397697538 -0.0540824433796414 0.00640587141049831 0.3650596 -0.8261611 0.4291728 102 102 102
0.00444523835089178 -0.0527475896848497 0.00689066766187502 0.4591307 -0.771875 0.4397818 113 113 113
0.000603775918769145 -0.051877018544737 0.010077665831887 0.3482141 -0.8422339 0.411569 103 103 103
0.00386711368099918 -0.0520691047063184 0.0082442985679812 0.4333854 -0.7935637 0.4271226 89 89 89
0.00152771943328023 -0.0523717754300974 0.00988196348825615 0.3494396 -0.8405598 0.4139458 102 102 102
0.00226198409625594 -0.051713783428365 0.0111254249516171 0.3743258 -0.8082812 0.4544906 94 94 94
-0.0116837668605187 -0.053323180359913 0.0161055912885367 0.2584821 -0.7382633 0.6230203 132 132 132
-0.00951420218083715 -0.0546412147295203 0.0140506579340855 0.1924472 -0.8254598 0.5306413 137 137 137
-0.0100707736465177 -0.0534699826035701 0.0152794030966443 0.2279621 -0.7764151 0.5875483 156 156 156
-0.00741256865325129 -0.0528387176965972 0.0154394374165722 0.2015221 -0.7733768 0.6010634 131 131 131
-0.00948930750131932 -0.0523366527017457 0.0160119464137604 0.2254924 -0.7436895 0.6293482 159 159 159
-0.0116822196573812 -0.0524346582677191 0.0173915959662356 0.2647794 -0.7249439 0.6358838 131 131 131
-0.00954295577064151 -0.0515543227340167 0.0170937428678131 0.2363739 -0.7297697 0.6415322 145 145 145
-0.00760661986455674 -0.0506335865852461 0.0177111823952459 0.1870475 -0.7154113 0.6732013 129 129 129
-0.0057711414057971 -0.0535194790518521 0.0138487520040292 0.2328563 -0.8155844 0.5297169 150 150 150
-0.00428295589515482 -0.0527913312302284 0.0147183504152099 0.2647048 -0.7807927 0.5659454 178 178 178
-0.00529050524055263 -0.0521566886887879 0.0153286438933528 0.2365269 -0.7754777 0.5853968 160 160 160
-0.00298229898556318 -0.052931106874617 0.0134151355354065 0.3263367 -0.8092526 0.4884819 114 114 114
-0.00420065437825845 -0.0506737241449364 0.0169961078201081 0.2523308 -0.6789776 0.6894335 157 157 157
-0.00216123146523151 -0.0515206150172058 0.0149207538790418 0.3553742 -0.759469 0.5449001 105 105 105
-0.0120868250117122 -0.0505349521335396 0.019330089869734 0.2712077 -0.6657498 0.6951428 153 153 153
-0.00945683757129379 -0.0495297384459137 0.0196813817554343 0.2202243 -0.6218366 0.7515454 153 153 153
-0.00761278650903724 -0.0502178769951072 0.018129909570066 0.2145322 -0.6656864 0.714729 168 168 168
-0.00742595347430802 -0.0492055974043522 0.0193701221868502 0.205932 -0.6124576 0.7632088 169 169 169
-0.0116455769977941 -0.049010539644972 0.0211302018768488 0.2543352 -0.5310282 0.8082838 121 121 121
-0.007336439932707 -0.047092097968765 0.0208401494510272 0.2598526 -0.3476382 0.900902 144 144 144
-0.00998016942320862 -0.0463099519601371 0.0214537394727092 0.2597074 -0.2418916 0.9349014 149 149 149
-0.00319885410415133 -0.0497454519931517 0.0173974184615259 0.2849787 -0.6355072 0.7175777 148 148 148
-0.00448808060683231 -0.0495847223880548 0.0182673695673877 0.258196 -0.6104829 0.7487627 202 202 202
-0.00327664934844701 -0.0491625287893764 0.0182907685069218 0.2804501 -0.5889503 0.7579481 140 140 140
-0.00222191093087887 -0.0486937576801616 0.0187791668357373 0.3212197 -0.5585784 0.7647275 160 160 160
-0.00172972654235298 -0.0471360750714993 0.0189377881161948 0.3178158 -0.4774222 0.8191832 159 159 159
-0.00348502440026904 -0.0475122203978873 0.0193776770524343 0.2584311 -0.4482937 0.8557138 162 162 162
-0.00515212721379144 -0.0452563305414859 0.0203404648651253 0.2173297 -0.2865751 0.9330822 171 171 171
-0.00249406593504303 -0.0454290851268886 0.0199018827601807 0.2633007 -0.3467367 0.900248 153 153 153
0.000728043271970458 -0.0515200714952624 0.0126843689723569 0.3676922 -0.7945639 0.483188 120 120 120
0.00422857458337422 -0.0509549058696004 0.0109842165945044 0.4409331 -0.7929755 0.4204378 135 135 135
0.00212574122479842 -0.0510823248354013 0.0128681452913127 0.3658024 -0.7909468 0.4905014 99 99 99
0.00375300792433553 -0.0507924796791306 0.0122549890858411 0.3801882 -0.7886517 0.4832033 93 93 93
0.00506120025683532 -0.0498802760307475 0.0125723409391365 0.4286807 -0.7636963 0.4827016 120 120 120
0.0012158025426186 -0.0507448316059529 0.0143668215565552 0.3641796 -0.7553024 0.5448775 97 97 97
-0.000689891439472956 -0.0499836286062925 0.0154895660982977 0.3746307 -0.7089456 0.5975348 114 114 114
0.000727206259946822 -0.0496565084789324 0.0153451630973777 0.3649188 -0.7160621 0.595054 126 126 126
0.00141454813047004 -0.0482074071334988 0.0152072879984665 0.3725109 -0.6704358 0.6416787 108 108 108
0.00596635278292407 -0.0494333962737061 0.0115223679968037 0.5189205 -0.7504974 0.4092373 77 77 77
4.47009582654756E-06 -0.0486761507692868 0.0166930527455663 0.3792061 -0.6194177 0.6874042 121 121 121
0.000533390435815295 -0.0476770595059695 0.0174060154142726 0.3734788 -0.5685281 0.7330003 153 153 153
0.000489017347506282 -0.0469046278327749 0.018247500342258 0.3607305 -0.5330486 0.7653317 162 162 162
0.00268311872590388 -0.0483051565229469 0.0156146152712612 0.383376 -0.6653324 0.6405901 159 159 159
-0.000180532164002101 -0.0442333666325267 0.0194398738457567 0.2673362 -0.3451398 0.8996721 137 137 137
0.00344148314994647 -0.0448721256524689 0.0177335902084949 0.3430183 -0.4838585 0.8051207 154 154 154
0.00494058936504477 -0.0468437990891086 0.0158136293625556 0.4155222 -0.6120708 0.6728377 167 167 167
-0.0255528843786211 -0.05844103624733 -0.00158229956855344 -0.008488985 -0.9977964 0.06580598 53 53 53
-0.025371386477254 -0.0572374513653569 -0.00275074527642061 -0.009603476 -0.9979327 0.06354693 39 39 39
-0.0232773700997096 -0.0584919476879704 -0.00259165474426909 -0.04548972 -0.9967238 0.06687494 37 37 37
-0.00574487808544533 -0.0571678577718817 0.00049952645354534 0.1238341 -0.9879775 0.09255046 73 73 73
-0.00186686475071918 -0.056915359255767 -0.000696682821738515 0.07822402 -0.9855451 0.1502725 90 90 90
-0.000763285847235673 -0.0575716792056118 -0.00228369827864994 0.06444 -0.9839748 0.1662564 75 75 75
-0.000331786515991972 -0.0567921991245446 -0.00423098079511103 0.09022845 -0.9829577 0.1601657 64 64 64
0.000833381061674909 -0.0569290690135045 -0.00218894467083347 0.08940759 -0.9758701 0.1992078 56 56 56
0.00330873045791746 -0.0567686154508817 -0.000856918212359115 0.197301 -0.9413723 0.2736615 110 110 110
0.00559574256613188 -0.0565153465720833 -0.000719609484753359 0.2616614 -0.9075218 0.3285385 105 105 105
0.00749514948493984 -0.0561608882200473 -0.00246471160573314 0.3573585 -0.8255048 0.4368486 53 53 53
0.00889954413575544 -0.0556879121651825 -0.00190286089279074 0.4266146 -0.7612502 0.4883627 76 76 76
-0.033151427942869 -0.0435169833922215 0.0199310328039098 -0.03389516 -0.02129485 0.9991985 42 42 42
0.00410078491150317 -0.0567165787447914 0.000802800241269164 0.258461 -0.9032675 0.3424992 114 114 114
0.00569443693725158 -0.0559139908638659 0.000959040716087323 0.3292098 -0.8491319 0.4130326 101 101 101
0.0057626810586725 -0.0544523286754242 0.00179048961432776 0.4004303 -0.8152285 0.4183995 122 122 122
0.00839584444094776 -0.0548409254368334 -0.000425445516848699 0.4321684 -0.7679956 0.4726661 118 118 118
0.00780475551117815 -0.0542733104982542 0.000833610023834863 0.4399039 -0.763154 0.4733715 116 116 116
0.00734912521733933 -0.0529844214862434 0.00260911869315444 0.5007781 -0.7178276 0.4836785 115 115 115
0.00924802882613968 -0.0517893924638795 0.00283961497527291 0.4993002 -0.6833316 0.5326886 122 122 122
0.0056495653139581 -0.0519866820141874 0.00716893691189552 0.5181956 -0.7491606 0.4125915 95 95 95
0.00783418341236208 -0.0520016233862235 0.00442867211900372 0.523928 -0.7052661 0.4775973 128 128 128
0.00902320622677266 -0.0500449961117344 0.00531948593889492 0.5763597 -0.6608562 0.4807063 102 102 102
0.0068884809868559 -0.0502680022260746 0.00846618900536439 0.5737962 -0.7295783 0.3721201 94 94 94
0.00811401887388719 -0.049947613266105 0.00688656399520915 0.5795788 -0.6951178 0.425323 130 130 130
0.00848555584352323 -0.0491402297391024 0.0079808110255008 0.6009238 -0.7073464 0.3722251 115 115 115
0.00893771136634275 -0.0486369490046878 0.00798862363386105 0.6473901 -0.6724398 0.3587628 140 140 140
0.00895952438871939 -0.0484688822757577 0.00697500158104647 0.6337364 -0.664798 0.395502 111 111 111
0.00847725992749138 -0.0473272247989329 0.0124701397697833 0.6101301 -0.6771395 0.4113677 130 130 130
0.00885525253444858 -0.0462535212351016 0.0134041878473637 0.6120943 -0.6215127 0.4889403 148 148 148
0.00442389236918078 -0.0436533080488624 0.0181490525239644 0.3812276 -0.3820231 0.8418574 141 141 141
0.00640467386431981 -0.0453937567984102 0.0164375504754509 0.4388624 -0.5382525 0.7195026 155 155 155
0.00871651783431715 -0.0457743710937015 0.0138403839853891 0.6048785 -0.608145 0.5140833 144 144 144
0.00913841615484712 -0.044061327814793 0.0147940713580186 0.5874199 -0.5056386 0.6318762 160 160 160
0.010211435723956 -0.0439263931980269 0.0140134507213534 0.5991687 -0.5447445 0.5867285 149 149 149
0.00598955493153502 -0.0431668574935722 0.0178841324364711 0.3977 -0.3795547 0.835328 126 126 126
0.0120979741252469 -0.054141974713855 -0.00455528778066228 0.5000288 -0.6972192 0.5136697 82 82 82
0.0143670538330408 -0.0537677335108315 -0.00314295798091707 0.4882092 -0.6662743 0.5636757 92 92 92
0.00983213958621965 -0.0541119430769723 -0.000436177459977871 0.4496602 -0.7326063 0.5109733 106 106 106
0.0105331865042656 -0.0511598447444692 0.00248027682005464 0.4956429 -0.6693638 0.5534349 210 210 210
0.0116818181751312 -0.0509637039438979 0.00119704456258141 0.5530567 -0.6151243 0.5619168 144 144 144
0.0130993196878212 -0.0514108614855755 7.31384453474537E-05 0.5553461 -0.6295382 0.5433897 146 146 146
0.0131344462753086 -0.0502349862877427 0.00153865434914507 0.6069463 -0.5577859 0.5661194 139 139 139
0.016757069425356 -0.0516978925581797 -0.00383369946810758 0.4917873 -0.5415231 0.6818343 68 68 68
0.0175969124646854 -0.0505217461947949 -0.00347936003401067 0.4337862 -0.4899036 0.7561905 91 91 91
0.0165904548400972 -0.0508245758828287 -0.00279981296372062 0.5023898 -0.5508141 0.6664895 93 93 93
0.021683890155883 -0.0487025038165823 -0.00348073705544943 0.2592605 -0.4711227 0.8431058 76 76 76
0.0159763092631728 -0.048808119651556 -0.00139252324721517 0.5545474 -0.4844383 0.6766068 95 95 95
0.0157400137269485 -0.0478084279142768 -0.000605298576414059 0.5936517 -0.5111263 0.6215526 104 104 104
0.0198160143678676 -0.0460072341800291 -0.00172507707096486 0.3433349 -0.5320347 0.7739899 73 73 73
0.0215898153799863 -0.0463075904904242 -0.00217981819187418 0.2673796 -0.4886069 0.8305248 85 85 85
0.0118803241173669 -0.047767477197372 0.00454166761592217 0.6711453 -0.5464674 0.5009365 99 99 99
0.0142142159972725 -0.0478835349695832 0.00242978069428096 0.6602275 -0.5129489 0.5486192 107 107 107
0.013065078870331 -0.0484430946566419 0.00350673612028324 0.6527728 -0.5139567 0.5565395 110 110 110
0.0105189913584108 -0.0487932027092393 0.0055141255900451 0.6095849 -0.6362368 0.4728731 119 119 119
0.0114103909784689 -0.0472813594692585 0.00610409466211637 0.6859539 -0.5613973 0.4629259 104 104 104
0.01437730060197 -0.0458390647516473 0.00378016329207637 0.6659982 -0.5280907 0.5268459 129 129 129
0.0144410619680601 -0.0440719968057555 0.00460874962415209 0.6522447 -0.598815 0.4647552 108 108 108
