ply
format ascii 1.0
comment File exported by Rhinoceros Version 7.0
element vertex 478
property float x
property float y
property float z
property float nx
property float ny
property float nz
property uchar red
property uchar green
property uchar blue
end_header
0.0433296564528753 0.0396299419417786 0.0132430664421045 -0.02751873 0.4202009 0.9070138 133 133 133
0.0371021631667425 0.0429905710235047 0.0119549504638635 0.01760018 0.4405277 0.8975664 167 167 167
0.0366651419112494 0.0465552864089417 0.00976143993148434 0.0121676 0.4782898 0.8781177 157 157 157
0.0384599569747259 0.0447483716025757 0.0106505028129541 -0.0001067757 0.4567588 0.8895906 152 152 152
0.0412693623015692 0.0432003197684693 0.0117551854968988 -0.01055965 0.3800488 0.9249062 139 139 139
0.0419717434356024 0.0434798059478211 0.0114888719440423 -0.01812289 0.3798504 0.9248704 105 105 105
0.0406840446898749 0.045039421083014 0.0104422739864312 -0.01709442 0.3934798 0.9191743 131 131 131
0.0423931482741644 0.0446564016356873 0.0103366247535669 -0.06725094 0.4068301 0.911025 139 139 139
0.0411757830092718 0.046405261518042 0.0100978485465966 -0.02484533 0.4787965 0.8775743 162 162 162
0.0474500063369085 0.0373145995154786 0.0145390800357782 0.09690665 0.4857469 0.8687111 146 146 146
0.048339665264826 0.0367441830649781 0.0149884692550622 0.002133737 0.5512415 0.834343 154 154 154
0.0485152605483343 0.0382346568122315 0.0142233542324029 0.120405 0.4336043 0.893023 135 135 135
0.048761070103388 0.0398038086905884 0.0133597425342523 0.07522477 0.3729912 0.9247804 123 123 123
0.046498000950556 0.0406802949920105 0.0128802529693567 0.01259086 0.412139 0.911034 127 127 127
0.0481836203048041 0.0407070574775147 0.0129907003761255 0.1600581 0.4408396 0.8831998 136 136 136
0.0502594116637518 0.0397086200728821 0.0131445399642907 0.2044887 0.3746479 0.9043358 160 160 160
0.0508447292754461 0.041137939454596 0.0126115552307092 0.03839838 0.4990777 0.8657061 146 146 146
0.0549418333480169 0.0409220514312195 0.0122944287181817 0.2257593 0.2207848 0.9488344 43 43 43
0.0464199188659002 0.0448726472869324 0.0108599535346948 0.07781558 0.4400481 0.8945962 144 144 144
0.0460922125289251 0.0459342060103821 0.0103113523841821 0.03696702 0.4958526 0.8676195 135 135 135
0.0501814487883856 0.0451358613982605 0.0105490557075464 0.05617314 0.4144305 0.9083457 151 151 151
0.0528464916655829 0.0449257550254273 0.0105740598560296 0.01698133 0.4916121 0.8706487 139 139 139
0.050517022938471 0.0464872179046082 0.00986288703689206 0.0589017 0.4777062 0.8765429 142 142 142
0.0547077063033392 0.0432134923949646 0.0112093261600457 0.1648732 0.3358509 0.9273732 152 152 152
0.0530220869490912 0.0461823401465821 0.00984744943389523 0.03176182 0.5403554 0.8408372 137 137 137
0.0363762978026678 0.0490241704001831 0.00826162315616238 -0.01735536 0.467427 0.8838613 148 148 148
0.0350106361815741 0.049060290814917 0.00848338223704923 -0.03053764 0.5164151 0.8557937 162 162 162
0.0351824167678167 0.0498908219352173 0.00779666222343076 -0.03379628 0.588743 0.8076134 143 143 143
0.0366495254943182 0.0514496622100281 0.00700172997722256 -0.09605149 0.6179472 0.7803303 139 139 139
0.0391154888579657 0.0502089319243836 0.00826221920261014 -0.03250997 0.4568093 0.8889704 162 162 162
0.0430486801574042 0.0478888807311463 0.00920202053794492 -0.01410154 0.4468656 0.8944899 113 113 113
0.0349950197646429 0.0531578121200013 0.00612206972846616 -0.1591991 0.7814256 0.6033488 108 108 108
0.0341522100875189 0.0533005652442383 0.00564624584922421 -0.0232214 0.8235719 0.5667364 94 94 94
0.0430369976470282 0.0550394711509156 0.00482088543185819 -0.123174 0.7653438 0.6317255 122 122 122
0.0432828072020819 0.053990608216803 0.0060083589673959 -0.02095034 0.5853089 0.8105397 131 131 131
0.0449215773055365 0.0534149465575623 0.00622737623462308 0.01206425 0.5298142 0.8480279 142 142 142
0.0451790693709662 0.0542178807273316 0.00574480212936032 -0.03506288 0.5908558 0.8060149 128 128 128
0.0473095777938177 0.0473952350631165 0.00918604649314511 0.02882843 0.4633276 0.885718 136 136 136
0.0502282980391791 0.0473176298156189 0.00923906482467282 0.09227285 0.4899061 0.8668782 148 148 148
0.051383197636347 0.0481013116851258 0.00805853523025143 0.1027325 0.4595706 0.8821797 216 216 216
0.0483631494948675 0.0494275150313782 0.00835573889026273 0.02413587 0.4927528 0.8698345 146 146 146
0.047052085728388 0.0506238994613099 0.00738066650638211 0.07534418 0.4568298 0.8863576 136 136 136
0.0507745150039007 0.0504829940810608 0.00789132930049527 0.06095143 0.4287132 0.9013822 154 154 154
0.0522962215850165 0.0470804629340577 0.00958006299743283 0.08608063 0.5390338 0.8378739 149 149 149
0.0541926029631903 0.0484941658988404 0.00875081337699521 -0.04515994 0.4374523 0.8981069 160 160 160
0.0569083097884466 0.0492706952109742 0.00836397923240292 -0.008283894 0.4042527 0.9146098 151 151 151
0.0532093647429754 0.0499073324218201 0.00811034656772244 0.01969537 0.3959267 0.9180709 140 140 140
0.0581023100325873 0.0489283857360291 0.00823520339736569 -0.04331582 0.3964568 0.9170309 149 149 149
0.04707545074914 0.0541535077109742 0.00591592706451047 -0.004858932 0.5165689 0.8562319 150 150 150
0.0509384277770331 0.0545238909736084 0.00538270391234982 -0.01416322 0.5058749 0.8624906 153 153 153
0.0465019348571112 0.0563623962417054 0.00425853050956357 -0.1073311 0.726579 0.6786479 143 143 143
0.0532093647429754 0.0520303902640747 0.00701312936553586 0.02737325 0.4236821 0.9053973 143 143 143
0.0532093647429754 0.0535041151061463 0.00553071714648831 0.02223373 0.5627617 0.8263201 141 141 141
0.0525303486296942 0.0544044432654786 0.00550431228885281 0.02212565 0.5031884 0.8638934 145 145 145
0.0565962198684027 0.0524274168029236 0.00632123864898312 -0.005827576 0.4784587 0.8780907 148 148 148
0.055269539684992 0.0535734353080201 0.00565287686595548 0.001218541 0.5557736 0.8313329 150 150 150
0.0521480444381048 0.0566162524238037 0.00450031675109494 0.07223947 0.6976646 0.7127731 142 142 142
0.056206047863703 0.0556519684806275 0.00490398920783627 0.03050178 0.6418954 0.7661853 132 132 132
0.0568459633300116 0.0566422996535706 0.0041983894229852 -0.05272171 0.6766454 0.7344191 144 144 144
0.0681459310958197 0.0328936038031983 0.00516782916793454 -0.9896647 0.02304482 0.1415372 64 64 64
0.0680055025527289 0.0358376560225891 0.00333549298057187 -0.01661972 0.998632 0.04957869 63 63 63
0.0585003498503973 0.0379608330741333 0.000246228945346955 0.4517375 -0.09328386 0.8872606 47 47 47
0.0658047798583319 0.0383801517501282 -0.000153271186260101 0.02631624 0.08465723 0.9960626 51 51 51
0.061778009266596 0.0336418209090638 0.00942711747893918 -0.1364749 -0.06155337 0.9887294 47 47 47
0.0631358030745794 0.0371449646964478 0.00905415631541837 0.2073888 0.1595891 0.9651535 48 48 48
0.0591090324828436 0.0350366888060974 0.0120273105026208 0.2918623 0.1557368 0.9436961 47 47 47
0.0619184378096869 0.034621244432013 0.0121015480876886 0.1773217 0.1553168 0.9718198 24 24 24
0.0603967312285711 0.0373446402564453 0.0112558773876153 0.1302189 0.1480805 0.9803648 54 54 54
0.0693789127776434 0.034950023652594 0.0102459958911859 0.1006698 -0.03946137 0.994137 50 50 50
0.0678182247588446 0.0348811206832337 0.00866995967635739 0.1566775 -0.03892008 0.9868827 54 54 54
0.06959742340539 0.0372715053573059 0.00946687377700436 0.1475619 0.1019047 0.9837891 62 62 62
0.0703154209563543 0.0385246930137085 0.00924019731292355 0.1274117 0.1319415 0.983035 77 77 77
0.0606308582732489 0.0393945631995606 0.00936569489249814 0.07055175 0.147603 0.9865271 84 84 84
0.0593900087783148 0.0435075817122864 0.0060354939819299 -0.2586477 -0.259142 0.9305626 27 27 27
0.0585705641219427 0.041676109792273 0.00869001663932431 0.2888269 0.454572 0.8425814 51 51 51
0.0607010725447943 0.043132191659491 0.00826746441135037 0.208092 0.2614998 0.9425049 86 86 86
0.0615907314727118 0.0443307218566346 0.00653739489326108 0.2218706 0.3244122 0.9195271 99 99 99
0.0632295015761664 0.0430221018805909 0.00916443980941403 0.1360373 0.2641583 0.9548373 60 60 60
0.0645639303633978 0.0431621131911682 0.00893689907798398 0.1319401 0.346478 0.9287329 72 72 72
0.062932908863764 0.0446241555228638 0.00945760525474179 0.138746 0.2838212 0.9487861 43 43 43
0.0654770735213568 0.0392074642196106 0.00879889942416776 0.1227979 0.2050755 0.9710122 67 67 67
0.0661793354461004 0.0404815135016846 0.0100319556117975 0.1753299 0.2460929 0.9532564 49 49 49
0.0649151209304144 0.0414203462615418 0.00940944470176328 0.1161676 0.3122631 0.9428663 56 56 56
0.0648682716796209 0.0427358803763794 0.00970371283301938 0.1221404 0.2343637 0.9644457 93 93 93
0.0673499706694891 0.0404246506705689 0.00961558736571896 0.1507324 0.2702957 0.9509048 75 75 75
0.0683800581404974 0.0405237731948304 0.00950552738914121 0.1258165 0.2543043 0.9589054 50 50 50
0.0659920576522162 0.0436769781127381 0.00766214944133389 -0.1023778 0.4961846 0.8621599 73 73 73
0.0651960972258856 0.043910270692389 0.00930641807326901 0.2128426 0.243953 0.9461421 59 59 59
0.0664836767623236 0.0451973733916687 0.00906051911124814 0.09628534 0.2818414 0.9546175 49 49 49
0.0753567818114569 0.033381169797461 0.00327596284160245 -0.9630588 -0.1370655 0.2317992 31 31 31
0.0709084871718695 0.0329781827941346 0.00797322608241666 -0.1383158 -0.04565499 0.9893353 88 88 88
0.0727346542784979 0.0331758914008545 0.00920696772346127 0.03345753 0.04644978 0.9983602 78 78 78
0.0797581079909613 0.0335328636184143 0.00895056344279874 0.1614443 0.1058734 0.9811863 108 108 108
0.0784236792037298 0.0352464971557068 0.00784345186957944 0.1673897 0.05819117 0.984172 74 74 74
0.0793367031523993 0.0360742268577027 0.0058393201948129 0.5325437 -0.3744753 0.7590556 79 79 79
0.0701593759963324 0.0352104363456177 0.00137640751609433 0.7285941 0.2064932 0.6530783 73 73 73
0.0733433369109442 0.0369823036208557 0.00317044771918881 -0.7782327 0.6044341 0.1703331 62 62 62
0.0737647417495062 0.0407815036788391 0.00284481264361966 -0.6877381 -0.6395908 0.3434237 29 29 29
0.0731325748870184 0.0354886112227845 0.00945578731307614 0.06347008 0.04203643 0.997098 46 46 46
0.0745138529250433 0.0346345362677979 0.00956361211547482 0.09312396 0.05222695 0.9942838 81 81 81
0.0732496384093573 0.0372220335021424 0.00932269014129269 0.07692827 0.09598438 0.9924057 45 45 45
0.0766209963271429 0.0331178960814881 0.00983213104018796 0.1650008 0.1140504 0.9796771 97 97 97
0.0761761072585394 0.0346581993117737 0.00941561378249753 0.1171499 0.0770184 0.9901233 84 84 84
0.0801561478087713 0.0348777828231263 0.00880645431289304 0.1506343 0.1051716 0.9829793 99 99 99
0.0764219168135931 0.0368912873282837 0.009413497817608 0.1671731 0.1393058 0.9760364 93 93 93
0.0708149078795721 0.0407097992911744 0.00746174372443784 0.1248037 0.2520352 0.9596366 61 61 61
0.0710490349242499 0.043924575807135 0.00838305271873105 0.06763969 0.2483682 0.9663013 77 77 77
0.0727502706954291 0.0430961904540467 0.00831477559814084 0.07670055 0.2025635 0.9762608 46 46 46
0.0709553364226629 0.0437408146872925 0.00767979241618741 0.06763969 0.2483682 0.9663013 46 46 46
0.0736710432479193 0.0429714975371766 0.0086009225965463 0.09489974 0.1772208 0.9795851 41 41 41
0.0761527422377875 0.0398160872474121 0.00920723594436276 0.1475771 0.1604111 0.9759555 81 81 81
0.0801795128295233 0.0429692921653199 0.00736387289771664 0.1328058 0.1718683 0.976127 37 37 37
0.0808038118789007 0.0442749915137696 0.00707154191741574 0.1423174 0.1199218 0.9825296 69 69 69
0.0590154531905462 0.043146794797461 -0.00162015639534366 -0.1642743 -0.09585138 0.9817467 27 27 27
0.058734476895075 0.0430410561576294 0.000754894983860138 -0.2642411 -0.1553969 0.9518552 60 60 60
0.0650555494735052 0.0427318272605347 0.0012534431339227 -0.4384825 -0.6566504 0.6136313 66 66 66
0.0634636286208441 0.0486692843451905 0.00649793661841977 0.3961157 0.2959411 0.8692015 106 106 106
0.0664134624907782 0.0476006922736573 0.00252810336360562 0.9116721 0.1702134 -0.3740073 58 58 58
0.0659920576522162 0.0485901889815735 0.00180505431899655 0.8750568 0.1378221 -0.4639834 56 56 56
0.069574058384638 0.047150438787024 0.0075214228750192 -0.0189534 0.2272851 0.9736438 73 73 73
0.0589217546889593 0.0524731335654663 0.00067818380603421 -0.3010337 0.9502215 0.08036114 140 140 140
0.0631358030745794 0.0545498189940857 0.0034836403251611 0.1319132 0.5127458 0.8483458 107 107 107
0.065711081356745 0.054823881150763 0.00311276532420743 -0.04088688 0.7607495 0.6477565 181 181 181
0.0757313373992254 0.0422025380149292 -0.0024302133201636 0.7063946 -0.01424684 0.7076749 57 57 57
0.0755440596053412 0.0422542152419495 -0.000252185094264862 -0.8573043 0.4336735 0.2774106 39 39 39
0.0755440596053412 0.0512669143691468 -0.00192141317119968 0.5843985 0.8113025 0.01632671 119 119 119
0.0798518064925482 0.0485925731673645 -0.00293405138244998 0.5777468 0.6993635 -0.4208317 40 40 40
0.0793367031523993 0.0506354031577515 -0.00635459803333652 0.6841569 0.554019 -0.4743335 26 26 26
0.0815374258467962 0.0502324161544251 -0.00165731989136111 0.4263799 0.6952568 -0.5786348 24 24 24
0.0728517178008368 0.0467820224776673 0.00714500464210141 -0.01120855 0.1601954 0.9870217 74 74 74
0.0745723846862127 0.048941677571814 0.00669329084167111 0.04884123 0.2585833 0.9647534 86 86 86
0.0784001949736883 0.046515410901587 0.00720882631549466 0.09099463 0.197129 0.9761456 74 74 74
0.0762463215300848 0.0470299181952881 0.00702449895152676 0.103826 0.1828866 0.9776363 64 64 64
0.0807062986800482 0.0482978281989502 0.00691063917884457 0.1052377 0.2949657 0.9496948 59 59 59
0.0825206640670111 0.048948055268805 0.00648327387580502 0.05767139 0.3290585 0.9425468 97 97 97
0.0742329958388617 0.0518468675628113 0.000333683860393647 0.6135162 0.7800083 0.1232269 101 101 101
0.0794771316954901 0.0508849678054261 -0.000412536489871856 0.6519285 0.7187099 -0.2417546 33 33 33
0.0790323618361761 0.0509576258674073 0.000569166910740021 0.5608481 0.721032 -0.4068935 69 69 69
0.0769018534133246 0.0535231289878296 -0.000886795747188446 0.3999779 0.8651423 -0.3025664 110 110 110
0.0789621475646307 0.0522486028685974 -1.96479549777195E-06 0.5953276 0.6323749 -0.4956683 56 56 56
0.0816778543898871 0.0518809018149781 0.00257557846316922 0.8923414 0.4417894 0.09246036 124 124 124
0.0805073383757879 0.0538817701354432 0.0015477112651788 0.5757782 0.7711226 -0.2717524 83 83 83
0.0585003498503973 0.0428360161796021 0.011208193671795 0.314293 0.3392605 0.8866354 54 54 54
0.0586876276442816 0.0457041916861939 0.00952662743339169 0.2098101 0.324203 0.9224273 97 97 97
0.0582662228057196 0.0468190369620728 0.00959380186805356 0.1811313 0.3020401 0.9359291 148 148 148
0.0616374615142157 0.0478558597579407 0.00857469655284512 0.05448662 0.1600693 0.9856008 113 113 113
0.0609508160064032 0.0509936866774964 0.00736820913562405 0.08192602 0.4454292 0.891561 154 154 154
0.0622462633559515 0.0509089288726258 0.0072188995004617 0.1050129 0.4628745 0.8801815 151 151 151
0.0649619701812079 0.0471118149772095 0.0087815842748605 0.1518771 0.2176899 0.9641289 83 83 83
0.0643064382979681 0.0492664632811951 0.00815102673778165 0.1245908 0.2622508 0.956923 127 127 127
0.0588983896682074 0.0527299103751587 0.0061585477710687 -0.01144205 0.5649529 0.8250439 143 143 143
0.0593197945067694 0.056461995603125 0.00395973242530454 -0.09879521 0.6131011 0.7838026 141 141 141
0.0614501837203314 0.0550615248694825 0.00523908652076352 0.03340495 0.4957463 0.8678247 133 133 133
0.0651023987242987 0.0517530498519349 0.00652446068534482 0.05814568 0.4553218 0.8884262 133 133 133
0.0667880180785467 0.0536450204863953 0.00502003945121396 -0.1455187 0.5096412 0.8479919 132 132 132
0.0670689943740179 0.0534337220206665 0.0057860336423837 -0.07742518 0.427873 0.9005166 116 116 116
0.0688483122298529 0.0546289739623474 0.00518845237502683 0.04205354 0.5560438 0.8300884 133 133 133
0.0646341446349432 0.0565450844779419 0.00434328831443417 0.1306367 0.6086413 0.7826173 115 115 115
0.0654770735213568 0.0559783039107727 0.00353434897670377 0.143437 0.6095117 0.7796931 161 161 161
0.0705572966048529 0.0508747754111695 0.00696908153304684 0.04322556 0.3153774 0.9479814 83 83 83
0.072640955776911 0.051369017125647 0.00679627276668179 0.06441905 0.2892386 0.955087 57 57 57
0.0742798450896551 0.0501803216948914 0.00712092436561215 0.04095962 0.2710544 0.9616922 80 80 80
0.0784705284545233 0.0511505064979004 0.00702795602092374 0.1387175 0.3356075 0.9317323 79 79 79
0.0806477669188788 0.0499678907409119 0.00726838625678647 0.1345466 0.2441015 0.9603706 107 107 107
0.0721103552291205 0.0549055395141053 0.00493277825126279 0.03712757 0.5661041 0.8234972 139 139 139
0.0721727016875555 0.0539333877578186 0.00571781612643826 0.0422081 0.4904087 0.8704698 121 121 121
0.0749821070143988 0.0529438910499024 0.00644086517104733 0.04153433 0.3957079 0.9174367 138 138 138
0.073483765454035 0.0535922107711243 0.0052115342737161 0.1086583 0.5276057 0.8425115 133 133 133
0.0701827410170843 0.0547907409682679 0.00547351158866513 -0.03029725 0.5409321 0.8405204 152 152 152
0.0747012499282171 0.0567365942016053 0.00439612783202756 0.1474162 0.8922253 0.4268519 119 119 119
0.0792898539016058 0.056701367856543 0.00452378607997525 0.3155734 0.8325222 0.4553244 124 124 124
0.034948289723139 0.0515973625197815 -0.00760042451610934 -0.2798164 0.9402152 -0.1941602 60 60 60
0.0427208546111395 0.0518757162108826 -0.00549720011940372 0.0638885 0.9812407 -0.1818924 131 131 131
0.0413630608031561 0.0555901584639954 -0.00464410864105594 -0.1239836 0.9701532 -0.2084005 115 115 115
0.0394433144042303 0.0554534850135254 0.000332715284916046 -0.2591603 0.9653082 -0.03187445 60 60 60
0.0429549816558172 0.0554535446181702 -0.00165934644928348 -0.1232977 0.9888919 -0.08300867 56 56 56
0.0401924255797674 0.0564221200957703 -0.00317810260048282 -0.2509151 0.9582554 -0.1370706 116 116 116
0.0502126816222479 0.0550508556380677 -0.00493027054062259 -0.1706968 0.927785 -0.3317795 126 126 126
0.0560889843413641 0.0547781047835755 -0.00892099522343051 -0.06714337 0.861758 -0.5028567 52 52 52
0.0519451502272894 0.0564903674140381 -0.00467046879520785 -0.1287871 0.8793716 -0.4583879 110 110 110
0.0460453632781317 0.0588554201140808 -0.00116723560085666 -0.2697062 0.9578125 -0.09926605 132 132 132
0.0529283884475042 0.0592339692130494 0.00044840790042508 -0.01765727 0.9606394 0.2772365 138 138 138
0.0570957067916205 0.0592593011870789 0.000730173957439545 -0.001505344 0.9697875 0.2439466 94 94 94
0.0486674908110907 0.0569303092971253 0.00369397021541226 -0.08850422 0.7217426 0.6864799 130 130 130
0.0525538328597357 0.0588321743026184 0.00277613319167722 0.06720574 0.8054649 0.5888206 122 122 122
0.0619184378096869 0.0546839294448304 -0.00851763569107425 0.1791682 0.8819659 -0.43593 45 45 45
0.0643064382979681 0.0531634149566101 -0.00692790530910861 0.2220405 0.917038 0.3312693 82 82 82
0.0696911219069769 0.0539063272490906 -0.00675728701343906 0.07914127 0.8137214 -0.5758421 73 73 73
0.0647746923873236 0.0559534487739014 -0.0077037193655051 0.1755832 0.8964071 -0.4069703 40 40 40
0.0693632963607123 0.0557652769103455 -0.0088890471338309 0.1414298 0.8688037 -0.4745289 33 33 33
0.0680055025527289 0.054627245427649 -0.00700489960899722 0.0863895 0.9529969 -0.2904029 40 40 40
0.0657579306075384 0.0546744523063111 -0.00530887924423587 0.1551705 0.9443379 -0.2900828 71 71 71
0.0696911219069769 0.0537433681502747 -0.0046727933763541 0.06349024 0.9762659 -0.2070601 115 115 115
0.064400136799555 0.0559577403083252 -0.00522959016552341 0.2009293 0.9259752 -0.3196831 34 34 34
0.0592027309844305 0.0570769367232727 -0.00268831633320224 0.1818622 0.96838 -0.1707814 52 52 52
0.0588983896682074 0.0583815631881165 0.000986026895137909 0.1444131 0.9519408 0.270099 90 90 90
0.0647278431365301 0.0562074837699341 -0.00327165209045779 0.2235166 0.9377536 -0.2658167 28 28 28
0.064821541638117 0.0562261400237488 -0.00172093294849765 0.3582107 0.9197308 -0.1605626 50 50 50
0.0666475895354559 0.0572859702125 -0.000707251655963775 0.0153785 0.9908479 -0.1341044 33 33 33
0.0658047798583319 0.0576623139396119 0.00166341878184903 0.1056914 0.9841064 0.142702 35 35 35
0.0680990818450262 0.0570141134276795 0.00090067304381955 -0.1349783 0.9764032 0.1685754 32 32 32
0.0752162340590765 0.0528046545997071 -0.00737035058727634 0.4233197 0.6958843 -0.5801254 59 59 59
0.0715640190551092 0.0559237060561585 -0.00747148476829898 0.1501055 0.7216143 -0.6758263 45 45 45
0.0715171698043158 0.0549033937468933 -0.00414667807808292 0.08716708 0.9487293 -0.3038333 69 69 69
0.0773232582518866 0.053635543347876 -0.00552685343017947 0.6383414 0.5747973 -0.5119848 77 77 77
0.0757313373992254 0.0552400407805848 -0.0021303870557822 0.4709907 0.8249044 -0.3125706 101 101 101
0.0756376388976385 0.0555184540763306 -0.0020192094921149 0.4429386 0.8568475 -0.263852 99 99 99
0.0816310051390936 0.0549956617370057 3.29983326080585E-07 0.6512963 0.593976 -0.4722348 44 44 44
0.0591090324828436 0.0570371208205628 0.00293345965156186 -0.1164546 0.8256785 0.5519903 136 136 136
0.0606073740432074 0.0572792348876404 0.00354978657970059 -0.1078335 0.7350919 0.6693368 134 134 134
0.0618248585173895 0.0583501515403199 0.00278051413306821 0.07195965 0.9129556 0.4016638 138 138 138
0.0667880180785467 0.0571207461371827 0.00412428594836819 0.02427984 0.6778021 0.7348434 119 119 119
0.0673499706694891 0.0572396574035096 0.00319539226302731 -0.04841723 0.8461975 0.5306651 133 133 133
0.0681459310958197 0.0571152029052185 0.00401973940143216 0.01048597 0.7380362 0.6746796 128 128 128
0.102888763279658 0.0469534454360413 0.00736402190932858 0.7827198 0.5188939 0.3436552 102 102 102
0.100102842182856 0.0413364825263428 0.00960956729659665 0.4788167 0.12825 0.8684967 97 97 97
0.0936178568312933 0.0468124804511475 0.00787469960460294 -0.1525476 0.3990802 0.9041373 79 79 79
0.101577699513178 0.0448120889678406 0.00678466476211179 0.8094989 0.4524373 0.3741818 125 125 125
0.0924784544417669 0.036828046800177 0.00821109331855405 -0.1461478 0.05199624 0.9878954 63 63 63
0.0823802355239203 0.0418885407462525 0.00754653133163083 0.09779193 0.1668265 0.9811247 102 102 102
0.101367056698542 0.0367885885253357 0.00387259043464291 0.9992549 0.03828295 0.0048965 59 59 59
0.0963335636565497 0.0428265390410828 0.000661315691562775 0.2619336 0.7504492 -0.6068087 39 39 39
0.100937784046869 0.0427924451842713 -0.000916538464931366 0.8412159 0.5395887 -0.03463883 56 56 56
0.0855173471877386 0.0371835289016175 0.00779399491557706 0.05657186 0.07679902 0.9954404 70 70 70
0.0864070061156561 0.0441813526168274 0.000107782256694916 0.6433521 0.7580039 0.1073695 40 40 40
0.0862197283217718 0.0473329482093262 -0.00216536008110416 0.2162401 0.7564366 -0.6172875 46 46 46
0.0995175245711615 0.0442739186301636 -0.00371344171753299 0.6487788 0.6770803 -0.3473448 67 67 67
0.101484120220881 0.0433071908965516 0.0070105961681329 0.8534942 0.2878101 0.4344111 88 88 88
0.0927749279448797 0.0436838326468872 0.0014130643726312 -0.02704756 0.9959741 0.08546383 96 96 96
0.0826612118193915 0.0342273769393372 0.00780268229255307 0.06038525 0.09544506 0.9936014 93 93 93
0.0883502367446234 0.0346263108268189 0.00807875610599149 0.01362164 0.06310336 0.997914 103 103 103
0.0903401974150946 0.0344069657340454 0.00204774953136075 0.9329956 0.341037 0.1149476 48 48 48
0.0911244753310492 0.0329676923766541 0.00857140339622128 -0.1095827 0.09300617 0.9896168 114 114 114
0.0924940708586981 0.0330838618293213 0.00759023643741238 -0.1447521 -0.002845834 0.9894639 69 69 69
0.0867348316619208 0.0367796478286194 0.00788861728915799 0.013557 0.06213573 0.9979756 87 87 87
0.093165219158869 0.034691041471045 0.00877781428107846 -0.1373001 0.07069305 0.9880036 64 64 64
0.0921195152709295 0.037544554235022 0.00748142815837491 -0.155363 0.07080285 0.9853169 47 47 47
0.0837381485411932 0.0403366742148804 0.00794269360313046 0.07336201 0.1458083 0.9865891 90 90 90
0.0868752602050116 0.0411946234717774 0.0065136126399957 -0.03365506 0.09133501 0.9952514 72 72 72
0.0928452614257147 0.0395690259948182 0.00829759455928433 -0.1784089 0.07745057 0.9809035 98 98 98
0.0929388407180121 0.0405826625838684 0.00823380268821347 -0.1932833 0.07735029 0.9780892 109 109 109
0.0890759828994085 0.0417630729690003 0.00675630785235989 -0.01494493 0.06231157 0.9979448 66 66 66
0.0929623249480536 0.0447654781356263 0.00782507873782742 -0.2127973 0.129255 0.9685094 93 93 93
0.0927749279448797 0.0442349967971253 0.00750698364982236 -0.2358933 0.1100354 0.9655291 101 101 101
0.0971763733336737 0.0355692563071656 0.00181886769542325 0.7791479 -0.2024207 -0.5932574 33 33 33
0.10120314392541 0.0358101782813477 0.00281270064124692 0.9803342 -0.1009065 -0.169596 63 63 63
0.101109564633112 0.0366532859816956 0.00249576784381497 0.9590272 -0.04824902 -0.2791753 40 40 40
0.102233231396418 0.0379936752334046 0.0048576614976846 0.9897568 -0.08204228 0.116836 41 41 41
0.102186501354914 0.0384097752585816 0.00359861768493283 0.9897607 0.0624907 -0.1283305 33 33 33
0.101624548763972 0.0410631952300476 0.00381553388843167 0.9459373 0.2928658 -0.1393991 42 42 42
0.0956311825225165 0.0342878756537842 0.00895278371581662 -0.102577 0.08273353 0.9912785 54 54 54
0.0965793732116034 0.034991687299292 0.00907828129539121 -0.123912 0.050567 0.9910039 79 79 79
0.0968953970382025 0.0368244705214905 0.00893995381602872 -0.04735722 0.00840819 0.9988427 64 64 64
0.0967705849120428 0.0389015135779786 0.00882896996745694 -0.1532404 0.03157242 0.9876844 94 94 94
0.0983235243270209 0.0366590676322388 0.00938375509986508 0.06215621 -0.006995422 0.9980419 71 71 71
0.100711524815302 0.0372880158439087 0.00978054322013486 0.5999661 -0.006074954 0.8000023 51 51 51
0.0989790562102606 0.0428360757842469 0.00921614683875668 0.3988913 0.2332574 0.8868352 60 60 60
0.0945542458007147 0.0432036576285767 0.00863066531428922 -0.2497785 0.149221 0.956736 111 111 111
0.0941796902129461 0.0436538515105652 0.0076214394689523 -0.2447361 0.1436739 0.9588858 78 78 78
0.0970826748320868 0.0447980222716736 0.00891027070293057 0.09602706 0.354194 0.9302287 82 82 82
0.0953970554778387 0.0456261096015381 0.0084403327823602 -0.1477436 0.2856543 0.9468756 80 80 80
0.0974105003783514 0.0437187609687256 0.00925360835799802 0.0605795 0.2773238 0.9588647 92 92 92
0.101390421719294 0.0436198172583985 0.00537954486617673 0.9335621 0.356903 -0.03289355 38 38 38
0.0868986252257635 0.0452836809173035 -0.00345200084438693 0.4518735 0.8030832 -0.3884169 83 83 83
0.0897782448241522 0.0452148375525879 -0.00177086673965823 0.04385387 0.9989248 0.01503776 104 104 104
0.089544236988764 0.047949737073462 0.000391872894855622 0.4147172 0.8694686 -0.2683916 90 90 90
0.0855173471877386 0.0483108220115113 -0.00390477262726199 0.3371996 0.7822914 -0.5237525 48 48 48
0.0823802355239203 0.0495379028335022 -0.00150547705879581 0.5329543 0.6688638 -0.5182479 23 23 23
0.0933837297866156 0.0457729158416199 -0.00391809426536929 0.1955034 0.9378526 -0.2867244 65 65 65
0.082192957730036 0.0452452955260682 0.00757967151412595 0.05283005 0.1601115 0.9856842 63 63 63
0.0824036005446722 0.0468725619330811 0.00722149230250943 0.03549894 0.2146881 0.9760373 66 66 66
0.084299981922846 0.0494309124961304 0.00622721232184995 0.02314915 0.3881449 0.9213076 102 102 102
0.0833634737441351 0.0492646751418518 0.00546011544475186 0.06421672 0.3979723 0.9151471 105 105 105
0.0865474346587469 0.0483363924041199 0.00614847458610165 0.01765728 0.4879864 0.8726726 118 118 118
0.0887950066039374 0.0467641410842347 0.00655618525752652 -0.1238836 0.1599079 0.9793275 65 65 65
0.0921974781462958 0.0466819462790894 0.00751808501491177 -0.1513018 0.1102683 0.982318 80 80 80
0.0902231338927557 0.0493103322997498 0.00672632671603787 0.05822733 0.544737 0.836583 124 124 124
0.0879053476760199 0.0498051104560303 0.00536877132663358 0.1036765 0.8054149 0.5835735 117 117 117
0.0842531326720526 0.0522452054038453 0.00113053835639584 0.628082 0.7268974 -0.2777285 105 105 105
0.0864772203872015 0.051009183885138 0.00473928667316068 0.2204829 0.7747468 0.5925831 124 124 124
0.0990024212310125 0.0425178465857911 -0.00102093600025546 0.8824193 0.4107356 -0.2294177 61 61 61
0.0968486669966986 0.0430752692237305 -0.000987333881763336 0.6233951 0.7579971 -0.1918825 64 64 64
0.0971763733336737 0.0452467856421875 -0.00275808356991183 0.5757669 0.78021 -0.2444685 87 87 87
0.0967549684951117 0.0426426587119507 0.00195010222205746 0.5582938 0.5979746 -0.5750952 63 63 63
0.0991898182341864 0.0429782924666809 0.0023518375278436 0.845063 0.4412612 -0.3019224 60 60 60
0.0997048023650458 0.0454733428969788 0.00115119136581052 0.8045596 0.5405872 -0.2458642 61 61 61
0.102233231396418 0.0420395193114685 0.00164632714995969 0.9079276 0.268079 -0.3221816 47 47 47
0.0950693491408636 0.0467271265998291 -0.00451345525970828 0.2910856 0.8924303 -0.3447279 79 79 79
0.0967081192443182 0.0463903007522034 -0.00254563771477115 0.4411834 0.851897 -0.2821856 33 33 33
0.0968720320174505 0.0468137917533326 0.00251706160316098 0.0627789 0.9362109 -0.345786 91 91 91
0.0953034761855414 0.0462886748328614 0.00827966846236813 0.0139024 0.4376084 0.8990582 47 47 47
0.0979256037185003 0.0469390807166504 0.00828741706618893 0.1905628 0.5555499 0.8093517 67 67 67
0.0968486669966986 0.0472791848197388 0.00817516661891568 0.05478391 0.6925613 0.7192758 54 54 54
0.0968018177459051 0.049022620679419 0.00484375871429074 0.1718914 0.9825236 -0.07141956 103 103 103
0.0865198667418736 0.0409046393835598 -0.014865085842568 0.05316648 0.932906 -0.3561737 107 107 107
-0.0739777366618051 -0.0394528340480993 -0.0239008861154341 -0.9179736 -0.2536419 -0.3049428 98 98 98
0.08208670631689 0.0385055496714638 -0.0190926404891048 0.01810547 0.879026 -0.4764299 104 104 104
0.0709231048656829 -0.0451019409691039 0.0107567043427308 0.361223 -0.9319256 0.03213431 47 47 47
-0.00990338543181468 0.0525270936334805 0.000782428468391827 -0.117712 0.8436133 -0.5238898 68 68 68
-0.0818873942746614 0.0277597235500195 -0.0278668868121086 -0.9678396 -0.1977362 -0.1555215 133 133 133
0.0909815865326293 0.0352135451233992 -0.0252695183939238 0.1748374 0.9081953 -0.3802803 123 123 123
-0.0499021729246203 0.0553055659866896 -0.00844907610195933 -0.08613304 0.8058121 -0.5858737 82 82 82
0.0986700675329801 0.0298010212219617 -0.0161624714003168 0.9493718 -0.07020088 -0.3062106 55 55 55
0.100275399155647 0.0327800944714969 0.00678862499847396 0.9937775 -0.09969664 -0.04966709 40 40 40
0.00530617790094867 0.0341580943456152 -0.0200606548846624 -0.2421181 0.6806668 -0.6914271 89 89 89
0.0991321933844662 0.0168094237926352 0.000661628847809625 0.9888765 -0.1480035 -0.01477154 46 46 46
0.034529938125109 0.0424129578989519 -0.0281922623221374 -0.0001069219 0.7359787 -0.6770047 64 64 64
-0.0212132029856851 0.0350710446158645 -0.022621704331045 0.3771833 0.7093521 -0.595443 63 63 63
-0.0150329217594725 0.0361002496053124 -0.0189981633280953 0.166602 0.6880051 -0.7063234 109 109 109
0.0255543809921985 -0.0553660426879943 -0.0142163980444108 0.3935085 -0.8060418 -0.4420945 78 78 78
-0.085949957286765 0.0107920980016977 0.000102778079933835 -0.9929329 0.1078971 -0.04942065 171 171 171
-0.0615849198399259 0.0389365820733296 -0.0291139368189618 0.1309906 0.2295951 -0.9644312 125 125 125
-0.0653436592303247 -0.0478554311491148 0.030270341407358 -0.8811188 -0.3024184 0.3635558 131 131 131
-0.0505108269992534 0.053134690376775 0.0169364276498115 0.4205193 0.645802 0.6372623 76 76 76
0.018209052205302 0.024074863416324 -0.0274703593576085 -0.07077549 0.07733045 -0.9944903 141 141 141
0.0974657476561833 -0.0168511327072031 0.00726413984795854 0.9858634 -0.06481393 -0.1545072 49 49 49
-0.0160806648135838 0.0317008233304775 -0.0225906852192639 0.2239464 0.6578329 -0.7190994 91 91 91
-0.0137818627878781 0.0365286231572175 -0.0182595326068896 0.1523437 0.694051 -0.7036225 81 81 81
0.0762099944980124 0.0381098489462813 -0.0215241687972758 0.2170151 0.7985262 -0.5614805 126 126 126
0.0959999172800132 0.0364480643975172 -0.0217709856100938 0.6002344 0.538092 -0.5917563 111 111 111
-0.0826874470221868 0.031961821001373 -0.017658453853583 -0.9933845 -0.1147144 0.005266839 122 122 122
0.0609842356797776 0.0543777092205161 0.00384495036993801 0.1423403 0.6760849 0.7229443 140 140 140
0.0825353106508722 0.0429654100909946 -0.0108523318055705 0.2675857 0.8397903 -0.4723876 79 79 79
-0.0790507708603299 0.0389962260212344 -0.0323819670934855 0.1413746 0.1725424 -0.9748037 196 196 196
0.0958566252300044 0.00545134013081294 -0.00737033657907532 0.9747012 -0.1036348 -0.1980336 16 16 16
0.0555006664854152 -0.0325317260276572 -0.0229600426708982 -0.1053879 -0.408941 -0.906455 80 80 80
-0.0497148895996522 -0.0557276107581312 0.0179797297952897 0.01281102 -0.9802331 0.1974306 151 151 151
-0.0667774019140519 0.0498580703505785 -0.0166746082783271 0.1569733 0.8803772 -0.4475438 80 80 80
-0.0707150294730639 -0.0374364316592085 0.0226602612255596 -0.8327158 0.01355552 0.5535347 48 48 48
-0.0657768300988195 0.0565891569593601 -0.00507108056296682 -0.05001568 0.8761175 -0.4794962 90 90 90
-0.05417087796927 0.0527735746356803 -0.0115381302616566 -0.05850547 0.8100843 -0.5833871 48 48 48
-0.0739087412269903 -0.0129280087106551 0.0243780733488652 -0.8634938 0.03724218 0.5029826 61 61 61
-0.0837249691097544 0.0209286865117572 -0.0112771802929076 -0.9970072 0.07546841 -0.01676785 163 163 163
0.0796410927346221 0.0349673030945483 -0.0296496137937818 0.05241174 0.960053 -0.2748657 99 99 99
-0.0647001984734035 0.0472426206586363 0.0183158977290346 -0.6402063 0.413685 0.6473025 100 100 100
0.0135286977503135 -0.04231750928958 -0.0248835560087124 0.3229536 -0.083058 -0.9427631 91 91 91
0.0583971164252115 -0.0282788512031595 -0.026305658912664 -0.1712962 -0.4669877 -0.8675137 138 138 138
0.0977460749443584 0.0430298240171095 -0.00723043028975026 0.3430668 0.824986 -0.4491138 138 138 138
-0.0527394783340298 0.0504172866398914 -0.0150097298986951 -0.08207928 0.8131347 -0.5762594 77 77 77
0.0911074552855733 -0.0195943593413802 -0.0206632235913064 0.9510344 -0.1377521 -0.2766909 29 29 29
-0.0663289943725967 -0.0148852530661587 0.0370484799969889 -0.9209628 -0.06688251 0.3838676 84 84 84
-0.0776877336511153 -0.03547490679681 -0.00480842047192992 -0.993191 0.1026577 -0.05507252 85 85 85
0.0174202023263963 0.0508043657162085 -0.00903729038498816 -0.02819503 0.6167879 -0.7866243 111 111 111
0.0764105531956003 0.0164691348976215 -0.0291071568978085 0.08431519 -0.02749149 -0.9960598 135 135 135
0.0110804622984662 -0.0437126350343476 -0.0260589179793112 0.382465 -0.1122987 -0.9171202 112 112 112
0.0812552625040663 0.0484839486441306 -0.00461412977526413 0.6093605 0.5501408 -0.5709859 78 78 78
-0.0817640613499577 0.0426499335101069 0.00198149928833311 -0.9082306 0.3789702 0.1774788 186 186 186
0.0624308495851198 -0.0328534154596621 -0.0250749821601069 -0.1488078 -0.4297561 -0.8905987 149 149 149
-0.0447264319494605 0.0599975404760557 -0.00379135419326593 -0.04751166 0.778097 -0.6263446 103 103 103
-0.074040772869201 -0.0333333955869679 -0.0279704900026595 -0.8904524 -0.09213781 -0.4456513 116 116 116
-0.0561952403970294 -0.0395244696568747 -0.0342092454293712 0.04043994 0.08829453 -0.9952732 151 151 151
0.085109231543985 -0.013468837732534 -0.0308695854733262 0.2416076 0.03135399 -0.9698673 102 102 102
0.0654362396784729 0.0560155992852525 -0.000852435892096048 0.08640532 0.9908701 0.1034923 92 92 92
-0.0761065846264419 -0.0142659126885084 -0.0180451952677763 -0.8896018 -0.2041179 -0.4085884 141 141 141
0.0796315294929271 0.0541323796070461 -0.00194129880787383 0.6127976 0.601913 -0.512035 165 165 165
0.0651931987456098 0.0224063960780848 -0.0305543846998761 0.1271702 -0.1620813 -0.9785486 70 70 70
0.0132474572252452 0.0136999084266862 -0.0282426388915223 -0.04625816 0.05216275 -0.9975666 129 129 129
-0.0559348245010813 0.0587001068828998 0.0151319427019937 -0.1520125 0.8023235 0.5772082 161 161 161
0.0538107424561163 0.0471043530983785 0.00820343362895756 0.009573125 0.4903173 0.8714914 126 126 126
0.0797207871835828 -0.026537918479749 -0.0294007357984452 -0.0471712 -0.271302 -0.9613376 56 56 56
-0.022175047371684 0.04721736715616 -0.00908909064518529 0.2945724 0.7451406 -0.5983248 80 80 80
-0.0825352835850679 0.0203338364481531 -0.0205882370073506 -0.9958101 0.09134162 -0.004354037 159 159 159
0.0436440330982624 0.0409691478432201 -0.0299379412559191 0.009595824 0.7945719 -0.6070942 73 73 73
-0.0769938254552329 -0.0328503807419475 -0.00495966359926225 -0.9856678 0.1115614 -0.1265429 90 90 90
-0.0524359753414188 0.0341720306235365 -0.0290454524585974 0.001186056 0.1493621 -0.9887819 134 134 134
-0.0418961978032668 0.0540534264899418 -0.0110801607528804 0.1129804 0.7502836 -0.6513908 76 76 76
-0.00988829986349282 0.0131310210017445 -0.0267304631699233 -0.09978836 -0.07741955 -0.9919922 120 120 120
0.00475368791302544 0.0218087032358859 -0.0282962044000868 -0.02333315 0.009387504 -0.9996837 183 183 183
-0.0497178734905037 -0.0494583127052344 -0.0344610490228666 0.02297432 0.01410823 -0.9996365 133 133 133
-0.0362522438060509 0.0174556431460375 0.0277369417057072 0.2409572 0.4526455 0.8585172 46 46 46
0.0140106701469467 0.0431169948270532 -0.0141030750180381 -0.1741991 0.5411227 -0.8227034 140 140 140
0.0559152045793463 0.0500719240820592 -0.0149563639634019 -0.1267532 0.7836764 -0.6080993 66 66 66
0.0250212642645595 0.0232659591491564 0.0217981359561595 0.01727142 0.4908205 0.8710895 103 103 103
-0.0564944248852213 0.0398094245838868 -0.0287384924460764 0.07096273 0.2479004 -0.9661831 149 149 149
0.0578776933462366 -0.00550800119270867 -0.0291501435885418 0.08865984 0.09335934 -0.9916771 251 251 251
0.0419981630470165 -0.0141914201065158 -0.0287379756524873 0.00622008 -0.0856773 -0.9963035 150 150 150
-0.0629840489344522 0.0138382026625613 0.0381841716534358 -0.7478824 -0.05458814 0.6615831 60 60 60
-0.0637536210797791 0.053291460664444 -0.00996802765340485 0.05881933 0.8764408 -0.4779035 71 71 71
-0.0684531324975119 0.0194857009967836 -0.0305267437221106 0.1479152 0.01623751 -0.9888667 86 86 86
0.0640678721934129 0.0155334163262368 -0.031077963072732 0.09040691 -0.1913767 -0.9773442 237 237 237
0.0553505035433881 0.0585972526061721 -0.00477086203917873 0.04744083 0.9630791 -0.2650056 192 192 192
-0.0196121813106891 -0.0528483783348559 0.0159829148202319 0.06482524 -0.9918389 0.1097873 50 50 50
0.0915957050219367 0.0344362723567677 -0.0272882579018602 0.2866715 0.853642 -0.4348734 112 112 112
-0.0432047767451764 0.00385427197702248 -0.0273188766607301 -0.08304551 -0.01686194 -0.9964031 161 161 161
0.052813679806246 -0.0444421279095505 -0.0168198892186264 0.06581804 -0.4589073 -0.886043 83 83 83
0.0934965594029835 -0.0249414714577233 -0.0129326359775227 0.957492 -0.1141945 -0.2648938 29 29 29
0.0990325616503152 0.0446143206885246 -0.00104570647480248 0.6690873 0.6513636 -0.3578375 72 72 72
0.065563417088776 -0.0167132937334524 -0.0296501629070981 0.02883291 -0.05492374 -0.9980742 84 84 84
0.00934227339371496 0.0352714323455293 -0.0218684779414996 -0.5506328 0.7514744 -0.3634415 57 57 57
0.0343232902170061 0.020141241124534 -0.0323752631033648 -0.4687916 0.134247 -0.8730476 105 105 105
0.0479182423282605 0.0173692323102212 -0.0320585834364272 0.1108729 -0.3545565 -0.9284379 112 112 112
0.0181460941319644 -0.045209110606756 -0.022864063178025 0.2853324 -0.09465141 -0.9537435 59 59 59
0.0340453433577328 -0.0324555432512937 -0.0233613373399376 0.1830521 -0.3569216 -0.9160234 108 108 108
-0.0204389140234873 0.000782947650421306 -0.0269210518518753 -0.1005745 0.01208794 -0.9948561 147 147 147
0.0894509883896795 -0.0354712512348399 -0.002442524059483 0.676504 -0.7364069 0.006866601 20 20 20
-0.0575872403798117 0.0609173836692815 0.0108042620115602 -0.2638988 0.9049595 0.333775 113 113 113
0.0680301953736682 -0.0442984438641727 -0.0202841675872694 -0.2535257 -0.5583469 -0.7899199 96 96 96
-0.0525327306892212 0.0580104110251936 -0.00429126877641101 -0.1401431 0.776402 -0.614459 79 79 79
-0.0345772814249754 0.0473057916774228 0.0108650127218441 0.3756796 0.4914392 0.7857178 131 131 131
-0.0134488454021224 0.0524110469673206 0.00656626040161465 0.03717624 0.8877786 0.4587669 126 126 126
-0.0361209230214146 0.0151052699120866 -0.0261660733725507 0.07427827 0.007110005 -0.9972122 148 148 148
0.043364580923511 0.0538695332992318 -0.00726589138266681 -0.1117577 0.908343 -0.4030176 107 107 107
-0.00809205986142492 0.0267519135897532 -0.0264097662786971 0.0811307 0.4294907 -0.8994195 137 137 137
-0.082304351855969 0.0205606062847095 -0.0221759825066295 -0.9930804 0.1162112 -0.01692246 111 111 111
-0.080416377657859 0.0460751910370621 0.00309119679403083 -0.8979252 0.3429044 0.2759473 175 175 175
-0.00645495159639142 -0.0589706670521035 -0.0221334072271069 0.1383447 -0.9860299 -0.09276792 66 66 66
-0.0648219473754506 0.000614148073346032 0.0341299716374564 -0.861158 0.1607633 0.4822468 68 68 68
0.0857175772026808 0.0435403441559447 -0.00801936420257157 0.07293132 0.8531252 -0.5165834 90 90 90
0.100092772043028 0.0261843691936807 -0.00312276899363778 0.9941411 -0.09021857 -0.05953266 25 25 25
0.0873650718328667 0.0437118550741833 -0.00796490766089475 0.06850149 0.8576382 -0.5096708 103 103 103
-0.0202500703860586 0.0206156339528339 -0.0269878017844443 -0.01835996 -0.05554944 -0.9982871 144 144 144
-0.0624214271860162 0.00426152058279561 -0.0293482160127781 0.06741952 -0.138589 -0.9880525 149 149 149
-0.0694252752149247 -0.0523998320631258 0.00874570908902692 -0.701637 -0.7011035 0.1271198 98 98 98
0.0299583268912607 0.0472811460938142 -0.0198452973411189 0.01518939 0.9155837 -0.4018404 88 88 88
-0.0852243918586677 -5.05390253677795E-05 0.00489934460781341 -0.9268432 0.1668822 0.3363212 97 97 97
0.0261450980943287 -0.0472955645851872 -0.0192240475410171 0.460314 -0.3448482 -0.8180408 46 46 46
-0.0456198953442877 0.0504274344557931 -0.0158776169133236 0.007966956 0.7764302 -0.6301528 97 97 97
-0.0877589292945642 0.0287861291432849 0.00442335168794936 -0.8645453 0.4511921 -0.2213302 197 197 197
0.0549916451954449 0.0443476067968908 -0.0229162763049038 0.01613962 0.7664496 -0.6421016 158 158 158
-0.0278308711009676 0.0471526006472732 -0.0115473570339699 0.2707428 0.6817777 -0.6796157 123 123 123
-0.0704653735499092 0.0507098826505312 -0.0169754789250589 0.2182948 0.8830709 -0.4153711 80 80 80
0.059615081974405 0.0295735005794093 -0.0350077846597427 0.1860111 -0.1432894 -0.9720432 114 114 114
-0.0569357069183698 0.00266531785960933 -0.0291232816704771 0.1239401 -0.112147 -0.985932 115 115 115
-0.0849219608088589 0.0165264162963313 -0.00175945375405748 -0.8938311 0.0513302 -0.445456 118 118 118
-0.055591539897043 0.052568079687231 0.0212624979541856 0.09252507 0.7042553 0.7038918 41 41 41
-0.0715929850367412 -0.0354742423701309 0.0211349409680764 -0.8291826 0.04299537 0.5573218 57 57 57
-0.0366869944932864 0.0192560951108567 -0.0275611031663521 0.1151357 -0.1807992 -0.9767576 126 126 126
-0.0289808977826971 0.0094964098380359 -0.0270915383242809 0.01331677 0.04206467 -0.9990261 150 150 150
0.0974507524783652 0.00618380409560537 0.00197324573645019 0.9907928 -0.1004441 -0.09077784 42 42 42
0.0204657046443506 0.03080421725673 -0.0277212902946042 -0.1564197 -0.08292422 -0.9842035 136 136 136
0.0307590887930518 -0.0274283962078689 -0.0261014297457612 0.2871032 -0.2218919 -0.9318454 97 97 97
-0.0756956937814848 0.00742942224689591 0.0166283882295581 -0.7918373 -0.1744545 0.5852857 87 87 87
-0.00502265177736128 0.0455859894866893 -0.00744144447596057 -0.05003582 0.7358083 -0.6753389 132 132 132
0.0898114848993299 0.0449032387087529 -0.00577028605054641 0.04407535 0.8529763 -0.5200855 71 71 71
-0.0809114627672336 0.0442366913645879 -0.000532436370651812 -0.9327419 0.3605414 0.001593966 108 108 108
-0.072055872421489 0.0413074172063271 -0.0298503412429308 0.2178563 0.3542076 -0.9094369 127 127 127
0.0770188247533672 -0.0434026596676951 0.00244149511410538 0.4411647 -0.8943003 0.07483783 51 51 51
0.076281130018458 -0.0424129850348531 -0.0224635242849587 0.1974531 -0.5256613 -0.8274614 106 106 106
-0.0620299126001305 0.00680901556274405 -0.0296071460901255 0.07059251 -0.06980953 -0.9950594 108 108 108
-0.0688030388442662 -0.0552779521222303 0.0035129891719908 -0.6178977 -0.7663801 0.1756811 148 148 148
-0.0565823308114914 0.056783133401587 0.0176691356090558 0.02490855 0.7059148 0.7078586 71 71 71
-0.0726893839524918 -0.0490376384682198 -0.0146925030005223 -0.9316133 -0.3627542 0.02249432 89 89 89
-0.0779632590460178 -0.0395907682420839 -0.00381889705470112 -0.997232 -0.06881095 -0.0281662 59 59 59
0.00709874577322833 0.0375847668340756 -0.017630020472688 -0.05606097 0.6967859 -0.715085 115 115 115
-0.0550345387110849 0.0470655229946447 -0.019655249660756 0.02336341 0.9083075 -0.4176501 77 77 77
-0.0612773337488266 -0.0610296182764585 -0.0324499699613834 -0.6206923 -0.2827581 -0.7312926 115 115 115
-0.0453344236294442 0.0562041781389423 -0.00729941651315083 -0.1591176 0.7379127 -0.6558707 108 108 108
-0.0127783769659431 0.0440350112608618 0.0108058042327629 0.006156194 0.4818736 0.8762192 168 168 168
-0.0820122954473013 -0.0157003012249429 0.00356429252297025 -0.9268528 -0.3526706 -0.128714 127 127 127
-0.0625345998178046 0.0486618584253216 -0.0187229414747978 0.1053192 0.8916144 -0.4403766 65 65 65
0.0414460193073951 0.0328867935083718 0.0166528877697598 0.04109984 0.4804377 0.8760653 127 127 127
0.0846890312706134 0.0334347368699586 -0.0320978679102737 0.1137484 0.9116284 -0.3949619 97 97 97
-0.0776404389411638 -0.0402651037903869 -0.0119143437083614 -0.985544 -0.1584067 -0.06008653 109 109 109
-0.0742087360066377 -0.0464648538328437 0.00355174657717316 -0.8261763 -0.5628023 -0.02619613 86 86 86
-0.082378098157545 0.0334592214491296 -0.0047417725181923 -0.999959 -0.007279763 0.005384065 138 138 138
0.0161939052402305 0.0408488116118371 -0.015334402128912 -0.3530753 0.6825086 -0.6399373 91 91 91
0.0773727880282762 -0.0179863017227935 -0.0303161070378271 -0.143185 -0.08466929 -0.9860675 90 90 90
0.0250323286566558 0.0411779269170512 -0.0290937499265183 -0.1396695 0.5214301 -0.8417856 101 101 101
0.0510584940696999 0.0537467102188891 -0.0101093178346622 -0.1927487 0.7755439 -0.6011485 85 85 85
-0.0322473940388481 0.0193354023419896 -0.026745914945992 -0.04743678 -0.124381 -0.9911 121 121 121
0.0932187270388241 0.0154707729532813 -0.0265905204845583 0.8189589 -0.188375 -0.5420528 115 115 115
-0.017001565523153 -0.0156334008255513 -0.029612308404915 -0.02242372 0.08302718 -0.996295 139 139 139
-0.0472585188602235 0.0630274175791391 0.00818219957015648 0.2557858 0.9307953 0.2611395 70 70 70
0.0661694836733924 -0.0411238421437671 -0.0215682461502737 -0.2753496 -0.4374979 -0.8560246 92 92 92
-0.0608169450696205 0.0166917880828771 -0.0301834729478012 0.04357419 0.02471298 -0.9987445 143 143 143
0.0227644015052422 0.0275017603739539 0.0199039345750849 0.02183258 0.4909886 0.8708923 96 96 96
-0.0196643055260972 0.0361107839625928 -0.020386403885098 0.3289759 0.7055344 -0.627691 33 33 33
-0.0846751343368446 -0.00299485324107329 -0.00219956910482269 -0.9577583 -0.2550751 -0.1327996 95 95 95
0.0129836789085001 0.0501528498902983 0.00722260008320622 0.01844463 0.4842484 0.8747361 182 182 182
0.0533670616607183 -0.0179505149624215 -0.029503197762141 -0.04677991 -0.1485662 -0.9877954 228 228 228
0.0641011197809105 0.0123678450842275 -0.0295759135316398 -0.01032768 -0.1969843 -0.9803522 95 95 95
0.0200495456248415 0.0563886953803989 0.0015046346401017 0.3488405 0.9325461 0.09310193 205 205 205
-0.0751713404878389 0.0303390940737881 -0.0323931838481279 0.067354 -0.05313443 -0.9963133 171 171 171
-0.0845512855418278 -0.00923086794710681 0.00385134429518877 -0.9436499 -0.3308123 -0.009386309 113 113 113
-0.0383998670661232 0.0430717788573957 -0.0202483376819464 0.3075114 0.6230884 -0.7191645 44 44 44
0.0722430437943042 -0.0245360106106504 -0.0284083695603915 -0.06307585 -0.2596144 -0.9636502 69 69 69
0.0603837076667102 0.0360184063145145 -0.0333222801009611 0.2987738 0.6672008 -0.6823323 79 79 79
0.0751358595839329 -0.0238941861756726 -0.0287101314356704 -0.1575259 -0.2161577 -0.963567 69 69 69
