ply
format ascii 1.0
comment File exported by Rhinoceros Version 7.0
element vertex 469
property float x
property float y
property float z
property float nx
property float ny
property float nz
property uchar red
property uchar green
property uchar blue
end_header
-0.00501049655287045 -0.0635946361247652 -0.0134930117984951 -0.04225799 -0.5835736 0.81096 72 72 72
-0.00357384579984921 -0.0619386998836153 -0.0126411720176876 0.025098 -0.5385668 0.842209 51 51 51
-0.00537599223463314 -0.0602986184779757 -0.0113157733341396 0.05080894 -0.5720279 0.818659 34 34 34
-0.0147682537397601 -0.0595262614909762 -0.0115064783950985 -0.7412063 -0.4551198 0.493436 70 70 70
-0.0147205700239398 -0.0535904733363741 -0.0138426228424252 -0.9695676 -0.1362623 -0.2033992 47 47 47
-0.0146728863081195 -0.0553545324031466 -0.0117687090297878 -0.9575604 -0.258964 0.1265537 43 43 43
-0.0126863827070453 -0.0482110349361056 -0.0218363507648647 -0.9594449 -0.2111735 -0.1867384 51 51 51
-0.0125274171194293 -0.0499671069804781 -0.0233779056926907 -0.9688938 -0.1612098 -0.1877666 61 61 61
-0.0121936907133319 -0.0487990943614596 -0.0216138764282406 -0.9707378 -0.1647665 -0.1747001 36 36 36
-0.0143391599020221 -0.0476071206752413 -0.0185625954528988 -0.9468153 -0.1971538 -0.2543052 49 49 49
-0.0129088868459918 -0.049800213975107 -0.0198021634479702 -0.964869 -0.121719 -0.2328351 51 51 51
-0.0129804124197223 -0.0477263299647921 -0.0196591123005093 -0.9518793 -0.2070114 -0.2259914 38 38 38
-0.0142437924703814 -0.0431255666438692 -0.0230441494842709 -0.9371126 -0.3004996 -0.1775385 47 47 47
-0.0141961087545611 -0.0445558396998995 -0.017752091493243 -0.9396746 -0.2651186 -0.216157 39 39 39
-0.0149748434385516 -0.0423468915645235 -0.0193571849723995 -0.9568731 -0.2206436 -0.1889716 41 41 41
-0.0144821514448382 -0.0523270932857149 -0.0157496734520138 -0.9604547 -0.09305989 -0.2624244 26 26 26
-0.013337921079085 -0.0532329646770113 -0.0163694723507107 -0.9581866 -0.09811838 -0.2687959 43 43 43
-0.0148874034246661 -0.0493473378841036 -0.0154159470459164 -0.950007 -0.1518354 -0.2728235 40 40 40
-0.0149112452825763 -0.0516119567576998 -0.0120309098621548 -0.9663414 -0.1629745 -0.1990566 41 41 41
-0.0148635615667559 -0.0498240558330172 -0.012340794410342 -0.9650433 -0.1069091 -0.2392946 46 46 46
-0.0141484250387408 -0.0467012492839449 -0.0166555150409878 -0.9482664 -0.178779 -0.2623526 43 43 43
-0.0159124841055133 -0.0433163015071505 -0.0155112846752346 -0.9450314 -0.2532423 -0.206843 60 60 60
-0.0153880228361346 -0.0423627464000338 -0.0146531268020809 -0.9394581 -0.2521761 -0.2320036 44 44 44
-0.015864800389693 -0.0429825154964083 -0.0133658750911892 -0.9370288 -0.265465 -0.2269481 49 49 49
-0.0159124841055133 -0.0421243278209322 -0.0134612127205074 -0.9427828 -0.2537704 -0.2162434 41 41 41
-0.0165322532018878 -0.0384532777492159 -0.0327701373954952 -0.8071434 -0.5897529 -0.0266661 51 51 51
-0.0226348151525714 -0.0297761527721041 -0.0301002665420712 -0.8480901 -0.5078045 -0.1512541 53 53 53
-0.0205847730001666 -0.0311587421123141 -0.0331038638015926 -0.8165767 -0.5593206 -0.1426991 54 54 54
-0.0192021240553119 -0.0336474744502657 -0.0311777397056759 -0.8059357 -0.5748262 -0.1415718 82 82 82
-0.0178672184309222 -0.0341147748653048 -0.0318166120907009 -0.8041368 -0.5816054 -0.1228786 101 101 101
-0.0179149021467425 -0.0353066293422335 -0.0301956041713894 -0.7795053 -0.6213645 -0.07923176 62 62 62
-0.0211330165228106 -0.0314211217586153 -0.0311014755626858 -0.8181077 -0.5533704 -0.1564643 67 67 67
-0.0165799369177081 -0.0374997226420992 -0.0269059344192684 -0.7399536 -0.6726224 0.006909506 116 116 116
-0.0172473897299029 -0.0366415349666231 -0.0272555752655209 -0.7131963 -0.7008488 -0.01273345 73 73 73
-0.0166753043493487 -0.0371977655116671 -0.0260000928302944 -0.7333985 -0.6779805 0.04969015 73 73 73
-0.0183916200956561 -0.0353543130580538 -0.024188379850024 -0.7188409 -0.6595278 0.2197519 88 88 88
-0.0231235136350848 -0.0295258132640475 -0.0269178553482235 -0.8713823 -0.4866073 -0.06250003 55 55 55
-0.0195358504614093 -0.0347822276774996 -0.0269536181350887 -0.7302473 -0.6826422 -0.02717554 70 70 70
-0.0206562985738971 -0.0329466430369967 -0.0269536181350887 -0.7946958 -0.6063004 -0.02929941 77 77 77
-0.0211091746649005 -0.0316197244350069 -0.0292261942287624 -0.815582 -0.5541099 -0.1666977 78 78 78
-0.0219196786245562 -0.0307297078792208 -0.0270489855667294 -0.8589482 -0.5051743 -0.08370747 52 52 52
-0.0210138072332599 -0.033995565575754 -0.025666366424197 -0.7532976 -0.6519188 0.08685979 78 78 78
-0.0205847730001666 -0.0348775951091402 -0.0239976747890652 -0.7039033 -0.6770225 0.2148504 68 68 68
-0.0194643844923236 -0.0340074865047091 -0.0234672828575314 -0.6929529 -0.6711401 0.2634144 111 111 111
-0.0146728863081195 -0.0405033199016207 -0.0333422525783718 -0.8030507 -0.5959062 -0.002313885 60 60 60
-0.015737663682387 -0.0382148591701144 -0.0327860220333279 -0.8098091 -0.5864093 -0.01825603 55 55 55
-0.015018533643172 -0.0395616857234591 -0.0315186186691463 -0.7912734 -0.6114495 -0.003988708 55 55 55
-0.0134452094396807 -0.0410754052821749 -0.0319000585933865 -0.818868 -0.5739036 -0.009482867 66 66 66
-0.0159791817030169 -0.0378335086528414 -0.0315210028549374 -0.8036186 -0.5948609 -0.01838097 48 48 48
-0.0139696707090594 -0.0398001043025606 -0.0310776337047756 -0.8062816 -0.5914852 -0.007433684 84 84 84
-0.0138464679083087 -0.0400424567882174 -0.0294963522812069 -0.8143167 -0.5798586 -0.02553819 112 112 112
-0.0148635615667559 -0.0392399398509615 -0.0288130148311794 -0.8240936 -0.5664466 -0.002813132 100 100 100
-0.0151258220037677 -0.0391684142772311 -0.0234613223930538 -0.9108665 -0.4026482 -0.09053521 61 61 61
-0.0157336701711871 -0.0374281970683688 -0.0234017475506008 -0.8469138 -0.5230865 0.09548621 82 82 82
-0.0215859522184588 -0.0283935634318941 -0.0341050728222073 -0.8827139 -0.4175286 -0.2156063 99 99 99
-0.0232069601377703 -0.0216235486690157 -0.0322933598419369 -0.9345098 -0.2452394 -0.2579713 49 49 49
-0.0249471177419879 -0.0221480695430392 -0.0292182668110073 -0.945118 -0.2416145 -0.219942 51 51 51
-0.0234453191122271 -0.0199071733180636 -0.0313875182529629 -0.9334775 -0.2765916 -0.2282912 44 44 44
-0.0234930028280474 -0.0281552640620821 -0.0274621649643124 -0.9125605 -0.394201 -0.1088071 54 54 54
-0.0232069601377703 -0.028679665726816 -0.0260477765461147 -0.8882656 -0.4575559 -0.04033491 63 63 63
-0.0243988742193438 -0.0275353757564181 -0.0254756613632381 -0.9212792 -0.3811209 -0.07740508 66 66 66
-0.0253523697218158 -0.0237689582530611 -0.0250147982498348 -0.9393057 -0.3040913 -0.1588496 41 41 41
-0.0264489163717486 -0.0195018617335909 -0.026929806079501 -0.9128444 -0.3365144 -0.2312426 54 54 54
-0.0275296081861712 -0.0178094474498385 -0.0250783666034878 -0.9106973 -0.4010366 -0.09899548 76 76 76
-0.0267667879423358 -0.0194621650401705 -0.0234891279598415 -0.9328775 -0.3516881 -0.07781339 49 49 49
-0.0173586716016986 -0.0352907745067232 -0.0217727824112118 -0.7776765 -0.5883422 0.2215237 89 89 89
-0.0228970755895831 -0.0295855371181124 -0.0212801202198208 -0.745661 -0.6246526 0.2319459 98 98 98
-0.0229924430212237 -0.0294186441127413 -0.0194684370418728 -0.7179682 -0.605962 0.342537 92 92 92
-0.0185823549589373 -0.0330658523265475 -0.021041761245364 -0.6610072 -0.6315718 0.4051994 108 108 108
-0.0216336359342791 -0.0313891736690157 -0.0215582354923428 -0.6648643 -0.648335 0.370968 89 89 89
-0.0170447935423114 -0.033995565575754 -0.019504199828738 -0.8606289 -0.4924462 0.129671 74 74 74
-0.0171997060140826 -0.032612976235544 -0.0201120479961575 -0.7429391 -0.6094974 0.2766849 91 91 91
-0.0204576362928607 -0.0310475198451632 -0.0195955737491787 -0.623485 -0.6964368 0.3553059 114 114 114
-0.0199411024412371 -0.029990610284006 -0.0187771423717678 -0.6888777 -0.6477928 0.3252876 126 126 126
-0.0192498673757769 -0.0312302676860445 -0.0196353002449215 -0.6576231 -0.6723859 0.3397486 110 110 110
-0.0171282400449969 -0.0390253631297701 -0.0149391992946804 -0.9430202 -0.2089539 -0.2589422 40 40 40
-0.0165799369177081 -0.0380242435161227 -0.0172276600261868 -0.9595399 -0.2155233 -0.1811981 63 63 63
-0.0174381245931842 -0.0381194917384737 -0.0149868532081783 -0.942156 -0.2050101 -0.2651661 56 56 56
-0.0176645626386859 -0.0377023784343355 -0.0134254499336422 -0.935393 -0.2333372 -0.2656949 47 47 47
-0.0174858083090045 -0.035688099068796 -0.0138903065582455 -0.9198682 -0.2466134 -0.3049989 48 48 48
-0.0183201541265704 -0.0377858249370211 -0.011649499740237 -0.9376223 -0.2471541 -0.2444978 58 58 58
-0.0180578936895587 -0.0304436055842989 -0.0167508824726284 -0.7946566 -0.5736551 0.1985965 44 44 44
-0.0190114487966754 -0.0342577068034762 -0.0123169823547543 -0.9148401 -0.2773727 -0.2934826 60 60 60
-0.0195517649015643 -0.0323665706340426 -0.0114111109634579 -0.8992277 -0.3123915 -0.3062694 45 45 45
-0.0210138668379046 -0.0303243962947481 -0.0113396151920498 -0.889743 -0.3524824 -0.2900234 60 60 60
-0.0143868436178424 -0.0408371059123629 -0.0230441494842709 -0.9193302 -0.3606576 -0.1573471 36 36 36
-0.0154277791341998 -0.0376824704829806 -0.0215423508545101 -0.9366996 -0.3493621 0.0232376 60 60 60
-0.0153403391203143 -0.0368799535457247 -0.0182765229602993 -0.9593146 -0.2646998 -0.09823241 56 56 56
-0.0161508430799701 -0.0340194074336642 -0.0188009544273556 -0.8775983 -0.4715531 0.08636463 41 41 41
-0.0237433423361041 -0.028214749497568 -0.0213754876514614 -0.805396 -0.5531304 0.2130354 80 80 80
-0.0234071721395709 -0.0280979243938082 -0.0188867851158321 -0.7362576 -0.5528619 0.3902159 82 82 82
-0.0252332200369098 -0.025830921334421 -0.0193611486812771 -0.8073755 -0.4871956 0.3328441 54 54 54
-0.0250663270315387 -0.0239835349742525 -0.0171481772323788 -0.7845367 -0.4797041 0.3929201 102 102 102
-0.0201318373045184 -0.0286558238689059 -0.017322997655505 -0.7331313 -0.5640956 0.3798875 89 89 89
-0.0260437239965655 -0.0212420789424532 -0.0213516457935513 -0.9451025 -0.3253471 -0.03050474 32 32 32
-0.0267350186666705 -0.0215997068111056 -0.0210656031032742 -0.9451025 -0.3253471 -0.03050474 38 38 38
-0.0266873349508502 -0.0228630868617647 -0.0180858178993404 -0.8355854 -0.4480176 0.3179265 32 32 32
-0.0263059248289325 -0.0215281812373751 -0.0188009544273556 -0.8974944 -0.3982711 0.1894305 43 43 43
-0.0271521915754535 -0.0197164384547823 -0.0195280416866482 -0.9351857 -0.3537107 0.01779007 48 48 48
-0.027767967160628 -0.01801603714863 -0.0192618473430813 -0.9467539 -0.3205995 0.02954723 73 73 73
-0.0231688131651141 -0.023597296876108 -0.0159499152561367 -0.7139751 -0.5395786 0.4461999 107 107 107
-0.0226348151525714 -0.0241979924861544 -0.011792550887698 -0.8793088 -0.4724496 -0.06006148 68 68 68
-0.0216813196500995 -0.0261527864162081 -0.0167270406147182 -0.7416648 -0.5307708 0.410141 105 105 105
-0.020076226170943 -0.027265247506296 -0.0156543358226955 -0.8207733 -0.5344843 0.2016376 78 78 78
-0.021347593244002 -0.0252707568828219 -0.0154397889038265 -0.8081623 -0.4956155 0.3181807 73 73 73
-0.0219435204824664 -0.0232683984462374 -0.0150345369239986 -0.7765276 -0.5249207 0.3485157 63 63 63
-0.0200920810064532 -0.028266486329233 -0.013604234065646 -0.8514444 -0.5195442 -0.07152903 58 58 58
-0.0211727728208758 -0.0279645291988009 -0.011236320342654 -0.9042947 -0.3504544 -0.2437884 43 43 43
-0.0256860961279132 -0.0221956340495699 -0.0170369549652279 -0.800895 -0.4641532 0.3783239 81 81 81
-0.0272355784734942 -0.0212420789424532 -0.0163217886348904 -0.842107 -0.429172 0.3265994 64 64 64
-0.0272355784734942 -0.0204078523341769 -0.0159165366550625 -0.8294103 -0.4146536 0.3743541 71 71 71
-0.0227778663000323 -0.0228630868617647 -0.0126507087608517 -0.8896444 -0.4532548 0.05561337 47 47 47
-0.0241604556402423 -0.0201455918971651 -0.0124123199840725 -0.8653383 -0.4992065 0.04452543 66 66 66
-0.0240889300665118 -0.0213851300899142 -0.0116256578823269 -0.8642672 -0.4997554 -0.05733044 59 59 59
-0.0251855363210894 -0.0194780198756808 -0.0113396151920498 -0.8634667 -0.4960149 -0.09162158 66 66 66
-0.0249232758840777 -0.0185245839778536 -0.0124600036998928 -0.8720037 -0.4891547 -0.01836583 40 40 40
-0.0130995621046283 -0.0576191512767428 -0.00893194517099266 -0.3355568 -0.5368591 0.7740698 37 37 37
-0.0125274171194293 -0.0591447917644137 -0.0100602908989132 -0.3095826 -0.575232 0.7571438 54 54 54
-0.0112878789266803 -0.0576906768504732 -0.00937295993768578 -0.2348047 -0.5717016 0.786145 45 45 45
-0.0110589970907428 -0.0556549398128146 -0.007654230203265 -0.2206883 -0.6082089 0.7624819 36 36 36
-0.00930453437177914 -0.0571805803004855 -0.00912265023195152 -0.01521482 -0.5998878 0.7999394 45 45 45
-0.00775982039778012 -0.0569040147487276 -0.0084551974197567 -0.002923655 -0.6101854 0.7922533 35 35 35
-0.00559050935117977 -0.0590732661906832 -0.00993318399392967 0.05110414 -0.5912768 0.8048479 38 38 38
-0.00482768910734432 -0.0583581296626681 -0.00959942778550987 0.07897849 -0.6073931 0.7904657 38 38 38
-0.00547135966627377 -0.0557598439876192 -0.00776864131891136 0.06057804 -0.5904108 0.8048263 42 42 42
-0.00976223843900936 -0.0546632377330416 -0.00673885187112694 -0.0585323 -0.5474569 0.8347843 50 50 50
-0.00664735930769222 -0.0542182294551485 -0.00689775785409813 0.02042544 -0.566731 0.8236496 32 32 32
-0.00582892793028134 -0.0534474221889132 -0.00583298047983055 0.02646419 -0.5691634 0.8217984 42 42 42
-0.00456548827497738 -0.0543294517222994 -0.00669116815530663 0.07040968 -0.585309 0.8077474 45 45 45
-0.0165799369177081 -0.0490850774470919 -0.00902731260263329 -0.9565205 -0.2808431 -0.0787128 30 30 30
-0.0165322532018878 -0.0518980590526217 -0.00664348443948631 -0.8185891 -0.4134682 0.3986928 95 95 95
-0.017523895677016 -0.0480362741176241 -0.00524182161294823 -0.8622663 -0.4584815 0.2151549 88 88 88
-0.0174222101530291 -0.0438565580073946 -0.00600780090295677 -0.9432045 -0.3318815 -0.01482966 53 53 53
-0.0170805563291766 -0.0476071206752413 -0.00383059224092369 -0.6427512 -0.5623378 0.5202376 69 69 69
-0.0184869875272967 -0.0450325576488131 -0.00483180126153832 -0.8606191 -0.4996416 0.09845282 35 35 35
-0.0176645626386859 -0.0431851712886446 9.07973388492578E-05 -0.2425102 -0.5993546 0.7628649 51 51 51
-0.0155787576994159 -0.0526608792964571 -0.00912268003427391 -0.9373308 -0.3388202 0.0813126 71 71 71
-0.0154357065519549 -0.0480362741176241 -0.00993315419160729 -0.969612 -0.1921373 -0.1514456 56 56 56
-0.0132426132520892 -0.0521091787044161 -0.00573084792100792 -0.2211207 -0.5465302 0.8077192 61 61 61
-0.0150542964300372 -0.0517073241893404 -0.00559462150537376 -0.5982981 -0.4520113 0.661608 51 51 51
-0.0163892616590716 -0.0512304870311373 -0.00597603162729149 -0.7366343 -0.4449216 0.5093277 112 112 112
-0.0132902969679095 -0.0529945460979098 -0.00621442040407066 -0.2765685 -0.5557104 0.7840254 34 34 34
-0.0114213337263324 -0.0517645446483248 -0.00542298993074303 -0.1262298 -0.4945123 0.8599556 52 52 52
-0.0160793175062396 -0.0476548043910616 -0.00762085160219078 -0.9435787 -0.2978229 0.1447784 31 31 31
-0.00926954644529598 -0.0533918706599825 -0.00592834791147118 -0.05461057 -0.5332748 0.8441775 51 51 51
-0.00628186362592953 -0.052875336808359 -0.00597603162729149 0.01124131 -0.5537269 0.8326225 28 28 28
-0.00518531697599667 -0.051725205582773 -0.00515360673868065 -0.02885633 -0.5630359 0.8259285 90 90 90
0.044541169230058 0.0210706623371488 0.0145486489871799 0.9786978 -0.08727403 0.1858328 75 75 75
-0.0161031593641497 -0.0459145871821993 -0.00981397470437889 -0.9551751 -0.1725578 -0.2405501 53 53 53
-0.016293894227431 -0.0446035234157198 -0.0112204357048214 -0.9489715 -0.2109445 -0.2344262 41 41 41
-0.0131710876783587 -0.0506584016505831 -0.00511784395181542 -0.2506869 -0.5032302 0.8269918 35 35 35
-0.0149780024847247 -0.0478741494838351 -0.00324894031488304 -0.4303575 -0.5506487 0.7152471 56 56 56
-0.0110589970907428 -0.0492662755672091 -0.00406898101770287 -0.08035965 -0.5529297 0.8293438 70 70 70
-0.0129088868459918 -0.0480553476039522 -0.00350640257799034 -0.239071 -0.6113588 0.7543775 94 94 94
-0.00887228148786801 -0.0489580003444308 -0.00348095139467125 -0.08272707 -0.5628017 0.8224418 95 95 95
-0.00902326005308407 -0.0485129920665377 -0.00356836160623436 -0.08907551 -0.5591239 0.8242851 75 75 75
-0.00699694054929989 -0.0482745734874361 -0.00280554136239891 -0.1005184 -0.5915365 0.7999879 91 91 91
-0.00570971864073055 -0.0477978555385226 -0.00273404559099083 -0.07272942 -0.5888848 0.804938 20 20 20
-0.0142437924703814 -0.046558198136484 -0.00263867815935021 -0.3740787 -0.6413518 0.6698753 37 37 37
-0.015721749242232 -0.0469873515788668 -0.00206656297647362 -0.4119222 -0.6689798 0.6186971 37 37 37
-0.0138623823484637 -0.0446988908473605 -0.00101767024003868 -0.1573382 -0.557866 0.8148805 44 44 44
-0.0121460069975116 -0.0446988908473605 -0.00054092248880272 -0.07373725 -0.5410988 0.8377201 54 54 54
-0.0129208077749469 -0.0434235898677462 0.000352998171216201 -0.06254675 -0.525948 0.8482137 57 57 57
-0.0146252025922992 -0.0417191354457491 0.000865538511639785 -0.1042528 -0.5314665 0.8406395 35 35 35
-0.00764061110822933 -0.0455689994517916 -0.000958095397585679 -0.07488396 -0.5597218 0.8252902 94 94 94
-0.00955564874021786 -0.0433956948939913 0.000277538690930557 -0.09439665 -0.5339141 0.8402529 115 115 115
-0.00906748669950741 -0.0419608918849581 0.00118224779165382 -0.08903383 -0.5645081 0.8206117 92 92 92
-0.00504226582853573 -0.0442697374049776 0.000174214039212417 -0.02479092 -0.5308191 0.8471225 43 43 43
-0.00315428870527523 -0.0436499683086031 0.000307728443509292 0.03136203 -0.5206443 0.8531975 109 109 109
-0.0077121366819598 -0.0426488486949557 0.000889380369549941 -0.05248499 -0.5561236 0.8294407 100 100 100
-0.00725920098631161 -0.0415641633693331 0.00195016423261757 -0.04869761 -0.5759275 0.816049 70 70 70
-0.00549514191953915 -0.0417191354457491 0.00193824330366249 -0.0193639 -0.5565797 0.8305685 84 84 84
-0.0358411778768756 -0.00693922917286094 -0.0198498471637905 -0.7052279 -0.5999405 0.3777895 74 74 74
-0.0288804282507159 -0.0175710288707369 -0.00449804505311852 -0.8700588 -0.4454105 -0.211204 41 41 41
-0.029595564778731 -0.0187153188411349 -0.000970016326540757 -0.8872527 -0.4316094 -0.1627759 35 35 35
-0.0320986022314288 -0.00343507210651572 0.0070157543758213 -0.7175605 0.08180297 0.6916757 70 70 70
-0.0286063064893939 -0.0244602529231661 0.00686084190405006 -0.9105204 -0.4079315 0.06741357 68 68 68
-0.0286420692762591 -0.0195733873073214 0.00374995628393288 -0.9132365 -0.3926856 -0.1086145 49 49 49
-0.029722701486037 -0.0217029420558565 0.00651519456899757 -0.9534894 -0.3012869 -0.009179323 42 42 42
-0.0299769749006488 -0.019668754738962 0.00560932317770119 -0.9372856 -0.3426462 -0.06394774 48 48 48
-0.0312821378072955 -0.00401311795154746 0.00847585955656166 -0.7303296 0.07412423 0.6790613 77 77 77
-0.0291665305456378 -0.0234352914516085 0.00885133901632423 -0.8406792 -0.3549457 0.408989 82 82 82
-0.0290806998571612 -0.0176759330455416 0.0082410768607914 -0.8517348 -0.2330584 0.4692883 102 102 102
-0.0181532611211993 -0.0396928159419649 -0.0104576154609859 -0.937314 -0.2474941 -0.2453347 60 60 60
-0.017136167462752 -0.0411549178783053 -0.00917033394777184 -0.9361621 -0.2453606 -0.2517911 39 39 39
-0.0191186775526263 -0.0399073926631563 -0.00560654243432884 -0.9377153 -0.2695666 -0.2191435 52 52 52
-0.0197265853246905 -0.0352827874843233 -0.00721562942468529 -0.9258072 -0.3077826 -0.2194328 44 44 44
-0.0196789016088702 -0.0335902539912813 -0.00962326964342003 -0.9119366 -0.311922 -0.2666015 44 44 44
-0.0195358504614093 -0.0352112619105929 -0.00611905297243004 -0.9284596 -0.2955664 -0.2249516 37 37 37
-0.021466742928908 -0.0319057075206393 -0.00557077964746361 -0.9159423 -0.341776 -0.2103307 43 43 43
-0.0219196786245562 -0.0293948022548312 -0.0060237153431118 -0.9113484 -0.3558161 -0.2069759 35 35 35
-0.0198219527563311 -0.0411232082072848 -0.000922332610720444 -0.7747932 -0.5290453 0.3461308 63 63 63
-0.0229208578428485 -0.033304270905649 0.000571538601285171 -0.9151689 -0.3900146 -0.1017565 45 45 45
-0.0216813196500995 -0.0319215623561495 -0.00302008828126793 -0.902556 -0.3435787 -0.2595118 37 37 37
-0.0221104134878375 -0.0307297078792208 -0.00282938322030907 -0.9056351 -0.3325476 -0.2631295 38 38 38
-0.0211091746649005 -0.0343053905192965 -0.00139911016427879 -0.8892744 -0.4153234 -0.1915661 48 48 48
-0.0224918236097552 -0.0324222413722628 -0.000636289920443345 -0.8911917 -0.3449354 -0.2946134 37 37 37
-0.0220150460561969 -0.0322553483668917 -0.00173283657037621 -0.903058 -0.3300827 -0.2748303 40 40 40
-0.0226348151525714 -0.0271063415233248 -0.00964711150133019 -0.8884865 -0.3781628 -0.2599705 45 45 45
-0.0232546438535907 -0.0233876077357882 -0.00990934213601952 -0.8700283 -0.4231154 -0.2530301 50 50 50
-0.0231115927061297 -0.0279645291988009 -0.00683418950044518 -0.905682 -0.3587906 -0.2258526 41 41 41
-0.0256543268522479 -0.0202726689998263 -0.00878892382585411 -0.8393291 -0.465612 -0.2805926 81 81 81
-0.0250663270315387 -0.0217189161006563 -0.00959942778550987 -0.8638073 -0.447556 -0.2313668 79 79 79
-0.0257576217016436 -0.0215997068111056 -0.00582108935319786 -0.8485697 -0.4687577 -0.245348 63 63 63
-0.0254954208692767 -0.0219572154704684 -0.00669116815530663 -0.8495128 -0.4604201 -0.2575679 69 69 69
-0.0269733776411273 -0.0182146398250216 -0.00788308223688011 -0.8580762 -0.4338258 -0.2747734 44 44 44
-0.0248756517729022 -0.0270586578075045 -0.00054092248880272 -0.8814629 -0.3666357 -0.2976598 43 43 43
-0.0252570618948199 -0.0247225133601778 -0.00127990087472801 -0.8802339 -0.4155457 -0.2291505 38 38 38
-0.0267350186666705 -0.0214804975215548 -0.00357631882631188 -0.8548596 -0.4770763 -0.2039935 65 65 65
-0.0271640528997638 -0.0200383035365694 -0.00412858566247826 -0.8639216 -0.4614638 -0.201719 50 50 50
-0.0271045078596331 -0.0214208928767794 -0.00150636872255211 -0.8558721 -0.4772011 -0.1994041 46 46 46
-0.028356026585982 -0.0192397205058688 -0.000302533712023545 -0.892278 -0.4194673 -0.1669943 43 43 43
-0.0190114487966754 -0.038930114907419 0.00229584136999245 -0.2380555 -0.5695076 0.7867596 61 61 61
-0.0175811161360003 -0.0409801570598238 0.00139789739645119 -0.2614791 -0.5578861 0.7876495 36 36 36
-0.0173189153036334 -0.038167175454294 0.00298713604009743 -0.2109651 -0.6146392 0.760074 65 65 65
-0.0212522258123614 -0.0366892186824435 0.00313015738523598 -0.7325899 -0.4747699 0.4877556 100 100 100
-0.0190877427419879 -0.0360026923839205 0.00424577752149696 -0.1717946 -0.5614793 0.8094612 77 77 77
-0.0234930028280474 -0.032303032082712 0.000889380369549941 -0.9013539 -0.4167834 -0.1176977 77 77 77
-0.0238982548078753 -0.0311350194636935 0.00229584136999245 -0.8618392 -0.4956968 -0.1073215 82 82 82
-0.0247564424833514 -0.0302528707210177 0.00255804220235939 -0.8762138 -0.4695035 -0.1087004 49 49 49
-0.0229495276769854 -0.0316641895000094 0.00647704759634132 -0.4252364 -0.6367205 0.6432425 64 64 64
-0.0254477371534564 -0.0314686862651461 0.00501336613691444 -0.8005893 -0.5535783 0.2293638 80 80 80
-0.0257020105680682 -0.0296172467891329 0.00473528066671486 -0.8523318 -0.5063698 0.1308437 80 80 80
-0.0202986707052447 -0.0338286725703829 0.00551398554838295 -0.343178 -0.5774752 0.7407774 62 62 62
-0.0198219527563311 -0.0331135360423678 0.00608610073125954 -0.2066429 -0.5246792 0.8258392 96 96 96
-0.0194167007765033 -0.0338525144282931 0.00532328048742409 -0.2915487 -0.5368457 0.7917045 60 60 60
-0.0177718509992816 -0.0335902539912813 0.00590731659925575 -0.1222626 -0.5119914 0.8502451 66 66 66
-0.0189399232229449 -0.0316752759639376 0.00677739540136452 -0.09387078 -0.48127 0.8715317 94 94 94
-0.0171758641561724 -0.0297166673366183 0.00813617268598671 -0.07771321 -0.4570452 0.8860419 156 156 156
-0.0151655186971881 -0.0393591491405123 0.00208656946218605 -0.1120731 -0.5624614 0.8191928 93 93 93
-0.0138253082594134 -0.0396398870174044 0.0021077589134037 -0.0991843 -0.5556124 0.8255043 115 115 115
-0.0151258220037677 -0.0380479661647433 0.00298713604009743 -0.1126697 -0.5664551 0.8163542 95 95 95
-0.0118504275640704 -0.039854940575754 0.00261526266134376 -0.1079374 -0.5644308 0.8183931 103 103 103
-0.0116120685896136 -0.0376523105327242 0.0040550724605381 -0.09540495 -0.5636613 0.8204778 71 71 71
-0.0153308023771502 -0.0357453195277804 0.00490372339285011 -0.0902334 -0.5457017 0.8331072 64 64 64
-0.0136717070898272 -0.03623634259144 0.00462003508604164 -0.1025714 -0.5355325 0.8382625 62 62 62
-0.0114308704694964 -0.0360217658702486 0.00489418664968605 -0.08550986 -0.5156283 0.8525348 39 39 39
-0.00693340199796932 -0.0403444139186495 0.0026851789096653 -0.04582212 -0.5712945 0.819465 66 66 66
-0.00847495692579525 -0.0390492049876803 0.00363074699438209 -0.08014519 -0.5424998 0.836224 61 61 61
-0.00893981355039852 -0.0381910173122042 0.00432207146680946 -0.05701311 -0.531635 0.8450525 49 49 49
-0.0047323216757037 -0.0397643415156954 0.00315399924314613 0.01303552 -0.5579682 0.82976 56 56 56
-0.00549996989576595 -0.0376046268169039 0.00452231327093239 0.03835201 -0.4943354 0.8684248 111 111 111
-0.00728304284422177 -0.0363317100230807 0.00546630183256264 -0.01252122 -0.4740923 0.8803861 145 145 145
-0.0084511150678851 -0.0354019967738741 0.00575237432516212 -0.019158 -0.4684549 0.8832797 193 193 193
-0.0156422962507464 -0.0336379377071017 0.00632445970571632 -0.09475071 -0.5039518 0.858519 48 48 48
-0.0130042542776324 -0.0333637563411349 0.00687276283300514 -0.05783486 -0.4852715 0.8724487 186 186 186
-0.0110176910719134 -0.0336697665874117 0.0065628484824955 -0.03316931 -0.4803456 0.8764519 215 215 215
-0.0114150156339862 -0.0321599809352511 0.00702374139822121 -0.03998477 -0.4573708 0.8883767 183 183 183
-0.00964302914945858 -0.0321838227931612 0.00701578417814369 -0.02187782 -0.4506773 0.8924188 197 197 197
-0.00512398379652279 -0.0335493652049654 0.00637896815336342 0.02430295 -0.473415 0.8805042 204 204 204
-0.00508994954435604 -0.0350205270473116 0.00584771195448036 0.0248136 -0.4670266 0.883895 225 225 225
-0.0152211894354083 -0.0310158101741427 0.007969309482938 -0.09338707 -0.437177 0.8945139 192 192 192
-0.0126466264089801 -0.0320646135036105 0.00713496366537208 -0.05463026 -0.4647083 0.883777 181 181 181
-0.0113641728719928 -0.0311587421123141 0.00785012999570961 -0.03492018 -0.4381528 0.898222 205 205 205
-0.00652022260038632 -0.032612976235544 0.00720648923910255 0.005463317 -0.472852 0.8811249 219 219 219
-0.00547135966627377 -0.0327320663158053 0.0071826473811924 0.02476402 -0.4799606 0.8769405 221 221 221
-0.00714797871916073 -0.0296727983180636 0.00874801436460609 -0.01044641 -0.4389698 0.8984411 115 115 115
-0.00538791316358822 -0.0299549667064303 0.00855334559476967 0.001438769 -0.4426933 0.896672 75 75 75
-0.0268462409338214 -0.0239437190715426 0.00211306372678871 -0.8778214 -0.3808439 -0.2904952 45 45 45
-0.0264966000875689 -0.0256760684672945 0.00308247366941566 -0.8934654 -0.3666151 -0.2594473 39 39 39
-0.0270210613569476 -0.0261051027003878 0.00487034479177589 -0.8932431 -0.449383 0.01309927 70 70 70
-0.0269495357832171 -0.0279526082698458 0.00649135271108742 -0.7948536 -0.5628807 0.2266564 102 102 102
-0.0266396512350299 -0.0288702813808077 0.00670589962995644 -0.6906824 -0.6251572 0.3635055 99 99 99
-0.027926932748244 -0.0253422824565523 0.00675355354345436 -0.8576798 -0.485184 0.1702408 93 93 93
-0.027783881600783 -0.0227677194301241 0.00332086244619484 -0.8966337 -0.3747006 -0.2358971 45 45 45
-0.0285943855604388 -0.0209084121410006 0.00265337983167763 -0.9080313 -0.3816677 -0.1726523 49 49 49
-0.0276408304533221 -0.0199071733180636 0.00169985452688332 -0.8861955 -0.4153476 -0.20529 48 48 48
-0.0279746164640643 -0.0224817363444918 0.00408368269003029 -0.9076895 -0.3471047 -0.2358348 51 51 51
-0.0282606591543414 -0.0224340526286715 0.00527559677160377 -0.9422141 -0.3107667 -0.1251267 44 44 44
-0.0253523697218158 -0.0271063415233248 0.00875597158468361 -0.4456036 -0.5089799 0.7364624 68 68 68
-0.0247643699011065 -0.025707778138315 0.00940753975904579 -0.3367902 -0.5118219 0.7903231 61 61 61
-0.0276527513822772 -0.0239835349742525 0.00850566187894936 -0.7602662 -0.4247497 0.4915109 100 100 100
-0.0225871314367511 -0.0251992313090914 0.00966181317365761 -0.1200891 -0.4640422 0.8776352 33 33 33
-0.0232387294134356 -0.0236629811946505 0.0107265905479252 -0.137719 -0.4722937 0.870616 59 59 59
-0.0218719949087359 -0.0288702813808077 0.00813617268598671 -0.2064418 -0.501362 0.8402487 95 95 95
-0.0211473216375567 -0.0274400083247774 0.00887991944349403 -0.07370061 -0.4788615 0.8747914 49 49 49
-0.0211091746649005 -0.026140865487253 0.00929232398069496 -0.07432479 -0.4658055 0.8817602 55 55 55
-0.0220150460561969 -0.0273923246089571 0.00956647554433937 -0.09307482 -0.4792844 0.8727105 65 65 65
-0.0188366283735492 -0.0282663671199435 0.0084222451785862 -0.06657598 -0.4689256 0.880725 72 72 72
-0.0188843120893695 -0.0256282655421847 0.0101862446407139 -0.03396728 -0.4637858 0.885296 34 34 34
-0.0212522258123614 -0.0255805818263644 0.00993596473730202 -0.07155219 -0.4679366 0.8808607 49 49 49
-0.0218719949087359 -0.0230061380092257 0.0112510518173038 -0.08501777 -0.4628056 0.8823735 53 53 53
-0.0278315653166034 -0.0219890443507784 0.0106074110606968 -0.6802212 -0.3265182 0.656266 101 101 101
-0.0285943855604388 -0.0176187125865572 0.00985251823461647 -0.8195312 -0.1111661 0.5621483 97 97 97
-0.0252570618948199 -0.0214009849254244 0.0118072525600254 -0.3600344 -0.4079199 0.8390331 44 44 44
-0.0240413059553363 -0.0219573346797579 0.0110205904582798 -0.1499624 -0.4911622 0.8580623 56 56 56
-0.0234612335523822 -0.0215123264018648 0.0119979576209843 -0.1180513 -0.4685783 0.8754988 49 49 49
-0.0278792490324237 -0.0176822511378878 0.010488201771146 -0.8022105 -0.1345467 0.5816833 62 62 62
-0.0276885141691424 -0.0192634431544894 0.0120932952503025 -0.7006755 -0.2242527 0.6773216 93 93 93
-0.0271799673399188 -0.0179524985972994 0.012872029934293 -0.7150245 -0.2834972 0.6390378 107 107 107
-0.0189923753103473 -0.0218047467891329 0.0120551780799686 -0.02900495 -0.4608733 0.8869918 64 64 64
-0.0190686692556598 -0.0197164384547823 0.013008703384763 0.002159496 -0.4493706 0.8933429 82 82 82
-0.0173069943746783 -0.0199190942470187 0.01280846158064 0.004079541 -0.4231375 0.9060563 52 52 52
-0.0125910152754046 -0.0277419654552096 0.0092486337760746 -0.0497931 -0.4180043 0.9070794 200 200 200
-0.0110176910719134 -0.0260415641490572 0.0100273386577427 -0.02614901 -0.3815128 0.9239936 200 200 200
-0.0127181519827105 -0.0234114495936983 0.0112112955192387 0.01077124 -0.4203236 0.9073104 197 197 197
-0.00556672709791439 -0.0279168454829806 0.00975718060529823 0.01317571 -0.3805223 0.9246779 27 27 27
-0.00623417991010922 -0.0276307431880587 0.00966181317365761 -0.006008178 -0.3748707 0.9270576 22 22 22
-0.00907887118665951 -0.0256600944224947 0.0103928343395054 -0.007816881 -0.3660775 0.9305515 233 233 233
-0.00744194882719296 -0.0255965558711642 0.0105040864089787 -0.001556521 -0.3468767 0.9379094 148 148 148
-0.0089517344793536 -0.0231968728725069 0.0111397997478306 0.03146811 -0.3752862 0.9263747 191 191 191
-0.00679434436170834 -0.023745116395151 0.0110325113872349 0.003516173 -0.34395 0.9389814 217 217 217
-0.0157694329580523 -0.0221002666179293 0.011473526153928 0.006994301 -0.4360762 0.8998826 31 31 31
-0.0151564587911822 -0.0217325059596651 0.0120592609981358 0.02675277 -0.4232115 0.9056359 51 51 51
-0.0152608861288287 -0.0200502244655245 0.0127766625026524 0.02568493 -0.4020038 0.9152777 33 33 33
-0.0110494603475787 -0.0218679277125948 0.0118430153468906 0.03313178 -0.4042814 0.9140344 160 160 160
-0.0119076480230548 -0.0222910014812105 0.0115212098697483 0.01419219 -0.4069945 0.9133204 201 201 201
-0.00775982039778012 -0.0226246682826632 0.0114258424381077 0.02899229 -0.3708378 0.928245 187 187 187
-0.00933314460127133 -0.0215962497417086 0.0119298593143284 0.04099185 -0.3799869 0.9240831 176 176 176
-0.00946028130857723 -0.0203203527156466 0.0125541881660282 0.05869992 -0.4036391 0.9130333 93 93 93
-0.00535215037672299 -0.0216950742427462 0.0118072525600254 0.001461798 -0.368086 0.9297906 189 189 189
-0.00661559003202694 -0.020669993561899 0.0115212098697483 0.02210267 -0.3884543 0.9212028 162 162 162
-0.00515348809568661 -0.0199548570338839 0.0123316840270817 -0.002434626 -0.404767 0.9144166 170 170 170
-0.00338036912290829 -0.0198867885295504 0.0124747351745426 -0.01752403 -0.3804597 0.9246315 153 153 153
-0.00492305653898495 -0.0183100072566622 0.0129276410678684 0.02898285 -0.4325897 0.901125 105 105 105
0.0057802687326215 -0.0656765071574801 -0.0352493031879604 0.7794325 -0.6264394 0.00765596 69 69 69
0.00640003782899601 -0.0642939178172701 -0.0356783970256985 0.8231435 -0.5668099 0.03407786 75 75 75
0.00544654232652408 -0.0655811397258395 -0.0339620514770687 0.8372895 -0.5464243 0.01915211 94 94 94
0.00582795244844181 -0.0653427211467379 -0.0338666840454281 0.8513972 -0.5235037 0.03266022 67 67 67
0.00730590922029239 -0.0625537006084078 -0.0338667138477505 0.8489608 -0.5245553 0.06408824 89 89 89
0.00587563616426212 -0.0649613706294649 -0.0321980222126186 0.8619962 -0.5057246 0.03471484 66 66 66
0.00628082853944523 -0.0638886062327975 -0.0295758350750149 0.8752401 -0.4825132 0.03370201 90 90 90
0.00616167885453922 -0.0636740295116061 -0.0268582805057705 0.8833429 -0.4681774 0.02269686 62 62 62
0.00649540526063663 -0.0640554992381686 -0.0255709989925564 0.8843571 -0.4658125 0.03051666 51 51 51
0.00763963562638981 -0.0611472694102877 -0.0246651574035824 0.8749155 -0.4838643 0.0199566 55 55 55
0.00811641317994816 -0.061576303643381 -0.03029097160303 0.8577268 -0.5094152 0.0692886 70 70 70
0.0115730057397626 -0.0553783742610567 -0.0339382096191586 0.8689962 -0.4931442 0.04067424 70 70 70
0.012168932978227 -0.0549493400279635 -0.0345818503757656 0.8744307 -0.4844542 0.02598361 65 65 65
0.0106909166017316 -0.0569993821803683 -0.0325794323345364 0.859926 -0.5069463 0.05943754 58 58 58
0.010214198652818 -0.0580006210033053 -0.0304816766639889 0.8528698 -0.5144916 0.08894703 71 71 71
0.011183608595445 -0.0558550922099703 -0.0314352019687832 0.8597589 -0.5067042 0.06376098 70 70 70
0.0126615653672956 -0.0541705457393282 -0.0316576763054073 0.866765 -0.4941497 0.06733799 83 83 83
0.00973742109925968 -0.0584773389522188 -0.0293374462982357 0.8528446 -0.5163004 0.07803836 64 64 64
0.00992809635789615 -0.0572378007594698 -0.0264291866680325 0.8571587 -0.510588 0.06766707 76 76 76
0.0105002413430951 -0.056260403794443 -0.0252611144443691 0.8510296 -0.5216919 0.05988524 80 80 80
0.0122007022538922 -0.053328332108652 -0.0255869134327114 0.8580763 -0.5111216 0.04959746 104 104 104
0.0159830341974042 -0.0470827190105074 -0.0336759789844692 0.8937266 -0.4452765 -0.05460456 66 66 66
0.0176516662278913 -0.0444127885524386 -0.0347725554367245 0.9013497 -0.4284585 -0.06318215 51 51 51
0.0186051617303632 -0.0414568750087374 -0.0342957778831661 0.9148384 -0.4020623 -0.03763708 42 42 42
0.0182238112130902 -0.0433639852229708 -0.0342480941673458 0.9045418 -0.4201899 -0.07241906 42 42 42
0.0160783420244001 -0.046558198136484 -0.032674799766177 0.8856648 -0.4640713 -0.01535485 58 58 58
0.0175086150804303 -0.0453026858989352 -0.0295122667213619 0.8848408 -0.4655201 -0.01864552 79 79 79
0.0183827171960614 -0.0429983703319186 -0.031689475383395 0.9059281 -0.4221087 -0.03344619 66 66 66
0.0135515223184369 -0.0521363584224337 -0.0295281513591946 0.8637464 -0.5005567 0.05818159 75 75 75
0.0144255648294233 -0.0501180259410494 -0.0276051863094509 0.8615454 -0.505361 0.04847346 87 87 87
0.0136945734658979 -0.0501816837016695 -0.0271443231960476 0.8642889 -0.5002689 0.05230493 81 81 81
0.0131224284806989 -0.052184042138254 -0.0254756613632381 0.8571476 -0.5128561 0.04771283 100 100 100
0.0147195945421003 -0.0499195424739474 -0.025666366424197 0.8612076 -0.5057652 0.05022954 88 88 88
0.0142189751306318 -0.0500386325542086 -0.0236162646671474 0.8556338 -0.5170774 0.02284248 94 94 94
0.0187958965936444 -0.0426011649791354 -0.0295281513591946 0.9062667 -0.4216002 -0.03055842 70 70 70
0.0170001278558515 -0.0459384290401095 -0.0256027980705441 0.8711149 -0.4908181 0.01601179 116 116 116
0.0169842134156964 -0.0456047622386568 -0.0264768703838528 0.8752012 -0.4836881 0.008290501 97 97 97
0.0169365893045209 -0.0460337964717501 -0.0233540638347805 0.8559763 -0.5166699 0.01888838 111 111 111
0.00735359293611271 -0.0619816152278536 -0.021041761245364 0.8695871 -0.490322 0.05833318 100 100 100
0.00600277287156803 -0.0637535421077364 -0.0194207533260525 0.7596107 -0.5905048 0.2725722 102 102 102
-0.00310118096678036 -0.0641031829539889 -0.0137472852131069 -0.03691346 -0.5506321 0.8339315 64 64 64
-0.00121225016920345 -0.0655334560100191 -0.0143193705936611 0.003172014 -0.5374526 0.843288 29 29 29
-0.00122339623777645 -0.0641460982982271 -0.0135803922077358 0.01739355 -0.5392604 0.8419594 31 31 31
0.00187080008180363 -0.0632211534206026 -0.0140810116192043 0.1963401 -0.5093763 0.8378463 28 28 28
-0.00128532546369808 -0.0596882669154757 -0.0116018458267391 0.08385557 -0.5350569 0.840644 70 70 70
0.00168012482316715 -0.0621960727397555 -0.0130321188827694 0.1914124 -0.5347348 0.8230553 29 29 29
0.00117950541169864 -0.06143325249592 -0.0119355722328365 0.1240156 -0.5129383 0.8494201 24 24 24
0.000850547377183264 -0.0592878429118746 -0.0113825305362881 0.1043473 -0.5400702 0.8351262 67 67 67
0.00706755024583561 -0.0616239873592013 -0.0165124936958492 0.623525 -0.6538859 0.4285438 89 89 89
0.00284819704683048 -0.0597884027186983 -0.011852125730151 0.1683284 -0.5440364 0.8220035 70 70 70
0.00460027558000309 -0.0591447917644137 -0.0118163927456081 0.2306481 -0.5778329 0.782886 17 17 17
0.00620936257035953 -0.0613378850642794 -0.013759206142062 0.5319512 -0.6420819 0.5520495 20 20 20
0.00647156340272648 -0.0598360864345187 -0.0131513281723202 0.4324637 -0.6295045 0.6455225 21 21 21
0.00698809725435001 -0.0573490230266207 -0.0114270254036129 0.4032668 -0.6717263 0.6214175 8 8 8
0.0102379809060834 -0.0567132798854464 -0.0226150854488552 0.8602738 -0.5097134 0.01100918 89 89 89
0.0104048739114545 -0.0559504596416109 -0.0223290129562557 0.8582196 -0.5132602 0.004808833 119 119 119
0.0109650383630536 -0.0555810300532931 -0.0173110767265499 0.8506386 -0.5244458 -0.03702007 92 92 92
0.00887923342378361 -0.0593355266276949 -0.0148676737209499 0.6592497 -0.6448085 0.386797 113 113 113
0.0104525576272748 -0.0576668349925631 -0.0154636307617367 0.7197339 -0.6573638 0.2232842 116 116 116
0.0124232063928388 -0.0532646743480318 -0.0157655580898464 0.8380203 -0.5436525 -0.04651859 104 104 104
0.0119781981149457 -0.0561888782207125 -0.0120309098621548 0.6106495 -0.7628249 0.2126154 108 108 108
0.0127887020746015 -0.0532806483928316 -0.021947602834338 0.8599313 -0.5103556 -0.007440116 95 95 95
0.0137421975770734 -0.0507537690822237 -0.0209463938137234 0.8518448 -0.5228766 -0.0309903 88 88 88
0.013146270338609 -0.0521125165645235 -0.0177520616909206 0.8567154 -0.5117391 -0.0645111 113 113 113
0.0138614068666242 -0.0515404311839693 -0.0172753139396847 0.8482842 -0.5235078 -0.07970919 124 124 124
0.0152678976693891 -0.0484176246348971 -0.0178474291225613 0.8449031 -0.5287675 -0.08089305 118 118 118
0.0187482128778241 -0.0418025819484347 -0.0215661927124203 0.8762929 -0.474537 -0.08321948 75 75 75
0.014838803831651 -0.049800213975107 -0.0172753139396847 0.8375508 -0.5399886 -0.08319218 86 86 86
0.0152440558114789 -0.0496572820369356 -0.0148199900051296 0.8318688 -0.5415584 -0.1212801 110 110 110
0.0166981707254193 -0.0484653083507174 -0.0122692986389339 0.8336305 -0.5460289 -0.08314227 72 72 72
0.0182238112130902 -0.0445796815578097 -0.0166078611274899 0.8483126 -0.5162482 -0.1177008 117 117 117
0.0193680415788434 -0.0420766441051119 -0.017322997655505 0.8543524 -0.508992 -0.1049246 118 118 118
0.0198448191324018 -0.0423150626842135 -0.0161787672897518 0.8556668 -0.5048779 -0.1137216 142 142 142
0.0205599556604169 -0.0417191354457491 -0.0121739610096157 0.8656491 -0.4883831 -0.1101526 67 67 67
0.0205837975183271 -0.0378692714397066 -0.033854763116473 0.9107895 -0.4127338 -0.0106427 78 78 78
0.0201785455384992 -0.0385963288966769 -0.0295758350750149 0.9125789 -0.4078039 -0.02992939 88 88 88
0.019034315172746 -0.0408371059123629 -0.0269059344192684 0.909602 -0.4149303 -0.02137586 56 56 56
0.0205122719445966 -0.0385486451808565 -0.0308630867859066 0.909654 -0.4143757 -0.02867896 53 53 53
0.0210367332139753 -0.0362601844493502 -0.0300525828262508 0.891862 -0.4507377 -0.03765076 55 55 55
0.0215373526254438 -0.0350682107631319 -0.0345103248020351 0.9054364 -0.4186061 -0.0703835 83 83 83
0.0231821427980207 -0.0328274337474459 -0.0354400082489193 0.9116992 -0.3995407 -0.09576933 90 90 90
0.0228484163919233 -0.0323983995143526 -0.0335091455837429 0.905457 -0.4026312 -0.1342972 106 106 106
0.0235317836442731 -0.0296649305049532 -0.0351698501964748 0.9153724 -0.3723179 -0.153208 103 103 103
0.0238972793260358 -0.0297761527721041 -0.0352493031879604 0.9153724 -0.3723179 -0.153208 79 79 79
0.022657681528642 -0.0338763562862032 -0.0314828856846035 0.8804051 -0.4628923 -0.103042 115 115 115
0.0238495956102155 -0.0316832629863375 -0.0307200654407681 0.8914556 -0.4278649 -0.1491259 163 163 163
0.0219902287164472 -0.0359265176478976 -0.0250704093834103 0.8572332 -0.5024354 -0.1127385 100 100 100
0.0237542877832196 -0.0323983995143526 -0.0282408698459805 0.8580948 -0.5046605 -0.09482128 137 137 137
0.0245647321382306 -0.0317309467021578 -0.0268105967899502 0.8652607 -0.4806078 -0.1426184 115 115 115
0.0252799282708905 -0.0298715202037447 -0.0268821223636806 0.8733613 -0.4548519 -0.1742117 106 106 106
0.0247077832856916 -0.0324937669459933 -0.0250942512413204 0.8641949 -0.4870231 -0.1263944 61 61 61
0.0253911505380414 -0.0314448444072359 -0.022917012776965 0.8800468 -0.4558916 -0.1329678 88 88 88
0.0244217405954145 -0.0264150468532198 -0.0332469149490536 0.9313595 -0.2940594 -0.2147058 94 94 94
0.0252322445550702 -0.0246271459285372 -0.0327701373954952 0.9341918 -0.2653264 -0.2385111 81 81 81
0.0258996973672651 -0.0288702813808077 -0.0297188564201534 0.896133 -0.3891691 -0.213291 83 83 83
0.0271869788804792 -0.0256124107066744 -0.0291626258751095 0.9220915 -0.2914773 -0.2545354 107 107 107
0.026853192869737 -0.0212897626582735 -0.032102654780978 0.9310358 -0.2332985 -0.280614 114 114 114
0.0264082441964887 -0.0274559823695772 -0.0286699636837185 0.9043376 -0.3621547 -0.2258707 92 92 92
0.0265671501794599 -0.0282744733516329 -0.0252611144443691 0.8963062 -0.4291216 -0.1117576 72 72 72
0.0273299704232953 -0.0241979924861544 -0.0291467412372768 0.9216407 -0.2859745 -0.2622918 96 96 96
0.0272584448495649 -0.025985893410837 -0.025237272586459 0.9222793 -0.3403791 -0.1831474 81 81 81
0.0270439277330182 -0.0275353757564181 -0.0236639483829678 0.9007055 -0.4200316 -0.1109189 51 51 51
0.0284742007890485 -0.0251515475932711 -0.0242360635658443 0.9286666 -0.328859 -0.171552 77 77 77
0.0267578850427411 -0.0216235486690157 -0.0292420788665951 0.9249699 -0.2582904 -0.2787772 75 75 75
0.0294754396119855 -0.0176663963023775 -0.0272873445411861 0.9153674 -0.2525401 -0.3135698 78 78 78
0.0299045334497235 -0.0171419946376437 -0.0247128411194027 0.8910655 -0.3118109 -0.3298125 79 79 79
0.021112967554643 -0.0381862489406222 -0.021680633630389 0.8458321 -0.5219528 -0.1101514 115 115 115
0.0235635529199384 -0.0342577068034762 -0.02328253826105 0.8502811 -0.5075303 -0.1394096 79 79 79
0.0240880141893171 -0.0335902539912813 -0.0230441494842709 0.8519865 -0.5026879 -0.1463695 57 57 57
0.0242786894479535 -0.033717450303232 -0.0214231713672817 0.8565806 -0.5036638 -0.1122161 113 113 113
0.0244217405954145 -0.0347345439616793 -0.0178474291225613 0.8660709 -0.4961774 -0.06106745 114 114 114
0.025041509691789 -0.0326368180934542 -0.0179427965542019 0.8748469 -0.4820626 -0.0475248 124 124 124
0.0258520136514447 -0.0314448444072359 -0.0197544797321499 0.8922898 -0.4427264 -0.08838654 62 62 62
0.025613654676988 -0.0311110583964938 -0.019563774671191 0.8922898 -0.4427264 -0.08838654 66 66 66
0.0264241586366437 -0.0308250753108614 -0.0183718903919399 0.8955238 -0.4397429 -0.06828844 113 113 113
0.0268532524743818 -0.0293471185390108 -0.017322997655505 0.8909962 -0.4482275 -0.07223438 98 98 98
0.0222286472955487 -0.0381433335963839 -0.0155589683910549 0.8642781 -0.4963173 -0.08180713 122 122 122
0.0217995534578107 -0.0390253631297701 -0.0135565801521481 0.8707147 -0.4814402 -0.1003556 79 79 79
0.0213943014779828 -0.0400742856685274 -0.0127698882480801 0.8744164 -0.474004 -0.1035188 78 78 78
0.0211558828988813 -0.0400385228816622 -0.0113634570499599 0.8697985 -0.4808825 -0.1104647 67 67 67
0.0228484163919233 -0.0371819106761568 -0.0130003496071041 0.8692452 -0.4872578 -0.0836215 66 66 66
0.0253275523820661 -0.0325414506618136 -0.0153682633300961 0.8759556 -0.4798844 -0.04911867 111 111 111
0.026161898199632 -0.0312780706111544 -0.01312748631441 0.8676678 -0.4939922 -0.05589551 88 88 88
0.0264717827478193 -0.0302529899303072 -0.0131751700302303 0.8613235 -0.4994823 -0.09294721 50 50 50
0.0272346625962995 -0.028059777421152 -0.0218045814891994 0.9023904 -0.4167407 -0.1096303 82 82 82
0.0277590642610334 -0.0251515475932711 -0.0218999191185177 0.9162179 -0.3814759 -0.1225595 59 59 59
0.0299998412767194 -0.0234828559581393 -0.0175613864322842 0.9043561 -0.3997765 -0.149395 98 98 98
0.0298568497339032 -0.0211467115108126 -0.0215661927124203 0.9117351 -0.3525011 -0.2109076 104 104 104
0.0298568497339032 -0.0191443530742281 -0.0221859916111172 0.9036345 -0.3473907 -0.2505283 65 65 65
0.031096447531297 -0.0198594896022433 -0.0193254156967342 0.895399 -0.3836453 -0.2260022 39 39 39
0.03009520870836 -0.0231015054408663 -0.014939169492358 0.8951886 -0.4206281 -0.1473408 63 63 63
0.0322406778970502 -0.0205269424144381 -0.0151298745533169 0.8958861 -0.4194029 -0.1465925 54 54 54
0.031080533091142 -0.0219255057994479 -0.0113634570499599 0.8827955 -0.437132 -0.1720109 77 77 77
0.0327173958459638 -0.0188105670634859 -0.0131751700302303 0.8911854 -0.4137641 -0.1859783 31 31 31
-0.00368351834623593 -0.0566655961696261 -0.00864590248071556 0.09509294 -0.6108574 0.7860093 33 33 33
0.000519980017258947 -0.0574125615779513 -0.0101556583305538 0.09662947 -0.5806016 0.8084334 45 45 45
-0.00122816460935848 -0.0563796130839938 -0.00901142796480064 0.1110178 -0.6169561 0.7791279 56 56 56
-0.00138707059232968 -0.0553625194255465 -0.00777183016740685 0.0750758 -0.6277255 0.774806 67 67 67
0.000118721548631018 -0.0538288919154757 -0.00713218292199974 0.07909197 -0.6282992 0.7739409 72 72 72
0.00415926081330997 -0.0575714675609225 -0.0103622480293453 0.1676792 -0.5842947 0.7940298 49 49 49
0.00682913166673405 -0.0567132798854464 -0.0105529530903042 0.2266096 -0.6886092 0.6888145 9 9 9
0.00824992758424503 -0.0553116170589083 -0.00964711150133019 0.2326987 -0.7499462 0.6192189 38 38 38
0.00699602467210514 -0.0542818872157687 -0.00871742805444603 0.08792378 -0.6591593 0.7468457 62 62 62
0.00459896427781803 -0.0537944404307955 -0.00755993565523033 0.1111274 -0.6178614 0.7783945 62 62 62
0.0101188312211774 -0.0540434686366671 -0.00850288113557701 0.1454379 -0.7474424 0.6482111 38 38 38
0.0127410183587812 -0.0543771354381197 -0.0106483205219448 0.4435199 -0.8055899 0.3928295 101 101 101
0.0123596082368634 -0.0551399556819552 -0.00864590248071556 0.3473032 -0.7733229 0.5304263 67 67 67
0.0106432924905561 -0.0534521905604952 -0.00764469346010094 0.09500358 -0.6954304 0.7122857 48 48 48
0.00129871470124943 -0.0527085630122774 -0.00669116815530663 0.100359 -0.6055088 0.7894854 62 62 62
0.00115566355378849 -0.0515484182063692 -0.00526089509927635 0.1136668 -0.5922973 0.7976615 64 64 64
0.00298642021806461 -0.0515928832713717 -0.00562323173486595 0.1549921 -0.5772046 0.8017557 67 67 67
-0.00145698684065121 -0.0512972442332857 -0.00490806540452843 0.0744383 -0.6072299 0.7910315 79 79 79
0.00110797983796818 -0.0495857564632052 -0.0034849449058712 0.1296531 -0.574877 0.8079026 88 88 88
0.000964988295152014 -0.048560675782358 -0.0032584770580471 0.1503453 -0.5575041 0.8164468 93 93 93
