ply
format ascii 1.0
comment File exported by Rhinoceros Version 7.0
element vertex 465
property float x
property float y
property float z
property float nx
property float ny
property float nz
property uchar red
property uchar green
property uchar blue
end_header
0.0587430129896613 -0.0787807661251389 -0.0296515116613893 -0.09849624 -0.6496025 -0.7538668 188 193 201
0.0530238345782983 -0.0812215728670794 -0.0294579236976607 -0.07446412 -0.6573512 -0.7498963 179 185 193
0.0497943131232812 -0.0811457014230617 -0.0296482547367986 -0.08095501 -0.6545148 -0.7517025 189 193 201
0.052134502939402 -0.079673538886354 -0.0297799542167121 -0.07009933 -0.6631871 -0.7451637 193 197 207
0.0512970633773382 -0.077169243648643 -0.0296562249382656 -0.07934152 -0.6564159 -0.7502154 189 195 203
-0.16510968231766 0.0622372625124727 -0.0155404918074315 -0.4436432 -0.5656594 -0.6951331 167 176 183
0.0589498529064258 -0.076427847938977 -0.0293570969762379 -0.08927855 -0.6521401 -0.7528231 175 184 188
0.142673328313827 0.00192633979061491 0.00421133273062768 0.9979743 -0.06185372 0.01487719 184 186 192
0.0571956194321401 -0.0743028463567643 -0.0295980693919445 -0.08418444 -0.6631955 -0.7436967 186 194 200
0.0598703954438145 -0.0720102730707854 -0.0295630397302524 -0.09080927 -0.6682063 -0.7384132 187 192 200
0.05590477578249 -0.0716738403949046 -0.0293701288358892 -0.0918128 -0.6572326 -0.7480747 186 194 200
0.0531363548288628 -0.0727010320649543 -0.0290526967428849 -0.07579517 -0.655014 -0.7518056 184 191 197
0.0869926972706916 -0.00961175421605448 -0.0276617346622574 -0.1101245 -0.6186488 -0.7779114 181 186 194
0.0920753607797635 -0.0707157399762663 -0.0304085806257309 -0.07851242 -0.6628869 -0.7445917 179 184 193
0.0822645085550266 -0.0689538587694443 -0.0303814085088857 -0.08360334 -0.6568608 -0.7493626 194 198 207
0.0780880108719473 -0.0696241067916607 -0.030060902706145 -0.1090398 -0.6651517 -0.738704 195 199 208
0.0759342701242145 -0.0684665621972311 -0.0302547267782004 -0.1151043 -0.6660389 -0.7369825 181 190 194
0.0758875149132681 -0.0684539103720536 -0.0297723244941704 -0.1375052 -0.6830618 -0.7172997 188 194 200
-0.146408878482557 0.0342715850532792 -0.0174731596935315 -0.08701802 -0.8353524 -0.5427838 183 188 196
0.05193170933811 -0.0681497677445037 -0.0293501244899709 -0.1088565 -0.6564155 -0.7465045 196 200 207
-0.0111807262698036 -0.0839685354002325 -0.0272916005250182 -0.05850931 -0.9979262 -0.0268305 190 194 197
0.0945583228509721 0.0538235380180521 -0.0247302267759058 -0.09511954 -0.6653422 -0.740454 193 198 205
0.0463260754615191 -0.0930442152285312 -0.0257488247878344 -0.3830233 -0.8173855 0.4303187 166 170 178
0.0424741331179133 -0.0930416301304318 -0.0237491932731144 -0.2006983 -0.9045871 0.3760882 176 180 183
0.0405015654859706 -0.0927350815979415 -0.0230275057217159 -0.07796757 -0.8968105 0.4354904 176 182 184
0.0382334064742602 -0.0923927347269399 -0.0229869199383027 -0.06046534 -0.9183763 0.3910612 173 181 183
0.0384527076105059 -0.0916111457872967 -0.0255620198895095 -0.0663234 -0.9326472 0.3546411 176 182 186
0.0436654037265394 -0.0915977085964689 -0.0270249368498989 -0.376375 -0.8881578 0.2636617 181 184 185
0.0386456008178626 -0.0908857854538869 -0.0274090724700873 -0.05539535 -0.9734038 0.2222981 175 181 186
0.0403407154004871 -0.0904316831233518 -0.0289922731930665 -0.1054889 -0.9685796 -0.2252236 205 210 212
0.0471140729865807 -0.0865394890037525 -0.0300004589968019 -0.09917717 -0.6665466 -0.7388365 185 193 203
0.0401120177094347 -0.088444732849488 -0.0295070975498046 -0.09318578 -0.8826481 -0.4607045 190 198 214
0.0402149096722659 -0.0862243573027335 -0.0295831776421921 -0.0897979 -0.7322001 -0.675144 192 198 208
0.0365960302378692 -0.090863666192208 -0.0283578322816839 -0.03448485 -0.9993804 -0.007054435 181 185 192
0.0289375543009569 -0.080715748842749 -0.0210700938673765 -0.4103708 -0.6694977 0.6191676 190 191 199
0.0300203052856787 -0.0918674360547309 -0.0268645397020746 0.03754134 -0.9613028 0.2729243 185 190 194
0.0727341038641434 -0.0401806263507866 -0.000835714332665216 -0.04365072 0.2290497 0.9724355 186 185 188
0.0363656873261873 -0.0908861314513389 -0.0273541385982906 -0.02325244 -0.9778626 0.2079521 179 189 191
0.0285194025690443 -0.0925006556544863 -0.0243391680349032 0.1564765 -0.9461927 0.283257 179 185 189
0.0341860109613685 -0.0902837593619751 -0.0293229328697689 -0.04985747 -0.9661137 -0.253256 198 201 213
-0.0511076690998704 -0.0220583417846177 0.00714058434429937 0.7936863 0.4430051 0.4169035 175 183 182
0.0380270362702058 -0.0891705161799198 -0.0291171669481771 -0.0706946 -0.934949 -0.3476674 184 193 197
0.0358823059018618 -0.0869248761560705 -0.0295150022201658 -0.08184567 -0.7834735 -0.6160119 192 196 204
0.0329795733215719 -0.0841775833022518 -0.0292656426713056 -0.08248058 -0.6737522 -0.7343398 180 188 193
0.0307310657719124 -0.0843068727992015 -0.0292620856298164 -0.09130532 -0.6699752 -0.7367473 186 192 203
0.0416331677948916 -0.0893351886196616 -0.0199040292096309 -0.01302397 -0.4132396 -0.9105292 190 195 201
0.0477020588695607 -0.081373817653214 -0.0153698976015016 -0.2853712 -0.2513804 -0.9248628 190 192 187
0.0674146063226291 -0.0262747491760564 0.0188740790881913 -0.0935283 0.5666361 0.8186427 175 178 179
0.0294285512563845 -0.0896806893497196 -0.0202731596221465 -0.7506072 -0.4078412 -0.5198599 194 201 200
-0.0776825669871355 0.0842183836571266 -0.000881624459060648 -0.1400992 0.8830364 -0.4479052 163 167 166
0.0429401939218994 -0.0831891933804925 -0.0290802560436093 -0.08485491 -0.660373 -0.7461281 176 184 187
0.0370718056571431 -0.0827974930272296 -0.0292354627653554 -0.09183709 -0.653941 -0.7509508 185 190 199
0.0296123383670575 -0.0822334192052582 -0.0292046473210542 -0.1053717 -0.6604706 -0.7434214 184 190 201
0.0472516228590865 -0.0801088406694485 -0.0294251895855632 -0.09867055 -0.6567392 -0.7476348 189 194 200
0.0412649271200538 -0.0817447363528359 -0.0294647179959661 -0.08684763 -0.6559569 -0.7497853 183 190 197
0.110842805253536 -0.0479052176784632 -0.0302676644825521 -0.08515929 -0.6479266 -0.7569274 190 195 200
0.0409030681470217 -0.0801807018965918 -0.029332195289843 -0.08427515 -0.6688183 -0.7386338 187 192 200
-0.0590767308575499 -0.0434945295593002 -0.00657644197043378 -0.5554883 0.7323982 -0.3937329 189 200 190
0.0437386372916981 -0.0769363570925545 -0.0293711939971641 -0.08529361 -0.6594418 -0.7469013 192 197 205
0.0431608707903559 -0.0741679146405356 -0.023622262717923 -0.9454565 0.3145175 0.0847982 186 189 192
0.0146808154972173 -0.0307544928619621 -0.0263410328615231 -0.1212945 -0.6569471 -0.7441157 188 194 201
0.106089729594549 -0.0604996783351017 -0.0136481605594045 -0.9037105 -0.01601544 -0.4278443 189 194 198
0.0208239160944912 0.0163537132640419 -0.0241430948583691 0.05267761 -0.6677865 -0.7424866 208 231 181
0.0469727021376458 -0.0742991010264627 -0.0293537098276906 -0.1021784 -0.6550044 -0.7486848 187 189 201
0.047337842637867 -0.0694981822137669 -0.0290591999677882 -0.1047884 -0.6304167 -0.7691516 188 194 201
0.0395250867293135 -0.071802286395343 -0.0289644408406153 -0.08325186 -0.6427858 -0.7615086 192 197 203
0.039609564483668 -0.0693662141529387 -0.0287760137059187 -0.07594554 -0.6653624 -0.7426475 191 196 204
0.0334406619689143 -0.0818775228612003 -0.0293403342242424 -0.09039526 -0.6630653 -0.7430835 175 182 189
0.0333708587933799 -0.0801040913748547 -0.0290245922072218 -0.08974106 -0.6552075 -0.7500998 186 192 201
0.0296785363676511 -0.0814710428771108 -0.0292000139898245 -0.1045013 -0.6611214 -0.7429657 173 178 188
0.0282600574663638 -0.0811333019664098 -0.0286154224647407 -0.1025441 -0.6619598 -0.7424917 161 170 179
0.0318371054984572 -0.0755664984356587 -0.0285510339283733 -0.08763506 -0.6512841 -0.7537567 176 186 193
0.0374842538235713 -0.0744033408832264 -0.0290655529481324 -0.09884337 -0.6363096 -0.7650752 183 189 196
0.0332033425365956 -0.0742263426964805 -0.0290031933716237 -0.07144172 -0.6425918 -0.7628708 193 197 206
0.0354600065811741 -0.0728441499307836 -0.0284263386571472 -0.09249729 -0.6596429 -0.7458656 176 183 189
0.0382423623671959 -0.0681480852060267 -0.0288637264894924 -0.06733445 -0.6540032 -0.7534891 195 200 205
0.035756098563186 -0.0688161540625614 -0.0287803821139567 -0.08862743 -0.6491508 -0.7554789 188 193 202
0.0275050663292322 -0.0741372431981198 -0.0286355518018961 -0.09140451 -0.6539593 -0.7509876 183 190 199
0.0340858150816066 -0.0671159647488765 -0.0283575028880511 -0.08560055 -0.6595381 -0.7467812 174 184 191
0.0243729244561799 -0.0931858496417182 -0.0253510204257713 -0.004827868 -0.9925869 0.1214408 184 189 196
0.0223339175890713 -0.0929713793770942 -0.0251880999408633 -0.115966 -0.9728715 0.2001824 187 192 196
0.140108237224154 -0.00747276533008251 0.014587644271573 0.9903308 0.002858876 0.1386966 166 170 168
0.0166589310558198 -0.090172771865111 -0.0282729041533933 -0.0605356 -0.9940619 -0.09042298 202 206 210
0.0255809211385534 -0.0866912338347118 -0.0286119052045312 -0.07049015 -0.7180808 -0.6923808 167 175 183
0.0260748713689354 -0.0841895540607003 -0.0290830664703123 -0.09427238 -0.6611736 -0.7442863 195 196 209
0.0190486126456106 -0.0876500033059296 -0.0289119200736253 -0.09865148 -0.8375204 -0.5374267 191 196 206
0.0212755598507737 -0.0865379035479075 -0.0291049696800523 -0.08673262 -0.7189838 -0.6895939 188 194 204
0.0189717023400398 -0.0819341982770211 -0.0286359525825727 -0.1052831 -0.6549659 -0.7482881 180 186 195
0.012498335918371 -0.0898293451324277 -0.02827820483437 -0.1215023 -0.9791316 -0.1629061 207 209 215
0.0084929890390073 -0.0898080365885471 -0.0279595636737636 -0.3181564 -0.9480166 -0.006410387 190 195 201
0.0128524238090988 -0.0923044270182998 -0.0253419640631573 -0.1343948 -0.9504616 0.2802868 188 188 193
0.0118113768081105 -0.0911212166918441 -0.0261910460213328 -0.1730671 -0.9652821 0.1956481 191 193 197
0.0104694704028303 -0.0908946510048742 -0.026086546701368 -0.2816371 -0.9139614 0.2921559 180 188 189
0.00828450212854182 -0.0900761524688794 -0.025900513810534 -0.4120331 -0.8747295 0.2551019 172 178 181
-0.050416880388642 -0.0395634188499281 -0.0243990243639697 -0.08873204 -0.6527981 -0.7523172 185 190 201
0.00662455609860158 -0.0885558223912637 -0.0275437526826574 -0.3493619 -0.9338299 -0.07686301 174 181 181
0.012818732805197 -0.0848230005166798 -0.0286140639464792 -0.07348398 -0.6760955 -0.7331405 188 192 203
0.0128077797267789 -0.0816252405088424 -0.0283692354811226 -0.08082029 -0.6763303 -0.7321513 178 184 193
-0.102902251058586 -0.000637538465648124 -0.0206067792355012 -0.06579372 -0.6677161 -0.7415028 178 184 191
0.00667106783158045 -0.0856728420923441 -0.0282369745460763 -0.1952988 -0.8245989 -0.5309379 180 184 193
0.00788357360792635 -0.0828882688378366 -0.0283305302507453 -0.09234594 -0.657825 -0.7474881 188 194 203
-0.101890058225656 -0.0590470317747211 -0.00335519760483544 -0.8612289 0.1550986 0.4839723 168 168 168
-0.00167527658579147 0.0126395312129924 -0.0241144286302108 -0.07265039 -0.633726 -0.7701384 196 201 212
0.02034462556443 -0.0814571396430894 -0.0170822781260287 0.8114664 0.1335661 0.5689309 183 185 191
0.0122675602191278 -0.0828937661133499 -0.0218918318597645 0.9915312 0.1279239 -0.02239245 181 186 190
-0.11795441792615 -0.0242476601017946 -0.0206511776169302 -0.09056962 -0.6514026 -0.7533072 170 179 189
0.00852870432386177 -0.0845339260469719 -0.0167866774575189 -0.658009 -0.3398547 -0.6719546 180 183 189
0.0111190347527763 -0.0817059004478286 -0.0284635386075821 -0.06757847 -0.6635805 -0.7450464 192 196 209
0.14658831755863 0.117971660083138 0.022200995349879 0.9409566 0.3336118 0.05747966 155 163 163
0.142850377938845 0.127665711706296 -0.0137539307336844 0.8448026 -0.008588578 -0.5350091 178 180 185
-0.0624720552504481 0.0430217462323907 -0.0199015013131373 -0.05967575 -0.689782 -0.7215536 163 175 178
0.0253323295668226 -0.0767580878663575 -0.0286949519089385 -0.08954232 -0.6701239 -0.7368284 182 188 196
0.0234387403799861 -0.078035608760428 -0.0286012583773391 -0.09724475 -0.6652178 -0.7402897 182 187 198
0.0217084998684409 -0.0765777530770694 -0.0284397566097602 -0.09908912 -0.6596305 -0.7450295 180 187 196
0.0183751089338251 -0.0775481892779845 -0.0282624382018441 -0.09015627 -0.6559061 -0.7494391 186 191 201
0.0171029570454226 -0.0760312764602455 -0.0282549938003855 -0.07620189 -0.6649333 -0.7430054 189 194 201
-0.0694112303322372 -0.0809111034183245 0.0130643409003467 -0.038525 -0.7323128 0.6798778 164 166 166
0.0238049636127859 -0.0708614564041645 -0.0283491906461519 -0.1022041 -0.677606 -0.7282887 190 193 205
0.0242190478757724 -0.0698369741145866 -0.0284502388600367 -0.08968429 -0.6383449 -0.7645079 188 194 205
0.0214821088757151 -0.0721406617749079 -0.0281006093788096 -0.09659333 -0.668691 -0.7372395 174 180 191
0.0176226809602278 -0.0708626283099472 -0.028288947317925 -0.09680849 -0.6618198 -0.743386 191 196 205
0.0169625509222324 -0.0805598363276732 -0.0287546007411172 -0.1002143 -0.6675938 -0.7377504 189 196 210
-0.0614583536409767 -0.0520373974010875 -0.0155654929306836 0.1740728 -0.569777 0.8031518 176 184 181
0.0126257231491682 -0.0793692869883473 -0.0285375884532743 -0.08932951 -0.6677167 -0.7390363 173 182 188
0.0134221638953822 -0.0742607235159669 -0.0282231999528489 -0.09138098 -0.6441935 -0.7593841 193 198 208
0.0113509791575421 -0.0742951400353584 -0.0279987079637961 -0.0959381 -0.665731 -0.7399987 192 196 207
0.013933418785341 -0.0732884235315808 -0.028007823940421 -0.09857683 -0.6518413 -0.7519212 184 190 196
0.015631868886177 -0.072941529521578 -0.0283226324814248 -0.07439087 -0.6643813 -0.7436824 187 195 201
0.0154647700422805 -0.0720379304379155 -0.0281015467848587 -0.08091834 -0.6698703 -0.7380556 189 195 205
0.0138021578769212 -0.0712817643721393 -0.0280200129978001 -0.0975984 -0.6503022 -0.7533801 188 193 203
0.137524535396722 -0.0321780944166868 -0.0227781684837112 0.7644789 -0.4141039 -0.4940546 160 166 173
0.0140964521034947 -0.0661885049844499 -0.0279043885403804 -0.08539876 -0.6557158 -0.7501626 185 191 200
-0.0282111912850713 -0.0322060750435753 -0.0249673827337941 -0.08903757 -0.6575671 -0.7481161 203 222 181
0.138509138772603 -0.0646630950275334 -0.0156590387573549 0.9634694 -0.1842014 0.1944134 178 183 185
0.137857022663347 -0.0664907914056382 -0.0170329620124636 0.939216 -0.2923753 0.1799723 177 178 181
0.138721645260576 -0.0647795913247318 -0.01819385996936 0.9646782 -0.2606333 -0.03829278 174 177 179
0.0028159848403233 0.0661417833369091 -0.0215193283094062 -0.06772147 -0.6702135 -0.7390721 176 184 188
0.139230911788639 -0.0590580320553227 -0.0121261708708751 0.97805 -0.1759123 -0.1116827 170 176 175
0.13979531601158 -0.0589486231251472 -0.00735453917925266 0.9638986 -0.1496902 0.2202098 175 180 179
0.138650015710267 -0.0587533710250613 -0.00449113570946386 0.9403045 -0.01984659 0.3397551 179 182 182
0.139945029842514 -0.0561481744969769 -0.00731217478348728 0.999189 -0.03681389 0.01631582 174 178 178
0.141670298150897 -0.00701999030153261 -0.0209334333791555 0.83306 -0.481688 -0.2720069 177 181 188
0.139699215856886 -0.0545419096000214 -0.00589680195154169 0.9851903 0.1359444 0.1044947 167 169 172
0.139385485843558 -0.0518330285655392 -0.00561944131585435 0.9781251 0.1092652 0.1770095 174 179 179
0.138095096102143 -0.0648271992064517 -0.0209595216110831 0.9503658 -0.2493241 -0.1861244 177 182 188
-0.152307747727353 -0.0451729870488102 -0.0205654246929741 -0.1199651 -0.6120486 -0.781668 181 188 194
-0.164852388762173 0.0142050822541768 0.0188370858325288 0.03650927 0.6649504 0.7459946 138 154 140
0.138500795619008 -0.05468161909622 -0.0141709407327568 0.9484178 -0.1977279 -0.2478051 173 178 182
0.13947964978877 -0.0533262829684381 -0.00984873099991307 0.9924501 -0.1022351 -0.06775614 173 179 181
0.139571612457426 -0.0517636213689794 -0.00891684911695984 0.9932098 -0.1034519 -0.05321742 188 191 193
0.140356276283595 -0.047775324716355 -0.00685700878826961 0.9932824 -0.04970175 0.1044973 199 201 202
0.139874533384965 -0.051411724312428 -0.0115268965297261 0.9633718 -0.2076721 -0.1696676 159 167 172
0.139968046850595 -0.0466482538568145 -0.00905394520872294 0.9885903 -0.1505377 -0.005253918 179 184 185
0.138906500757083 -0.0492049021474308 -0.0142588195659161 0.950832 -0.2858124 -0.1192882 182 187 188
0.139190940175941 -0.0477073006818308 -0.0157225551257652 0.9409544 -0.3136142 -0.1274789 168 173 176
0.140242068751815 -0.0464813200569156 -0.0114262791407646 0.9748912 -0.2140358 -0.06144663 167 173 176
0.140696644735582 -0.0435073142110698 -0.0114857866291279 0.9633003 -0.2650514 -0.04242884 163 170 172
0.139461425518328 -0.0462462573428198 -0.00382672979403098 0.890146 0.2035834 0.4076688 185 187 185
0.0959657223272037 -0.00156435109097225 -0.0274463057291726 -0.0897171 -0.6876408 -0.7204866 185 191 199
-0.1402827885968 0.0429155038576813 -0.0175775413769751 -0.1725344 -0.7398349 -0.6502894 184 188 199
0.0643882312064046 0.0102522892009169 -0.0260135921508949 -0.09963024 -0.6945828 -0.7124805 208 229 191
0.13791565597071 -0.0378396167378316 -0.0233162547218829 0.750911 -0.3322368 -0.5707463 170 176 183
-0.109151819735398 0.0801398627793348 0.00678463526049594 -0.04077584 0.8890904 -0.4559119 128 129 121
0.0807298480568772 -0.022142832159092 -0.0281164180996126 -0.1198639 -0.5787525 -0.8066462 189 194 201
0.141589774759825 -0.0409258132415155 -0.00910982088755297 0.9585398 -0.2775039 0.06475411 179 184 186
0.141730890895448 -0.0394148715081998 -0.0105024237250068 0.941268 -0.3359601 0.03384406 178 182 185
0.142734612408863 -0.0375044354493333 -0.00895714210918969 0.9827276 -0.1661268 0.08153654 183 185 189
0.139422570757079 -0.043525685478274 -0.0173218857641459 0.9332101 -0.3536788 -0.06348468 165 171 173
0.139922997751377 -0.0421655391740379 -0.0162200429376433 0.9486005 -0.3155481 -0.0242182 163 168 172
0.140800964508289 -0.0402988473843871 -0.0146012478218606 0.9535958 -0.3002301 -0.02273931 175 179 182
-0.0426865470082853 -0.0808273970480666 -0.0212493114288613 -0.3119679 -0.5604123 0.7672119 173 176 175
0.139289707720229 -0.0392799384706954 -0.0217447665727192 0.894662 -0.3321885 -0.298715 164 171 175
0.126553879664798 0.0065968729934312 -0.0283396610543524 -0.051893 -0.6289169 -0.7757388 199 204 214
0.141025078640254 -0.0378269675030682 -0.0168052036497357 0.9462996 -0.276567 -0.1674151 161 168 171
0.142129181169795 -0.0365273577748234 -0.013015248020998 0.9523904 -0.2564663 -0.1648561 187 191 202
0.11144299711435 -0.0169519570598496 -0.0234870078554727 0.06360702 -0.3819193 -0.9220042 178 188 186
0.142531869167499 -0.0350562369190264 -0.00896347836515948 0.9930311 -0.09563892 -0.06886446 176 180 184
0.142578991225898 -0.0333904219799133 -0.00774118402646368 0.9924508 -0.06723687 -0.1025697 176 180 184
0.142168988797992 -0.0338185729965084 -0.0106254320242782 0.9660731 -0.1145308 -0.2314854 172 179 183
0.141901452572739 -0.0322619088465798 -0.0119621385372666 0.9497728 -0.09467343 -0.298276 177 182 187
0.140712285114079 -0.0335992050675486 -0.0162319642775592 0.930667 -0.166479 -0.3257971 174 177 181
0.140975131733649 -0.0360086685129991 -0.0182428974261383 0.9124231 -0.2567016 -0.3187293 162 160 170
0.140060700736885 -0.0338294034073517 -0.0191438388179377 0.874727 -0.2568936 -0.410924 162 168 174
0.142145617730403 -0.0307396089399656 -0.0106768847339463 0.9523168 -0.1285193 -0.2767228 159 166 172
0.132634790127061 -0.0854625095022115 -0.0109200268425205 0.9116882 -0.3317003 0.2424862 169 174 175
0.133482281579975 -0.084208613864482 -0.015059108158243 0.9505799 -0.1931069 0.2431206 173 177 180
0.13676970441527 -0.0422304458160961 -0.0264711951588376 0.7781546 -0.464758 -0.4224635 155 160 166
-0.0215778212859152 -0.0543717049523637 -0.0145703836004562 0.3045564 0.5412512 0.7837682 183 186 189
0.133945421558007 -0.0811338088709 -0.00609054956491512 0.9964857 -0.0825706 -0.01408461 165 169 169
0.134471920317403 -0.0799887685478645 -0.0110391641671458 0.9944418 -0.1028381 -0.02257874 184 184 187
0.134015001773774 -0.0811156199253163 -0.0108910521565684 0.9889525 -0.1466797 0.02140427 198 198 201
0.133900821844182 -0.0799992487867775 -0.0187054014282688 0.9992778 -0.03780659 0.003816312 186 190 189
-0.14254603943739 -0.0701849130663834 -0.00502424414254427 -0.01509122 -0.4610409 0.8872505 158 163 157
-0.0796235346154306 0.00311294927235123 -0.0214120455867353 -0.1353664 -0.748212 -0.6495035 183 189 196
0.13472278264392 -0.0768305902214296 -0.0137419086683723 0.988892 -0.1481886 -0.01152755 177 181 183
0.134785962964301 -0.0757227776834661 -0.0149896015761714 0.9845622 -0.1747896 0.00926987 174 178 181
0.12814959478035 -0.0769366696626176 -0.0113011169182946 -0.2956389 0.2765526 0.914394 185 188 177
0.119254794290592 -0.0822807823492498 -0.0128650682463822 0.8038997 0.3543795 0.4776614 179 181 186
-0.0173816847944293 0.0108729118703209 -0.0230464830528184 -0.02582927 -0.6494817 -0.7599384 187 192 200
0.115761610020799 -0.0769976263418858 -0.0130667248315976 0.3267829 0.4770666 0.8158556 180 183 186
0.126894228317375 0.126248468257936 0.00584521688627032 -0.3444776 0.6534085 -0.6740865 131 134 112
0.134738969464575 -0.0771154901048676 -0.00511915669433344 0.9987656 -0.04718714 0.01550925 171 174 177
0.134711311862424 -0.0772754432128003 -0.0024615091601794 0.9987183 -0.04458646 -0.0239526 153 159 160
0.134253446792455 -0.0757418035983468 -0.0040577480175879 0.9996269 -0.009571105 0.02558276 176 179 181
0.134209693548394 -0.0773163517374238 -0.00795009200703084 0.9983924 -0.05666223 0.00142517 180 187 193
0.134199734632014 -0.0749191722910436 -0.0056355086049254 0.9993569 -0.03449564 0.009792701 182 187 186
0.133872317364311 -0.0738334850368889 -0.00280291807499577 0.9922317 -0.1197783 0.0336066 181 184 191
0.134533338923092 -0.071178953899716 0.000226560089361283 0.9904937 -0.1302331 0.04429057 168 170 175
0.0330941273579082 0.0216853396727293 -0.0245275668513305 -0.08780427 -0.650601 -0.7543267 187 191 201
-0.0793328009360235 -0.0783799065314468 0.0212854328704876 -0.09026225 -0.7775856 0.6222647 164 168 164
0.13519611219826 -0.071468862173418 -0.00557580767303711 0.9868774 -0.1111737 0.117104 180 184 187
0.135625709206548 -0.0688847586574905 -0.00254867799038783 0.9822002 -0.1324095 0.133231 170 173 177
0.134535683680287 -0.0693179651225811 -0.00192616353542174 0.9825248 -0.1442804 0.1175937 176 181 185
-0.0376157679444746 -0.027312571663602 -0.0243208501416425 -0.09433949 -0.6636686 -0.742054 189 194 204
0.125708379919315 -0.0693708608017575 -0.00043067786863249 0.2153133 0.6638783 -0.7161744 179 180 178
0.00316451885753666 0.0963018702119773 -0.0199950420298312 -0.1303595 -0.6605235 -0.7394018 176 182 189
0.120146449894171 -0.0657741575803198 -0.00475102175765635 0.8966861 0.3510437 -0.2696709 184 186 183
0.134976479463324 -0.074952166202959 -0.0221021899143952 0.9902253 -0.1085701 0.08755787 173 177 182
0.134288851333155 -0.0746986682943666 -0.0166586947780388 0.9828172 -0.1827875 0.02567198 190 192 197
0.136786976506603 -0.0705688203278368 -0.0165845944872163 0.9288688 -0.329375 0.1694549 167 174 167
0.137065671050489 -0.0694751755374833 -0.0155484787405456 0.9455066 -0.2463747 0.2128774 174 174 177
0.116856932852395 -0.0480061909050938 0.0012172631557722 0.7016802 -0.2130363 -0.6798974 173 175 183
0.134581745292428 -0.0745403896414359 -0.0248532123755109 0.9611877 -0.2653888 0.07541152 157 160 167
-0.117660299667914 0.0815407308432141 0.00194175974364086 -0.01103726 0.8500568 -0.5265754 116 122 117
0.135651546280241 -0.0720452396324888 -0.0252136336898599 0.9506461 -0.2811536 0.1312426 151 158 160
0.135669872628367 -0.0705859846775725 -0.0210561491610206 0.9438338 -0.2762764 0.1812434 181 185 187
0.136685082516212 -0.0678598140456538 -0.0211866386074535 0.9469379 -0.3011608 0.1122979 179 184 188
0.117156640172626 -0.0772571784906285 -0.0216845792523572 -0.04105493 0.8891705 0.4557306 185 192 193
0.116798522603224 -0.0746381752430401 -0.0174251714400641 -0.3428124 0.9346083 0.09479938 180 184 183
0.124005363745175 -0.0729997563400019 -0.0229534331930551 -0.1301131 0.8364634 0.5323529 194 203 212
-0.107947423748461 -0.0291906047334106 -0.0219708842355967 -0.1228693 -0.6225048 -0.7729107 176 183 189
0.121562261116831 -0.0691243409254385 -0.0209424932275593 -0.197022 0.9584582 0.2062525 183 189 191
0.136000953584787 -0.0689402117191152 -0.0110787164245699 0.9570132 -0.1207558 0.2637114 173 176 178
-0.15471488875316 -0.0700577243069014 -0.00620316590826725 -0.02887137 -0.5639263 0.8253202 154 159 153
0.129226886407142 -0.0703591027881088 -0.0119135351110739 0.25694 0.5476043 -0.7963111 179 187 181
0.110126907261216 0.0202990304015505 -0.023346973946868 -0.009563806 -0.6952382 -0.7187158 190 197 198
0.0907682693954659 -0.0343533496191543 0.00487257005576403 -0.8450441 -0.3041539 0.4397622 174 177 176
0.126431049382724 -0.0681275262643952 -0.00996158478688486 0.1845371 0.6943045 -0.6956201 184 189 184
0.126341136496486 -0.0659324474657628 -0.0137827574398782 0.8339092 0.5313948 -0.1490472 173 179 181
0.124038529936248 -0.0577584103371668 -0.013385882544893 0.9406228 -0.3094447 -0.1395446 179 186 188
0.118430021670211 -0.0629459464430479 -0.0133398526666473 0.4324849 -0.8779499 0.2053309 179 181 186
0.121302640539663 -0.059874620455521 -0.013108151583223 0.8419731 -0.5269519 0.1157709 188 190 194
0.114636249138859 -0.0830060385260616 -0.0128592258643115 0.5450384 0.5341493 0.6462335 173 181 174
0.108092660509994 -0.0814918749442895 -0.0124339568501899 -0.00848281 0.7056046 0.708555 183 184 181
0.110154729867826 -0.0795807403084836 -0.010644948925832 -0.3594287 0.7198504 -0.5938236 181 183 183
0.110119796630294 -0.0789735134190137 -0.0165155428321142 -0.7785283 0.2733585 0.5649503 188 188 190
0.100411740297732 -0.0856104245188612 -0.0126848273878991 0.3799269 0.2851277 0.879976 182 185 187
0.103967968783955 -0.0292277904959395 -0.00212705539626318 -0.1767248 -0.3382193 0.9243246 170 185 181
0.098160030201343 -0.0796192606038762 -0.0131322872154533 0.9195639 -0.3606128 0.1560788 190 196 194
0.0988607476736469 -0.0764910418525019 -0.0178419119480818 0.7831985 -0.3200457 0.5330768 194 196 202
0.084768032191356 -0.018841620171531 -0.0184223512734664 -0.6840401 -0.6427462 0.3449153 188 189 198
-0.0252910699716258 -0.066300121013105 -0.0258244075900503 -0.09572247 -0.655056 -0.7494924 190 195 203
0.100524540660211 -0.0728984840851564 -0.008966139359182 0.9025215 -0.1085254 0.4167459 188 187 191
0.108994525688606 -0.0764456741828206 -0.0174238279048547 -0.7984273 0.4629399 0.3849682 193 199 200
0.111290763504716 -0.0736661974696466 -0.0168588356874323 0.005772878 0.9953607 -0.09604004 185 194 189
0.061119427200097 0.119531458685856 0.0029013884361298 -0.1243298 0.5468306 -0.8279604 144 142 128
0.0635353743586771 -0.0109092912711896 -0.0269577422861084 -0.1896294 -0.6223077 -0.7594563 189 194 200
0.052305433440212 0.111107193412865 -0.0210004067717984 -0.2725782 -0.294072 -0.916091 173 179 182
0.0981473093140381 -0.0741601676526379 -0.0183198471839817 -0.9077536 0.183966 0.3770146 188 198 198
-0.161032260157617 -0.070044432808137 -0.0149472558513236 -0.1165025 -0.9158551 0.3842353 162 169 173
0.143955031965412 0.0348890237296413 0.0165379193690575 0.9983092 -0.005966996 -0.05781943 165 170 173
0.0985131556364569 -0.0740703715646131 -0.0158427604961163 0.248796 -0.8883955 0.3858161 196 198 208
-0.0554156474211764 -0.0259093906177745 0.0134045890200186 0.6823323 -0.6793348 0.2700498 168 176 170
0.0949234066763591 -0.0698926974294268 -0.0215473135278532 0.2971666 -0.9008182 -0.3165732 189 194 199
0.111392398329932 -0.0657310309590168 -0.0101410537045385 -0.2135622 0.0210382 0.9767029 176 179 179
0.112610997354303 -0.064860670030795 -0.0157950754247781 0.3466509 0.7584984 0.5518273 180 185 189
0.107563792547845 -0.0599570136200991 -0.0124392552623443 0.2943797 0.4426497 0.8469958 187 189 192
-0.105119306313925 -0.0764073934229647 0.0167895842834895 -0.1100806 -0.5779967 0.8085803 107 116 101
0.0979167378381478 -0.0596588098992883 -0.0168157050796427 0.1389806 0.9862695 0.08920185 190 195 206
0.102252434367779 -0.0577810882128939 -0.0115946202246865 -0.3436432 0.8106871 0.4740208 198 203 203
0.0967551716657888 -0.0561781375063613 -0.0126719157909198 -0.4830947 0.1409573 0.8641473 185 188 196
0.13500932826695 -0.0670129336521562 0.00689323925114349 0.9966214 0.03889786 0.0723379 166 172 170
0.135009276068992 -0.0656767955389629 0.00824878665026241 0.9861465 0.1493338 0.07221235 147 151 147
0.135064640082273 -0.0637273121078782 0.0081961620766367 0.9630578 0.2661605 0.04096744 135 137 133
0.135451767664098 -0.0643216019189535 0.00420725766792474 0.9865959 0.1333425 0.09406547 167 169 171
0.136462170983681 -0.0645600742256654 -0.0042864306370739 0.9786413 -0.1440476 0.1466681 170 174 175
0.137600529286807 -0.0615168173707902 -0.00124075567942034 0.9798912 -0.04768587 0.1937503 164 168 167
0.134836572826072 -0.063555205791679 0.00414465650495643 0.9824789 0.1734017 0.06831638 174 172 173
0.134874247342943 -0.0613683679374423 0.00470278130248364 0.9492037 0.3075362 0.06658708 171 172 167
0.0842102672521421 -0.035148531057896 -0.0288576053491217 -0.09652613 -0.5957931 -0.7973163 183 190 195
0.134978933306687 -0.0589155926543534 0.0022063454439914 0.9197696 0.3394175 0.1970269 171 172 185
0.144035403847328 0.0331421587180323 0.012097589735966 0.9976783 0.03608828 -0.05775472 163 169 171
0.123776240527678 -0.0613426240421156 0.000561147292125808 0.978985 -0.1140822 -0.1690378 177 189 183
0.133774198905671 -0.0609586003757828 0.00958356296223212 0.968345 0.2448688 0.04844811 163 167 166
0.00605107601374999 -0.050826385367744 0.0150907288519784 0.2695675 0.6329006 0.7257894 181 180 181
0.1336053805009 -0.0584306456892521 0.00998745006866109 0.9957158 0.09174017 0.01156915 154 158 158
0.0243395847697341 -0.0583875196269514 -0.0276411878174092 -0.1066036 -0.6538545 -0.7490727 182 189 198
0.142639769568479 -0.00966841246380951 -0.01747867049304 0.9054813 -0.3835599 -0.1816189 169 174 180
0.133004131644426 -0.0580369715149602 0.0126064722666927 0.9884036 0.1462155 0.04097965 155 159 159
0.132830658380383 -0.055293626159481 0.0127889306684079 0.9923561 0.1202675 0.02766252 166 171 170
0.12162401724143 -0.0529979071850623 -0.0307623663195967 -0.08213455 -0.6627117 -0.7443569 189 191 202
0.134078545862938 -0.0569994139605267 0.00570096334666614 0.9687278 0.2293877 0.09459257 153 156 155
0.13314296639155 -0.0557073087136247 0.00734645481768192 0.9957972 0.08321118 0.03826134 175 179 179
0.1336184581501 -0.0540189369923114 0.0104148162851279 0.9984065 0.01441762 0.05455828 155 153 157
0.133362474021055 -0.0523433400162929 0.00732781692310502 0.9867929 -0.01250273 0.1615036 173 177 178
0.128157463581771 -0.0501102669580242 0.00929931623665242 -0.1669923 -0.454143 0.8751387 171 173 168
0.118664017047249 -0.0597341735646593 0.00821289144710763 0.872562 -0.0698618 0.483482 183 184 187
0.11701414210843 0.12456599778002 0.0144236757275815 -0.3584363 0.536544 -0.7639659 144 145 133
-0.136382805790306 -0.0111840578315668 0.00723686583983113 0.5201677 0.3206208 0.7915983 165 170 164
0.137598515536121 -0.059982119163638 -7.35923605417743E-05 0.9567866 0.1929592 0.2175455 149 151 154
0.136870386603289 -0.0559590878748491 -0.00110963355227162 0.8970932 0.382977 0.220346 165 168 171
0.131559427978146 -0.0569564396952703 -0.012356997720074 0.005190979 -0.417388 0.9087135 195 199 212
0.122502106833682 -0.058165216233889 -0.00742734655241173 0.7262055 -0.5189083 0.4509543 165 173 172
0.134775689482506 -0.0526728754996749 0.00398936339132522 0.9709095 0.119566 0.2074576 168 171 171
0.109845492865299 -0.0107579358682281 -0.0283715210205167 -0.1037684 -0.6612198 -0.7429808 192 195 208
0.135369933506778 -0.0540832864931111 5.47922422389768E-05 0.9326581 0.2984312 0.2027011 182 181 185
0.135776546445787 -0.0509849764354444 0.0033444704139915 0.9628454 0.07843965 0.2584105 146 150 159
0.135953777782343 -0.0501214139033423 0.00135766257996384 0.9698976 0.09218555 0.2253897 163 165 166
0.134612443707363 -0.0498416555405026 0.00654816385399132 0.9627616 -0.06480239 0.2624706 165 168 166
0.135546609619382 -0.0455379286375169 0.00544862579688904 0.9842263 -0.0127739 0.1764522 161 164 166
0.135495576691895 -0.0508540625374823 7.84324904629652E-05 0.958328 0.1343637 0.2520988 180 184 187
0.135742120843949 -0.0461904253367022 0.00291857334885542 0.983687 0.009328422 0.1796467 168 172 172
0.136940664039264 -0.0456769119205949 -0.000217519858762449 0.9353937 0.1283707 0.3294839 171 174 177
0.136734930997707 -0.0432739129925174 0.00227771519808972 0.9673168 0.04218307 0.2500377 168 173 172
-0.166053155248353 -0.0680544362939748 0.000933954671717419 0.1458924 -0.5440984 0.8262399 136 142 142
0.127053890505169 -0.0527159230096652 0.00590273788648349 0.002994048 -0.7845228 0.6200927 162 174 173
0.127607057095766 -0.0465239887998006 -0.000261605900178374 0.1902854 0.9799114 0.05970899 173 176 179
-0.182667904906291 -0.0413742599568453 -0.00242756044182973 -0.9888326 0.1263394 -0.07904742 177 179 178
0.0817138576316914 -0.0439941537520239 -0.0148993801538426 0.7777194 -0.2923141 0.5565115 188 186 193
-0.0736278386320779 0.0780077521439873 -0.0176997413931719 -0.141201 -0.6837837 -0.7158925 163 171 175
-0.0205172769531858 -0.0155059053694792 -0.0246795447233721 -0.08376674 -0.6406474 -0.7632523 184 191 192
0.108120842075537 -0.0637360352869631 0.00835774912828607 0.7445632 0.3564163 0.5644405 187 191 191
0.112357221047348 -0.0600859080076193 -0.00052944703998431 -0.07002173 -0.7242094 0.6860158 175 186 186
0.104589063483711 -0.0669595184309336 0.0003035267541317 -0.6258618 0.4338329 0.6481404 184 190 190
-0.0064501871240481 -0.0719352159780198 -0.0272435462763823 -0.07550389 -0.6654162 -0.7426443 187 193 201
0.100965269870255 -0.0595882520142947 -0.000214932501344467 -0.6794735 0.1950957 0.707286 172 181 178
0.0952880453348202 -0.0593689291258623 3.3659339244263E-05 -0.9819882 -0.172494 -0.07710405 188 192 188
0.08880518522059 0.000286347283828758 -0.0275014318810652 -0.1271369 -0.5416703 -0.8309209 181 186 196
0.128611659307347 0.0134208302301611 -0.0280669457410328 -0.1027563 -0.6551788 -0.748453 188 193 202
0.108488742421346 -0.0563580251498844 0.00639387560004251 -0.1979195 0.7432068 0.6391177 179 180 178
0.114392946560878 -0.051165798302844 0.0111056666980704 -0.006058407 0.2956654 0.9552724 166 178 176
0.111141284508937 -0.0563382434170249 -0.0306309332040012 -0.08480906 -0.6716081 -0.7360367 177 183 189
0.101719207292266 -0.0572873794609206 0.00647615926336736 0.254122 -0.5700743 0.7813049 176 183 181
0.0956877562927427 -0.05608119119768 0.00516110206307868 -0.5950426 -0.5102434 0.6209475 177 186 174
0.0992990751953073 -0.0517767760913657 0.0115929338849977 0.233754 0.933446 0.2720985 173 179 171
-0.167300703777361 0.0504744137691716 0.0238793817324667 -0.9841935 0.1763506 -0.01623436 142 147 147
0.115427120431243 -0.0518723497088271 -0.00263870446522713 -0.3464617 0.6880753 0.6375866 163 167 161
0.109965804880358 -0.0516711652154154 -0.00706779447058192 -0.6825224 0.4384315 -0.5847573 164 170 160
0.0945123044883542 -0.0585912037482275 -0.00776412512045049 -0.6308239 0.7632081 -0.1399096 191 193 195
0.105468325129469 -0.0544969008496101 -0.00149131425524268 -0.7640625 0.521077 -0.3803777 167 174 167
-0.00280915581135388 -0.0911572812776069 0.00067711628789785 -0.2010379 -0.3587399 0.9115313 136 145 127
0.0956777114975369 -0.0518015392909353 -0.00736876977990453 0.1721779 0.2415426 -0.9549932 178 186 186
0.115487930715643 -0.0482258451754002 0.00866789039180443 -0.305866 0.9172047 0.2553068 175 179 178
0.107500567623828 -0.0513727909509398 0.00625018977311648 -0.7698587 0.6309697 0.09589013 181 186 184
0.0199179167290626 -0.0317804920732317 0.0192166831966629 -0.08104222 0.6713821 0.736667 177 176 179
0.112692544360179 -0.0464756519468577 -0.0010246194834444 -0.2287186 0.0220247 -0.9732434 160 170 163
0.018664726445828 -0.0601624536439848 -0.0232517688311716 0.1134117 -0.288994 0.9505894 192 195 201
0.105782807215928 -0.046884150296595 0.00339333428350136 -0.954928 0.2337131 0.1830044 181 177 182
0.059846916482549 -0.0391626111044042 -0.0280510676495121 -0.1586429 -0.6319872 -0.7585675 190 197 203
0.103730220321563 -0.0489910770606438 -0.000535207886273703 -0.3764863 0.908929 -0.1791815 172 176 170
0.105022301805966 -0.0439520879040028 0.0026004027268044 -0.921192 0.09796643 -0.3765739 167 171 164
0.147163389533257 0.11199426247123 0.00330002188516215 0.9853445 0.06646054 -0.1570961 174 178 181
0.0307066900477457 0.0206967662082561 -0.0246706304700818 -0.1339151 -0.6761905 -0.7244537 180 185 195
0.0777139831226521 -0.000790614184820571 -0.0269662485557889 -0.1136188 -0.6148841 -0.7803898 182 188 196
0.129752700322524 -0.0688639242694115 -0.031827827696204 0.09457846 -0.6397564 -0.7627363 181 190 194
0.150355859924545 0.0474626616503167 -0.0233326198162161 0.8437716 -0.4759996 -0.2479394 175 179 185
0.137750880531602 -0.0653211491366196 -0.023575261097223 0.9014484 -0.2264295 -0.368945 183 190 194
0.135881282052065 -0.0636786114304029 -0.0246028611735721 0.7918566 -0.2295146 -0.5659382 192 189 203
0.0991656132667755 0.0550386423471408 -0.0253201406842122 -0.04718402 -0.6726488 -0.738456 187 193 201
0.132326936138181 -0.0674682303991644 -0.0315734748456677 0.3621355 -0.5349005 -0.7633737 168 173 179
0.130264075668569 -0.0631159216308371 -0.0314594249812871 0.2339551 -0.6016195 -0.7637533 180 188 196
0.127693819140531 -0.0163540787949533 -0.0286440440847691 -0.1770447 -0.6698036 -0.721123 187 192 203
-0.0626646177856058 -0.00245598103121719 0.016803688110348 -0.03393346 0.7686123 -0.6388143 174 188 174
0.133552989760621 -0.059016480365976 -0.0273931561705767 0.8537623 -0.2957726 -0.4284956 179 173 186
0.130123925683157 -0.0603501876758654 -0.0313158400109079 0.2557463 -0.647995 -0.7174234 187 191 199
0.128002704775716 0.0331668671988763 -0.0270677737970009 -0.06862873 -0.6727731 -0.736659 195 200 211
0.125165496565505 -0.0652816425240798 -0.0208113661519085 -0.2117961 0.5669311 0.7960725 188 191 193
0.123454273160546 -0.0670793786141514 -0.0315219008377418 -0.08145773 -0.6660221 -0.7414709 184 189 200
0.122684438516785 -0.0670791133769028 -0.0315134065537493 -0.08768201 -0.6657904 -0.740969 182 188 198
0.145252314916445 0.0476821317781667 -0.0268871829671127 0.261486 -0.7240468 -0.6382644 192 196 207
0.146287336829249 0.0774788991722746 0.0127728640898064 0.9869579 0.08457168 0.1369736 166 172 173
0.126463181318696 -0.0613754868676754 -0.0315709258001894 -0.09316462 -0.6530711 -0.7515441 187 192 201
0.0681744489201994 -0.0430830239695637 -0.028591483324778 -0.07232838 -0.7236742 -0.6863412 194 197 209
0.143909152244016 0.103316076013944 -0.024338032998674 0.1993974 -0.6111022 -0.7660252 195 200 211
0.138100353538967 -0.0591694775311931 -0.0184115733289063 0.9207916 -0.08184467 -0.3813716 164 170 173
0.137464663690906 -0.0611969112365013 -0.0221808199510793 0.8298357 -0.2113136 -0.5164487 175 182 190
0.137814035959494 -0.0580301987689942 -0.0195759079791053 0.9185416 -0.1176639 -0.3774076 171 176 180
0.128916969963262 -0.0595621515196531 -0.0201750205107007 0.5255453 0.4539457 0.7195383 206 218 225
0.138044923803694 -0.057884697873328 -0.0170153085888827 0.9426864 -0.1260076 -0.3089732 174 178 183
0.138037420732264 -0.0548058774757786 -0.0168053073624435 0.9569834 -0.1678468 -0.2366647 166 172 177
0.131343406556997 -0.0565544977241905 -0.0184361626009522 -0.04546126 -0.6219482 0.7817376 206 206 236
0.136386655046361 -0.0561738385146535 -0.0214781282407628 0.8894629 -0.2361596 -0.39126 166 174 178
0.134114569369344 -0.0564051777653612 -0.0270776755931307 0.9125009 -0.2661583 -0.3106474 161 167 174
0.13584798419863 -0.0561483516514761 -0.0239918454338835 0.8743075 -0.2712913 -0.4024766 166 169 174
0.130942844805356 -0.0557271936637705 -0.0249486127341779 0.8442179 0.1928851 0.5000915 186 192 192
0.130989060797572 -0.0193466456701849 -0.0293981566236091 -0.001742204 -0.6557327 -0.7549911 190 196 206
0.129351073155556 0.104434252783114 -0.0237768685693193 -0.1071571 -0.6364317 -0.7638534 197 202 211
0.136925551102276 -0.0522650277723254 -0.0200894882384161 0.9176307 -0.2969329 -0.2641679 172 177 182
0.126007667877034 -0.0615403238074189 -0.0188298081835276 0.8498041 0.2250488 0.4766404 182 192 183
0.00600486435958891 -0.033073361542125 -0.0262559013821875 -0.09071371 -0.6743026 -0.7328622 187 191 200
-0.0543792450130136 -0.0195059921739343 0.0115575899297933 0.9431643 -0.2242939 -0.2452211 159 164 152
0.120551460137502 -0.0531974070072086 -0.018539060636412 -0.5378182 0.5652548 0.6254907 185 187 190
0.130554573948982 -0.0570040840203831 -0.0311674906404252 0.3879272 -0.6187268 -0.6831469 176 181 188
0.126479014905967 -0.0579764610932929 -0.0311679474781904 -0.08947513 -0.6587438 -0.747028 180 186 192
0.124926054643944 -0.0548210233150666 -0.0310076226243439 -0.07348362 -0.665655 -0.7426329 187 193 198
0.117933635666764 -0.0583340875100871 -0.0309684489408419 -0.1569301 -0.673692 -0.722158 182 188 195
0.119271443473208 -0.0564752026178452 -0.0308602519812325 -0.08928344 -0.6738302 -0.7334722 182 188 192
0.118248995764604 -0.0544256067557334 -0.0309524311011471 -0.08602795 -0.6743267 -0.7334049 199 203 214
0.134837061544185 -0.0520715548203352 -0.0253582780383511 0.9134834 -0.3253 -0.244393 173 177 182
0.132859272411047 -0.0532177620948412 -0.0297857340780375 0.714643 -0.5256467 -0.4614986 162 168 179
0.135378421006065 -0.0506410605030004 -0.0242226014243391 0.90876 -0.3613415 -0.2087763 163 170 174
0.136273399379204 -0.0477480510114018 -0.0235084741639781 0.9145944 -0.3708466 -0.1612142 166 174 178
0.133324195215972 -0.0477668487638513 -0.0298784687794006 0.5671753 -0.5573868 -0.6063268 163 168 177
0.133039891948964 -0.0493564181765695 -0.0304845108189154 0.4597279 -0.626547 -0.6293561 159 162 171
0.0673076446133514 -0.0410614128180041 -0.0283697758663206 -0.08597417 -0.6583824 -0.7477573 174 179 187
0.119491125345949 0.0230227208582331 -0.0243204269363012 -0.2486746 -0.4872518 -0.8371061 194 199 211
0.134370166771214 -0.0483344843287988 -0.0291812135975626 0.7275641 -0.4922071 -0.477894 132 138 147
-0.0520120054913169 -0.0339643301977653 -0.0243796636534929 -0.09355669 -0.6564546 -0.7485416 185 190 200
0.118642355000068 0.125322239888831 -0.0173038811897125 0.4627733 0.7863045 -0.4093483 130 135 112
0.122325907234879 -0.0527079020267356 -0.0308228353832857 -0.07177372 -0.6621138 -0.7459583 196 198 209
0.119239418102248 -0.0523203922219278 -0.0306461248815322 -0.0836665 -0.6640794 -0.742966 182 190 196
0.119546262794379 -0.0509326812597451 -0.0245434733972779 -0.2781986 0.8074332 -0.5202471 178 183 188
0.128249355352437 -0.0487370822986293 -0.0310368148769753 -0.01831556 -0.6619332 -0.749339 209 213 221
0.125034242881721 -0.0491926198620716 -0.0307981871395795 -0.08504011 -0.6627212 -0.744022 179 187 192
0.120333879737672 -0.0487463090966354 -0.0306818038534897 -0.1025269 -0.6408383 -0.7607986 181 186 194
0.127257182009971 -0.0446406287363354 -0.0306561094819062 -0.09111718 -0.6206983 -0.778737 183 188 193
0.125305647767305 -0.0444570183871194 -0.030494020372426 -0.05454939 -0.6113027 -0.7895147 184 189 193
0.121245003353269 -0.0440112006221221 -0.0303898774816651 -0.1106737 -0.6278177 -0.770452 180 185 190
-0.121253395914468 0.0285101447029457 -0.0185299518888948 -0.06283006 -0.6518538 -0.7557374 190 195 205
-0.170273232783407 0.0319072995599832 0.0149957934882233 -0.985871 0.165048 -0.02859287 135 145 129
0.0641922969309576 -0.0624722114934583 -0.00925585080901398 -0.3607565 0.3993334 -0.842845 189 194 200
0.108207987106348 -0.0662930542242955 -0.0245586956519099 -0.4280572 -0.6955414 0.5770521 180 183 188
0.11550591633903 -0.0647172115955016 -0.0310284273942508 -0.09577176 -0.6444913 -0.75859 188 194 202
0.103208356087296 -0.0493231851381455 -0.029956056463369 -0.08523191 -0.66076 -0.7457424 193 199 203
0.0613892570476759 0.00330273737346182 -0.0264565188583581 -0.06385178 -0.6685336 -0.7409358 203 228 189
-0.174458113477953 -0.0606640954577456 0.0214489637239105 -0.2479782 -0.5457945 0.8003844 154 162 151
0.110090392872446 -0.0636553520057819 -0.0306066039941463 -0.08973745 -0.6591554 -0.7466334 185 189 197
0.108533668891138 -0.0622874411479298 -0.0308198373349891 -0.07919161 -0.6589722 -0.7479869 188 193 200
-0.0309952363326678 -0.0172201144839545 -0.013108877849362 0.4393048 -0.8505624 -0.2890587 181 178 181
0.110508276673771 -0.0591153158140089 -0.0307137484121001 -0.02452948 -0.6619259 -0.7491678 186 191 196
0.106769242455192 -0.0603629741145641 -0.0306440381272547 -0.08233835 -0.6624048 -0.7446074 186 190 199
0.0467724049453839 0.117163642996813 0.00172615099649326 -0.07156222 0.4965683 -0.8650426 176 177 173
-0.0290984495959561 0.0907090535034305 -0.0189666709727368 -0.1588858 -0.6807137 -0.7151113 139 148 162
0.0961004409302297 -0.0666943283057649 -0.0307933999051457 -0.09363551 -0.6659813 -0.7400684 180 186 192
0.0946478295600357 -0.0666285759682172 -0.030540549355018 -0.07052483 -0.6718919 -0.7372838 186 194 199
0.06267565034932 -0.0546870562152963 0.000228989929457524 -0.6941413 -0.7189224 0.03631024 184 188 188
0.0974769634902193 -0.0626384644663772 -0.0247277184111502 -0.7878017 0.5654656 0.2441661 196 198 204
0.10054618170645 -0.0654809548695611 -0.0305996699324312 -0.06544998 -0.607286 -0.7917828 175 182 187
-0.0492731523687471 -0.0260402980707881 0.00114116465199687 0.7283762 -0.1548112 0.667459 178 179 181
0.0347308529877071 0.112934823027357 0.0137439896282346 -0.1395855 0.5534602 -0.8210955 134 140 123
0.0981570838114438 -0.0640204423188636 -0.0304144123867106 -0.04715718 -0.6269042 -0.7776679 169 176 182
0.094120847835258 -0.0626199092047443 -0.0301539519138391 -0.07510632 -0.6485704 -0.7574401 182 188 193
0.102398580624527 -0.0595132083150418 -0.0303295562168557 -0.09942583 -0.6652133 -0.7400039 172 180 186
0.0988168488575913 -0.0589773095549294 -0.0303640205082028 -0.0476726 -0.6898018 -0.722427 181 187 193
0.0945787997111933 -0.0592079040324257 -0.0302143571353535 -0.09722555 -0.6654828 -0.740054 189 194 201
0.000277940988749892 0.0760253443950905 -0.0202899951199342 -0.1898741 -0.5873427 -0.7867505 143 155 163
0.0234841475378353 -0.0626319174316607 -0.0280195371541007 -0.09355085 -0.6596042 -0.7457684 188 194 203
0.113027649190302 -0.0598499250402248 -0.0194900529765452 -0.1364778 0.9306477 0.3395125 202 201 214
0.110458387562925 -0.0585277667607793 -0.0199324357308843 -0.2758375 0.961202 0.002089817 203 199 207
-0.152484089211284 0.0759374447001062 0.00892696631345474 -0.01090417 0.8606051 -0.5091561 110 113 97
0.114943794580926 -0.0525292994929242 -0.0183294949922876 -0.1062606 -0.2847436 0.9526961 197 197 197
-0.122031635215741 0.0395099214309377 -0.0181644813785605 -0.0064467 -0.592887 -0.8052598 179 187 195
0.0959032359273506 -0.0535004440197615 -0.018744104151418 0.7501996 0.0314544 0.6604629 179 186 189
0.0967923583317762 -0.058064565074662 -0.0234108734166039 -0.9759815 0.1740533 0.1310177 199 194 204
0.112492069555687 -0.0577170495613312 -0.0305601016106796 -0.04753589 -0.679648 -0.7319965 188 192 202
0.109268018096661 -0.056526011549542 -0.0304317245306713 -0.07941508 -0.6626737 -0.7446857 187 191 200
0.1108833163401 -0.0547994543083323 -0.0302902934228409 -0.09220109 -0.6701152 -0.7365084 179 186 190
0.0986981507334306 -0.0544136092527583 -0.0301240431448763 -0.09341075 -0.6574938 -0.7476472 188 193 198
0.109298061353889 -0.0531103756446134 -0.0304430002003019 -0.1220975 -0.6720871 -0.7303364 194 199 206
0.106718153775111 -0.0503795866249176 -0.0300697526029798 -0.07560695 -0.6342995 -0.7693814 186 196 198
0.115259066211343 -0.0490374807885153 -0.0302411615029115 -0.0961723 -0.646571 -0.7567673 186 190 196
0.111388426822573 -0.0492578661763522 -0.0303552464306753 -0.09123509 -0.6443884 -0.7592363 190 195 199
0.1134234145014 -0.0438486651144288 -0.0300263178339646 -0.05453921 -0.6144117 -0.7870983 183 188 194
0.108368493280023 -0.0419125666334587 -0.029811260950405 -0.06207811 -0.6433731 -0.7630317 188 192 199
0.102788523847642 -0.0518769135544765 -0.0300870411821237 -0.08993567 -0.7290708 -0.6785038 193 197 203
