ply
format ascii 1.0
comment File exported by Rhinoceros Version 7.0
element vertex 474
property float x
property float y
property float z
property float nx
property float ny
property float nz
property uchar red
property uchar green
property uchar blue
end_header
0.0360289488641107 -0.0366645368730154 -0.0260207579600619 0.9930918 -0.1075777 -0.04685811 97 97 97
-0.0223951997280456 0.0437308998359849 0.0111325627893009 -0.06200198 0.5503579 -0.8326235 97 97 97
-0.0177654197607499 -0.0223535216211641 -0.0329979999664585 -0.1534739 0.5501339 -0.8208523 213 213 213
0.0239726192038314 0.0281200084905633 0.00692396638428017 0.5533674 0.6080605 -0.5692512 77 77 77
-0.0498759315706303 0.0342760539270157 0.0132328998256213 -0.8476674 0.2522923 -0.4666996 82 82 82
0.0177912604451181 -0.037889375743039 -0.0422461987737366 -0.03593196 0.4019679 -0.9149485 27 27 27
-0.0246584416979498 0.0497128251901342 0.0325316099641428 -0.01080935 0.7282558 0.6852202 109 109 109
-0.00850354779953233 0.0524356357686715 0.030131398710286 0.01503779 0.7558221 0.6546043 108 108 108
0.0376168955106088 -0.0574046300178725 -0.0403777925575828 0.98559 0.1645248 -0.03929328 119 119 119
0.000981373351678805 0.0371896210458309 0.00441045772053428 -0.148886 0.5632091 -0.8127906 46 46 46
0.0360334238001605 -0.0334748297317444 -0.0205137143285103 0.9966966 -0.0758898 -0.02892445 103 103 103
0.0363455097612229 -0.0506810887036185 -0.0459481812954444 0.853936 0.2626109 -0.4492537 99 99 99
0.0342574567783344 -0.0440866293712026 -0.0320919237164961 0.9960276 0.02352198 0.08588185 128 128 128
0.0171031074018345 -0.0359103509706511 -0.0416519488032856 -0.001969744 0.4140505 -0.9102518 27 27 27
-0.0296543067575336 0.039098855966057 0.00873081497560713 -0.1046709 0.4362661 -0.8937091 73 73 73
0.0352658024704137 0.0319502054259129 0.0325126281691844 0.9832296 -0.1430204 0.1131575 97 97 97
0.005898859365146 0.0475006333427617 0.0144109216966566 -0.09914673 0.6714773 -0.7343624 115 115 115
-0.0268678159403739 0.0523612470344812 0.0206547709155076 -0.05925695 0.7615545 -0.6453862 89 89 89
0.00495865983303112 0.00272227463729391 -0.016319449896765 -0.08465966 0.4887738 -0.8682931 238 238 238
0.0191961803536979 0.00871773867993486 -0.00939344944472875 0.3820657 0.4961192 -0.779674 120 120 120
0.0346248986798771 0.0010018391223614 0.00317840524566604 0.9888533 0.1287342 -0.07481141 117 117 117
0.0247083304406437 0.00545897073801127 -0.0104551256361354 0.3381421 0.5313646 -0.7767313 96 96 96
0.0152386778954111 -0.00706752889269757 -0.0216756910836271 0.1867573 0.5648885 -0.8037553 64 64 64
0.0360589886084348 -0.0288737963968559 -0.0169318079703267 0.9774275 0.03552587 0.2082628 51 51 51
-0.0422081223926194 -0.0236053701808117 -0.0161069695827092 -0.6224824 0.1454835 -0.768993 60 60 60
-0.0316193311753385 0.0490726335858922 0.0346373900915119 -0.01838006 0.6852462 0.7280796 86 86 86
0.0114800804524836 0.046174268078933 0.0113379198722294 -0.003207788 0.6366646 -0.7711341 112 112 112
0.0358282687257268 -0.0124491144397021 -0.0134348045900563 0.9659853 0.1036026 -0.2369365 115 115 115
0.038027477642357 -0.0544511559469698 -0.037692214849399 0.9771304 0.2125928 0.004518791 95 95 95
0.00903465777968904 -0.00796625632341619 -0.0236177838155097 0.004497028 0.5621373 -0.8270317 148 148 148
0.0349075763105745 -0.0367274763326531 -0.0401498199337916 0.6608425 0.3348156 -0.6717036 72 72 72
-0.0459055237688422 0.0397936203603813 0.0212676077196245 -0.8292004 0.5417236 0.1377034 61 61 61
0.0255399386937821 0.036879677013977 0.0141745681439345 0.6472784 0.4075029 -0.6441832 106 106 106
-0.0107586647627863 0.0345010056520305 0.00443966936691065 -0.1691161 0.5723352 -0.8023915 85 85 85
0.0207920155802095 0.00965282564510384 -0.00842552074751612 0.4008267 0.5053095 -0.7641991 87 87 87
-0.0330438696811325 0.00845388530272895 -0.00447314805197496 -0.2357996 0.541731 -0.8067999 159 159 159
-0.00871012355806711 0.0111924030781094 -0.00801608814443311 -0.2857427 0.5292807 -0.7988824 247 247 247
-0.0327508224793851 -0.026490437194534 -0.0252765988706619 -0.7197601 0.02822131 -0.693649 115 115 115
0.00331873470473365 -0.0438981569208485 -0.0451791272163793 -0.09090383 0.3277852 -0.9403688 25 25 25
0.0197026752666061 -0.00379226298559798 -0.0174977778435577 0.3711349 0.5083876 -0.7770463 97 97 97
-0.0156534410620279 0.00605044254873954 -0.00910511799630243 -0.2674935 0.5663666 -0.7795358 63 63 63
-0.0232788095402873 0.0478939400203968 0.0137366753901954 -0.07965795 0.6972278 -0.71241 100 100 100
0.0152518349628176 -0.0429174041269764 -0.0437962118914352 0.006781736 0.4085316 -0.912719 23 23 23
0.00927969615724344 0.00397731300550697 -0.016090587221557 -0.03481917 0.4975695 -0.866725 124 124 124
-0.00939713501231765 0.00993030442999832 -0.00907147783125972 -0.2906179 0.5411516 -0.789111 245 245 245
-0.000792297654346186 0.0026129028313211 -0.0156963732065283 -0.09924433 0.500632 -0.8599524 212 212 212
-0.0274185861934814 -0.00789006076575127 -0.0175522261628241 -0.3351317 0.5658551 -0.7533225 162 162 162
0.00387592756906263 -0.0340229015196269 -0.0406335015377842 -0.04827689 0.374326 -0.9260396 39 39 39
0.0357454522706859 -0.0538249163069904 -0.0495940614609744 0.5461604 0.4237893 -0.7225728 72 72 72
-0.0273075527434401 0.0369734315303265 0.00851188245592593 -0.04526737 0.383927 -0.9222532 95 95 95
0.0297820682622673 0.0351132043167453 0.0180971619770831 0.5257367 0.3940311 -0.7538836 126 126 126
-0.018406137727085 -0.0365461513789098 -0.0372737858592003 -0.5096105 -0.1300005 -0.8505275 92 92 92
-0.00186487714992567 -0.0125899208380356 -0.026229885155318 0.00415136 0.6636248 -0.7480541 159 159 159
0.0358469490948573 -0.00550972789085047 -0.00249098315112917 0.9921197 0.09296369 -0.08400115 125 125 125
-0.0375276536951618 0.0449723879279604 0.0134981044413838 0.03690229 0.6342667 -0.7722331 91 91 91
0.0206875928210495 -0.0593760132223806 -0.0510183222110919 -0.3455641 -0.008480487 -0.9383568 42 42 42
-0.0323334413599868 0.0462730177811146 0.0136857587888892 -0.05387055 0.6303724 -0.7744215 75 75 75
0.00772222904114417 0.00966521237460705 -0.0130531723700948 0.01920415 0.4502021 -0.8927202 78 78 78
-0.0130192836187382 -0.00333165283389825 -0.0175661791557735 -0.1911506 0.6052972 -0.7727075 194 194 194
-0.0118227009162637 0.053638953825409 0.0281229694344458 -0.01550225 0.9321911 0.3616345 126 126 126
-0.0202763921195359 0.0529583747684268 0.0202708447784691 -0.0249782 0.7366856 -0.675774 42 42 42
0.00867094488664089 -0.0409193870199895 -0.043596825055889 0.05666931 0.4936219 -0.8678283 34 34 34
0.0337331565607747 0.010873897217434 0.0152117186844096 0.996646 0.01530748 0.08038859 96 96 96
0.0340659457274349 0.0150510553858003 0.0229627440436118 0.9960874 0.08834056 0.002427784 74 74 74
-0.0176939184242098 0.0162296211456487 -0.00194645603582733 -0.1822685 0.4926734 -0.850912 133 133 133
0.00694243432695263 -0.0555542663595725 -0.0464856370096599 -0.2569576 -0.3489576 -0.9012222 62 62 62
-0.0501698062539284 0.0214540557210445 0.0185110341311207 -0.9607223 0.1289579 -0.2457283 89 89 89
0.0248132769269765 0.0547128516554329 0.0239084266096021 0.7701626 0.4429476 -0.4589629 74 74 74
0.0225084780615162 -0.0164927920510691 -0.0273290106467834 0.1612416 0.5339495 -0.8299994 69 69 69
0.00246056978086417 0.0554927466196595 0.0200299261711485 -0.02182485 0.700514 -0.7133049 81 81 81
0.0311467154751192 0.0263761778766678 0.0108363999404082 0.5380031 0.6241296 -0.5665818 113 113 113
-0.033561723320899 0.0179685770720077 0.00156370727438659 -0.213779 0.4842872 -0.8483894 36 36 36
0.0298864482034182 -0.0529627824553103 -0.0492098637425915 0.02846021 0.4335767 -0.9006671 52 52 52
-0.0244271561009143 -0.026815059249131 -0.0344004988928507 -0.4356026 0.3139473 -0.8436157 35 35 35
0.034322643515086 -0.0177376685036692 -0.0251469525460895 0.6006599 0.6054249 -0.5221766 42 42 42
0.0163726266086491 0.0432317872221404 0.0337701844171762 0.06146738 0.5251071 0.8488135 76 76 76
-0.032786348010304 0.0145071290364993 -3.66351965309653E-05 -0.1960678 0.5410009 -0.817848 22 22 22
-0.0236252470480602 0.055639140642499 0.0263742416325885 0.003385969 0.9804221 0.1968783 108 108 108
-0.0140885679686591 -0.00590319770737402 -0.0201380565552488 -0.1373794 0.6386777 -0.7571114 231 231 231
0.0188115178614399 0.0440655575885469 0.03339404225283 0.05727371 0.5031067 0.8623244 54 54 54
-0.0179691145622831 0.0549169713202369 0.0216824372260257 -0.1223273 0.8373205 -0.5328513 102 102 102
0.0380624465700569 -0.0551568679021646 -0.0357834968492379 0.9791461 0.2002637 0.03416855 78 78 78
-0.00622230940382207 -0.00852904146661149 -0.0223198169212422 -0.03421008 0.633735 -0.7727934 44 44 44
0.0253900696971288 0.0526685443405599 0.0218044317874002 0.7330434 0.3770074 -0.5661386 100 100 100
-0.041045397452469 0.0401292925645771 0.0404264511171921 -0.4619669 0.692087 0.554619 64 64 64
0.0141731622684209 0.0487717017824238 0.0132858122123648 0.1276262 0.5619042 -0.8172975 80 80 80
-0.0245527069767867 -0.00777212757764278 -0.0186995299146296 -0.3023201 0.6179237 -0.7257912 128 128 128
0.0349561389432531 -0.0227525569882439 -0.00922631057247403 0.9998838 -0.003175644 0.01490979 63 63 63
-0.0173655046815056 0.0558060811122172 0.022641349412485 -0.1411335 0.9444955 -0.2966641 94 94 94
-0.0360433063447831 0.0121152122950907 -0.00076787491462782 -0.2670361 0.5260097 -0.8074686 180 180 180
0.0124703735981392 0.0396987947600678 0.00639945901817096 0.190257 0.595 -0.7808824 83 83 83
-0.0226593516929993 -0.00274743286606993 -0.0148922967553201 -0.1881219 0.6321433 -0.7516682 221 221 221
0.035004123141315 0.0315604495929422 0.0341872281094042 0.9831139 -0.08777688 0.1605685 108 108 108
0.0250530681258286 -0.0288798676285364 -0.0372568904188342 0.1071823 0.5288919 -0.8418939 37 37 37
0.0368310790791526 -0.0527308604271544 -0.0464959889428742 0.8712181 0.2756651 -0.4061867 112 112 112
0.00578137823522229 0.024700609862085 -0.00332064426269862 -0.08180953 0.5254504 -0.846882 114 114 114
0.0289621520888124 0.037444162296306 0.0183182954661443 0.5164703 0.4142018 -0.7494634 108 108 108
-0.00727518736058186 0.0546809468206644 0.0273582820059587 0.01996459 0.9250035 0.3794338 117 117 117
0.0335345737980931 0.0248224274582987 0.0251860013922802 0.9894032 -0.1428594 0.02593155 90 90 90
0.028100818457453 0.0482440553316537 0.0235139377045558 0.6527483 0.4353795 -0.6199713 101 101 101
-0.00349036829231775 -0.0435554073018594 -0.0443273717715702 -0.3655168 0.2181551 -0.9048789 57 57 57
0.0345244060200793 0.0301360667053763 0.0236495251246969 0.9962978 -0.08481064 -0.01406633 99 99 99
0.0284603117047274 -0.0678512893169112 -0.0509854226382742 0.2043059 -0.5573725 -0.8047329 99 99 99
0.0358490587522732 -0.0394711956818343 -0.0403032617007656 0.8356301 0.2780678 -0.4737095 88 88 88
0.0354512777173807 -0.0483364503460695 -0.0448223327441204 0.811256 0.4010274 -0.4254889 80 80 80
0.0209570080570419 0.0152037893753596 -0.00607605654569232 0.4645472 0.4169951 -0.781224 103 103 103
-0.036572003302712 0.00836085382556018 -0.00332059415984909 -0.273799 0.5310818 -0.8018642 131 131 131
0.00509100441069199 -0.0427824437222688 -0.0450713039589349 0.02190568 0.4744363 -0.8800172 29 29 29
0.00406258814367011 -0.0349864974502907 -0.0404104450435503 -0.04168195 0.3649642 -0.930088 48 48 48
0.0111014134996036 0.0192953780359395 -0.00807891089801804 0.06854902 0.5242349 -0.8488103 61 61 61
0.021656601788383 -0.00675924803746231 -0.0196365983128071 0.317667 0.6283346 -0.7101291 77 77 77
-0.0269838149968744 0.00769627449667309 -0.00652740339537605 -0.1166539 0.5724398 -0.8116061 18 18 18
-0.00759618262348372 -0.0401008038107955 -0.0397688474394013 -0.1555111 0.1801346 -0.9712712 82 82 82
0.00109373595779028 -0.0540596237540909 -0.0442085363028231 -0.4996466 -0.2979056 -0.8133914 79 79 79
0.0248659422357707 0.025704403952457 0.00445475465376022 0.5003575 0.6216448 -0.6026608 87 87 87
0.0287087341501189 0.00476295534081328 -0.00857720900770786 0.4004177 0.4940284 -0.7717523 64 64 64
0.017089625674368 0.0397404526511289 0.0373040454249317 0.04914538 0.5807681 0.8125842 70 70 70
-0.0139716474341112 0.0430662277999787 0.0105671026833457 0.05482216 0.5340033 -0.8437032 68 68 68
-0.0351616086630192 0.0242840989478046 0.00548473591179899 -0.2424961 0.3526453 -0.9037903 37 37 37
0.0361845839849991 -0.0288896177124969 -0.0183282480578963 0.9942594 -0.02512488 0.1040049 75 75 75
0.0196500250227425 0.0240217163396086 -0.000239671111590622 0.4886313 0.484445 -0.7256393 93 93 93
0.0355293360989115 -0.0322302787193418 -0.0298451479657851 0.9901236 0.06557339 -0.1239171 123 123 123
0.0348897738805429 0.00712859809811928 0.0149143299416383 0.9947901 0.07143405 0.07273047 77 77 77
0.0202805960744943 0.0133584031460394 -0.00617679752972933 0.4672215 0.4145606 -0.7809248 102 102 102
-0.0273248691768287 0.000571523272974384 -0.0112403922683766 -0.1795001 0.5929312 -0.7849919 196 196 196
0.0365069474747461 -0.0315494921794317 -0.0187967160305101 0.9965118 -0.04894864 0.06758913 88 88 88
0.0100913617523793 0.0459715025934642 0.0107557525872348 -0.02621696 0.6770505 -0.7354695 62 62 62
0.0135075169586067 0.0580386823769505 0.0205150106374238 0.06067878 0.8944599 -0.4430119 92 92 92
0.0356750099968202 -0.0482097376863798 -0.0370190772599907 0.9689409 0.2335538 0.08127774 101 101 101
-0.00147521418997865 -0.0446929064931632 -0.045178427247667 -0.3187747 0.1411486 -0.9372619 69 69 69
0.0244010421567142 0.0159857961792875 -0.00357835354944025 0.383089 0.4413786 -0.8114356 41 41 41
0.0345751955864881 0.0231366366510979 0.0102141533386422 0.9174427 0.2533529 -0.3067755 118 118 118
0.0163688351604987 -0.0665044189473294 -0.0456269063333761 -0.4678022 -0.3565135 -0.8087393 86 86 86
0.0311824647367097 -0.0663131567547861 -0.0491222721357302 0.4912246 -0.6083555 -0.6233795 91 91 91
-0.0127575994169964 0.0390601604846319 0.00819003610762681 -0.02665379 0.5666249 -0.8235447 70 70 70
-0.0247378927416465 0.0280706238948012 0.00379331197862731 -0.141149 0.2616236 -0.9547932 88 88 88
0.0028894690757586 0.00206631395229473 -0.016479509007218 -0.09472217 0.4709204 -0.8770756 251 251 251
0.0168598575785657 0.0377035296825317 0.00728868286306805 0.5169135 0.4849039 -0.7054563 76 76 76
0.0356942845411619 -0.0160687040864944 -0.00920663088022311 0.9951218 -0.09342442 -0.03169439 76 76 76
-0.00695088804360555 -0.0313442417775656 -0.0382479689447237 -0.06662404 0.3757491 -0.9243235 42 42 42
0.0349094148306357 0.00295866377030873 0.00504124883909052 0.9888144 0.08485351 -0.1226624 117 117 117
0.0198100755180659 0.0334008938233332 0.00581446270692465 0.6303856 0.4913632 -0.6009794 70 70 70
0.00129046623561613 -0.000794844184599963 -0.0188307685418667 -0.08491461 0.4871853 -0.8691605 76 76 76
0.0219490950456792 0.0331470628506345 0.00936214516471856 0.6131486 0.43545 -0.6591146 120 120 120
-0.0270479283024556 0.0156699364399673 -0.000719743749971524 -0.1468123 0.5394122 -0.8291445 208 208 208
-0.0216770296549853 0.0389501848168479 0.041297559741123 -0.007510794 0.5169663 0.8559728 80 80 80
0.0338189470509109 0.00585349956064762 -0.00451557154056659 0.7907456 0.2754136 -0.5466889 114 114 114
0.0342081011609555 0.0245174553048186 0.0306103039101 0.9953046 -0.09026409 0.03494547 110 110 110
-0.0128315051610322 0.0324301047326685 0.00378124218214815 -0.2155191 0.5080815 -0.8339093 66 66 66
-0.0169721878312914 0.00916791968876685 -0.00672060678734532 -0.2348826 0.5465363 -0.8038211 41 41 41
-0.0122168003680233 0.0342528642230731 0.00475698932026547 -0.1816 0.5587793 -0.8091891 84 84 84
0.0172361680957352 0.0272478389974313 -0.000439695343846913 0.4245627 0.5030122 -0.7528116 79 79 79
-0.0341552924308084 -0.0386669075879509 -0.0239196848620977 -0.6102796 -0.007849025 -0.7921472 106 106 106
0.0016931528004811 -0.0218843908225692 -0.0335044030253707 0.0911238 0.5760396 -0.8123268 17 17 17
-0.0195981890624695 0.049116874080487 0.0158764842575791 -0.004846899 0.7830743 -0.6219094 99 99 99
0.0341994939437341 -0.0451087191173785 -0.0273747219731393 0.999238 0.03221233 0.02204002 73 73 73
-0.0289726594238531 0.0102291274166604 -0.00403249308135112 -0.1489633 0.5728499 -0.8060105 109 109 109
-0.033301981106582 -0.0328607471929561 -0.0242623649833038 -0.6283435 -0.03759759 -0.777027 102 102 102
-0.00332996903737959 0.031429078994526 0.00090850196953729 -0.05486966 0.5102498 -0.8582741 102 102 102
0.0116215670204777 0.0104285741906671 -0.0124038198403851 0.1438153 0.4853987 -0.8623834 102 102 102
-0.0516237930539323 0.00810090468421709 0.0144924983831921 -0.8860065 0.2823187 -0.367816 112 112 112
-0.0352245369711931 0.0208986831626292 0.00371262757635094 -0.2462507 0.4494902 -0.8586729 232 232 232
-0.0215705837251354 -0.035291219073917 -0.0355465834785416 -0.5688717 -0.2003276 -0.7976552 85 85 85
-0.0476814917307649 0.0283985794705521 0.032220990591408 -0.9453564 0.1966972 0.2600219 88 88 88
0.0363208171735796 -0.0107909130291468 -0.00537417608014912 0.9990973 -0.01085386 0.04107025 95 95 95
0.0361223013205543 -0.037158611666477 -0.0370527748564939 0.9417397 0.1842329 -0.2813976 92 92 92
0.0358679150675018 -0.0471608438937747 -0.0455237590545364 0.6538038 0.5385721 -0.5314891 105 105 105
-0.0193195168719471 0.0497154315721537 0.0155822997012751 0.004489782 0.8046008 -0.5937992 139 139 139
-0.00986325970982849 -0.0145936701397942 -0.0284214868332773 -0.07771391 0.6300951 -0.7726194 251 251 251
0.0337181743396386 -0.0195523725130873 -0.02755766128837 0.5167187 0.5758972 -0.6335173 73 73 73
-0.038708202729769 0.0537820019572817 0.0236077484752958 -0.5301788 0.8082366 -0.2562499 104 104 104
0.00652128596645851 -0.0341529831886858 -0.0405395758794578 -0.03989311 0.3783388 -0.9248072 36 36 36
0.0351468799518507 0.00933766611459608 0.00160606468328384 0.9750701 0.0511599 -0.2159187 131 131 131
0.0142343935943594 -0.0612959458365527 -0.0460623051754192 -0.452659 -0.2915888 -0.84266 97 97 97
0.011905169407161 -0.0516345446567088 -0.0474287615039126 -0.09480042 0.1110731 -0.9892803 71 71 71
-0.0132941727371866 0.0187333629170301 -0.00130183772549286 -0.2963922 0.4592876 -0.8373808 74 74 74
0.0252758421637632 -0.0539445000247425 -0.0494854161535518 -0.05117968 0.3849716 -0.9215083 55 55 55
0.0264022870244012 0.0268514794609533 0.00545638052136532 0.4902284 0.6232187 -0.6093231 37 37 37
0.00742167039049635 -0.0429058805224001 -0.0451194955124681 0.07611093 0.5250077 -0.8476875 24 24 24
0.0340517441815684 0.0323344995619042 0.0399054304511786 0.7314951 0.07518934 0.6776882 93 93 93
0.0287334564568533 -0.0305733407687434 -0.0372762103636023 0.1026576 0.5568329 -0.8242564 77 77 77
0.0154233856626781 0.0176286345022145 -0.00825478288047043 0.3849598 0.3985031 -0.832467 63 63 63
-0.000504267884233189 0.0535443135271354 0.0182861734888915 0.02579749 0.6334363 -0.7733647 53 53 53
-0.031697091525781 0.0198315293728761 0.0030225683888121 -0.1880007 0.4520668 -0.8719469 135 135 135
0.00524359042386124 0.0527658502073403 0.0185468101622793 -0.06903762 0.5972958 -0.7990442 118 118 118
-0.0010974552377786 -0.0326785002213517 -0.0392297872452375 -0.07078496 0.3262054 -0.942645 26 26 26
0.0276413857379282 0.044260819045836 0.0199993355496761 0.603925 0.3900098 -0.6951021 77 77 77
0.0163999580654973 0.00167457054811737 -0.0165223146190727 0.3707907 0.474959 -0.7980778 82 82 82
0.0228280443085807 0.0353495489262914 0.0108764306848004 0.6049501 0.3984949 -0.6893745 63 63 63
0.0249970102915149 0.031238195330807 0.0104640856127558 0.5732826 0.531659 -0.6234466 66 66 66
0.000270417964386094 0.0501805829551494 0.0150175599477845 0.06824677 0.5805618 -0.811351 30 30 30
-0.00262191077714102 0.0181513700768021 -0.00668932062305283 -0.2920411 0.5269239 -0.7981624 42 42 42
0.0341997662832823 0.0396690510686952 0.032367143928027 0.7949861 0.3254232 0.511954 85 85 85
0.004530647231894 -0.0588766783557504 -0.0439343702641053 -0.3142974 -0.4163676 -0.8531443 114 114 114
-0.0490815673062706 0.0200416789748228 0.0174949503596067 -0.9759299 0.122397 -0.1804989 51 51 51
-0.00342870157927833 -0.00370145963406987 -0.0193976333147666 -0.07375348 0.5107783 -0.856543 47 47 47
-0.012087462101709 0.0198787948057881 -0.00115346678692574 -0.3194093 0.4130424 -0.8528621 80 80 80
-0.0122817973859881 -0.0156139535528113 -0.0290797594116815 -0.1079906 0.5953103 -0.7962058 252 252 252
0.0241711466141223 -0.0250771233966984 -0.0338549407246705 0.1401624 0.6713081 -0.7278048 74 74 74
0.0348587629128246 -0.0232674444755285 -0.0132060542816264 0.9936424 0.06459198 0.0922094 80 80 80
0.0182930774178192 -0.0250932320267827 -0.0353059307042198 0.04254409 0.6168345 -0.7859423 90 90 90
0.035486055292148 -0.00468229692542832 -0.00111307716526432 0.9903473 0.07864203 -0.1141386 123 123 123
0.0131663300175417 -0.0141615767515266 -0.0267662599412914 0.125033 0.5573683 -0.8207967 54 54 54
-0.0320695484469258 0.0431321651777523 0.0123896536489863 -0.09964104 0.5850233 -0.8048723 102 102 102
0.0187856644567778 -0.00927005225929012 -0.022162899568165 0.1949707 0.5846223 -0.7875298 75 75 75
0.0230940180409116 -0.0633047441780894 -0.0513539082385249 -0.3614552 -0.2511629 -0.8979239 81 81 81
-0.0210006452242311 -0.0327457758262912 -0.0355512845382715 -0.4507911 -0.01011448 -0.8925722 71 71 71
0.0367017160428689 -0.0479341211688724 -0.0340988136118933 0.9668665 0.2288073 0.1132095 48 48 48
0.0197276332709588 0.0521281031478336 0.0163198972522127 0.3889433 0.4947877 -0.7771153 74 74 74
-0.0270406526090712 0.0522404576721534 0.0299810588162316 -0.003042314 0.7812776 0.6241763 103 103 103
0.0350247637658443 0.0103335688611566 0.0136018411554444 0.9955505 0.03858016 0.08596936 73 73 73
-0.0129426567141933 -0.025154539931918 -0.0347927685456947 -0.08414916 0.4879606 -0.8688 68 68 68
-0.0347417367520385 0.0403675343002705 0.00975474427580769 -0.0647485 0.4671551 -0.8818014 79 79 79
0.0235090222733306 -0.0116092673059589 -0.0238488109782823 0.2186889 0.6480964 -0.7294835 79 79 79
0.00628068552743577 -0.0620639347262564 -0.0428732337825062 -0.3201858 -0.3946603 -0.8612342 109 109 109
0.00269009019188282 0.0177546082278102 -0.00854936594892586 -0.1065201 0.5751027 -0.8111168 98 98 98
-0.016571994856425 0.0499019979076705 0.0171599075923672 0.0282525 0.7733701 -0.633325 64 64 64
-0.0277837421147467 0.0233643421023684 0.00355423651647402 -0.1864894 0.3533074 -0.9167309 248 248 248
-0.0116719073582855 -0.0275213255960456 -0.0364459485200677 -0.08544673 0.4393909 -0.8942229 63 63 63
0.0100246038451326 -0.00537954328459311 -0.0216673690163389 0.03467332 0.5144306 -0.8568307 196 196 196
0.00140750506988574 0.0027252175914092 -0.016723417239789 -0.07888002 0.4664207 -0.881039 252 252 252
-0.0446835296821012 0.0311717980522037 0.0113699608294151 -0.4719771 0.0752904 -0.87839 95 95 95
-0.0265285605099218 -0.0312362965858761 -0.0329174255883407 -0.6760175 -0.1807671 -0.7143694 91 91 91
0.0262803077242868 0.0528935008481766 0.0259593779778765 0.6921961 0.6985456 -0.1813797 114 114 114
0.02003718902711 -0.0316940966329524 -0.0385791303115571 0.04837934 0.5200732 -0.8527504 53 53 53
0.0206381847940416 -0.0105621553894213 -0.0234504425779283 0.1807778 0.6216066 -0.7621841 69 69 69
-0.0379208326432321 -0.0279937334883495 -0.0212355952217858 -0.603171 0.05540569 -0.7956852 88 88 88
0.00556546597853713 0.0218908908091207 -0.00530458737065453 -0.1154718 0.5927795 -0.7970438 97 97 97
0.0247135035698601 -0.00761719704364672 -0.0181613492975229 0.3221932 0.6371617 -0.7001547 102 102 102
0.0199074288108647 0.0531851594109018 0.0174890253460029 0.3556949 0.5705446 -0.7402431 98 98 98
0.0355838903244519 -0.0368865614117013 -0.0334047994804619 0.9987316 0.01710928 -0.04735418 104 104 104
0.00174935092326023 0.0391400646900775 0.0392874791192757 0.2121013 0.5266664 0.8231862 80 80 80
0.0357896607041486 -0.0300483168638745 -0.0149777526871993 0.9837164 0.002918598 0.1797041 81 81 81
0.0264772487716544 0.0387353469733505 0.0163196193697301 0.6415588 0.3926336 -0.6589698 85 85 85
0.0240073084719871 0.0456652009811012 0.0175717667986472 0.6664327 0.3336992 -0.6667176 88 88 88
0.034940116133923 0.0266775427170478 0.033527473342218 0.985168 -0.1447877 0.09208958 111 111 111
-0.0078358289573458 -0.00452593823639424 -0.0195665723182362 -0.09047745 0.5674209 -0.818442 82 82 82
-0.0227280320176902 -0.0314438841065439 -0.0356123421837343 -0.4311825 0.04557765 -0.9011128 71 71 71
-0.0488566664027438 0.0127068297965849 0.0119954201281232 -0.9105275 0.2588264 -0.3224107 68 68 68
0.0224192453413041 -0.0529702762036477 -0.0489655321504749 -0.07296384 0.3655564 -0.927925 47 47 47
0.0222633032817363 0.0393321758990164 0.0121290170852209 0.5879136 0.4120138 -0.6961337 70 70 70
0.0340116111887923 -0.0450894789577294 -0.0286695329012777 0.9987888 0.03128643 0.03797467 85 85 85
-0.0157482284206789 0.0355787412818118 0.00630094796083558 -0.1073303 0.5164436 -0.8495682 100 100 100
0.0116432878839494 0.0560993785869963 0.0194671572461997 -0.06642966 0.8165633 -0.5734208 73 73 73
0.0304362107206626 -0.0378305386826785 -0.0417515067109038 0.1875801 0.4796796 -0.8571588 68 68 68
0.0151266028488646 -0.00307885825187171 -0.0192052723370983 0.3049652 0.4914538 -0.8157631 67 67 67
-0.0322927733276617 -0.0266802934273587 -0.0248497382524414 -0.7250034 0.02213323 -0.6883896 110 110 110
0.0132346413719495 0.0102709483590082 -0.0118686890844344 0.2407154 0.4866684 -0.8397678 87 87 87
0.0320127639776495 0.0315562064057839 0.0158829639954473 0.5844551 0.5440354 -0.6020281 92 92 92
0.019858683563537 -0.0332024998255271 -0.0399910469708115 0.04694542 0.5086386 -0.8596993 56 56 56
-0.0409698093967424 -0.00624134098331197 -0.0106422919101932 -0.3938053 0.4231567 -0.8159999 45 45 45
0.0270569897219548 -0.0532473458790288 -0.0491938850454633 -0.04324815 0.4018806 -0.9146702 47 47 47
0.022724042302784 -0.0513179722391368 -0.0482711200175352 -0.0543995 0.3968681 -0.9162622 43 43 43
0.0216041406451755 0.0415201464927739 0.0356248849690628 0.1272774 0.5867338 0.7997149 60 60 60
-0.0127028901039518 0.053169122639753 0.020379636492954 -0.0714096 0.6823609 -0.7275193 102 102 102
-0.0423824762787002 0.0336529564119432 0.00963936837479751 -0.3990346 -0.02093993 -0.9166967 106 106 106
0.0335890024414766 -0.0317228364001123 -0.0373795137556252 0.5643132 0.5267951 -0.6356394 63 63 63
0.0252528872812211 0.0523735952972053 0.0243296549647087 0.7442061 0.4750645 -0.4695435 94 94 94
-0.0388294019694058 0.0491977810757738 0.0170392846645333 -0.3525814 0.790741 -0.5004149 73 73 73
-0.025057377548894 0.00727436044873508 -0.00696577088746553 -0.08958227 0.5700309 -0.8167251 56 56 56
-0.022619653171902 0.0442915744070884 0.0365216614766732 -0.007591934 0.5885647 0.8084145 64 64 64
0.022732443200394 0.0242263410253694 0.00122034155565887 0.5152083 0.5258539 -0.6767851 64 64 64
0.0362672129678311 -0.00724107313406464 -0.00782337069209782 0.9844925 0.1615532 -0.06837393 80 80 80
-0.0142802414720846 -0.0161792499780611 -0.0288438139759234 -0.1300141 0.5933464 -0.794378 136 136 136
-0.0453091691293058 0.0439287067249603 0.0136422326759849 -0.6750563 0.5516666 -0.4898601 62 62 62
-0.00892416119529149 -0.0153141928427227 -0.0288894656395083 -0.04867747 0.6343589 -0.7715045 228 228 228
0.0381842912937969 -0.0575076301729633 -0.0434255593549429 0.9864116 0.0923911 -0.1358534 116 116 116
0.0263120137653743 0.0277778304872935 0.00833767810019959 0.5084064 0.6544149 -0.5597 94 94 94
0.0221998614036383 -0.0546584727124126 -0.0497385454084681 -0.1039056 0.3194326 -0.9418951 56 56 56
-0.00197059067751404 0.0364118515329881 0.00457915779258922 -0.1128022 0.5571067 -0.8227441 77 77 77
0.0293806327581783 0.00284303613377124 -0.00940276736611256 0.4336973 0.513078 -0.7407143 65 65 65
-0.0202005324658595 -0.0147237774541229 -0.0268669510695047 -0.2150836 0.5921389 -0.7766019 74 74 74
-0.0496164370874363 -0.00716897615103607 -0.00437652771192132 -0.7376351 0.2003303 -0.6447963 116 116 116
-0.00131976727428751 0.0326319890134976 0.00160688743347759 -0.09134195 0.5247889 -0.8463175 102 102 102
-0.0514525999898738 0.0252324626834934 0.0254253352115621 -0.9948885 0.09218394 0.04121956 111 111 111
-0.0176884857137681 0.0536993103583516 0.0292047975129738 -0.006838832 0.8257792 0.5639521 98 98 98
-0.0138543652138816 0.0484339908547404 0.0340073256686038 -0.03389592 0.6987094 0.7146022 99 99 99
0.0329271331336245 0.010165752847618 -0.00356629122694629 0.6403261 0.473404 -0.6048728 91 91 91
0.0186700474023903 0.0423949638248395 0.0129762029069096 0.5422241 0.4326254 -0.7202973 135 135 135
-0.00807882131747484 -0.0289872064404373 -0.036859597937962 -0.1028196 0.3809591 -0.918857 47 47 47
0.0353513833887162 0.010629049506802 0.0100048648129627 0.9922079 0.0234333 0.1223693 98 98 98
-0.0147665702654133 0.0528626274263893 0.029524420511356 -0.01814925 0.7774367 0.6286993 102 102 102
-0.0121478923759443 -0.0197936806229515 -0.0314029750186606 -0.1064353 0.5742932 -0.8117012 196 196 196
0.00276186009394963 -0.0140730291557833 -0.0279693260384782 0.005004197 0.6400825 -0.7682899 147 147 147
-0.0352293588341901 -0.0110104321831019 -0.0150845908639003 -0.3640612 0.5157714 -0.7755252 149 149 149
0.0297472548757006 -0.0446876665573133 -0.0457479424624903 0.09693866 0.4409465 -0.8922831 37 37 37
0.0343968768157847 0.000161300405825626 -0.00582038441036559 0.9166853 0.2572764 -0.3057725 107 107 107
-0.00703027442542659 -0.0332297066678291 -0.0396538942774578 -0.05851714 0.3534188 -0.9336331 30 30 30
0.00191522073745887 -0.0341734391450721 -0.0398551326438937 -0.04972873 0.3394456 -0.9393103 63 63 63
0.0288412169399017 0.0330326251506567 0.0163441269639107 0.5924464 0.4287205 -0.6820601 140 140 140
-0.00453627194479189 0.0413932110648918 0.0394204597716412 0.1416157 0.5074307 0.8499759 53 53 53
0.000297372204515089 0.0458266498645121 0.0134332053518055 -0.02346026 0.6145816 -0.7885043 136 136 136
0.0267462664396021 0.034526384192644 0.0135495802386849 0.6155469 0.4211945 -0.666106 119 119 119
0.0357781014657321 -0.00974691260909477 -0.00322617206944442 0.9995207 0.002833583 0.03082836 97 97 97
-0.00547365570375757 0.0466548263130793 0.0133800376680268 -0.06341429 0.5801157 -0.8120618 93 93 93
-0.0512011872667713 0.015695262995465 0.0196201427141178 -0.9220979 0.2722214 -0.2750109 58 58 58
-0.0401694420951196 0.0538699028569665 0.0241885780199262 -0.6453301 0.7035769 -0.2975375 110 110 110
0.0367028398685085 -0.0241636908729064 -0.0214530016841372 0.9869868 0.1559669 0.03913212 97 97 97
0.0335299414300565 0.0130588342026869 0.0196858097219923 0.9962936 0.06629228 0.05481233 95 95 95
-0.0311545682564328 -0.0384293723742783 -0.0245996166436282 -0.6306786 -0.07987977 -0.7719221 107 107 107
-0.00322975563871752 0.0377092313915286 0.00579527980401906 -0.1180898 0.6055215 -0.7870187 119 119 119
-0.0236308308226958 0.0309611278443045 0.00558171416407216 -0.08697873 0.3156627 -0.9448766 54 54 54
0.00139367530195689 -0.054749935923684 -0.0440325050828859 -0.4986923 -0.3242372 -0.8038508 80 80 80
-0.049461682032963 0.0340479977552006 0.0148392113286397 -0.9143518 0.1883902 -0.3584271 83 83 83
0.0142141211836432 0.0104215408846724 -0.0115294963363628 0.2863203 0.4579231 -0.8416217 101 101 101
-0.0318698776481356 -0.0355558113241363 -0.0263463526404035 -0.6497579 -0.09784079 -0.7538182 113 113 113
0.0346735683742686 0.0269106836660959 0.0285031474564427 0.9890422 -0.14626 0.02008726 82 82 82
-0.015904956364192 -0.0262863140132901 -0.0351494841308523 -0.1030241 0.4807766 -0.8707697 56 56 56
0.00861366008749087 0.0283339337597892 -0.0015453736929516 -0.04653269 0.4907394 -0.8700629 81 81 81
0.0356476517023623 -0.0353341806928074 -0.0188322916782759 0.9962564 -0.08263932 0.02537599 117 117 117
-0.0485898994918939 0.00106732961843314 -0.00390505292491494 -0.5450376 0.3440086 -0.7645863 109 109 109
0.0116680128459384 0.00663186467817023 -0.0146201919654605 0.1049451 0.5490925 -0.8291466 73 73 73
-0.0185310719563834 0.0201370771944207 0.000314218405927491 -0.1927791 0.4099474 -0.891504 38 38 38
0.0195291293763058 -0.016802283297521 -0.0275847020261497 0.1416382 0.5548898 -0.819778 75 75 75
-0.00966022611885309 0.0521124824174355 0.0193909194397404 -0.1493784 0.6340041 -0.7587653 66 66 66
0.0357028393823376 -0.0287001128004847 -0.0253169440623948 0.9908119 -0.06796307 -0.1169307 143 143 143
0.0176204591317873 0.0346980603935327 0.00526455582174401 0.5744451 0.494043 -0.6526365 95 95 95
0.0180256564904123 0.0430249300589016 0.0116946939389428 0.4626839 0.487745 -0.7402894 58 58 58
0.0359516510429743 -0.0447939395016721 -0.0403553728367796 0.9714552 0.2011185 -0.1258025 72 72 72
-0.0177145360724429 -0.0186664604232643 -0.0301298327878951 -0.1679568 0.5744727 -0.8011065 94 94 94
0.0200281107105927 -0.0251609363680285 -0.0344314698385453 0.04278163 0.6198489 -0.7835541 71 71 71
0.00453633439006706 -0.047245953233546 -0.0470872567490185 -0.0963747 0.1898093 -0.9770795 55 55 55
0.00412756386270219 -0.0114403104387615 -0.0253987753027098 -0.03938238 0.6255414 -0.7791963 196 196 196
-0.00764395925861205 -0.0103956976128798 -0.0243400562470398 -0.02837897 0.6930994 -0.7202832 44 44 44
0.010284554391901 -0.00492089882495983 -0.0216398943054388 0.05092136 0.5208645 -0.8521193 142 142 142
-0.041584440236528 -0.027311128649556 -0.0179105265930931 -0.6308518 0.1003861 -0.769382 82 82 82
-0.026494884569577 -0.0317101593178559 -0.0313717039196977 -0.6796769 -0.1847044 -0.7098758 88 88 88
0.00229411000806423 -0.0293353273793759 -0.0388477441270345 0.01782719 0.4282163 -0.9035004 24 24 24
0.0307080842945121 -0.0259523856288844 -0.032782750868804 0.3938207 0.6051264 -0.6919012 87 87 87
-0.0249716014613472 0.0436524888743279 0.0388415071618531 0.008704634 0.5510056 0.8344561 59 59 59
0.0062570008366315 -0.00386106545966292 -0.0202803914104036 -0.07392301 0.5028782 -0.8611904 190 190 190
-0.0176515762538262 0.0555726939808765 0.0218513083294104 -0.13609 0.8447779 -0.5175227 60 60 60
-0.04324295858824 -0.0199149239978056 -0.0145127026824731 -0.6138315 0.1787252 -0.7689397 105 105 105
-0.00570031396368043 -0.0154471753818051 -0.0295781046021301 0.01657472 0.6361111 -0.7714194 155 155 155
0.0356090728852111 0.0355448608636473 0.0225931219346521 0.9398208 0.03065361 -0.3402899 83 83 83
-0.0291905939531045 0.0172217671366539 0.000524401296242205 -0.1817697 0.4839422 -0.8560138 73 73 73
0.0214523573901944 0.0137954580202844 -0.00573478902798419 0.4587332 0.4180965 -0.7840658 117 117 117
-0.0335782529965103 -0.029644370172313 -0.0242814247840565 -0.6614501 -0.02571694 -0.7495481 94 94 94
-0.0310151967982447 -0.000824539610152941 -0.0108697854478937 -0.2654238 0.5346984 -0.8022767 34 34 34
-0.0493127391790427 0.0312806567981714 0.0239982735589988 -0.9570039 0.2238156 0.184527 86 86 86
-0.036469115563765 0.0192371857732185 0.00393959903848662 -0.2692857 0.4542455 -0.8492033 244 244 244
-0.00747242536623816 0.00839000354051778 -0.0104224105862385 -0.2738925 0.5601162 -0.7818266 209 209 209
-0.0244832135306676 0.0519252238839609 0.0198992064165318 -0.04516836 0.7506819 -0.6591179 88 88 88
0.0358914899473488 -0.0357774324143514 -0.0210465673934015 0.9938164 -0.08972797 -0.06540486 111 111 111
-0.00258813918240697 0.0158428836854303 -0.00766969090484992 -0.3174515 0.500003 -0.8057428 27 27 27
-0.0288804345667183 -0.0084811473994173 -0.0169768167460964 -0.3574798 0.5505061 -0.7544211 116 116 116
-0.00570740798579705 0.0240567445612063 -0.00155015977328254 -0.2396069 0.4171729 -0.8766729 60 60 60
-0.0419488660539454 -0.00810311759492155 -0.0106136420644503 -0.4382001 0.4391625 -0.7842939 37 37 37
-0.00409185094805897 -0.0504464025494464 -0.0409783553917938 -0.5467101 -0.3052201 -0.7797107 83 83 83
-0.0370355756306555 -0.00425026225325031 -0.0109600715341198 -0.3223921 0.4535182 -0.8308938 211 211 211
-0.0391512628329025 0.0126797488830779 -0.000556573606187882 -0.2646465 0.5282961 -0.8067623 229 229 229
0.00705315370988313 -0.00484889018543444 -0.020721278563627 -0.06405775 0.5007305 -0.8632298 229 229 229
0.0337772489123354 0.0335684876962956 0.0367735497521353 0.9460686 0.107492 0.3056137 106 106 106
0.0357547327037345 -0.00175807294287322 0.00718672722750446 0.9747244 0.2048994 -0.08904242 102 102 102
0.00252060462408321 0.037399987075097 0.0391186683598942 0.2121013 0.5266664 0.8231862 100 100 100
-0.0365261167439613 0.00232756626423725 -0.00713598812418659 -0.2682391 0.5061927 -0.8196443 101 101 101
-0.0417768130174975 0.0101503564644208 6.21592824288086E-05 -0.2973795 0.5325332 -0.792448 57 57 57
0.033574452562511 0.0197396418832718 0.026879319267868 0.9998861 -0.005605642 -0.01401217 110 110 110
0.0269151202058497 0.0505456488765266 0.0242901955448778 0.6746805 0.4234975 -0.6045297 100 100 100
0.0342293474110644 -0.00733302260432533 -0.0147737260392775 0.7203423 0.4614594 -0.5178438 115 115 115
0.0217463557640061 0.0307783074347934 0.00789386655509972 0.6083236 0.5562496 -0.5661527 132 132 132
-0.0298102457948628 0.0388655027729852 0.039764215657038 -0.002565115 0.5268412 0.8499599 55 55 55
0.0147328495591553 0.044551557388798 0.0105737109504751 0.308138 0.5160224 -0.7992321 92 92 92
-0.0492549339417749 0.0168968563178276 0.0149717950262345 -0.9239653 0.235917 -0.3010502 64 64 64
0.0265050775266417 -0.0123344903545641 -0.022124769222313 0.272532 0.6840955 -0.6765646 111 111 111
-0.00543803508405971 0.0428875297298001 0.0388010862005532 0.1260415 0.5279388 0.8398774 40 40 40
0.028975980939514 -0.0579947329169042 -0.0517955098602855 -0.004442456 0.3331603 -0.9428598 61 61 61
0.0173311694665417 -0.0655312965930543 -0.0475960740263913 -0.4626233 -0.3216737 -0.826139 89 89 89
-0.041880947861903 0.0436773434875868 0.0248598619092062 -0.8630382 0.4880468 0.1302893 116 116 116
-0.0402123644628947 -0.0205726857170059 -0.0184818000857229 -0.6019047 0.2099641 -0.7704712 119 119 119
0.0344223427513297 0.0245767630660478 0.0299143606906817 0.9957491 -0.09196986 0.00503622 74 74 74
-0.0322282385569583 0.0546570833146331 0.0235915705421161 -0.05859774 0.96245 -0.2650592 128 128 128
-0.0255581391349402 0.0456135189154232 0.0127694967096813 -0.1030903 0.630975 -0.7689232 113 113 113
-0.0107359779567702 0.00180416326454358 -0.0145756816436979 -0.2456464 0.5750281 -0.7803848 242 242 242
-0.0307570346463217 -0.00359740865740821 -0.0130542204076254 -0.2971327 0.5293965 -0.7946392 16 16 16
0.00429254834455461 -0.0179508758482139 -0.030897464264694 0.02400479 0.5826818 -0.8123458 44 44 44
-0.00396161703993236 0.0107856899192442 -0.0107393491548003 -0.29411 0.4909066 -0.820067 36 36 36
0.00505298627025585 -0.0158547361092605 -0.0291873531581879 0.02524666 0.5998901 -0.7996839 39 39 39
-0.0345397793122533 0.04326253111791 0.01256857535736 0.01396524 0.6066061 -0.7948799 115 115 115
0.0234570459185897 0.0219147452367867 -9.74570016429865E-05 0.4565257 0.523896 -0.7191086 67 67 67
0.0353044396617848 -0.0403736622780595 -0.0345693178383796 0.9977788 -0.02109728 0.06318488 107 107 107
0.0220051343910999 -0.0328920624282092 -0.0396941462063909 0.06924246 0.5063491 -0.8595441 65 65 65
-0.0154543330339617 -0.010418278922331 -0.0239056949894605 -0.1077737 0.6745115 -0.7303554 246 246 246
0.00480367244308366 0.00440977723128877 -0.0148710853003415 -0.06734396 0.466453 -0.8819786 141 141 141
0.0268948636445099 -0.0615146964362663 -0.0535877785136893 -0.09352399 -0.1103525 -0.9894825 65 65 65
-0.0488492985603496 0.00952223009445841 0.00869760974502731 -0.89878 0.2798184 -0.3374852 71 71 71
-0.0452807629804155 0.0421398084213531 0.0140109529419566 -0.7754358 0.4448263 -0.4481394 40 40 40
0.00237792487081068 -0.01141909267935 -0.0255741669268622 -0.04946458 0.6380959 -0.7683663 221 221 221
-0.0134411264620015 0.0410128908784182 0.0404870568432935 0.001747967 0.5153565 0.8569741 68 68 68
0.0248764023531346 0.0436841760649842 0.0176195507833921 0.6367823 0.3895128 -0.6654232 88 88 88
0.024806189618682 0.0354375741812254 0.0385745011863005 0.1971404 0.5867361 0.7854148 43 43 43
0.0137506544098225 -0.00910886732662974 -0.0235903935245172 0.1443537 0.5522959 -0.8210549 90 90 90
0.00166807121847845 0.0465135553431961 0.0134962217605483 -0.000994113 0.6435043 -0.7654418 64 64 64
0.0352351646061566 0.0082816124999503 0.00977584700522549 0.9943416 0.01967555 0.1043918 126 126 126
-0.018589847505404 0.0504841343796352 0.0319507293449312 -0.01402682 0.7328103 0.6802884 84 84 84
0.00292735700308988 -0.0558671469878691 -0.0443190699963203 -0.3844759 -0.3690943 -0.8461369 66 66 66
-0.00446664628937576 0.0207113433493613 -0.00368961357287745 -0.2385348 0.4886322 -0.8392495 49 49 49
-0.0268913833448433 -0.000580456940882268 -0.0122706802762559 -0.1946538 0.5816042 -0.7898395 210 210 210
0.0203059906321706 -0.00804168877902356 -0.0219821931720494 0.2625355 0.6264749 -0.7338966 62 62 62
0.0154670600370882 -0.0284900902775187 -0.0363611758933222 -0.00755855 0.5403191 -0.8414263 71 71 71
0.0176298823780953 0.0357100193756437 0.0399909971911012 0.0459344 0.5796884 0.8135425 122 122 122
-0.0438342970011021 -0.014852611829707 -0.01445675932865 -0.5489555 0.3202794 -0.772055 106 106 106
-0.0228229995357749 -0.0202863430812397 -0.0294546533166404 -0.2926385 0.5514674 -0.7811828 223 223 223
-0.0493936168015323 0.025171875690988 0.0106509098922085 -0.8831291 0.1499496 -0.4445202 68 68 68
0.00325452110165969 0.0467814431272169 0.0135271941744934 -0.0005696744 0.6489542 -0.7608273 75 75 75
0.0165068722011741 0.0161542006950968 -0.00786030085064371 0.4331088 0.4145296 -0.8003637 53 53 53
-0.00137678230338434 -0.023572918664243 -0.0348952195741223 0.01496467 0.5562881 -0.8308547 15 15 15
-0.0231939225185976 0.0066593776935655 -0.00753957505670266 -0.08917934 0.581493 -0.8086488 98 98 98
0.0179724376890733 -0.00101903899836153 -0.01725109372456 0.3927668 0.4638115 -0.7941115 100 100 100
-0.0275877446499246 -0.0353419547117371 -0.0289136510091732 -0.6817501 -0.1903533 -0.7063869 101 101 101
-0.0148534394483586 -0.00410952572440504 -0.0180861759681332 -0.1648083 0.6439042 -0.7471449 242 242 242
-0.0237249272716371 -0.0112240907059507 -0.0215995867293394 -0.3362322 0.6301637 -0.6998869 27 27 27
-0.0212622037510288 0.0301420916697253 0.00552496026938565 -0.1602667 0.3332737 -0.9291089 101 101 101
0.000681343141863744 0.0326293244405202 0.00214453440407114 -0.1083703 0.5083488 -0.8543052 105 105 105
0.0343762761617346 0.024047435557045 0.0142993285767614 0.972432 -0.02150752 -0.2321927 114 114 114
-0.0111565106918851 -0.0540779790951573 -0.0362190000163344 -0.5115591 -0.2470427 -0.8229685 122 122 122
-0.0429370607983757 0.0414860475352199 0.0104856603706418 -0.4068626 0.4051007 -0.8187529 67 67 67
-0.0108531560880391 0.0459189235765389 0.0367664878987457 0.01814043 0.6371112 0.7705584 87 87 87
0.0354103249754977 0.0106315570954545 0.00679718410423713 0.9993545 0.01382956 0.03315632 91 91 91
0.0355038025732551 0.0240205365964241 0.0136209771383592 0.9767811 -0.01394542 -0.2137854 87 87 87
-0.0215267527313469 -1.83087134228987E-05 -0.012499022328006 -0.1360711 0.6331716 -0.7619569 38 38 38
-0.0309933515143275 0.00445782143517204 -0.00753867040834333 -0.2268029 0.5361648 -0.813073 109 109 109
0.000204487161395539 0.0458500772469146 0.0340672753297224 0.1870769 0.5714442 0.799033 50 50 50
-0.0386907356639967 0.0482075165610143 0.0346674604383008 -0.4927492 0.6716683 0.5532269 83 83 83
0.0158627987609821 0.0263465956799953 -0.00116882339595781 0.372158 0.4920203 -0.7870288 114 114 114
0.0358710555449847 -0.0305173426550744 -0.0238216638559465 0.990216 -0.1106988 -0.08495983 126 126 126
0.00804906903084257 -0.00161726965827058 -0.0192773886147427 -0.04845165 0.4907441 -0.8699555 249 249 249
-0.0205804832637918 0.0418668539254292 0.0393961957876279 -0.01882381 0.5590259 0.8289365 74 74 74
0.0222983222254992 0.00615764886371606 -0.0112222579484842 0.358436 0.5389535 -0.7622682 102 102 102
0.0332375899856818 0.0204114346703188 0.0234936946071302 0.9978725 -0.03306723 0.05618826 107 107 107
0.0156234569016866 0.0467009382779127 0.0128566883071293 0.3209529 0.5067189 -0.8001407 95 95 95
-0.00258243317398787 0.0462865033263138 0.0132341149570441 -0.05269009 0.5766233 -0.8153093 120 120 120
0.0344500013177719 -0.038977467042328 -0.028000210314121 0.9936681 -0.1123 -0.003508072 93 93 93
-0.0116471800648934 0.0495957368745783 0.0168511618035341 -0.01983223 0.7208713 -0.6927851 113 113 113
0.0155398886323613 0.0421220862613148 0.00919661281117223 0.3697687 0.5381594 -0.7574006 68 68 68
-0.0154680640498782 0.0423562459880271 0.0385139410380564 -0.0216352 0.5400952 0.8413258 73 73 73
0.0299245493438984 -0.0330652766322803 -0.0384929185759961 0.204734 0.5575838 -0.8044777 66 66 66
0.0255987423146193 0.0383341171579847 0.014767347514556 0.6557258 0.4000972 -0.6402702 91 91 91
-0.0413614673628806 0.0466717152546519 0.0222207905789582 -0.9219439 0.3809717 0.06985735 76 76 76
0.0180810898150879 0.0507510224307559 0.0305626137687942 0.1975412 0.5730604 0.7953485 41 41 41
0.00526332542019126 -0.0130232904226721 -0.0264380198248759 -0.00710057 0.6194189 -0.7850285 78 78 78
-0.0309664475774118 0.0385638301814533 0.00858676290469107 -0.1222006 0.4298228 -0.8946057 89 89 89
0.0298704599755915 -0.0542110100126851 -0.0497979149663252 0.01671602 0.4614132 -0.8870279 33 33 33
0.0336955222842319 -0.0341533435497536 -0.0398478363492635 0.4502972 0.4893413 -0.7468451 84 84 84
0.0145046954640875 -0.00676945314594257 -0.0221137683523676 0.1364875 0.5380311 -0.8318015 74 74 74
-0.00377424616819433 -0.0547397474715214 -0.0406067696856575 -0.5508078 -0.2674532 -0.7906198 119 119 119
0.0368719187884381 -0.00621619607335822 0.00373175831830752 0.9929824 0.05405792 -0.1051836 112 112 112
0.0171435130845862 -0.0262333177742069 -0.035913020148997 0.03189514 0.5931921 -0.8044289 49 49 49
0.00763501388074705 0.00191540303072624 -0.0170541908279251 -0.05120325 0.4993222 -0.864902 169 169 169
-0.00225443876960507 -0.0431442981633543 -0.0446602007646943 -0.3140322 0.2838147 -0.9059983 37 37 37
0.00330012618599773 0.0494467815892232 0.0322136501266448 0.1084201 0.597633 0.7944053 77 77 77
-0.00940375978366825 -0.0454068134024428 -0.0393046041869536 -0.450704 -0.3067008 -0.838332 88 88 88
-0.0180293265575641 0.0385525822852892 0.00788831582440219 -0.03018965 0.4918826 -0.870138 84 84 84
-0.0474868004439215 -0.00508807292902103 -0.00648580834663626 -0.626436 0.2701795 -0.7311504 114 114 114
0.0130976328022874 0.0157050128275225 -0.00979631671343839 0.2076145 0.412102 -0.8871686 71 71 71
-0.00244435069227544 -0.0220742771669147 -0.0340814994130506 -0.01250177 0.5679846 -0.8229442 38 38 38
-0.0426392249783014 0.00146396662822812 -0.00566724553744102 -0.3540606 0.4665422 -0.8105427 23 23 23
0.0347160491083192 0.00042944126215394 -0.00708381290212756 0.9007286 0.2916099 -0.3219498 98 98 98
-0.0287997563257648 -0.0174314400515663 -0.0246034488408147 -0.41712 0.5780886 -0.701302 46 46 46
-0.0224475390161578 -0.0429988575115337 -0.0320329007684295 -0.5866565 -0.2397344 -0.7735384 117 117 117
0.0330695788702231 -0.0137738719341403 -0.0207494072857001 0.6911247 0.5240591 -0.4977035 135 135 135
0.00318734146963984 0.00112036876062183 -0.017819000662835 -0.09660582 0.4789892 -0.8724887 216 216 216
-0.0440094701047123 -0.0224334585563546 -0.015445130448259 -0.6608033 0.1336704 -0.7385602 119 119 119
-0.0311652966091954 -0.0363603239427628 -0.0258586348101559 -0.6529159 -0.1102056 -0.7493701 113 113 113
0.0351600990981568 -0.0161840300350107 -0.0173148609143738 0.9718087 0.07339358 -0.2240561 87 87 87
-0.0417839417619962 -0.0013013579529364 -0.00738159550117268 -0.3455919 0.4442497 -0.8265642 29 29 29
0.0268309551595758 0.0539782732140091 0.0255052650939853 0.7182427 0.5328182 -0.4474731 75 75 75
0.0355422206583392 0.0114135512218956 0.00877138956275125 0.9947403 0.02977819 0.09800488 104 104 104
-0.00437055934704522 -0.0224066795941764 -0.0343769381085118 -0.02060096 0.5656705 -0.824374 35 35 35
-0.00088772203868781 0.0457388250996127 0.0132476006667702 -0.05279896 0.6325572 -0.7727119 114 114 114
-0.0240329858724849 0.052809654755001 0.0283830362059335 -0.03574564 0.846825 0.530669 106 106 106
-0.0157594745980132 -0.00112161125112453 -0.0152090149345417 -0.2098129 0.6478724 -0.732284 225 225 225
0.0328177109223075 0.0251736846638659 0.0111889192497034 0.7234983 0.4762808 -0.4997067 98 98 98
0.000884852382338042 0.0495217826525736 0.0151301807223694 0.08102069 0.5902715 -0.8031284 27 27 27
