ply
format ascii 1.0
comment File exported by Rhinoceros Version 7.0
element vertex 472
property float x
property float y
property float z
property float nx
property float ny
property float nz
property uchar red
property uchar green
property uchar blue
end_header
-0.0431166317795642 0.102588489735631 0.0147226088501114 -0.0005267506 0.008903491 0.9999602 153 155 150
-0.050457782004252 0.079627473206667 0.0157717156257129 -0.2038401 0.1566197 0.9663951 170 172 171
0.0454949254276429 0.0818656350194653 0.0123176030300726 0.04404708 0.03591228 0.9983838 162 159 156
0.0170851488620181 0.111880977524846 0.0117000338728175 0.1694478 0.4344978 0.8845898 158 161 142
-0.017768444991336 0.116636474583701 0.0131801515409711 0.1310844 0.1480882 0.9802483 137 135 130
-0.0300718010273584 0.126804595442173 -0.00502617947863798 0.1598362 0.9762311 0.1463737 105 107 89
-0.0475100818397471 0.110416333021798 0.0100224296904053 -0.9480099 0.2489637 0.1982277 164 166 154
-0.0135529592979027 0.101103158826511 0.0136378721623109 0.04882952 0.05757975 0.9971461 180 176 179
0.0696765305784064 0.0882700201473181 0.0106411000321841 0.08243234 0.1281467 0.9883235 162 160 146
0.0719336731130786 0.0840266217773109 0.0099544883237096 0.1398891 0.09658258 0.9854455 170 171 167
3.5618912619384E-06 0.118363827220455 -0.00066828609052505 0.3210101 0.9466379 -0.02879495 115 126 101
-0.0451368370837779 0.0780295744814515 0.0157643139564967 0.07873292 0.05109027 0.9955857 174 173 179
0.0576469874187775 0.0819916541970049 0.0111116348164284 0.0004586462 0.05685884 0.9983822 168 163 160
-0.0443918421448892 0.119267070151012 0.00151897497860715 -0.9624611 0.2681576 0.04195506 174 174 176
0.0368644869759316 0.112473432894914 0.00745846931791094 0.2966851 0.9337888 0.200041 113 112 84
-0.0336526323971558 0.114372212427608 0.014104107797671 0.006158884 0.07928932 0.9968326 187 183 179
-0.00465552255582802 0.0926514462948013 0.0134612811566421 0.04421724 0.05171592 0.9976825 171 173 173
0.000880472777686547 0.082826523019087 0.0137559582306463 0.1331948 0.03998504 0.990283 214 217 220
0.00589424524836302 0.116705729491242 0.00716991038717268 0.2256961 0.9628383 0.1483363 127 128 122
-0.0487937953572797 0.105692482573744 0.00355054492080276 -0.9494924 0.3134092 0.01545679 179 178 175
0.00175858322581512 0.0917926972920626 0.013848305927633 -0.02421633 -0.000750003 0.9997064 173 171 172
0.0682394294290973 0.0841768249269013 0.011120763317116 0.06067773 0.1050224 0.992617 170 167 160
0.0438379253908778 0.0900608747921433 0.012368612249667 0.1091445 0.01211098 0.9939521 166 169 158
-0.0504638426224429 0.098756880841729 0.00882701379687229 -0.9682508 0.248302 0.02892166 172 173 164
0.0289081242329705 0.0748061596966566 0.0129585877732103 0.06097639 0.07442098 0.9953609 148 147 143
-0.0392905632145741 0.0917791071127083 0.014587222713099 0.08999888 0.04665786 0.9948484 168 168 160
0.0776809855231699 0.0890864221066527 0.00847061650150394 0.7090114 0.133706 0.6924056 151 160 134
-0.050664426258179 0.103328062124975 -0.00798323039611304 -0.9578398 0.2814461 0.05771535 178 173 170
0.0180541425383722 0.114088825550125 -0.00534076723410343 0.1103577 0.9835345 -0.1431119 115 117 92
0.0160094577713517 0.103458427283005 0.0122967720405681 0.03422895 0.04347611 0.9984679 173 170 169
0.0478948506391643 0.0937882535811217 0.0114380038781428 0.05635804 0.05699833 0.9967823 172 171 170
-0.0468956244641336 0.102819130233147 0.0148541926168709 -0.3853859 0.1645824 0.9079595 157 159 149
0.0162772137531597 0.114677328586759 0.0106898084255586 0.2109763 0.7372569 0.6418265 149 154 147
-0.0542962128878974 0.0825649320999402 0.00124551597251649 -0.9734774 0.228132 0.01725232 173 174 172
0.0379447903641064 0.0947279027604097 0.014422881959861 0.02952035 0.05716882 0.997928 154 154 145
-0.00625768494189161 0.112518807001828 0.0132579969880268 0.03915648 0.08116837 0.995931 156 158 141
-0.0441987819841276 0.119090696107262 0.00764397006245399 -0.9654284 0.2589667 0.02973818 172 171 172
-0.000944425042253672 0.108779097492483 0.0126670367726244 0.06178035 0.04570434 0.9970428 145 142 126
-0.00147192389754403 0.118606605931717 0.00743378194042116 0.2440977 0.9357311 0.2546049 105 113 98
0.0286133869357592 0.113211022285303 -0.00267156033795357 0.05608356 0.9937649 -0.09636398 112 116 90
-0.0509577652841751 0.0986400479937798 -0.00475349994982704 -0.9699108 0.2370156 0.05564749 170 169 152
0.0413234944762035 0.109375331909532 0.00351012519949012 0.4820096 0.8691733 0.1104737 112 115 101
0.0588614505652654 0.0779110950641705 0.0114923404906006 0.01841844 0.02018002 0.9996267 171 174 156
-0.0464461443827775 0.10608932129273 0.0145577578477423 -0.4818439 0.2074803 0.8513392 171 176 176
-0.00743649705274962 0.103987558589306 0.0132116825637871 0.04425975 0.03818156 0.9982902 168 169 163
-0.04589516382919 0.116152409466293 0.00767388465088786 -0.9437338 0.3298651 0.02357073 167 167 152
0.0210634370764928 0.114280013718714 0.00253625377740518 0.09256563 0.9933855 -0.06794726 119 118 94
0.0393501489548911 0.093325961060434 0.0168535122618401 0.02942541 0.02984684 0.9991212 158 163 163
-0.0122227648233308 0.124108483414969 -0.00636882831899843 0.4062445 0.9137528 0.004608077 94 103 78
0.0405879319724873 0.0838929992669861 0.0121265844680658 -0.004169946 0.02517645 0.9996743 168 160 167
-0.000677026901739319 0.118450927179618 0.00423924990615415 0.2967999 0.9548756 0.01106793 103 116 100
-0.0310621483583888 0.120851203243365 0.0141352790333156 0.08940057 0.1451608 0.9853608 181 181 176
0.0388719070350227 0.105132307163646 0.0110745628835136 0.1506592 0.1520639 0.9768205 165 164 168
-0.00407134232053763 0.085341815672233 0.0141033785524061 0.04746514 0.1216408 0.9914386 216 213 219
0.065387492959696 0.104126594613054 0.00320208524463478 0.1587118 0.9780867 0.1347478 105 109 88
-0.0533177275383541 0.0876957365793163 -0.00211181673170463 -0.948721 0.3159193 0.01111193 183 186 186
-0.0421981127642415 0.125942761298145 0.0011666185949209 -0.8058407 0.5671669 0.170125 180 181 179
-0.0113602058791777 0.0950748467728627 0.0144120709593054 0.0378206 0.07307093 0.9966094 166 173 144
0.0394033648827452 0.111815164590934 -0.0047613133435358 0.2487958 0.9543506 0.1652742 125 132 115
-0.0094503522084799 0.0911871429549194 0.0134855451633296 0.04179639 0.03713461 0.9984358 210 209 209
0.0422916330696681 0.082434137144613 0.0121998807425659 0.01575838 0.03752123 0.9991716 168 172 167
-0.0362185006740412 0.100601236210178 0.0142023191048289 0.000824 0.02791327 0.99961 163 166 154
0.0510437111528328 0.0977000789534466 0.0114745324218405 0.04113066 0.03618461 0.9984983 179 177 177
0.0476227827399263 0.0821890866325983 0.0120145912719554 0.03834563 0.06233503 0.9973184 174 168 167
-0.047586752607923 0.110586638890907 -0.00429858077752271 -0.959456 0.2803862 0.0287701 188 186 183
0.00903115643307717 0.101067882191743 0.0125350291904712 0.03800568 0.04698189 0.9981725 166 170 161
0.0332187986209371 0.0884101015545333 0.0124269038318062 0.05932414 0.01871707 0.9980633 165 164 154
-0.049163962682955 0.104256021912056 0.00392871475752493 -0.9480999 0.3169549 0.02542171 171 170 172
-0.00877324821169467 0.102009792651068 0.0134819271490109 0.04564904 0.036972 0.9982731 181 179 181
-0.000771553829186367 0.0908975339031743 0.0130779481076314 0.03050196 0.0293699 0.9991031 155 157 150
-0.00075535627563883 0.118685890007732 -0.00724093039760665 0.2863239 0.9556801 -0.06851359 122 126 100
-0.00269327416650933 0.0898968720940193 0.0135908055038774 0.04647195 0.02845563 0.9985142 156 157 153
-0.0453935438983217 0.115816401278086 0.00345080424850103 -0.9577653 0.2857959 -0.03172195 187 184 180
0.0372970361978766 0.112183494320577 0.00210050436791387 0.3098078 0.9506755 -0.01533789 100 109 90
-0.0455455024606941 0.0950246845891388 0.0145348825842295 -0.07865078 0.09167587 0.992678 140 149 141
-0.0364843083149549 0.106722608016608 0.014109598863384 0.07505596 -0.005632338 0.9971634 175 175 175
0.0585837737272461 0.108798929193305 -0.0132207932573429 0.3341112 0.9323089 0.1384552 127 130 107
-0.0161066754208437 0.123664878256862 -0.00249575349366954 0.131049 0.9764994 0.1710996 131 137 117
-0.0461945871982978 0.0920427377720002 0.0151619009185103 -0.02198419 0.08211076 0.9963807 171 171 168
0.00806570028997289 0.0934438117415716 0.0132432111909704 0.0298584 0.02308478 0.9992875 168 167 156
0.0771024945155532 0.086134875506758 0.00939752067149913 0.7786154 0.1130029 0.6172426 135 151 136
-0.0203400565640492 0.115326009213514 0.0133928466188649 0.0344234 0.05328874 0.9979857 159 159 157
-0.00901036523441157 0.103735315407258 0.0134495781179505 0.04302616 0.04365196 0.9981198 154 154 147
-0.0417187857085022 0.0982242161420757 0.0138587998331052 0.06632391 0.02990128 0.99735 156 168 160
0.00509126134426907 0.0962766569320886 0.0130094011866365 0.04521688 0.07062253 0.9964777 146 150 140
-0.0390087857943633 0.112271749338889 0.0141617057794226 0.04335264 0.04413871 0.9980843 162 163 163
-0.0554302514523153 0.0812602796820958 0.00184045992656179 -0.9686397 0.2402306 0.06345319 165 162 156
0.0773153334866401 0.0872246508413485 -0.00636265428832267 0.9982104 0.05906393 0.009355953 114 111 92
0.012504824937505 0.0853486550855711 0.012714973694398 0.032764 0.04838883 0.9982911 161 164 164
-0.0243650027874855 0.114758264407709 0.0134418866480116 0.04087872 0.01756358 0.9990097 161 158 156
-0.0574786005048655 0.0733920291662411 0.00197139503909705 -0.9617151 0.268457 0.05508933 178 171 173
0.00802887449686551 0.115893010067574 0.00317590739287149 0.2168821 0.9759757 -0.02082386 112 119 98
0.0240286867354986 0.113705895963546 0.00156201773813947 0.09136472 0.9935236 -0.06755237 126 129 113
-0.0342031107185312 0.0836252953472985 0.0149996725677606 0.009880759 0.007228698 0.9999251 177 180 179
-0.0503796642696233 0.0761108749846946 0.0162796886269039 0.02025282 0.0574351 0.9981438 186 184 192
-0.0239350944859009 0.0892500611080975 0.0145366375552159 -0.0622768 0.08255954 0.9946384 167 173 164
-0.0316032395321229 0.0852360475837226 0.0150242296005156 0.07259811 0.05455255 0.9958682 161 162 152
0.0778234420047532 0.0868755295105044 0.00267387103763572 0.9854143 0.1636764 -0.04657003 99 105 74
0.0284349417890171 0.112231952616224 -0.00914593663377072 -0.005497109 0.9812536 -0.1926427 111 108 89
-0.0177697702277977 0.123271148039552 0.00829143574221664 0.3097537 0.9078821 0.2824937 111 111 98
0.0476565645045786 0.10829493073107 0.000768549743840163 0.2258287 0.913125 0.3394173 100 109 78
-0.0553001735097838 0.0843559302331345 0.00541385635209363 -0.9718395 0.2292409 0.05455768 178 176 173
0.0488872604162931 0.109239488508176 -0.00342745094158348 0.2150958 0.9180725 0.3329817 123 128 102
-0.0520748701308049 0.0902495321252093 -0.00265700722335033 -0.9662763 0.2517127 0.05432185 163 164 157
0.0202471142671812 0.074323608629402 0.0135116716048373 0.05309055 0.05033826 0.9973201 155 161 163
-0.0358479687521791 0.106880852026585 0.0145374316702124 0.09377579 -0.001219269 0.9955926 148 150 147
-0.0150614378012688 0.0808593773340146 0.014724614862053 0.02216474 0.01617614 0.9996235 183 193 188
0.0557221911407848 0.0857126661098315 0.0110732923642603 0.01467378 0.04040837 0.9990755 164 162 162
0.0762065145399111 0.090122159004604 -0.00525090710199594 0.9979261 0.05098388 0.03929443 115 114 99
0.00162269741843812 0.0876694377257839 0.0135678676233874 0.0335275 0.04524791 0.998413 162 168 135
-0.0353521646738011 0.0725972347273558 0.0203799282165539 0.00195563 0.154447 0.9879991 208 206 218
-0.00604960358760942 0.115599803787591 0.0126754100905869 0.08801914 0.3436475 0.9349647 145 141 142
0.0145675173089368 0.11370534500567 -0.0101331437636274 0.1612242 0.9797764 -0.1185112 122 125 106
0.0443996551985097 0.110583567221501 -0.00418033912845039 0.2013569 0.9338847 0.2954908 115 119 98
-0.0361284452072106 0.078423031411623 0.0151027908400811 0.01892809 0.05355399 0.9983855 115 123 105
-0.0216559796038485 0.118455488596612 0.0133925304161 0.09858803 0.2144432 0.9717482 153 157 139
-0.0219234701523641 0.103769935818187 0.0136300266030476 0.03569806 0.05729336 0.9977189 153 154 147
0.0480807506114767 0.110615444647392 -0.00725202768707628 0.2248904 0.947322 0.228047 118 120 119
-0.0525995380163187 0.092562644922612 -0.00294238263912816 -0.9696878 0.2440307 0.01242915 199 196 193
-0.0492444886464465 0.102378044597133 0.0125936698105464 -0.8528076 0.2271035 0.4702587 180 179 180
-0.0540698216662747 0.0880572220675309 -0.00437862584710408 -0.957765 0.2849039 0.03893532 170 167 145
-0.0524566018035753 0.0925324706438426 -0.000229546485916166 -0.9512967 0.3070758 -0.02718538 177 176 172
-0.0574959798080612 0.0782826246346959 0.0090685339910983 -0.9392388 0.3405821 0.04282929 213 207 206
-0.0194826450622767 0.111774932577855 0.013070510021618 0.01432775 0.03014777 0.9994428 164 163 157
-0.0395329296953193 0.128911837884609 -0.0067483785316852 -0.114308 0.9869716 -0.113229 121 125 109
0.0510812472514182 0.0952563410771325 0.0115674754945586 0.03764075 0.03746675 0.9985887 174 172 173
-0.025017247881175 0.1238418970477 0.00231380697164063 0.1436773 0.9888363 0.03949165 83 90 55
-0.0327970494405314 0.111844355121867 0.0136162919832171 0.01562119 0.05576546 0.9983217 170 167 158
-0.0569962302707638 0.0775224199513713 0.00400761399096861 -0.9593626 0.2804911 0.03079233 159 156 146
-0.0429819195923902 0.0969522368918454 0.0150883211115584 0.05508536 0.0326628 0.9979473 169 169 166
-0.0491401163327752 0.0753570632842582 0.0164866680980625 0.06813259 0.04825252 0.9965087 172 176 167
-0.0382574665959878 0.0830359907712271 0.0148258512107444 0.03148425 0.00095295 0.9995038 159 157 152
-0.0492927833634 0.106371876743615 -0.00685506593115687 -0.9564801 0.2888099 0.04164997 185 182 176
0.047790933363191 0.0788514597997423 0.0120378331607534 0.011976 0.05538742 0.9983931 184 181 175
0.0708759393528517 0.0972816327106474 0.00819097629474053 0.1728927 0.340402 0.9242482 149 152 140
-0.0325177115052686 0.122475125827936 0.0136553311758374 0.1058126 0.2793264 0.9543482 181 182 182
0.0344167114338478 0.10376688264596 0.0117840648153402 0.03778057 0.03105922 0.9988033 178 178 173
-0.0353957950091424 0.11716175792717 0.013538730722744 0.006295165 0.01307384 0.9998947 168 169 162
-0.0193251575968409 0.0880957209980361 0.0169183425782643 0.04750274 0.03927979 0.9980985 138 149 147
-0.0333491542206499 0.0862440487197743 0.0146699618528662 0.03378963 0.02002727 0.9992283 162 164 156
-0.0303048959710825 0.0948023741855568 0.0151404698267426 0.1197801 0.005840518 0.9927832 166 161 151
0.051602521033925 0.110403715797268 -0.0103675696736024 0.2600396 0.9450842 0.1979778 159 157 158
0.00287553675018026 0.116280659139312 0.00983079503580114 0.1149643 0.8756161 0.4691264 115 122 90
-0.0142656219568285 0.123271226954255 0.00181401521447888 0.178986 0.970439 0.1619019 107 109 92
-0.00119354541487215 0.100101797272809 0.0126177301307824 0.03348212 0.02975154 0.9989964 160 164 159
0.00984657259506494 0.0859121621560506 0.013252828964312 0.04468955 0.04056035 0.9981772 171 171 167
0.0126137682804734 0.114987775556422 -0.00056732907237611 0.1383347 0.9879249 -0.06976964 111 112 92
0.0205423558448787 0.115167376095077 0.000357609338315856 0.09942731 0.9927775 -0.06713408 125 122 114
-0.0445866913979411 0.124684128340743 -0.00221954757118498 -0.9638044 0.2665799 0.004033273 155 153 135
0.0073052782930807 0.107651444055189 0.0125126784647207 0.0256638 0.0206573 0.9994572 173 174 170
-0.0132410327765116 0.098328909160202 0.0139210955741753 0.05227958 0.05684037 0.9970136 146 149 122
-0.00586558818352634 0.104322370263179 0.0135098267564326 0.05224015 0.03515731 0.9980155 175 175 176
0.0325127764792146 0.104509190337297 0.0114928953930579 0.03490609 0.04169663 0.9985204 166 162 145
-0.050576321968711 0.0865142982503916 0.0156401942205623 -0.3860643 0.1354051 0.9124801 170 174 173
-0.0406768830154514 0.0943250493706705 0.0147479007815226 0.04923142 0.0509042 0.9974893 155 160 151
-0.0339256300585342 0.126617680339654 -0.00626063121863096 0.2278604 0.9722304 0.05336249 103 106 77
-0.00690945859575964 0.0790499838528246 0.0129385531223363 0.04132561 0.04602128 0.9980853 136 137 130
0.0197937369690757 0.0862538036426371 0.0124245903747839 0.007076636 0.04564934 0.9989325 160 161 151
0.0410607688390965 0.107647126285889 0.0106768661013421 0.3334113 0.4878124 0.8067688 176 179 185
0.0249263652312168 0.1060985763162 0.011755492962814 0.04694407 0.03207712 0.9983823 177 177 173
0.043505323145113 0.108238206575219 0.00403399396194676 0.4660854 0.8658894 0.1816587 117 119 107
-0.00434625996138482 0.102255196809852 0.013323008248897 0.05074379 0.01206854 0.9986388 160 159 163
0.0157501889812952 0.0911743505496078 0.0127408515069377 0.07213131 0.002317467 0.9973925 157 157 151
0.00823235821137303 0.113939510631716 0.0125252281949714 0.02352205 0.4377492 0.8987894 172 169 168
0.0104759839762765 0.11368706080351 0.0126684485888878 0.02492869 0.3824962 0.9236207 160 164 143
0.076344334389119 0.0888226351147576 0.00905062217758845 0.6560028 0.1157054 0.7458369 143 149 132
-0.0212921277055047 0.0972340862206508 0.0144049723537461 -0.02439578 0.01856204 0.99953 209 209 209
0.0531861263986475 0.0841056949613492 0.0109414956857877 0.05434173 0.07367008 0.995801 163 162 167
0.0770771388006422 0.0977834418191287 -0.0094717286455947 0.9534334 0.267196 0.1398966 118 121 94
-0.0023281525276555 0.115790124804709 0.0121964957596317 0.1227499 0.5262088 0.8414491 179 178 181
0.0181965097045413 0.113257166346674 -0.00860190927329091 0.1603102 0.9728333 -0.1670207 121 121 103
0.0617426189911094 0.080329003144504 0.0116280195070764 0.02826743 0.04994213 0.998352 178 182 179
-0.0455165376076705 0.116537686663618 0.0135017668960934 -0.703614 0.09932006 0.7036071 180 181 180
0.0347860556871207 0.112711562430231 0.0038659577701356 0.2520977 0.9671594 -0.03239506 107 109 88
-0.0306590022834679 0.0865057983712706 0.0150935986499548 0.1152271 0.06073913 0.9914805 161 162 147
-0.0492113121160849 0.106836424932411 0.00240133257766345 -0.9407491 0.3390415 0.006475902 181 179 173
0.0545505469824616 0.105276003951601 0.00424808577335034 0.117591 0.9276422 0.3544746 117 133 101
-0.027898303061161 0.125409033632202 -0.00439666546753342 0.1577353 0.9705732 0.1819536 122 122 93
0.0162037007497768 0.114994291707743 0.003558539595305 0.07350383 0.9963209 -0.04406695 102 109 83
-0.0166289648391853 0.116995626162738 0.012922462032411 0.1436733 0.1941993 0.9703838 150 149 145
0.0465737879104731 0.107697298115913 0.00194582330766335 0.3173583 0.8825433 0.3469884 127 128 117
-0.0262785042784899 0.121654466891983 0.0133575188591063 0.1017068 0.4796567 0.8715419 159 163 154
-0.0439975595402513 0.124998384775463 -0.0105090974385789 -0.8737423 0.4691218 -0.1284483 168 165 160
0.0341245784467441 0.112301812961979 0.00587875748689137 0.2198669 0.9739506 0.05548624 111 112 94
-0.0419108438212112 0.128875220634509 -0.0063145907216014 -0.5305548 0.8263233 -0.1889483 117 119 87
0.0240499136584784 0.113557384555558 -0.00218758378127731 0.09365909 0.990849 -0.09719133 129 132 121
-0.0239101344673285 0.079833060497705 0.0149537077582139 0.04518587 0.04397644 0.9980102 177 178 182
0.0657292137593903 0.0863235070842183 0.0111818547988669 0.05990284 0.1257385 0.9902533 169 171 166
0.0772349674545132 0.0786368156206169 -0.00559783612842796 0.9832842 0.06504373 -0.170063 94 102 58
0.0312878567303145 0.11301028069029 -0.00032265608371812 0.1171703 0.992567 -0.03289076 117 128 100
0.0349219555171907 0.111912146157178 -0.0122476320892561 -0.006515857 0.9917986 -0.1276441 128 127 116
0.0729268728138028 0.103573581078899 -0.0084004656828644 0.4066972 0.9114946 0.06144034 163 158 158
0.0545303139884872 0.106389009413913 0.000805741402078897 0.1766667 0.896875 0.4054679 121 126 115
0.0443096872011695 0.0798344604967747 0.0120088298660713 0.04360208 0.0570993 0.9974159 177 179 175
0.0146096087752474 0.10823755497713 0.0118991195661926 0.056532 0.005689171 0.9983846 166 164 156
-0.0540158773678587 0.0892643656758909 0.00968046277767093 -0.9692718 0.2426784 0.04024193 195 192 194
-0.0371275322684077 0.0752818176040957 0.0154940933049217 0.006904531 0.1096089 0.9939508 165 166 160
-0.0516017754625342 0.0982970090640126 -0.00299740765913231 -0.9748589 0.2209241 0.02902932 170 165 158
0.0239538073566594 0.114005830239545 0.0107250305570033 -0.007041967 0.7772026 0.629211 164 170 159
-0.0345290086103669 0.127771335226931 -0.0106653477534732 0.1701499 0.984382 0.04517956 119 122 92
0.0501464391353645 0.0947886225541201 0.0113670627289488 0.04485616 0.02999797 0.998543 159 162 155
-0.0175573190655129 0.0784606215806275 0.0146309981424587 0.03316148 0.02584144 0.9991159 205 204 214
-0.0502919788883485 0.100475037338709 -0.00106006945836173 -0.9727781 0.2307585 0.02129152 183 181 177
0.0051696809208932 0.0734760526545765 0.0138635246980245 0.02694946 0.05111929 0.9983289 214 208 217
-0.0446412040243573 0.116777542435552 0.00694621231312154 -0.9523294 0.3048149 0.01251455 179 182 179
0.0101518759724797 0.114026787528955 -0.0114490372089798 0.2206313 0.9719554 -0.0813911 112 121 96
0.00845622834329252 0.0890894455663074 0.0130030352123691 0.03196783 -0.04060537 0.9986637 166 163 156
-0.0522107408567534 0.0843237133128967 0.0154957728321622 -0.5566441 0.1007021 0.824625 168 164 162
-0.0370093486951475 0.128559269561652 0.00189780615484214 0.2218127 0.9750471 -0.009070544 119 122 93
0.0166964427822818 0.099201633648734 0.0125919894511746 0.01265515 0.06537239 0.9977807 173 173 161
-0.0106918693711804 0.105602821900006 0.0133785494978843 0.05204435 0.03681392 0.997966 157 162 153
-0.0516482147164659 0.0954916641189621 -0.00048575528088779 -0.9604809 0.2771542 0.02573108 176 173 168
0.0145595863131205 0.075589976445116 0.0134937680143135 0.03803791 0.09452585 0.9947954 201 202 205
0.0535134681869329 0.109159668011171 -0.00857982837753335 0.2793195 0.944482 0.1730158 131 136 107
-0.0508492968595087 0.101047063585334 0.00267179721008681 -0.9639289 0.2655605 -0.01785279 168 164 154
-0.00385763773742376 0.116367704167297 0.0127175067866465 0.1508781 0.501415 0.85195 170 169 163
-0.0438377425730165 0.125299765659431 0.0016380435281112 -0.9635829 0.2594703 0.06467639 174 168 158
0.0357574514230241 0.0933449250600265 0.0119994733872696 -0.06748412 0.01983254 0.9975232 178 174 175
-0.0293116019849911 0.125121639029644 0.0105141074571177 0.2237035 0.9063132 0.3585429 107 111 83
0.0409700096540924 0.110001660114747 0.00340744449109526 0.4682347 0.8821639 0.05042901 113 121 113
0.0019946100260142 0.101546807996243 0.0130470012917687 0.03316973 0.04610054 0.998386 167 170 159
-0.0217577621909033 0.113667323092936 0.0134080658378422 0.02904781 0.03593479 0.9989319 169 168 164
0.0568644564072849 0.108027434420317 -0.00251059834847217 0.2838797 0.9197969 0.2708984 99 106 81
-0.0418788627574296 0.129150342413928 0.00555422106452158 -0.7497253 0.6609617 -0.03227108 164 163 146
0.0446994362230577 0.112218349376053 -0.00605670643276862 0.1881133 0.9594592 0.2098842 133 134 128
-0.0552658914982522 0.0827050569580381 0.0129017093580486 -0.9136909 0.2266174 0.3373627 161 156 145
0.0160194559844047 0.099855721233459 0.0122760342872495 0.03803465 0.05815972 0.9975825 173 167 165
-0.0178113512478681 0.114082136070363 0.0131441374300175 0.05966855 0.05483836 0.9967108 160 160 152
0.000285455489474895 0.0801778977000116 0.0140848893819385 0.1246318 0.01661722 0.9920639 211 209 217
0.0218543773338609 0.0896375294612536 0.0127176869100024 1.339586E-05 0.02874955 0.9995866 179 175 176
-0.0452746647039017 0.0926542519155483 0.0150989727164537 0.0009283404 0.0793875 0.9968434 168 169 167
-0.0439321515494004 0.074123130168643 0.015624791010147 0.07734265 0.02358262 0.9967256 171 168 168
-0.0554686580336587 0.0785102268776595 0.00962204041252962 -0.9469159 0.3161409 0.05835447 174 175 163
0.0472911802104599 0.0896155333662075 0.0119081009073022 0.06936245 0.03204545 0.9970767 177 178 178
-0.0333431531883339 0.0971838593631899 0.0145186543836454 0.001249029 0.03696213 0.9993159 171 171 170
-0.0183527019729706 0.118021782225237 0.0133179980937811 0.1265486 0.2248779 0.9661343 166 170 170
0.0194569470386015 0.114820092369725 0.00635608281926436 0.12497 0.9847128 0.1213394 101 119 83
-0.0546610511927452 0.0818997575900945 0.00912553333607979 -0.9524286 0.283569 0.1116619 156 154 142
-0.0176957386528505 0.125312478989788 -0.00999067500280781 0.1962391 0.9776763 0.07509545 107 112 95
0.0567549552264592 0.0771602495711519 0.0117071912157928 0.05650914 0.0348574 0.9977934 163 164 160
-0.0509798597592324 0.0936323600727793 0.00777056091874684 -0.9541828 0.2950245 0.04995762 180 179 179
0.0246683229866349 0.0976306027977473 0.0124999890631278 0.05822087 0.06632219 0.9960982 166 167 162
0.0092537924498366 0.0826489741275171 0.0135639159557091 0.03594694 0.04130757 0.9984996 188 191 190
0.0593919761266681 0.0869480307141506 0.0111574644811549 0.02633879 0.02444595 0.9993541 162 163 164
-0.0487573953349894 0.108505462350453 0.00330958312915614 -0.9645749 0.2567407 -0.06065854 180 180 174
0.078438300818078 0.0805484697287345 0.000622446480420424 0.9838798 0.1369677 -0.1149798 122 117 105
-0.0198356562034363 0.124204523810146 0.00693068852715095 0.2163522 0.9727463 0.08340506 97 102 83
0.0744791252671217 0.101870297909628 -0.00451526639463706 0.715755 0.6977118 0.02988328 119 121 80
0.00424170743949936 0.116650148568335 -0.0103382952578073 0.2584474 0.9651963 -0.04001325 109 112 88
-0.0124925081427008 0.122193822182448 0.00326030486981649 0.2106176 0.9523775 0.2204934 124 126 123
-0.050148824992267 0.0978713183826736 -0.00570233532685743 -0.9683131 0.2372176 0.07808655 175 178 180
0.061249869589169 0.0985829693234962 0.0107915835625283 0.2094396 0.1706771 0.9628107 176 178 173
0.0669120192912658 0.0892174311542359 0.0106387608861708 0.09213317 0.1180351 0.988726 159 160 153
-0.0477494147703788 0.108677779558281 -0.00643128951210648 -0.9490139 0.315066 0.01029797 173 173 164
0.0184239882341757 0.111692439060546 0.0114601854684957 0.1650214 0.4335556 0.885888 172 173 163
0.0333278656961229 0.100259459214739 0.0116807709011179 0.03906896 0.04168627 0.9983666 168 174 169
-0.0498967047488101 0.0903374801718585 0.0156748862817978 -0.2655389 0.1098374 0.957823 194 191 192
-0.0246604945330797 0.0849229771838331 0.0146848277512141 0.04109311 0.0322868 0.9986335 161 166 163
0.000187838173750121 0.0778568691261851 0.0140289168613265 0.0699393 0.03803957 0.9968257 186 197 190
0.0573065125670833 0.107174751985106 -0.00143478285743731 0.2669824 0.9062243 0.3278382 114 120 99
0.0766245755337218 0.100656233469989 -0.0131385617606943 0.8734238 0.4819824 0.0694541 179 179 156
-0.0586820856110268 0.071111361732031 0.00748775619801584 -0.9560418 0.2927839 -0.01617894 152 152 145
-0.0253073357277529 0.124623112894421 0.00557497592265321 0.113542 0.9931513 0.02754526 114 116 101
-0.0389643061745599 0.109984324635355 0.0144769072185728 0.01619348 0.08098912 0.9965834 148 150 137
0.0486570644408768 0.104876162929885 0.00715145536784195 0.3100066 0.8208329 0.4797179 115 125 103
-0.0145541656237711 0.0984143920733915 0.0136676194125196 0.05805068 0.05490788 0.9968025 147 161 147
-0.00108696710268452 0.118754892867697 8.62736898542549E-05 0.3458132 0.9367603 -0.05378992 116 117 108
-5.61942630628032E-05 0.107323075793854 0.0125708968815409 0.05233526 0.05579042 0.99707 160 164 151
0.0160976746394785 0.113642081569241 -0.00814492460265126 0.1490435 0.9827737 -0.1092787 118 119 109
-0.0477595417527761 0.107404653732989 0.0130689303323394 -0.5836036 0.3456646 0.7347944 165 171 163
-0.0207812829719409 0.0875224006445557 0.0143907910549377 0.01840114 0.0348352 0.9992236 200 199 204
0.0262338903552486 0.111946808522622 -0.00868541193823347 0.05878764 0.9780626 -0.1998439 127 127 105
-0.0425726996078803 0.125011003753798 -0.000423015900494095 -0.9479229 0.3153172 0.04491448 173 174 160
0.0234607894049368 0.113652996152586 0.00569733430163322 0.07443054 0.9902853 0.1174523 106 108 80
0.03478810248422 0.112620806512488 -0.00258233622642939 0.1597507 0.9849802 0.06552629 105 110 84
-0.0559101469574219 0.0754631662685076 0.0158176730742421 -0.6612564 0.3351995 0.6711046 169 172 162
0.0359367547017608 0.0872213698914268 0.0117282225280745 0.04293427 0.03761435 0.9983696 169 173 163
0.0686704542614534 0.0824390663076859 0.0112382999666827 0.06880185 0.05366599 0.9961858 175 168 169
0.004993312851445 0.116778678680478 0.0089289975382722 0.177089 0.9399382 0.2918144 131 135 129
-0.0576381224527538 0.0746941344124125 -0.00198363509594474 -0.9568452 0.2880362 0.03850311 173 169 155
-0.0425539302105173 0.129161928774694 -0.00952460227580126 -0.5958139 0.7276837 -0.3398269 145 142 111
0.0696117432503751 0.0909448870099504 0.00991403285874604 0.1120836 0.20145 0.9730648 142 145 130
0.0057117389981558 0.0934393111418731 0.0157335571381242 0.06696026 0.03268581 0.9972201 168 168 162
0.0565953714966008 0.100708934689985 0.0106005094343733 0.1151651 0.3784267 0.918439 170 169 160
0.02727630353905 0.114721207198253 0.00993591924416887 0.03162383 0.8192248 0.5725998 129 132 123
-0.0376396969397761 0.126208759205988 0.0132604044857221 0.1278897 0.5142829 0.8480314 169 173 170
0.0210843506492635 0.104031192169201 0.011874011833277 0.04007825 0.02907895 0.9987733 152 152 150
0.0770346181940817 0.0911864694957707 -0.00406859318402814 0.9974046 0.06633528 0.02799637 112 108 102
-0.0458510376504464 0.118331700891268 0.0094856909422813 -0.9388008 0.339701 0.05706454 176 175 172
0.0280819294064771 0.0843754719946005 0.0125871306206486 0.04964632 0.03635278 0.998105 159 164 156
-0.0502939148409958 0.104023406254799 0.0119415252327023 -0.9170824 0.223084 0.3304443 196 194 192
-0.0152079779710468 0.119428511145807 0.0125903814471598 0.2965717 0.5816556 0.7574444 181 174 182
0.0524700581930495 0.106432683029118 0.00126064369389089 0.1634672 0.890218 0.4251945 94 105 71
-0.0508580379255135 0.101641832933337 0.00601694688378851 -0.9722021 0.2340915 -0.00493164 178 176 173
-0.0277313072734451 0.124629675304097 0.00558070346578399 0.2148015 0.976532 0.01567063 105 109 82
-0.042812952360944 0.129473274605126 -0.00266741859900321 -0.5803101 0.8101831 -0.08272544 150 149 118
-0.0554837418175618 0.0805773189980772 0.000808458753085051 -0.9627553 0.2652216 0.05253292 176 173 167
0.00628127931694911 0.116270337241034 -0.0030299666358421 0.2440252 0.9689136 -0.04072149 129 133 108
0.0222446413021919 0.101455853340985 0.0123563053725135 0.02018296 0.08910745 0.9958175 179 175 178
-0.015893833706456 0.121483689375174 0.011018651419508 0.3625717 0.7066846 0.6075678 114 124 99
0.052142617321423 0.0855376571554582 0.0113805950460584 0.08470816 0.06994828 0.9939476 159 161 156
0.0628774714772002 0.103932029044042 0.00505624733522858 0.1848145 0.9424586 0.2785956 119 122 100
0.0613457244326936 0.106579266774207 -0.0108694268402134 0.3589571 0.9121529 0.197805 129 133 119
0.0216697824632426 0.0958490140523042 0.0125824673905314 0.01362657 0.03149062 0.9994112 180 180 179
-0.019490120620022 0.124063814255801 0.00463701701119934 0.1920057 0.9799869 0.05253037 100 111 83
0.00768350067344925 0.10355206241161 0.0125739039955969 0.03522653 0.04589254 0.9983251 167 166 162
-0.0423962038069645 0.129803471912093 -0.00052441509058071 -0.3796302 0.9152981 -0.1345743 137 130 116
-0.0488698101374307 0.102268125158057 0.0148071096382966 -0.5778618 0.15379 0.8015139 170 169 167
-0.0544144645136204 0.0825309556591696 -0.00494508939418026 -0.9666198 0.2449572 0.07511367 170 170 165
-0.0457157489197833 0.120276113083094 0.00825412988545088 -0.9580557 0.2824711 0.04836634 146 139 127
-0.0489925331360639 0.106272684900581 -0.00929836061439571 -0.9525422 0.3040066 0.01560243 180 176 172
-0.0119254402522118 0.123271881601241 -0.00744539291185969 0.4720435 0.8705823 -0.1387852 111 122 78
-0.0446116901452511 0.123143642918199 -0.010389809900759 -0.9444979 0.326929 -0.03226661 174 174 157
-0.0345183657954988 0.124927961814719 0.0134385085649768 0.1674851 0.5689641 0.8051264 170 172 167
0.0277101628507641 0.114465658138934 0.00603476554201554 0.08982374 0.9953715 0.03416442 123 124 103
0.0675594415667236 0.103875754769468 -0.00363062999351921 0.1992187 0.9794185 0.03242288 102 114 81
0.0280826449856109 0.078840035765697 0.0128980354587922 0.05435826 0.0306114 0.9980522 158 161 150
-0.0426051267141105 0.106494861064024 0.0149794901460794 -0.04349269 0.09597894 0.9944327 151 155 157
0.0643499273003187 0.104610014052621 -0.0028048680106878 0.3168073 0.9430863 0.1011009 113 115 102
0.076214853501362 0.0859822342306485 -0.00876637759582094 0.9998927 -0.01449608 0.002133368 101 102 77
-0.0355956955281953 0.127975323322685 0.00754631952145279 0.3997995 0.9108357 0.1026578 113 123 89
0.0752717558095182 0.0951602300813674 0.00782572732199627 0.4528087 0.3553033 0.8177553 137 141 128
-0.0187500848721238 0.123268621135615 0.0112712701582717 0.3134947 0.7870548 0.531287 121 120 119
-0.031142086597008 0.0816325190881634 0.015366589718226 0.08408407 -0.01573703 0.9963344 155 157 143
-0.0174520376087206 0.101591434271964 0.0139069117074281 0.05754287 0.06197108 0.9964178 167 172 168
-0.0405327392331059 0.122778329746858 0.0137829700515584 -0.1904249 0.2288322 0.9546592 171 170 169
-0.0341346709995356 0.100963186154834 0.014285192124696 0.01306691 0.08347981 0.9964238 168 165 166
-0.0497670052627766 0.103116268104714 -0.00438782503458612 -0.959866 0.2786292 0.03198377 163 160 146
0.0208685821760739 0.0755814351558927 0.0128319782513499 0.05291746 0.05429684 0.9971216 172 173 175
-0.054163808774377 0.0763238719337329 0.0169324357126049 -0.2746525 0.1335512 0.9522238 170 172 160
-0.0195293138887602 0.125166833721645 -0.008230655490997 0.1699422 0.9710087 0.1681127 123 125 101
0.00280727541315473 0.0735298343727327 0.0136551559965983 0.009844027 0.0357569 0.999312 177 179 176
-0.0474333297220997 0.111966206933099 -0.00854096161212547 -0.9606465 0.2777555 -0.003184648 174 171 166
-0.0426901885541522 0.0869264809253389 0.0155526749900812 0.06609556 0.02221766 0.9975659 163 167 158
0.0543839658990168 0.0820615335588751 0.0113981741901016 0.05374187 0.09018788 0.9944737 162 167 161
0.0364130648316208 0.112446931944577 -0.00407947069951803 0.1651435 0.9855454 0.03778678 133 133 117
-0.0293986378557378 0.124933223310683 0.00532931251295155 0.2943692 0.9555398 -0.01704448 101 103 84
-0.0400227676834546 0.0799428123848672 0.0150778434599497 0.06147342 0.06954115 0.9956832 143 144 137
-0.0536574646410182 0.0918452249146386 -0.00307253436118998 -0.9614624 0.2733473 0.02951866 167 164 139
-0.0179238964619455 0.0899825120926263 0.0144410554173127 0.04779418 0.02569347 0.9985267 205 204 208
-0.0155977388545843 0.110180382939634 0.0135663526259435 0.05401696 0.01630369 0.9984069 178 179 178
0.0358933598237434 0.0791534360886547 0.0119389866134306 0.03089914 0.05210832 0.9981633 161 164 158
-0.0323409452177006 0.126061544284942 -0.00022676953498163 0.3543234 0.9339437 0.04694734 111 116 92
0.023181129885248 0.101875947389464 0.0121566047022581 0.02010972 0.0813351 0.9964839 175 173 173
-0.00868542857457566 0.120004639592807 0.00696605097283559 0.2224334 0.9265426 0.3033847 125 121 107
-0.0291574640497303 0.122603352291328 0.0133482743381493 0.1855502 0.4484349 0.8743439 172 172 172
-0.0405178898543461 0.130283945621628 0.00682139571403767 -0.3427787 0.9394106 0.003229419 129 134 113
-0.0595054028669946 0.0702734385199597 -0.00665308691282873 -0.9694237 0.2430138 0.03408981 160 159 156
-0.0582488930457592 0.0746928321626178 -0.00701618646109559 -0.9515774 0.2955777 0.08446469 151 142 133
-0.0564093847374463 0.0748239445943252 -0.00624860054415766 -0.9471256 0.3052906 0.09874604 171 173 170
-0.0577010185376918 0.0774251234133508 -0.00738735266732471 -0.9649039 0.2555885 0.0602912 197 194 190
-0.0601011967763407 0.069825626145823 -0.00489771021085866 -0.970857 0.2362863 0.04006775 163 155 145
-0.0587673630232408 0.0714759099158312 -0.00420588595094173 -0.9552249 0.2920776 0.04728821 176 176 177
-0.0576065164958912 0.0723025207242965 -0.00351836166150427 -0.9540961 0.2955122 0.04871479 169 165 162
-0.0592339596847462 0.0731188269309135 -0.00308143143109141 -0.9558968 0.2894142 0.05000798 193 190 187
-0.0590706395005414 0.0708379381887515 -0.000438716090506386 -0.9599733 0.2726372 0.06418851 160 158 148
-0.0575382216304765 0.0710474601246576 -0.00104089177669897 -0.9675748 0.2397266 0.0795626 174 174 173
-0.0574686032033027 0.0761222488528804 -0.00449282553173858 -0.963264 0.2685111 -0.004923628 179 177 168
-0.0569836952682892 0.0786434597969223 -0.00416886189684179 -0.9609833 0.2673469 0.07097042 169 167 161
-0.0573741104731644 0.0771480678077954 -0.0012204238861569 -0.9547276 0.2967473 0.02088302 197 192 188
-0.0562860774559775 0.0802475339557941 -0.00105518882515565 -0.9653872 0.2512647 0.069955 162 157 139
-0.0560937519757612 0.0778525612022616 -0.00794562434443097 -0.9674625 0.2461242 0.05864396 175 179 173
-0.0561272092836611 0.0769329960350841 -0.00503754018717528 -0.9638726 0.2651766 0.02511821 177 174 175
-0.0562551869682399 0.0779327020041423 -0.00104717231884455 -0.958175 0.2741299 0.0821797 180 181 176
-0.0561404924286311 0.0821226017192842 -0.00256568082984454 -0.9704627 0.2289026 0.07619489 161 157 142
-0.0558956009576597 0.0842017600782763 -0.00632439752674924 -0.9572752 0.2869734 0.03564383 191 188 183
-0.0542135688205756 0.0868225825979921 -0.00721296683265371 -0.9491115 0.3086195 0.06278098 167 168 158
-0.0540298161075961 0.0848254897492535 -0.00156969160169013 -0.9506035 0.3055443 0.05473154 167 166 162
-0.054256619360034 0.0855184417326856 -0.000986819974632569 -0.9530709 0.2930517 0.0760038 187 184 181
-0.0537055697027142 0.0877956995796677 -0.000546603386566868 -0.9608521 0.270131 0.0615821 169 168 158
-0.0527077859762433 0.0901393303214534 -0.000278390656402561 -0.9634809 0.2644347 -0.04217676 173 169 172
-0.0522873346062216 0.0925251302607928 -0.00849137889051871 -0.9576018 0.2703577 0.09952682 176 175 176
-0.0515206387680707 0.0927787182339511 -0.00491441917787483 -0.9602812 0.2737215 0.05418973 177 176 176
-0.0513889740514704 0.0928896258082119 -0.00075837458557898 -0.9602436 0.272542 0.06044052 172 165 169
-0.0506344713480851 0.100793046737249 -0.00337091677092516 -0.9662637 0.2516364 0.05489569 158 151 133
-0.0491170087358825 0.104113961540788 -0.00800380210654417 -0.9613131 0.2680725 0.06335852 175 174 172
-0.047732046517452 0.111054625655954 -0.00927382490017037 -0.9577455 0.2871168 0.0169548 179 179 171
-0.047821009012871 0.109419375151735 -0.00915447829400157 -0.9536251 0.3009965 -0.000506911 178 178 179
-0.0495326781251075 0.104516138375807 -0.00213825436599935 -0.9589038 0.2802345 0.04440736 177 174 168
-0.0488489385649191 0.108328316429741 -0.00384591261365891 -0.963468 0.2602254 0.06334233 182 183 178
-0.0476303104645126 0.10755333042307 -0.00385322900624835 -0.9584352 0.2807417 0.0508527 183 187 183
-0.0507497473449827 0.103175825044351 -0.00104346636086278 -0.9651309 0.2608494 0.02190561 165 164 146
-0.048593177887047 0.103798455063809 -0.000916438502511718 -0.9455849 0.3231552 0.03794678 170 170 163
-0.0491715083727278 0.106789565635753 -0.000233815001843218 -0.9556438 0.2906621 0.04754452 179 176 170
-0.0476003939311436 0.112097673464771 -0.00314167442976288 -0.9577029 0.285439 0.03646401 153 150 125
-0.0464165917682358 0.11167321346272 -0.00104763720911566 -0.9562907 0.2764006 0.09545083 175 176 172
0.0601942285037385 0.0795639650121719 0.0117343669726023 0.01955816 0.05697364 0.9981841 160 158 163
0.00602541712187521 0.115848196567404 0.00823572849121734 0.2118299 0.9397527 0.268315 105 111 81
-0.0396303426969669 0.128973911998945 -0.0108606523738639 -0.1693829 0.9576432 -0.2328711 122 119 102
-0.0450617850170922 0.116025296889775 -0.00736645018644871 -0.9626566 0.2691083 -0.02954846 181 181 175
-0.045737687763945 0.11803720435454 -0.0051468979971675 -0.9700995 0.2393764 0.04007397 167 165 153
-0.0452634911315999 0.120827140845989 -0.00866647432009499 -0.9781692 0.2077958 0.002437011 162 156 140
-0.0443840845704464 0.123269176150625 -0.00789759354350572 -0.9562471 0.2925573 0.001314011 169 167 146
-0.044548774139864 0.122461809219562 -0.00696648511483722 -0.9662849 0.2574731 0.001066261 190 186 181
-0.0444665784157132 0.122176996976006 -0.00523319095438241 -0.9673244 0.2512237 0.03420897 189 186 183
-0.0437933651902822 0.12492312469821 -0.00688985155466548 -0.936842 0.3494132 -0.01541454 166 168 150
-0.04266909697456 0.124800155236108 -0.00552223452183603 -0.9400781 0.3402851 -0.02142939 174 174 167
-0.046135095635637 0.115348278445608 -0.00355484075628582 -0.9589704 0.2831297 0.01460906 179 180 183
-0.0458467266463289 0.116815784208963 -0.00261311681978793 -0.9527823 0.2966323 0.06492487 174 173 161
-0.0457414329126149 0.119053456344702 -0.00291327955914428 -0.9762222 0.2151024 0.02685549 185 181 168
-0.0296151536345584 0.125858208385078 -0.00430436956279157 0.1437827 0.9780471 0.1508327 111 112 87
-0.0300825037086019 0.125491594481759 -0.000663794254576244 0.3030574 0.9487426 0.08968706 117 117 102
-0.0409125967220445 0.128552551945015 -0.00854658550801551 -0.4232861 0.8690615 -0.2560488 109 112 80
-0.0429484757409484 0.126112472130011 -0.00495707683490709 -0.9439514 0.329948 0.009488781 174 173 178
-0.0420557985298893 0.130197781905537 -0.00266503021293435 -0.4790334 0.8754402 -0.06427661 145 148 125
-0.0351664694785436 0.127337347494926 -0.00796727713884077 0.1919874 0.981258 0.01653672 114 113 87
-0.0263512671204484 0.126846707515951 -0.00949026331537278 0.1462768 0.9770159 0.1550584 130 124 106
-0.0295843658250385 0.126412024260098 -0.00704315392167154 0.1083318 0.9855503 0.130211 102 100 78
-0.0289029888136494 0.126567017682692 -0.00567292890079085 0.1214884 0.9810836 0.1507165 108 119 107
-0.0367137313250734 0.128396105959305 -0.00431594175396516 0.2180889 0.974426 -0.05414088 109 111 93
-0.034925196586989 0.127875691443148 -0.00260946561497316 0.3079563 0.9513981 -0.00211602 113 122 94
-0.0327361683711072 0.126924224347334 -0.00441942445290405 0.2406955 0.9669978 0.08355165 114 112 96
-0.0359808715856329 0.128419494927682 -0.00200404783449798 0.317124 0.9477751 -0.03398248 112 116 96
-0.0199807163540904 0.125521782544522 -0.0104553514403025 0.2060338 0.9749973 0.08324809 127 124 104
-0.0226194620177693 0.126116864159502 -0.00658995636424142 0.1553224 0.9646372 0.2129554 108 109 96
-0.0167362451582018 0.12464304060575 -0.00828307987896243 0.2304207 0.9661328 0.1161626 95 100 75
-0.0165919272767385 0.1256146863164 -0.00814929212366661 0.2304207 0.9661328 0.1161626 103 109 101
-0.018029041067988 0.124844571524771 -0.00622245685289774 0.1689434 0.9674654 0.1883317 122 124 103
-0.017207420003752 0.125105278105174 -0.00703689300967691 0.2072755 0.9685749 0.1374753 105 115 92
-0.0151665958899736 0.124646186673886 -0.0063159998696582 0.2753553 0.9552385 0.1081613 139 136 130
-0.0216878155068121 0.125593613375815 -0.00445300889932343 0.146353 0.9648342 0.2183478 115 128 101
-0.0219958184841949 0.123794216723202 -0.000178405751623811 0.1710664 0.9784623 0.1155324 96 103 73
-0.0201670432866319 0.123263181175084 2.84417018642791E-05 0.1395111 0.9868702 0.0813871 116 114 99
-0.0244480877327946 0.124282760350016 -0.00214058693691788 0.180469 0.9655083 0.1876825 111 115 86
-0.0163948748529714 0.122876225902711 -0.000325370917606149 0.1240806 0.9833151 0.1330238 112 116 100
-0.0139239979618995 0.122929408284647 -0.000359416226117459 0.1972933 0.970161 0.1409358 106 108 85
-0.0100630431645534 0.121257865538721 -0.00643314446399318 0.4877779 0.8597696 -0.1512249 123 115 96
-0.00821808382035005 0.120330887590074 -0.00807081800644682 0.4705614 0.8676589 -0.160437 120 123 104
-0.00327811889375451 0.118964204919284 -0.00689067516397529 0.2937402 0.9501193 -0.1048338 109 111 97
-0.00819386339992767 0.120343748048272 -0.00639993129348448 0.4589851 0.8729073 -0.1654249 124 129 107
-0.00384622127485934 0.11885544025315 -0.00419089743768419 0.3838454 0.9213595 -0.06131325 107 105 87
-0.00806919413350049 0.120937815297257 -0.00423329674278933 0.4764039 0.8702165 -0.1255493 111 116 92
-0.00563486240799094 0.119526341662563 -0.00229777845351509 0.4195574 0.9042236 -0.07969461 106 109 84
-0.00452740293132115 0.11970733725224 -0.00169955403914512 0.413343 0.9085571 -0.06059239 101 107 75
-0.0126872284656177 0.12406977944939 -0.0037546041727276 0.3193681 0.9418317 0.104676 130 142 114
-0.0127244166860316 0.122414715402744 0.000177459833705873 0.2549482 0.9623673 0.09407739 112 115 102
-0.0237633739409095 0.126550390921511 -0.00988363149991989 0.1416466 0.9725325 0.1847075 108 109 102
-0.0426278719854818 0.100144051011517 0.0151572518509892 0.033309 -0.02508364 0.9991303 164 164 157
-0.0592630916980861 0.0705745477100899 0.00381589614007577 -0.9602039 0.2734556 0.05683734 176 172 164
-0.0574559398557324 0.0739312246352956 0.0053161514731217 -0.9534966 0.299754 -0.03149342 184 183 176
-0.0561161615833214 0.0783604986893044 0.00398893857036942 -0.9646562 0.2629799 0.0167354 176 176 172
-0.0569927131591701 0.0751302631254048 0.00964901100977111 -0.9659531 0.2560682 0.03692754 167 166 154
-0.0576368115594181 0.0758854747322373 0.0069986521010576 -0.957788 0.2860455 -0.02863775 167 163 148
-0.055713782162311 0.0777758585310473 0.00107849248588238 -0.9646115 0.2561038 0.06273391 170 168 163
-0.054541932465632 0.0781647244836829 0.00336290614788648 -0.9670275 0.2535674 -0.023692 197 192 187
-0.0554657276340205 0.0796199133569901 0.00695077254894522 -0.9547712 0.2954152 0.03379093 165 165 159
-0.0536854808830034 0.0850627276086817 0.00481434669931857 -0.9668238 0.253464 0.03174455 162 160 151
-0.0529033688632112 0.0898771175522258 0.00252671218830497 -0.9712632 0.2372086 -0.01948859 173 170 164
-0.054165391332561 0.0912112132327906 0.00557914801266124 -0.957091 0.2875719 0.03576512 179 179 175
-0.0552277011197115 0.0860342916794437 0.00876504566364367 -0.9837663 0.1748757 0.04027796 181 178 177
-0.0551905112378817 0.0836665989086836 0.0105078681211703 -0.9746819 0.1953169 0.1088417 163 159 134
-0.0534671631281081 0.0851379171918463 0.00849870931254909 -0.9872566 0.1556529 0.03311573 179 179 179
-0.0539178308043802 0.0889005776566256 0.00672202141980133 -0.9628366 0.2652791 0.05072096 148 145 132
-0.0528107238453737 0.0879643140920037 0.00764228054589317 -0.9622239 0.2602844 0.07985667 177 178 174
-0.0536925619932269 0.090372634985956 0.00634436657008897 -0.9603772 0.276268 0.03676347 182 179 170
-0.0537332223307609 0.0895456198820875 0.00803197507122527 -0.9727373 0.2263222 0.05060083 174 172 165
-0.057621801171047 0.0715133469553835 0.0114433767920815 -0.9742153 0.2159057 0.0654918 173 171 170
-0.0585197856409452 0.0731560545715965 0.0113121141440119 -0.9693552 0.238411 0.05925071 158 151 135
-0.0580141205026212 0.0708923300446734 0.0139969811491944 -0.9235313 0.1844344 0.3362646 176 175 177
-0.0585665630888079 0.0708923012797811 0.0165688074148699 -0.7874325 0.2308289 0.5715489 152 150 142
-0.0577082094338865 0.0741886609574242 0.0141008991462013 -0.9016484 0.3328156 0.2761593 160 162 153
-0.056102710222707 0.0747518241457763 0.0159854315756385 -0.6241989 0.1995286 0.7553569 163 162 168
-0.0518953391890968 0.071274879790802 0.0159555643741677 0.04079825 0.05567905 0.9976148 183 180 184
-0.0553850566496645 0.0749999943105093 0.0164135905568685 -0.3311803 0.1853685 0.9251801 182 181 185
-0.0537953676736851 0.0757893569852822 0.016157347633231 -0.2556247 0.1740208 0.9509852 184 184 185
-0.052451185805233 0.0746556831101383 0.0162119292449491 -0.1138442 0.09567574 0.988881 157 161 153
-0.0487801255052676 0.0724596438125775 0.0162549407275661 0.05265246 0.01464878 0.9985055 176 179 186
-0.0492989504616475 0.0746646467657992 0.0161617249445962 0.06228007 0.02260939 0.9978026 161 166 166
-0.049123191324048 0.0750155054499902 0.0163561246380245 0.06798868 0.02982369 0.9972402 170 167 164
-0.0457905406186996 0.0744133953342909 0.0160021066385386 0.08385908 0.02140325 0.9962477 165 160 154
-0.0462661951990957 0.0736571749937307 0.0165129751227111 0.08158439 0.01610949 0.9965363 180 180 173
-0.0553161436349661 0.0777662788105985 0.0134303578273672 -0.8676552 0.2863969 0.4063881 160 165 151
