ply
format ascii 1.0
comment File exported by Rhinoceros Version 7.0
element vertex 459
property float x
property float y
property float z
property float nx
property float ny
property float nz
property uchar red
property uchar green
property uchar blue
end_header
-0.178218762516309 -0.0490280583169638 -0.0161463268082731 -0.04352387 0.0002716287 -0.9990523 193 198 209
0.101677321577575 0.164107829492173 -0.00035655862629802 -0.3801737 0.8061261 -0.4534629 136 142 136
-0.0765421386859623 0.0599948794514438 -0.0198534903653429 -0.03927201 0.0178772 -0.9990686 199 204 216
-0.0251629283481585 -0.123618315693822 -0.000440710952879508 -0.0323972 -0.9907189 -0.1320093 170 176 175
-0.00197453744983822 0.148405524170684 -0.00722641460421153 -0.01426088 0.9997505 -0.01719325 156 158 165
-0.17418083001626 -0.0658153846822938 -0.0164253263265527 -0.04465631 0.01247786 -0.9989245 192 198 206
0.127439253526406 0.106105242083413 -0.0295690534059541 -0.04301006 0.01720243 -0.9989265 199 204 214
0.174436116481309 -0.0922036656024525 -0.0244331596553669 0.991211 0.05250639 -0.1214241 164 169 170
0.0559936833931122 -0.0573076877960321 -0.0277179815793685 -0.05387635 0.01141089 -0.9984824 198 203 211
0.135906350382034 0.0270950313450931 -0.0311153203184371 -0.06114191 0.008373958 -0.998094 187 193 205
-0.151938934227584 -0.0933809970027933 -0.0179139602299656 -0.05082473 0.01221516 -0.9986329 199 204 213
0.124784648468534 0.0520123471984542 -0.0300713898797817 -0.05512371 0.003239783 -0.9984743 187 192 204
-0.133792034220339 -0.0523879631682256 -0.018382743867717 -0.04354086 0.01252147 -0.9989732 200 205 216
-0.0607881592996455 -0.0902251265134439 -0.0222539957159227 -0.04575231 0.006873082 -0.9989291 202 207 219
-0.0378560143978419 0.148370584247662 0.00787757953931473 -0.1145751 0.9244242 0.3637476 149 155 139
-0.129752050075884 0.0778634336163788 0.000797499175381911 -0.5549185 0.8121719 0.1801171 185 188 188
0.0214670988560238 -0.0545958673425985 -0.0261267531166675 -0.06073481 0.01488497 -0.9980429 208 212 224
0.144855046001111 0.127956454098622 -0.0301078309627831 -0.04449444 0.02472094 -0.9987037 194 199 208
-0.192928242919159 -0.0851566671051056 -0.0158199451166137 -0.05187308 0.00909322 -0.9986123 187 192 201
0.196300703627152 0.0860299780422512 -0.00944389486969227 0.9254802 0.1928579 -0.326025 140 145 146
-0.0112628223899013 -0.0468479131659623 -0.0248399352493351 -0.03952615 0.007165879 -0.9991928 199 206 218
0.125472112860149 0.0989462298092761 -0.0295612686731135 -0.05283917 -0.0007537804 -0.9986027 202 206 216
-0.140280372843171 -0.0886644060645836 -0.0182990006826567 -0.05511145 -0.00245765 -0.9984772 201 205 216
0.0127019351208536 0.0914146640049115 -0.023864789805098 -0.05796365 0.01589046 -0.9981922 176 181 190
0.109932162579735 -0.0979233172524099 -0.0308062209145833 -0.03896651 -0.002758886 -0.9992367 187 192 201
-0.0820452819460941 -0.0323287880796044 -0.0206552317165205 -0.04415702 0.01757442 -0.99887 204 208 221
0.0866853459231905 0.0276598587183789 -0.0283406121988077 -0.04144921 -0.008144381 -0.9991074 194 199 210
-0.126504478186362 0.0788756533079519 0.0111230300683458 -0.715044 0.695169 0.07383934 182 185 184
-0.176968652644006 -0.025798638838576 -0.0160455440106962 -0.05056943 0.009394995 -0.9986764 196 200 210
-0.105572736969588 0.0229572482204674 -0.0190329673259399 -0.07573593 0.00889015 -0.9970883 193 198 210
-0.0911443149180691 -0.113159830475324 -0.00970110793573598 -0.106978 -0.9413745 -0.3199527 174 177 180
-0.0653983122558698 -0.0658630675842032 -0.0219882239547536 -0.04818498 0.01615855 -0.9987077 194 199 210
0.0371122663703635 -0.0585826701505431 -0.0269275259847718 -0.04603084 0.006198359 -0.9989208 205 209 221
-0.0778721261101399 0.123367113920907 0.0150326139161494 -0.5376956 0.829523 0.1509138 172 176 174
-0.102459574826674 0.0989050370045155 -0.0181448412438771 -0.09560595 0.008650559 -0.9953817 197 202 214
-0.090056245403518 0.0650267522924688 -0.0190096068501153 -0.05097155 0.02382093 -0.998416 196 201 212
-0.158616939390379 -0.111098767994158 0.0200238639751252 0.2216388 -0.9645687 0.1431201 171 176 178
-0.0656998186394638 0.114110658949821 -0.0198560894940326 -0.07303244 0.006853479 -0.997306 191 196 205
-0.146397458047047 0.0154247816473493 -0.017113619018108 -0.05902192 0.01163941 -0.9981889 200 206 219
-0.132993186224066 0.0397154488461471 -0.0173205622747545 -0.05018302 0.01158854 -0.9986728 201 206 217
0.0494828971810558 -0.109572619665735 -0.0278668256444837 -0.03649515 0.001456689 -0.9993328 194 199 209
-0.157221553282355 -0.0554106237569043 -0.0172330799142384 -0.04856275 -0.002023836 -0.9988181 197 201 211
0.0318668416775217 0.155710756696558 -0.0119495062006964 -0.4273553 0.8950998 0.1271368 141 143 138
-0.182705631480677 -0.111513796986398 -0.00917521433858398 -0.1567996 -0.9481688 -0.2763871 169 175 179
0.0174009234871693 0.0637232153438692 -0.0246575597010858 -0.03583192 0.002589762 -0.9993545 191 195 205
-0.0110924356379539 0.139309016057467 -0.0223071020246289 -0.04678062 0.01408696 -0.9988059 177 184 193
-0.145940228907675 -0.110584370998478 0.0148784662069635 -0.02256874 -0.964322 0.2637682 179 183 185
-0.164300848971432 -0.0142390305386199 -0.0164010380244871 -0.04899363 0.02591323 -0.9984629 200 204 213
0.0445448976433579 -0.10440436808151 -0.0278845151103403 -0.05759135 0.006926473 -0.9983162 191 196 203
0.0600445027739082 -0.101851307710704 -0.0278663396970536 -0.05070176 0.02057471 -0.9985019 192 198 206
0.144208823936402 0.0121331080115303 -0.0315138170684204 -0.03985294 0.006940074 -0.9991814 197 203 213
0.135964655694544 0.136061419738463 -0.0294601635861615 -0.05202791 0.02954217 -0.9982086 188 193 203
-0.0454989394447568 -0.112048101151657 -0.0229295545237607 0.09696231 -0.5407154 -0.8355987 210 215 223
-0.0233221083354682 -0.0792660122639119 -0.0241415332200812 -0.04793607 0.003326381 -0.9988449 203 208 219
0.173129580921048 -0.121753181410737 -0.0296360827438167 0.9746715 -0.1371736 -0.1766319 164 171 174
-0.214495091140491 -0.106212108729755 -0.000621929859835113 -0.1099747 -0.9364689 -0.3330638 175 179 183
-0.107360676126877 -0.0702269167432333 -0.0198953006547605 -0.05682294 0.01291059 -0.9983008 201 206 217
0.116350961355303 -0.121682382102405 -0.0313921009258785 -0.06316709 0.02102387 -0.9977815 185 191 199
-0.107690908793991 -0.0629099482426208 -0.0197399866641665 -0.06899416 0.02100468 -0.9973959 194 198 208
-0.115965954435455 -0.0799335608062511 -0.0195041943199588 -0.04231137 0.005678015 -0.9990883 201 206 217
-0.0522753975807518 -0.121011495003136 0.0141664797286263 0.1997612 -0.9688267 0.1465276 184 187 185
-0.0350588427443287 0.0104030398210697 -0.0225355859202256 -0.05229589 0.01167768 -0.9985633 196 200 212
-0.160461356260489 0.0364598119493351 -0.0164171582838195 -0.06034688 0.001854975 -0.9981757 206 211 221
-0.182654726988412 -0.110956856903279 -0.0106813518224148 -0.1624077 -0.931523 -0.3254053 167 173 177
0.176904319328565 -0.12746020725344 -0.015543774106108 0.7474566 -0.06082541 -0.6615202 150 160 162
0.0195084681704358 -0.0464987346439947 -0.0258993388055721 -0.05219671 0.01693576 -0.9984932 204 209 219
-0.0790957737881237 -0.0552180316856171 -0.0211952885573868 -0.06415047 -0.005197906 -0.9979267 198 203 213
0.0218414526583378 -0.12239913844531 -0.0209652670765449 -0.02782895 -0.8389886 -0.5434369 185 189 192
-0.1155125918627 0.000551045656013049 -0.0186913737016673 -0.04944807 -0.0158121 -0.9986515 196 201 212
0.123264502490799 0.102490033603879 -0.0294094936786527 -0.05763153 0.01946883 -0.9981481 200 201 210
0.0527349422418143 0.00643664928194243 -0.0270863608873281 -0.05976982 0.01859418 -0.998039 195 199 209
0.180873408588979 0.0456754136135425 -0.0328291772408842 -0.05105588 -0.001234585 -0.998695 201 206 216
-0.0691025472841835 0.127871827736414 0.0201556969452349 -0.5481656 0.836075 0.02220277 175 178 175
0.0707112928116603 0.0680378033619715 -0.0271386666401709 -0.06010876 0.005648504 -0.9981759 182 188 198
-0.21627377928246 -0.0251475386832396 0.00333012726092752 -0.9571939 0.1957215 0.2132439 180 182 183
0.149314518706751 0.0938370246024455 -0.0307002307995864 -0.05833579 0.01620754 -0.9981654 196 201 211
0.114990517934881 -0.135890160131301 -0.00558331282703622 0.002024453 -0.9999533 0.009453692 187 191 194
-0.141126674528502 -0.107908185300927 -0.0175855338265741 0.0137243 -0.8069302 -0.5904872 186 190 195
-0.21887673174744 -0.0465354647687407 -0.0140893922275165 -0.0458615 0.006620463 -0.9989259 197 202 212
-0.139031158426112 -0.0830027823401578 -0.0184368213991509 -0.05881248 0.002645605 -0.9982656 198 203 212
0.0297235452013825 0.0524200583697032 -0.0257808677479348 -0.0628171 -0.004266477 -0.9980159 235 204 201
-0.102676454261873 -0.0425676847730343 -0.0200832510094898 -0.04093109 0.01334162 -0.9990729 191 197 210
0.0535584336057305 -0.127458092431113 -0.00950074661403921 -0.08753925 -0.9779463 -0.1896258 168 173 175
0.0560535129131633 -0.0938036005421562 -0.0282606239279258 -0.05978744 -0.003311159 -0.9982057 195 199 210
0.180242751400406 -0.0681461188888398 -0.00978159190159983 0.9818354 -0.1828228 0.05074478 143 148 147
0.139257241499408 0.155833241109669 -0.0192367504862592 0.02514813 0.9730561 -0.2291927 118 121 98
0.0574505506976347 -0.0852853323867504 -0.028234300172645 -0.04861471 0.005589653 -0.9988019 198 203 212
-0.221191027330056 -0.0339097876916231 -0.00610470110038253 -0.9436319 0.001980968 0.3309908 186 188 191
-0.190448898978602 -0.0766683641132406 -0.0155007316875938 -0.04697447 0.009052455 -0.9988551 188 193 202
-0.136184983230439 -0.0798437832060221 -0.0188091658326382 -0.0473852 0.01583744 -0.9987511 204 208 218
-0.0666510329747172 0.135118703722422 -0.00340518269889128 -0.5662178 0.8223568 0.05591749 183 185 188
-0.204075085476308 0.0191234669623451 0.0199725384819764 -0.9237246 0.3503711 -0.154832 181 184 186
-0.204568273459899 -0.105868532264734 -0.0143562571560993 -0.07061154 -0.7485006 -0.659364 172 178 187
0.133158376921079 -0.0863270536484601 -0.032003886385825 -0.05568123 0.009405143 -0.9984043 189 195 202
0.0622589243549213 -0.0663044901349238 -0.0281115917334581 -0.04764785 -0.0004557725 -0.9988641 201 206 215
0.0970119544571538 -0.109892232501269 -0.0304122576003591 -0.06695793 0.00461462 -0.9977452 193 198 208
-0.151321169653751 -0.0653046672427533 -0.0175218607518162 -0.05227125 -0.007506389 -0.9986047 193 198 207
0.0432846740495231 0.158298115888052 -0.00256360537774036 -0.5439993 0.7550867 0.3659355 133 136 128
-0.222243353413214 -0.1051395671272 -0.00146005133089949 0.01886445 -0.9729683 -0.2301669 173 177 180
0.182404780836566 -0.116160417111926 -0.0103308512372329 0.8133582 0.09089766 -0.5746182 162 168 169
-0.159734823725942 -0.107846157659905 -0.00145441363909288 0.07509424 -0.964023 -0.2549913 178 181 182
-0.239096527393514 -0.0688620282560789 0.000276454482420752 -0.9380574 0.316474 0.1410413 185 188 190
0.0315423929958091 -0.083729013797878 -0.0272184264378995 -0.05571918 0.01922622 -0.9982613 197 203 212
0.0532446038979651 -0.0686903080872678 -0.0278893759788919 -0.0618811 0.01502801 -0.9979704 194 200 207
-0.00324358378460066 -0.125369873203627 -0.00543807158248844 0.09081926 -0.9002087 -0.4258828 176 182 185
0.0773076617223548 -0.000775608889918455 -0.0282729696794439 -0.05559011 0.01580435 -0.9983286 197 202 211
0.0134371256925915 -0.045228236596853 -0.0255657432037836 -0.05398833 0.02227879 -0.998293 204 208 220
0.143888291478204 -0.137071229906381 -0.0180254116920534 0.08285945 -0.9548575 -0.2852742 176 181 184
-0.115356231518757 -0.112926562996229 0.00461848001775716 0.08405513 -0.86483 -0.4949785 168 176 176
0.083230778526444 -0.0815970518046246 -0.0296286807451271 -0.05581932 -0.005850287 -0.9984238 194 199 207
-0.0506100324162571 -0.0650516194938207 -0.0225193860249071 -0.0379648 0.01641779 -0.9991442 199 204 214
0.182676985388303 0.140532314507603 0.00116071613031865 0.5028022 0.8575873 0.1083237 156 155 123
-0.0394575738249633 -0.0350871573055034 -0.0226950610037545 -0.07508609 0.001625059 -0.9971758 199 204 214
0.114089128658482 -0.0374106837089784 -0.0303343554703592 -0.06429787 0.00666699 -0.9979085 189 196 205
-0.0400699854297345 -0.00297491160422214 -0.0224751825436396 -0.04261176 0.001489528 -0.9990906 198 203 212
0.17105957797754 -0.127241730426267 -0.0340916805249066 0.5922238 0.03337316 -0.8050821 190 194 201
0.0966304884673627 0.0972494123044246 -0.0282335719358207 -0.03321031 0.02142454 -0.9992187 181 186 195
-0.162078136468213 -0.107988739804715 -0.00148386142850482 0.1859811 -0.9359455 -0.2990271 182 186 189
0.0576832643758624 -0.0840723223563664 -0.0283297898258414 -0.0554211 0.01357771 -0.9983708 194 200 209
0.0541425418552127 0.0738809447050738 -0.0263391728998235 -0.05298836 0.01071922 -0.9985376 177 182 193
0.0297199612054498 0.0181490726018819 -0.0260326917197564 -0.04816008 0.00906036 -0.9987985 195 200 210
0.0257296951423686 -0.123054366738033 0.00659641694767249 0.2125174 -0.9764921 -0.03604849 174 177 177
0.00198669664411688 -0.104305352575785 -0.0256168118241125 -0.0380968 0.0002651065 -0.999274 193 199 210
-0.138096513621539 -0.0248591133976019 -0.0175559635182082 -0.06421815 -0.001330834 -0.997935 197 201 211
-0.114861206004119 0.0664404985213354 -0.0180192221974615 -0.04800803 0.02667587 -0.9984907 195 200 212
-0.0633784723294663 -0.0665026801843043 -0.0220816813340898 -0.04790081 0.01030684 -0.9987989 190 196 207
0.0539435345767026 -0.126153903223215 -0.0165303051882901 -0.1788837 -0.9819624 -0.06123991 176 181 183
-0.216493335809543 -0.0970010166860403 -0.0145773130213645 -0.05141382 0.00140323 -0.9986765 185 190 199
-0.153539773978594 -0.0740190202229311 -0.0177173474588272 -0.04206431 0.0005895051 -0.9991148 198 203 209
-0.0887233621630915 0.0249321394134853 -0.0198658868136344 -0.05833429 0.0162177 -0.9981654 201 208 220
0.101663868183675 0.012544214648859 -0.0293040457163617 -0.05458166 0.02373485 -0.9982272 194 199 210
0.127189006698458 0.0706598331089148 -0.03030421503593 -0.03614759 0.0176127 -0.9991912 192 197 206
-0.0857438464945296 0.117250742367914 0.0118465396699501 -0.6831475 0.7121073 0.1619031 175 179 175
0.0371391544774901 0.0102555989554564 -0.0262501302264437 -0.04573476 -0.001777909 -0.998952 200 205 216
0.118030853361868 -0.0883896057578667 -0.0311889036151626 -0.06056671 -0.002588454 -0.9981608 200 205 213
0.150096158251516 -0.119430488113354 -0.0334368439913947 -0.04563324 0.01695364 -0.9988144 191 196 206
-0.16011024738487 -0.108417379999048 -0.000442081332255484 0.08660393 -0.939647 -0.3310035 173 177 180
0.1764849486814 -0.0930094354907351 -0.0143288798317825 0.9838792 0.09343881 -0.1524825 147 155 155
0.0809383777213547 0.155199129487168 -0.026553590382639 -0.04221763 0.01706653 -0.9989626 183 188 197
-0.0363794179614846 -0.07451119099062 -0.0234527004115849 -0.05526967 0.01614947 -0.9983408 196 202 214
-0.240742879217471 -0.072415019682107 -0.00489450531112051 -0.9577402 0.2778237 0.07448246 190 194 200
0.153886173348702 -0.0776055496957432 -0.032572012760789 -0.0399835 0.03027377 -0.9987416 195 201 209
-0.00256964205319266 -0.0709011629695047 -0.0250310086104624 -0.04099046 0.004121048 -0.9991511 198 202 212
0.104936379269901 0.118634502130693 -0.0282929340177826 -0.05286945 0.001276311 -0.9986006 182 187 196
0.107766190031873 -0.133751935534638 -0.0146941718615514 -0.07242603 -0.9300027 -0.3603463 160 169 172
-0.198175408159222 -0.0716418305353993 -0.0152900612174885 -0.05311428 0.005814647 -0.9985715 194 199 207
0.103780322718352 -0.0727236336391406 -0.0303377362548652 -0.05420057 0.00880794 -0.9984912 189 195 203
-0.235936826496583 -0.0610929322756456 -0.0102369120834568 -0.8314983 0.5146397 -0.2091808 190 192 197
0.131634484933693 -0.136593055165932 -0.0119934578134892 -0.0258791 -0.99948 -0.01923519 182 187 189
0.110615941258131 0.0176949002418584 -0.0297014950562772 -0.03618352 -0.01031796 -0.9992919 195 201 213
0.074933356811809 0.0394546955033268 -0.0278872449861696 -0.05920626 0.005351564 -0.9982314 191 197 205
0.188537620134961 0.0793689689176647 -0.0325331967000493 0.1319618 -0.02280997 -0.9909923 194 197 204
-0.169322331402231 -0.114998991676843 0.00847836734655721 0.1914508 -0.9087374 -0.3708677 175 182 185
0.0021989464236587 -0.0840172206795349 -0.0254522647634562 -0.05421692 0.01248089 -0.9984512 204 209 218
0.0183124532860518 -0.0155604549937067 -0.0255240824179216 -0.04451738 0.009775405 -0.9989608 248 209 206
0.169871525302518 0.132645070718637 -0.031105306909839 -0.02920465 0.02830419 -0.9991726 198 203 208
0.0383708278452827 -0.0823099813310566 -0.0274362387935573 -0.04671042 0.0137871 -0.9988133 201 206 214
0.167316162062676 0.0931309863984454 -0.0316764373917572 -0.04701516 0.01112222 -0.9988322 195 200 211
-0.00391942717795968 0.00979492683011862 -0.0242455353739494 -0.06332482 0.02835218 -0.9975902 246 206 195
-0.13198944371626 0.0424617480892708 -0.0174628326995977 -0.04678375 -0.002616134 -0.9989016 197 202 214
0.113128368125014 0.161340408655643 -0.00638548671295203 0.07882816 0.9686434 -0.2356187 142 146 125
-0.177983053063019 0.0393266300197216 0.0215905904473836 -0.4308856 0.8975053 0.09392498 172 176 165
0.164611963930265 -0.134901396328708 -0.0303952018185644 -0.3091997 -0.8751257 -0.3722238 177 181 181
0.00160168430869179 -0.122294694622374 -0.0125756998712317 -0.03402499 -0.9614875 -0.2727343 174 177 180
-0.223387438998064 -0.0378680053834087 -0.0135542328889912 -0.6654342 0.2063261 -0.717375 187 190 194
0.126709988304687 0.0853929363051554 -0.0296755676654191 -0.05113253 0.01005573 -0.9986413 193 198 207
0.181497067939195 -0.0802918282982088 -0.00155849254817025 0.8638802 0.01493071 -0.5034759 158 164 162
-0.195181421173854 -0.00662366891976673 -0.0149640043785277 -0.05327576 0.0070835 -0.9985547 198 202 213
-0.207651687186986 -0.0944274350527657 -0.015136119269664 -0.05792321 0.001626507 -0.9983197 190 195 204
0.171496525097273 -0.124660677018884 -0.0341062381967939 0.5336679 -0.04145227 -0.8446777 195 199 206
0.0179185356342846 -0.124382190127106 -0.00293397057482642 0.06359347 -0.9960501 -0.06196826 165 171 171
0.0691404869642617 -0.0780020467839942 -0.0286213406554879 -0.05588981 0.004821236 -0.9984253 201 206 215
-0.22638776910865 -0.0462680286467493 0.0167807732480994 -0.9204651 0.3878255 -0.04832663 176 177 176
0.145808440976147 -0.137659309731762 -0.00815443557488504 -0.01429159 -0.9998825 0.005545222 190 195 199
0.0931849278409688 -0.0750710524377625 -0.030156072691308 -0.05569285 0.008066322 -0.9984154 192 198 205
0.0452202654177624 0.114143985073932 -0.0255018695989159 -0.03213262 0.01102859 -0.9994228 178 184 193
-0.240681431929211 -0.0916447503256071 0.0232065576964267 -0.9692388 0.1006534 0.2245998 176 180 178
0.177035391693726 -0.0787888434833341 -0.0242964193677858 0.9744861 -0.2229062 0.02626177 157 164 162
-0.123621873548013 0.0812335090849851 0.0157014046413891 -0.5817469 0.8064711 0.1057113 181 184 179
0.00860521567741279 0.113806386608627 -0.023635283055716 -0.0506804 0.005784991 -0.9986982 187 191 200
0.0558163102040695 -0.0220222480662509 -0.0275401531678745 -0.04349041 -0.001151575 -0.9990532 199 204 215
-0.228787813140655 -0.051015070075369 -0.0128701939635213 -0.7803978 0.3297354 -0.5312757 192 195 200
0.157728752714792 0.156764226646884 0.00580232437053391 0.3592211 0.9226999 0.139947 156 152 97
-0.0512640908827717 -0.119090663088988 -0.00424255243024635 0.1609145 -0.7717947 -0.6151743 164 170 172
-0.104947278410828 -0.114496015892266 0.0190850452225676 -0.2329427 -0.9537647 0.1899229 178 181 182
-0.0733468119537234 0.130295798662854 -0.00401409741299913 -0.6231885 0.7820474 0.006160026 175 179 180
-0.138099371942819 -0.0951866156546693 -0.018563106259058 -0.04150367 -0.004055859 -0.9991301 203 207 218
-0.207039581289252 0.014959399358867 -0.00676954923444589 -0.929175 0.3394114 0.1464029 181 183 184
-0.0327808513872526 0.08197623376017 -0.0217051811003755 -0.04618509 -0.0006953701 -0.9989327 184 189 198
0.163457418870129 0.129290388093527 -0.0309510636107139 -0.05804667 0.01938662 -0.9981256 197 201 206
-0.0263639541600421 -0.0842490912036051 -0.0240299859392517 -0.02861556 0.01305783 -0.9995052 198 203 213
0.0305985194649571 -0.106848625759805 -0.0271500426471248 -0.05508386 0.005014454 -0.9984691 191 197 207
-0.0351071578018552 0.0354132240019579 -0.022003804558383 -0.04918748 0.02263046 -0.9985331 196 200 211
-0.0248733872060602 -0.0860881770229933 -0.0241673141649928 -0.04920869 0.005310885 -0.9987744 205 210 220
-0.0801493617872545 -0.0857985815243172 -0.0214137509972989 -0.04708587 -0.004094657 -0.9988825 196 201 211
-0.152575286163251 0.0433550244158818 -0.0162247971672823 -0.05899834 0.01546236 -0.9981383 197 201 209
-0.16210202825903 0.011861253298732 -0.0161967053873225 -0.05442726 0.03575518 -0.9978774 198 203 212
-0.211098823008595 -0.0480293953041383 -0.01450059072792 -0.05132033 0.01368931 -0.9985884 194 199 209
-0.191098004658311 -0.00762336637822159 -0.0150801889404917 -0.053466 0.006945813 -0.9985455 197 201 212
0.0698715100045185 -0.0242348823452762 -0.0285509116700945 -0.04802225 0.02420766 -0.9985529 206 209 221
0.0233541059090794 -0.0725240758945109 -0.0264446325011557 -0.03536313 0.0126159 -0.9992949 198 203 214
-0.051343660337911 0.144867447224808 0.000389897491765601 -0.6568431 0.7463435 0.1073714 181 184 184
0.175056510610199 -0.119511539373227 -0.0226398324274473 0.9475433 -0.2034271 -0.2465343 169 173 174
-0.0343167313830099 0.0291693842934504 -0.0223640829084252 -0.04262024 0.002832304 -0.9990873 204 194 191
-0.0513722363890994 -0.0926456936000412 -0.0227662006819363 -0.04926617 0.004854012 -0.9987739 191 197 207
0.164649273795514 -0.127480241300614 -0.0341056741656032 -0.05100372 0.01480632 -0.9985887 190 196 205
-0.146432359930602 -0.0890746444645022 -0.0181261310752621 -0.03466257 -0.00173441 -0.9993976 200 204 214
0.0501570944446764 -0.0174626615251264 -0.0266833124545487 -0.06014913 0.01777548 -0.9980311 196 201 210
-0.14918369829375 -0.0646427569176629 -0.0177576840625293 -0.04691986 -0.005268413 -0.9988847 190 196 205
0.0608408386972225 -0.106252838049374 -0.0284138614757235 -0.0433954 -0.00524517 -0.9990442 194 200 209
-0.0639269770141424 0.102609827809954 -0.0201409625853315 -0.05882387 0.002473118 -0.9982653 192 196 207
-0.133602946078074 -0.0401578652728486 -0.0180788048710063 -0.05990151 0.01699273 -0.9980596 198 203 215
0.16947393979421 -0.117073700979639 -0.0340312300118782 -0.004801785 0.002861527 -0.9999844 194 199 207
0.153698273018938 0.0199722821587792 -0.031777128199643 -0.04060208 0.01064073 -0.9991187 201 206 217
-0.0577468092292879 -0.0605142391689019 -0.0222246740742232 -0.06529395 0.02194694 -0.9976247 199 203 214
-0.158463272688347 -0.0432164746867794 -0.0169423459303976 -0.04618592 -0.00286586 -0.9989287 198 203 213
0.141984938599118 -0.0503040132027889 -0.0319607286976774 -0.0525234 -0.0008943569 -0.9986193 192 198 208
0.058157495152482 -0.0912977029702465 -0.0284036206402424 -0.04416487 0.01915494 -0.9988406 196 203 214
0.179371406111767 -0.0789993456631095 -0.00533842708284127 0.9058657 -0.04671694 -0.4209808 146 152 154
-0.0398084235584263 0.08677137446238 -0.0214648112795577 -0.05797312 0.01497329 -0.9982058 190 194 203
-0.0217116054177245 -0.0806815320816072 -0.0239965478789945 -0.05628224 0.008351087 -0.9983799 205 210 219
0.105092270627202 -0.128103588453853 -0.0280003402079174 -0.1335251 -0.8765053 -0.4625036 169 175 180
-0.129701875750072 -0.0133626928602121 -0.017766632173796 -0.04116088 0.01679449 -0.9990114 199 204 215
-0.0546758470048669 -0.0815877108151124 -0.0224935957446845 -0.04481677 -0.01743402 -0.9988431 201 206 217
0.0526199692986656 0.0860745044515009 -0.026007720335138 -0.04450016 -0.01885166 -0.9988315 180 186 194
0.0852084384921915 -0.125957572258935 -0.0297504514200594 -0.1076563 -0.6554781 -0.7475016 201 204 209
0.186687835735125 0.0491742862897611 -0.0215988141985518 0.9849113 -0.09786996 -0.1427275 158 165 169
-0.0488466711381023 0.0208807299079695 -0.0216899745954443 -0.07425577 -0.005383808 -0.9972247 193 196 202
-0.226154982689556 -0.111721892464178 0.0136329839234809 -0.08214606 -0.9250197 -0.3709319 173 179 183
0.0476929089296599 -0.126328833915338 -0.00377263735901845 -0.1259096 -0.9910653 0.04400511 181 184 187
-0.0231594803152615 -0.123427720845661 -0.00239426866740661 -0.1368478 -0.9696106 -0.2028002 176 180 181
-0.0771958454058289 -0.0907483294122418 -0.0213734630894351 -0.05719836 0.01854006 -0.9981906 205 209 220
0.0111025303882828 -0.124413927256407 -0.00710677428249762 0.1180871 -0.9921602 -0.04091008 171 176 178
-0.180310188953631 -0.0659974867100606 -0.0163129083670795 -0.05043787 0.01267952 -0.9986467 189 194 203
-0.0864570399467954 0.081434932736703 -0.0189935339116693 -0.05567556 0.002031161 -0.9984468 205 208 220
-0.0713161638267941 -0.117424332075566 -0.0169569325393717 -0.2679341 -0.8730263 -0.4074756 172 177 178
-0.0785859278071221 -0.0360378804047945 -0.020412768502288 -0.03618931 -1.637495E-05 -0.9993449 195 201 209
0.0327469249682356 -0.0954519840658543 -0.027076245151447 -0.04843568 0.01710011 -0.9986799 197 201 210
0.0911411449794172 -0.0991346658596617 -0.0299601655756816 -0.04464496 0.01202494 -0.9989305 190 196 204
-0.0232750404029729 0.0351873266905446 -0.0231491155110649 -0.05191404 0.01244166 -0.9985741 241 204 197
0.0763445461055351 -0.0737974324366585 -0.028882007236554 -0.05034202 0.006404006 -0.9987115 198 203 211
-0.0102851731247297 -0.0704608398916002 -0.0248541090761601 -0.05479967 0.006002409 -0.9984793 208 212 223
-0.199146902655809 -0.0245696764611861 -0.0148360894670868 -0.05298521 0.01116443 -0.9985329 193 198 209
-0.00318780828353427 -0.0691610270949335 -0.0248000209788718 -0.03668386 0.004581756 -0.9993164 200 205 215
0.0682364807636925 -0.12649025304447 -0.0266818573791819 0.02524819 -0.7971324 -0.6032764 173 180 183
0.103222772543453 0.132510557728238 -0.0278796150299873 -0.04202571 0.01544893 -0.9989971 191 196 203
-0.188281636659501 -0.0977523707574464 -0.0161354352284778 -0.04843693 0.009098995 -0.9987848 191 196 204
-0.197470088858142 -0.0423834815112388 -0.0150840286211594 -0.04760796 0.001532687 -0.9988649 200 205 214
-0.234419442105852 -0.111560832413247 0.0238566564005871 0.03512153 -0.9940357 0.1032447 189 191 193
-0.188767651718332 -0.0494253472266876 -0.0156125446948737 -0.05791159 -0.0004812488 -0.9983216 196 202 211
-0.0590646297266063 -0.11839889260813 -0.0132548746826643 0.3439481 -0.9279994 -0.1432372 178 182 183
-0.138860595189317 -0.0144638387981308 -0.0179339400291763 -0.04555037 0.01025815 -0.9989094 201 206 219
-0.0407117762924398 -0.0660041765710502 -0.0231347850603432 -0.0601485 0.02120511 -0.9979642 200 205 216
-0.155036440564243 -0.0541724766181716 -0.0172455993821488 -0.04773544 -0.0129774 -0.9987757 188 193 202
-0.150335805972311 -0.0247057285843137 -0.0172137238189342 -0.04066792 -0.009598545 -0.9991266 196 200 211
0.118184906338495 0.084733648452765 -0.0293783184764566 -0.04721103 -0.01080489 -0.9988265 181 187 196
-0.149317798426548 -0.108173437564623 -0.00565920749502957 -0.08092465 -0.9942693 -0.06985632 176 182 187
-0.127633242942318 -0.110772496685522 -0.00104236400117691 -0.05479517 -0.969496 -0.2389036 178 182 184
-0.00510042012270084 -0.0528773717388021 -0.0246012771202698 -0.03752804 0.002825629 -0.9992916 203 207 220
-0.0637591514046127 -0.119031163532797 -0.0171694581511926 0.163301 -0.9439263 -0.2869424 172 177 183
-0.0710858229755625 0.0323069378858379 -0.0203784462369721 -0.04083832 0.02180438 -0.9989278 195 201 212
-0.066945603171456 -0.0903552249822576 -0.0217515301353129 -0.05699262 0.002378565 -0.9983718 203 208 220
0.0212380481590234 -0.0633111430158044 -0.0260819278290367 -0.03492968 0.01045542 -0.9993351 195 200 211
-0.0756603328518969 0.106680332451909 -0.0194778556081432 -0.05234803 -0.002282206 -0.9986263 195 200 209
-0.0187038809749819 0.0459498286999138 -0.0229934929545139 -0.04686989 0.02374723 -0.9986187 229 202 198
0.108997948972377 -0.05824817226173 -0.0304506918165608 -0.04154817 0.01664114 -0.9989979 195 199 206
0.0997810327566601 -0.130974119738417 -0.0165774378056542 -0.05360185 -0.9704682 -0.2351983 162 173 171
0.0419282366318531 -0.10361906833853 -0.0273909125556613 -0.0591783 -0.0003509782 -0.9982474 193 199 209
-0.0830150356090446 -0.0353802674384336 -0.0211774431448498 -0.03719454 0.01948111 -0.9991181 201 206 220
0.138227542829612 -0.134451396793659 -0.0227241333373799 -0.1691172 -0.8892415 -0.4250282 167 173 180
-0.108682342975612 0.044246291449459 -0.018175796495661 -0.05578128 0.005390591 -0.9984285 195 200 211
-0.121549072318109 -0.0360662724686093 -0.0182703031624784 -0.07174529 0.02376758 -0.9971398 199 204 213
-0.158715694260802 -0.106843268926297 -0.0133914736652224 -0.03130227 -0.9904881 -0.1339909 181 184 190
-0.0364282889136617 0.134071537325156 -0.0211050157070579 -0.05190565 0.001602381 -0.9986507 191 196 205
-0.00501157540449704 0.12864979465612 -0.0227842458693241 -0.05433106 0.009166745 -0.9984809 185 188 198
-0.0941332444473719 -0.0723284644601062 -0.020731631062842 -0.0504715 0.0106897 -0.9986683 190 196 206
0.0133593153245892 0.00590114552259513 -0.0250192684956816 -0.0509243 0.006462572 -0.9986816 198 202 214
0.0947813112328045 -0.128037296701772 -0.0249364409153059 -0.05960466 -0.9335701 -0.3534037 170 177 180
-0.111195753798651 0.0791246900912869 -0.0179660650790073 -0.04573732 0.003448268 -0.9989476 207 211 223
0.169785640321386 -0.028973657216683 -0.0330555945254803 -0.04776272 0.0176288 -0.9987031 197 203 213
0.0178211117176191 0.148377250095835 0.00752843702061512 -0.3027968 0.9117892 0.2774068 138 142 134
-0.0386323779051241 -0.0212089110298136 -0.0228948682553911 -0.06602909 0.01317862 -0.9977307 241 206 207
-0.0730060515734939 -0.0479918810812906 -0.0215980507056892 -0.05440629 0.007897103 -0.9984877 203 207 219
0.151663995054849 -0.122746854761384 -0.0332252979241742 -0.05101872 0.02197695 -0.9984559 189 195 204
-0.154686116382788 0.0595052534000011 -0.0063769111399461 -0.5825607 0.8126877 0.01271948 178 181 181
-0.117241161732019 0.0852403927162784 0.0180965184423587 -0.6492898 0.7203597 -0.2439355 181 184 183
-0.224185767277524 -0.111843194275862 0.013467681698914 -0.0931825 -0.9380121 -0.3338417 176 181 185
0.158600848651971 0.126555534481598 -0.0308866171195631 -0.0526042 0.0108517 -0.9985565 191 195 206
-0.128962031900263 -0.0741685400060503 -0.0188118451214174 -0.05781068 0.007202317 -0.9983016 201 206 216
-0.241815782215031 -0.105207125857001 0.0232809197766788 -0.996511 -0.07707227 0.03202449 182 185 187
0.189848465711698 0.138504242246157 -0.0200740242303787 0.7139468 0.6790165 0.1709288 165 165 132
0.102793461078288 0.114935353312402 -0.0281392674435236 -0.04719583 -0.002889754 -0.9988815 183 188 196
0.183429162645421 -0.000297084612565612 -0.00860624227274492 0.817107 0.1538009 -0.5555912 146 155 153
0.104194876814406 0.0540652347691954 -0.0290427125255611 -0.04600303 0.01025593 -0.9988887 195 199 210
0.0922929169700896 0.142398240932048 -0.0272173453415175 -0.04490697 0.007063575 -0.9989662 186 190 198
-0.0812470043090255 -0.0987390942029568 -0.0214210694094037 -0.04901689 0.006285619 -0.9987782 196 201 213
-0.0484041655685262 0.0751451858013195 -0.0210662007564537 -0.05697809 0.009595273 -0.9983293 191 197 207
0.088053313846664 0.157947033149273 -0.0137510935425761 0.09863073 0.9951007 -0.006819123 136 145 139
-0.0336376226596748 -0.0164720858163778 -0.0228890046069068 -0.05983486 0.0003351271 -0.9982082 234 204 200
-0.0742114494449768 0.0873980739430064 -0.0196659845686161 -0.03873856 0.0005308387 -0.9992492 196 201 212
0.145791610709004 -0.135313965897653 -0.000898612221638395 -0.002995267 -0.8889074 0.4580771 176 179 181
0.167696027195 -0.136772374305151 -0.0151030820636797 0.3441103 -0.8469698 0.4052534 200 202 201
-0.191655709300482 0.0290871602622663 -0.0139644282328819 -0.1523754 0.1074095 -0.9824688 185 191 199
-0.237387682149365 -0.0821575173803679 0.0260595695341336 -0.9200972 0.1075555 0.3766338 164 166 159
-0.00613643865672009 0.123953285994206 -0.0226608044521937 -0.06114516 0.01787473 -0.9979688 177 183 192
-0.12643905454665 -0.0729914109447622 -0.0188508542386535 -0.04145653 0.0061831 -0.9991212 202 206 216
-0.133599115518508 -0.111499971813158 0.00529320046968129 -0.1636639 -0.9264373 -0.3390104 170 174 178
-0.154652855280339 -0.0339088764488921 -0.0171341208997126 -0.05650775 -0.00939901 -0.9983579 201 206 216
-0.10622271405008 0.0961700602064474 0.0221399358327393 -0.7858705 0.606661 0.1198753 172 176 171
-0.0820748679018066 0.0730404764438879 -0.0194219537294535 -0.04083999 -0.001677469 -0.9991643 198 203 214
-0.157873095091183 -0.114758318991098 0.0125424724346238 0.1764594 -0.9481665 0.2642772 177 181 184
0.118876064745585 -0.0446394975646019 -0.0308319369208505 -0.0638775 0.008767346 -0.9979193 195 200 209
0.0956287232214187 -0.109005633531998 -0.0295168011999486 -0.0536592 -0.002504166 -0.9985562 193 199 207
-0.175673710909534 -0.100932678876442 -0.0167620691944421 -0.05634062 0.0004814221 -0.9984115 185 191 201
-0.13765198314754 0.0104386626323755 -0.0174848833661799 -0.06185244 0.001048023 -0.9980848 197 202 212
-0.201532292860975 -0.112575369895866 0.0142576015840299 0.1931609 -0.9644759 0.1802088 180 182 186
0.0650900884374742 -0.0901575372682767 -0.0287965790885228 -0.05046867 -0.003379303 -0.9987199 190 197 207
0.161015315685359 0.155904661542969 0.000862012923987521 0.4505828 0.8851479 0.1161395 152 154 121
-0.143612832056685 -0.110823501893971 0.0155583057500093 -0.1027986 -0.9760674 0.1916377 184 186 188
0.102819254928836 -0.118369555863244 -0.0308389355814661 -0.05064702 -0.01915744 -0.9985328 183 189 198
0.038243505356366 -0.0440105463538748 -0.0268416353172303 -0.04815203 0.0295049 -0.9984041 196 202 212
-0.125800705551455 -0.0454423327846259 -0.0189591527521091 -0.05462981 0.01049704 -0.9984515 204 209 221
0.159305853996864 -0.089542758019438 -0.0330533460153358 -0.0499918 0.01519331 -0.998634 197 203 210
-0.207552225261609 -0.0167091699502533 -0.0143990626579067 -0.04085122 0.006701595 -0.9991428 191 196 207
0.0930737072780249 0.152565606114689 -0.0271646660748865 -0.04317677 0.01356133 -0.9989754 183 190 197
0.0121276310421254 -0.10381067731969 -0.0260561390691917 -0.05097306 0.002972135 -0.9986956 198 203 212
-0.152925674112827 0.0592868516878725 -0.0161693651342543 -0.2470358 0.3169808 -0.9156945 197 202 211
-0.231278785561143 -0.0986773494293408 -0.0139713709422719 0.008453183 -0.09693177 -0.9952551 191 196 207
0.0959937219534431 0.159031347804867 -0.0197301462707223 0.02939413 0.9977397 0.06042824 144 150 145
0.00823429825168731 -0.0220877584671094 -0.0249831992967073 -0.05288859 0.01170198 -0.9985319 203 207 219
-0.00328555194366487 -0.0909910279871646 -0.025281848397528 -0.06042466 0.01100562 -0.9981121 198 203 214
0.134977627819629 -0.129963087295794 -0.0320618785289265 -0.05734297 -0.5682449 -0.820859 194 199 204
-0.212588343984971 -0.106300243740097 -0.00264443865236219 -0.2503001 -0.9293307 -0.2714669 171 175 180
-0.10805023528098 0.0945959166046579 0.0210137253388654 -0.8050597 0.591768 0.04110423 181 183 179
0.108718059939769 -0.128527591238843 -0.0307073251268841 -0.365142 -0.6029517 -0.7093099 179 182 188
-0.0811358518511751 -0.116681279015465 -0.000158672615843791 -0.3696902 -0.9210531 -0.1224351 187 189 189
-0.206011261092857 -0.0260973275947619 -0.0144610045217995 -0.05612526 0.01751621 -0.9982701 199 204 214
-0.177152891001604 -0.110273831137916 0.0220214910005088 0.1050813 -0.9788927 0.1752912 175 177 179
-0.162925115053306 -0.11327154384755 0.0142707879105612 0.002172648 -0.9167719 0.3994053 179 183 185
-0.00412679567508201 0.122996643601195 -0.0228121722149282 -0.06264359 0.02370866 -0.9977543 179 184 193
-0.120478820287385 -0.0908173997793622 -0.0194323113300257 -0.04687866 0.002942699 -0.9988962 195 200 209
-0.0554109856340828 0.0887460652603544 -0.0206480828431856 -0.04014261 0.009344336 -0.9991503 197 202 213
-0.151357106359359 0.0607393377517069 0.00260428070801766 -0.6709473 0.7362729 0.08793122 170 175 172
0.0965547381012536 -0.12940235974014 -0.0245913563232235 -0.03228225 -0.9479305 -0.316837 145 157 169
0.0356880402275052 -0.122362251554996 -0.0220226786845972 0.3322859 -0.9273541 -0.1720479 175 180 185
0.0299438799185267 -0.0888443475445606 -0.0269807855505271 -0.04431734 0.003824448 -0.9990102 198 203 212
-0.115517497067684 -0.109767014773042 -0.00662905410693948 0.241673 -0.9535728 -0.1797029 172 177 182
-0.0347635358487663 -0.120343534909817 0.0109613347325024 0.06636856 -0.9684463 0.2402228 182 185 182
-0.146790540984227 -0.0695404705860215 -0.0178483220884116 -0.05592131 0.007321945 -0.9984083 203 206 212
-0.0807411448403829 -0.115178377635382 -0.0115371226490376 -0.2581917 -0.8984033 -0.3552584 171 175 174
0.0379776882104373 -0.106834618416045 -0.0273511659721902 -0.0410955 0.01417345 -0.9990547 192 197 206
-0.0223802828441925 0.0718274308815965 -0.0224132724546693 -0.05558457 -0.01095611 -0.9983939 186 190 199
-0.243696353088062 -0.0801532176271105 -0.00116598291842357 -0.9173456 0.3216076 0.2346177 187 190 194
0.177268069218356 -0.0851379961939008 -0.00664962952534581 0.867466 0.04374832 -0.4955691 158 163 163
0.194492995964738 0.131948965109084 0.00280521167307601 0.6665323 0.7355787 0.121073 150 151 104
-0.226341372597408 -0.0483310681430227 0.0129230235311741 -0.8553905 0.4970186 -0.1458753 168 173 174
-0.111461114600373 -0.0268011962164831 -0.0191074681797143 -0.05013597 0.01807361 -0.9985788 202 207 217
0.109489875171466 0.160245179398969 -0.00874656589704204 -0.2394482 0.9387305 -0.2478905 141 147 135
-0.170208442280691 -0.110617923747012 -0.00371537048341825 0.3675556 -0.9128237 -0.1779206 173 179 181
-0.139141038094404 -0.0452700728796621 -0.0178099173204059 -0.04046823 0.006751166 -0.999158 195 199 208
-0.200484979056942 -0.011085026392129 -0.0146561191017367 -0.0547855 0.007112925 -0.9984728 199 203 214
0.190757932566111 0.115303184681537 -0.031986602615035 0.2285645 0.03101401 -0.9730346 186 189 189
0.104437415356339 0.139532510301558 -0.0282077409453334 -0.04288247 0.01017578 -0.9990283 192 197 205
0.109508502747105 -0.13503198716838 -0.00727425399325959 -0.03617337 -0.9991049 0.0219292 184 188 191
-0.052670377677546 -0.105534860250136 -0.0228180311581628 -0.05319306 -0.001788811 -0.9985827 197 202 214
0.0588328227117015 -0.129302969233778 0.00198627205891105 -0.2831866 -0.9353057 0.2121526 160 165 164
0.0663488355437386 0.0896677993924118 -0.0270559988268868 -0.04831858 0.007460477 -0.9988041 182 187 197
0.0651441203448514 -0.130132500453929 -0.00244827981430673 0.1792728 -0.9469266 0.266817 182 186 186
-0.196622917362697 -0.0312713110775822 -0.0149545584440411 -0.04678658 -0.004678124 -0.998894 198 203 214
-0.247312509736587 -0.0890773835598335 -0.0115501865512559 -0.8610161 0.05324321 -0.505783 186 189 192
-0.0829401611130639 0.02492567453237 -0.0199763805303331 -0.05220131 0.02098874 -0.998416 197 201 213
-0.201980171544494 -0.113793972402719 0.0101803441671608 -0.01581446 -0.9998537 0.006517103 190 191 196
-0.00459609764287217 -0.0598087917471579 -0.0248569626775385 -0.05935228 0.006663846 -0.9982148 204 208 218
0.0984344515987557 -0.12798576206711 -0.0273916521048246 -0.01691731 -0.8837549 -0.4676442 188 194 199
0.191276049940451 0.124214150895023 -0.00917738324354223 0.9728038 0.04317016 -0.2275723 144 142 108
0.133026759055739 -0.0975935759601489 -0.0319765591793323 -0.03659275 0.007224483 -0.9993042 191 197 203
-0.213823339688614 -0.0163637286222384 0.00186986814020779 -0.9606051 0.1745618 0.2162546 185 188 191
0.176426683759805 -0.113682777440288 -0.0277087809225091 0.9618499 -0.197832 -0.1889637 164 170 171
-0.153074282283974 -0.0722892481486938 -0.017602078549132 -0.0419682 0.01129061 -0.9990551 198 203 210
0.0750765330249056 0.0585239612898354 -0.0274580881986017 -0.04801893 0.01167421 -0.9987782 183 188 199
-0.0338938503898988 -0.123024964152404 -0.00170500514324684 -0.032295 -0.9676057 -0.2503922 179 182 182
-0.0323181634816845 0.0124745332075656 -0.0226652151459286 -0.0549641 0.007464891 -0.9984604 197 201 212
0.13913826999552 -0.11385821605758 -0.0324713807957213 -0.05721274 0.03476344 -0.9977566 186 191 199
-0.0097604024990896 -0.116287484107701 -0.0222908832861309 -0.1581931 -0.8951864 -0.4166729 182 184 194
0.0952239946743115 -0.109139448244967 -0.0302663576444568 -0.04560218 0.001231525 -0.9989589 190 196 204
-0.0345163847359948 0.0382465133245712 -0.0223647345708197 -0.04959628 -0.004428228 -0.9987595 195 200 212
0.1551857648767 -0.106085009047144 -0.0332294265277516 -0.0287893 0.02108236 -0.9993631 188 193 203
-0.0399351489325547 -0.0807345230699918 -0.0233976727333055 -0.04234311 0.001261797 -0.9991024 194 199 210
0.0133783792556664 -0.0102448900645875 -0.0251982981850392 -0.06081823 0.01631512 -0.9980155 222 205 206
0.127546493620183 -0.135280078790701 0.00246274839450428 0.1059009 -0.983386 0.1474342 164 170 167
-0.0788652827796419 -0.0890212822950091 -0.0214891303693827 -0.05138529 0.01071877 -0.9986214 199 204 214
0.0365356468908026 -0.105158395765468 -0.0270076157768127 -0.04143603 -0.005122514 -0.999128 193 198 208
0.135307735424093 -0.0512397059078504 -0.0316511722225168 -0.03750685 0.0004089015 -0.9992963 196 202 213
-0.100671799472602 -0.0233176489650194 -0.0196960501058386 -0.06156412 -0.01265932 -0.9980229 197 202 211
-0.231310728793296 -0.105418941713215 0.00617715266760382 -0.07352526 -0.9358148 -0.3447385 162 167 170
-0.151889012902171 0.0616514083183588 0.0118120457958936 -0.6282836 0.777657 0.0225687 170 175 172
-0.0176747021067135 -0.125449571584065 -0.000582878279304977 -0.0843918 -0.9947564 -0.05777271 169 172 171
-0.198708316657319 -0.109453709523704 -0.00796200908970723 -0.1772629 -0.8717298 -0.4567987 172 178 179
0.101014257106923 -0.119291958508547 -0.0304628292538795 -0.05571613 -0.005794383 -0.9984298 188 195 202
-0.138443406180773 -0.0349566884354738 -0.0178403710240873 -0.03707004 0.01074749 -0.9992549 202 208 219
-0.0695868405028403 -0.119808371607598 0.0157008607158938 -0.3035075 -0.9197937 0.248722 156 164 148
0.110978201718411 0.159026605220953 -0.0248039263585404 0.001398412 0.9035166 -0.4285508 124 132 120
-0.144393754942111 -0.0437241762234558 -0.0177634668163553 -0.04355557 0.003422254 -0.9990451 202 206 217
-0.0633681494383517 0.137248638356506 -0.00683322528838176 -0.717083 0.6961198 -0.0347741 181 183 185
-0.0958786638853777 0.00328500120860686 -0.0194258661178058 -0.04753065 -0.001057778 -0.9988692 199 204 215
-0.211804269319648 -0.104944363898562 -0.00919070661073096 -0.2314243 -0.9619408 -0.1453024 173 179 184
0.115293546462969 -0.0657157516418062 -0.0308785333800242 -0.05096187 0.002407703 -0.9986977 192 197 205
-0.195990881797608 -0.105839069699054 -0.0152246223272902 -0.03598415 -0.6408119 -0.7668542 196 200 206
0.0478436673398194 0.125167688013656 -0.0252626932038736 -0.04112168 0.01391404 -0.9990572 184 187 195
-0.057995208152686 -0.0691061716931601 -0.0224514220128463 -0.05486919 -0.006877285 -0.9984699 190 196 207
-0.222859529610148 -0.107639365302605 0.00689208444542871 -0.1131103 -0.8770017 -0.4669841 163 168 172
-0.177427926840585 -0.114180279611944 0.0021560569452081 0.2751558 -0.9137691 -0.2988567 178 183 187
0.0204246288173409 0.00252185769452218 -0.025366387248827 -0.04407587 0.01223919 -0.9989532 197 201 211
-0.17269073820225 -0.0427370582628538 -0.0163242821277315 -0.05876089 0.0227711 -0.9980124 194 199 210
0.0127245697717429 -0.109914734618502 -0.0262316730494913 -0.04568228 0.01314222 -0.9988695 198 203 212
-0.0937771186752824 -0.0383434825642567 -0.0200103951772867 -0.05618196 0.01235387 -0.9983441 197 202 214
-0.00659417262810469 -0.0436300568557962 -0.0246160688436973 -0.04077457 0.001791263 -0.9991668 206 211 223
-0.0694385307796038 0.00403949735120457 -0.0208912815239492 -0.04469741 0.009063761 -0.9989595 198 203 214
0.141754817332277 -0.0937958268956609 -0.0322852712412938 -0.06099904 0.01909987 -0.9979551 194 200 207
-0.117306619384074 -0.0343099837402087 -0.0191450635186277 -0.04957874 0.01462359 -0.9986631 199 205 216
-0.126152746959549 -0.0247001661327404 -0.0180494943523379 -0.04817063 0.001046594 -0.9988385 193 199 208
0.126715277267095 -0.0362721744687978 -0.0310687070257581 -0.04315423 0.02226829 -0.9988202 196 201 211
-0.18770953989786 -0.045083967375785 -0.0156291358091251 -0.05072991 0.008974057 -0.9986721 195 201 211
0.0491805963475186 -0.124005352041187 -0.0209080889346743 -0.3254455 -0.9384656 -0.1156178 167 173 175
0.0880230011486843 -0.0606309866894804 -0.0294318987507525 -0.04871897 0.00180056 -0.9988109 196 202 211
-0.132098222796625 -0.0702370894573895 -0.0182368869569163 -0.05067752 0.004317103 -0.9987057 195 200 206
0.0172853867116011 -0.0728163165293447 -0.025993149199816 -0.04808381 -0.001157521 -0.9988427 199 204 214
0.085850780027738 -0.12297888204032 -0.0299783683015161 -0.07932568 -0.1728492 -0.9817488 192 198 207
-0.0267624174336778 -0.0180282945665234 -0.0235474037931426 -0.05544369 0.003975339 -0.9984539 202 207 219
0.086925844032593 -0.0649602829811804 -0.0294007532455423 -0.04738554 0.01015154 -0.9988251 201 205 213
-0.238491541051498 -0.0666981888349885 0.000217274923508592 -0.9230945 0.3521924 0.1544574 184 185 188
0.175342903220061 0.029841740358714 -0.0327877047120723 -0.04517316 -0.00323074 -0.998974 195 199 210
-0.0770405795486296 0.0322017341639675 -0.0202248931257053 -0.04857063 0.0069154 -0.9987958 191 196 209
-0.177393422965534 -0.0371816469042714 -0.0160888182201667 -0.04160191 0.002874134 -0.9991301 195 199 209
0.106040299868984 0.050635192997242 -0.0291686616711017 -0.05503099 0.003531075 -0.9984784 188 193 203
-0.0321108811855663 0.02262794907856 -0.0225868046205874 -0.0159566 0.008337036 -0.9998379 209 199 202
0.138450603220192 -0.0815423342397398 -0.0322655827183205 -0.05018274 -0.002892336 -0.9987358 188 194 203
-0.0955915759487573 -0.0889927753109842 -0.0205656856717656 -0.05203938 0.002201959 -0.9986426 196 201 213
-0.0351177656161272 0.00894164837798894 -0.0226058946000463 -0.05337406 0.006280406 -0.9985548 198 202 215
-0.118363969625207 -0.0205549842625973 -0.018517682239511 -0.04491017 0.0001655795 -0.998991 199 204 215
-0.196787824998442 -0.00600886928475364 -0.0147368358003405 -0.06495032 0.005916892 -0.997871 191 197 209
-0.148134697506792 0.0646550471005889 -0.00120094629191514 -0.7393503 0.6708121 0.05807148 179 181 180
0.183248814575265 -0.0466190761148618 -0.0189069654567556 0.9542439 -0.1287154 -0.2699091 161 167 166
0.0838161038930004 0.0340749149320317 -0.0281522066861574 -0.04833581 0.02159081 -0.9985977 194 198 208
-0.129579678046162 -0.075165720778539 -0.0187100592021305 -0.06421646 0.002949922 -0.9979317 199 204 214
0.102915250237614 -0.128068918921848 -0.0289610719769705 -0.07143015 -0.8255915 -0.5597289 179 184 192
-0.235172096108804 -0.0644702479467744 0.0160311181370298 -0.8936439 0.4334046 0.1164518 167 169 167
-0.136527649583071 -0.108008779800811 -0.00797253666040515 0.07624383 -0.992408 -0.09650512 178 182 184
0.0814953991637694 -0.000102416118600179 -0.0283517074679459 -0.03696365 0.01167341 -0.9992484 200 204 214
-0.0358065642071472 -0.0718126197988055 -0.0234107400321235 -0.05546651 0.002976069 -0.9984561 199 204 215
0.141843800700221 -0.0853872883435496 -0.0323201017664065 -0.04591755 -0.00719927 -0.9989193 188 194 202
0.159984261440434 0.00137331188060019 -0.0323196281157067 -0.04836309 0.01150826 -0.9987635 198 202 212
-0.175112185924197 -0.112904031253079 0.00112480729967124 0.3212522 -0.9130614 -0.2512289 186 191 194
0.13122466685857 -0.113044762996572 -0.0315019324308894 -0.04427613 0.02686364 -0.9986581 182 189 196
-0.151061025172791 -0.111062948889974 0.0134175804323709 0.2140025 -0.9405028 0.263927 180 184 187
0.0285613981902596 -0.122675972183925 0.00766174577555179 0.1090927 -0.9938762 0.01757647 161 167 167
0.167332891631727 0.152907601752589 -0.00239566259312612 0.4342639 0.8963939 0.08884192 153 154 115
0.175636792233612 -0.085756594936931 -0.0275026902027471 0.9877566 -0.1545916 0.02093845 163 168 166
-0.0424383113697334 0.0222350002834059 -0.022037959022209 -0.07044747 0.02524531 -0.997196 207 200 202
