ply
format ascii 1.0
comment File exported by Rhinoceros Version 7.0
element vertex 466
property float x
property float y
property float z
property float nx
property float ny
property float nz
property uchar red
property uchar green
property uchar blue
end_header
-0.0849728002266317 0.00235210230780292 0.00670792625502361 -0.879903 -0.4656967 -0.09432558 68 68 68
-0.078098315487618 0.00157371348880375 -0.0299377263005629 -0.3302146 0.2240112 -0.9169391 137 137 137
-0.0852539372621428 0.0357317558479987 -0.012549116034754 -0.003616958 0.4472874 -0.894383 108 108 108
-0.0580864667934118 -0.0538417368032053 -0.0183448828697509 -0.9022791 -0.427946 -0.05248338 105 105 105
-0.0149229760857303 0.00596028718221897 -0.0283551585203315 -0.01838251 0.4668246 -0.8841588 169 169 169
-0.0734792973124336 -0.0150264169140816 -0.0326241724827505 -0.9028502 -0.4012477 -0.1544726 76 76 76
-0.0637934203016788 -0.0400087204061429 -0.0213052785785116 -0.9058806 -0.4230618 -0.0199767 108 108 108
-0.036169737075487 0.000762147234195543 -0.0306452062359023 -0.01919688 0.4527801 -0.8914155 103 103 103
-0.00573563276691802 -0.00632157434227076 -0.0343763271523737 -0.02652962 0.4835347 -0.8749231 80 80 80
-0.0139086889913895 0.0417196500618081 0.00260310250402964 -0.1107014 0.935788 0.3347327 89 89 89
0.0583765405276111 0.0336146193483221 -0.0143389902748964 0.008604396 0.4413402 -0.8972986 151 151 151
-0.0343720328316635 -0.0126783948922838 -0.0371502683162854 -0.005937509 0.4713382 -0.8819326 190 190 190
-0.00144550534679766 0.0418022163392645 0.00875086306315889 -0.2360204 0.9221137 0.3065952 87 87 87
-0.0131894699932649 -0.0599215652397719 -0.0455026831960712 0.7956813 -0.4440381 -0.4119726 16 16 16
-0.086527574272619 0.00586841620162126 0.0138143171659764 -0.8852264 -0.4651285 -0.005444712 137 137 137
0.012032955960867 0.00563590192401053 -0.0284980088845393 0.005756672 0.4359616 -0.8999469 118 118 118
-0.0637359650233007 -0.034408798072619 -0.0377270209073069 -0.8983715 -0.3963351 -0.1893333 51 51 51
-0.0782084859810537 0.0033049568589486 -0.029195832836874 -0.2367548 0.320751 -0.9170965 145 145 145
-0.0632401143295609 -0.0348948851681524 -0.038513278690505 -0.9053407 -0.3829544 -0.1835866 42 42 42
0.0298464102072895 -0.0115172491046031 -0.0323824400326167 0.6224535 -0.336169 -0.7067829 86 86 86
-0.0105666785764704 -0.0395115363346202 -0.0513172149769718 0.1524111 0.2104379 -0.9656535 86 86 86
-0.0913018228653222 0.0372974305649613 -0.0118851882515748 -0.1231907 0.7257861 -0.6768002 109 109 109
-0.0505178938933422 -0.0201953493911139 -0.0412207494731418 -0.002389242 0.4447547 -0.8956493 172 172 172
-0.067144301395436 0.0269122752730589 -0.0171531593300279 0.01677144 0.4415888 -0.8970608 114 114 114
-0.0355925023547665 0.0381821496541647 -0.0112724340021456 -0.00505648 0.4817742 -0.8762808 112 112 112
-0.0817217876466789 -9.41569698892364E-05 -0.0184519333271898 -0.897911 -0.4144106 -0.1483901 71 71 71
-0.0397776600409929 -0.0807545012402716 -0.0496913601142686 -0.7670315 -0.5927103 -0.245677 43 43 43
-0.0319967009857383 -0.0762055551736068 -0.0519964067489861 0.6378509 -0.6809591 -0.359779 58 58 58
0.0826163913651876 0.0511966174354442 0.0107560401063772 0.2234181 0.8050767 0.549487 59 59 59
-0.0908207180158134 0.0170388738851465 -0.00846257343752985 -0.8887991 -0.4423814 -0.1197281 99 99 99
0.0461293069371487 -0.0150923349202369 -0.000477077851771181 0.6407054 -0.5131935 -0.571077 65 65 65
0.0756775979674251 0.0473360482605011 0.0347059608482626 -0.03166179 0.9778187 0.2070462 24 24 24
-0.0264862030956969 -0.00736000497331524 -0.0345235138825905 -0.0428567 0.4312589 -0.9012098 141 141 141
-0.066720973860301 -0.0329935619726117 -0.020356477748265 -0.9303163 -0.3658102 -0.02635279 69 69 69
-0.0764597939578224 -0.0122056928879383 -0.0169205306853476 -0.902568 -0.4197425 -0.09585021 28 28 28
-0.0224253370424328 -0.066444887567885 -0.053939323754765 0.65167 -0.5890994 -0.477795 55 55 55
0.0388314373809759 -0.0125383279236976 -0.013928143792298 0.7520351 -0.5477591 -0.3666103 48 48 48
-0.0299517676548122 0.0327688324003091 0.0223193813961396 -0.001653494 0.9749563 0.2223902 35 35 35
-0.0670230878672973 0.0223902365520644 -0.0193035350867866 0.01008343 0.4727838 -0.8811208 104 104 104
0.0384023117666472 0.00508239787752507 -0.0286625262304978 -0.01591832 0.4580441 -0.8887869 124 124 124
-0.0312380800559082 -0.0434821833121094 -0.052990013322352 -0.01275817 0.4751616 -0.879806 109 109 109
-0.065217547547308 -0.0254252474265101 -0.0437036860537081 -0.4589969 0.2746106 -0.8449324 186 186 186
-0.0604578013338881 0.0208743962235586 -0.0202244265184345 0.0001733446 0.4618014 -0.8869833 120 120 120
0.00220997266367506 -0.00454494099973368 -0.0333160288960552 -0.001510417 0.4522097 -0.8919104 117 117 117
-0.0541827417124732 -0.0571011846111292 -0.0304597999934902 -0.8776566 -0.4721609 -0.0823591 76 76 76
-0.0170641005062508 0.0169638697425497 -0.0225777552200126 -0.004362124 0.4682193 -0.8836015 185 185 185
-0.0257159785036225 -0.011716140402675 -0.0369574883375387 -0.01354059 0.4793439 -0.8775227 181 181 181
-0.0498362375894281 -0.00238314949948959 -0.0322866465910462 -0.009284294 0.4572891 -0.8892696 209 209 209
-0.0228864834187328 -0.0720704826704507 -0.0435932561263001 0.6566194 -0.6757916 -0.3348981 93 93 93
-0.0393860571778526 -0.0859258204099084 -0.0335618015963173 -0.5699036 -0.8123252 0.1238449 57 57 57
-0.0673489933364677 0.00461048516394114 -0.0286461888472186 -0.02343321 0.4386833 -0.8983362 161 161 161
-0.0303103352219232 0.0343682979664256 0.0187433681519865 -0.07277492 0.9682243 0.2392605 120 120 120
-0.00672719103303843 -0.00502109822502683 -0.0333118616110707 -0.02674488 0.4728546 -0.8807345 116 116 116
-0.0120974340330222 -0.0683603496649557 -0.0314341715639217 0.6409962 -0.6831594 -0.3498816 70 70 70
-0.085773350379831 0.017745184981322 -0.0214782266412627 -0.2170765 0.3058548 -0.9270009 110 110 110
0.00590364014999611 -0.0437331200331473 -0.0304024429296639 0.6682945 -0.4917783 -0.5581546 42 42 42
0.0377316291562479 -0.01085768611795 -0.0192176607244627 0.7930516 -0.5478362 -0.2663544 28 28 28
-0.0913475928894165 0.0254459692527288 0.0227951691833124 -0.4038754 0.8872653 0.2228115 63 63 63
-0.0233558617726679 0.00914189114873809 -0.0264055551377806 -0.01642376 0.4479122 -0.8939267 139 139 139
-0.00319022826462323 0.0291319153301096 -0.0164696674744768 -0.01680521 0.4631034 -0.8861449 144 144 144
-0.0228928723423723 -0.0724569115416148 -0.0424984248114031 0.6544676 -0.6789309 -0.3327536 106 106 106
-0.0790327396177877 -0.00780226130935524 -0.00863616790331021 -0.9207846 -0.389581 0.01955499 92 92 92
0.0688798159704054 0.0482306229130939 0.0214111551162805 -0.0604172 0.9832757 0.1718098 68 68 68
0.0404564819315563 0.0486757462933977 -0.00650332417926667 -0.007065023 0.4588126 -0.888505 120 120 120
-0.00954568294550784 -0.0670894826742051 -0.0278289716864351 0.6366921 -0.6897843 -0.3447039 52 52 52
-0.0633006288573297 -0.0408198204316709 -0.0185449976950735 -0.9128677 -0.4074444 -0.02572367 146 146 146
0.00636715851019876 -0.00622293373282445 -0.0340286849229803 -0.01953487 0.4499934 -0.8928182 93 93 93
-0.00187898940327091 -0.0393088352059999 -0.0451708363792072 0.4999647 -0.5254064 -0.6884645 25 25 25
-0.0499068865652306 -0.0457448154272931 -0.0541492420915276 -0.05444159 0.4474293 -0.8926607 143 143 143
-0.0682506646951704 0.0320143194479275 0.0162601498774665 -0.1118629 0.9740197 0.196907 175 175 175
-0.0665390283876461 -0.0334100937821965 -0.0173372399450556 -0.9178953 -0.3965436 -0.01487779 90 90 90
-0.0697670673051904 -0.0266387129747975 -0.0206932594782907 -0.904516 -0.4198337 -0.07476878 68 68 68
0.0546333706710018 0.0083463825857627 -0.0171429554579788 0.7657347 -0.4592623 -0.4502539 62 62 62
-0.0352520617919949 0.0108862353422757 -0.0253285599539862 -0.01207438 0.4541298 -0.8908537 141 141 141
-0.0250074492314694 0.0216738428134234 -0.0197648798098081 -0.01706836 0.4575726 -0.8890084 121 121 121
-0.0462690859995405 -0.0697593616652846 -0.0410129435350774 -0.9097223 -0.3990752 -0.114649 46 46 46
-0.0435618690302189 -0.0722721254041198 -0.054109156340136 -0.8982497 -0.4164928 -0.1402892 96 96 96
-0.0429292419331841 -0.0776793279640579 -0.038354176561025 -0.9084588 -0.4125212 -0.0672975 26 26 26
0.00359043102071199 -0.0393325986851062 -0.0400936256789118 0.5467346 -0.6679938 -0.504842 23 23 23
-0.0609102161327542 0.0394795770918678 -0.00325672541544284 -0.1339753 0.9474921 0.2903605 76 76 76
-0.0197615171394063 -0.0276403264764421 -0.0451407112774858 0.002873783 0.4363913 -0.8997524 127 127 127
-0.0471840872660692 0.00215560376537971 -0.0297506108352268 0.01102126 0.457596 -0.8890919 204 204 204
-0.0898131486435036 0.0120252397296438 0.00380233894208706 -0.8994954 -0.4355174 -0.03510873 130 130 130
-0.0143485426653163 0.0412855764210441 -0.00993039006197691 -0.01529018 0.4638862 -0.8857628 109 109 109
-0.0826021741292617 -0.00275321711078769 0.00900336024260508 -0.8547598 -0.5140189 -0.07190417 73 73 73
-0.0820719907340233 -0.00128039463052809 -0.012291420589867 -0.9012592 -0.4318621 -0.03502683 68 68 68
-0.0812490933193764 0.0318666552515935 -0.0145158975008973 -0.00534787 0.4546268 -0.890666 91 91 91
0.0426953270147226 0.0468837528168825 0.0179561652356032 -0.2625109 0.8780108 0.4002312 165 165 165
-0.0601016476166505 -0.0474107077640576 -0.0239656910651609 -0.8933906 -0.4291466 -0.1329905 70 70 70
-0.00447015558145258 -0.0461041960881808 -0.0408297592770026 0.6588134 -0.4132704 -0.6286275 44 44 44
-0.0149104526996089 -0.0561022539570012 -0.0499729895403246 0.8183491 -0.1550671 -0.5534067 35 35 35
-0.000462547211556696 -0.0227393269655874 -0.0428583179989058 -0.009939753 0.4611274 -0.8872783 123 123 123
0.0223780229293369 0.00223132818302363 -0.0301007548609914 -0.008193945 0.4439026 -0.8960376 199 199 199
-0.0898718757120816 0.0123238918950391 0.000349231962443207 -0.8630435 -0.4943911 -0.1036018 109 109 109
-0.044681367906414 -0.0684885506860117 -0.0570813627556709 -0.8846076 -0.3887798 -0.2575261 61 61 61
-0.0310010838051169 -0.00117487668033645 -0.0318139277991498 -0.0282223 0.4164181 -0.9087351 105 105 105
-0.0258152667910889 0.034856932118753 -0.0132413513608606 0.001719038 0.4499673 -0.8930434 119 119 119
0.0103123473430871 -0.0383851574058068 -0.0315266093881586 0.6113969 -0.6791711 -0.4061039 41 41 41
-0.0244892349842725 0.042549286274297 -0.00792853169435501 -0.1967949 0.9499831 -0.242495 163 163 163
0.0603610092653764 0.0467150429964321 0.0233125887970579 -0.1367033 0.9759498 0.1698063 46 46 46
-0.0109332566733538 0.00887218657879452 -0.0265670640611963 0.009326621 0.4460506 -0.8949592 188 188 188
-0.0545641077752417 -0.050416223432355 -0.048206324486423 -0.8974192 -0.4279568 -0.1071995 64 64 64
-0.0115327912144987 0.00588273275014928 -0.0281967804292798 0.005681191 0.449384 -0.8933206 171 171 171
0.00449318045222658 0.00246395171819913 -0.0300874303006067 -0.007304164 0.4482731 -0.8938668 108 108 108
-0.0780105370822408 -0.00983747909801946 0.00274370483509436 -0.9195241 -0.3930179 0.003501726 76 76 76
0.0108235060323181 0.00769766903615843 -0.0272885275393549 0.001489526 0.4352809 -0.9002935 81 81 81
0.0670909776922959 0.0387988972606356 -0.0118725843965961 -0.01853507 0.4633876 -0.8859618 151 151 151
-0.0693931609028051 -0.0205700334814639 -0.0410242905012405 -0.6386566 0.1141379 -0.7609798 148 148 148
-0.0575732258269448 0.0381327825177823 -0.0112362708320149 -0.05704061 0.6355795 -0.7699254 119 119 119
-0.0562854844306049 -0.0510398581031771 -0.0407662729779603 -0.8912373 -0.4187519 -0.1741921 76 76 76
-0.0237871410476789 0.0425019875529152 -0.0034093561685121 -0.2532928 0.9399402 0.2288125 190 190 190
-0.0744719791125417 0.0118812977392043 -0.0248335817207542 0.002371696 0.4630733 -0.8863168 156 156 156
-0.0131910064473346 0.00972689566224683 -0.0262175201085485 -0.01260986 0.4475227 -0.8941836 123 123 123
-0.00575603497484423 0.0371116032154216 0.020913552452722 -0.1831259 0.9105965 0.3705116 139 139 139
0.0772594317141566 0.0527013149900829 0.0112699050604796 0.1244347 0.8189424 0.5602226 38 38 38
0.0680880399212547 0.0449277693286297 -0.00831627608589645 0.007569065 0.4528737 -0.8915426 119 119 119
-0.0176375134403255 0.0242141046424612 -0.0188361413757703 -0.0005854336 0.4283365 -0.9036191 142 142 142
-0.0165873902409799 0.0425555338641433 0.000668583846626179 -0.1149892 0.9343576 0.3372733 63 63 63
0.0171238964293905 -0.0372600802794535 -0.0244740241067064 0.5779608 -0.443259 -0.6851881 73 73 73
-0.0385880412357085 -0.0691373897878432 -0.0620271194972144 -0.2477666 0.04486993 -0.9677802 101 101 101
-0.0264568967962759 -0.0800543023622508 -0.0348746712922961 0.631752 -0.689527 -0.3541779 52 52 52
-0.0742940124754643 -0.00734822097951271 -0.0347017566112411 -0.1943007 0.3257121 -0.9252885 86 86 86
0.00970384769316768 -0.0515676994553592 -0.0224883559728535 0.6731668 -0.5612703 -0.4814792 42 42 42
-0.000596845614424524 -0.0551291051250632 -0.0326270530511705 0.7957219 -0.4038987 -0.4513231 29 29 29
-0.0638805561268492 -0.0398266952340948 -0.0277850563345411 -0.9002877 -0.4171353 -0.1244195 150 150 150
-0.0217277329446062 0.030981340011271 -0.015334489093158 -0.01008264 0.4636644 -0.8859535 135 135 135
-0.0724374738007123 0.0222529141123468 -0.0195027405139862 -0.005509831 0.4501579 -0.892932 100 100 100
-0.0439889564258871 0.0387939686172111 -0.00166317781295864 -0.003997737 0.9326367 0.3607948 71 71 71
-0.018290595833991 -0.0647222559621218 -0.0490866391177526 0.6965535 -0.5973814 -0.3974276 68 68 68
-0.069575776035375 -0.0257769977630463 -0.0227078386691203 -0.9058046 -0.4202815 -0.05367937 69 69 69
-0.0156300304118733 0.0181164534065138 -0.022043022976341 -0.0004335321 0.4650508 -0.8852839 177 177 177
-0.0468662423000734 -0.0440019753800084 -0.0535508941820529 -0.004665922 0.4554707 -0.8902385 145 145 145
-0.0146923628509184 -0.0458546953529425 -0.0542768605431536 0.4973224 0.1150455 -0.8599041 116 116 116
0.00176668284499426 -0.00670052339904392 -0.0344753154879251 0.01103904 0.4587682 -0.8884874 110 110 110
-0.0487223412859774 -0.0362641875669202 -0.0494307730512228 -0.02115039 0.4624104 -0.8864137 167 167 167
0.0131502687776073 0.040047277835333 0.0165513142559633 -0.1722945 0.892843 0.4161082 59 59 59
0.00463501454356186 0.0193686266865037 -0.0213587174742548 -0.0007044006 0.4449299 -0.8955652 150 150 150
0.00539262044050526 -0.0547002832883495 -0.0261357521316676 0.6472754 -0.5648907 -0.5117938 92 92 92
-0.0178014536691014 -0.06756223894692 -0.0430162175850997 0.6479992 -0.6788628 -0.3453149 110 110 110
0.0560927004829206 0.0157592952621927 -0.0217474414562619 0.5851464 -0.2683799 -0.7652293 39 39 39
-0.0576676026734262 -0.0534545878255671 -0.0202355697980609 -0.8975209 -0.4285693 -0.1038491 65 65 65
-0.0611122329533504 -0.0124877929322701 -0.0374307017006754 -0.01832915 0.4692689 -0.8828651 115 115 115
0.00582418758734304 0.0351864325085726 0.0271972555343276 -0.1046499 0.9312602 0.3490027 39 39 39
-0.072602274993613 -0.00181257736236107 -0.0317691204333048 -0.01806684 0.4500875 -0.8928017 171 171 171
-0.0499320489490778 -0.0642890358988194 -0.0308859418697026 -0.9053487 -0.4031407 -0.1334963 35 35 35
-0.00579570199938306 0.0436307128937169 0.00149652902779931 -0.2278897 0.8991408 0.3736471 69 69 69
0.0208958540157593 -0.0186199709216769 -0.035986946595276 0.5950465 -0.4141356 -0.6887752 55 55 55
-0.0266450285344537 0.0190322386012066 -0.0213673239000646 -0.02168668 0.4621037 -0.8865607 141 141 141
-0.0568937920189638 -0.0509380016314992 -0.0288271621683528 -0.8661836 -0.4730258 -0.1611598 70 70 70
-0.0318289583259252 -0.0756273198019114 -0.0535705615442404 0.6389083 -0.6827914 -0.3543897 59 59 59
-0.0118878391084083 -0.0134129037821767 -0.0379291715436036 -0.02467781 0.4489002 -0.893241 114 114 114
0.0255626178888169 0.00729763753888835 -0.0275795684978306 -0.001281192 0.4708598 -0.8822071 129 129 129
-0.034645160829093 -0.0605151276531907 -0.0619543490839829 0.03885838 0.2706726 -0.9618869 113 113 113
0.0173627462324215 -0.00835663492114047 -0.0355756716319906 0.01246898 0.4685306 -0.8833593 89 89 89
-0.00846096043133038 0.0426366335652714 0.00182249966397254 -0.2038501 0.903641 0.3766672 72 72 72
0.0831296952255527 0.0497700571040381 0.0131417760174024 0.2268466 0.9181679 0.3248204 55 55 55
-0.00433737239485987 -0.0123763205834256 -0.037735920838772 -0.006526624 0.4624212 -0.8866363 140 140 140
-0.0713917491227876 -0.0221086442239237 -0.0199618347579325 -0.9126402 -0.4076606 -0.03001265 70 70 70
-0.0224904097784853 0.00613460181907233 -0.0279151666523436 -0.01976198 0.4363767 -0.899547 121 121 121
-0.0131399599050854 -0.00960971242554043 -0.0359423906335098 -0.004008922 0.4564223 -0.8897542 142 142 142
0.046485220736193 0.0562838038003864 -0.00283370763193611 -0.05290445 0.6153798 -0.7864533 98 98 98
-0.0471850882888294 -0.000934453994374418 -0.0314836897053698 0.02153168 0.4569304 -0.8892418 140 140 140
-0.016640471043337 -0.0213194832383395 -0.0419809509419986 0.0126396 0.4570717 -0.88934 152 152 152
-0.043937902211113 0.00857704934715475 -0.0262611461274368 -0.006546771 0.4637939 -0.8859189 166 166 166
0.0284064389074268 -0.0118659509012303 -0.040153872816596 0.4766102 -0.127282 -0.8698517 175 175 175
0.0628098166485427 0.0510020930101925 0.0136039471044879 -0.009807821 0.8653699 0.5010377 33 33 33
-0.0028666603542864 0.00199891215061865 -0.0300221876997876 -0.02353518 0.4333882 -0.9008999 175 175 175
-0.0626645729522628 -0.0430721354690026 -0.0147490090970271 -0.9132984 -0.4070875 -0.01287665 110 110 110
-0.0777694188491069 -0.0105405892306719 -0.00480534418447318 -0.9200208 -0.3910519 0.0253018 119 119 119
0.0551681308022687 0.0344991169146588 -0.0138818959904088 -0.02275878 0.4620307 -0.8865719 121 121 121
-0.0330256133871361 0.00777186992245549 -0.0269429152020751 -0.006265037 0.4608703 -0.8874454 122 122 122
-0.0186592758638606 -0.0641173389889226 -0.0522476257420824 0.7136729 -0.5004255 -0.4901482 52 52 52
0.0621699730089791 0.0156844311339511 -0.00973305460069605 0.6686476 -0.5094005 -0.5416839 83 83 83
-0.0507476918541725 -0.0522893502086607 -0.057308649940726 -0.5618606 0.1611805 -0.8113776 120 120 120
-0.0716734476564982 0.0301573853933729 0.0213260301104577 -0.1346854 0.9795504 0.1494688 63 63 63
0.0125337374751124 -0.0102472204540608 -0.0367796179534775 -0.008436741 0.4630832 -0.8862747 92 92 92
-0.063413570736166 -0.0333663687225391 -0.0429477529736549 -0.9131097 -0.3661073 -0.179433 72 72 72
-0.0679718376321774 -0.0105192528027568 -0.03611319155877 -0.005229892 0.4720125 -0.8815764 159 159 159
-0.045099238476932 -0.0708910568673321 -0.0465498127492817 -0.916966 -0.3893288 -0.08715792 43 43 43
-0.00793143447044553 -0.0140953951420165 -0.0385484354037457 -0.03599066 0.451401 -0.8915951 132 132 132
-0.0576523078941276 -0.0441039880753088 -0.0448382338766884 -0.8927948 -0.4291522 -0.1369155 65 65 65
-0.0601063471214194 0.034638400289834 0.00994591038348638 -0.05123313 0.9528171 0.2991902 106 106 106
0.0730836581024592 0.0332641601803317 -0.0105990655688575 0.6797395 -0.4662554 -0.5661803 38 38 38
-0.000313833286058163 -0.0300663394295507 -0.0467008457609139 0.01064081 0.37448 -0.9271739 143 143 143
0.00199478697084565 0.0335866029285118 -0.0140634548000126 -0.006410563 0.4557741 -0.8900724 147 147 147
-0.0264257635043279 0.033003242610978 -0.0142328902659762 -0.004074051 0.4604352 -0.887684 117 117 117
0.0295966820909928 0.0117123000344749 -0.0250057206721743 -0.009329266 0.4505103 -0.8927225 93 93 93
-0.0774172119835139 -0.0108727539358732 0.00443582015809432 -0.9178278 -0.3960977 -0.02643255 81 81 81
-0.0539720857112647 0.00108721755809482 -0.03040429613662 -0.02675737 0.4541757 -0.8905103 188 188 188
-0.0697679512034224 0.0307307218051732 0.0258909402498989 -0.1401406 0.9769094 0.161272 100 100 100
0.00800436791258186 -4.55538800777644E-05 -0.0312559912431633 0.008232145 0.4488283 -0.8935801 149 149 149
-0.0183874944651548 -0.0679024777795217 -0.0432096387393524 0.6477196 -0.6790897 -0.3453932 84 84 84
-0.0349624550045369 -0.0452408704092474 -0.0542471066147929 -0.01481698 0.4726312 -0.8811358 150 150 150
-0.0456493557211641 -0.0690562551613833 -0.0512298289512601 -0.9018731 -0.4139307 -0.1236379 60 60 60
-0.0443499424695788 -0.00283446642719187 -0.0323620062751427 0.01519616 0.4448412 -0.8954805 109 109 109
-0.0755962310212257 -0.0155519262794689 0.00242087411773397 -0.923066 -0.3844702 -0.01148146 80 80 80
-0.0103631807001774 -0.045971107968599 -0.0488616593422941 0.7682489 -0.256499 -0.5865167 12 12 12
-0.0895313928031314 0.012515374007637 -0.00132811967443056 -0.8543629 -0.5068356 -0.1148115 90 90 90
0.00131384347532926 0.00986418681722523 -0.0268141889659935 -0.01333108 0.4702998 -0.882406 140 140 140
-0.0494337419160278 -0.0668998917806202 -0.0280765476907794 -0.9062866 -0.3740627 -0.1967785 98 98 98
-0.0156645940899032 0.0344994546668659 0.0213625236289649 -0.1649813 0.9352165 0.313291 79 79 79
-0.000487000504595603 -0.0349011182750821 -0.0486787861445384 0.3223517 -0.0835324 -0.9429272 186 186 186
-0.0715489738309443 -0.0186196326092335 -0.0340862667809133 -0.9084185 -0.3848206 -0.1633676 87 87 87
-0.0277084687355114 -0.0807006923467929 -0.0341469492377305 0.6291484 -0.6896126 -0.3586179 47 47 47
0.0610239008327778 -0.00543493561965913 0.00498970667524858 0.5057521 -0.5289847 -0.6814617 52 52 52
-0.00608822395342878 -0.0522250569499677 -0.0410404036179197 0.6318091 -0.1257384 -0.7648576 49 49 49
-0.0448428058903212 -0.0738554877569241 -0.0365809945121305 -0.907667 -0.405054 -0.1098721 26 26 26
-0.0862036378828797 0.00417231876812985 0.00805617997486143 -0.8853627 -0.4618342 -0.05331102 108 108 108
-0.00916813244417058 0.045908167376029 -0.00522852645159775 -0.2305093 0.9730197 -0.009905052 164 164 164
-0.0423218312723042 0.0351771877656356 -0.0129540005370688 -0.02205703 0.4484838 -0.8935187 96 96 96
0.0165373163686486 -0.00308000063072933 -0.0330104982853636 0.003346148 0.4648119 -0.8854031 142 142 142
-0.0589703246109226 -0.014973877466867 -0.0385429057407798 -0.003822367 0.4567965 -0.889563 174 174 174
-0.00965826095990385 -0.0255462943689463 -0.0440475421599252 -0.0050042 0.4436886 -0.896167 190 190 190
-0.0048839770259641 0.0341606142288052 -0.0135938623508415 0.008018512 0.4356076 -0.9001009 123 123 123
0.0757220657489936 0.0379423982078883 -0.0122105677759688 0.3598821 -0.1628083 -0.9186829 172 172 172
-0.0486881441087812 -0.00789882158385236 -0.0350965535685923 0.004119919 0.4449087 -0.8955665 162 162 162
-0.00798691108043847 0.016734838396031 -0.0227344362936798 0.01227623 0.4779725 -0.878289 183 183 183
-0.0343484825106937 -0.0554166005315077 -0.0597638289551773 0.01059777 0.4531561 -0.8913682 94 94 94
0.011125825929899 -0.0174972672303845 -0.0402639315335891 -0.01836334 0.4263051 -0.904393 112 112 112
-0.0113561787781955 -0.0632606632921834 -0.039654733670442 0.6728731 -0.602131 -0.4297441 69 69 69
0.0209583658991614 -0.00172868393514569 -0.0322032853770703 -0.01977086 0.4437284 -0.8959432 99 99 99
-0.00388090150175868 -0.00501378148953824 -0.0336739430937546 -0.02714214 0.473149 -0.8805642 140 140 140
-0.0412865433469487 -0.0761600455859898 -0.0597319013577994 -0.8414199 -0.3951916 -0.3685596 77 77 77
-0.050001263599357 -0.0629532971083314 -0.0395050850563401 -0.872427 -0.4608644 -0.1627116 47 47 47
-0.0780893268627687 0.0392954053728248 -0.0110168844600268 0.02485904 0.6192874 -0.7847708 127 127 127
-0.0367860049784841 0.0329376059558598 0.023408889185757 -0.001981565 0.9891739 0.1467342 44 44 44
-0.0572607745134186 -0.0533416608294138 -0.0224187911183586 -0.8879158 -0.4329053 -0.1555588 53 53 53
-0.046842547777739 0.00625046690729703 -0.0279084941445826 0.006467298 0.4690903 -0.8831266 197 197 197
-0.0212052653244479 0.0134742543886649 -0.0242710716844101 -0.0003099248 0.4506054 -0.8927232 108 108 108
-0.0219307565144944 0.0072832593088098 -0.0275775684353426 -0.01532001 0.4395188 -0.8981028 130 130 130
-0.0470178021333116 -0.0696532043915224 -0.0346298812684155 -0.8976658 -0.420937 -0.1304151 48 48 48
-0.0393090657533253 0.00453426979811378 -0.0282504363994267 -0.01203422 0.4475447 -0.8941806 199 199 199
0.0436526196920246 0.0465991607523614 0.0184561621031573 -0.2685109 0.8770124 0.3984358 140 140 140
-0.0675413469597177 -0.0300206873446104 -0.032988942308055 -0.9138197 -0.385649 -0.1273119 52 52 52
-0.0208780270926749 -0.0679359203774833 -0.0476265680922692 0.6398708 -0.6800385 -0.3579289 64 64 64
-0.0158450130218739 -0.0480532931285768 -0.0554944864781814 0.4034566 -0.01829652 -0.9148158 126 126 126
0.0477213321289272 -0.00862383572057535 -0.0052592345233887 0.6286294 -0.5739755 -0.524764 48 48 48
-0.0123173360823721 -0.0386629129489376 -0.0504673314083029 0.008234695 0.4222234 -0.9064544 69 69 69
0.00989335675541536 0.0059997505354038 -0.0283391709465143 0.0006451462 0.436429 -0.8997385 83 83 83
-0.0413334494571638 -0.0190787492181891 -0.0406552212077741 -0.008140355 0.4373294 -0.8992646 180 180 180
-0.0209533922643579 0.0418993945490943 -0.000212938102920314 -0.1918212 0.936959 0.2920828 102 102 102
0.0555327968429253 0.0212701874447819 -0.0207308887102411 0.1036109 0.3794479 -0.9193933 130 130 130
0.0848958829151845 0.0288671119431513 0.0144732852012147 0.7676687 -0.5539867 -0.3221544 39 39 39
-0.0668488849734685 0.00967704356272059 -0.0258311814515717 -0.002273484 0.4710864 -0.8820842 190 190 190
0.0626706459708299 0.0565023615695553 0.00189679734127093 -0.0549257 0.9896127 0.1328527 46 46 46
-0.0469739486094318 -0.0669243553012561 -0.0429026019399857 -0.9045919 -0.4088845 -0.1205279 38 38 38
0.0794638437982931 0.0479090384902482 0.0281398002609823 -0.1240517 0.9892886 0.07693734 45 45 45
-0.0631572330075598 -0.0346782871696031 -0.0421507540115523 -0.9160951 -0.380578 -0.1262142 94 94 94
-0.0663267202671038 0.0317678369254467 0.0173182890693944 -0.1145061 0.9732783 0.1990418 178 178 178
-0.0518728112492424 -0.0599475704993367 -0.0356655771605007 -0.8642791 -0.4976434 -0.07329872 39 39 39
-0.0730133551367209 -0.0209733540455254 -0.00909129889492419 -0.881559 -0.4651418 -0.0806032 62 62 62
-0.0205368642998423 -0.0611211720794217 -0.0552540797481952 0.6305603 -0.314621 -0.7095121 52 52 52
-0.0197468190934429 -0.0734053809565415 -0.034776455171788 0.6420494 -0.6730416 -0.3671341 64 64 64
-0.0780784030877739 0.0224071366727753 -0.0194328837409069 -0.008448848 0.4374773 -0.8991898 118 118 118
-0.0216496611503252 -0.0349626606391301 -0.0488180032400731 -0.001149373 0.4575471 -0.8891847 82 82 82
-0.044867730340246 -0.0756454014940834 -0.031200810181752 -0.8978162 -0.4212232 -0.128441 66 66 66
0.0281844612051132 -0.0167781554186902 -0.031258460818987 0.6069959 -0.4610797 -0.6472723 47 47 47
-0.0125859680271625 -0.0632378222778763 -0.0420337256256562 0.6968913 -0.5672915 -0.4387743 55 55 55
-0.0322459218690532 0.0122417524504576 -0.0246653968732112 -0.003467903 0.446074 -0.8949894 165 165 165
0.0782840024288238 0.0189070161786981 0.0220329683114894 0.6740005 -0.7276424 -0.127514 27 27 27
-0.0772481321935308 -0.0106427809977089 -0.0164544816488426 -0.8921112 -0.4423975 -0.09177185 32 32 32
0.002516664775146 0.0462753719370551 0.000730047386639975 -0.1553251 0.9274651 0.3401214 41 41 41
-0.0596412842871499 -0.0214533412973607 -0.0420223424412616 -0.006703198 0.4506504 -0.8926753 106 106 106
-0.0287023002921463 -0.0734363222093813 -0.0522003185953796 0.6423835 -0.6777437 -0.3577806 58 58 58
-0.0562099354361192 -0.0472600669742395 -0.0525723571264707 -0.8918651 -0.2379835 -0.3846304 45 45 45
-0.0512149298925584 -0.0143234915254066 -0.0377814697473108 -0.01728979 0.4571734 -0.8892095 109 109 109
-0.00713118451660888 0.0178707807052884 -0.0218599929360052 -0.0003982184 0.4577581 -0.8890767 167 167 167
-0.0471103750892707 0.0343948067925132 0.016195963047007 -0.08083953 0.9781502 0.1915391 51 51 51
-0.0123115479391775 -0.0513074005595108 -0.0478386023739501 0.8276892 -0.2590527 -0.4978175 30 30 30
-0.00425811693536149 -0.0243818755101318 -0.0434975897272452 -0.006510366 0.4550773 -0.8904281 125 125 125
0.0177068062500956 -0.0116304735712113 -0.0373726259190959 0.007845817 0.4579104 -0.8889637 141 141 141
-0.0148865527746826 0.034847071966628 -0.0136447476172396 -0.01544043 0.4659963 -0.8846519 115 115 115
-0.0217247242837688 0.0341711176085925 -0.0136307021725292 0.005926989 0.4714106 -0.8818939 110 110 110
-0.0351849563255215 -0.0166129029874614 -0.0395150436703001 -0.002551783 0.4504681 -0.8927889 185 185 185
-0.0224064075157444 -0.00425403698668736 -0.0332956941492538 -0.008497122 0.4408081 -0.8975612 124 124 124
-0.0773961198567892 0.0372429771382566 -0.0119380715328546 -0.01303884 0.4833815 -0.8753127 130 130 130
-0.0517112587241946 0.0341851532029015 0.01858061256637 0.02731547 0.984955 0.1706384 108 108 108
-0.0498334014708939 0.0290602703023027 -0.0157728123034868 -0.01512971 0.461482 -0.8870205 121 121 121
-0.014935348021301 -0.0629053494735089 -0.0460024567626135 0.7363125 -0.5561936 -0.3853473 7 7 7
-0.0856553720279649 0.00893492626396786 -0.0227133005448817 -0.9013116 -0.2694826 -0.3391409 106 106 106
0.0492921369966504 0.0266298048464099 -0.017793085838628 -0.01786314 0.4538192 -0.8909147 118 118 118
-0.0410575281825998 0.0084362378250159 -0.0265833652835027 -0.0112946 0.4537376 -0.8910637 151 151 151
-0.0413106696151764 0.0381509644959236 0.000686005630811469 -0.1236263 0.9678651 0.2189833 53 53 53
-0.0556582398504886 0.0194023191101526 -0.0207784429482448 -0.004668931 0.44984 -0.893097 128 128 128
-0.0338054959373308 -0.0763381526957282 -0.0550131800949168 0.4145083 -0.8301072 -0.3729677 48 48 48
0.0358003322619385 -0.0169068179449331 -0.0131957526522335 0.7552236 -0.5187066 -0.4007252 44 44 44
0.0166063408456707 -0.0448134771056278 -0.0111876448438001 0.8190693 -0.5734021 -0.01831527 21 21 21
0.00481508067243253 0.0157518874599157 -0.0230426257044226 -0.003106048 0.4640162 -0.8858213 111 111 111
-0.0741434310484657 -0.0182276428826075 -0.00998572693167175 -0.8899656 -0.4519967 -0.06050008 94 94 94
-0.0525424853866134 0.0183526762135503 -0.0213494333268199 -0.002253133 0.4493208 -0.8933676 82 82 82
-0.062224815043562 -0.0422606528748036 -0.0277375056668206 -0.875774 -0.4626955 -0.1375965 127 127 127
-0.0583393194560982 0.0327951910935399 0.018503688163009 -0.1834695 0.9717442 0.1484999 63 63 63
-0.000931048422520675 -0.0408780075178238 -0.0419607818913349 0.5341313 -0.6291428 -0.5646973 30 30 30
-0.0541770815111611 0.02097127854494 -0.0202112583830387 -0.002492786 0.4424599 -0.8967848 103 103 103
0.0778707350928474 0.0487946886424703 0.0164722187430449 0.100931 0.9642416 0.2450532 74 74 74
-0.0542668815550273 -0.0506556168940627 -0.0484334922564053 -0.8909894 -0.44489 -0.09061357 65 65 65
-0.0750828397385264 -0.0119548624765281 -0.0295785684942061 -0.9097732 -0.4013285 -0.106057 116 116 116
0.018511743849404 -0.00571894311587895 -0.0340185225270961 0.0114991 0.4735446 -0.8806947 140 140 140
-0.0311193352623875 -0.0314868738203872 -0.0471689214709413 -0.0004878596 0.4463879 -0.8948394 115 115 115
-0.0878422045614498 0.00998888423536892 -0.0030458045911814 -0.8522685 -0.5132008 -0.1013087 67 67 67
0.00106254028046449 -0.0529633110132129 -0.0313432957793498 0.7843815 -0.2832413 -0.5518333 54 54 54
-0.0390521398646975 -0.0674838801329373 -0.0620305725113262 -0.1514375 -0.0001522648 -0.9884668 79 79 79
-0.068295162911983 -0.0293177707777142 -0.0183648025409625 -0.8973438 -0.4359703 -0.06858625 25 25 25
-0.0539612091067943 0.0404496292830904 -0.00993152264967554 -0.08619829 0.7163121 -0.6924354 100 100 100
-0.0190072477994003 -0.0130660004690303 -0.0376795463372731 0.001808095 0.4552972 -0.8903376 93 93 93
-0.0552873938166885 -0.0428619708698837 -0.0524211833403243 -0.4086523 0.2238884 -0.8848035 109 109 109
0.0709084440221095 0.0258078127060429 -0.0057181574686904 0.707638 -0.4099229 -0.5755098 79 79 79
0.00836434831812172 -0.0141259866243549 -0.038261954520309 -0.02464035 0.4206621 -0.9068827 86 86 86
-0.0475062298692746 -0.0205623106171452 -0.0415026728177528 -0.004321323 0.4398944 -0.8980391 128 128 128
0.0212450252607383 0.0431422828564291 -0.00914496156192855 -0.01972954 0.4659499 -0.8845911 59 59 59
-0.0105282653400263 0.0355217270870446 0.0214758148487538 -0.1395164 0.92712 0.3478271 106 106 106
-0.0404729684519718 0.000830172861557288 -0.0306550012729678 -0.005236479 0.4612332 -0.8872635 102 102 102
-0.0533592111257124 -0.0508659545761153 -0.0556032855964803 -0.7115675 -0.0310499 -0.7019314 103 103 103
0.0308114876397574 -0.0213161860272079 -0.0207001841872207 0.8575314 -0.4384927 -0.2690054 48 48 48
-0.0943948135395511 0.0239825971157758 -0.00818981605598732 -0.9240284 -0.3743396 -0.07772657 84 84 84
0.0575635664972967 -0.0109048281407852 0.00624372066118086 0.5671254 -0.5060962 -0.6497964 61 61 61
-0.0287927125501066 -0.0736860581367001 -0.0512966289337041 0.6410558 -0.6764405 -0.3625956 65 65 65
-0.0397362669393351 -0.00314536902267759 -0.0327162752307444 -0.002220137 0.4468442 -0.894609 146 146 146
-0.0077626466892613 0.0432479187138909 0.00188157386500545 -0.2038501 0.903641 0.3766672 72 72 72
-0.0140276228442917 -0.0642221133390474 -0.0420276903933481 0.6952587 -0.5985186 -0.3979835 105 105 105
0.022397193977016 0.00186940438087435 -0.0305626750559503 -0.007637101 0.43714 -0.8993611 146 146 146
0.0307134531855175 -0.0207726167274526 -0.0224847133104779 0.8041182 -0.4917725 -0.3339967 59 59 59
-0.0734587779488405 -0.0199223847456301 -0.00843529058521218 -0.8830084 -0.4643148 -0.06861478 73 73 73
-0.0103929371264795 -0.0219203259265711 -0.0421372378302271 -0.01382844 0.456968 -0.8893756 114 114 114
0.00308930379178785 -0.0587126919458897 -0.0215906991024781 0.6330251 -0.6857247 -0.3592504 70 70 70
-0.0138366225542228 0.0376171237367325 0.0137888674313716 -0.1298262 0.9153494 0.381157 157 157 157
-0.0672349829940173 -0.0321047772709061 -0.00752238296776118 -0.9095736 -0.4135714 -0.04043151 41 41 41
0.00840555467767556 0.039582312593717 -0.0109257706988834 0.004763839 0.4551091 -0.8904229 149 149 149
-0.0929340123869675 0.0223044940646689 -0.0179267352855394 -0.7947996 -0.1483031 -0.5884725 105 105 105
0.0355969624434787 0.042242259534545 0.0232695934291631 -0.3080781 0.8748147 0.3738812 100 100 100
-0.0493972953449826 0.00244832540802975 -0.0297025838794786 0.006424057 0.46498 -0.8852979 204 204 204
-0.0419340880710459 -0.057715941881295 -0.0603284078964599 -0.02623353 0.389616 -0.9206037 142 142 142
-0.0492312559973205 -0.0145692525568929 -0.0383477241414425 -0.01704392 0.457077 -0.8892638 143 143 143
-0.0445907699791221 -0.073578329275357 -0.0403789197508083 -0.9139007 -0.3972826 -0.08337899 45 45 45
-0.0700966478630183 0.0106212468180834 -0.0254533937712069 0.00194239 0.463655 -0.8860137 144 144 144
0.0292245986724362 0.0501960683250277 -0.00593498024455905 -0.03215978 0.5333228 -0.8453003 87 87 87
-0.0380830529589016 0.0263405587080726 -0.0175302802430181 -0.006299827 0.456696 -0.8896005 134 134 134
0.0122912750959077 -0.0402047340893329 -0.0258817900805405 0.5179301 -0.4247217 -0.7425361 69 69 69
-0.0266910777809461 0.00633727748555579 -0.0278493857337651 0.002823952 0.4595079 -0.8881692 110 110 110
0.0297071114923395 -0.0210094172749463 -0.0241441413333755 0.7542089 -0.5300058 -0.3876375 71 71 71
-0.00118521668373894 -0.0450317004464779 -0.0388807063121937 0.6245814 -0.5142108 -0.58778 25 25 25
-0.0602667248315241 -0.0255739053163236 -0.0441386593193675 0.0008776125 0.4476946 -0.8941861 151 151 151
-0.0432503872505627 0.0328736649219873 0.0262102036163123 -0.08634644 0.9878429 0.1292696 55 55 55
-0.0348054509134124 -0.0514817420733208 -0.057350679191867 -0.003022498 0.4631575 -0.8862709 115 115 115
-0.0564453548649508 -0.0455214083115804 -0.0534364753838211 -0.7009592 -0.03636993 -0.7122734 89 89 89
-0.0106863228723646 -0.0561888387547927 -0.0434898298238484 0.7807838 -0.2250493 -0.5828632 58 58 58
0.0467858828531331 0.0434625116619173 0.0290201605522012 -0.3231247 0.8976449 0.2997065 111 111 111
-0.062318614885509 -0.0294454059497394 -0.0460025133603052 -0.3650457 0.2470656 -0.897608 158 158 158
-0.0719965748046119 -0.00442795111259453 -0.0331500902800851 -0.04334537 0.4458398 -0.8940626 136 136 136
-0.0427672466156981 -0.0324594119775078 -0.0468862424762789 -0.003392887 0.4625665 -0.8865781 174 174 174
-0.06350561895507 0.0398892552642894 -0.00833407421358432 -0.1825393 0.9711067 -0.1537245 140 140 140
-0.00615799767022862 0.00827115344942719 -0.0265707933174971 0.006847103 0.4488995 -0.893556 110 110 110
-0.0465573268492059 -0.0706745715905471 -0.0352469753148652 -0.8969795 -0.4230699 -0.1282175 52 52 52
-0.00621795890446997 0.0455842111616841 -0.00334885532727678 -0.2053972 0.9644786 0.1661118 173 173 173
0.0824455165148561 0.0485665616557142 0.014962245325585 0.1162195 0.9694483 0.2160161 64 64 64
-0.0268107727233726 -0.0516694658689242 -0.0573051282921245 0.01025795 0.4418636 -0.8970236 121 121 121
-0.0576864338569747 -0.0489884906688068 -0.0351442741050994 -0.9054632 -0.4182578 -0.07208834 76 76 76
-0.0733868836034026 0.0367861664673869 0.0007814700151322 -0.1088278 0.9521722 0.2855253 74 74 74
-0.0806078449393532 -0.000201592693803376 -0.0261575628305427 -0.905584 -0.3737865 -0.2005024 116 116 116
-0.0455831935982425 -0.0696885887450386 -0.0461542921598904 -0.9161642 -0.3928418 -0.0794896 50 50 50
-0.0303115252372654 -0.0291475195505922 -0.0459572932276835 0.0078733 0.4582139 -0.8888071 93 93 93
-0.0457281977208224 0.0319268579690638 0.0269721779500941 -0.07761148 0.9926255 0.09311911 50 50 50
-0.0628804518593156 -0.0118721359505586 -0.0369986532507566 -0.02668995 0.4750641 -0.8795463 157 157 157
-0.0749422972081244 -0.0126916566123202 -0.0261202957469564 -0.91049 -0.3963809 -0.1178566 123 123 123
-0.0447517495817564 -0.0436835926217575 -0.0532480818041201 -0.0009443456 0.4579705 -0.8889669 149 149 149
-0.0817461308981184 -0.00159185510606707 -0.0113350184020361 -0.9006254 -0.4345111 0.008603475 81 81 81
-0.080505968130844 -0.000783241629133236 -0.0282578328495777 -0.921874 -0.3228734 -0.2142454 48 48 48
-0.0131394690713362 -0.0119973345464904 -0.0367763542447797 -0.0127427 0.4572816 -0.8892307 100 100 100
0.0307705436232348 0.000476386044028332 -0.0313084439016748 0.01064014 0.4434235 -0.8962491 99 99 99
-0.0640488882525516 -0.0109359652420981 -0.0361457376475077 -0.01436845 0.4762913 -0.8791701 184 184 184
-0.0353666720949941 0.0138757434463691 -0.0239097402071512 -0.01951727 0.464194 -0.8855185 119 119 119
-0.0161862427292516 -0.0735294354898829 -0.0285783682545176 0.6475824 -0.6848608 -0.3340701 46 46 46
0.0962425602194594 0.0468370213213444 0.0366648420407766 0.05401287 0.9544876 0.2933192 28 28 28
0.0842796890855677 0.0504063736733579 0.0115154544853559 0.2588245 0.8487043 0.4612059 46 46 46
-0.00181152305646792 -0.0374614889330424 -0.0470382454203961 0.4163879 -0.4121498 -0.8104034 45 45 45
-0.0509987034082959 -0.0613436956693197 -0.0357346443064049 -0.8723187 -0.4840928 -0.0686596 46 46 46
-0.0728448800294923 0.0312175927310357 0.015938741309791 -0.1275927 0.9645565 0.2309781 129 129 129
0.000177262050760074 -0.00368072582348178 -0.0329613489880073 -0.01330999 0.4547912 -0.8904986 92 92 92
-0.0754263463200848 -0.0143780400216794 -0.0184389267220205 -0.9002475 -0.4251887 -0.09364315 61 61 61
-0.0522431977190219 0.0299575449147876 -0.015275314973862 -0.01576966 0.4607847 -0.8873718 124 124 124
-0.0690636338876822 -0.0221649489727781 -0.0412930861666105 -0.7412703 -0.004593029 -0.6711909 127 127 127
-0.0526108639637943 -0.0580621114286463 -0.0396712584727919 -0.852646 -0.489155 -0.1836361 50 50 50
-0.0736279192901144 -0.0180889601728914 -0.0235191475485371 -0.9120256 -0.4035833 -0.07300562 89 89 89
-0.0204258607882939 0.0402959227771024 0.00584290431339442 -0.1400969 0.9401653 0.3105833 100 100 100
-0.0494789433286114 -0.0594174133263946 -0.0580661724495146 -0.8960759 -0.3181085 -0.3096046 73 73 73
0.00196581537244578 -0.0320662383632596 -0.0478776869756686 0.2686287 0.1180146 -0.955987 99 99 99
0.00804056731276681 -0.0361723610468555 -0.0393638931542361 0.6223376 -0.6144936 -0.4848643 29 29 29
-0.0640509536438185 -0.0323380132456536 -0.043051996232931 -0.9212496 -0.3230473 -0.2166555 90 90 90
-0.00203805142783597 0.0100060063300954 -0.0259989878061819 -0.02773964 0.4620773 -0.8864057 167 167 167
-0.0453492141868379 0.040752836622307 -0.00463922667631576 0.03180823 0.9670589 0.2525577 43 43 43
-0.0860843414831836 0.0102892019476762 -0.0248896549697749 -0.8251426 -0.1243192 -0.5510757 133 133 133
-0.0848788759788754 0.00806530109215597 -0.0244455968475431 -0.895062 -0.2459504 -0.3719843 127 127 127
-0.0420670727743118 0.0283361781084951 -0.0165179222304499 -0.02841095 0.4661239 -0.8842632 91 91 91
0.0730505897805354 0.0153356953875431 -5.68361386035013E-05 0.7968021 -0.2700176 -0.5405524 146 146 146
-0.0192632608570813 0.0244379562639839 -0.0184330658530737 -0.0001232159 0.4376081 -0.8991658 133 133 133
-0.069741103340681 -0.0246760760739927 -0.0296885634689045 -0.901861 -0.4111351 -0.1327199 84 84 84
-0.0271707262727712 0.038033328038413 -0.0118889266907803 0.008745185 0.4603649 -0.8876867 117 117 117
-0.0753665978565432 0.00150899610875721 -0.030207145454614 -0.1060668 0.3573741 -0.927919 149 149 149
-0.0315570173456403 -0.0635565891628839 -0.0624842848629103 0.204626 0.1137597 -0.9722072 101 101 101
-0.028137950301343 -0.0349190591034717 -0.0487689484038152 -0.002790596 0.4438865 -0.8960787 135 135 135
-0.0395354868600433 -0.084484325995318 -0.0401846340515795 -0.8402345 -0.5392388 -0.05681188 88 88 88
-0.0449700873014138 -0.0747713433914029 -0.0330366426496034 -0.9021944 -0.4154866 -0.1158283 50 50 50
-0.0492289731511799 -0.0180358591864408 -0.0399107293855677 -0.01251116 0.4465596 -0.8946664 172 172 172
-0.080347614097644 -0.00513796266036859 -0.0112765593259629 -0.9196 -0.392845 0.002936783 65 65 65
-0.0430955704401401 -0.0767783171047326 -0.0425741653051136 -0.9107577 -0.4024873 -0.09232812 49 49 49
-0.0213160207641199 0.0370514420109341 -0.0120260843492173 0.006018034 0.4666646 -0.8844138 125 125 125
-0.0944522454411234 0.021508984477452 0.000579013143493977 -0.9165642 -0.3970339 -0.04768741 83 83 83
-0.0791752487294408 -0.00603470531454586 -0.0016215306807361 -0.9157709 -0.4016973 -0.00172285 115 115 115
-0.0276117538107146 0.0153437959279864 -0.0236422750465247 -0.01777441 0.4520418 -0.8918197 214 214 214
-0.0315091339438633 0.0398198170572314 -0.00484333994068618 -0.1583854 0.9818226 0.1045877 26 26 26
0.0334862288467992 0.0434427014521274 0.0202598875993511 -0.335342 0.8733049 0.3533897 153 153 153
-0.00503275096968858 -0.0339422624690798 -0.0483102856717972 0.09821391 0.3605117 -0.9275696 92 92 92
-0.0236656325154221 -0.0774886434342273 -0.0341188806027105 0.6358792 -0.6804608 -0.364185 58 58 58
0.0463256285512368 0.0265935903600348 -0.0176919356608902 -0.01346299 0.4554697 -0.8901495 139 139 139
-0.0621326937997719 -0.040397567260208 -0.033449039817351 -0.8933668 -0.4285252 -0.1351364 63 63 63
-0.0661220732723993 -0.012921756756103 -0.0374194866974506 -0.01152175 0.4676199 -0.8838546 170 170 170
-0.0510350910227069 -0.0605207585184248 -0.0412900467548691 -0.8554395 -0.4752323 -0.2058582 63 63 63
0.00830729928455565 -0.0356488934418392 -0.0408385357686286 0.6252258 -0.5883456 -0.5127788 44 44 44
-0.0682929275046327 -0.0267098579900623 -0.0322089460044834 -0.9111947 -0.3806141 -0.1576616 95 95 95
0.0387134423477482 0.0394094255567815 0.0312588905765929 -0.3021697 0.8917121 0.3369615 115 115 115
-0.0419460114792991 0.0351102353855676 0.0153140656181734 -0.09372306 0.9605463 0.2618525 110 110 110
-0.0717900770792714 -0.0208286278322939 -0.0267834042051125 -0.9195224 -0.3847567 -0.08025456 138 138 138
-0.0942873228658536 0.0172409624413562 0.0157757254840414 -0.8559369 -0.5058607 -0.1071308 57 57 57
-0.080263584393125 0.028288615546508 0.0228002333545782 -0.3139057 0.9328548 0.176763 71 71 71
-0.0394578880942462 -0.00602869810537399 -0.0341511223655678 -0.001879578 0.4519172 -0.8920579 200 200 200
0.0961469677826421 0.0349491536955472 0.0210587403687824 0.5949945 -0.6018701 -0.5326668 71 71 71
-0.00330209724826203 -0.0624741610212051 -0.0260050852446313 0.6476478 -0.680764 -0.3422174 79 79 79
-0.0554839010077646 -0.0381053240690074 -0.050138528596691 -0.1019248 0.4296455 -0.8972269 120 120 120
-0.00969685327636194 -0.04954128778887 -0.0442248542409761 0.7601516 -0.2688015 -0.5915363 17 17 17
0.0983142522378322 0.0418844068336318 0.0156120803936455 0.6202016 -0.6259085 -0.4728515 50 50 50
-0.0593825708076912 -0.0445660859837939 -0.0380362775525735 -0.8984538 -0.417123 -0.1370738 68 68 68
-0.0385979750118546 -0.00401811273507968 -0.0330679370861628 -0.0002722369 0.4490319 -0.8935156 148 148 148
-0.0805482652273457 0.0149335681332002 -0.0230169327514555 -0.01452449 0.4638787 -0.8857797 95 95 95
0.00818082455311719 -0.0289000738907331 -0.0444147727843642 0.4925174 0.02292535 -0.8700006 127 127 127
-0.0204188688723241 -0.0275487714981869 -0.0450973760641372 0.001587145 0.4365425 -0.8996822 96 96 96
-0.001200798611658 0.00810111009692804 -0.0272993813834478 -0.02880122 0.4592057 -0.887863 189 189 189
-0.0926406098416557 0.0276721976787982 -0.0164584022248112 -0.4633018 0.2585713 -0.8476393 123 123 123
-0.0706760717694475 -0.023150182370327 -0.0269542568612957 -0.9103448 -0.407939 -0.0696998 30 30 30
-0.0486915399920105 -0.0649562461781711 -0.0390180565098242 -0.882463 -0.4509518 -0.1337963 39 39 39
-0.0456318357947003 -0.0152889914910593 -0.0389083220337409 -0.01048387 0.458436 -0.8886656 175 175 175
0.0939370671728312 0.0472430466179842 0.0148706125857643 0.0359503 0.9993425 -0.004708337 62 62 62
-0.0745685022543543 0.0170189862573978 -0.0220343310094508 -0.02210401 0.4516653 -0.8919136 100 100 100
-0.0402805163451383 -0.0773100079297498 -0.0603658010881461 -0.5713493 -0.643374 -0.5095388 73 73 73
-0.0485000130425375 -0.0120795294865482 -0.0370672846025497 -0.01045307 0.4584529 -0.8886572 188 188 188
-0.00927831540731061 -0.0592553993387742 -0.0407136912298035 0.693371 -0.4690956 -0.546979 39 39 39
0.00339563861244541 0.00198262528713189 -0.0303921407335901 -0.008162269 0.4463872 -0.8948027 128 128 128
-0.0755167080538177 -0.0153004386808221 -0.0113085489061905 -0.8935843 -0.4459437 -0.05139349 65 65 65
-0.0556910762496456 0.0383004165118425 -0.0113074302362874 -0.02521418 0.6105681 -0.7915623 116 116 116
-0.0939096534339554 0.0279716642198827 0.0101013014690218 -0.6681573 0.7035006 0.2421832 36 36 36
-0.0396259589470231 -0.0821852983988965 -0.0480463244701044 -0.8801546 -0.4552187 -0.1345508 73 73 73
-0.0403200715797172 -0.0794898809948371 -0.0531528467226961 -0.6701273 -0.7019006 -0.2413815 57 57 57
-0.04117932541239 -0.0784583247627449 -0.0537789124197895 -0.891902 -0.4358071 -0.1207598 81 81 81
-0.039521855372036 -0.0803684527228844 -0.0547197781229737 -0.3671646 -0.8709838 -0.3264618 116 116 116
-0.0617256310200642 -0.038321596049954 -0.0407184519611332 -0.9017565 -0.3871613 -0.1922017 89 89 89
0.00279620129929414 -0.012270615878167 -0.0372097898093672 0.001078291 0.4558606 -0.8900505 88 88 88
-0.0343473287577867 -0.0233520955497405 -0.0429440112380961 0.007946584 0.4729787 -0.8810381 121 121 121
-0.00643312172712251 0.0176413601568527 -0.0221214552250699 -0.007721593 0.4596505 -0.8880664 171 171 171
-0.0403671184607086 -0.000721538758602036 -0.0312207247770028 -0.00403446 0.4622647 -0.8867328 129 129 129
0.00391422666487129 -0.0475283422951719 -0.0294094843464968 0.6833431 -0.3181671 -0.6571239 29 29 29
0.0128138272478409 0.0398719933805048 0.0180867515183442 -0.1663723 0.9022673 0.3977863 110 110 110
-0.0340722847371548 -0.00716048372983458 -0.03451168973303 0.02023901 0.451095 -0.8922464 201 201 201
-0.0116796579790979 -0.0626052733725134 -0.0398301160220539 0.6800784 -0.5791814 -0.4494911 50 50 50
-0.044249292563566 -0.0750570736727622 -0.0412486943263467 -0.9165253 -0.3923372 -0.07780018 30 30 30
-0.0303265244816648 -0.0563601813855489 -0.0596641839349084 0.1324272 0.3627363 -0.9224345 115 115 115
-0.0171725378434533 -0.0351135031221607 -0.0490876685142026 -0.012518 0.4576479 -0.8890454 126 126 126
-0.00840943914278514 0.0367375826960507 0.0186073615954273 -0.1583627 0.9307701 0.3295273 113 113 113
