ply
format ascii 1.0
comment File exported by Rhinoceros Version 7.0
element vertex 473
property float x
property float y
property float z
property float nx
property float ny
property float nz
property uchar red
property uchar green
property uchar blue
end_header
-0.00683539453720483 -0.0563190680678103 -0.000639544186886526 -0.08863269 -0.2642268 0.9603793 49 49 49
-0.00870406509532951 0.00165755310216542 0.00696472239811763 -0.08032883 0.07118641 0.9942232 59 59 59
-0.0146489608199368 0.0121105026522563 0.00560399141383203 -0.120237 0.1962844 0.9731472 133 133 133
0.0140990154450573 0.0484966174359733 0.00172106403921035 -0.04999214 0.2291861 0.972098 58 58 58
0.0337546312278428 -0.0402027796133317 0.00027072052916613 0.7718481 -0.1070468 0.6267307 104 104 104
-0.00542832061879606 -0.0280155425927644 0.00873447399114086 -0.1710554 -0.1691683 0.9706298 65 65 65
-0.00494681743523417 -0.0450842963651243 0.00254905530009295 -0.08676751 -0.3263634 0.9412536 146 146 146
-0.0150195339500288 0.0226713247711559 0.00334745483805624 -0.05201444 0.1306085 0.9900686 79 79 79
-0.0379152053781434 0.0119495623463006 -0.00122008434283941 -0.5776047 0.007965754 0.8162777 41 41 41
0.0274800806049575 0.0336764364562081 -0.00152604353699498 0.8386056 0.451151 -0.3052921 38 38 38
0.0197957511936326 -0.0275654092449011 0.010998401780509 0.04972799 -0.2810326 0.958409 150 150 150
0.0165538166783128 -0.0443165879321747 0.0034144286218119 0.1984632 -0.469581 0.8602942 92 92 92
-0.0240318074683765 0.0289657383764497 0.000958180715455781 -0.2488764 0.3043029 0.9194891 69 69 69
0.0329475726674339 -0.0236955327441828 0.00124196457089643 0.9732564 0.07987095 0.2153895 86 86 86
0.0185436414868519 0.0484209937324467 0.00200658579623866 -0.4269028 0.05367826 0.902703 56 56 56
-0.0132688700861687 -0.0362413047880259 0.00392231133115689 -0.2645418 -0.3755079 0.8882632 46 46 46
0.0130042658449533 0.0452367924149104 0.00242393223644241 -0.1466306 0.4356166 0.888109 51 51 51
0.00144338129900967 0.0405045264378687 0.00183309297268436 -0.2741707 0.2522297 0.9280143 165 165 165
0.00256342510667429 -0.0163830222090682 0.00957447982841025 -0.1315732 0.07941983 0.9881199 152 152 152
-0.0162895293898989 0.0274089053257336 0.00311012859017901 -0.07486343 0.1456572 0.9864986 156 156 156
0.0161003790955085 0.0138404239589884 0.00866174173220274 -0.1888098 0.164074 0.96821 71 71 71
0.0307633281872415 -0.0388544233856964 0.00518466183353392 0.4457743 -0.4973197 0.7442839 61 61 61
0.0151720061937604 0.0207861362181976 0.00685930802294143 -0.1166488 0.1630683 0.9796947 148 148 148
-0.0293826496364167 0.0109132505513627 0.00358548103776982 -0.2677388 0.1031762 0.9579512 85 85 85
0.034314944631434 -0.050854222489024 -0.00275604095182447 0.534389 -0.1823134 0.8253425 117 117 117
0.0295223825613583 -0.0344804666194314 0.00873003123239671 0.2168346 -0.4382849 0.8722896 71 71 71
-0.0266127517379746 -0.0325903213906857 0.000254980305101266 -0.4714149 -0.2641306 0.8414292 45 45 45
-0.0258977832652264 -0.0156750957880503 0.00477003523544953 -0.4253663 -0.2018427 0.8822262 93 93 93
-0.000621551113495711 -0.0368739885405791 0.0064014760749988 -0.09209967 -0.4424771 0.8920379 140 140 140
-0.02067756062549 -0.022607478868184 0.00618062626572677 -0.3621177 -0.1774394 0.915088 41 41 41
-0.01419791902461 -0.0311734024304373 0.00606477384318721 -0.2392612 -0.3312102 0.9127179 40 40 40
0.0164481659877641 0.0269457653822747 -0.00921446747508775 0.1967831 0.4056019 -0.8926162 12 12 12
0.0192566426528323 -0.0539080539655397 -0.000713331672896972 0.06111432 -0.2066792 0.9764982 70 70 70
-0.00271403044827057 0.0209465711393997 0.00481027058897177 -0.09856114 0.184622 0.977855 95 95 95
0.0120143796100299 -0.0366184357289232 0.00798959387056539 0.0222654 -0.4069839 0.913164 53 53 53
0.0103698523586172 -0.0267891200671706 0.0109002239626829 -0.1096747 -0.1323121 0.9851218 79 79 79
-0.0228589916808841 -0.00180207929159115 0.00644866225848675 -0.1091773 0.0005469425 0.9940221 78 78 78
-0.0396224322895539 0.0206197240462354 -0.0021414113711897 -0.4070596 0.1079099 0.907005 48 48 48
0.0341830197676747 -0.0220404673166354 -0.00515526376082318 0.9529932 0.08518673 0.2907702 142 142 142
-0.0265473077143451 0.0436870479635825 -0.00314013664570853 -0.1175432 0.3132285 0.9423755 60 60 60
-0.00860333697188387 -0.0533368574541735 -0.000408630338509131 -0.1501949 -0.2678738 0.9516749 48 48 48
-0.00723389766501226 0.0195822252377433 0.00471745175254124 -0.1174239 0.2161976 0.9692627 75 75 75
-0.0106709551529537 0.0388667032526044 0.000545605971547042 -0.06663613 0.3160617 0.9463956 145 145 145
0.00159363971918758 -0.0601375930229657 -0.000596869858156435 0.02960834 -0.1554999 0.9873921 105 105 105
-0.0179959312114759 -0.0428646161270454 0.000629809744228799 -0.2700737 -0.2891585 0.918394 51 51 51
-0.00782700310521212 0.0379339838238113 0.000826800062402683 -0.0002485157 0.3005125 0.9537778 221 221 221
0.0307612688701553 -0.00129001931864026 0.00428472570971544 0.9633084 -0.02971343 0.2667471 37 37 37
-0.00931815594942453 0.0418660258431556 -0.000300131511110691 -0.05310502 0.3428251 0.937897 105 105 105
0.00643133566460896 -0.013745898999644 0.0101583920642117 -0.1581174 0.07813884 0.9843237 110 110 110
-0.00292643110902568 0.0415132066500985 0.000136849946206941 -0.193286 0.2402593 0.9512707 145 145 145
-0.00896525224413969 0.0501724233911476 -0.00233315872102777 -0.2505682 0.1326283 0.958971 47 47 47
0.00440720095792557 0.026673570506252 0.00522466211621231 -0.1225154 0.146819 0.9815468 66 66 66
0.0248444270647116 -0.0544521134972566 -0.000937519727715413 0.0110885 -0.1589478 0.9872247 75 75 75
0.0230684645242213 -0.0616530515219469 -0.0025673426838142 0.001572405 -0.06474709 0.9979005 105 105 105
-0.0126927147268557 -0.00320230989672643 0.00760727542179626 -0.1002358 0.08803719 0.9910612 118 118 118
0.02705976788338 0.0362940286209921 0.00394077535786561 0.8745334 0.2872282 0.3907574 93 93 93
0.028210201381196 -0.0330154681302934 0.00889962485349452 0.1641777 -0.3684315 0.9150431 52 52 52
-0.00565713731286743 -0.0216315831105782 0.00850208706303382 -0.1173707 0.009395681 0.9930437 89 89 89
-0.00150361644486585 -0.0233468738056171 0.00965771789410635 -0.1625821 0.01504061 0.9865804 79 79 79
0.020714028233129 0.0205840206652208 0.00764824316566001 -0.1335138 0.1530758 0.9791536 70 70 70
0.0205245432868416 -0.0535386620609914 -0.000895864729762441 0.0292271 -0.2045142 0.9784272 51 51 51
0.0204215027102496 -0.0397372703811985 0.00565970935279883 0.05687426 -0.559857 0.826635 80 80 80
-0.0181119571873725 -0.0272324202856156 0.00639185086739355 -0.3400844 -0.2364059 0.9101949 102 102 102
-0.0317202472174755 0.0116227378288378 0.00359245254571069 -0.3244489 0.09847807 0.940763 99 99 99
0.028983333988298 0.00202482376467605 0.00798506157126416 0.819127 0.06053986 0.5704085 71 71 71
0.0112781501738989 -0.0644691456706887 -0.00136019002870352 0.008842287 -0.0127699 0.9998794 78 78 78
-0.00724350074122226 -0.00508764809517315 0.00841056350547134 -0.12075 0.1235941 0.9849588 116 116 116
-0.0217890305353811 0.0596503034131264 -0.00692690809055724 -0.1314641 0.300599 0.9446467 60 60 60
0.00890701854477416 0.010322014199178 0.00810957578579641 -0.0735946 0.1329383 0.9883882 51 51 51
0.0316557889534467 -0.00271774476382913 -0.00265821505496971 0.9671322 0.009344724 0.2541024 62 62 62
0.0140444926397013 0.0541225013420292 0.000412630267124681 -0.2074721 0.1898797 0.9596359 48 48 48
0.00666363691203231 0.0338563303581774 -0.00767539757478672 0.1836328 0.37384 -0.9091329 15 15 15
-0.0214701157432343 0.0174093498204122 0.00352234504827795 -0.1226871 0.1796763 0.9760453 147 147 147
0.0330119631059432 -0.020639488548079 -0.000513141913041776 0.9586816 0.08151434 0.2725527 46 46 46
0.0118063703816126 -0.0179998534291606 0.0112367034900042 -0.1641369 0.0534709 0.9849873 136 136 136
-0.00178470236111217 -0.019435045572842 0.00937450831318898 -0.1229592 0.04769666 0.9912649 200 200 200
-0.0288677595510649 0.0514726712802802 -0.00587843286256468 -0.1962443 0.2575968 0.9461142 62 62 62
-0.00523073639223492 -0.0266731511177427 0.00881453614225561 -0.1751316 -0.1317215 0.9756938 93 93 93
0.000502443509349138 0.0443605189975118 0.000675683555765166 -0.2042715 0.3600775 0.9102842 90 90 90
-0.0229522411539069 0.00609769325115939 0.00561379513854673 -0.101691 0.2189516 0.9704221 93 93 93
-0.0165880742936965 0.0228637076572997 0.00339338331341085 -0.05788146 0.1255959 0.9903916 120 120 120
-0.0103020672226372 -0.0451394094917088 0.00138983327313186 -0.2497956 -0.2482951 0.9359229 41 41 41
0.0298469989418514 0.0144793787034687 0.000702502932194177 0.9719212 0.1410785 0.1883243 66 66 66
-0.0286820775120041 -0.024366843342533 0.00118547434669267 -0.5630926 -0.2591121 0.7847214 56 56 56
0.00787820040074172 0.0255847066949961 0.00550591212984958 -0.1080178 0.1672242 0.9799838 106 106 106
-0.0165900459373766 -0.0219169614311625 0.0073148102072276 -0.2332858 -0.1340155 0.963129 60 60 60
-0.0199900061759232 0.0333330589258758 0.000577129040307711 -0.2045881 0.2892155 0.935146 79 79 79
0.032979197059028 -0.0137947162822238 -0.00164621119121461 0.9689288 0.004159238 0.2473049 72 72 72
0.0165855841921522 0.0199426275076906 0.00722640791414461 -0.1380306 0.1936454 0.9713131 144 144 144
0.0247091691219778 0.00693551787322466 0.0110910486982838 0.02272936 0.05176945 0.9984004 54 54 54
0.029838442972851 -0.00741745638734148 0.00878261141007677 0.8797837 0.05296043 0.4724148 24 24 24
-0.0151291032708809 0.00837187414754981 0.00638552731816203 -0.1543118 0.09414207 0.9835269 48 48 48
-0.0186298907258131 -0.0321562531457462 0.00429730340276552 -0.3539282 -0.3541762 0.8656177 93 93 93
0.021652113863205 0.0190439689215145 0.00804503687614971 -0.112216 0.2374056 0.9649073 95 95 95
0.0356965851042274 -0.0444813081625568 -0.00144657782062857 0.7109624 -0.08355993 0.6982479 132 132 132
-0.0326926823953938 -0.0114797341088553 0.00324089641295611 -0.5852442 -0.1950999 0.7870358 118 118 118
-0.0281395566211232 0.049486274661654 -0.00491441099436987 -0.1990045 0.2549532 0.9462537 58 58 58
0.00618252498118443 0.0442641576776479 0.00128048816725504 -0.1864343 0.4332427 0.881784 59 59 59
0.00885642783676033 -0.016856502305173 0.0103922697994649 -0.1870977 0.08773065 0.978416 138 138 138
0.0335835936839982 -0.0118675473430641 -0.00435551495723147 0.9727063 0.05401886 0.2256644 45 45 45
0.0137062477600904 -0.0161604894256686 0.0112860547831457 -0.1804943 0.04083312 0.9827281 159 159 159
0.021579825926439 0.0263427512932166 0.00754496003010191 -0.08949469 0.1714091 0.9811267 66 66 66
-0.0188741022777891 -0.00306514290602378 0.00678606220658054 -0.07283264 0.02704035 0.9969776 90 90 90
0.0147733365968793 -0.0426156790219123 0.00454471549731594 0.1428378 -0.4443291 0.8844032 66 66 66
-0.0247445979730043 -0.00828426138835869 0.00582337500899996 -0.2045663 -0.06184904 0.9768968 43 43 43
-0.028194338841777 0.0205115468582064 0.00254110111287217 -0.2684727 0.1808102 0.946166 84 84 84
-0.00469087803821167 0.0169098194660358 0.00589419349391559 -0.09997567 0.2607977 0.9602028 97 97 97
-0.0198165247689898 -0.0159658545539068 0.0076273585965653 -0.2746887 -0.02475304 0.9612145 76 76 76
0.00597833859989627 0.048628887444343 -0.000624545499962437 -0.2200915 0.2330963 0.94722 26 26 26
0.0112381346019775 0.0433888980316557 0.00296896815168163 -0.2267751 0.4419762 0.8678883 79 79 79
0.0253159095246376 0.0282728561156329 -0.00707620251324714 0.5231994 0.3959008 -0.7546688 35 35 35
-0.0105091164397552 0.00709213620175642 0.00706855809154036 -0.1133737 0.07628153 0.9906198 136 136 136
0.01622059107173 -0.00920345892464902 0.0109870004438526 -0.2074673 0.1754649 0.962377 110 110 110
-0.0241254345445499 -0.0247259985417194 0.00408703534716517 -0.479804 -0.2518454 0.8404535 76 76 76
-0.0123855459470099 0.035014146088816 0.00194824065439167 -0.09967211 0.2768017 0.9557438 158 158 158
0.00311008062526252 0.0429026521073903 0.00170522290313888 -0.2228887 0.3878645 0.8943611 62 62 62
-0.0191690685259782 0.0257949443736403 0.00277381549296893 -0.0947397 0.1754679 0.979916 235 235 235
0.000206073053267253 -0.0510007054275743 0.000805345062488416 -0.07419401 -0.3209601 0.9441821 56 56 56
0.0302112330967247 -0.0194763013755161 0.009161029782946 0.9599274 0.04259476 0.276993 37 37 37
0.0280274574419733 0.024535275121317 0.00179388424716659 0.9604868 0.1033253 0.2584358 63 63 63
0.0264812001400823 -0.0683281054262623 -0.00283829445425832 0.0002524674 0.07122506 0.9974602 96 96 96
-0.0217107731304768 -0.0396281513177108 -0.000218702062304593 -0.3166632 -0.2939939 0.901827 33 33 33
0.0365938014086556 -0.0396413299080063 -0.00538677970887042 0.8598825 0.1087121 0.4987822 96 96 96
0.0279374548209229 0.00454036981507167 0.0102658077123256 0.4720773 0.07645511 0.8782356 83 83 83
-0.0154327119506944 0.0102925915797965 0.00576521913640191 -0.1490744 0.1474123 0.9777763 61 61 61
0.0319723794057486 0.00436401088734373 -0.00492990178724698 0.9773777 0.1314567 0.1656867 87 87 87
0.0262570319634711 0.0337993042506362 0.00574881211109238 0.5725142 -0.002922523 0.8198896 76 76 76
0.0323312907024816 0.00437430739729971 -0.00278539743726214 0.9800249 0.1047436 0.1690558 67 67 67
0.0102182904693993 0.0058659035752171 0.00861152340735583 -0.09217247 0.08099131 0.9924438 100 100 100
0.015586495795474 0.0268068270819308 0.0061676716542029 -0.151259 0.194022 0.9692658 114 114 114
-0.0344254164907373 -0.0120861343490182 0.00112172294165266 -0.6083499 -0.2397309 0.7565973 59 59 59
0.0245318400639872 -0.0611113664177427 -0.00264810488037079 -0.00631159 -0.08562934 0.9963071 98 98 98
0.00276077330058755 -0.0149107713275856 0.00956948441750718 -0.1048235 0.04091493 0.9936488 128 128 128
-0.0103700746506883 -0.0169699752481158 0.00867904652203957 -0.08447129 -0.07575245 0.9935423 144 144 144
0.0142840318757037 -0.0292618953643464 0.0106343421193233 -0.02014931 -0.294301 0.9555004 169 169 169
0.0285487756728208 -0.0343254190095188 0.0078816622932569 0.2131275 -0.4507277 0.8668455 25 25 25
-0.00973340651141286 -0.0306527924691444 0.00665049130138629 -0.1828351 -0.2561645 0.9491844 94 94 94
-0.0154220072793954 0.046637940201834 -0.00317905103120492 -0.1019174 0.2887463 0.9519656 44 44 44
-0.00326719661103325 -0.044189577630362 0.00294759933531186 -0.06376751 -0.3523934 0.9336769 124 124 124
0.0298635820660119 -0.0303497587630772 0.00978127870450168 0.431723 -0.2981397 0.8513096 54 54 54
-0.0164307193661356 0.0378996524765554 -0.00049021673007113 -0.1740214 0.309561 0.9348201 79 79 79
0.033298251972622 -0.0230662784283229 -0.00223842626831663 0.9581608 0.09398367 0.2703609 79 79 79
0.0344349436905734 -0.0184845667807296 -0.00765344377957297 0.9677502 0.0343735 0.2495558 110 110 110
0.0255207513957798 0.0120034030910239 0.0101773996845906 0.4859423 0.2059945 0.8493682 39 39 39
-0.0291724174271121 -0.0213340699449298 0.00166009426958616 -0.5611638 -0.2134762 0.7997019 35 35 35
-0.00596893576618263 0.0141560265861234 0.00628728658893843 -0.09814039 0.2369665 0.9665481 54 54 54
0.0273795008687253 -0.00759097564533251 0.0120934646109771 0.4248172 0.16952 0.8892656 160 160 160
0.0289110239851847 -0.0507186049277109 -0.000418565978651558 0.1135567 -0.2148219 0.9700291 90 90 90
-0.0388698147941859 0.024803732572678 -0.0023415035268062 -0.3289508 0.1383642 0.9341556 80 80 80
-0.0205837494724769 0.0553718167839867 -0.00475033911167383 -0.08757304 0.2714055 0.9584727 75 75 75
0.0192810461933545 -0.0618442398255008 -0.00211188372776155 0.1009257 0.003469781 0.9948879 53 53 53
0.0168651949859091 0.0339734728234926 -0.00500070177367798 0.2333525 0.4665641 -0.8531498 28 28 28
0.0241438243699971 0.0172628378893227 0.0090798444648402 0.09247049 0.2800054 0.9555345 103 103 103
-0.0372742098863924 0.00463120989541821 -0.000289083792410827 -0.6024207 0.05027744 0.7965937 28 28 28
-0.0180435045570582 -0.00221666443707647 0.00728727661937026 -0.07538307 0.04379229 0.9961926 107 107 107
0.0324811992395696 0.00998861471674561 -0.00581999533565158 0.9752491 0.1628149 0.1496011 84 84 84
-0.00996906109268658 -0.0404820152267826 0.0030820797281485 -0.2261143 -0.3457252 0.9106846 84 84 84
0.0209621705373558 -0.0427167321145581 0.00248383965099316 0.1998542 -0.5621401 0.8025315 106 106 106
0.00498334555715507 0.00914043783177632 0.00809100432190854 -0.0908698 0.09055643 0.9917369 46 46 46
-0.0341240900362817 0.0404679782040109 -0.00384070034201694 -0.2825724 0.3262959 0.9020442 95 95 95
0.0204706447073341 -0.0513844136018329 -0.000746709877673529 0.06650921 -0.2565185 0.9642483 69 69 69
-0.0316577172821225 -0.0166451409275232 0.00129909767052649 -0.5503139 -0.2816127 0.7860336 72 72 72
-0.0251408447958944 0.0156625522481024 0.003358633687053 -0.1318102 0.1831001 0.9742178 97 97 97
0.011332099226354 -0.0576074067542351 -0.000960356301428461 0.0264673 -0.1739113 0.9844056 85 85 85
0.0147494700574028 -0.0535075995032375 -0.000418350184865052 0.1057352 -0.2515161 0.9620602 72 72 72
0.0232076961417654 0.0108586861597018 0.0101911823023475 -0.05049149 0.1264185 0.9906912 61 61 61
0.0325937597531059 -0.0186343307785757 0.000825235336077201 0.9595141 0.02243179 0.2807657 39 39 39
0.0090406024883295 0.0431322101534557 0.00263856259458223 -0.2076764 0.4343137 0.8764942 86 86 86
0.0132655071958111 0.00108394624976804 0.00948035128528657 -0.09845766 0.1258574 0.9871504 115 115 115
0.0178389069321244 -0.0605764940818927 -0.00226832336801738 0.09000583 -0.03814586 0.9952105 81 81 81
-0.0301529366366028 0.042276119515098 -0.00333788737607241 -0.1757336 0.3380535 0.9245743 100 100 100
0.00264236184624822 -0.035615557539223 0.00738578131136303 -0.1187237 -0.428534 0.8956915 155 155 155
-0.0257909568979852 0.0582876016149987 -0.00761665942221465 -0.1916447 0.2842191 0.9394103 51 51 51
0.0149433279547935 0.0225346940555817 0.00716236989175639 -0.1241751 0.1360006 0.9828959 156 156 156
-0.0136129930541017 0.0532790683436062 -0.00440986276421104 -0.1942663 0.1623758 0.9674165 62 62 62
0.031546376536048 -0.0195797178983041 0.00140825666776423 0.9663678 0.0498997 0.252276 62 62 62
0.00916538949465584 0.0362367503053247 0.00490469386341227 -0.181738 0.06159636 0.9814159 123 123 123
-0.00796019044650997 0.0200453299882333 0.00443577482746238 -0.1227582 0.1951703 0.9730565 82 82 82
-0.0256207539353349 -0.0163946233750372 0.00493808202197471 -0.428177 -0.194069 0.8826107 53 53 53
-0.0244806755824692 -0.0146711501265568 0.00580657156725667 -0.3578085 -0.1424821 0.9228607 83 83 83
0.0131361819110564 -0.0138344794690186 0.0115135450682726 -0.2140412 0.13538 0.9673979 177 177 177
-0.0106091934763664 -0.0280609920270694 0.00737479998406121 -0.1612559 -0.2120888 0.9638542 67 67 67
0.0258619861459238 -0.040345303939759 0.00416010451446791 0.04067693 -0.6428355 0.7649235 70 70 70
0.0159171391160026 -0.048782518642045 0.00080141261367847 0.1370536 -0.4196983 0.8972567 114 114 114
0.0250103276909924 0.00468157941035319 0.0109392480319882 0.07243736 -0.00559923 0.9973572 80 80 80
0.0304969171562633 -0.0171588575924682 0.00536825746819533 0.9643365 0.0534759 0.2592211 50 50 50
0.017779700837263 0.0237798993869029 0.00694210479759408 -0.1475731 0.1263726 0.9809445 57 57 57
0.0253089697220094 -0.0333990321955286 0.00880239363034716 0.02323206 -0.3884401 0.921181 58 58 58
-0.0174957403312256 -0.0400764512901377 0.000915585730402013 -0.284932 -0.3146229 0.9054425 68 68 68
0.0218791883042914 0.0374541437302498 -0.00110384554790285 0.5522392 0.6773229 -0.4860716 34 34 34
-0.0177614537365823 0.0359266034802028 0.000910143497459381 -0.2003692 0.3020179 0.9320071 119 119 119
0.00247476973100735 0.0387530777226734 0.00258986765149022 -0.3068163 0.1999746 0.9305235 188 188 188
0.0218806321557654 -0.0685625495404862 -0.00195341013925554 0.03538992 0.06200807 0.997448 95 95 95
0.000509381591586755 0.0558172855485792 -0.00188878383623056 -0.1262365 0.08696307 0.9881811 48 48 48
-0.0288673425311082 0.0394714328017955 -0.00180587513585995 -0.1145052 0.2642836 0.9576235 64 64 64
0.00987260410570412 0.0158885042954284 0.00739360014938809 -0.1028022 0.208004 0.9727107 104 104 104
0.0326972792529712 0.000275297414020104 -0.00193743842117097 0.9763589 0.02247064 0.2149846 39 39 39
-0.00414873232717705 0.0310715709690195 0.00288424803369575 -0.05723869 0.2528861 0.9658014 48 48 48
-0.0235190014625498 -0.00819210490989741 0.00633820339872698 -0.1739113 -0.007655447 0.9847316 69 69 69
0.0129770933465142 -0.0036742592848078 0.00976952430473746 -0.08231617 0.07163624 0.9940283 105 105 105
-0.0184986024660009 0.0457705323526361 -0.00345736583138256 -0.1016957 0.2840316 0.9534066 53 53 53
0.00762680725099651 -0.00106590120275385 0.00955414223786433 -0.05932575 0.1446196 0.9877073 220 220 220
-0.0254961315560337 -0.0108235790883682 0.00541164252823895 -0.2543007 -0.09140975 0.9627956 65 65 65
0.030023492099471 -0.0193951127758054 0.00773929166366769 0.9757856 0.1145713 0.1863219 47 47 47
-0.003204779309537 0.0114724499238694 0.00728939146918536 -0.116348 0.1549306 0.9810503 83 83 83
0.0117529562495039 0.0334832754331196 0.00494760188841117 -0.1329638 -0.03989966 0.9903175 120 120 120
-0.00577963953642524 0.0451389908079345 -0.00135373111918122 -0.1484361 0.2402221 0.9593019 91 91 91
-0.0312022377935133 -0.0178064121753752 0.000833141850472202 -0.5533816 -0.2579283 0.791986 67 67 67
0.015064090245733 0.00936721438506338 0.00882981619582757 -0.170006 0.09589021 0.9807665 52 52 52
-0.00895734633271161 -0.00456762600997074 0.0080798457488688 -0.1408354 0.1299067 0.9814732 151 151 151
-0.0340964044125044 0.0152409132271325 0.000969071816553507 -0.4394523 0.1757316 0.8809087 81 81 81
-0.0366100620162807 0.00646416856959653 -0.000314413605212588 -0.608974 -0.008799695 0.7931414 69 69 69
0.0331725582995349 0.000710992457496618 -0.00417290202673692 0.9737031 0.06586915 0.2180907 42 42 42
0.0323419332296541 -0.0246309091606294 0.0033925098699453 0.9728318 0.08507144 0.2153162 114 114 114
0.00609276077655851 0.00983892475785164 0.00817650286627467 -0.08058375 0.1049376 0.9912086 60 60 60
0.0194640348900972 -0.0646016408036425 -0.00216822289268584 0.1058686 0.02939855 0.9939455 100 100 100
-0.0335315969723714 -0.000480649899116115 0.00286099689473462 -0.5895903 0.1189648 0.7988934 84 84 84
-0.000684318868652722 -0.0269566756897346 0.00956228881020807 -0.1606608 -0.138899 0.9771874 100 100 100
0.0281539115147048 -0.0369968308701571 0.00657631621643429 0.1704481 -0.5113133 0.8423219 44 44 44
-0.00791664711107987 0.0326251408740359 0.00267059097093206 -0.005966049 0.2637459 0.9645737 109 109 109
-0.0251093752643328 0.0563296413085765 -0.00646656446344382 -0.2054599 0.2767579 0.9387179 60 60 60
0.0207202047185836 0.0373969694724674 -0.00192955650992349 0.4284599 0.5124495 -0.7441892 21 21 21
0.0304134809933391 -0.0481615475822774 0.000593059522310119 0.1897397 -0.2566837 0.9476879 44 44 44
-0.00154264008396054 0.0492901683568703 -0.00146781675607138 -0.1128965 0.1143724 0.9870022 72 72 72
-0.00100725791849343 0.0153346672680852 0.00658418677129544 -0.1052934 0.2491695 0.962719 46 46 46
0.021221657735068 0.0451330629270603 0.00647245301181523 -0.2257135 0.2887617 0.930414 69 69 69
0.0274837157296416 0.032971959889238 0.00293783528333461 0.8781465 0.2751871 0.3913194 24 24 24
0.0160694949696486 0.0301023622806529 0.00557460428926465 -0.1353517 0.1544593 0.9786839 113 113 113
0.0156818430462197 0.0442070505584127 0.00363422825034485 -0.1209556 0.5841281 0.8025983 83 83 83
-0.013123154866432 -0.0237964603464851 0.00832343311977879 -0.1515037 -0.1212445 0.9809926 115 115 115
0.0162479653142625 0.0408465541070997 -0.00230647307962636 0.1791828 0.675042 -0.7156898 11 11 11
0.0229965633493191 0.0247755487839139 0.00801301671773941 0.001085066 0.1516353 0.9884359 50 50 50
0.029875674104319 -0.0173280364866752 0.00954858441906456 0.9455511 0.1000389 0.3097181 46 46 46
0.00879821934716307 -0.00436654091771693 0.0101271371504492 -0.03321428 0.05078269 0.9981573 160 160 160
-0.00744549934246019 -0.0355957983578348 0.00589863573621102 -0.2230494 -0.3569245 0.907113 134 134 134
0.028885267217596 0.0206994012530575 0.00110533045374528 0.9730776 0.146127 0.1782328 22 22 22
-0.00721278793814695 0.0282796326698862 0.00341658951067908 -0.06879833 0.1562696 0.9853155 64 64 64
-0.0169542791955198 -0.0422295657503156 0.000680688187829015 -0.2749456 -0.3011217 0.9130885 76 76 76
-0.0023564030702824 -0.000128197462254231 0.00814512255721836 -0.1256532 0.1686937 0.9776266 97 97 97
0.0149894295611356 -0.0369629456773557 0.00717437706131266 0.04504187 -0.4163633 0.9080819 60 60 60
-0.00795871256532765 -0.0414952196102307 0.0038167781343563 -0.1892416 -0.3356906 0.9227673 19 19 19
-0.0086939083390144 -0.0357999074135313 0.0055643343703288 -0.2166724 -0.366156 0.9049767 69 69 69
-0.0316355706829254 -0.0193187001233723 0.000598837803345575 -0.5537333 -0.2421813 0.796698 57 57 57
0.0237312296862006 0.02232974021832 -0.00921270422855261 0.5502848 0.3985775 -0.7337047 37 37 37
-0.024893557518671 -0.0193337227951131 0.00452348810929804 -0.4701041 -0.1451447 0.8705947 62 62 62
0.0237945169331061 -0.0694412491877026 -0.00139770645105561 0.02338202 0.06539263 0.9975857 84 84 84
-0.00346325522245294 0.00451206357422684 0.00728041790408568 -0.08413289 0.04947602 0.9952255 83 83 83
-0.020881883967338 -0.0287884976202175 0.00463746549257882 -0.4048887 -0.3015415 0.8632137 83 83 83
-0.00765623081080513 -0.053197831360676 0.000378296320044907 -0.1322568 -0.2713049 0.9533634 28 28 28
-0.034658095801594 -0.013431481044939 -0.000474863370377693 -0.6397217 -0.2441364 0.7288029 65 65 65
0.0291265173464949 -0.00165828821267922 0.0101301677093096 0.6908388 0.0393448 0.7219375 128 128 128
0.0145372364698536 0.0130343425019079 0.00844490384400468 -0.1665296 0.138742 0.9762267 49 49 49
0.0207980053440834 -0.0641212867635836 -0.00225782825190096 0.07563277 0.06191832 0.9952114 103 103 103
-0.0246280588457571 0.0498359068274743 -0.00493749847143901 -0.118413 0.2249252 0.9671541 83 83 83
-0.0189221807246596 -0.0409716670956222 0.000447707503910155 -0.285635 -0.2963048 0.9113814 47 47 47
-0.031591284912374 0.00585767530405379 0.00300474051729549 -0.4569164 0.1009752 0.8837599 115 115 115
0.0245251094299866 -0.0590541042718242 -0.00214023744790148 -0.01742442 -0.1570474 0.9874374 97 97 97
-0.00507862024204486 -0.0570823161551033 -0.000712837119060644 -0.04407301 -0.2033958 0.9781042 55 55 55
0.00455383752234739 0.0104034766993581 0.00780645384912831 -0.09069842 0.1157765 0.9891257 63 63 63
0.0306423849990344 0.00489269361245115 0.00405934450914244 0.9424995 0.1195163 0.3121068 88 88 88
0.0185027324347385 0.045226875052635 0.00321920175458862 -0.4076894 0.3473406 0.8444784 54 54 54
-0.0346695474342316 0.0116440344205007 0.00162233620102695 -0.5141531 -0.002940039 0.8576934 82 82 82
-0.00040989863534302 -0.0185624332137722 0.00920873308077044 -0.1190402 0.05584147 0.9913179 183 183 183
-0.0241712152513903 -0.0200163379386584 0.00496704646188253 -0.4481902 -0.1384043 0.883159 54 54 54
0.0285377905683605 -0.0256884162606668 0.0119095543282206 0.1672027 -0.3706949 0.9135801 41 41 41
-0.00713658546043361 -0.0481517200331267 0.00176254606916151 -0.1432226 -0.2603123 0.9548428 48 48 48
0.0307699096677299 -0.0275965319424669 0.00979826181265545 0.6805564 -0.2558004 0.6865925 82 82 82
0.0318060892344348 -0.0267906796583937 0.00856110947221181 0.8933855 -0.1180074 0.4335165 26 26 26
0.00630801559701866 -0.011666451574917 0.0100773885196494 -0.09089305 0.02753592 0.9954799 83 83 83
0.00984100728276405 -0.0449122011139249 0.00418238961848341 0.03459735 -0.4643525 0.8849745 53 53 53
-0.0262480786541444 -0.027344854684741 0.00149649985429387 -0.5255495 -0.2795636 0.8035185 28 28 28
-0.01742609977195 0.0555097871441401 -0.00500917050917829 -0.1299314 0.2368413 0.9628209 55 55 55
-0.0113799165928858 0.0358411279908941 0.00146144754964508 -0.07017452 0.2964669 0.9524615 204 204 204
-0.00838395535858871 0.0223723910824911 0.0034378031757783 -0.1126804 0.1346899 0.9844601 33 33 33
0.0132014223375619 -0.0608977061882825 -0.00163152463678407 0.04201745 -0.01373503 0.9990225 53 53 53
0.0070835494569762 0.0394980704362577 0.00354860525111972 -0.2584733 0.2662375 0.928606 82 82 82
0.0308118678670785 -0.0315089633750565 0.00997688954220896 0.6006817 -0.2611251 0.7556422 23 23 23
0.0235368964802682 0.0272228429182724 0.00738634770148577 0.1032655 0.2127252 0.97164 48 48 48
-0.00366113959430525 -0.023803142869592 0.00927033210253367 -0.1590133 -0.005915373 0.9872587 65 65 65
0.0242261996021619 0.0155040200393581 0.00985056845414495 0.1611367 0.2819419 0.9458032 93 93 93
0.00746127028242505 0.0355691885293283 0.00442999822480999 -0.2104435 0.07787818 0.9744991 194 194 194
0.0302488150717263 0.0201583136551198 -0.00388567411938046 0.9848703 0.1723815 -0.01774945 44 44 44
-0.00739169465410894 0.057801007413782 -0.00347868191136375 -0.2226571 0.1817408 0.9578069 61 61 61
-0.0295719255046253 0.0270475112847626 4.99560733181192E-05 -0.2863912 0.2402634 0.9274986 92 92 92
0.0108367979859793 -0.022696925671742 0.0112455467836365 -0.1420552 -0.007092926 0.9898333 155 155 155
0.00183962170646501 -0.0380576395831964 0.005613292561538 -0.1084444 -0.4366346 0.893079 70 70 70
-0.0180144318766492 0.0281875377879499 0.00232728877984095 -0.1314957 0.1864328 0.9736281 119 119 119
0.0245766039452796 0.0344846960538405 -0.00266798566989043 0.5796439 0.5607616 -0.5912354 34 34 34
0.0165329718309599 0.0513919469826751 0.000116320697486683 -0.2072278 0.1058523 0.9725492 111 111 111
0.0150765226113064 0.00500549568198427 0.00914401716902458 -0.1364534 0.06793644 0.9883143 120 120 120
0.00474782884021707 0.0346431088346071 -0.00753221838863133 0.1821669 0.36767 -0.9119397 17 17 17
0.00432567282003171 0.0465329790362401 1.08385802415345E-05 -0.2403356 0.3565771 0.9028242 92 92 92
-0.0204817797374597 -0.0303496447217753 0.00381083391973416 -0.406157 -0.3091183 0.8599316 86 86 86
0.00726086348564869 -0.0240226609302285 0.010604094237087 -0.1252421 -0.04652288 0.9910348 119 119 119
-0.00406221720037248 0.0195407003332604 0.00419277654553801 -0.1121668 0.2186714 0.9693304 48 48 48
0.00468529193062073 -0.0203594027469574 0.0102937874924714 -0.1386085 0.06457014 0.9882401 98 98 98
-0.0131536626893741 0.0245659437045083 0.00303461342484462 -0.06102642 0.1072965 0.9923524 66 66 66
0.0159163825738665 -0.0218263734351718 0.0118489544055337 -0.07452296 -0.05338763 0.9957892 181 181 181
-0.00247131013639357 -0.0591068855766737 -0.00103637664538409 -0.009385964 -0.1679491 0.985751 63 63 63
-0.0279062267164397 0.0191160488182633 0.00222445518339312 -0.2251248 0.1675855 0.9598093 113 113 113
0.0270947012436182 -0.0125856556106607 0.0136594648436873 0.3743614 0.2261457 0.899284 80 80 80
0.0179269068057221 -0.0587552699615901 -0.00194232972846753 0.06566262 -0.107869 0.9919943 78 78 78
0.0076766769206883 -0.0157048253174197 0.0103833576734648 -0.1779367 0.09784196 0.9791657 183 183 183
0.0201749201042839 -0.00724854320500645 0.0113160161637455 -0.1526815 0.1816159 0.9714443 207 207 207
-0.0120341621905433 0.0265328649401677 0.00298439562505176 -0.07319754 0.1047176 0.9918046 60 60 60
0.0133684693398571 0.0337434035807314 0.00491265512188457 -0.07320026 -0.03667191 0.9966428 78 78 78
0.0143811047568567 0.0304341283103433 -0.00833674827878753 0.2039647 0.4457242 -0.8716239 7 7 7
0.0344611719717943 -0.00575324736210381 -0.00793852986774052 0.9490209 0.06180058 0.3090954 66 66 66
0.000859401321789854 -0.0542570794168729 -0.000119062336835146 -0.0119121 -0.2539608 0.9671412 63 63 63
-0.0148501810789772 0.0159380790727406 0.00464884354808204 -0.1029772 0.2433852 0.9644477 147 147 147
-0.0012029614407455 0.037766279194051 -0.00807138753523007 0.4642694 0.8837165 -0.05915207 16 16 16
-0.0238993818748753 -0.0339966563206322 0.000738328412141109 -0.4201446 -0.2921725 0.8591354 87 87 87
0.0321994683828641 0.00620434528725644 -0.00643731915637058 0.9730164 0.1503964 0.1749859 78 78 78
8.09683260711846E-05 -0.0626515126774743 -0.000918144603108934 0.02584683 -0.1511564 0.9881719 67 67 67
0.0322900975522731 -0.037922853652665 0.00424858540202241 0.7721981 -0.2660686 0.5769901 64 64 64
0.017511180154192 0.0310991257770463 0.00572555930064578 -0.1156839 0.1643167 0.9796005 79 79 79
-0.0291566419601096 0.0382630151375754 -0.00168384146243308 -0.1176383 0.2499674 0.9610814 43 43 43
0.0272936522561021 -0.0442405127009862 0.00147404680044474 0.06263754 -0.4670039 0.8820339 89 89 89
-0.0137507449161106 -0.0475233822146597 -0.000229136818703263 -0.2385956 -0.2274792 0.9441003 77 77 77
-0.033709879020674 -0.0140621585736649 0.000444100639612394 -0.6102145 -0.2612771 0.7479121 37 37 37
-0.00721789408048557 0.032420250206862 0.00256883762781718 -0.01686111 0.2663547 0.9637276 78 78 78
0.00351953562609009 0.00615477564772804 0.00803538995879988 -0.08833297 0.07503224 0.993261 49 49 49
-0.00699907706346192 -0.00214715260641962 0.00815541519096222 -0.119781 0.1737749 0.9774737 104 104 104
0.026124279174614 -0.0426600723519155 0.00152708260357506 0.04819224 -0.5540899 0.8310607 68 68 68
0.0369157186514342 -0.0442402882888038 -0.00193264518717462 0.7468219 -0.08892228 0.6590523 153 153 153
-0.0364757131918145 0.0169003563484509 -0.000996933553291141 -0.4575536 0.1035542 0.8831315 38 38 38
0.0246260124075458 0.0338521446883209 0.00564090141105683 0.5200521 -0.05156207 0.8525767 57 57 57
-0.0318964714488286 0.0244190281450036 -0.000375259493579888 -0.3071053 0.1992883 0.9305754 59 59 59
0.0316872429146814 -0.0567958811717983 -0.00148670672407886 0.2883916 -0.1731662 0.9417238 88 88 88
-0.0292403494872044 0.0226044292481247 0.00105912476835435 -0.329338 0.2052848 0.9216261 52 52 52
0.0167042353920115 -0.0373848530277914 0.00727273750413879 0.0557626 -0.4234609 0.9041966 62 62 62
0.0231695863454101 -0.0375706111885143 0.00718534928572931 0.08565367 -0.523121 0.8479433 89 89 89
0.00642762153091525 0.0274312524168649 0.00517980070748061 -0.1077293 0.156501 0.9817851 89 89 89
-0.00823854738283503 -0.0315103462587634 0.00708670252257976 -0.1897074 -0.2589035 0.9470903 96 96 96
0.0293480061729071 0.00995942207310097 0.00555555241395389 0.8938131 0.1460728 0.4239822 52 52 52
0.0231202142945518 -0.0197674346514516 0.0126946040528097 -0.1167188 -0.130585 0.9845427 47 47 47
-0.0376049449802911 0.0151010852260949 -0.00128188200694906 -0.5212719 0.0331403 0.852747 89 89 89
-0.00331890072091345 -0.0427136387339926 0.00344398673021409 -0.07417076 -0.3779303 0.9228582 159 159 159
-0.00435718972708254 -0.00764863479440381 0.00868546892428251 -0.1104531 0.09362815 0.9894614 72 72 72
-0.00125806470856038 -0.0419663423097785 0.00415603475998755 -0.0721024 -0.3595537 0.9303346 174 174 174
-0.0355840005140077 0.00680728288125731 0.000546611967732008 -0.5861754 -0.001441557 0.8101829 69 69 69
-0.00667091066101932 0.0488302163191296 -0.00131706142013829 -0.1588786 0.1085855 0.9813087 33 33 33
-0.00365469873010971 0.0130473902546773 0.006696279066428 -0.108075 0.1922321 0.9753802 47 47 47
-0.012617379994777 -0.0521182788475589 -0.000390696607005275 -0.2109927 -0.2760188 0.9377077 51 51 51
-0.0133735276089794 -0.049120528345614 -0.000128043377103565 -0.2282693 -0.2333421 0.945222 65 65 65
-0.0151775742438895 -0.0483209135400229 -0.000596851825245021 -0.2410695 -0.242932 0.9396114 56 56 56
-0.0210577616390418 -0.0427573620050379 -0.000398060628326508 -0.296824 -0.2908592 0.9095584 69 69 69
-0.0174022967644073 -0.0467959039793429 -8.21213026592216E-05 -0.2483795 -0.2583029 0.9335884 53 53 53
-0.0137176987828251 -0.045740982183524 0.000397133668801869 -0.2403758 -0.2369947 0.9413038 66 66 66
-0.0152255151148969 -0.0424067550808955 0.00100231571252399 -0.2345428 -0.3203184 0.9178157 45 45 45
0.0285373926976801 0.00436943273359103 0.00912046683009266 0.6583745 0.1498127 0.7376307 60 60 60
-0.016199594324382 -0.0394416845854653 0.00214334311539341 -0.2841658 -0.3288263 0.9006237 56 56 56
-0.025261133336457 -0.037585226854181 -0.000289681939879743 -0.3624245 -0.27755 0.8897272 53 53 53
-0.0256175625605087 -0.0356963995468469 -0.000226615001965358 -0.4004228 -0.265837 0.876922 72 72 72
-0.0232750655294119 -0.0372075216405796 0.000557149362792109 -0.3518099 -0.2761728 0.8944039 80 80 80
-0.0237596714388237 -0.0355526068641951 0.000614417081927443 -0.3864629 -0.2847996 0.8772318 65 65 65
-0.0198008047237375 -0.0383675075978713 0.00094191448159478 -0.3250467 -0.3082812 0.8940399 88 88 88
-0.0161366491643226 -0.0364951175984474 0.00305612637747463 -0.2924489 -0.3764068 0.8790857 84 84 84
-0.0183633782904337 -0.0342527158757997 0.00319725098660986 -0.3555035 -0.3412095 0.8701686 70 70 70
-0.0198957983623842 -0.0354789672818547 0.00233797863454621 -0.3513512 -0.3204213 0.8797059 98 98 98
-0.0200232980838275 -0.0351557717911322 0.0022792319981649 -0.362969 -0.3122602 0.8779221 96 96 96
-0.0170038588250722 -0.0305212781389528 0.00567959707712393 -0.3537458 -0.3285887 0.8757245 42 42 42
-0.0269196863222241 -0.0309705863575278 0.00019773014405533 -0.4994585 -0.2596011 0.826528 61 61 61
-0.0214496666635093 -0.032585874971703 0.00196454669999799 -0.4014698 -0.323202 0.8569495 52 52 52
-0.0255164310335035 -0.0284950157484467 0.0016746320675616 -0.484222 -0.2984001 0.822488 42 42 42
-0.0196204133194585 -0.0296994720873873 0.00459899165604435 -0.3757656 -0.3153943 0.8713935 82 82 82
-0.0197431861151458 -0.026197403567338 0.00548237630794565 -0.3505104 -0.2194476 0.9104862 70 70 70
-0.0219833765758018 -0.0259938917332656 0.00438209538288475 -0.4214099 -0.257756 0.8694685 70 70 70
-0.0283756692570644 -0.0266542887978645 0.000124147509428629 -0.5614489 -0.2747996 0.7805513 56 56 56
-0.026363563655861 -0.0244544863977785 0.00269634612091282 -0.5370952 -0.2535762 0.8045048 61 61 61
-0.0307398972298701 -0.0220985114434968 0.000570278867838669 -0.5823462 -0.2273625 0.7804993 29 29 29
-0.0300465471038814 -0.0225179508338051 0.000936172570161958 -0.5916651 -0.2452015 0.76799 42 42 42
-0.0200936457445227 -0.0245484918217016 0.00552777194861606 -0.3532375 -0.2051524 0.9127627 55 55 55
-0.0264045567009722 -0.0212991716947328 0.00383198042862862 -0.5067592 -0.1767997 0.8437635 56 56 56
-0.0278769140462765 -0.0195358850342522 0.00295161672388769 -0.5056422 -0.1674402 0.846339 99 99 99
-0.0267943293298415 -0.01905242225212 0.00367934899511496 -0.4931185 -0.1456044 0.8576908 81 81 81
-0.0230668027331605 -0.0234040551551287 0.00515218476714666 -0.4159135 -0.1924046 0.8888174 53 53 53
-0.019265928105401 -0.0197808653956142 0.00710243748800296 -0.2942231 -0.1333703 0.9463853 32 32 32
-0.021271311645584 -0.0178822032400869 0.00667034911618658 -0.3570169 -0.09802757 0.92894 52 52 52
-0.0221595011562928 -0.017609795017038 0.00599644678623762 -0.3972332 -0.1158661 0.910374 70 70 70
-0.022978754339594 -0.0170670897022487 0.0061407040955877 -0.3993354 -0.1066524 0.9105803 39 39 39
-0.0217712062707326 -0.0166027985537178 0.00681413173831782 -0.3552056 -0.07754975 0.9315659 58 58 58
0.0325476914048575 -0.00415737637433788 -0.00271935724513503 0.9591215 0.02621972 0.2817776 84 84 84
-0.0230607289988434 0.03050045775034 0.000721076538563431 -0.2159087 0.3039764 0.927891 76 76 76
0.0217586434729854 0.0110061660074288 0.0100871249302713 -0.1183146 0.08334228 0.9894724 82 82 82
-0.031252808138763 -0.000362080281872013 0.00436900747299893 -0.5000806 0.08453082 0.8618433 91 91 91
0.019968872805076 0.0381314850940973 -0.00207735203954676 0.4735673 0.4677999 -0.7462555 35 35 35
0.00293696679536171 0.00220011850963564 0.00848656682061741 -0.1376287 0.1478109 0.9793928 75 75 75
-0.0111426660886306 0.000595026891153649 0.0068609860468089 -0.07852862 0.1040367 0.9914684 106 106 106
0.0230367770252601 -0.0214961943843492 0.0123895000190838 -0.08785191 -0.1916548 0.9775226 121 121 121
0.00697711021970571 0.0197655510038071 0.00628509844446939 -0.1242821 0.1726551 0.9771101 104 104 104
0.028748208416257 -0.0510496834596701 -0.00136688173231006 0.09608299 -0.1784934 0.9792386 111 111 111
-0.0322672273016561 -0.0209960738527322 -0.00102085106573988 -0.5854671 -0.2426676 0.7735249 69 69 69
-0.0314543160607413 -0.0223407610735291 -0.000716364437494427 -0.5921642 -0.2450635 0.7676493 43 43 43
-0.0315506614234023 -0.0202422238141284 0.000742088538777053 -0.5614417 -0.2244348 0.7965 64 64 64
-0.0331038376786059 -0.0182560462729839 -0.000736137668434417 -0.5674322 -0.2721171 0.777157 43 43 43
-0.0331731118339594 -0.0131560994928004 0.00206243046221469 -0.6096674 -0.2637607 0.7474865 53 53 53
-0.0365347793135679 -0.010730122497445 -0.000735921199737782 -0.6430408 -0.2159666 0.7347496 31 31 31
-0.0341826296363253 -0.0110712500921499 0.00161252160910563 -0.6066439 -0.1925143 0.7713115 54 54 54
-0.030351779886543 -0.0179440464137659 0.00213413282905575 -0.5378458 -0.2362149 0.809274 55 55 55
-0.0310553897419595 -0.0170484461996461 0.00165854899201012 -0.5520533 -0.2538073 0.7942411 77 77 77
-0.0275917352442018 -0.0177084116152999 0.00306228705461023 -0.4863707 -0.2097212 0.8482102 31 31 31
-0.027043208169848 -0.0163949256300353 0.00397696654902333 -0.4532111 -0.2253345 0.8624523 82 82 82
-0.0312667255600029 -0.0148325814315957 0.00225629037530123 -0.5445236 -0.2984495 0.7838507 73 73 73
-0.0301358181070674 -0.013874752648785 0.00344179906173969 -0.4765999 -0.275212 0.8349317 49 49 49
-0.0285167295247279 -0.0128961924494935 0.00436209770991974 -0.3821104 -0.2194796 0.897675 23 23 23
-0.028592536548676 -0.0118826689939964 0.00528015719422481 -0.3384119 -0.1528783 0.9284964 60 60 60
-0.0266482041383115 -0.0118276919707183 0.00545642268001995 -0.3018532 -0.1392796 0.9431256 67 67 67
-0.0238427538250213 -0.0122799018991249 0.0061312553074036 -0.2826956 -0.05400052 0.9576885 108 108 108
-0.0210731918541325 -0.0115329411655167 0.00679782975050067 -0.221464 0.03154061 0.9746584 89 89 89
-0.0316039936657749 -0.0124826237614446 0.00331069961996588 -0.5295581 -0.2462425 0.8117468 74 74 74
-0.03037700654911 -0.00981900595936125 0.00418057789052492 -0.4426893 -0.1246632 0.8879669 90 90 90
-0.0326980391803272 -0.0085921900454009 0.00304522173535685 -0.568343 -0.135288 0.8115931 97 97 97
-0.0337442772114011 -0.00874538907069056 0.00233644913805861 -0.6114105 -0.1556755 0.7758495 128 128 128
-0.0295760238632342 -0.0084149497071806 0.00499198663276765 -0.3619024 -0.08774856 0.9280769 47 47 47
-0.0310031417563094 -0.00743731917186663 0.0038689860476824 -0.458731 -0.08707626 0.8842984 90 90 90
-0.0305980869649194 -0.00580436642148818 0.00456040045594444 -0.4136062 -0.07064474 0.907711 103 103 103
-0.0240301296505029 -0.00687383772160355 0.00626595701792518 -0.153913 -0.02787076 0.9876912 68 68 68
-0.0345911663672934 -0.00745196268359916 0.00158470466008992 -0.6357995 -0.1126487 0.7635897 102 102 102
-0.0371820191419659 -0.00396152932647653 -0.000188291474248814 -0.6709684 -0.04092467 0.7403557 63 63 63
-0.0355787096819919 -0.00481384099798587 0.00155181056925405 -0.6480438 -0.06131639 0.7591308 80 80 80
-0.0383648536164974 -0.00193593022849758 -0.00142433245514803 -0.6432547 0.0210431 0.765363 63 63 63
-0.0387326238648932 -0.000819789120663827 -0.000895616745056949 -0.651741 0.04566108 0.757066 83 83 83
-0.0360996498358755 -0.00127251005723017 0.000712150244551485 -0.6121902 0.06425456 0.7880955 86 86 86
-0.0364429606442881 0.000851881261627829 -0.000186265862269913 -0.6206632 0.07335186 0.7806386 74 74 74
-0.0338501544003845 -0.00655084848831855 0.00206792978169118 -0.6173491 -0.08979575 0.7815477 100 100 100
-0.0345739111804197 -0.00318028524576985 0.00302224822306896 -0.6128148 0.01798867 0.7900218 76 76 76
-0.0349594771834563 -0.00225044092919235 0.000878659519257835 -0.6190566 0.04416781 0.7841034 73 73 73
-0.0346438483879763 -0.000577203471121557 0.00155655765281698 -0.6118807 0.112804 0.7828647 100 100 100
-0.0291787853909571 -0.00532842047521687 0.00517252055115289 -0.3467009 -0.05560219 0.9363263 109 109 109
-0.0312481349568274 -0.00408731393667527 0.00483475858178078 -0.4635296 -0.02868186 0.8856171 130 130 130
-0.0270538377109186 -0.00428585185154495 0.00563315674001091 -0.255777 -0.02787012 0.966334 81 81 81
-0.0276373045750054 -0.00327780480490358 0.00589119883656836 -0.2734584 -0.01908767 0.9616944 102 102 102
-0.0248242465966321 -0.00455684617593377 0.00601687219099764 -0.1757108 -0.04895446 0.9832239 99 99 99
-0.0332998302984683 -0.00284427512471397 0.00328721751967379 -0.5675136 0.02208906 0.8230677 96 96 96
-0.0308440938466911 0.000325629876756883 0.00389858258413797 -0.4769694 0.121042 0.8705453 74 74 74
-0.0301057769592209 0.00228323163491484 0.00441614137621862 -0.4606623 0.136116 0.8770762 57 57 57
-0.0252061536500724 -0.00134265924486621 0.00626391139456411 -0.1981788 0.01800792 0.9800004 88 88 88
-0.0236591862756143 0.000104570884141841 0.00660555730671961 -0.1238427 0.05696265 0.9906656 107 107 107
-0.0286719875449856 0.000419728613309189 0.00500208166679925 -0.3770142 0.08008424 0.9227387 94 94 94
-0.0280379542864042 0.00301237401586918 0.00569467050841657 -0.3408144 0.1442992 0.9289905 92 92 92
-0.0287206547536505 0.00300573197744591 0.00524769692076993 -0.3539606 0.1475167 0.9235533 104 104 104
-0.0275715648311924 0.00372652265567042 0.00515408230271022 -0.3223449 0.166044 0.9319459 90 90 90
-0.0245338453878037 0.00461114760048642 0.0058618652796775 -0.1549574 0.1881883 0.9698316 82 82 82
-0.0352177433737365 0.00286281616122075 0.00105022857055631 -0.5816562 0.04625499 0.8121186 81 81 81
-0.0360611256592801 0.00410070218144876 -0.000254568894672097 -0.6014601 0.05914745 0.7967103 60 60 60
-0.0336091059908129 0.00418059357866873 0.00170410538276553 -0.5540774 0.05579223 0.8305934 111 111 111
-0.031597417784934 0.00404856591421132 0.00350567229803264 -0.483242 0.1160485 0.8677614 86 86 86
-0.0308009184428077 0.00407804454874405 0.00384626497772114 -0.4564113 0.1261169 0.8807856 98 98 98
-0.0351899101323359 0.00561442687207592 0.00133585038576747 -0.5905375 0.03712973 0.8061556 110 110 110
-0.0328340660997801 0.00610741104910195 0.00274286551394237 -0.5091258 0.06491467 0.8582407 94 94 94
-0.0308775580121241 0.00598225979330436 0.00378911705382198 -0.4075443 0.1221926 0.9049733 122 122 122
-0.0274504247691001 0.00542493368358388 0.00506627445573077 -0.3063524 0.1768949 0.9353376 101 101 101
-0.026225390160476 0.00813382045692568 0.00463139950966313 -0.2245758 0.1884509 0.9560606 92 92 92
-0.0262180790178734 0.00895787237554946 0.00424168258450291 -0.1860217 0.1749558 0.9668435 91 91 91
-0.0386343465771103 0.00466494951372654 -0.00218377886416407 -0.6187833 0.03271624 0.7848802 93 93 93
-0.0386345089779343 0.00679235173167547 -0.00226293083750634 -0.6138029 0.01138728 0.7893772 59 59 59
-0.0376540653738069 0.00761766912568973 -0.000995924118921049 -0.6058216 -0.005133109 0.795584 91 91 91
-0.0341120921073973 0.0092725376331344 0.00197874927716551 -0.5121566 0.006257671 0.8588693 73 73 73
-0.0371215125097425 0.00861449268908077 -0.000948386269265633 -0.6032264 -0.007718488 0.7975326 68 68 68
-0.0386661607521418 0.0120121878109929 -0.00171735822001995 -0.5852105 -0.001354845 0.8108803 60 60 60
-0.0327550732016558 0.0119552436376689 0.00239023281843839 -0.377202 0.0857946 0.9221485 77 77 77
-0.0344738275969314 0.012635245332582 0.00160045988567881 -0.5163407 0.03018562 0.8558511 87 87 87
-0.0341716269765572 0.0135790721071465 0.00158847438752882 -0.490869 0.1010074 0.8653584 95 95 95
-0.0307355442298036 0.0111311589729641 0.0028684368536484 -0.3223054 0.08440727 0.9428651 100 100 100
-0.0311243868527984 0.0123144804603472 0.00287995135718869 -0.3108368 0.1245193 0.9422714 93 93 93
-0.0264862409654137 0.0114412335633045 0.00426803952703173 -0.1508325 0.142621 0.9782172 76 76 76
-0.0265708663313641 0.0140801065639593 0.00366378753977847 -0.143795 0.1635459 0.9759998 122 122 122
-0.0318075695686751 0.0135214082616082 0.00330306276866876 -0.3342296 0.1368356 0.9325055 118 118 118
-0.0302731687409635 0.0133647634094327 0.00315744000024232 -0.2631438 0.1537974 0.9524189 107 107 107
-0.0323500592651474 0.014871734162978 0.00241821403493597 -0.3553931 0.2053213 0.9118876 77 77 77
-0.0270422872818049 0.0149549524694976 0.00363903414240349 -0.156056 0.1811579 0.9709935 121 121 121
-0.0281940127781449 0.0162567435223111 0.00269941986637931 -0.2009474 0.1960296 0.9597878 109 109 109
