ply
format ascii 1.0
comment File exported by Rhinoceros Version 7.0
element vertex 471
property float x
property float y
property float z
property float nx
property float ny
property float nz
property uchar red
property uchar green
property uchar blue
end_header
-0.000849024157100198 -0.0316412100615184 -0.00269624912137156 0.702668 0.1363933 0.6983227 59 59 59
-0.0163059320414536 0.0331170724830354 -0.0218870770540695 -0.142821 -0.989052 -0.03712564 100 100 100
0.00395732555977957 -0.0350485061408574 0.001316194029924 0.7247999 0.1613446 0.6698007 93 93 93
0.0144293576866692 0.00400101210009196 -0.0116239203703992 0.7894217 -0.01154902 0.6137426 156 156 156
0.021239431393282 -0.0410539297940176 0.0121606085414001 0.7246498 0.3280294 0.6060357 77 77 77
0.00253982384256002 0.037143918054557 0.00213715629156691 -0.3002565 -0.7263911 -0.6182249 120 120 120
0.0257946332376204 0.000534571034532583 -0.00505266912282892 0.8251387 -0.06946189 0.5606435 29 29 29
0.0195503935185093 0.0216088379378476 -0.0129847778494594 0.9088005 -0.3115698 0.2774993 76 76 76
-0.00140477862030974 -0.00160253317088466 -0.0164695960170479 0.7720252 -0.01941791 0.6352952 129 129 129
-0.0287427265652533 0.00611747462709289 -0.00365425789675305 -0.9922577 -0.004842263 0.1241019 151 151 151
-0.00925785559392533 0.0304959075510993 -0.0302520999008395 0.3148074 -0.6384721 0.7023174 172 172 172
0.0242654457840363 0.0236842896700957 -0.00867340237753172 0.9037266 -0.3908713 0.1746363 113 113 113
0.0229895176181469 -0.00899031052200749 -0.00286983565426996 0.7818691 -0.04641512 0.6217124 151 151 151
0.0195269426934004 -0.0095617528836569 -0.00410642537221489 0.7879843 -0.04699539 0.6138992 76 76 76
0.00792644482247051 0.0272996555833009 -0.0211669398440028 0.8933652 -0.1559262 0.4214091 69 69 69
-0.0126097822410134 0.034681077583461 -0.0164219597586129 -0.09527601 -0.9883282 -0.1188696 127 127 127
-0.00748197363241543 -0.00741716342756638 -0.0153300864830026 0.6568593 0.04308123 0.7527815 47 47 47
0.00143466662202596 0.0392219297594498 -0.0160974733804294 -0.5548411 -0.8154078 -0.1651107 109 109 109
-0.018180895074255 0.0192223604978563 -0.028695350161979 0.7456779 -0.1682341 0.6447184 87 87 87
0.0135233257800622 -0.0406399283463976 0.00877742076725679 0.7028824 0.2332052 0.6719908 83 83 83
-0.0182457004876599 0.0181024642105911 -0.0285574260741419 0.7469757 -0.1660783 0.6437743 88 88 88
0.0199375659090608 0.041317757738393 -0.0094248205299417 0.455683 -0.6310972 -0.6277494 111 111 111
-0.0255283731026485 -0.00525596140704687 0.000562911034623415 -0.7249062 0.256472 0.6393224 102 102 102
0.0226725827674759 0.00999000827370189 -0.0091495474363375 0.8710532 -0.07476198 0.4854659 40 40 40
0.0263290727486358 0.00592267030848515 -0.0060231179534263 0.8380646 -0.1230317 0.5315176 116 116 116
-0.0085880068920563 0.0255316044195628 -0.0284488570524905 0.6678857 -0.05623775 0.7421361 80 80 80
0.0397423010978286 -0.000363472841938384 0.00167057982588542 0.8145376 -0.1831951 0.5504253 93 93 93
0.00893508918970731 -0.00289583386106784 -0.0107141562566516 0.7771792 -0.02180789 0.6289014 42 42 42
0.000425286886651888 -0.0107027862548468 -0.0121260168733962 0.7216064 -0.006797075 0.6922702 53 53 53
0.010449682788009 0.0014158194388163 -0.0125597635604394 0.786539 0.03827661 0.6163532 166 166 166
-0.00594527969394587 0.0359366476777752 -0.0154363938499703 -0.3171189 -0.9452797 -0.07669322 146 146 146
0.00587662442830106 0.0383824459167688 -0.0246240926810636 0.4263336 -0.8272253 0.3659754 210 210 210
0.0202682072573011 0.0142577135125572 -0.0123584466335045 0.8886921 -0.1099044 0.4451375 33 33 33
0.0394802431032575 0.00222655056494037 0.00101669379439717 0.8457986 -0.2639366 0.4636402 96 96 96
0.0107121963711705 -0.0406404835698433 0.00772290403838022 0.7118499 0.2065849 0.6712618 88 88 88
0.00951194045809944 0.0423123167058383 -0.0117412161561856 -0.4594495 -0.826657 -0.3248759 96 96 96
-0.0147232777616888 -0.0171978815123335 -0.00699038903828081 -0.3901066 0.1256108 0.9121616 90 90 90
-0.0114904459334786 0.0377960312090637 -0.00355400164336256 -0.02304487 -0.9514686 -0.3068818 102 102 102
-0.0146425183174614 -0.00696726633073697 -0.0162410307483266 0.0951492 0.1230235 0.9878319 117 117 117
0.0433862868215453 -0.00880122984947462 0.00559716772990132 0.893518 -0.01472207 0.4487859 113 113 113
-0.00126408712881276 -0.00700655549572327 -0.014379474006346 0.7285056 0.004201962 0.6850269 78 78 78
-0.00494435377002578 0.037549782095831 -0.00315431299486674 -0.2434998 -0.9347145 -0.2588757 100 100 100
0.0203351029920653 -0.0004544190482485 -0.00731717589421155 0.8032268 -0.01612008 0.5954552 69 69 69
0.0354395486439287 -0.0236969878689675 0.0114895940566658 0.9291744 0.3558695 0.09995911 92 92 92
0.0247085119940069 -0.0309349889413002 0.00504937234224329 0.7412567 0.01386681 0.6710784 64 64 64
-0.0145740369729832 0.0356149393249945 -0.011307294992055 -0.09945957 -0.9862021 -0.1323375 107 107 107
0.00918777077996058 0.0424879473370949 -0.0205445564615181 0.1182508 -0.9826437 0.142927 121 121 121
0.000493732922551171 0.03128377818823 -0.0273498777261511 0.7921467 -0.2644813 0.5500484 179 179 179
-0.0195992173389492 -0.0029290658791421 -0.0120324006506364 -0.3253722 0.271971 0.9056295 129 129 129
-0.00829465425278553 -0.00349831796318645 -0.0176269872352094 0.6814674 0.06204256 0.729214 65 65 65
-0.0189512166782317 0.000782197998781875 -0.0189136318771557 -0.1637108 0.2411858 0.956571 125 125 125
-0.0152886942155037 -0.00567556645055589 -0.0167911695185008 0.001625715 0.1742878 0.9846934 97 97 97
-0.00618520504363573 0.034614459126282 -0.0275697622242162 -0.0533472 -0.9543442 0.2939069 116 116 116
0.0355495904985803 0.00893059568699939 -0.00138292033968562 0.8634111 -0.3228113 0.3877037 117 117 117
-0.0245679162195918 0.023086221667791 -0.00640946224423633 -0.9763091 -0.1932972 0.09724582 99 99 99
-0.0158818795499884 0.0352560323781872 -0.0124071075215155 -0.09187497 -0.9871263 -0.1309223 110 110 110
0.0307221616362556 0.0159003954348107 -0.0047114238393649 0.8871343 -0.3864923 0.2522231 158 158 158
-0.00329279396740789 -0.0376217571748463 0.000453706996428049 0.6284125 0.175032 0.7579324 101 101 101
0.021376076097577 0.0352467324093326 -0.0105970982360025 0.9418409 -0.3242903 0.08815563 80 80 80
0.0179265721307151 0.0350955564212614 -0.0138220266398466 0.949533 -0.2727384 0.1549219 146 146 146
0.0171140041873938 -0.0209963475914343 -0.00117180000089451 0.7850175 -0.0189322 0.6191842 77 77 77
0.0106889217028046 0.0308099182606196 -0.019494806100179 0.9018251 -0.1133122 0.4169794 49 49 49
0.0165034433940912 0.0431325613603639 -0.0133967730137474 0.4611197 -0.7567472 -0.4633599 128 128 128
-0.00485734178619324 -0.0108426122578151 -0.0132674908200093 0.658739 0.02787416 0.751855 67 67 67
-0.0124809044411101 0.0383246622062112 -0.00185289751730067 -0.07194652 -0.9530051 -0.2942871 109 109 109
-0.0187773673210947 0.0219479968871916 -0.0290891386971844 0.7229597 -0.192664 0.6634831 103 103 103
-0.0184132494165883 0.0370949708077437 -0.00261728641908943 -0.6521171 -0.7345402 -0.187601 65 65 65
0.0115544248720969 -0.00690883127085473 -0.00851102361613393 0.8000726 -0.0668409 0.5961679 148 148 148
-0.00977178126320277 0.0319609670186702 -0.0296070883069593 0.04708522 -0.9062498 0.4201122 103 103 103
0.0308250178816614 0.0185318127521903 -0.00403342890035102 0.8825898 -0.4519231 0.129618 118 118 118
-0.0113340773717152 0.00693469746627562 -0.0218439946621485 0.7112346 -0.04515662 0.7015029 103 103 103
-0.0284116095360187 0.0237877857672484 -0.0262578847697285 -0.7734913 -0.5358144 0.3385472 51 51 51
0.0169056651324784 -0.0156185183852491 -0.00334092197498531 0.8136609 -0.05814899 0.5784243 62 62 62
0.0152189299845922 0.0389036874990836 -0.0178500632286538 0.9364894 -0.334373 0.1057463 69 69 69
0.00586041232651935 0.0407454468564421 -0.0131875338313692 -0.5524439 -0.8014579 -0.2290653 93 93 93
-0.00427283017393498 2.17182147310702E-05 -0.0180834472308166 0.7288826 -0.00957012 0.6845718 62 62 62
-0.00131693794798271 0.0288400272641738 -0.0272638847468707 0.8050339 -0.07805318 0.5880716 127 127 127
-0.0195899411289959 0.0168825235500247 -0.0289362668093048 0.7154415 -0.1339146 0.6857188 66 66 66
-0.00756789939915792 0.0340020263673178 -0.027852059494206 -0.0369436 -0.9410608 0.3362139 132 132 132
-0.0250570304091531 0.0234495250784903 -0.00857696901225108 -0.9360416 -0.3224138 0.1409805 85 85 85
0.0108841408656561 0.0393331187567052 -0.0225361367844016 0.73141 -0.5681549 0.3771465 217 217 217
0.0294958201569875 0.000527454142290384 -0.00249680299877747 0.8027523 -0.0776733 0.5912322 33 33 33
-0.0196350202353428 0.0326865705671482 -0.0187211178608859 -0.2104314 -0.9760967 0.05434913 90 90 90
-0.0229551106681292 0.0310113563971885 -0.0135307170597919 -0.8510305 -0.4973141 0.1685996 80 80 80
-0.00586958983320662 0.0332252427769657 -0.0294657048478636 0.3729835 -0.7870431 0.4913721 135 135 135
0.0461511710629796 -0.0142905925909764 0.0122678775669512 0.9031628 0.336171 0.2669942 77 77 77
0.0163698811632045 0.0412524887431263 -0.00808715115846975 0.0006493672 -0.5866725 -0.809824 143 143 143
0.000349155002823842 -0.00261461211183844 -0.0150726632458116 0.77783 -0.008838794 0.6284126 123 123 123
0.0113668792923152 -0.0222507111353036 -0.00292897062132524 0.7502007 0.09395121 0.6545014 29 29 29
0.038498764633309 -0.0234830935280663 0.015778566184904 0.9271938 0.3448351 0.1462889 96 96 96
0.00151379094900417 0.0155557500373844 -0.0207500693572683 0.7312071 -0.0512844 0.680225 110 110 110
-0.00388184219819676 -0.0231219031962167 -0.00770131289909043 0.6522439 0.01842899 0.7577851 50 50 50
0.0213535949359578 0.0106866231449685 -0.0101847948957532 0.8685562 -0.06879924 0.490792 72 72 72
-0.00196490091845059 0.0380788351876142 0.00191986690674445 -0.29673 -0.8601442 -0.4148533 110 110 110
-0.0102445922682162 0.0377580962881092 -0.000579309459308341 -0.02895041 -0.9358386 -0.3512378 108 108 108
0.0156046408429196 -0.00104685144714223 -0.00877168543144186 0.7803969 0.005337306 0.6252616 35 35 35
-0.0230998419741955 0.0313216996430237 -0.0221555413945957 -0.5590445 -0.8247981 0.08471902 123 123 123
-0.00301723341819393 0.0361973654350092 -0.0257706527483347 -0.08873103 -0.9847618 0.1495694 136 136 136
-0.0159403927808426 0.0218041622678953 0.00477670921815593 -0.9682927 0.07300858 -0.2389121 59 59 59
-0.0260391195715832 0.028419173800091 -0.0279717324539611 -0.5035592 -0.8057538 0.3117514 133 133 133
0.0192331866377298 0.0260012015222404 -0.0130775060468768 0.941128 -0.2270199 0.2504797 97 97 97
0.0075338842934991 -0.0142826945050347 -0.00808870034761866 0.7822837 -0.08644622 0.6168949 51 51 51
-0.00539580549428886 -0.0166222632799631 -0.0108544744798745 0.6329941 0.02437086 0.7737729 64 64 64
-0.0158807118495288 0.0287753480522117 -0.030034938978629 0.3663391 -0.7472492 0.5544494 126 126 126
0.0309735201799692 -0.0126335063480876 0.00190420770431665 0.7441841 -0.06653696 0.6646524 173 173 173
0.035015361143055 0.00917805648242598 -0.00196391448510363 0.8632647 -0.3133306 0.3957246 102 102 102
0.035173751223766 -0.0229613074369732 0.00850901366065637 0.9295658 0.3217364 0.1799808 86 86 86
0.002002157853219 0.000568050453033209 -0.0154741936184671 0.7899764 -0.0008710367 0.6131367 125 125 125
-0.000511217849384904 0.00183866002755972 -0.0173368296854506 0.7799571 -0.01565584 0.6256372 137 137 137
0.0107335928977736 -0.000747441224078438 -0.0110345738302561 0.7803376 0.0179469 0.6251009 55 55 55
-0.00312114047972711 0.0308091371925021 -0.0284922132864979 0.6838415 -0.4065698 0.6058562 93 93 93
-0.0242930663817067 0.0126069770314272 -0.026427775275796 0.07145731 0.2296062 0.9706569 127 127 127
0.029512088985995 -0.0245299835731554 0.00531226049147238 0.7922824 -0.02274817 0.6097304 72 72 72
0.0317571442352216 -0.0293756341149434 0.0130958081103863 0.8873106 0.4518482 0.09226661 92 92 92
0.0316680920469314 -0.00970539064139375 0.000386192478998681 0.7580353 -0.0792518 0.6473807 47 47 47
0.0243925446224011 -0.00795110779791242 -0.00239046679327798 0.7867288 -0.06688899 0.6136641 85 85 85
-0.00237481524126371 -0.0029408087561773 -0.0164327440090727 0.7327765 0.000402771 0.6804693 84 84 84
-0.00171306441295993 0.0366500779014516 -0.0246757987749092 -0.01618822 -0.9868751 0.160672 161 161 161
-0.0241404722016263 0.0258894440657274 -0.00859162875867708 -0.9273988 -0.3417571 0.1520972 112 112 112
0.0313488908344584 0.00967149695518543 -0.00383129610337091 0.8587985 -0.2016772 0.4709474 57 57 57
0.00576347108697162 0.0409758783776051 -0.00603589500737256 -0.4178893 -0.8603088 -0.2919541 142 142 142
0.0292957244311325 -0.0175019160440752 0.00245201713851556 0.7481577 -0.07261677 0.6595353 164 164 164
0.034423406089352 -0.00567651836799099 0.00118146105371036 0.7837898 -0.1330543 0.6066055 46 46 46
-0.0100257267382924 -0.00264336459314141 -0.0182918291496695 0.6056892 0.07163423 0.7924703 61 61 61
-0.0248694560254208 0.0282832413692735 -0.0161370115643046 -0.8964363 -0.3391884 0.2852247 62 62 62
-0.025251178043515 0.00906027621618199 -0.0200458664941909 -0.2940519 0.3523361 0.8884778 117 117 117
0.0286819277971349 -0.0119907173965121 0.000682891115106665 0.7469875 -0.04823284 0.6630862 136 136 136
0.00849016970547734 0.00281684451220032 -0.0141500903439888 0.7823405 0.004552732 0.6228344 159 159 159
-0.00434103628654658 0.0358301196761361 -0.0255949694353502 -0.2852905 -0.943293 0.1697278 111 111 111
-0.00900597400635705 -0.0512851761728275 0.0221840623719256 -0.4920003 0.4935256 0.7171947 149 149 149
-0.0235369825946967 0.00299964534751629 -0.0143869935822692 -0.2686727 0.3519436 0.896633 143 143 143
0.00372440130001506 0.0266285738632426 -0.0236002360725215 0.8616166 -0.1179625 0.4936616 57 57 57
-0.0216850558997874 0.015253618010403 0.000421810401812328 -0.9775822 0.01311895 -0.210145 89 89 89
-0.0233590738024227 0.0283881423059251 -0.00924454689552429 -0.9290335 -0.2930445 0.2258799 110 110 110
0.0336102463262844 -0.0268824452704439 0.0112866251134059 0.9294955 0.3555377 0.09813881 122 122 122
0.0380565653321094 0.00550734810052078 3.37128105348805E-06 0.8661699 -0.3061228 0.3950172 142 142 142
-0.00169051785857999 0.0349909577364969 -0.0278793744044107 0.3774557 -0.8202064 0.4298705 141 141 141
-0.0272755563623825 0.0246774255205626 -0.0230500425763093 -0.8635073 -0.5043256 -0.003296209 47 47 47
0.0292695106133425 -0.00763001455359458 -0.00090305214900227 0.7524906 -0.1100851 0.6493375 58 58 58
-0.0195276554551533 -9.84413827924691E-05 -0.0158461801995909 -0.3329683 0.2901468 0.8971884 84 84 84
-0.0169914852535011 0.0174202316104506 -0.028042182825339 0.7281156 -0.1671695 0.6647571 136 136 136
0.0123752910597366 -0.0486562436946252 0.0169024758409934 0.5239579 0.7746246 0.3541538 68 68 68
0.00874465191428131 -0.0182766409065749 -0.00660540350289268 0.7571111 0.00933875 0.6532193 57 57 57
-0.0205642310351739 0.030714679643304 -0.0255237927329342 -0.2221229 -0.9749138 -0.0143005 74 74 74
0.0320692467867996 0.00872862260241036 -0.00323481891732463 0.854708 -0.1849922 0.4850279 77 77 77
0.0253818436484641 0.0153013229606238 -0.00858477703323163 0.9003164 -0.2581226 0.3504326 83 83 83
-0.00903388165617081 0.0342377541773466 -0.019324199537629 -0.22942 -0.9703865 -0.07560752 53 53 53
-0.00181384113497218 0.0375782546130101 -0.00922879614487454 -0.3890059 -0.9036499 -0.1791406 76 76 76
0.0223544345758722 0.0225672128282244 -0.0105662194575624 0.9021808 -0.3573225 0.2416412 56 56 56
-0.00955407606410263 -0.00633499374848689 -0.0163687512082006 0.5701653 0.09166481 0.8164001 71 71 71
-0.0290570815540849 0.0209557725846108 -0.0198641460400411 -0.835633 -0.5260667 0.1580232 73 73 73
0.011737389842251 0.0326662071620347 -0.0196779234648055 0.9058208 -0.08078125 0.4158881 55 55 55
-0.0101004986535116 -0.0485313244778611 0.0227002808803704 -0.6099609 0.4410641 0.658339 145 145 145
0.0269474404849019 -0.00775582825027255 -0.00165230566188052 0.7553918 -0.09566057 0.6482533 85 85 85
-0.00256817996096603 0.0372576333310963 -0.0157324038508311 -0.4708813 -0.8797992 -0.0649928 111 111 111
0.0120414147178818 -0.0421783335119708 0.00950285451660643 0.7149099 0.240611 0.6565137 97 97 97
0.00747688612623865 -0.0484381676993231 0.011045004887661 0.6834139 0.4411837 0.5816377 83 83 83
-0.027360195076062 0.0150148011781357 -0.0246884399441686 -0.3409507 0.2790975 0.8976955 107 107 107
-0.0128948429543085 -0.00995396395476456 -0.0150418087793348 0.2086233 0.1282994 0.969544 86 86 86
0.0152391549647155 0.0255343978500953 -0.0164171867723071 0.8768147 -0.2409014 0.4161281 140 140 140
0.0355214837697007 0.0185817521053246 0.000858591562026612 0.8452964 -0.5264137 0.09144693 41 41 41
-0.0294096058862441 0.0172672455604947 -0.0241381121859106 -0.6398226 0.07752071 0.7646029 86 86 86
-0.00818713670048377 0.0336918699922681 -0.0273139773290361 -0.1373648 -0.9715898 0.1927283 90 90 90
-0.0249410327333819 0.0256687247781204 -0.0116559089703419 -0.8945358 -0.4002 0.199112 92 92 92
-0.0181578392861499 0.0343795639969648 -0.0145065601940765 -0.1266797 -0.9896132 -0.06795503 97 97 97
0.016971374382069 -0.0289198091479734 0.00234840051318436 0.6772344 0.1018771 0.7286801 34 34 34
0.0185018235831726 -0.0399886063656687 0.0102513138293074 0.6766074 0.2738203 0.6835385 96 96 96
-0.0174470853836173 0.0208589468054541 0.00415997016374653 -0.966096 0.06419453 -0.2500749 73 73 73
-0.00273584738385368 0.0198857422024872 -0.0241245565778933 0.7788777 -0.02882831 0.6265129 62 62 62
-0.0142923172352212 0.0112603187925566 -0.025219067077814 0.7522085 0.02937482 0.6582701 81 81 81
0.021601157448627 -0.0296128123855282 0.00380560693031634 0.7028283 -0.001619213 0.7113577 57 57 57
0.0225797336325371 -0.0231789766359223 0.00173880275944788 0.7832093 -0.04819743 0.6198872 110 110 110
0.00218443859025874 0.0389858185037999 -0.00715734664176493 -0.4190429 -0.8950876 -0.1523852 121 121 121
-0.00645826394937865 0.036357615611039 -0.0120348214686191 -0.252049 -0.9530654 -0.1677429 117 117 117
-0.00983786381996277 0.00643579023656748 -0.0216055564923517 0.6775817 -0.09837875 0.7288379 86 86 86
-0.0250613659595005 0.0276866044539661 -0.0225907309613362 -0.8223054 -0.5665027 0.05374373 89 89 89
-0.02362847316648 0.00168551775694858 -0.0126556855773701 -0.2624315 0.3029205 0.9161708 107 107 107
0.00429597071861521 0.0368065355855962 0.00177524646347155 -0.2808147 -0.7141065 -0.6412449 100 100 100
-0.0167752559327627 0.00619007085885181 -0.0236904245305063 0.579823 0.08356094 0.8104461 108 108 108
-0.00334957344904385 -0.00474533655162079 -0.0156709351146379 0.7047821 0.01387635 0.7092881 103 103 103
0.0119661558442321 0.025805630791216 -0.0177842734255099 0.8557222 -0.252801 0.4514766 85 85 85
0.00855251001455692 0.00552408936276594 -0.0149670970050339 0.7746668 -0.03449038 0.6314284 66 66 66
0.0315414794371787 -0.0160598300175567 0.00311131278401022 0.7454128 -0.08215952 0.6615207 159 159 159
-0.0171529978882483 0.0135850373854978 -0.0269389432558745 0.720066 -0.08781925 0.6883261 72 72 72
0.0127175727371618 -0.0214265912668581 -0.00302244728587076 0.7658662 0.07672723 0.6384057 45 45 45
-0.0255669164619396 0.0278681651802219 -0.0247610583282 -0.7808113 -0.623948 0.03197896 86 86 86
-0.0247800587924243 0.020082391664104 -0.0036066516166029 -0.9967164 -0.05252392 -0.06162443 84 84 84
0.016804157536946 0.0187296478962715 -0.0149941458140327 0.8647788 -0.2446758 0.4385104 60 60 60
0.0117441496832458 -0.00824646404027352 -0.00785933021236057 0.8029589 -0.07040546 0.5918615 83 83 83
0.00614206575580734 -0.012957126755061 -0.00899626121124042 0.7676939 -0.07025868 0.6369536 129 129 129
0.00775131689627484 0.0204922946496979 -0.0203793653721115 0.8439026 -0.1948257 0.4998714 152 152 152
0.0132171777626724 0.0399975174073521 -0.0206134939983558 0.8616512 -0.4895165 0.1339062 161 161 161
-0.0217041110861471 0.033954224936382 -0.00318741514307369 -0.8438808 -0.5216812 0.1253552 81 81 81
0.00274920905305609 0.0396012563516137 -0.0122736309933213 -0.4797585 -0.8474829 -0.2271662 79 79 79
0.0116587269497281 0.0109965324561807 -0.0160597280769221 0.7874212 -0.01170165 0.6163043 144 144 144
0.0406504170863169 -0.0129369998778428 0.00533447608711862 0.850665 0.02482979 0.5251215 59 59 59
0.012973066373889 -0.0186966646008659 -0.00460916235840109 0.8050137 -0.003279573 0.5932471 43 43 43
0.0273770622216927 -0.0198884007567233 0.00254903783165533 0.7590656 -0.043878 0.6495338 145 145 145
-0.0160393988472247 0.0358754194481883 -0.00967801720624789 -0.09094414 -0.9898901 -0.1088426 119 119 119
0.0067928716743566 -0.00213433743299651 -0.012422279645001 0.7787135 0.01184736 0.6272678 31 31 31
0.00253263178696717 -0.0183353786331439 -0.00820999274353001 0.6842015 0.03895877 0.7282517 141 141 141
0.00528840679901155 -0.00712394923609017 -0.0111501671134713 0.7978036 -0.07012559 0.5988254 121 121 121
0.0246297101678206 0.0036642579277999 -0.005762054827055 0.8324423 -0.1075522 0.5435737 81 81 81
0.0285524219916964 -0.0206197800262335 0.00334745174435275 0.76003 -0.0267124 0.6493388 125 125 125
-0.0184827003535086 -0.00661389308883997 -0.00948216974875932 -0.3406816 0.2310673 0.9113418 162 162 162
0.0241065553031841 0.0209482548681681 -0.0095924165313464 0.905046 -0.3551161 0.2340605 90 90 90
0.0159493428486743 0.0432789811840359 -0.0117929578016372 0.1139311 -0.8119678 -0.5724753 130 130 130
0.020909401859148 0.0385171669846862 -0.00915777810194612 0.8106677 -0.5513384 -0.1970885 103 103 103
0.0414610603660099 0.0072017826833497 0.00269117616941145 0.8698389 -0.3595071 0.3378386 100 100 100
-0.00658777901116481 0.0219564272168726 -0.0266210258573338 0.7431304 -0.06050643 0.6664054 48 48 48
-0.0173131576767427 -0.0128338096731411 0.0139785908599515 -0.9598746 -0.07773372 0.2694405 31 31 31
-0.0237487386816213 0.0123662481026499 -0.000466977092177578 -0.9873981 -0.006439238 -0.1581247 81 81 81
-0.00533593851997916 -0.00649971580741537 -0.0150904386518644 0.6694344 0.03274386 0.7421492 57 57 57
0.00706136436437532 0.0408917312681505 -0.0059235955256654 -0.3912286 -0.8384857 -0.3793178 141 141 141
0.00551901702769153 0.039839660838539 -0.00307588169180922 -0.3740143 -0.774497 -0.5101643 116 116 116
0.00500468785192965 0.0396540578344502 -0.00191562178083027 -0.3542727 -0.7621345 -0.5418873 116 116 116
0.00414951267048846 0.0398489749698294 -0.00230524593410847 -0.3919127 -0.7804442 -0.487146 109 109 109
0.000875829023142316 0.0386990529431919 0.00022756848039468 -0.3456002 -0.8021451 -0.4869537 118 118 118
0.00221385525224327 0.0383492243974091 0.00107423338086843 -0.3827136 -0.7905543 -0.4780735 115 115 115
0.0146247259921681 0.0434182272961343 -0.0119927411038797 -0.1036971 -0.8681341 -0.4853762 127 127 127
0.0140041567282527 0.0437603227442305 -0.0140269030179997 -0.02202718 -0.9108794 -0.4120843 112 112 112
0.0131035374052042 0.043746375882346 -0.0138252122861407 -0.1137936 -0.8819807 -0.4573414 141 141 141
0.0127187779509106 0.0437015031996579 -0.0175448048237313 0.377854 -0.9164104 -0.1319786 182 182 182
0.0124160005047584 0.0438951322177998 -0.0165859763560291 -0.00369934 -0.9626042 -0.2708866 122 122 122
0.0114237957219872 0.0428550113451702 -0.00992033722129965 -0.3660305 -0.8002152 -0.475055 159 159 159
0.0111353078896652 0.0426878641229274 -0.0114055374508771 -0.3938933 -0.8251761 -0.4048859 116 116 116
0.0100477224380238 0.0425980296418071 -0.00962785474045769 -0.3965533 -0.8243504 -0.4039703 149 149 149
0.0086113333752067 0.0415696185492758 -0.00753486649089036 -0.4206234 -0.8254374 -0.3764691 138 138 138
0.00753943308574456 0.041964970616625 -0.0100865461595943 -0.4655331 -0.8408926 -0.2760048 158 158 158
0.00854367587918836 0.041972678696766 -0.00971256772007556 -0.4549854 -0.8436864 -0.2849239 142 142 142
0.00774914322533848 0.0411704998662934 -0.0114440372353268 -0.5125846 -0.8222799 -0.2472099 100 100 100
0.0121868502481455 0.0435249125985342 -0.0179749569196114 0.4230276 -0.9035615 -0.06800172 179 179 179
0.0111073732401614 0.0436420153011552 -0.01799112339978 0.09966563 -0.9876893 -0.1205676 176 176 176
0.012408922916153 0.0422034099191209 -0.0195137174094859 0.6740174 -0.7387001 -0.004766124 165 165 165
0.00794126875539525 0.0427264012562039 -0.016691022262691 -0.4395253 -0.8711508 -0.2188922 97 97 97
0.0115416568070876 0.0414776054575035 -0.0216001254551496 0.5922865 -0.7703136 0.2362493 162 162 162
0.00280180750263348 0.0402055713707734 -0.0178974843358662 -0.4948058 -0.8597558 -0.1264407 127 127 127
0.000711162934452059 0.0392255293027677 -0.0163362807200261 -0.5592262 -0.8189135 -0.1290222 140 140 140
0.00728941991274734 0.0420690866167923 -0.0159899892657671 -0.4767265 -0.8514372 -0.2186015 147 147 147
0.00436830243310138 0.0406435443716224 -0.0142137063693382 -0.576095 -0.779785 -0.245051 133 133 133
0.00347158702990424 0.04001046827498 -0.0139115623044024 -0.5638628 -0.784533 -0.2580054 111 111 111
0.00697711108992749 0.0416242788018832 -0.00775119437840394 -0.4518384 -0.8437533 -0.2896938 134 134 134
0.00428497103192615 0.0400578801712526 -0.00586425045714956 -0.422372 -0.8795313 -0.2191498 108 108 108
0.00236783562241683 0.0394157940288171 -0.00547388528718079 -0.3898981 -0.8984549 -0.2018868 135 135 135
0.00546719763467829 0.0403439770392013 -0.0047323789353127 -0.3891734 -0.8815464 -0.2672451 156 156 156
0.0059970441167938 0.040726531182983 -0.00980055056237522 -0.5014879 -0.8444797 -0.188053 120 120 120
0.00417713585673618 0.0398794199066559 -0.00995701988913206 -0.4703645 -0.8663624 -0.1678497 101 101 101
0.00127604441973483 0.0389080407510047 -0.00812828189572651 -0.4189671 -0.8938902 -0.159458 100 100 100
0.000230362026828912 0.0389524864977924 -0.0054348210589818 -0.387529 -0.9059108 -0.1707244 141 141 141
-0.017311832176814 -0.0240801012580625 0.00492396461571487 -0.5306947 0.2123664 0.8205265 121 121 121
-0.00225066494601545 0.0379888550768972 -0.00346768704991895 -0.3606621 -0.9081879 -0.2124088 95 95 95
-0.00431307557663274 0.0371509728445385 -0.00499592837710316 -0.301697 -0.9345567 -0.188634 83 83 83
-0.000105748619309232 0.0388621044816388 -0.00385701585318327 -0.3928269 -0.8902227 -0.2306307 151 151 151
-0.0109902966979478 0.00457267070805467 -0.0212275288476655 0.6484181 -0.1542309 0.7454976 83 83 83
-0.00108930667688534 0.0381846991988841 -0.00146294054631435 -0.3689986 -0.8674915 -0.3336143 128 128 128
0.0116202164433712 0.0136094033802292 -0.0168411496845088 0.8032978 -0.05465364 0.5930646 140 140 140
0.000259289592719147 0.0385066203243885 -0.0075175394599355 -0.4108256 -0.8969227 -0.1635603 87 87 87
-0.00125096610614328 0.0381461082956984 -0.00523121274195798 -0.3750863 -0.9108893 -0.1720204 83 83 83
-7.14047238787874E-05 0.0385119137262508 -0.0115724717823626 -0.4686984 -0.8592862 -0.2048147 115 115 115
0.00185934504367635 0.0392377991113184 -0.014036520132716 -0.5401651 -0.8094072 -0.2303948 115 115 115
-0.000760924163862642 0.038340662966897 -0.0137274972230921 -0.4880865 -0.8559017 -0.1708913 121 121 121
-0.0012359962442865 0.0386279342354361 -0.0117712525007325 -0.4575024 -0.8697144 -0.1851713 134 134 134
-0.00259408932601102 0.0375703123970861 -0.0119510421738681 -0.4273162 -0.8887776 -0.1657567 107 107 107
-0.00242063842759643 0.037342670361175 -0.0134186595166457 -0.4544486 -0.8798181 -0.139272 118 118 118
0.00441156806555254 0.0397255893890507 -0.0114772286782034 -0.5299574 -0.8251352 -0.1956965 79 79 79
0.00186403705607119 0.0390929840354881 -0.0100445738868748 -0.4414237 -0.8781688 -0.1842953 102 102 102
-0.00453629969377745 0.0370198622601057 -0.00788017986250283 -0.2805622 -0.936782 -0.2091037 77 77 77
-0.00664731468793112 0.0373732049267224 -0.00828086013754997 -0.1309185 -0.9614183 -0.2419406 95 95 95
-0.00459599049837367 0.0368182044639274 -0.00977113762790877 -0.3000467 -0.9316691 -0.2048528 86 86 86
-0.00602248001183803 0.0363398647829747 -0.0083852317324507 -0.1950439 -0.9500497 -0.2436461 109 109 109
0.0150531019931583 0.0432284424726095 -0.010605800411767 -0.1136755 -0.7966895 -0.5936023 129 129 129
0.0161165937021579 0.0425211296939627 -0.00989704918656059 -0.004638053 -0.739302 -0.6733581 134 134 134
0.0171141452893724 0.0423459811084106 -0.00892282944050121 0.1496947 -0.6818407 -0.7160201 101 101 101
0.0165936585202691 0.0429420051277283 -0.0115215306914043 0.1878375 -0.7805669 -0.5961816 146 146 146
0.0211279891828517 0.0403448189104658 -0.00884205660425713 0.6957861 -0.636951 -0.3319265 85 85 85
0.0224398346783299 0.0378616757326147 -0.00918470772167418 0.8688836 -0.4713416 -0.1512559 78 78 78
0.0226345193904371 0.0372396400634489 -0.00946592353801018 0.9147453 -0.3913365 -0.1004832 71 71 71
0.0145787198171536 0.039537314814494 -0.00354184046228351 -0.2384209 -0.4791166 -0.8447501 63 63 63
0.0140935092595078 0.0423883432125278 -0.00942658329214535 -0.2256311 -0.7528883 -0.6182635 157 157 157
0.0139944171258291 0.0414191221331113 -0.0073464708696353 -0.2879176 -0.6625132 -0.6915054 92 92 92
0.0107208714775826 0.0410670813304281 -0.00578530475955336 -0.3297615 -0.6986232 -0.6349669 139 139 139
0.0181154648941422 0.0406968297828525 -0.00732693770578863 0.1454554 -0.4963325 -0.8558603 74 74 74
0.0233269903996192 0.0362666385939967 -0.00931536322791332 0.9357386 -0.345731 -0.06973874 60 60 60
0.023391899850991 0.0345296969382922 -0.0044733272716368 0.8854707 -0.3248963 -0.3322407 66 66 66
0.0250351838260583 0.0319314734405334 -0.00560399628831254 0.969973 -0.2260425 -0.08976217 107 107 107
0.025146030877057 0.0293562630041928 -0.0055651862419312 0.9355509 -0.3310304 -0.12314 96 96 96
0.0257336208551682 0.0289629622321823 -0.00295291367986228 0.8998271 -0.4064758 -0.1583941 102 102 102
0.0266014716203884 0.0272219994195029 -0.00271989017482305 0.8976694 -0.4278164 -0.1056543 128 128 128
-0.00355330071523197 0.0228141123239585 -0.0258336984009786 0.7811583 -0.02766645 0.6237198 99 99 99
0.0123923963006904 0.0372599289184288 -0.00117067043529934 -0.2667444 -0.5287145 -0.8057967 103 103 103
0.0176839560136672 -0.018567918165602 -0.00191352697129915 0.8086426 -0.04615571 0.5864868 31 31 31
0.0126847076340919 0.0390352144020598 -0.00365748930898313 -0.30946 -0.5097892 -0.8027138 111 111 111
0.0159278574246373 0.0358899121196523 -0.00333323739360919 0.01274119 -0.3014732 -0.9533895 57 57 57
0.00938083831499958 0.0350825161095365 0.000984315464133745 -0.2371739 -0.5522711 -0.7992154 92 92 92
0.00402470036298497 0.0363394501048029 0.00257866376084998 -0.2656177 -0.6847317 -0.6786677 88 88 88
0.0267468596252898 0.026863936774959 -0.00107221342743341 0.8733887 -0.4574155 -0.1672222 110 110 110
0.0177737682828405 0.0422682599531892 -0.0119482347539467 0.4777864 -0.7271868 -0.4928687 137 137 137
0.0171546339349486 0.0418859806410095 -0.0134821280407394 0.6859062 -0.6435927 -0.3395898 97 97 97
0.0177038429093892 0.04171359029842 -0.0138030496234963 0.6859062 -0.6435927 -0.3395898 101 101 101
0.0197352247148606 0.0403232169943302 -0.0112633118287551 0.7368057 -0.597984 -0.3154877 101 101 101
0.0167105173265825 0.0417655364903018 -0.0152263635530924 0.8084174 -0.5604582 -0.1798551 145 145 145
0.0160450802045529 0.0403803393700701 -0.0166243827913709 0.8540864 -0.5140246 -0.079468 106 106 106
0.0205424458730388 0.0382345155946973 -0.0110939348025482 0.796289 -0.5947808 -0.1102703 82 82 82
0.0188618687679001 0.0383651436758712 -0.01308483676205 0.9198682 -0.3914829 0.02415793 81 81 81
0.0203704021692079 0.0365891007956305 -0.0114916631162236 0.9069706 -0.4198681 0.03339469 94 94 94
0.0170691058458996 0.03775053750334 -0.0145209425704908 0.9447342 -0.3262743 0.03197558 96 96 96
0.0180277022984054 0.0363742730429033 -0.014075503866821 0.949146 -0.3054399 0.07634386 110 110 110
0.0204922388090365 0.034805884984255 -0.0117819542247246 0.9420372 -0.3131328 0.1204727 93 93 93
0.0145761022454234 0.0398438235607115 -0.0186620915621982 0.8665033 -0.4985446 0.02500645 87 87 87
0.0138169764256091 0.0381987033949516 -0.0197699027906751 0.9231991 -0.3429435 0.1734739 159 159 159
0.0130060293262908 0.0379648549300722 -0.0206563811878955 0.9071416 -0.3585016 0.2203879 164 164 164
0.0147435670293303 0.0368215788414421 -0.0185272794950776 0.9651833 -0.1700042 0.1987959 138 138 138
0.0141572079304684 0.0314803972292164 -0.017625461856705 0.8995087 -0.173172 0.401118 61 61 61
0.0162605462208836 0.032418207178782 -0.0158624588376942 0.9284598 -0.2503472 0.274388 122 122 122
0.0169471276297035 0.0319714774867379 -0.0153928990073564 0.9311871 -0.2478282 0.2673421 138 138 138
0.0159241531191769 0.0305401419236804 -0.0160656836229298 0.9008471 -0.234775 0.3651784 108 108 108
0.0209490105878058 0.0333811321068884 -0.0114067205556347 0.9550326 -0.2722152 0.1175228 96 96 96
0.0227178841126521 0.0324878047867607 -0.00918517514663891 0.971838 -0.2351581 -0.015218 88 88 88
0.0222811379597054 0.0307838213906579 -0.00923386605316273 0.9755678 -0.2196978 0.000535709 104 104 104
0.0225432952498352 0.0296653020930966 -0.00910366922359157 0.975418 -0.2117304 0.06107378 107 107 107
0.0218391206713178 0.0291048807897567 -0.0101693115327608 0.9691864 -0.2179377 0.1148077 117 117 117
0.0247132491094746 0.0299338722815352 -0.00615966233355653 0.9510606 -0.2930285 -0.09807192 60 60 60
0.0244513299952223 0.0271148026182977 -0.00742080665479011 0.9280986 -0.3722512 -0.007876512 121 121 121
0.0227781957775117 0.0264145417048662 -0.00999506716278015 0.9203214 -0.3576654 0.1583793 86 86 86
0.0229071679983248 0.0262728116806192 -0.00906466851867421 0.9187205 -0.3700874 0.1377971 97 97 97
0.0258736047402328 0.0246079586952825 -0.0068581033762754 0.9036443 -0.4279896 0.01586987 121 121 121
0.0192296019314726 0.0305962124841346 -0.0139759405875516 0.951255 -0.2314913 0.2037786 147 147 147
0.0206777258851762 0.0285687686713869 -0.0116938787981394 0.9632677 -0.2221517 0.1508768 81 81 81
0.0182814281999488 0.0271073740806269 -0.0142903355232302 0.93342 -0.2273569 0.2775536 96 96 96
0.0165714230857861 0.0268891393952899 -0.0156780110977248 0.896439 -0.2315592 0.3778591 164 164 164
0.0194442440124691 0.0254411138870623 -0.0127196985673161 0.935711 -0.2431999 0.255536 89 89 89
0.0217067014534833 0.0259703538222864 -0.0107869933715917 0.9229822 -0.3337918 0.1915383 73 73 73
0.0224377811072785 0.0240747030051169 -0.0104782692047759 0.9072025 -0.3618037 0.2146663 66 66 66
0.0209258542566224 0.0255224936293788 -0.0114454064319526 0.9285266 -0.303641 0.2136364 63 63 63
0.020432112250071 0.023417699799684 -0.01206751998556 0.9145898 -0.3146562 0.2540018 94 94 94
0.0204609849517425 0.0209332953229222 -0.0123995748765524 0.8917905 -0.3405251 0.2979134 55 55 55
-0.0274991493773229 0.0226737025019363 -0.0181649996989515 -0.8042672 -0.5940657 -0.01550246 79 79 79
0.0150080924113913 -0.0205528836808708 -0.00246039438024898 0.7807946 0.01104246 0.6246902 52 52 52
0.000819220980613711 0.0386091555778809 0.00179857076560325 -0.3372593 -0.7984906 -0.4986672 59 59 59
-0.000541503614954086 0.0384089227618032 0.000911550549331064 -0.3300016 -0.8159771 -0.4746371 77 77 77
-0.0120730364457831 0.0381714581597279 0.0011753549265992 -0.08141771 -0.9318726 -0.3535316 97 97 97
-0.0101542954223663 0.0378037065235108 -0.00209732415913549 -0.02271223 -0.940444 -0.3391892 102 102 102
-0.0111515126214956 0.0380509959623372 -0.00570107242705536 -0.03862163 -0.9632621 -0.2657716 101 101 101
-0.0157305559340517 0.0369901949290459 -0.00641386351834211 -0.1054033 -0.9910645 -0.08173954 117 117 117
-0.0125806217398077 0.0373001167565441 -0.00647208676336752 -0.06313665 -0.9880186 -0.1408298 125 125 125
-0.0291159224989981 0.0181318961915133 -0.0268780871317507 -0.4560017 0.06955816 0.8872565 118 118 118
-0.0133803886339123 0.0376213203878442 -0.00471609035007053 -0.09706671 -0.9751312 -0.1992417 144 144 144
-0.0155023570254968 0.0376263519669859 -0.00481328464924552 -0.1997219 -0.9711832 -0.1300551 128 128 128
-0.016979850412129 0.0381887766340849 -0.00480551485252162 -0.35015 -0.9274828 -0.1310364 84 84 84
-0.0172379582924431 0.0369144624462974 -0.00608734728850752 -0.3755206 -0.926668 -0.01645439 94 94 94
-0.014600711259205 0.0374099762412119 -0.00497152616863589 -0.112057 -0.9847155 -0.1333365 124 124 124
-0.00315556541370987 0.0377306944723403 -0.000535887445252625 -0.3298819 -0.9034637 -0.2737359 107 107 107
-0.00502952932124789 0.0377550956158323 0.00217871767946426 -0.1497303 -0.9533191 -0.2622278 63 63 63
-0.00635002877874813 0.0375187984524856 0.000366575887631393 -0.09126785 -0.9515453 -0.2936524 107 107 107
-0.00508605961769426 0.0377345433480096 7.02559384996304E-06 -0.1907457 -0.9431631 -0.2721387 95 95 95
-0.0062816994535102 0.0369961150041513 -0.00372068513725049 -0.08906781 -0.9384482 -0.3337394 90 90 90
-0.00739754338243381 0.0370750506078512 -0.00169906649466883 -0.06847803 -0.9348768 -0.3483046 92 92 92
-0.00747674634546436 0.0373081737083765 -0.00278865013053825 -0.06414182 -0.9304742 -0.3606986 91 91 91
-0.00602946927332915 0.0372056981490752 -0.0010664366462611 -0.1148114 -0.9487571 -0.294412 96 96 96
-0.00733424091622314 0.0370112324471328 -0.00474872484361627 -0.0450993 -0.9385824 -0.3420954 79 79 79
-0.00847619895847007 0.0370786778261174 -0.00587134302671677 -0.04098967 -0.9458171 -0.3221023 97 97 97
-0.00974987880129219 0.0370131597445327 -0.00815814553157596 -0.04873678 -0.9860848 -0.1589385 92 92 92
-0.0100950022123223 0.036918406814076 -0.00906682777658191 -0.03042263 -0.989553 -0.1409235 106 106 106
-0.0157327636395577 0.0212272303369705 0.00565901336998892 -0.9668371 0.06800093 -0.2461745 37 37 37
0.0297197119207102 -0.00496526700307687 -0.00126284165403673 0.773545 -0.1367803 0.6188048 72 72 72
0.00052929781731792 -0.0246683589875794 -0.00598181303381307 0.7050236 0.04293808 0.7078828 60 60 60
0.00539992348416152 0.0237621458407793 -0.0222718414317157 0.8414991 -0.2133688 0.4963396 70 70 70
-0.00936711319056105 0.0167845184054676 -0.025959402072692 0.7004251 -0.01979827 0.7134513 72 72 72
-0.0131262729752712 0.0295997154964893 -0.0303715070544367 0.08405166 -0.7651257 0.6383713 144 144 144
0.0278835821904024 0.0253006693715068 -0.00320810071884869 0.8442535 -0.5168334 -0.1418425 112 112 112
0.0307466945143822 0.0228175134417254 -0.000859632804233568 0.8144459 -0.578164 -0.04903368 100 100 100
0.0304995855479979 0.0218843269044313 -0.00272032091924357 0.8308533 -0.5556833 -0.02998239 71 71 71
0.0362335295642877 0.0166736137716339 -9.15765700622573E-05 0.8501235 -0.5004554 0.1638118 107 107 107
0.0285834101949132 0.0251943087963697 -0.000703753507346916 0.8087214 -0.5598274 -0.1804524 82 82 82
0.0317471307221397 0.0213735187107333 -0.000100611336586454 0.8202678 -0.5710194 0.03313013 104 104 104
0.0371582865565769 0.0161176162622612 0.00122794903729356 0.8585314 -0.4686982 0.2079566 98 98 98
0.0354344360361474 0.0150890527713994 -0.00101807790514769 0.8595707 -0.4581398 0.2263763 140 140 140
0.0375268886760216 0.0135505437138717 0.00101710394533333 0.8658279 -0.426802 0.2611171 157 157 157
0.0389419007480185 0.0112391565211261 0.0012637795002311 0.8867634 -0.3514754 0.3001927 117 117 117
0.0403950747505095 0.00956625230940977 0.00178844911344572 0.8877645 -0.3627899 0.283298 102 102 102
0.0396232027402132 0.00840537242684136 0.00157373192106075 0.8784766 -0.3427067 0.3329129 117 117 117
0.0285677406030054 0.0230202928507555 -0.00473603762360769 0.8417153 -0.5348151 -0.07408156 132 132 132
0.0284678425995082 0.0205703888712481 -0.00552664297975491 0.8863685 -0.4586153 0.06342582 127 127 127
0.0286925402342715 0.0186817132160537 -0.00558089059372618 0.8964711 -0.3966827 0.1974396 113 113 113
0.00310680401926966 -0.0136095912290306 -0.010109794799581 0.7209077 -0.04131605 0.6917984 130 130 130
0.0311374338761634 0.0205719534094746 -0.00266226487503268 0.8319309 -0.5547324 0.01276293 78 78 78
0.0311199646969378 0.0198432554514913 -0.00333659270459646 0.8595355 -0.5055848 0.0747178 124 124 124
0.0300094783823681 0.0196502823520117 -0.00458924261411836 0.8746478 -0.4743201 0.1000587 109 109 109
0.0251104077338917 0.021019548310498 -0.00864256177624462 0.9024767 -0.3722305 0.2167492 79 79 79
0.0244502105826223 0.0200201375830338 -0.00927629662922463 0.9056358 -0.3432627 0.2489869 124 124 124
0.0330673678291371 0.0156067370358084 -0.00245457108913744 0.8536522 -0.4741421 0.2155624 116 116 116
0.0291070544672347 0.0180481506701688 -0.00529839460805986 0.8935619 -0.3988979 0.2059797 122 122 122
0.0303430824386792 0.0149057022354313 -0.00467415335739185 0.8798839 -0.3541876 0.3167893 121 121 121
0.0273137007943423 0.0170858397984925 -0.00693718532708704 0.8988758 -0.3142602 0.3053896 175 175 175
0.0236469963405979 0.0145436137173784 -0.00967642321074319 0.8946567 -0.1787181 0.4094499 73 73 73
0.0247332707093795 0.0135601040286817 -0.00886586790760274 0.8798654 -0.1705591 0.4435611 91 91 91
0.0284422211401805 0.0151633268574929 -0.00634935237495504 0.8875031 -0.3118604 0.3392364 157 157 157
0.0306573039457578 0.0129328328371117 -0.00492169215449884 0.8807952 -0.2738067 0.3863026 143 143 143
0.029439435463656 0.013025942676602 -0.00602619291662176 0.8856906 -0.2545999 0.3882411 163 163 163
0.027430512524202 0.0127924077998371 -0.00705917064152134 0.880067 -0.2111555 0.4253181 45 45 45
0.0269933663463808 0.0123790241662436 -0.00721596547787606 0.8797233 -0.1791157 0.4404595 40 40 40
0.0254274042326099 0.0125284053056314 -0.00825356960674967 0.8721868 -0.1301182 0.4715499 84 84 84
0.0272644226331522 0.011043294077032 -0.00648446509992867 0.8739755 -0.1521494 0.461538 82 82 82
0.0262140163133922 0.00977551659403453 -0.0069401715052983 0.856138 -0.1065676 0.5056393 90 90 90
0.027322392997146 0.0084467515881137 -0.00586421790579977 0.8458139 -0.1015652 0.5237207 129 129 129
0.0350997816435779 0.0126328884075186 -0.00175162798077388 0.8812364 -0.3478799 0.3200029 130 130 130
0.0362673975450416 0.014061168491956 -0.000965781808631216 0.871624 -0.4222477 0.2489548 149 149 149
0.036868478812043 0.0123958662898642 -0.000848952138706893 0.8730399 -0.3777486 0.3083948 123 123 123
0.0367748622308903 0.0109642438796758 -0.000505245648183439 0.8745565 -0.3550441 0.3302948 124 124 124
0.00460362624753308 -0.028442431435604 -0.00212305570588733 0.7431401 0.112836 0.6595535 125 125 125
0.0330865071799116 0.013629915047241 -0.00255757637735171 0.8794441 -0.3607782 0.3105112 105 105 105
0.0318126297138284 0.0129258513777528 -0.00402880424225122 0.8749457 -0.3176774 0.3654464 123 123 123
0.0332872176745909 0.0103104626118418 -0.00311328013507178 0.8709127 -0.2680105 0.4119241 85 85 85
0.0384908741602401 0.00980710120526496 0.000637648828838322 0.8865258 -0.3414554 0.3122183 122 122 122
0.0368399745566672 0.00819662607879001 -0.000457550859323197 0.8621537 -0.326766 0.3871886 111 111 111
0.0387689251358534 0.00529745309906771 0.00053221113043006 0.8719139 -0.311981 0.3774043 96 96 96
0.0367790936481955 0.0047554783169097 -0.000690843208363268 0.8268415 -0.2564251 0.500579 111 111 111
0.0315655950244591 0.00679567118131086 -0.00326851847224074 0.8285334 -0.1857655 0.5282269 75 75 75
0.0372370512498583 0.00279578376827594 -0.000165391606165743 0.8169907 -0.2164481 0.5344871 103 103 103
-0.0238820874205403 0.0146875451949526 -0.0286781743722855 0.2606333 0.1513554 0.9534998 107 107 107
0.0277194489092474 0.0060485805274304 -0.00530768264728243 0.8330082 -0.1392809 0.535442 104 104 104
0.029686682230792 0.00683543181395008 -0.00425816320966771 0.8229101 -0.1599417 0.545195 122 122 122
0.0298131297808319 0.0033740045775501 -0.00345525222761084 0.8182572 -0.1294722 0.5600822 57 57 57
0.0336469450011367 0.00447566144228984 -0.0020733940060455 0.8034602 -0.1917493 0.5636345 57 57 57
0.0325395800536199 0.00302251410463938 -0.00221945969676118 0.8010675 -0.1489662 0.5797413 60 60 60
0.0311413715236637 0.0024662857475084 -0.0024742917431842 0.8037545 -0.1372453 0.5789149 66 66 66
0.0308741062920019 0.00244654740806416 -0.00296303235443535 0.8093884 -0.106354 0.5775632 70 70 70
0.0325518582861064 0.000516096963101065 -0.0014311576344655 0.7793612 -0.122328 0.6145176 64 64 64
0.0337857935768904 -0.000862877306731846 -0.000560037966752469 0.7703519 -0.1148306 0.6271937 53 53 53
0.0330188183369662 -0.00117236591781644 -0.000812766497960693 0.7707877 -0.1088726 0.6277205 51 51 51
0.0423045000601605 0.00680597403167083 0.00443133360553849 0.8719972 -0.3377498 0.3543248 36 36 36
0.0444038930926001 0.00356251193021628 0.00480342696709468 0.8711778 -0.3178294 0.3742108 69 69 69
0.0452934790887258 0.000945155131222286 0.00464888476891689 0.8696441 -0.2588401 0.4203819 80 80 80
0.0467602673400684 -0.00622393236652008 0.00971380280830902 0.9709198 0.08052946 0.2254545 65 65 65
0.0401328858321335 0.0055546558748385 0.00165751295992705 0.8706477 -0.336849 0.3584765 120 120 120
0.0417778730752296 0.00529206270145077 0.00251764493619705 0.8667032 -0.3301571 0.3739277 105 105 105
0.040520577077531 0.0052848920309434 0.00192413343217618 0.8672113 -0.317882 0.3832695 103 103 103
0.040864701650311 0.00293870371367411 0.00192824084591997 0.8608403 -0.3087181 0.4045332 124 124 124
0.0455980519878103 -0.000575228100792691 0.00528549531350558 0.8923162 -0.18974 0.4095981 84 84 84
0.0451383002477137 -0.00245192915771519 0.00506040014418346 0.8822068 -0.1497515 0.4464142 102 102 102
0.0462084203186324 -0.00320000085546557 0.00548054927970915 0.8862725 -0.1310305 0.4442432 121 121 121
0.042368534009986 -0.00234025795541815 0.00318893341982635 0.8283623 -0.1736163 0.5326099 127 127 127
0.0432099880077439 -0.00182851705878218 0.00347829136581895 0.8456808 -0.1820743 0.5016701 122 122 122
0.0362945556124152 0.000238101136591062 -0.00026460748036089 0.7927639 -0.1318571 0.5950959 62 62 62
0.0385746501130177 -0.0012698558792934 0.00115795030158639 0.784463 -0.1333985 0.6056589 102 102 102
0.0389638743583318 -0.0025582198952625 0.00185907064537955 0.7792687 -0.1196941 0.6151534 68 68 68
0.0374557698080127 -0.00441129551810815 0.00188974135500947 0.7814737 -0.1102957 0.6141121 31 31 31
0.0362347619152761 -0.00521987898296228 0.00175970306942391 0.7916761 -0.1145344 0.600109 74 74 74
0.0335532988899772 -0.00371395855725232 2.04342503104527E-05 0.7719269 -0.1339436 0.6214402 77 77 77
0.0401755954100185 -0.00405041174051002 0.00291162434641196 0.7851631 -0.1246375 0.6066172 88 88 88
0.0391721851219871 -0.00580649054660642 0.00314187666645332 0.7787099 -0.1213364 0.6155391 89 89 89
0.0410638605318705 -0.00619460891980328 0.00413331425225433 0.7979627 -0.1171536 0.5912111 100 100 100
-0.00288667444953639 -0.0561575510837473 0.022899574242672 0.1680657 0.7708666 0.6144254 77 77 77
0.0396148154509184 -0.00841529282760578 0.003871753269301 0.7912162 -0.1250558 0.5986134 69 69 69
0.0470369003343591 -0.0049492643802993 0.00741092980820152 0.9694293 0.002304747 0.2453602 91 91 91
0.0447443507477381 -0.00544450467884028 0.00561877497329893 0.8940567 -0.06361041 0.4434143 105 105 105
0.0448391697548098 -0.00817560020312658 0.00649745183396061 0.9440618 0.04872004 0.3261497 108 108 108
0.0458885963199482 -0.00973887074673052 0.0126362697103398 0.9698644 0.1319348 0.2048322 74 74 74
-0.000563495345090814 0.0123585653110048 -0.0212012033609089 0.7603694 -0.09535458 0.6424531 128 128 128
0.0405854508784145 -0.00996714049756231 0.0042863493241167 0.8129056 -0.08274115 0.576488 69 69 69
0.0368108294865659 -0.00837757631958613 0.00262130227064628 0.7816329 -0.1228582 0.6115193 68 68 68
0.0346913084156819 -0.00997354684278196 0.00221138747126032 0.778414 -0.09893814 0.6199057 62 62 62
0.0459605252440498 -0.010909339133047 0.00886860037155851 0.9594404 0.1456633 0.2413637 162 162 162
0.0433842056948521 -0.0140982646663557 0.00895142931462228 0.9059489 0.2876825 0.310637 122 122 122
0.0449929284096136 -0.0157460262749813 0.0138004515635751 0.8885819 0.3936833 0.2354479 52 52 52
0.0449581110924389 -0.0169249662487265 0.0123735498992321 0.8740041 0.4235294 0.2382007 54 54 54
0.0433702889531022 -0.0104155138899387 0.00609395815600211 0.9406599 0.06743026 0.3325839 93 93 93
0.0419391003282081 -0.0116359135850119 0.00566701465262109 0.8682278 0.007418395 0.4961102 106 106 106
0.0393656389458996 -0.0116656939844246 0.00457943800173405 0.821908 -0.0472694 0.5676556 74 74 74
0.0369022591156136 -0.0141629600518038 0.00459604729831126 0.7810498 -0.0229207 0.6240479 75 75 75
0.0382860451223763 -0.0152881228093347 0.0053346369680925 0.8324366 0.1250035 0.5398365 70 70 70
