ply
format ascii 1.0
comment File exported by Rhinoceros Version 7.0
element vertex 474
property float x
property float y
property float z
property float nx
property float ny
property float nz
property uchar red
property uchar green
property uchar blue
end_header
-0.00406329795077331 0.0102928367807393 0.0368926779427633 0.007369355 -0.5330666 0.8460412 100 100 100
0.0153512429913096 -0.0378681271818234 -0.0208677070013368 0.8755707 -0.3310746 -0.3518032 42 42 42
-0.032040196176395 -0.0404487911844132 0.00565970911170638 0.003586288 -0.5205643 0.853815 105 105 105
0.0172836091162019 -0.037782858076297 -0.0176467999145477 0.9055946 -0.3028474 -0.2969541 52 52 52
0.0377245654942611 0.0392069763300436 0.0122429664650082 0.9328735 -0.2425406 0.2663099 55 55 55
-0.0296650194866253 0.0137427915651362 -0.00488105920181359 -0.9002115 0.324697 0.2901569 56 56 56
-0.021377047804731 0.0196282396889098 0.00930545776277031 -0.8151356 0.4953345 0.3003293 23 23 23
-0.0323257184184493 0.00561078790996783 -0.00369771679851477 -0.8844299 0.3025734 0.3552929 23 23 23
0.0135595895286507 0.0125956539786207 0.0383764995655715 0.005313491 -0.5257778 0.8506054 230 230 230
-0.0275051666244024 -0.0520351551782597 -0.00165830954863017 -0.06351349 -0.9586094 0.2775501 76 76 76
0.0157430930638673 0.00999388410137025 0.0370724090553264 0.0131601 -0.5201555 0.8539702 224 224 224
-0.029096376940049 -0.0327178425996517 -0.0325280057430492 -0.1791586 -0.9123995 -0.3680074 59 59 59
0.0048853390320569 -0.0544628798492909 -0.0114907750387955 0.261241 -0.8833262 -0.3892145 52 52 52
0.0154206887052468 -0.0415122648344618 -0.0053090553847368 0.8398108 -0.5395914 -0.05965532 12 12 12
0.0233040849413131 -0.00462643914918126 0.0275665363437315 0.01243313 -0.5187295 0.854848 100 100 100
0.000472247216383614 -0.0474810661973871 -0.0189044598024596 -0.1744227 -0.7784702 -0.6029601 34 34 34
-0.00413458019065294 -0.0372066413164868 -0.0392055325781881 -0.2499664 -0.8881711 -0.385576 63 63 63
0.00764562440327721 0.0425634096755123 0.0331032363113784 -0.2274927 0.8793448 0.4183297 62 62 62
0.0271495864779219 0.0185655032711793 0.0419129328270985 -0.0197638 -0.526518 0.8499342 120 120 120
0.033131519625508 -0.0230287538160852 0.0147385491634633 0.769117 -0.3630038 0.5260108 73 73 73
-0.0439226821661176 -0.0417236396319643 0.00124230835625083 -0.5130189 -0.6417059 0.5701097 59 59 59
0.0160867890015393 0.0131794328396311 0.0386851400554216 0.02195966 -0.5283531 0.8487407 242 242 242
-0.0302600173730339 -0.0340627020133899 0.00963657959133718 0.0208563 -0.5225322 0.8523644 96 96 96
0.00976974451796098 -0.00174242323007268 0.0295282525237484 0.01433756 -0.5443376 0.8387437 235 235 235
-0.035417667057561 -0.012353186611251 0.00948430641324044 -0.9207347 0.3771582 0.09999619 36 36 36
0.00586523877473555 0.0199649689695243 0.0432257893927676 0.0001096248 -0.5335598 0.8457623 88 88 88
-0.0211270898285352 0.0178200079758619 0.0162806005727311 -0.7651208 0.4559677 0.4546247 31 31 31
-0.0299831230397603 -0.00372411220577984 0.0191987896657805 -0.8810387 0.415628 0.2258853 22 22 22
-0.0131431702290317 0.0231699235063607 0.0212465061269285 -0.7810611 0.436006 0.4470373 68 68 68
-0.00840703563675627 -0.0222529268506886 0.017002626437214 0.00729651 -0.5290069 0.8485861 85 85 85
0.00184220148005254 -0.0318698304320417 0.0108851267186018 0.03780456 -0.5301325 0.8470716 237 237 237
-0.00195756491831478 0.00923259801829457 0.036358322622577 0.01846077 -0.5327115 0.8460956 76 76 76
0.0278052833728935 -0.0213037590839227 0.0171542438333147 0.005673168 -0.5226808 0.8525096 119 119 119
-0.014340167372588 -0.0420832958713361 -0.0225111932271395 -0.1751866 -0.8743938 -0.4524878 37 37 37
0.0174397726436775 -0.02337754443028 -0.0287487126297654 0.8945358 -0.2706924 -0.3557124 21 21 21
0.0330094487155965 0.0316003579975508 0.0375686463419902 0.9944721 -0.03654135 0.09843702 39 39 39
-0.0445715568112304 -0.0273778604886348 9.39908243583476E-05 -0.8673689 0.4762757 0.1443355 40 40 40
0.0328827854618954 0.0293437193839892 0.0276635149308284 0.9970925 -0.03443572 -0.06797551 24 24 24
0.0201678097848359 -0.0318051368257768 -0.0110375196340872 0.9265568 -0.3085347 -0.2151718 47 47 47
0.009043782427125 -0.0528116934164181 -0.0100137592986941 0.6839755 -0.7289879 0.02746264 177 177 177
0.012499562115496 -0.0354816450788324 -0.0331968964906523 0.8635789 -0.3233117 -0.3869122 55 55 55
-0.024772308582842 -0.0376107306943344 -0.0262833237778332 -0.2805942 -0.8538947 -0.4383272 53 53 53
0.0391208397434148 0.0522755678014719 0.0129393825594083 0.9500685 0.04895649 0.3081771 36 36 36
0.0371146780783773 0.053051553863217 0.0173536165013943 0.7906077 0.4690869 0.3935694 104 104 104
-0.0247303760117701 -0.0509571087888235 -0.00434615650445874 -0.02311236 -0.9262363 -0.3762342 46 46 46
0.0304753905630206 0.0131548207743157 0.0389816759174006 0.4722649 -0.4237689 0.7729073 113 113 113
0.0321875903813202 0.00558054819627984 0.0340156784022521 0.4309239 -0.4784907 0.7650825 68 68 68
0.0141769911900784 0.0312327217199369 0.0499847501779309 -0.04340199 -0.4221912 0.9054672 131 131 131
0.00758043799019559 -0.053812183700617 -0.011869531066274 0.4433365 -0.8138206 -0.3756977 101 101 101
0.00852366933489801 0.0413776384506941 0.03668109157076 -0.2445669 0.8785383 0.4103141 52 52 52
-0.0449136275122379 -0.0402961312270532 -0.0102016998928827 -0.2105182 -0.8314923 -0.5141037 40 40 40
0.0119146347389618 0.0140395215902136 0.0393479920379983 -0.005813664 -0.5260122 0.8504571 91 91 91
0.00208017354462076 0.0264820307934193 0.0470110892924319 0.006746206 -0.5258476 0.8505521 121 121 121
0.0172948678647384 -0.0309087593802859 -0.0210791685609742 0.9301084 -0.2198702 -0.294203 32 32 32
0.0389357500388279 0.0370754098248647 0.00377768655123789 0.935276 -0.3002625 0.1873532 135 135 135
0.0143488667678975 0.0419937593383759 0.0392599440199634 -0.2633939 0.8799404 0.3953841 35 35 35
0.0300297371294342 0.025096888641551 0.0460598148224139 0.3497495 -0.5328583 0.7705436 120 120 120
0.0259751545438238 0.048358535876891 0.0271591800960194 -0.4228488 0.8902852 0.1690892 38 38 38
0.0275878385869071 -0.0289374900475365 0.0125511514026291 0.2014372 -0.6171023 0.7606627 125 125 125
0.0233164901104836 0.0445844903509414 0.0382991580117437 -0.2301891 0.8856781 0.4032212 50 50 50
0.0305785575159323 0.00565793733529651 0.0336965568671396 0.4003199 -0.4726843 0.7850564 117 117 117
-0.00387483540817479 -0.0304791151257908 0.011750777435402 0.01010766 -0.539224 0.8421018 240 240 240
0.0283734952043937 0.0110634640511671 0.0373871679169325 0.09063179 -0.5369202 0.8387506 91 91 91
0.0213261389634813 -0.0258088166370789 -0.0155177649111526 0.9053776 -0.2511528 -0.3423647 56 56 56
0.0156837413236826 0.00927626035014995 0.0362915312324344 0.01020295 -0.530794 0.8474394 204 204 204
-0.0240730685880624 -0.0114020981382084 0.0235821416577518 -0.0004645248 -0.5241493 0.8516263 102 102 102
0.0207474703387556 -0.00778776250239366 -0.0130577833944097 0.9743454 0.100861 -0.2011915 34 34 34
-0.0143519259781204 0.00183693703753995 0.0316866698894526 0.004779716 -0.5232869 0.8521432 80 80 80
0.0134142788409561 0.000555707795203864 0.0309684559804551 0.01259319 -0.52964 0.848129 83 83 83
-0.00577059531332047 0.0139633330305458 0.0394237555144784 -0.005652149 -0.5306159 0.8475935 81 81 81
0.0201700842870456 -0.018847497528687 -0.0233221066965951 0.9518675 -0.1832666 -0.2456859 28 28 28
-0.0362933944172243 -0.0462669215390611 0.00207803175817434 -0.1682304 -0.6413921 0.7485418 92 92 92
0.005919981798717 0.0325714334881508 0.0505805161973394 -0.1323969 0.03351212 0.9906301 104 104 104
-0.0259000917848988 -0.019289906568057 0.0187026201699367 0.006747424 -0.5249907 0.8510813 92 92 92
0.0359751754870095 0.0306400966832445 0.0103106838803864 0.9173869 -0.3575099 0.174894 36 36 36
0.019960198618223 -0.0371682901634022 0.00661753859616965 0.296406 -0.8031114 0.516871 81 81 81
0.0199869280866682 -0.0128440893637931 -0.0198080502317803 0.994003 0.09757183 -0.04937422 14 14 14
-0.0117500313195174 -0.043673959646393 0.00361364021655847 0.003782935 -0.5293679 0.8483839 117 117 117
-0.0403705772242553 -0.03778320658083 -0.0166930532697789 -0.2793383 -0.887392 -0.36675 54 54 54
-0.032126459366304 -0.0266711085542848 0.014235958915632 0.02394366 -0.5315645 0.8466793 90 90 90
-0.0423056593725528 -0.0387860228656355 -0.0130048272230817 -0.1806054 -0.8507802 -0.4935127 51 51 51
-0.0166961914945349 0.0264739247346115 0.0140709044362597 -0.775192 0.4282418 0.4644205 38 38 38
-0.0258960127599592 -0.0476964126173126 -0.00869976837872599 -0.2873712 -0.8262039 -0.4845667 30 30 30
-0.0159949006936113 -0.0439236903788444 -0.0190760530522941 -0.1674384 -0.8023894 -0.5728312 52 52 52
-0.0145488572003449 0.0222753071545021 0.0202104056813726 -0.7679745 0.4299137 0.4747519 51 51 51
0.0221694873870644 0.0203166698361334 0.0430675865202194 0.005239044 -0.532398 0.8464779 131 131 131
-0.0359665721942148 -0.00258340642533872 -0.00747905840813645 -0.9242519 0.1973587 0.3268149 41 41 41
-0.0227800281651573 0.0203164117127073 0.00714089389242989 -0.8017984 0.4948717 0.3349946 35 35 35
0.013762172941751 -0.0438264282212854 -0.019237720913407 0.7641223 -0.5430546 -0.3481506 64 64 64
0.00555445544684297 -0.04114420853295 0.00437329603192543 0.162034 -0.7008764 0.6946346 89 89 89
0.0135952477627579 -0.0456495564323972 -0.00185926438870609 0.4253164 -0.7845263 0.4512475 24 24 24
-0.0208893073208376 -0.0403707109117292 -0.021276211907191 -0.2288631 -0.8124645 -0.5362118 20 20 20
0.00601796808129196 0.0104304166456657 0.0371242297917074 0.005929528 -0.5251969 0.8509601 161 161 161
-0.0262623735570728 -0.0345338763101388 -0.0309611417714843 -0.2763008 -0.8674145 -0.4138236 37 37 37
-0.0258926389194358 -0.0141205429892868 0.0219977241073321 0.001884782 -0.5254857 0.8508003 106 106 106
-0.0415584245787519 -0.0460170219014978 -0.00138692977355159 -0.5424041 -0.7960028 0.2686584 52 52 52
0.0309987243738057 0.00876477950628196 0.011814991497694 0.9757122 -0.008120268 -0.2189058 54 54 54
-0.0405135368138421 -0.0177908986394602 -0.00416678923021296 -0.8871433 0.391331 0.2446155 41 41 41
-0.0387578036528868 -0.00146543742378169 -0.0134003305209349 -0.9236014 0.1410886 0.356447 31 31 31
-0.00582753717847195 -0.000552846696246112 0.0300759419116834 0.02145256 -0.5211184 0.8532147 91 91 91
0.025744056187579 0.00889033164680209 0.00231059145310558 0.8757953 -0.08355092 -0.4753965 28 28 28
0.0167357667901005 -0.00478560725560206 0.027746583598624 -0.01836321 -0.528325 0.8488436 179 179 179
0.00276881411008167 0.0202722608754768 0.0431643421162568 -0.002160315 -0.5302023 0.8478684 249 249 249
-0.00458995731569845 -0.0446362476578107 -0.0208855283494705 -0.1702309 -0.8233015 -0.5414758 45 45 45
-0.00489359190650251 0.0205104883326401 0.0431120989218496 0.01350386 -0.5165955 0.8561231 109 109 109
-0.010273704805341 -0.0070796776267199 0.0263028827485863 0.006434528 -0.5311335 0.8472638 100 100 100
-0.0318339686370455 -0.018014752551661 0.019585886168685 -0.0002942953 -0.5361633 0.8441142 101 101 101
-0.00448959250593228 0.006690418290209 0.0347981349543538 0.01018343 -0.532591 0.8463115 82 82 82
-0.0445868389909996 -0.0332243802783663 -0.0249240724933339 -0.3623458 -0.8478851 -0.3870353 68 68 68
-0.0141032892300683 0.0164193779237884 0.0280962749080197 -0.7805042 0.5555829 0.2866023 46 46 46
-0.0324037888861017 -0.000698864099603735 0.000623448751179201 -0.8979497 0.3072155 0.3151269 38 38 38
-0.0165147852781891 -0.0478480161913896 0.000991240563695261 0.01948342 -0.5321903 0.8464005 109 109 109
-0.0171048877760316 0.0257501880554438 0.0130367009883959 -0.7770899 0.4529984 0.4369482 51 51 51
-0.0281967642728276 -0.0366156485626795 -0.0249707668167189 -0.1849772 -0.8745283 -0.4483119 37 37 37
0.00388335071970358 -0.0495047126501514 -0.002794195660136 0.4086032 -0.5348378 0.739589 66 66 66
0.0133914864131737 -0.0447856226142079 -0.00907452620799787 0.8543182 -0.5195569 -0.01417815 45 45 45
0.0257707013510502 -0.0310977916708928 0.00341507322312962 0.7921072 -0.4525965 -0.4095396 33 33 33
0.0061371810055646 -0.0419021887875558 0.00298560946179077 0.197952 -0.7081437 0.6777518 67 67 67
-0.0476740836382419 -0.02911035346604 -0.0328551122680879 -0.4945457 -0.8014807 -0.3362339 57 57 57
-0.000737875916445141 -0.0386767166748297 -0.0366707845711584 -0.1421242 -0.9285464 -0.3429319 32 32 32
0.0264847711721488 0.0173724906439963 -0.00624641446027202 0.9391611 -0.3389596 -0.05552295 44 44 44
-0.0187241625250483 -0.0356356082377858 0.00860788184224992 0.008694713 -0.5251042 0.8509935 92 92 92
-0.00434025488545497 -0.0422593204107814 0.00407817948982003 0.009227705 -0.527302 0.8496279 99 99 99
-0.0488240933465574 -0.0375695820260499 -8.22463123092976E-05 -0.8461466 -0.2708993 0.4589656 62 62 62
0.0314009615390858 0.0195908683849746 0.02527348176061 0.9946579 -0.05655694 -0.08635416 52 52 52
0.0180818194453911 -0.0264673315698292 0.0142859830534415 0.007552018 -0.5242302 0.8515431 96 96 96
-0.00218130786440218 -0.00913766294603957 0.024935613260691 0.007949348 -0.5264359 0.8501777 239 239 239
0.0256872526690493 -0.0291835423534501 0.0123680021112331 0.1045291 -0.5945574 0.7972297 140 140 140
0.0182750195235455 -0.0364310218004215 -0.00498820905833325 0.8310287 -0.546784 -0.1020713 14 14 14
0.0312960867854661 0.00958709231103172 0.020742688482587 0.997589 0.06579048 -0.02208608 38 38 38
0.0152974357634594 0.026038097234887 0.0466920159876296 0.008681066 -0.5350373 0.8447838 117 117 117
-0.0379287878475889 -0.0389401307645404 0.00641752631931031 0.004520379 -0.5362061 0.844075 106 106 106
-0.0259557352663875 -0.0466404007938216 -0.0100795491221513 -0.3456556 -0.8158724 -0.4635455 61 61 61
-0.0184199817304558 -0.0374447092066291 -0.0301817963097276 -0.2187022 -0.8384516 -0.4991676 72 72 72
0.00759263303574631 -0.0484682175182604 -0.01833003232992 0.2428962 -0.8027529 -0.5446001 75 75 75
-0.0368972637450122 -0.0401976945557415 -0.0144262081661375 -0.2948878 -0.86854 -0.3983458 55 55 55
0.00545342161935292 0.0362035833894279 0.0460531592518258 -0.2054688 0.8437106 0.4959183 59 59 59
-0.00845874078999387 0.0124765489371621 0.038417992912311 -0.01081983 -0.5278392 0.8492754 93 93 93
0.0263391992255326 0.0409302615691671 0.0478852307008399 -0.01184059 0.8238594 0.5666705 71 71 71
0.0204110195035394 -0.00515452395756788 -0.0127918451392524 0.9748138 0.01470715 -0.2225347 19 19 19
-0.0038779752912621 -0.0157881474480348 0.0209299546192332 0.02381764 -0.5318522 0.8465022 143 143 143
0.00366199479245521 0.012937111860861 0.0387294870421888 0.01193233 -0.5067763 0.861995 105 105 105
0.031240579584487 0.0133503543292084 0.0384868161073135 0.5594999 -0.3752273 0.7390293 76 76 76
-0.0385987197950999 -0.0445657656845847 -0.00702889007060409 -0.2014007 -0.7921965 -0.576075 46 46 46
-0.0252438176177359 -0.0135202230632629 0.0221765203779248 -0.001008859 -0.5289013 0.8486828 87 87 87
0.0350185038825486 0.0455509591492709 0.0274392350096834 0.9435661 0.1783428 0.2790643 33 33 33
0.00122811656405819 0.014269070068871 0.0389951761819626 0.01956178 -0.5273497 0.8494232 214 214 214
-0.0122730781470932 -0.0358887221379536 -0.0349745403530109 -0.2710935 -0.8672137 -0.4176707 66 66 66
0.00590664108793959 -0.0299962267766911 0.0117689457477496 0.01133918 -0.5536951 0.8326423 239 239 239
-0.00425616293600051 -0.0467420423158748 -0.0177420960494608 -0.1723539 -0.78629 -0.5933313 27 27 27
0.0151452464751389 -0.0238895916560595 -0.0316303358162216 0.8827217 -0.2574536 -0.3930905 27 27 27
0.036806859975107 0.0407199191240879 0.0160236692145263 0.9379199 -0.2337844 0.256225 47 47 47
-0.00400011075530227 -0.0452358267447271 0.00256749291433095 0.01911365 -0.5409506 0.8408371 141 141 141
0.0203512849172478 -0.0338050384541577 -0.00308497916272166 0.8153998 -0.52598 -0.2418021 12 12 12
-0.00244664776093773 -0.0422766094655561 -0.0266962308654139 -0.1822575 -0.9029618 -0.3891557 43 43 43
-0.0326206486397451 -0.0310306463751637 -0.034970869534542 -0.0569451 -0.9283435 -0.3673357 39 39 39
0.0118422189950196 -0.0304869559392036 -0.0355135021911512 0.8999932 -0.2136924 -0.3799312 34 34 34
-0.040661823115284 -0.0335178518624641 -0.0281431153996598 -0.2578544 -0.9023508 -0.3453608 49 49 49
-0.0107204189889782 -0.0479046463041283 0.000762711559597062 0.01246221 -0.5328228 0.846135 107 107 107
0.00326425729672897 -0.0515932396190474 -0.00367262608491226 0.4137363 -0.5158051 0.7501783 95 95 95
0.00798857005847164 -0.0466947185273642 -0.0200694983841942 0.1903077 -0.8105465 -0.5538929 67 67 67
0.0120925198577919 -0.0473134865899337 -0.00928903505478318 0.8496877 -0.5255992 0.04214504 61 61 61
-0.0154241229848826 0.0317931425961675 0.0117107194500207 -0.8633619 0.4018102 0.3052128 28 28 28
0.0320596605669103 -0.00318638277912697 0.0139594563877905 0.9699925 0.0440091 -0.2391189 70 70 70
-0.0159309663608269 -0.0337222140258362 0.00974469943478373 -0.001448328 -0.531714 0.8469228 121 121 121
0.00173703377756551 0.0286766356012749 0.0483063118223709 -0.01135322 -0.459648 0.8880286 78 78 78
-0.031716028682923 -0.0461498425954722 0.00204399893624613 0.01189506 -0.5433034 0.8394521 108 108 108
-0.0409665887979203 -0.044588056491251 0.00066841464768741 -0.461408 -0.6736067 0.5773705 60 60 60
-0.0123590804959197 -0.0443814610258421 -0.018520356300506 -0.1523382 -0.7931408 -0.5896786 52 52 52
-0.0074429153575406 -0.0486119402678501 0.000294624812793687 0.001674063 -0.5279546 0.8492709 166 166 166
-0.00389425898297802 0.0407403417257373 0.0260335797735206 -0.6989469 0.598875 0.3909245 36 36 36
0.0236237435923261 0.00904602920774522 0.0360870915168331 0.01135343 -0.5194553 0.8544222 246 246 246
0.00207362223995666 -0.0192551312992315 0.0188537248177949 -0.006520737 -0.5329399 0.846128 88 88 88
0.0235203897727088 -0.0201428860051298 -0.00957716334780384 0.9377789 0.04565352 -0.3442187 24 24 24
-0.0387833198593386 -0.0332002335657398 -0.030312297072669 -0.1165644 -0.9278429 -0.3542884 54 54 54
-0.0382197038213929 -0.0376167304373695 -0.0207615789478158 -0.2519035 -0.8881162 -0.3844401 55 55 55
-0.0435991959385982 -0.0128733135541241 -0.022931355806034 -0.9192876 0.2940716 0.2615956 29 29 29
-0.0157859985708932 -0.0454222401823753 0.0025871707582717 0.02000393 -0.5350753 0.8445675 132 132 132
0.0326924774666222 0.0213690129618145 0.0140268731672336 0.9653033 -0.2081602 0.157667 52 52 52
-0.00692198058461058 0.0259788681333335 0.0320364040551097 -0.8698024 0.4126278 0.270522 49 49 49
0.02166747113275 -0.013339082734499 -0.0133480421120422 0.971463 0.1275196 -0.1999962 11 11 11
0.0321993818918238 0.00302967169707835 0.0222031191405069 0.9986709 0.05105989 -0.007013977 47 47 47
0.0186186840644611 0.0475194924531392 0.0140667974213449 -0.3456757 0.8759857 0.3363886 24 24 24
-0.00764619063427929 -0.0540793224014443 -0.00471846318865932 -0.2163976 -0.9575583 0.1904055 104 104 104
-0.015930560358941 -0.0274988664477602 0.0136154002680076 0.0181539 -0.5326225 0.8461582 69 69 69
-0.012659470868289 0.00187906703377339 0.0318101202854758 -0.01262437 -0.5302389 0.8477543 98 98 98
0.0172737551612347 0.0464374461485557 0.0158106742215436 -0.3037482 0.8851032 0.3526039 26 26 26
-0.0483212739535004 -0.0374649504817032 -0.0157712098371531 -0.3524843 -0.8173361 -0.4557593 80 80 80
0.0334873845652797 0.0283171188248508 0.0442425925306798 0.9755035 -0.1417955 0.1681872 70 70 70
0.0275142927979051 0.0184595799064591 -0.000375166550484085 0.9195895 -0.362305 -0.1519548 18 18 18
-0.00754302732150958 0.0376652370664621 0.0204417098182019 -0.8607775 0.2878149 0.4197913 36 36 36
-0.0350139016807143 -0.0313732038408749 -0.0346797039806429 -0.07024372 -0.9131407 -0.401547 63 63 63
0.00446720145548118 -0.0481054091814229 -0.0021592128662995 0.3855401 -0.5837826 0.7145326 53 53 53
0.00725821429302576 -0.0394487850402551 -0.0388109433909763 0.05358644 -0.9733496 -0.2229778 60 60 60
-0.0205951229725398 -0.0460854935424052 -0.0147430453194997 -0.2355515 -0.8002512 -0.5514649 38 38 38
0.00171402196236725 -0.0157731610588541 0.0207055894923422 -0.006465038 -0.538389 0.8426717 98 98 98
0.0150049008256068 -0.0355297466416027 -0.0248511365893894 0.9048038 -0.2980953 -0.3040875 39 39 39
-0.0290548372185375 0.00237925832426611 0.0105844208867305 -0.8998792 0.3077812 0.3090116 31 31 31
-0.0131996168483033 0.00751815862858818 0.0354774959254207 -0.06431787 -0.5002816 0.8634707 104 104 104
0.0327091353301312 0.0148990642877014 0.0373404890222905 0.8296672 -0.3629143 0.4241999 73 73 73
0.017988206270604 -0.00909498409221787 0.0248631454277842 0.005224254 -0.5397865 0.8417858 226 226 226
0.0332025222720795 0.0345664816662188 0.0436959547610865 0.9937904 0.1038199 0.04002427 44 44 44
-0.0165946291567911 0.0131731513485638 0.0273163276932664 -0.7744331 0.5542069 0.3051362 28 28 28
0.0320066421317344 0.0246842739911681 0.0197022948905996 0.9874524 -0.1525552 0.04079946 19 19 19
0.0315333964786024 -0.008284597128704 0.0258603344165909 0.3903207 -0.4981503 0.7742712 99 99 99
0.0350754094218013 0.0282143127685788 0.0102350955060516 0.9230423 -0.3542554 0.1499866 44 44 44
0.00770920641546091 -0.0108591546503773 0.0238645262609663 0.004915327 -0.5185815 0.8550141 141 141 141
-0.00612695346727143 -0.0277771202692236 0.013441235978674 0.01425816 -0.5257202 0.850538 235 235 235
-0.0366056690579115 -0.0386960025674475 -0.0189160032474238 -0.2720071 -0.8626551 -0.426425 38 38 38
0.0332863282628715 0.0246830473039634 0.0138390471116238 0.9531673 -0.2087505 0.2188503 36 36 36
0.0178587360714442 -0.0351726790551383 -0.0169811895513403 0.9188575 -0.2332201 -0.3182911 34 34 34
-0.0459977188468206 -0.0229414355383648 -0.0177195292816372 -0.9020412 0.3453331 0.2589724 67 67 67
-0.0262073923172426 -0.0381884321791203 0.00720604103005479 0.01331054 -0.5276143 0.8493798 112 112 112
-0.0180913525210342 -0.0379544248768789 0.0071750964433025 0.01388559 -0.5263904 0.8501296 137 137 137
-0.0323323194954064 -0.0294737535480032 0.012615803447794 0.01310752 -0.5289536 0.8485495 94 94 94
0.0373796125893424 0.0445174138145663 0.0154966198522107 0.948357 -0.1469528 0.281112 60 60 60
0.0197978003866854 0.0103711035117411 0.0369938034341087 0.01328486 -0.5193181 0.8544778 234 234 234
0.00249406522183904 -0.0455111136064451 -0.0218502158415506 -0.09286824 -0.8432955 -0.5293659 21 21 21
0.0209919249363919 -0.00617500564890139 -0.0115799995531579 0.9694046 0.04255745 -0.2417512 28 28 28
-0.018378843425471 -0.019288429064402 0.0187121736186928 0.004680533 -0.5262705 0.8503043 210 210 210
-0.00666180970570718 0.0378221234758509 0.0253099182347815 -0.8672706 0.3088625 0.3904428 27 27 27
0.0142318230918317 -0.0439542401781418 -0.0127263187950852 0.8052232 -0.5928952 0.009535274 49 49 49
0.0151200406370613 -0.043141338442226 -0.0151220824130285 0.8275436 -0.5588915 -0.05302832 39 39 39
0.0325259256266572 0.0244856969655354 0.0301362620330883 0.9929288 -0.08816908 -0.0794898 40 40 40
-0.0245697969839638 0.0213219439353429 -0.00120790817710514 -0.8448864 0.460521 0.2721901 51 51 51
0.011838988471947 0.0275115156479218 0.0475649386678119 -0.002383018 -0.5299956 0.8479971 118 118 118
-0.0360172103711767 -0.0265312830033728 0.0143070179553491 -0.003377421 -0.5275565 0.8495132 82 82 82
-0.0275051713954366 -0.00963381857616952 0.0246920563118027 -0.0007510296 -0.5201086 0.8540998 95 95 95
0.0118220786342058 -0.0256234878272901 0.0145963990311559 0.0116544 -0.5175327 0.8555841 104 104 104
-0.0247937787077532 0.00514442905656609 0.0198124822665374 -0.8735165 0.3677126 0.3189927 28 28 28
-0.000821750079667005 -0.0231699710657189 0.0161610099791915 0.009761745 -0.5219442 0.8529238 230 230 230
0.00543534389583566 -0.0352597113799271 0.00866240683684077 0.01877409 -0.5380614 0.8426965 112 112 112
0.0236100601948643 -0.00727834954826223 0.0260157490108177 0.0206489 -0.5304306 0.8474768 99 99 99
0.02224361156772 -0.0368987110344628 0.00283483053211708 0.6833946 -0.6982529 -0.2131076 24 24 24
0.0333275015369079 0.0364303926088263 0.0416206029050452 0.9902381 -0.04011323 0.1334898 50 50 50
0.0324937822215592 0.0224377011081287 0.0375523552162847 0.9918173 -0.07693953 0.1018764 38 38 38
-0.0224006431164354 -0.0233202451632748 0.015891321045583 0.001460524 -0.5263511 0.8502661 89 89 89
-0.0298880117273623 -0.0434149765986068 0.00382029702545039 0.008999982 -0.5331642 0.8459639 94 94 94
0.0359805947121785 0.0311255006091813 0.00822743936305542 0.9216228 -0.383285 0.06086079 27 27 27
-0.0267119613921056 -0.0368354808656465 -0.0242861596258892 -0.2218738 -0.857073 -0.4649708 27 27 27
0.0114406448517816 0.0164327198478553 0.0406491530128206 -0.02570155 -0.5308992 0.8470451 143 143 143
0.021873966454192 -0.0196673108355616 -0.0133311513572937 0.9666249 0.05006901 -0.2512555 18 18 18
0.0191880234337662 -0.029818419339668 -0.0157019453479585 0.9020926 -0.2794261 -0.3288616 27 27 27
0.021873375100784 -0.00318034955402813 0.0285491709054056 0.008410133 -0.5183783 0.85511 106 106 106
0.0310083019119629 0.016688795470351 0.00713908610436109 0.8933113 -0.2675574 -0.3611205 49 49 49
-0.0257177074663377 -0.0280392269826 0.0132527308209557 -0.01242003 -0.5375411 0.8431461 92 92 92
0.00942049475355278 -0.00716719571402868 0.0263891362945112 -0.003148454 -0.526209 0.8503494 101 101 101
-0.0307515542947745 -0.0318482006015237 -0.0346599610536233 -0.1259055 -0.9225353 -0.3647964 43 43 43
0.013543429441766 0.0444787443014703 0.0328160867414513 -0.2382836 0.8915638 0.3851428 34 34 34
0.0171719312420295 0.0422523296082264 0.0397697598226397 -0.2174876 0.8903635 0.3999399 41 41 41
0.0312978919894005 0.0126656763694613 0.0194048925479108 0.9997075 0.01853222 -0.01553648 41 41 41
-0.0148499420366752 -0.0127927174939795 0.0230542916394574 0.0003893752 -0.5240642 0.8516787 243 243 243
-0.0421287738695431 -0.0169891111958111 -0.0129021975910035 -0.902959 0.3075441 0.300136 54 54 54
-0.0104451477985523 -0.0240274208363311 0.0156052436797778 -0.01059833 -0.5097948 0.8602307 131 131 131
-0.00999625412476712 -0.0396374210953229 0.0059326598599751 0.01691018 -0.5227145 0.8523401 108 108 108
0.0327611267380874 0.0267557205071323 0.027523623891282 0.9945289 -0.06280532 -0.0834734 32 32 32
-0.043630290643264 -0.0161385637782467 -0.0163720772819819 -0.905653 0.304067 0.2955266 43 43 43
0.00172510797919312 0.0372479477189382 0.042415630958653 -0.3333093 0.8819515 0.3332663 51 51 51
-0.0441588717314554 -0.026661985875966 -0.0011269482917291 -0.8742041 0.4566624 0.165005 24 24 24
-0.0142188609432776 -0.0417855741503 0.00473559529714374 0.0007602265 -0.5272225 0.849727 98 98 98
0.0295605258880869 -0.0144602534797948 0.0217587775160535 0.1242776 -0.5330527 0.8369049 116 116 116
0.0239201653837879 -0.015346549410256 0.0208759342460069 0.01032295 -0.5230812 0.8522203 117 117 117
0.00226533157986264 -0.0498022382314286 -0.00246522426370432 0.3823687 -0.5159873 0.766519 54 54 54
-0.0162744033206939 0.012199411824235 0.0308988488997102 -0.7535747 0.4764241 0.4529297 26 26 26
-0.0198471926702926 -0.0117890394117957 0.0232144194057662 0.004150006 -0.522887 0.8523919 97 97 97
-0.0154268353341012 -0.0167302942775698 0.0202524520367497 0.001857134 -0.539881 0.8417393 102 102 102
0.00141650180571862 -0.00571714448892124 0.0269966589023888 0.01219885 -0.5349993 0.8447645 124 124 124
-0.0374831875558064 -0.0123328097235604 -0.00493950289742889 -0.9182009 0.3061704 0.2513303 39 39 39
-0.0110343727445104 -0.035528264111196 -0.0370758220594329 -0.2940006 -0.8784581 -0.3766631 43 43 43
0.0208812178870277 -0.0367229171555529 0.00609734979209209 0.3443498 -0.8253971 0.4473734 70 70 70
0.0239647313648872 -0.0337315156716798 0.00931308569557421 0.2498655 -0.7183438 0.6492683 67 67 67
-0.031488748792305 0.0133756920280499 -0.00705326191107392 -0.8695481 0.3106607 0.3838959 32 32 32
-0.00605902032943062 -0.0429081390844629 -0.0236564155531257 -0.204361 -0.8708664 -0.4470217 33 33 33
0.0245029859678616 -0.0261762911453725 -0.00524794360147257 0.8474451 -0.4002856 -0.3487238 50 50 50
0.0238530327402744 0.0369447960589073 0.0533551493379788 0.07723086 0.05324921 0.9955902 92 92 92
0.0111975977777767 0.0103524141901881 0.0371250949562045 -0.005327464 -0.5340474 0.8454378 236 236 236
-0.0287423794557751 -0.032988084059357 -0.0309951728946774 -0.1778177 -0.8960657 -0.4067521 52 52 52
0.0252099143211555 0.0336240805808345 0.0511025677278204 0.05913692 -0.3684837 0.9277514 103 103 103
-0.00676636055105373 0.0446658720332453 0.0145580143671499 -0.4373357 0.8228832 0.3627682 30 30 30
0.00202754917381132 -0.0361642150018554 0.00789640708753386 0.02005956 -0.537881 0.8427821 132 132 132
-0.00329553280989447 0.0437245309476799 0.0182782077948835 -0.180727 0.9208766 0.345433 27 27 27
-0.00498742695574483 -0.0379840300428474 -0.0365287106397255 -0.2816753 -0.88728 -0.3652304 60 60 60
-0.000342391391342733 0.043598633604051 0.0173407732696649 0.02556837 0.9392377 0.3423138 19 19 19
0.0173371442364503 -0.0200602258747429 0.0176577207366824 0.0112851 -0.5294739 0.8482512 120 120 120
-0.0237747557794545 0.0180175488885572 0.00696849496419527 -0.8081993 0.4764113 0.346188 52 52 52
0.00774309934229578 -0.0388031834878283 -0.0412691546006831 0.1676447 -0.9270569 -0.3353516 74 74 74
0.00383575557629134 0.000670281435052544 0.0309011265205998 -0.01096718 -0.5254307 0.8507657 234 234 234
0.0217835561358624 0.00399796399772478 -0.00995908904185999 0.9645705 -0.2279126 -0.1328894 31 31 31
0.0333979687472397 0.0317299142666385 0.0243454337283607 0.9901901 -0.1304988 0.04993653 27 27 27
0.0178265246923979 0.0300516998905997 0.0491546655735589 0.01075924 -0.5120732 0.8588744 124 124 124
0.0326022902915768 0.0252466567130218 0.0425950931893324 0.9277048 -0.3116383 0.205537 37 37 37
0.0189154380840053 -0.0266241395024442 -0.0195504807239172 0.9057691 -0.2615835 -0.3334013 24 24 24
-0.0414138412083762 -0.0241395754905671 0.0154841642558469 -0.03363581 -0.5099978 0.8595178 52 52 52
-0.0064793442651605 -0.0091526362519514 0.024771755034788 0.003342355 -0.5307592 0.8475161 107 107 107
0.00138190014637152 -0.0425475102630212 0.00350268478508597 0.140397 -0.5985162 0.7887123 63 63 63
-0.00580883119076914 -0.0110896064372372 0.0237693452892197 0.00484144 -0.5227312 0.8524837 94 94 94
-0.0203314994601111 0.0240650883912246 0.0074810582463713 -0.8141214 0.4670428 0.345076 28 28 28
0.0119188037163851 0.0116654570101276 0.0378462683935078 -0.002213529 -0.5269932 0.8498666 222 222 222
0.0144950527103536 -0.0374701519674089 -0.0220372416369231 0.8704904 -0.3392974 -0.356544 41 41 41
-0.0384573743369123 -0.0455295103850656 -0.00614244016235815 -0.2579242 -0.8221141 -0.5075465 47 47 47
0.0310579357293665 0.0386186767459415 0.0473036160588202 0.6822556 0.4362489 0.5866977 75 75 75
0.0349758596608392 0.0387077753482048 0.0235624339981257 0.9519528 -0.2796129 0.1249096 32 32 32
0.0384762744083038 0.0451264645413909 0.0138213135681892 0.9523332 -0.1075393 0.2854764 48 48 48
-0.0103636687188891 0.0219199644100663 0.0261303484603954 -0.800441 0.4637501 0.3797764 64 64 64
0.00911743872836146 0.00846221808824477 0.0354798163656911 0.009545119 -0.5282388 0.8490422 216 216 216
0.0318030557177149 0.0389013144052115 0.0459221094202519 0.7539024 0.3928866 0.5265656 74 74 74
0.017527127861571 -0.0397729565465698 -0.0126187847686665 0.869391 -0.4916091 -0.04979822 35 35 35
0.0200022189408879 -0.0338604829464677 0.00950067324068515 0.0585891 -0.5973614 0.7998291 149 149 149
-0.0464932557750326 -0.0181351221216228 -0.0265600658804061 -0.9241958 0.3064503 0.2279264 49 49 49
0.0115411374271264 -0.0178737873542039 0.0195910651224038 0.01199706 -0.5194128 0.8544392 247 247 247
-0.00221809070699042 -0.0264763850367615 0.0140069245186401 0.02573764 -0.528001 0.8488537 112 112 112
-0.0443347123750732 -0.0316911292453808 -0.0286767680155984 -0.3816885 -0.8543456 -0.3527145 59 59 59
-0.030473856058622 -0.0137300651655683 0.0224210048242459 0.01700563 -0.5272837 0.8495191 85 85 85
0.0299406576727388 -0.0170211668786024 0.0199169123683861 0.09564121 -0.5274408 0.8441913 107 107 107
0.0253048931228399 0.000663355916294517 0.000446959570634509 0.8714656 0.06971335 -0.4854769 45 45 45
0.0098689687826008 0.00692645907202305 0.0348780346824945 0.005976933 -0.5287303 0.8487689 131 131 131
0.0348786053630885 0.031355093479577 0.0149558997057807 0.9058058 -0.2858067 0.3127783 20 20 20
0.0176841355843629 -0.0375282398097968 0.00679008555318594 0.1675978 -0.7559549 0.6328059 88 88 88
0.0167604476432195 -0.0408449987787048 -0.00970631620172296 0.817232 -0.5684286 0.09497795 25 25 25
-0.00596127842376815 -0.0545254525209876 -0.00429970393449541 -0.1610895 -0.9371363 0.3095573 71 71 71
-0.0210137345827639 0.0168648155343087 0.0149604756741636 -0.7751499 0.4782142 0.4128605 48 48 48
0.0137962436465218 0.0431191576269492 0.036524383712353 -0.2453154 0.8876884 0.3896533 47 47 47
0.0276620440916098 -0.00319766197957727 0.0283910817089416 0.08129723 -0.5191992 0.8507779 121 121 121
0.0176703550240385 -0.0269603932573375 -0.0227691988202065 0.923246 -0.2588945 -0.2838846 30 30 30
-0.0182083145484317 -0.00170921072632946 0.0297106922082845 0.01215135 -0.5205315 0.853756 102 102 102
-0.0050367774587472 0.0110061363192582 0.0378515431930277 0.005223577 -0.525042 0.8510603 119 119 119
0.0260645387278169 -0.0193364411656098 0.0185924999574458 0.009630019 -0.5340974 0.8453681 101 101 101
0.00975765139396767 0.0126714216771981 0.0384068420561511 -0.01515419 -0.5193938 0.8544006 130 130 130
-0.002322125111065 -0.0389456037367414 0.00634525952902798 -0.01121268 -0.5349646 0.8448001 129 129 129
-0.00664985644385574 0.0405761030650225 0.020689383690932 -0.7116135 0.5538776 0.4322336 37 37 37
0.019604614016794 0.0411952839504051 0.0438617187516405 -0.2297901 0.8927691 0.3875047 42 42 42
-0.00532822760125384 -0.0426567032336497 0.00397391632451521 0.01047114 -0.5237899 0.8517831 86 86 86
0.0282260016306783 -0.0298458565578072 0.0113608992302376 0.5100495 -0.6643242 0.5463725 72 72 72
0.00563602278979403 -0.0509780011395099 -0.00482018768907161 0.4611183 -0.5209733 0.7183012 73 73 73
-0.0181501597987128 -0.0241012983105171 0.0157743399525979 0.004087627 -0.5256448 0.8506943 170 170 170
0.0149273572466599 -0.0322047247026498 -0.0271731807658722 0.9157035 -0.2475621 -0.3165439 53 53 53
-0.00773802550308877 -0.0175753635388423 0.0200209100685608 0.003581872 -0.543014 0.839716 79 79 79
0.0313982145870062 -0.0233052001852057 0.0157972250969484 0.4174997 -0.5789078 0.7003997 130 130 130
0.0185503398516311 0.00763801904868266 0.0356129801290362 0.01112565 -0.535707 0.8443306 158 158 158
-0.01182993148123 -0.04768767220331 -0.0148349159047543 -0.1486338 -0.7725057 -0.6173677 46 46 46
-0.0341513216505529 -0.0426753024780165 -0.0106000104010679 -0.228676 -0.8308379 -0.5073615 27 27 27
0.0160397889951436 0.00498412316113361 0.0337395928834863 0.005976377 -0.5358456 0.8442948 247 247 247
0.0133771845652739 -0.0454850873375666 -0.0148819838275028 0.7879802 -0.6150879 -0.02746121 28 28 28
0.0311518731535698 0.00413696177779332 0.012732518586523 0.973271 0.01258048 -0.2293149 34 34 34
-0.0159932424661111 -0.0500458605235888 -0.000550220087276565 -0.02687363 -0.6200551 0.7840979 124 124 124
0.0221732736810467 -0.0211179566818438 -0.0137059551106574 0.9613177 -0.02470901 -0.2743316 19 19 19
0.00601544925998532 -0.0454108987827179 -0.000438616161292094 0.2976444 -0.6703993 0.6796857 74 74 74
-0.0422730073760187 -0.0127520733537716 -0.0172709199876293 -0.9083502 0.2966236 0.2948123 68 68 68
0.0340430489610406 0.026511228746384 0.0100889746723903 0.9460511 -0.3177221 0.06356169 65 65 65
-0.0428970842891521 -0.0349460817219558 -0.0225184433731508 -0.2611302 -0.8822113 -0.3918089 47 47 47
-0.023185532040698 0.0131389260860841 0.0142300079866332 -0.8216128 0.4177073 0.3879086 41 41 41
-0.0343859944925637 0.000684591293552694 -0.00608393352816411 -0.9059228 0.2380036 0.3502259 27 27 27
-0.00568574426344481 -0.0046168616665363 0.0279752840488751 0.01033819 -0.5259295 0.8504654 119 119 119
-0.0358178766962149 -0.035993361803611 -0.0252934198524873 -0.1725194 -0.8915493 -0.4187801 49 49 49
0.0197913438034663 -0.0179028345049577 0.0194646074417756 -0.003773235 -0.5413013 0.8408203 102 102 102
-0.0222435217797852 -0.0392199766885196 0.00651539479530555 -0.001735275 -0.5212505 0.853402 108 108 108
-0.0368977790367402 -0.00636809077680267 -0.00502675975382832 -0.9198024 0.2748369 0.2800504 32 32 32
0.0264250111385498 0.0184528717642958 -0.00761036030856327 0.9341962 -0.3535701 -0.04759996 33 33 33
-0.0273234085682321 0.0141592458031117 0.00489540143293682 -0.8987727 0.3502762 0.2636556 47 47 47
-0.0167430793584491 0.0198457486196193 0.0186931271257292 -0.715165 0.459729 0.5264867 62 62 62
-0.00617454018295005 -0.0375133023046302 0.0072584249922511 0.002743774 -0.5269988 0.8498616 89 89 89
-0.00400040663376533 0.0239049820764052 0.045674211470214 -0.06360016 -0.4561157 0.8876449 102 102 102
-0.0305794973774121 -0.0455818623613599 -0.00880590243618995 -0.3140779 -0.7549784 -0.5756411 52 52 52
0.0323935702908935 -0.0137899560646966 0.0208344285711711 0.5422054 -0.4399405 0.715867 67 67 67
-0.0430897124875278 -0.0215975824431267 -0.0121643473073259 -0.8935997 0.3606536 0.2672238 59 59 59
0.00128654419093799 0.0435465052867046 0.0200272814871769 -0.002110277 0.959217 0.2826631 26 26 26
0.0266226144926804 0.00244144359561171 0.00285195337689942 0.8359706 0.0371835 -0.547513 33 33 33
0.0289791477749208 0.0224247466406691 3.13053246309702E-05 0.8210145 -0.5505412 -0.1511276 48 48 48
-0.0138384442488886 -0.000978716308448702 0.0299948467679167 0.01078855 -0.5244341 0.8513827 113 113 113
0.0196437845832498 0.0150879834970805 0.039917191108766 0.01344239 -0.5268182 0.8498717 202 202 202
0.030358573264182 -0.0285774954277993 0.00898508162775524 0.7669276 -0.6417068 -0.005864717 43 43 43
-0.0302162662312737 0.0112037699728271 -0.00455708524537379 -0.8826849 0.3008675 0.3610348 43 43 43
-0.00138414497885009 0.0431641228487492 0.0206203571832063 -0.1024254 0.9473597 0.3033457 44 44 44
0.0243514226009056 -0.00623286413710922 -0.00190774919463388 0.8671406 0.09066357 -0.4897421 62 62 62
-0.0411496735204731 -0.0327003609493814 -0.0301915767126285 -0.2801026 -0.8966172 -0.3429578 63 63 63
0.0117996302690377 -0.0460715927603442 -0.00278281975291178 0.4235931 -0.7485163 0.5101884 77 77 77
-0.00671234387985953 -0.048910462284066 -0.0148854301401185 -0.1603548 -0.7549514 -0.6358732 39 39 39
-0.0286264325305452 -0.0338913268884096 0.00974790242938856 0.000175573 -0.5314947 0.8470616 81 81 81
0.00388812485739898 0.00922738179700389 0.0365353718079117 0.002813344 -0.5307673 0.847513 228 228 228
-0.0340189498381749 -0.0472010906682779 -0.00610724293117848 -0.2600271 -0.7316036 -0.6301921 55 55 55
0.0285275113565726 -0.00798154405556661 0.0253145565085741 0.09464332 -0.5421776 0.8349168 102 102 102
0.00365085252777364 -0.0421232677413922 0.0036494490832204 0.1729326 -0.6713797 0.720655 65 65 65
0.0155104973189335 -0.0321337939342849 -0.0255864488132101 0.9146661 -0.2508925 -0.3169211 45 45 45
-0.00861784941859023 0.0422397358049897 0.0153319124116192 -0.6989541 0.6144757 0.3659 31 31 31
0.0161436283781482 -0.0412722957669137 -0.0129801881083216 0.8525815 -0.5221759 -0.02090577 28 28 28
0.027111204905947 0.0204992313006211 -0.00590110342142519 0.9069266 -0.4195836 -0.03786333 38 38 38
-0.000475761689693766 0.00722862146224656 0.035121026935676 0.001372719 -0.533024 0.846099 82 82 82
-0.0202924269005833 -0.0341734029456267 -0.0343978496717755 -0.1742463 -0.8755671 -0.450578 26 26 26
-0.0490214515424481 -0.0319185758909855 -0.0229982262848964 -0.673155 -0.6419193 -0.367154 72 72 72
0.0237076875045465 -0.0269225729229465 -0.00501262380559808 0.8492307 -0.4173723 -0.3234309 25 25 25
0.0236290246544399 -0.0224215661270601 -0.0103756320633436 0.9468613 -0.02172378 -0.3209078 21 21 21
0.00937725882831097 0.0394570892740118 0.0416202385676362 -0.2544626 0.8892887 0.380019 42 42 42
0.0016689086366477 -0.0211041629816713 0.0172677368039769 0.002063579 -0.5173458 0.8557739 232 232 232
0.0136743643113038 -0.0227108170272687 0.0164107594128625 0.009549248 -0.5265118 0.8501142 82 82 82
0.0344382804379042 0.0387366994533704 0.0279301915762016 0.9617455 -0.2651774 0.06875001 19 19 19
0.0117762064734812 -0.0474785424702281 -0.0049581960359894 0.5499749 -0.7317049 0.4026605 57 57 57
0.00723468081752454 0.044616798354401 0.0288820521555407 -0.2230192 0.9472899 0.2300093 33 33 33
0.0294510409867805 0.0209291126806881 0.00439073605640644 0.8184542 -0.3738793 -0.4362877 53 53 53
-0.0143597035636813 -0.0316960933773354 0.0109397675572354 0.0009117601 -0.5245833 0.8513586 94 94 94
-0.0151088579079257 -0.0341617036346744 -0.0365806972496239 -0.1989723 -0.8847137 -0.4215349 47 47 47
-0.0128621251587107 -0.0345756841424323 -0.0382069939019138 -0.2524422 -0.9031509 -0.3472629 34 34 34
-0.00720546980924563 -0.0368774779938984 -0.037213681368972 -0.3032779 -0.8777895 -0.3708209 58 58 58
-0.0109957299031209 -0.0343479836074574 -0.0382165467783735 -0.2931017 -0.8904718 -0.3480679 44 44 44
-0.0086812771979532 -0.0360532836156936 -0.0367329922863803 -0.3119552 -0.8766096 -0.3663873 38 38 38
-0.0107168887505029 -0.0350046356656757 -0.0373471522994871 -0.2990327 -0.885816 -0.3548372 40 40 40
-0.00829225878272766 -0.0361286356195362 -0.0385129887321059 -0.2942157 -0.8821152 -0.367845 23 23 23
-0.000470994224218035 -0.0376817079020378 -0.0403091655461179 -0.1848249 -0.9165376 -0.354681 53 53 53
-0.00236431808179383 -0.0385659115436868 -0.0368692126093153 -0.1734927 -0.9110488 -0.3740192 30 30 30
-0.000628990412376407 -0.0379667911513565 -0.038487108631261 -0.1648404 -0.9170807 -0.3630298 51 51 51
-0.00486707815225929 -0.0361487116209901 -0.0390144448990108 -0.2809585 -0.8748192 -0.3946564 38 38 38
-0.0225595065979456 -0.0327168234973947 -0.0367834003704 -0.2008474 -0.8848651 -0.4203261 38 38 38
-0.0184807183581785 -0.0331252306009735 -0.0374881851936759 -0.1952784 -0.8882352 -0.415818 46 46 46
-0.0162638867394542 -0.0337536886468259 -0.0365304352748811 -0.199811 -0.8932722 -0.4026666 25 25 25
-0.0166923879678058 -0.0329365748358996 -0.0373070639904332 -0.199811 -0.8932722 -0.4026666 18 18 18
0.00126503171879433 -0.0374565235244156 -0.0404298127256446 -0.1778397 -0.9314659 -0.3174025 45 45 45
0.00616108935923698 -0.0391490890642378 -0.0405209016447836 0.007842757 -0.9717082 -0.2360542 79 79 79
0.000790786517474995 -0.0381707263003049 -0.0389826112452721 -0.1667903 -0.9259476 -0.3388245 46 46 46
0.00369268000182865 -0.0392086459616202 -0.0370101400828955 -0.06787045 -0.9736353 -0.2177796 45 45 45
0.00763480780904979 -0.0398500032023955 -0.0365851390285206 0.1731119 -0.9589449 -0.2246261 101 101 101
0.010015042344274 -0.0371235286588075 -0.0399139621054869 0.6631467 -0.5859746 -0.4656931 98 98 98
0.0108272636816671 -0.0324946732699261 -0.0370741065859873 0.860934 -0.2915201 -0.4169038 52 52 52
0.00231427570389942 -0.013644172425892 0.0223377125064571 -0.003706659 -0.5302311 0.8478451 243 243 243
-0.0347383583322483 -0.0367673344447274 -0.0222733908505059 -0.1830283 -0.866991 -0.4634946 54 54 54
0.0182625911297523 0.0416346620431627 0.0427912251521022 -0.2206561 0.8931245 0.3919688 33 33 33
-0.0369330330636251 -0.0392183520800869 0.00660141737327347 0.01596046 -0.5260551 0.8503007 137 137 137
-0.042075433568987 -0.0473216308408176 -0.00317872365112248 -0.5082625 -0.8561807 -0.09286497 75 75 75
-0.0406866919099413 -0.0470543828714401 -0.0020390612867518 -0.4408023 -0.8976038 -0.0008696945 52 52 52
-0.0374331555633205 -0.0473179951071673 -0.0048553931743533 -0.3287195 -0.8225375 -0.4640858 62 62 62
-0.0365721803458166 -0.0464887615096289 -0.00492329695397159 -0.2742797 -0.8206554 -0.5012936 30 30 30
-0.0385397071000853 -0.0493299180517602 -0.00216219453674488 -0.4505723 -0.8924382 0.0232101 65 65 65
-0.0365237938891445 -0.0482778412581243 -0.000507111031459839 -0.3194917 -0.8562555 0.405896 67 67 67
-0.0357458600915947 -0.0459488058101932 -0.00603876226301819 -0.2288906 -0.7593483 -0.6090971 44 44 44
-0.0319351950139803 -0.0475895292117224 -0.00593567153144142 -0.2585535 -0.6975746 -0.6682363 50 50 50
-0.0300865882382344 -0.0479121757181328 -0.00617267148144307 -0.2713269 -0.7138087 -0.645646 46 46 46
-0.0281582776162335 -0.0468804907387238 -0.00864815367137611 -0.3281275 -0.7720685 -0.5442817 59 59 59
-0.0244354013269095 -0.0497903212364598 -0.00623895755741172 -0.1812906 -0.8342617 -0.5207121 55 55 55
-0.0284320636166098 -0.0469181208819734 -0.00738788970357079 -0.2838122 -0.7557166 -0.5902058 23 23 23
-0.0333970626489211 -0.0494490991379927 -0.00449614230334217 -0.3325677 -0.8842087 -0.3279842 60 60 60
-0.0341952352933297 -0.0504141069825358 -0.00209185149713459 -0.2866621 -0.9569762 0.04495882 60 60 60
-0.0324824504751393 -0.0510585495362409 -0.00217066048869335 -0.3270892 -0.9449142 0.01223771 73 73 73
-0.0300877290747046 -0.0507607837345055 -0.00365340937048042 -0.230198 -0.9337305 -0.2741461 75 75 75
-0.0310495999438798 -0.0477866187216941 -0.0048330953245776 -0.3060004 -0.8169538 -0.4888254 53 53 53
-0.0320182498993007 -0.0496946562837953 -5.66979628873199E-05 -0.1854083 -0.778127 0.6001185 93 93 93
-0.0303266266489004 -0.0497425550325482 -6.91437165273312E-05 -0.1653188 -0.7489228 0.6417043 103 103 103
-0.0337998088160725 -0.0479311483365065 0.00118290669658327 -0.08851986 -0.6539914 0.7513052 91 91 91
-0.0325732380276458 -0.0482771048148095 0.000458570066134423 -0.06293345 -0.7343191 0.6758808 71 71 71
-0.0323289732044354 -0.0476798456849957 0.00111763240848994 -0.0157836 -0.6342309 0.7729826 99 99 99
-0.0287822867274032 -0.0506011333283848 -0.0034780590145071 -0.1911614 -0.946522 -0.2599104 35 35 35
-0.0261286463907529 -0.050405995583174 -0.00462462664872437 -0.09127176 -0.9086286 -0.407509 43 43 43
-0.0295277418261413 -0.0515105178230882 -0.00196095321559608 -0.236122 -0.9526469 0.1915995 61 61 61
-0.0257473085769173 -0.051707343027369 -0.00123265084105523 -0.02191918 -0.9415982 0.3360245 84 84 84
-0.0291924811095008 -0.0487326790101071 -6.1842462520556E-05 -0.07549927 -0.6632356 0.7445927 87 87 87
-0.0263339100189284 -0.0487954649239483 0.000483164331919139 -0.005847771 -0.6446422 0.7644621 134 134 134
-0.0262568798171086 -0.0476933540311256 0.00105031498550739 0.001501859 -0.5432523 0.8395681 95 95 95
-0.0372048623870413 -0.0475371432885073 0.00161972019270762 -0.292506 -0.7013226 0.6500667 47 47 47
-0.0281918844288493 -0.0460088450262276 0.00220003580595912 -0.007217808 -0.5354293 0.8445492 118 118 118
-0.0259716996358228 -0.0459651805220823 0.00217598280488579 0.00161633 -0.5351961 0.8447263 97 97 97
-0.0224336856113854 -0.0473793102083605 -0.0123867364811649 -0.3143063 -0.8301172 -0.4605616 52 52 52
-0.0186449961013269 -0.0464882903145319 -0.0146663501606621 -0.2207513 -0.7859724 -0.5775087 34 34 34
-0.0179957896986305 -0.0487577351645455 -0.0128137495237288 -0.2365848 -0.8275776 -0.5090609 56 56 56
-0.0179056735812178 -0.0493508544669546 -0.0118661906148131 -0.258199 -0.8598568 -0.4404311 49 49 49
-0.0199050649836909 -0.0464101726362643 -0.012960126822906 -0.2479418 -0.8218628 -0.5128999 42 42 42
-0.0161524875745687 -0.0474104575749451 -0.015074057721211 -0.2039836 -0.7801406 -0.5914147 43 43 43
-0.0140133379070186 -0.0480658633801977 -0.0145513136089436 -0.1447813 -0.7889386 -0.5971719 43 43 43
-0.0149786962137455 -0.0460150515002417 -0.0167225004384227 -0.1826465 -0.7685323 -0.6131871 57 57 57
-0.0164071912427168 -0.0485686124456911 -0.013157706783694 -0.2382473 -0.8239124 -0.5142048 53 53 53
-0.00406331155219508 -0.0519970643032609 -0.012203251598071 -0.1993564 -0.763862 -0.6138175 52 52 52
-0.00223715105233735 -0.0530146914108166 -0.0118768199195101 -0.1700347 -0.8033634 -0.5706973 69 69 69
-0.000419788760775308 -0.0522576240973179 -0.0128015391642111 -0.171831 -0.757314 -0.6300394 54 54 54
-0.0100474679314142 -0.0463299274161787 -0.0168046236105295 -0.1594295 -0.7782033 -0.6074388 50 50 50
-0.0084111212387592 -0.048267759955854 -0.0149839753668918 -0.1528201 -0.7571967 -0.6350585 60 60 60
-0.00843546423848407 -0.0465647851729439 -0.0169026911745251 -0.1599961 -0.7867785 -0.5961383 42 42 42
-0.00691278507998483 -0.0469620387313442 -0.0178033354982191 -0.1709999 -0.7930811 -0.5846207 63 63 63
-0.0103879988153692 -0.0503212125867304 -0.0123600158820807 -0.1875046 -0.8069193 -0.56011 61 61 61
