ply
format ascii 1.0
comment File exported by Rhinoceros Version 7.0
element vertex 470
property float x
property float y
property float z
property float nx
property float ny
property float nz
property uchar red
property uchar green
property uchar blue
end_header
-0.00615061693069996 0.00826302016758351 0.0116833363480332 -0.002482263 0.09756549 0.995226 120 120 120
0.0724018911644473 0.111317906134706 -0.00556409752039422 -0.1601802 0.980502 -0.1138335 91 91 91
-0.129148871769425 -0.142185288327066 0.00485694857467492 -0.9978185 0.0390787 0.053209 93 93 93
0.00999875404919748 0.102038602566632 0.00692197933424266 0.005216481 0.08679298 0.9962127 157 157 157
-0.0924590756369412 0.0515156311655951 0.00851352539142888 -0.01898441 0.08869891 0.9958776 168 168 168
0.146410845965066 0.0469119690440882 0.0107352797688184 -0.02587353 0.1207992 0.9923397 139 139 139
-0.0479949993370929 0.0190210346256818 0.0109332606128045 0.005234181 0.0868083 0.9962113 110 110 110
-0.104942432567585 -0.109089169744058 0.0166446197759414 -0.02348213 0.0941463 0.9952814 125 125 125
-0.0518528548832025 -0.150809403847672 0.0115247063099746 0.1247688 -0.9900531 0.06502066 67 67 67
-0.028600383217553 -0.134392420645982 -0.00121613217677446 0.2935537 -0.5606572 -0.7742673 67 67 67
-0.0740249658059511 0.103667666260418 0.00580522012431731 -0.005720847 0.07541197 0.9971361 149 149 149
0.0199341727693185 -0.0488564866918149 0.0147796753405101 0.005884863 0.1035796 0.9946038 118 118 118
-0.0205699842142224 -0.0903118521837831 0.016704332688068 -0.01458349 0.08341379 0.9964083 139 139 139
-0.123721251847043 0.0699410438375063 -0.00434509995490939 -0.9879412 -0.03214493 0.1514557 62 62 62
0.0321294485642996 -0.0550019927395462 0.0156759426434181 0.01116829 0.06347111 0.9979212 96 96 96
-0.125233097101004 0.0644632168214736 0.00184144842706505 -0.9585616 -0.2284729 0.1701757 85 85 85
-0.031204564375215 0.108639172701988 -0.0227292671236386 0.1404388 0.8913121 -0.4310912 71 71 71
0.158498062001939 0.113568658786606 -0.00166396631309776 -0.3796845 0.9193484 0.1031416 68 68 68
-0.0369256600328363 -0.141862187099326 0.0190569328039152 0.003451425 0.05868594 0.9982705 131 131 131
-0.0212747860439995 -0.139917159728723 0.0182486252648232 0.08163925 -0.3428251 0.9358451 121 121 121
0.0907426464894774 0.0743132305635841 0.0091838005514164 -0.03978876 0.1107189 0.993055 169 169 169
0.00828123432079564 -0.127094245070245 0.0186578225591796 -0.01407624 0.06514575 0.9977764 116 116 116
-0.0466034667866706 0.112306522441726 0.00591463534774 -0.04120217 0.3250305 0.9448056 169 169 169
-0.0353173791147776 -0.124273752836297 0.0182228656187169 -0.0181292 0.08876705 0.9958874 133 133 133
-0.127711689960614 0.0991285562098636 -0.00641452211659838 -0.96866 -0.1667022 0.1841417 96 96 96
0.0695004258850476 -0.0252629949297389 0.014450634303856 -0.0008910166 0.0871096 0.9961984 133 133 133
-0.0604059551566396 -0.0554913516433029 0.0145511551644217 -0.008906497 0.09472187 0.9954639 111 111 111
-0.0628558961024568 -0.1240077846732 0.0180026383316196 -0.01020387 0.08528987 0.9963039 128 128 128
-0.0387422263905932 0.0772352236809575 0.00780544017006274 0.01180919 0.05576209 0.9983742 137 137 137
-0.0382063627078424 -0.137142559972288 -0.00357905170149059 0.292065 -0.576561 -0.7630697 76 76 76
-0.0965548004423054 -0.1379502307178 0.0180108635075349 0.0005316925 0.07202401 0.9974027 138 138 138
0.0946491051298204 0.0957089361231269 0.00794848448890456 -0.02546709 0.09478185 0.9951723 167 167 167
0.0405301533145033 -0.0190093700023897 0.0137476220061652 -0.01193414 0.1012047 0.994794 119 119 119
-0.0118995204800931 0.0987483305438486 0.00678270033049011 -0.03135579 0.08311693 0.9960464 151 151 151
-0.0579120860693225 -0.00358561548686032 0.0112356625196293 -0.005384624 0.08762898 0.9961386 144 144 144
0.182602344238594 0.0701746877235954 0.000513218775698626 0.9904408 0.104155 -0.09043634 13 13 13
-0.123028254207514 0.0334178622935637 0.00440080959192929 -0.9382631 0.04745754 0.3426517 81 81 81
-0.124894143133393 0.11328120272175 -0.0233814223694536 -0.3929808 0.5593619 -0.7298495 86 86 86
-0.0281643564548182 0.0885776102627545 0.00722339093817431 0.01162745 0.08749563 0.996097 142 142 142
0.181008959198134 0.0796697456950288 0.00927013472318441 -0.003363236 0.08804069 0.9961112 135 135 135
-0.0801398817754613 0.117093008050295 -0.00956443227530782 -0.02275674 0.9347758 -0.3545087 62 62 62
-0.071157318293438 -0.11963083620697 0.0176519330103773 -0.0238011 0.08594377 0.9960157 118 118 118
-0.108376568116521 -0.112805829936343 0.0173361782809981 -0.001406287 0.1015762 0.9948268 118 118 118
0.0654979386012988 0.00280875795551627 0.0125551428349502 -0.006100849 0.07196938 0.9973882 101 101 101
-0.104903371685082 -0.133891404318727 0.0183794235548307 -0.02184161 0.06350726 0.9977424 122 122 122
-0.0684766880107899 -0.0144185999132167 0.0124778636428199 -0.006142621 0.1119108 0.9936993 107 107 107
0.117002446423743 0.111114932525122 -0.0104562855671458 -0.1443167 0.9593157 0.2426646 62 62 62
0.0449641744475786 -0.00401203672808026 0.0131703923524213 0.003204311 0.08944746 0.9959864 130 130 130
-0.124090829203479 -0.0543589783898981 -0.00316815711236604 -0.9391651 -0.07415611 0.3353653 103 103 103
0.0624784700678966 0.011399864222154 0.0127705484756941 -0.01806279 0.09798735 0.9950237 148 148 148
-0.0160325753022554 -0.0642251274116838 0.0153145016265407 -0.01754932 0.08625359 0.9961187 113 113 113
-0.0936961931578371 -0.0162021850559391 0.0122523029127529 0.003388874 0.08931286 0.9959978 154 154 154
-0.0749623478313228 0.0233569144258268 0.0099336112704598 0.001180219 0.09145849 0.9958082 142 142 142
-0.0556830893642364 0.032732309692886 0.00986093193695237 -0.01939803 0.1208436 0.992482 143 143 143
-0.0567354921397791 0.0966894233181592 0.00595603871512651 -0.01465829 0.07381784 0.997164 161 161 161
-0.102946620740081 0.0485637325160562 0.00874215225682015 0.003193609 0.08128063 0.9966862 169 169 169
-0.129250778465735 0.0232683573477281 -0.0136383664666948 -0.8931046 0.01086474 0.4497178 76 76 76
-0.106412149198681 -0.096601939029378 0.0156199834922091 -0.01272999 0.07604629 0.997023 115 115 115
-0.0253496995567521 0.0108169525767225 0.0111280085366965 -0.008934849 0.1117542 0.9936957 101 101 101
-0.12418772730999 -0.0944602516808364 0.0111821353697422 -0.9936959 0.02883616 0.1083371 85 85 85
0.0433080169844153 0.106492889548405 -0.0180360611600774 -0.2363213 0.9535851 -0.1866219 85 85 85
0.0406592890238462 0.0274017896369392 0.0108702361795582 -0.01193869 0.0786989 0.9968269 147 147 147
-0.0145742988548798 -0.0912629847617483 0.0165719768168112 -0.0127765 0.09889038 0.9950163 126 126 126
0.09309582730864 0.0772299889113452 0.00890581142596189 -0.01742453 0.0778752 0.9968109 147 147 147
-0.0968099671438238 0.112761011007503 -0.0211561445731854 0.02316517 0.9916881 -0.1265627 103 103 103
-0.125257834605205 0.00359544009669266 -0.00151913167165194 -0.9630521 -0.02744313 0.2679133 59 59 59
-0.113562182795859 0.110842094273862 0.0054530200318893 -0.0333764 0.2096423 0.9772083 141 141 141
-0.0221925330913255 -0.0396096854752086 0.013974203698989 -0.02283888 0.09066152 0.9956198 129 129 129
-0.125970371589052 -0.11652019697051 0.00333297204499494 -0.9902471 0.0825158 0.1122583 73 73 73
-0.0564695753540143 0.0809809428232584 0.00741377386382444 -0.03443399 0.07183264 0.9968221 181 181 181
-0.125339432942726 -0.0401165762968758 -0.00635784655730873 -0.9999015 0.0140358 3.816887E-05 96 96 96
0.0589517714694827 0.0372242618257315 0.0106064936659901 0.01315239 0.1212404 0.9925361 119 119 119
-0.0396013499631744 -0.147796479313791 0.0189681855223511 0.195472 -0.6963949 0.6905251 115 115 115
0.0816140896555861 -0.0592276941242991 0.0159254961978178 0.3100963 -0.2932205 0.9043573 114 114 114
0.138781375931316 0.106504732195458 0.00747363197332906 -0.0174664 0.1182133 0.9928346 153 153 153
0.182833724730904 0.080457689945993 0.000759904289318269 0.8931974 0.1318949 -0.4298862 18 18 18
0.063147134678835 0.0652380584793795 0.00918934068143645 -0.01001793 0.08784561 0.9960837 130 130 130
0.00968215104146553 -0.0441442492118631 0.014872430743629 0.008235519 0.07959136 0.9967936 95 95 95
-0.00464580004891757 -0.1188214330195 0.018141695480134 -0.01508674 0.0980931 0.9950629 127 127 127
-0.0616105451278297 -0.115704441344954 0.0175049266975482 -0.02592825 0.079784 0.9964749 143 143 143
-0.0483767348851607 -0.0501225268678791 0.014415150375307 -0.0158525 0.07695644 0.9969084 102 102 102
-0.0454738804345169 -0.150307662783993 0.00858000188363992 0.2097688 -0.9653714 0.1550971 64 64 64
0.0870098843478919 0.0510768700251005 0.0104176850947378 -0.01284218 0.0598891 0.9981225 139 139 139
-0.00794245381546488 -0.0548301377217717 0.0150905414109705 -0.0145336 0.06908673 0.9975048 149 149 149
0.166944826132671 0.0519820014297616 0.0110313571085916 -0.04004327 0.109769 0.9931502 132 132 132
-0.0287310688180991 -0.10016387118028 0.0169387002136309 -0.01586029 0.09914146 0.994947 113 113 113
0.120518590878421 0.0126215730191619 0.012984041212375 -0.0275571 0.07859094 0.996526 126 126 126
0.174644053875009 0.112387739513564 -0.0128859878533962 0.898008 0.4275914 0.1036688 29 29 29
0.159454817134155 0.040323053644473 -0.0119346658498584 0.6995569 -0.7143983 0.0159722 47 47 47
0.0329685840272698 -0.107612380482912 0.00851561282702068 0.3422802 -0.5372477 -0.7708496 33 33 33
0.108195134255114 0.0375454422640296 0.0108454502514115 -0.01782 0.0902759 0.9957573 115 115 115
0.0494522727941626 -0.0588869299798807 0.0155265510851522 -0.0137143 0.1030803 0.9945785 169 169 169
-0.0950551085310198 0.0552424461818639 0.00850508175728515 -0.00866835 0.05239159 0.998589 163 163 163
-0.050019123804655 -0.034204874601903 0.0133104788897575 -0.01575193 0.09967458 0.9948954 162 162 162
0.0150683557843256 0.103422776570426 0.00668318739261176 0.01766144 0.134938 0.9906966 148 148 148
-0.0761178601427404 -0.0656542778632772 0.0148519298167497 -0.0127261 0.08540603 0.9962649 111 111 111
-0.0493303956154054 -0.138370580236902 0.0188036987283295 -0.0164087 0.08426456 0.9963083 139 139 139
-0.126607374022714 -0.12064005389107 0.00399982950180588 -0.997721 0.02411289 0.06301944 108 108 108
0.0379910714908143 -0.0994646867958231 0.00437102857607574 0.3684152 -0.5846317 -0.7228251 36 36 36
0.0476249998359115 0.0903524567936764 0.0078862322938181 0.0005856464 0.0621618 0.9980659 143 143 143
0.0757696524346667 -0.0676230440214312 0.00978809898327027 0.6485662 -0.7571142 0.07835791 55 55 55
0.0369325742101438 0.0833399891782123 0.00784464276732635 -0.02908074 0.06796025 0.9972641 138 138 138
-0.0320217107328793 -0.00239336181107652 0.011590725145826 0.01222359 0.06393189 0.9978794 152 152 152
0.180444226757932 0.0625927688777881 -0.0103954019764401 0.6344736 -0.7649969 0.1105578 59 59 59
-0.0306235276575013 0.0949044217999842 0.00701164594909406 -0.01752777 0.101862 0.9946441 156 156 156
-0.0453918653900607 -0.150326234762541 0.0167237732769908 0.2009833 -0.9059977 0.3725236 94 94 94
-0.0386921284822905 -0.0837070781600919 0.0160972302020963 -0.01848608 0.09404764 0.9953961 115 115 115
0.0210093222887715 0.106388660780464 -0.0205196251701369 0.008040319 0.9936376 -0.1123377 111 111 111
0.133666219222976 0.00430359766294908 0.0129234255468682 0.2673144 -0.088623 0.9595254 101 101 101
-0.12154826684272 -0.0469210406719629 0.0110354936130812 -0.9048515 0.04285851 0.4235645 66 66 66
0.0944300874800161 0.0124910373686211 0.0129020386276549 -0.005210209 0.1327932 0.9911301 152 152 152
-0.121887743457513 -0.0671669216691591 0.014039365135362 -0.6118042 0.1715485 0.7721831 213 213 213
-0.0693520101417986 0.114777002148118 -0.0171119705828301 -0.01765068 0.9472151 -0.3201126 89 89 89
0.0946258918763758 -0.0322245409803126 0.0146976348839962 -0.02517477 0.06004927 0.9978779 118 118 118
-0.0867801719165364 -0.0911318026082064 0.0163949056936888 -0.009472606 0.06263635 0.9979914 134 134 134
-0.0319748117640926 -0.12896615485034 -0.00579819263504974 0.2942305 -0.5319653 -0.7940034 62 62 62
-0.0106926941164953 0.0682012901140809 0.00831476185856525 -0.01780731 0.09217274 0.9955838 217 217 217
0.0162893245049576 0.0135595326601525 0.0115757192494507 -0.03775899 0.1148467 0.9926654 114 114 114
-0.0927133886079317 -0.138305391614913 0.0183037487531406 -0.01875491 0.06949971 0.9974056 142 142 142
-0.033818653044406 -0.0120437502192854 0.0122165336960756 -0.006076869 0.09213676 0.9957278 121 121 121
-0.128155413006855 0.0396641007167047 -0.0137432025918378 -0.8827745 -0.01076721 0.4696735 97 97 97
-0.0807142982342006 -0.0795784312000298 0.0154962237975936 -0.00275875 0.08442083 0.9964263 129 129 129
-0.121167993279596 0.0490883540145841 0.00811332577045723 -0.600911 0.05216895 0.7976117 162 162 162
0.115428405170251 -0.0188283894379926 -0.00160463883045123 0.7642645 -0.6346725 -0.1144143 60 60 60
-0.0326641549762272 -0.129422427619976 0.0182431436367607 -0.01670487 0.05597948 0.9982921 134 134 134
-0.0265225555488813 -0.110441505886525 0.0176337201612059 -0.01560958 0.0896517 0.9958509 118 118 118
-0.00607785180739628 -0.0568615683979923 0.0147973944054923 -0.03404576 0.08544233 0.9957613 124 124 124
-0.12275963629061 -0.0564275074250753 0.000118332415292216 -0.9964097 -0.05978617 0.05994495 66 66 66
-0.121928881247133 -0.0653868135841589 0.0134892799548587 -0.685753 0.1850318 0.7039219 184 184 184
0.0810635949717091 -0.0584264637249938 -0.00170978465471794 0.5183359 -0.813506 -0.2636964 57 57 57
0.0639311534779636 -0.0213922372199422 0.0143945068074465 -0.0001057466 0.1005998 0.994927 119 119 119
-0.0730223749352639 -0.0877031753169548 0.0160559284519091 -0.004273927 0.05875274 0.9982634 131 131 131
-0.0766665917596996 -0.0810061773486042 0.0153232069141035 -0.008501161 0.09263398 0.9956639 132 132 132
0.0540651330620288 -0.010811846357504 0.0130665197367714 -0.02218054 0.07712594 0.9967746 114 114 114
-0.12846856316827 -0.150909367011019 0.00390893380523183 -0.9890442 0.001979605 0.1476065 74 74 74
0.0786021530034708 -0.0608326123020513 0.00143104074964548 0.5470695 -0.7839125 -0.2935918 61 61 61
0.0355077054543309 -0.0287337820133891 0.0148770749039112 -0.03672311 0.117243 0.9924241 120 120 120
-0.116047777931158 -0.0234245037352856 0.0120230640653156 0.06770041 0.09369319 0.9932966 110 110 110
-0.0627376777904105 -0.0755211204749457 0.0154348602705467 -0.01691987 0.09451769 0.9953794 128 128 128
0.00290221194876694 -0.104051514746638 -0.00883798536186253 0.4038234 -0.5912501 -0.6981046 48 48 48
-0.0572781285832702 0.0597898126323515 0.00858539969888658 -0.03592989 0.09803472 0.9945342 134 134 134
-0.113938261635025 0.00105471453683892 0.0112223713161562 -0.01821476 0.09166241 0.9956235 114 114 114
-0.0949903608592766 -0.107952457959813 0.016774797691815 -0.01804513 0.09525548 0.9952893 144 144 144
0.121941645629429 0.0384783477647916 0.0119319186387933 -0.00390052 0.05043603 0.9987197 143 143 143
0.0571495841782932 0.0749919664692649 0.00876307605455168 0.001705503 0.09008422 0.9959327 135 135 135
-0.069519314621685 0.0526966843883891 0.00851075914514335 -0.02168794 0.1042782 0.9943117 151 151 151
0.0513215512515508 -0.0973045573778759 0.01761458255919 0.03403661 0.02843527 0.999016 128 128 128
-0.0241861514546537 -0.0585490139153777 0.014974257941838 -0.02053803 0.08838385 0.9958748 115 115 115
-0.00324805168995446 -0.126461889914051 0.0186980791424714 -0.01487739 0.06183915 0.9979752 122 122 122
0.118405723289911 0.000566468309296742 0.013261684079928 0.01107418 0.08603771 0.9962303 119 119 119
-0.0401492130310437 -0.082471275512098 0.0159637197619235 -0.008140071 0.09285991 0.9956459 122 122 122
0.0371271092654355 0.10522861994111 -0.0175631645923266 -0.01205642 0.9908078 -0.1347387 90 90 90
0.132460869006793 0.0181604895790144 0.0130969246697753 -0.005512914 0.06390639 0.9979407 132 132 132
0.0529374287295221 -0.0990846581830749 0.0173215677587006 0.05659735 -0.04594303 0.9973394 131 131 131
0.0420371055355591 -0.0153052837060346 0.0139819380958221 -0.01242216 0.09813111 0.995096 139 139 139
-0.130041085590335 0.102676129112037 -0.0151183789867198 -0.9989974 -0.0256534 0.03668801 102 102 102
0.0433032101498252 0.107769916613202 -0.0102409292833686 -0.1203953 0.9837295 -0.1333466 75 75 75
-0.0145043707285353 0.0702002834828321 0.00795836919196713 -0.02055744 0.07498097 0.996973 159 159 159
0.0949483574430066 0.0471303411140827 0.0104817055291375 -0.006961538 0.0814881 0.99665 152 152 152
-0.0864360678694636 -0.0795548126112089 0.0155106936391491 -0.02200268 0.1093279 0.9937622 134 134 134
-0.0692296058208719 -0.136005624342571 0.0185327927043158 -0.009844102 0.07288741 0.9972916 121 121 121
0.0175360086826457 -0.0245053056401192 0.0137503701719071 -0.008382032 0.08833589 0.9960555 123 123 123
-0.0989786491526685 -0.131263731499579 0.01785998664441 -0.01286906 0.09371202 0.9955162 143 143 143
0.131385436293812 0.111156681464977 -0.00226911660628509 -0.2065035 0.9678407 0.1436688 100 100 100
-0.123661725410153 -0.10440483405385 -0.00245305720596903 -0.9986545 -0.0415433 -0.03103637 61 61 61
-0.122864359724789 -0.0525053717208015 0.00618883459035635 -0.9802197 0.007365876 0.1977753 93 93 93
-0.10252053595923 0.0806542012940237 0.00726960554142667 -0.02211046 0.08931682 0.9957578 158 158 158
0.0999389432916247 -0.0389086697247918 0.0153389598538647 0.1772416 -0.1090907 0.9781026 118 118 118
-0.12556904879855 -0.00759913904162901 -0.00998602843693133 -0.9191535 -0.342462 0.1946191 68 68 68
-0.00835063462840702 -0.0814985281032663 0.0165064240747428 -0.01347604 0.08536144 0.9962589 122 122 122
-0.108650127735517 -0.0304264001121006 0.0124520672241405 -0.003599267 0.08196118 0.996629 130 130 130
0.16157790814538 0.112359731129813 0.00746391554214013 -0.162728 0.5748836 0.8018905 143 143 143
0.0534512763952892 -0.0951533796918738 0.0174656495126881 0.05120874 0.04485492 0.9976802 123 123 123
-0.0519633366557646 -0.0440662231420574 0.0136548795585888 -0.01531824 0.0816096 0.9965466 118 118 118
0.0695469770927337 0.110545640940266 -0.00247972742980698 -0.1899769 0.9636619 -0.1877885 92 92 92
-0.0244670810446552 0.0658400896647866 0.00842748815911123 0.004436994 0.08224832 0.996602 225 225 225
-0.0482087634892399 -0.0771970864946425 0.015643367733543 -0.006636859 0.0940452 0.9955458 134 134 134
-0.0325212230911747 0.103956324816236 0.00642383898256754 -0.009349595 0.06482195 0.997853 155 155 155
0.170283865635894 0.0490253546402366 -0.00373702625394703 0.7416504 -0.6621287 0.1074256 41 41 41
-0.0490077299627447 0.0147926005787886 0.0103454067426921 -0.01547235 0.05101775 0.9985779 131 131 131
0.106178310357419 0.0119862999485914 0.0128781897216509 0.000570469 0.0763282 0.9970826 125 125 125
0.106318966788465 -0.00342062042337954 0.0130959874838013 0.01832155 0.1298416 0.9913654 121 121 121
-0.0448124458758616 0.0660227781889664 0.00838536913514853 0.03069486 0.1781114 0.9835315 217 217 217
-0.123974018402756 0.0420833998279395 0.00110919680997168 -0.9775068 -0.009336602 0.210697 64 64 64
0.114396803288064 0.00409946673973649 0.0132489925082591 -0.02984193 0.08385035 0.9960314 116 116 116
-0.0691254128966297 -0.00954391656533371 0.0117787746404671 -0.004233097 0.09178158 0.9957702 134 134 134
0.180794151597111 0.0863345004069154 -0.00354018205559559 0.8138425 0.5793515 0.04485698 31 31 31
-0.113643855804581 0.116517124462334 -0.00256701469333284 -0.1069319 0.9912457 0.07744393 75 75 75
-0.0107308166062767 0.0859943389832636 0.00735631960447877 0.00159199 0.06706252 0.9977475 135 135 135
0.0474403952739095 -0.0390891271807181 0.0145346145478926 0.008816651 0.06211414 0.9980301 214 214 214
0.0131443928012001 0.0235766576921279 0.0109991615583849 0.02831298 0.0775209 0.9965886 169 169 169
0.0594732713913271 -0.0468537902348041 0.0151071655208115 0.004111416 0.09398586 0.9955651 122 122 122
-0.0896278315479264 0.110065345232646 0.00571929776365174 -0.006258434 0.06417409 0.9979191 154 154 154
-0.126610237571261 -0.00561491906361122 -0.015348964979418 -0.9189852 -0.05001472 0.3911069 87 87 87
0.0896495964602486 -0.00324130449568849 0.0130549716842965 -0.01456929 0.08952825 0.9958777 118 118 118
-0.119033640008172 -0.159305501252868 0.0156715507192004 0.1451296 -0.9481087 0.2828911 71 71 71
0.103575710243426 0.111237099590318 -0.0080059968933483 0.04883488 0.994032 -0.09754789 65 65 65
-0.0845090808099715 0.104796828830097 0.00615981912891295 -0.02132986 0.09447306 0.9952989 162 162 162
-0.129081024183721 0.048118760468449 -0.0110650559143851 -0.9436388 -0.06586932 0.3243564 113 113 113
-0.0292344442918477 0.0300726263426341 0.0101133960806925 -0.006368479 0.09004721 0.9959171 136 136 136
0.0159027767838231 -0.10264903569242 -0.00357669473511005 0.3673026 -0.5339093 -0.7615969 19 19 19
-0.0873565405021137 0.0125440461379931 0.0106345407010749 -0.008160765 0.1055719 0.9943782 155 155 155
-0.0734600526750129 0.0393378857891313 0.00911476291791635 -0.001434406 0.06875514 0.9976326 167 167 167
0.0336296946348857 0.0977789762848333 0.00715278019120144 0.003420433 0.08102892 0.9967059 127 127 127
-0.0204812116990494 0.11363264844038 -0.0101041932263318 -0.04817524 0.988269 0.1449256 95 95 95
0.139054626464823 0.0143489934472736 -0.0144935022809481 0.6284758 -0.7612426 -0.1597741 54 54 54
0.0104068886337214 -0.00454492140101159 0.0126474051921027 -0.009702409 0.08320782 0.996485 107 107 107
0.059900556854968 -0.0183915809419699 0.0139069604769074 -0.0172643 0.1135814 0.9933787 113 113 113
0.0810569763377846 0.0992515704047119 0.00753628922437685 -0.01877804 0.09617602 0.9951872 153 153 153
-0.129732662744962 0.0121560151787474 -0.0149023812280873 -0.9251053 -0.1574857 0.3455118 76 76 76
-0.00145371441626074 0.109798126728581 0.00635178031591879 0.1123964 0.3333709 0.9360721 151 151 151
-0.12552313521442 0.0236791550667463 -0.00959203757909255 -0.9079849 0.003416088 0.418989 39 39 39
0.0115943829957179 -0.0574423104403678 0.0162948536896523 0.007117755 0.05736857 0.9983277 161 161 161
-0.042511113184194 -0.0579082179211936 0.0145041610328499 -0.01336166 0.08848398 0.995988 110 110 110
-0.100928576962166 0.0577934545120951 0.00828910272335726 -0.007680569 0.07487362 0.9971635 188 188 188
-0.0206908889126993 -0.0656028274302733 0.0154128435140544 -0.01634555 0.0928465 0.9955463 116 116 116
-0.0334945251012664 -0.147038198306109 0.0188066716622233 0.2478725 -0.6566848 0.712267 125 125 125
-0.0874072508001495 0.0392750528347088 0.00917171861496052 -0.003769775 0.1020776 0.9947693 169 169 169
0.125818337149228 0.0795388149089478 0.00883130580247216 0.0007009383 0.08027395 0.9967726 128 128 128
0.0464357340608184 -0.0230892352660423 0.0138613634728266 -0.001474501 0.0833348 0.9965205 182 182 182
-0.0831915987864853 0.0429649239527705 0.00893097244381427 -0.03538717 0.1045192 0.9938931 142 142 142
-0.0625274547909014 0.0125147450623841 0.0110098795644324 -0.008009355 0.08793759 0.9960938 138 138 138
0.0138312289386493 -0.0608760266457218 0.0152399817510321 -0.001492253 0.0628003 0.998025 211 211 211
-0.113851649092253 -0.136152799380232 0.0180935561881985 -0.02054513 0.04216237 0.9988995 177 177 177
-0.11278158756509 -0.0974153601418328 0.0161256737687089 -0.00539201 0.05724992 0.9983453 114 114 114
-0.0623582882187967 0.0416950111655496 0.00936890341835089 -0.01458257 0.07938571 0.9967373 113 113 113
-0.107454215037267 0.0132684145034765 0.0106722369126382 -0.01402689 0.05791476 0.998223 120 120 120
0.107284352083822 0.0787641595336424 0.00941979173079177 -0.02340436 0.09912004 0.9948002 133 133 133
0.0558155487405541 -0.0687282463842547 0.0164990046366638 0.01431705 0.1104841 0.9937748 118 118 118
0.165363291956209 0.0517645167553593 0.0108262761046236 -0.02640581 0.08501282 0.9960299 127 127 127
-0.0276877944318958 -0.067056062259639 0.0153445590628419 -0.01106735 0.07710519 0.9969615 147 147 147
0.0309020487236848 -0.106420697689592 0.00685045157270689 0.3162292 -0.5183787 -0.794533 40 40 40
-0.103122072553764 0.114015030354144 -0.016830998516128 0.2388209 0.9324465 -0.2711238 74 74 74
-0.0355222768734789 -0.145556423290029 0.0190776745734209 0.137559 -0.3726605 0.9177154 128 128 128
0.0602010299382754 -0.00846946333297494 0.0129117494140836 0.02908111 0.092963 0.9952448 113 113 113
0.0678447403864639 0.0590385479528701 0.00948840201287918 0.001705663 0.1365951 0.9906255 150 150 150
-0.0611960021056428 -0.0779587593421773 0.0155846623398439 -0.02143887 0.09328343 0.9954088 136 136 136
-0.0367228425284887 -0.0257060533508804 0.0131919347359864 -0.0268692 0.06970825 0.9972055 127 127 127
-0.088995506479409 0.0549970878709851 0.00857880934249794 -0.006615052 0.08657653 0.9962232 148 148 148
-0.0800062955750473 0.0827483702012382 0.00713765626398591 0.009608371 0.07908873 0.9968213 127 127 127
0.187897567320748 0.0854646874695792 -0.0118447090943251 0.9140913 0.3164494 0.2535683 41 41 41
-0.0130644885049647 -0.108255518263249 0.0177316034789995 -0.0243091 0.05508585 0.9981856 111 111 111
0.0570493607003191 0.0851458510289851 0.00816597509355013 -0.01001032 0.07199885 0.9973545 130 130 130
0.0339279739596272 -0.0272131203130195 0.0145317869406877 -0.01053797 0.1236184 0.9922739 122 122 122
0.14133899818137 0.0722655128921477 0.00954372183352489 -0.0296163 0.08674889 0.9957899 133 133 133
-0.0897663537592031 0.0208421350110481 0.0103336051342787 -0.0153967 0.08629398 0.9961507 147 147 147
0.0448496261679634 -0.0146431812451246 0.013961718417847 -0.01779688 0.07408376 0.9970932 128 128 128
-0.112268176537793 0.118303974210207 -0.00984364822728129 -0.1169535 0.9782862 0.171108 68 68 68
0.181566158304414 0.0590944399823863 -0.00616925972068041 0.6889005 -0.7192466 -0.09000229 43 43 43
0.0321044384344582 -0.0393402468568811 0.0154295089420667 -0.01771956 0.08564507 0.9961681 124 124 124
-0.00379780385039052 -0.0854195446315276 0.0167640567982373 -0.01665252 0.08838808 0.9959469 118 118 118
0.0505366513734415 -0.0480175242527623 0.0149087716677233 -0.02312418 0.09041675 0.9956355 176 176 176
0.0632449503281949 0.109661001664143 -0.0147178512060996 -0.1539456 0.9864711 -0.05635256 76 76 76
-0.0570152523213594 -0.0876156648472759 0.0161294215411138 -0.007363135 0.08585335 0.9962806 106 106 106
-0.0186006219968691 0.111418341934077 -0.0162339640196852 0.09132641 0.8398524 -0.5350771 104 104 104
0.0958241789093779 -0.0425880879148175 0.00186260366737692 0.7882143 -0.5870085 -0.1847678 41 41 41
0.0271292878838998 0.0780484090038078 0.00780471152695711 -0.01226099 0.09335681 0.9955572 135 135 135
-0.1238418596782 -0.0314536252003046 -0.0121469436740632 -0.9848955 0.141661 -0.09956443 76 76 76
-0.0217189686986214 -0.0203295864169699 0.0130280059946074 -0.01217694 0.07825724 0.9968588 130 130 130
0.0166233316631355 -0.00670274206105348 0.0126835586151654 -0.02059297 0.1113896 0.9935634 114 114 114
-0.0926522515494741 0.0829925633550013 0.0070799058522116 -0.005291379 0.07806709 0.9969341 157 157 157
-0.0542619964426418 -0.0576519541794138 0.0144899419873108 -0.01468712 0.09683942 0.9951916 137 137 137
0.0682973651412431 -0.0359324208512211 0.0144918045826228 -0.003934895 0.08999258 0.9959347 113 113 113
-0.0423908099390522 -0.0343896638106462 0.0133505255773509 -0.04271451 0.04020631 0.998278 167 167 167
-0.0707944124965232 -0.0275351502103189 0.0130068532296291 -0.01924156 0.07016101 0.9973501 126 126 126
-0.0403704909516522 0.0622689157186749 0.00828985636209587 -0.005534092 0.08426806 0.9964278 141 141 141
-0.0972935998892364 -0.155264183164008 0.00582911765609373 0.3392487 -0.9078344 0.2464693 73 73 73
-0.0227663210657825 -0.120408430926533 0.0181483175704107 -0.01242257 0.08282032 0.9964871 131 131 131
0.00515672853744831 0.110139571207769 -0.00820298601816369 0.2200594 0.9722127 -0.07985167 34 34 34
0.0357232369279605 -0.0985651258595024 0.018365791541039 -0.02251318 0.0739185 0.9970101 124 124 124
0.0341011511156737 -0.0706683583689605 0.0161175990114876 -0.006743965 0.09112637 0.9958165 194 194 194
-0.0965513304717993 -0.0365383815493987 0.0134672491875577 -0.009463307 0.07920495 0.9968134 142 142 142
-0.0796496691523376 0.0170470521035277 0.0106190913749597 -0.01837325 0.06603226 0.9976483 179 179 179
-0.093687474768464 -0.114218324085367 0.0172097342505005 0.0089472 0.07047738 0.9974732 128 128 128
0.0799076788736011 -0.0272379382784427 0.0142733877411494 0.01625474 0.0277851 0.9994817 89 89 89
-0.0533061980002845 0.0737973550236075 0.00792784240943548 -0.014717 0.09777305 0.9950999 158 158 158
-0.0640100976226738 -0.0241250673959748 0.0125684142101631 -0.01202623 0.05864225 0.9982066 127 127 127
0.0450482461281847 -0.0950308880075084 0.0177443537792347 -0.004721829 0.1054523 0.9944131 122 122 122
-0.0355176961565047 -0.0215872388153524 0.0130227135453539 -0.02606905 0.07751512 0.9966503 130 130 130
-0.0703884541639244 -0.0560886550772313 0.0143727341511444 -0.01925914 0.104733 0.9943139 109 109 109
-0.0578765367987122 0.0401331386015904 0.00882825655038602 -0.0002149701 0.03190519 0.9994909 134 134 134
7.764770078178E-05 -0.0444506411966799 0.014519892153186 0.0078071 0.07455135 0.9971866 123 123 123
-0.0509337017993892 -0.0839531638436666 0.0159469124663191 -0.01307566 0.0831324 0.9964527 138 138 138
0.0435336865978793 -0.0728681437102028 0.0162484217405157 -0.0001518238 0.1059279 0.9943738 208 208 208
0.128602014314827 0.0595636167597466 0.0102429114732445 0.008726516 0.06603044 0.9977794 138 138 138
-0.0922687190147335 0.00855151168181578 0.0109757586238478 -0.02268523 0.08243846 0.996338 176 176 176
0.100451787727453 -0.0234722347715035 0.0143283019650759 -0.01086638 0.09455878 0.99546 113 113 113
0.179309537264363 0.0922964286269852 -0.000399273658437366 0.9074332 0.03855312 -0.4184241 22 22 22
-0.0223020273412133 -0.0823377945586716 0.0162256291009061 -0.003695557 0.0865246 0.9962429 109 109 109
-0.0530561623060286 -0.10363371165242 0.0169030643919434 -0.0183876 0.09036323 0.9957391 120 120 120
-0.126871101489292 0.0962942728450831 -0.00785143322412454 -0.9536898 -0.130903 0.2708139 60 60 60
0.161308299096709 0.0621710803790603 0.0101816391744146 0.009841819 0.06541047 0.9978099 138 138 138
-0.0214290446945851 0.0155559817717073 0.0105275256601286 -0.004055797 0.09337357 0.9956229 117 117 117
-0.111851072943334 -0.112054663987001 0.0174655259579128 -0.0299391 0.06957289 0.9971275 80 80 80
-0.128011157719496 -0.104201913558008 -0.00809969347290776 -0.9996105 -0.02705798 0.006840316 72 72 72
0.044607372648354 0.0230345135585692 0.0117048588386445 -0.03589997 0.1367195 0.9899591 112 112 112
-0.00714125000460064 -0.122820309344523 0.0183279168065442 -0.007195788 0.080622 0.9967188 129 129 129
0.140202646981623 0.0135353072993647 -0.000553202302912559 0.665655 -0.7316579 -0.1469016 43 43 43
0.0548204394180385 0.111734380629161 0.00680328491150112 -0.002293162 0.4441904 0.8959295 184 184 184
0.0129214988584547 -0.108434456753782 -0.000972435371672103 0.34672 -0.6061032 -0.715838 33 33 33
-0.0693701418907267 -0.151896718751774 -0.00203285552409313 0.03378911 -0.9982672 0.04817665 66 66 66
-0.0741358023522365 -0.0615808739065735 0.0147130521550284 0.001548533 0.08959791 0.9959768 134 134 134
0.00899706556861868 -0.12348967239562 0.0189098422269587 -0.01053897 0.03199826 0.9994324 137 137 137
-0.114862969851864 0.0753898069098942 0.00728300600835577 0.003521229 0.08759195 0.9961502 151 151 151
-0.12502467776874 0.00130665360297821 -0.000792789495824425 -0.9556885 -0.158457 0.2480946 83 83 83
0.00345580330513484 -0.0361757750140899 0.0141039415747116 -0.01475646 0.07544439 0.9970408 217 217 217
-0.0640898094028237 -0.0861695721880895 0.0160022842574226 -0.00889573 0.08775143 0.9961027 130 130 130
-0.123578990800946 -0.0381650571996368 -0.00027757329764086 -0.955783 -0.01630987 0.2936203 57 57 57
-0.0510216689216454 -0.0734027625114504 0.0153320698233157 -0.009933412 0.08143904 0.9966288 110 110 110
0.031192861300912 -0.105058357296215 0.0178446411487669 -0.0112841 0.08819783 0.996039 122 122 122
-0.124265959876664 -0.0647713927646008 0.00597801852539803 -0.9787413 0.1157043 0.1693459 75 75 75
-0.0261571265108518 -0.127037689747812 0.0187770592585217 -0.001146429 0.06838448 0.9976584 139 139 139
-0.10273209403734 -0.157443581126766 -0.00169088522270983 0.2845558 -0.9540617 0.09377804 46 46 46
0.0365920549829477 0.0180457707401209 0.0119101859268946 -0.03749382 0.113035 0.9928833 127 127 127
0.0581336744466954 -0.075189377283148 -0.00168044356411598 0.6408143 -0.5634687 -0.521402 18 18 18
0.00313215096963559 -0.0925523339832657 0.0169054272920492 -0.003731893 0.0884468 0.9960739 109 109 109
0.0482300312401733 0.00727802008425038 0.0119263052909317 -0.002882271 0.07289665 0.9973353 180 180 180
0.189112989503684 0.0785578515239387 -0.0110714471369322 0.5260452 0.6263525 0.5752903 26 26 26
-0.0354662245820083 -0.0033511685515164 0.0114374241190962 0.007808965 0.05904612 0.9982247 138 138 138
0.0437525945285608 -0.0693751762819579 0.0161757120783462 -0.0217867 0.09603807 0.9951392 214 214 214
0.0947998814484086 -0.00256932128153542 0.0140088592204511 0.008707399 0.1255649 0.9920472 125 125 125
-0.0992318633625591 -0.139497303211367 0.0184088777247928 -0.01131874 0.06316892 0.9979386 131 131 131
-0.123724497086297 -0.0248312741118122 -0.00461404105914723 -0.9937769 0.07012556 -0.0865443 78 78 78
-0.103471655568161 -0.158162366926783 -0.0078058217961097 0.2305226 -0.96553 0.1208766 42 42 42
-0.0948761170169903 -0.0494378471550601 0.0133271659482771 -0.01964583 0.08975314 0.9957703 114 114 114
-0.101903586375627 -0.137578928142096 0.0179157805547926 -0.004575522 0.0496872 0.9987543 124 124 124
-0.123815601320112 0.0612281971950568 -0.00211915174378435 -0.9965626 0.08276943 0.00349983 141 141 141
-0.130728727636386 0.110708276524463 -0.0145278166606295 -0.9400369 0.2161801 -0.263812 115 115 115
-0.0743742387251933 -0.0680031317431398 0.0150266282184571 -0.02309026 0.05848907 0.9980209 93 93 93
-0.0444701718409075 -0.0923513031105139 0.0166087511228299 -0.01305192 0.08367765 0.9964074 146 146 146
-0.0821068624399957 -0.153118748103598 0.00634388191213797 -0.02305806 -0.9928781 -0.1168818 68 68 68
0.0994760927493326 -0.0401456261216273 0.00889559242302734 0.8074726 -0.5834379 0.08710991 28 28 28
0.0725943452377833 -0.0568861562527225 0.0154921167725259 -0.01315193 0.07653428 0.9969802 103 103 103
-0.124603668173922 -0.00782450698636894 -0.0116081734519507 -0.9721747 -0.1038961 0.209957 62 62 62
-0.0268728566939365 -0.0902005139290674 0.0164284977525333 -0.005236668 0.08319709 0.9965193 117 117 117
-0.077401033655246 -0.139472602617885 0.0186283052111814 -0.01065381 0.102261 0.9947006 130 130 130
-0.0916589087402546 -0.0575995174142867 0.0143378891848511 0.001454296 0.08805225 0.9961148 145 145 145
-0.0923510930627069 0.117645819393938 0.00362669289473863 0.05739832 0.9434655 0.3264631 66 66 66
0.00552192664871121 -0.104848110446189 0.0174103251696884 0.01044701 0.06164412 0.9980435 102 102 102
-0.0944866120478862 0.103541459812307 0.00597187425516846 0.005572448 0.1008072 0.9948904 188 188 188
-0.000826742779519885 -0.122832008217837 0.0183611902161955 0.000384637 0.08914275 0.9960188 130 130 130
0.167569282608796 0.098284578850353 0.0083119295213557 -0.01243662 0.09059342 0.9958103 141 141 141
0.0944636753948613 0.0111068424360647 0.0122681997677595 -0.0007083601 0.07359024 0.9972883 110 110 110
-0.119740706347322 0.00122520751934885 0.0112207061767207 -0.4740056 0.05859104 0.8785703 123 123 123
-0.128784859676675 0.0755687786680597 -0.0144378029262905 -0.8299655 -0.03413945 0.5567691 115 115 115
-0.0367023657439385 0.0525492347556218 0.00855315609789037 -0.004226477 0.07309084 0.9973164 116 116 116
0.0594904087410915 -0.0493038911082968 0.0152132620140812 0.001683798 0.08799415 0.9961196 112 112 112
0.0345827004612527 -0.0697172260541021 0.0171135173558134 -0.007768979 0.08841242 0.9960536 103 103 103
-0.0158274639182057 -0.129555405101761 -0.000234751939163447 0.4379837 -0.5646266 -0.6995478 47 47 47
-0.0842034891597454 0.114632177018361 -0.0151267038174991 -0.09915596 0.8931066 -0.438781 59 59 59
0.0691918242389733 -0.0449411721291029 0.0151441866208256 -0.01137584 0.07402594 0.9971914 116 116 116
-0.00510417110028061 -0.106438942618863 0.0172218732154517 -0.02574559 0.07256982 0.997031 119 119 119
0.097272242320394 -0.0385323936058377 -0.00362756044092027 0.6708658 -0.7034746 -0.2346538 57 57 57
0.0434610332369636 -0.0784864077674847 0.0165248865131577 -0.007264337 0.04774596 0.9988331 149 149 149
-0.0248893096867937 -0.00930621126407116 0.0124090428959204 -0.01729854 0.09011117 0.9957815 146 146 146
-0.102420664244025 -0.0740288971821996 0.0151751564327266 -0.02875536 0.06380481 0.997548 136 136 136
-0.09298755063081 -0.0267662254344059 0.0126546309143303 -0.002150768 0.06357271 0.9979749 79 79 79
0.0218016188481505 0.108509080196275 -0.0055820034456055 -0.0885365 0.9643549 -0.2493609 88 88 88
-0.0981410745866731 0.105542170385285 0.00578494741747954 -0.01021796 0.09397806 0.9955218 161 161 161
-0.0878662892902995 0.0804969707139311 0.00694947183909125 -0.01344093 0.07409376 0.9971607 147 147 147
-0.0850556112267322 -0.0672395437624982 0.0152403048829796 -0.02395669 0.08679291 0.9959383 144 144 144
-0.130387407600758 0.0885094903746564 -0.0130214448919968 -0.9387228 -0.2139357 0.2702423 90 90 90
0.0611263612694672 -0.083121928352218 0.0169103292479352 0.2569284 -0.1332892 0.9571947 128 128 128
-0.0811858204209568 -0.0941909345140541 0.0155865165789836 -0.02321563 0.08244798 0.996325 152 152 152
-0.0365794520504197 -0.132174658222728 0.0185460299795243 -0.002616447 0.07999272 0.996792 125 125 125
-0.0500870387318446 -0.0382551164599103 0.0138586180794291 -0.007377977 0.1009986 0.9948592 121 121 121
-0.0365590908924063 -0.0940443109870073 0.0166818693808834 -0.005703678 0.09400652 0.9955552 133 133 133
-0.090208707332071 -0.155724441713345 -0.00674705664230035 0.2910076 -0.9181114 0.2690464 52 52 52
0.0476234691341324 -0.0855656125847517 -0.00407170893724051 0.5206743 -0.6616275 -0.5395807 64 64 64
-0.0942568614703163 -0.0877342436410002 0.0159268221781301 0.0001796068 0.09236661 0.995725 117 117 117
0.0316981322748171 -0.0426592440477953 0.0145470055879219 -0.009931174 0.05756109 0.9982926 113 113 113
0.0459431311830338 0.00378709497050034 0.0123012063365829 -0.01970449 0.0667526 0.997575 213 213 213
-0.0104259323214955 -0.0661099160449676 0.0156318722791392 -0.01265937 0.09278797 0.9956054 115 115 115
-0.0331629464375351 -0.0679485554145431 0.0148446728488068 -0.007569028 0.07219736 0.9973617 128 128 128
0.0544349251540512 -0.051340615135306 0.0153397851642767 -0.02358876 0.08303878 0.9962671 117 117 117
0.0406631606378163 0.0749278926210843 0.00850923621509161 -0.006306972 0.08625611 0.996253 130 130 130
-0.10726332502045 -0.123230012258872 0.0176486154032083 -0.009181131 0.08350176 0.9964653 111 111 111
-0.0355701160650781 0.0678633124575965 0.00806892052119873 -0.008806635 0.0746188 0.9971732 190 190 190
-0.0965794770748449 -0.0975627177849212 0.0162927332358732 -0.01745201 0.08819664 0.9959502 133 133 133
-0.0366936892010956 0.113549653691924 -0.0105976948513667 0.1493272 0.979969 0.1317652 95 95 95
0.0756931194249588 0.0691755874274647 0.00874228617389874 -0.02955162 0.096027 0.99494 159 159 159
-0.0387939563078243 0.109857524986294 0.00590774273503542 0.04991508 0.1764891 0.9830362 144 144 144
-0.0747451878984344 0.0547433562428095 0.00805663144193158 0.01326412 0.08885045 0.9959567 132 132 132
-0.0203665324307793 -0.0717167300464636 0.0157409105145992 -0.01612936 0.08473134 0.9962733 139 139 139
-0.0388796789358528 -0.124185713656376 0.018202363725737 -0.01351885 0.09207186 0.9956606 130 130 130
-0.0292257568492558 -0.146316316219974 0.0168708978712853 0.3086386 -0.7869726 0.5342436 84 84 84
-0.124479947349349 0.0308877949824824 -0.00368059562363876 -0.993812 -0.03163682 0.1064749 72 72 72
-0.101928763014888 -0.156692277219408 0.00763261239252666 0.4360631 -0.8882701 0.1443098 85 85 85
-0.075595615932935 -0.0511601832002482 0.0143050121333619 -0.006644958 0.08058882 0.9967253 128 128 128
-0.00275535756561385 0.0877311744932607 0.00716558903364214 -0.009985819 0.09268381 0.9956455 137 137 137
-0.0574037116784829 0.0166781761567685 0.010582326651624 -0.002239732 0.08464012 0.9964091 108 108 108
-0.112768649046486 0.0677420372563566 0.00760164856921947 -0.007096931 0.07092526 0.9974564 188 188 188
-0.048794312697291 -0.0966478276967002 0.0165701692575509 -0.01742775 0.08246692 0.9964414 142 142 142
-0.10430352559422 0.114331027002436 -0.017361011592718 0.2299151 0.929828 -0.2873306 56 56 56
-0.0827305254600297 0.0947765939100425 0.00635744720039852 -0.01081176 0.1084783 0.99404 149 149 149
0.0793326331120847 0.0972366077481925 0.00764224874846425 -0.02034441 0.09735078 0.9950421 139 139 139
0.00926234842177753 0.107768045639827 0.00685088960300356 -0.02381554 0.3774566 0.925721 155 155 155
-0.0115605745444582 -0.0404703976249658 0.0140524570391461 -0.005456085 0.08672438 0.9962174 90 90 90
0.0307188784929258 -0.118670802598758 0.0170711845512551 0.09680089 -0.2199819 0.9706892 113 113 113
-0.120732117565451 -0.15298448797228 0.0189316985815554 -0.05398817 0.09361418 0.9941437 138 138 138
0.002009759356975 -0.0102662017736355 0.0126976992855013 -0.008632814 0.09753852 0.9951943 109 109 109
-0.0135479887454391 -0.108255207042501 0.0172069157377641 -0.03281977 0.05144545 0.9981364 143 143 143
0.110275398763638 -0.0140702251882854 0.0136686480233579 -0.01330523 0.09712836 0.9951829 115 115 115
-0.0581283250771112 -0.151278662077446 0.00676376444073554 0.1258327 -0.9912584 0.03965923 66 66 66
0.0461638122842836 0.0444860555659241 0.010183306138544 -0.005924667 0.1013607 0.9948321 83 83 83
-0.122177268543166 0.105851261343124 0.00555432111366658 -0.251788 0.03554854 0.9671293 137 137 137
-0.112724426476792 0.116613561078291 -0.000403636962706178 -0.1052252 0.9838746 0.1446319 55 55 55
0.0687163384121463 -0.0756846626567091 0.0145666218562038 0.6243151 -0.4657554 0.6271384 102 102 102
0.0368043568208305 0.0692039182752828 0.00924950863394372 -0.005324207 0.08444175 0.9964142 220 220 220
-0.119459705673406 -0.134997683656631 0.0177943084154471 -0.006859409 0.05675094 0.9983648 132 132 132
0.152773518909999 0.112007303094059 -0.00112626538531474 -0.1389154 0.9895542 -0.03853701 71 71 71
0.0881559348245837 -0.0131728577495194 0.0139546371313452 -0.002257843 0.09196378 0.9957598 114 114 114
0.112516599325576 0.0202445222810552 0.0122771061791799 -0.02953978 0.1032405 0.9942177 134 134 134
0.116440523064852 -0.0189541702397613 0.00634467793585594 0.8017291 -0.5899277 -0.09599826 59 59 59
-0.126193112537397 -0.0875172276940588 0.0118363115657778 -0.9773569 0.04535845 0.2066788 74 74 74
-0.0174698796448276 -0.0165375912847148 0.012682118848639 -0.007256396 0.08194603 0.9966103 125 125 125
0.0523408870756334 0.0117539580690789 0.0128614820747711 0.004056992 0.05670574 0.9983827 140 140 140
0.022284403429339 0.0279340218815103 0.0115896493828459 -0.0008617902 0.08046159 0.9967573 105 105 105
0.16528805034057 0.10654377185925 0.00798649426115997 -0.001421296 0.0847512 0.9964011 144 144 144
-0.055351858479838 0.0545196635265592 0.00893482864841766 -0.03942681 0.08320274 0.9957524 142 142 142
-0.0249796720319078 0.0963949406700111 0.00664475976283468 -0.002936594 0.08619478 0.996274 150 150 150
-0.0643472054685394 -0.117852573469926 0.0177824216772281 -0.01212809 0.09135657 0.9957444 113 113 113
0.174985472426293 0.112769886224354 -0.00864609195389265 0.8997465 0.432097 0.06122437 45 45 45
-0.0396249419102317 -0.0122300747354696 0.0122398262704675 -0.004046281 0.1144034 0.9934261 119 119 119
0.0747065838806793 0.00902595610526835 0.0127578755553014 -0.001954694 0.05449941 0.9985119 135 135 135
0.020980453640095 -0.126462007157141 0.0176240215772347 0.1693994 -0.06804403 0.9831957 137 137 137
-0.0989177010042515 0.0648671369584111 0.00810097184314715 -0.01974914 0.08132429 0.996492 159 159 159
-0.0989466321838395 -0.0650922436918153 0.0145456504488177 -0.01543315 0.0925178 0.9955914 136 136 136
0.0691602852510387 0.00601451976531164 0.0121263375775665 -0.01186427 0.09369259 0.9955305 108 108 108
0.0411722824360179 -0.0192548055548334 0.0143893271171617 -0.02120033 0.1128618 0.9933845 111 111 111
0.178976332300251 0.110290967873864 -0.0184021452276731 0.8834373 0.3858312 0.2658436 51 51 51
-0.120878613716384 -0.0206037742583705 0.0120455822295189 -0.4488242 0.1062854 0.8872769 172 172 172
0.00154335345647616 -0.0430991527055598 0.0142706073312659 -0.02320843 0.0505909 0.9984497 163 163 163
-0.0335049440920179 -0.142363287302237 0.0192242750053002 0.05621109 -0.05954674 0.9966416 129 129 129
0.0345311019911174 -0.116477296599656 0.0180475468577196 0.1429192 -0.1320041 0.9808919 133 133 133
-0.125228841760818 -0.128323460057178 0.0106775205149504 -0.998482 -0.009358976 0.05427754 128 128 128
-0.125113411663658 -0.0417999619243001 -0.0138431852487459 -0.9973513 0.05955669 -0.04175311 139 139 139
-0.0496821535966625 0.0375133556406257 0.00971539655324205 -0.02074752 0.0688291 0.9974127 188 188 188
0.153086309490036 0.102370219473738 0.00809459174431562 -0.01488379 0.0950705 0.9953592 137 137 137
0.180597216158023 0.0818696210358878 0.0093367739969776 0.01745922 0.06514312 0.9977232 131 131 131
-0.0273224223345052 0.0499606387421596 0.00871610680272683 -0.01591544 0.08023567 0.9966488 131 131 131
0.1898517439998 0.0671820275068529 -0.00619239031566082 0.7851259 -0.5953779 -0.1705948 46 46 46
-0.0434328232405934 0.046277750256529 0.00905413538272679 -0.02979777 0.08423122 0.9960006 125 125 125
-0.127281740290009 -0.116801382438419 0.0115517780189831 -0.9953237 0.08808807 0.03963942 64 64 64
0.0949479942472218 0.0366133266583004 0.0110713023872585 -0.01953209 0.1038059 0.9944057 142 142 142
0.00254964316267237 -0.120348101616062 0.0181588394512424 0.001463475 0.08945894 0.9959894 105 105 105
0.0518268089106289 0.0358587731007987 0.0105671253322237 -0.0282974 0.08206771 0.9962249 137 137 137
-0.092173396404702 -0.144471595402797 0.0128371227921467 -0.003654956 0.07576515 0.997119 93 93 93
-0.124848597116503 -0.0886709966485821 0.00343241337309183 -0.9980205 -0.04678961 0.0420224 88 88 88
0.127841548585996 0.00241901096906627 0.0133526531104786 -0.005241562 0.1098403 0.9939354 116 116 116
-0.0359903695520887 0.109683350595489 0.00569217052903576 0.02929968 0.3022473 0.9527792 158 158 158
0.097187794498611 0.110966081041828 -0.00713575410198383 0.02596364 0.9991 -0.03354219 61 61 61
-0.114269456375548 0.101309926850146 0.00583409311088609 -0.00272036 0.08223701 0.9966091 142 142 142
-0.0864877751185336 0.113450355197066 -0.0210117823881468 -0.0782999 0.9758266 -0.2040381 94 94 94
0.0138202667350489 0.0234611769830892 0.0111074211480093 0.02856395 0.06745832 0.9973131 193 193 193
0.0394874180555147 -0.0858857557663144 0.0176421811875505 -0.01089838 0.09409216 0.9955038 117 117 117
0.0964018966451752 -0.00204512816920466 0.0133608739413177 0.01562428 0.131413 0.9912046 136 136 136
-0.0963543125818898 0.0558622294179609 0.00841864200737855 -0.02275406 0.05927492 0.9979823 159 159 159
0.0728411862067395 -0.0658525681256159 -0.000197237487462337 0.6424448 -0.6672394 -0.3769034 62 62 62
0.00836913357633118 0.10984265919437 -0.00493607387626049 0.1705984 0.9773703 -0.125074 89 89 89
0.0264712063235457 0.0115529533791734 0.0116333850733475 -0.0326949 0.0943061 0.9950062 117 117 117
-0.0250269574689732 -0.12990459596318 0.0181477225533323 -0.01364603 0.05831949 0.9982047 140 140 140
-0.126597165238037 -0.0985950259206703 -0.00571518873902879 -0.95859 -0.03968476 0.2820111 115 115 115
-0.0726337147209966 -0.108496295634271 0.0174373385116115 -0.0204087 0.07008785 0.997332 127 127 127
-0.109090027023334 -0.131156529499639 0.0179189654426664 -0.03086741 0.08491261 0.9959102 151 151 151
0.0573888509615013 -0.0809673108657856 0.0169218175826707 -0.0001556815 0.06546856 0.9978547 125 125 125
0.172213039307402 0.0526282310084185 -0.0170034856496223 0.7369776 -0.616961 -0.2760855 60 60 60
-0.0584604908014559 -0.0881949264864301 0.0159662573927197 -0.004950721 0.08273787 0.996559 121 121 121
0.0408119207532069 -0.0213051320757482 0.0135222414893685 -0.000355843 0.1007346 0.9949133 122 122 122
-0.064620682649047 0.0292375010704893 0.0100282780721733 -0.01296462 0.1359149 0.9906357 127 127 127
