ply
format ascii 1.0
comment File exported by Rhinoceros Version 7.0
element vertex 479
property float x
property float y
property float z
property float nx
property float ny
property float nz
property uchar red
property uchar green
property uchar blue
end_header
0.0460265147510026 0.0124514329696211 0.0219196067766178 -0.4731497 0.6701754 0.5718341 102 102 102
0.0473082867482346 0.0117180908779843 0.022516603155009 -0.4741471 0.6754833 0.5647183 45 45 45
0.0457482720072382 0.0140009907182778 0.0163655598025664 -0.3729376 0.6917459 0.6183891 97 97 97
0.0464676986936445 0.0140662743578933 0.0251017754618171 -0.4489456 0.6237243 0.6398561 113 113 113
0.047094474133365 0.0156252234741044 0.0262188157924755 -0.4965123 0.5406714 0.6790803 106 106 106
0.0465974549838672 0.0163315694384006 0.0243141817360023 -0.4487464 0.619835 0.6437633 49 49 49
0.0474545070164289 0.01057828025387 0.00601302101105992 -0.139707 0.3120628 0.9397333 187 187 187
0.0469959285428803 0.0146066141479376 0.0150397287400215 -0.3603284 0.6619757 0.6572303 33 33 33
0.0433579222036937 0.0169609335307596 0.0123156532106904 -0.2169291 0.0838839 0.9725766 86 86 86
0.0429938055885488 0.0178125315856271 0.0125894236734022 -0.2052971 -0.02755717 0.9783117 105 105 105
0.0441756010690662 0.0177882741683056 0.0139015147704108 -0.284436 0.1058719 0.9528312 110 110 110
0.0462314961784873 0.016671682589343 0.0145196144830911 -0.2630293 0.375774 0.8885998 158 158 158
0.0426380121781311 0.0195840563824424 0.0141084759349621 -0.2224134 -0.03408907 0.9743563 72 72 72
0.0448685832401203 0.0202487118797173 0.0174173855381933 -0.2668999 0.3452684 0.8997523 195 195 195
0.0440950517866625 0.0217509027378101 0.018098977272431 -0.2795542 0.2847999 0.9169179 167 167 167
0.0449723007877703 0.0196594450770274 0.020753453325948 -0.3514937 0.549526 0.7579402 112 112 112
0.0448324168597942 0.0200313141698475 0.025332679252381 -0.4578049 0.5225598 0.7192676 118 118 118
0.045697670934028 0.0194543385155025 0.0328370909651423 -0.4219715 0.6131481 0.6678244 22 22 22
0.044694607475825 0.023556067010107 0.0376068003965274 -0.3392201 0.6876648 0.6419088 20 20 20
0.037613511661339 0.0289791154013362 0.0190873834018082 -0.4149479 -0.2508951 0.8745684 75 75 75
0.0404769465193602 0.0283686574405345 0.020863810619553 -0.5016662 -0.1367373 0.8541862 80 80 80
0.042733037204489 0.0260305941371012 0.0207509114692628 -0.4513909 0.1704349 0.8758985 80 80 80
0.0358109055187867 0.0348189685466981 0.0219171337275904 -0.4150772 -0.3477161 0.8407167 61 61 61
0.0381407267313065 0.036414246545568 0.023763059311429 -0.4524834 -0.42009 0.7866278 57 57 57
0.0427493150246554 0.027718432971617 0.0226697988629993 -0.4466002 0.3129467 0.8382199 113 113 113
0.0434878466687407 0.0278033354047783 0.0238164822090364 -0.4529009 0.4005871 0.7964991 198 198 198
0.0434512322633114 0.0282577562933369 0.0279966399983673 -0.3544319 0.5175004 0.7788269 94 94 94
0.0426144014616656 0.0320025993650593 0.0228806805118157 -0.4674487 0.1645917 0.8685628 41 41 41
0.044986723694425 0.0241944641403454 0.0282079938392846 -0.4315852 0.4859155 0.7600134 132 132 132
0.0463250150660768 0.0229632892062782 0.0322692766841708 -0.4048535 0.6051939 0.6854444 45 45 45
0.0461533232191731 0.0248047362897036 0.0306224187204295 -0.3877774 0.5748535 0.720536 154 154 154
0.0457746909976864 0.0260305345144641 0.0334376919991757 -0.3702188 0.6258606 0.6864668 70 70 70
0.0443118559254603 0.0291361702633758 0.0321331697658134 -0.3486746 0.5284516 0.7740574 134 134 134
0.0432203295674145 0.0311765982008615 0.0322475857033784 -0.2841025 0.4688784 0.8363246 65 65 65
0.0425609137581207 0.0309669850135211 0.0333032571822203 -0.2590396 0.4894524 0.8326673 128 128 128
0.0438926288445525 0.0294881003347728 0.0336436291962864 -0.3286487 0.6085931 0.7222219 91 91 91
0.0454581343451479 0.0295512965767925 0.0356742279052841 -0.3198023 0.6438709 0.6950947 117 117 117
0.0446110725847082 0.0313082183581125 0.0362668924580312 -0.2089834 0.4904688 0.8460298 60 60 60
0.0427378291562195 0.0341436875517435 0.0382238332407915 -0.1151896 0.5668289 0.8157428 75 75 75
0.0415511964268589 0.0339652963256086 0.0401350155503437 -0.1310929 0.5976337 0.7909796 58 58 58
0.0411217592179933 0.0354845039411972 0.0396537062603609 -0.1292461 0.6136925 0.7788947 56 56 56
0.0442554582926893 0.030699664259917 0.039427679585431 -0.1736884 0.573816 0.8003547 86 86 86
0.0448727738235921 0.0313214105541998 0.0419661170541147 -0.1239211 0.5538346 0.8233534 44 44 44
0.0417791997391683 0.032965593539319 0.0430215716749814 -0.1104541 0.5744026 0.8110866 59 59 59
0.0414155484604399 0.0354843189961368 0.0456490871058682 0.1086534 0.5393701 0.8350295 52 52 52
0.041530629398546 0.0352905496768864 0.0431109571153832 -0.05873463 0.5544221 0.8301604 75 75 75
0.0405805272013842 0.0360406800570315 0.0444194200331179 0.05658696 0.5574802 0.8282595 65 65 65
0.0426837707671233 0.0334458951840125 0.0434420077823355 -0.1104541 0.5744026 0.8110866 66 66 66
0.0428941701253542 0.0350161293633692 0.047064665269014 0.05988985 0.5775978 0.8141216 85 85 85
0.0404850336138822 0.0364428474312569 0.0364354109891438 -0.2330679 0.6647311 0.7097971 82 82 82
0.0421430033756369 0.0347173013590828 0.0371379242972075 -0.1609168 0.6142627 0.77252 84 84 84
0.0408015650301712 0.0368812773958059 0.0375128121506245 -0.2131661 0.6889288 0.6927751 42 42 42
0.0400462120937375 0.0376738411825596 0.0391717984335383 -0.2046095 0.7047704 0.679289 61 61 61
0.0399501777252929 0.0406847312335087 0.038264323233537 -0.1891011 0.787225 0.5869562 99 99 99
-0.0109775088406567 0.0356924018525778 0.0390829006239771 0.9875764 0.07424866 0.1384916 43 43 43
-0.00948885337879934 0.0388813835666858 0.0368235584756732 0.8848823 0.0183622 0.4654526 38 38 38
-0.00903204148191028 0.0398570726334638 0.0356590297846176 0.8584582 0.01912193 0.512527 46 46 46
-0.00391393207953294 0.0367669847626934 0.0414907171584304 0.9330131 0.1529059 0.3257397 39 39 39
0.00540210865006108 0.0359102972276687 0.0442164379720126 0.9043131 0.380925 0.1926498 25 25 25
0.000265903876929929 0.0361879528035137 0.0429257443172248 0.9303221 0.2416846 0.275843 60 60 60
0.00212213942224526 0.0363640169245282 0.0436188268374366 0.9228488 0.3049688 0.2352535 31 31 31
0.0365718205522998 0.0387917751030006 0.0457010296651082 0.7526823 0.5283823 0.3927868 21 21 21
0.00856672236061495 0.0374139733292161 0.0202074591504256 0.1024898 -0.6391709 0.7622049 206 206 206
0.00782678247695445 0.0384892712218216 0.0213094021678935 0.1070114 -0.6433286 0.7580745 123 123 123
0.00595344368858974 0.0377406770169918 0.0211612905654826 0.1065826 -0.6379107 0.7626992 211 211 211
0.00484489588858583 0.0389659045716678 0.0227425748017714 0.08893917 -0.6462572 0.7579192 156 156 156
0.00743839823251813 0.0401020645621554 0.0235189310398506 0.07496664 -0.6612029 0.7464521 80 80 80
0.00227376087417541 0.0419660484781758 0.0262057435297889 0.08742088 -0.6553824 0.750221 96 96 96
0.00272020674231443 0.0411270356711532 0.0256041682332079 0.08616752 -0.6554267 0.7503273 101 101 101
0.00050934462297425 0.044200109093092 0.0292135942065739 0.0943452 -0.6590658 0.7461442 92 92 92
-0.000521854761219576 0.0452849221331016 0.0303847500145308 0.09419084 -0.6572467 0.7477666 96 96 96
0.0168196706597357 0.0410304932404956 0.0404159059043534 0.9105015 0.4045407 0.08563839 50 50 50
0.00425334436956915 0.0406169460248099 0.0396751923073087 0.9099491 0.2256143 0.347981 32 32 32
0.00770776930654948 0.0409340742674315 0.0400047346527736 0.8968962 0.3860466 0.2157434 51 51 51
0.00367533907549511 0.0383556525439747 0.0428024135967564 0.917864 0.3330499 0.2158785 38 38 38
0.0104444034961633 0.0368548770662697 0.0430139994539715 0.8849893 0.4152921 0.2105385 49 49 49
0.0109052778302461 0.0383411215672461 0.0423069952675567 0.8833355 0.418235 0.2116549 34 34 34
0.0117264733781792 0.0403713472754493 0.0404849346759105 0.8992988 0.4233904 0.109554 22 22 22
0.0136922995946596 0.0403089202151855 0.0412084043583702 0.9041502 0.4142945 0.1042706 21 21 21
0.00880494704635115 0.0404556968720501 0.023196975320429 0.07366849 -0.6570826 0.7502103 130 130 130
0.0104127716516516 0.0407950017833049 0.023013791938978 0.08321519 -0.6562621 0.7499302 107 107 107
0.00774899369585569 0.0435727904376234 0.0265396187580798 0.09259906 -0.6533545 0.7513677 122 122 122
0.00585151652151916 0.044055690340333 0.027367165234662 0.08791379 -0.6483417 0.7562567 90 90 90
0.0125075647551025 0.0393048274079658 0.0209868700323199 0.1020283 -0.650517 0.7526074 74 74 74
0.0135299466750523 0.0408070522197107 0.0223378335638743 0.09044471 -0.6548232 0.7503508 149 149 149
0.0143050730088019 0.0411984590003832 0.0228856944773342 0.08993766 -0.6568745 0.7486168 64 64 64
0.0144240266152922 0.0421065463866402 0.0235131475935809 0.09161124 -0.6546233 0.7503837 90 90 90
0.0125371892308919 0.0443669749711469 0.0260331543048606 0.08929677 -0.6446214 0.7592689 151 151 151
0.0122340508362639 0.0470951072284364 0.0290370084984007 0.09655994 -0.6453693 0.7577431 95 95 95
0.0179993338840787 0.0426470929234409 0.0229663014919549 0.1249341 -0.6733357 0.7287046 110 110 110
0.0191224985875529 0.043473840134823 0.0235943534892495 0.1224801 -0.6750382 0.7275453 112 112 112
0.0175365536844589 0.0450698140093447 0.0257708808014073 0.1113939 -0.6668746 0.7367969 78 78 78
0.0152592395310087 0.0448207293423256 0.0260670782467114 0.09392249 -0.6538008 0.750815 101 101 101
0.00460122719408274 0.0464632175884238 0.0304168329755518 0.09498438 -0.6517778 0.7524385 117 117 117
0.00828119614239275 0.0473007504361781 0.0306393302214444 0.0964626 -0.6460559 0.7571703 91 91 91
0.00770482843785425 0.0477927081926529 0.0310290256356942 0.09807508 -0.6488966 0.7545293 113 113 113
0.00898325843892689 0.048352896896715 0.0312753143676315 0.09348487 -0.6455407 0.7579827 119 119 119
0.00983306292709774 0.0481675356244841 0.030725259950982 0.09285922 -0.6453573 0.7582157 113 113 113
0.0108721086491457 0.0487843345040347 0.0307199436206686 0.09329812 -0.6466909 0.7570246 106 106 106
0.020636514595453 0.0455943583404771 0.025160361062134 0.1123296 -0.6662247 0.7372426 120 120 120
0.0229404974534511 0.0469004303596213 0.0259298976393589 0.1068372 -0.6559511 0.7472041 87 87 87
0.0217028352104371 0.0482656890307843 0.0273842678793783 0.1240352 -0.6614287 0.7396805 103 103 103
0.0164304575783376 0.0475325894093569 0.0287040934057103 0.10455 -0.6511896 0.751679 73 73 73
0.0143747199267441 0.0479307081040138 0.0295575239133428 0.08803271 -0.6482031 0.7563617 109 109 109
0.0174986291210262 0.0493192295315737 0.0301078456103974 0.09365475 -0.6587047 0.74655 73 73 73
0.0202087804278306 0.0513172739252371 0.0315305479628657 0.1144076 -0.6594399 0.7430006 76 76 76
0.0178185046182842 0.0446798071301583 0.0384220882854098 0.9232125 0.3814974 0.04624284 48 48 48
0.0137742453906076 0.0495464191331444 0.0312968826965813 0.09121236 -0.6517763 0.7529064 106 106 106
0.0165069626326688 0.0352515051103127 0.045164118707624 0.9135873 0.3836075 0.1349207 48 48 48
0.0176891674124731 0.0380411692371453 0.0431166219745723 0.9179729 0.3885965 0.07948948 39 39 39
0.0184171315757342 0.0390728259731711 0.0422667203345843 0.9322523 0.354583 0.07194868 31 31 31
0.0195494716968745 0.0416291917008654 0.0407970891836347 0.9341208 0.3550664 0.03669012 33 33 33
0.0203011052709736 0.0390846108786455 0.0427769688382208 0.9335207 0.3525453 0.06519969 27 27 27
0.0267178035651092 0.0363674410133304 0.0473324382982563 0.932512 0.3429742 0.1130935 37 37 37
0.0265543526725716 0.0391983038653981 0.044139092299607 0.9211298 0.366552 0.1309948 23 23 23
0.029170726271484 0.0361238005696382 0.0474237910225401 0.9116444 0.3596324 0.1989197 23 23 23
0.0305335807669223 0.0358833422416936 0.0485708440288735 0.9064757 0.3569281 0.2256198 25 25 25
0.0305714907501637 0.0375437559709736 0.0467105341279646 0.9084123 0.3589192 0.2143923 30 30 30
0.0336603131778102 0.0354266437259213 0.0491548820792322 0.8460967 0.4463417 0.2913752 36 36 36
0.0374009959338149 0.0351759691062282 0.0499933256926255 0.6996188 0.6007313 0.3868534 32 32 32
0.0217024921188478 0.0410858306852885 0.0414599363168758 0.9413875 0.3366831 0.02083383 42 42 42
0.0220408099744591 0.0432789956840532 0.0411708965613691 0.9396664 0.3420808 0.002790424 32 32 32
0.0216972787514753 0.0448958466751107 0.0390157868288129 0.9324293 0.3604381 0.02569267 19 19 19
0.0240501373763906 0.0447684317984772 0.0399370929258143 0.9275634 0.3709466 0.04499684 42 42 42
0.0260545321186045 0.0445165888505575 0.0407064354436368 0.9060867 0.4139728 0.08736917 23 23 23
0.0250840356681943 0.0413853396115352 0.0427729296557077 0.9184349 0.3859209 0.08684721 31 31 31
0.0276146562943937 0.0400354320785731 0.0439723045796769 0.9078986 0.3875122 0.1598575 23 23 23
0.029155101338592 0.0421902972520548 0.0423263330976377 0.8956563 0.4250221 0.1309811 35 35 35
0.0333836231831808 0.0433679502072021 0.0416689196408872 0.82114 0.533933 0.2016054 28 28 28
0.0320998385435614 0.0466592365001491 0.039841796501079 0.807706 0.539838 0.2370358 29 29 29
0.0331383662311424 0.0456525510368636 0.0407867150033802 0.7946674 0.5491387 0.2587479 30 30 30
0.0345228534877058 0.0377035038109833 0.0474188733718218 0.8396777 0.443806 0.3130138 38 38 38
0.0335229521396485 0.0392238189801833 0.0455885911277279 0.8781589 0.4033948 0.2571177 16 16 16
0.0340903259133678 0.0395976174427822 0.0452495303265139 0.849247 0.4287931 0.3080844 43 43 43
0.0343071897528184 0.041599527048532 0.0430077181722552 0.8150362 0.5160173 0.2635189 37 37 37
0.0393382803729954 0.0390549876556953 0.0435319015958756 0.3745434 0.6482165 0.6629726 79 79 79
0.0366749178278725 0.0402983696938662 0.0443430500258742 0.7147414 0.5492388 0.4329912 15 15 15
0.0412150974179357 0.03509153038359 0.0489097983908128 0.2890549 0.6340232 0.71726 48 48 48
0.040284755769084 0.035781570002101 0.0481795061757178 0.3683923 0.6754979 0.6387407 50 50 50
0.0367632609205257 0.0415314149601983 0.0428075902550219 0.6018112 0.6841575 0.4120095 49 49 49
0.0390645280889874 0.0428192772337014 0.038712648969072 0.0426507 0.769485 0.6372392 82 82 82
0.0361024406984289 0.044633480482336 0.041176108999681 0.6979333 0.6203995 0.3577619 27 27 27
0.0396609801019254 0.0399045465719939 0.0439563279613413 0.3029538 0.6987723 0.6480249 99 99 99
0.0274459131715634 0.0421525226052221 0.0204610253786111 -0.1939221 -0.480646 0.8552039 78 78 78
0.0260879708210497 0.0455342607259158 0.0236391411835273 -0.002982605 -0.5969923 0.8022414 93 93 93
0.0290328452733544 0.0411964581763248 0.0205489608084465 -0.3715082 -0.3609255 0.8554031 68 68 68
0.0333000439294526 0.0421754669086375 0.0236113881912273 -0.4727719 -0.364823 0.8021165 64 64 64
0.0275001208035022 0.0459672149488418 0.0236436722783639 -0.08536616 -0.5698392 0.8173101 116 116 116
0.0319171541294341 0.0433635606933865 0.0227804346943087 -0.426768 -0.3456255 0.8357105 58 58 58
0.0309594067709651 0.044720004795746 0.0240395979636324 -0.3281108 -0.4071424 0.8523957 56 56 56
0.0398886850378233 0.0376253519399891 0.0242354417083261 -0.4723326 -0.5016456 0.7247438 76 76 76
0.0348366300034741 0.0430197213622271 0.0249285272542281 -0.4750053 -0.4420888 0.7608728 72 72 72
0.0388042247207014 0.044664044858418 0.0257206494901979 -0.4755275 -0.5024276 0.7221081 73 73 73
0.0338446074857748 0.045751539070145 0.0253654625989537 -0.3941424 -0.4573948 0.797146 73 73 73
0.0383755528285734 0.046509076790291 0.0266073166167614 -0.4326265 -0.5515455 0.7131843 66 66 66
0.0381511654577888 0.0487016148673124 0.0274015411074693 -0.364528 -0.5657718 0.7396091 84 84 84
0.0396351007803846 0.0465106881959733 0.02633958178107 -0.4302249 -0.5737404 0.6969422 48 48 48
0.0355358676897648 0.0494437940648195 0.0274350885387299 -0.3177631 -0.5543445 0.7692391 75 75 75
0.0373683440656714 0.0505264106091307 0.0281237201787395 -0.3157126 -0.5514738 0.7721413 83 83 83
0.0211521028497703 0.0497453133140783 0.029175288116453 0.1234921 -0.6619846 0.7392741 91 91 91
0.0237359861643975 0.0488171832669962 0.0275140975152216 0.111596 -0.6503204 0.7514185 87 87 87
0.0258009986124335 0.0498758718565685 0.0284697427143075 0.1002789 -0.6515867 0.7519168 77 77 77
0.0280664627791514 0.049289705148274 0.0269702187383816 0.0407552 -0.6333853 0.7727627 105 105 105
0.0292572033116851 0.0483734892303332 0.0261806491790993 -0.07509597 -0.5870305 0.8060743 70 70 70
0.0304222887664074 0.0491572107483537 0.0267142927860935 -0.1183374 -0.605137 0.7872773 78 78 78
0.0286854621027186 0.0501321991837193 0.0278406232923959 0.02331502 -0.6377748 0.76987 78 78 78
0.0300049117743653 0.0507261231169024 0.0278313163364554 -0.01251662 -0.6312056 0.7755145 95 95 95
0.0271297045169225 0.0511408169929196 0.0291315773185849 0.09877244 -0.6564127 0.747908 87 87 87
0.0241872618252112 0.0514307591660325 0.0303886874707267 0.1220568 -0.6577885 0.7432472 78 78 78
0.0253607336782964 0.0524101893859436 0.0309819609410981 0.1257392 -0.6498813 0.7495625 78 78 78
0.0330004285968779 0.0516878422504868 0.0286320844240577 -0.09995612 -0.6117188 0.7847349 72 72 72
0.0333065912093837 0.0511769235314311 0.0283076217360259 -0.1432573 -0.5999621 0.7870978 68 68 68
0.0343764667330055 0.0510931433653857 0.0281325770058305 -0.1697368 -0.5968144 0.7842206 62 62 62
0.0303363955586233 0.0524937624829124 0.0298214032970205 0.03960349 -0.6391562 0.7680566 98 98 98
0.0329956137704652 0.0535845876468305 0.030317150762169 -0.05363151 -0.6283464 0.7760827 111 111 111
0.0361374738512894 0.0537222929032765 0.0299790696074763 -0.1438736 -0.5951595 0.7906235 74 74 74
0.0324969097587142 0.0561724102845788 0.0325829303216621 0.01236594 -0.6635148 0.748061 140 140 140
0.0349269964812162 0.0563648158939803 0.0322658107724966 -0.04866072 -0.6378828 0.7685946 143 143 143
-0.0586767643833035 -0.00178371620694406 0.00937534299918062 -0.3234277 -0.8549562 0.4055175 119 119 119
-0.00753114064491989 0.0289199433720417 0.0321763403783267 0.02593004 -0.5321193 0.8462722 92 92 92
-0.0163280276526678 0.00622960957090046 0.0166335131113926 -0.01372305 -0.6237566 0.7814981 86 86 86
0.0207252584134672 -0.00256465733957212 0.0144795730437015 0.2240761 -0.622725 0.749669 181 181 181
-0.0296550467209289 -0.00503999562208368 0.0017479168294153 0.05650011 -0.6899913 0.7216092 112 112 112
-0.0619604047526101 0.00832529086810574 0.0231443098248704 0.0217314 -0.8424905 0.5382727 115 115 115
0.00773103591376323 0.040769990159509 0.0425867859927438 -0.01679 0.1099318 0.9937973 83 83 83
-0.0396072111135495 -0.0192634231131692 -0.0123106924396939 0.05783892 -0.6387835 0.7672094 97 97 97
0.0332215599599555 -0.0308593100474038 -0.0348115910304527 0.191096 -0.9193442 -0.3439309 61 61 61
0.0380340538033526 0.0341230602935313 0.0474975640830161 0.4753809 -0.4073882 0.7797742 124 124 124
0.0446054303884429 0.00610893329254614 0.00548533638978909 0.9625146 0.2235169 0.1536418 77 77 77
0.0117583989115877 -0.0327163932679224 -0.0135080187536496 0.1307506 -0.6539645 0.7451407 149 149 149
-0.0310248322935411 0.000277876438746105 0.00715299492147409 0.1212275 -0.6752512 0.7275574 116 116 116
-0.0277909005855439 -0.02881123821773 -0.020417518549114 0.1519992 -0.6473943 0.7468446 101 101 101
0.0178373628493236 -0.00896658977992448 0.00887904798885452 0.2186459 -0.631734 0.743711 157 157 157
-0.0324619923364016 -0.0294603431936004 -0.0210605097171039 0.09927109 -0.6845655 0.7221602 118 118 118
0.0366257881989225 0.0283164337201531 0.042139066933696 0.389377 -0.5994373 0.6993286 136 136 136
0.0404506868173518 7.56885124888473E-05 0.0130473315282295 0.3978076 -0.5412406 0.7408156 140 140 140
-0.0525871974598981 0.00756075391240718 0.0213341807775067 0.1970411 -0.739819 0.643306 113 113 113
0.0148809055412453 -0.0404987005928334 -0.0229874352732452 0.4486408 -0.8925074 0.0463885 77 77 77
-0.0452241822658244 -0.0251776475065699 -0.017772395423464 -0.167113 -0.6338281 0.7552054 93 93 93
-0.0126302536025729 0.0299668294177552 0.0327923836958565 0.07495279 -0.5024276 0.8613644 112 112 112
0.0344520337918603 -0.0371294963291364 -0.0222401049674022 0.2154695 -0.8790414 0.4252752 110 110 110
-0.0641128613766595 0.0110094347640405 0.0098260412700956 -0.8858304 -0.447742 -0.1217852 80 80 80
0.0141431231233637 -0.0369479152624438 -0.018125085227511 0.2239559 -0.6378654 0.7368661 138 138 138
-0.0076263882595784 -0.0046242283248985 0.0088344081703834 -0.2313755 -0.653617 0.7205902 74 74 74
-0.0143279891172772 -0.0351495565670115 -0.0358713507190242 0.06582709 -0.6186484 -0.7829055 50 50 50
-0.0332332591625928 -0.0377029029858251 -0.0300198946796401 0.2192416 -0.8005166 0.557769 110 110 110
-0.0192158806189719 -0.031817446657472 -0.0257579633249703 0.09250554 -0.7042615 0.7038881 141 141 141
-0.0367966951275283 -0.0326084073209106 -0.0240118490072418 0.07122511 -0.6956883 0.714804 129 129 129
-0.0302547905317283 0.0111988705148246 0.0222859687135354 0.2025682 -0.6397585 0.7414008 103 103 103
-0.0331755181116096 0.00167026230660572 0.00841503874046885 0.1313451 -0.7068039 0.6951091 114 114 114
0.0427862486861952 -0.0298988188721854 -0.0350457802630868 0.447955 -0.8394378 -0.3077018 76 76 76
0.0425750978635042 0.0108261946863908 0.0232827634814393 0.6838191 -0.4837354 0.5462523 115 115 115
0.0255548191403783 -0.0130248168294993 0.00322520055628018 0.2181966 -0.627538 0.7473863 181 181 181
-0.0347957445727447 -0.0364276945808863 -0.0279570550008306 0.118622 -0.7055926 0.6986186 107 107 107
0.0498169934220907 -0.0139135735534388 -0.0216907850500165 0.9775418 0.03839905 0.2072138 83 83 83
0.0321039706583597 0.00327161592151715 0.0180956121089003 0.2211859 -0.6292199 0.74509 120 120 120
-0.0582719157134082 -0.0027957106453137 -0.000459396050356546 -0.7374765 -0.6531312 0.1718953 104 104 104
0.0496553605832442 -0.0236670381437926 -0.0291587255032364 0.9982835 0.03440204 -0.04739762 110 110 110
0.043900465678202 0.0029595809529126 0.014041813811161 0.8400239 -0.1141886 0.5303968 67 67 67
-0.0145764497002983 -0.0139980798982251 -0.0065356192576369 0.01459029 -0.6578448 0.7530122 118 118 118
-0.0338749436398147 -0.02975613842798 -0.0210126910080458 0.118151 -0.695531 0.708715 90 90 90
-0.0648564582470601 0.0115715724991861 0.0146826243175898 -0.8845675 -0.4550094 -0.1025027 100 100 100
-0.0215136419258495 -0.0141252636308968 -0.00773567251786231 0.04657607 -0.7054766 0.7072012 126 126 126
-0.0358447096893699 0.00348883993897153 0.01155506084821 0.1756304 -0.7419561 0.6470357 127 127 127
0.0152903452087085 -0.0356507363437758 -0.0336232556358746 0.3432091 -0.8877515 -0.3067652 63 63 63
-0.0621141381453376 0.0050604258223973 0.00835743944702542 -0.8791615 -0.4728737 -0.05886845 76 76 76
0.0485298963806708 -0.0307006088281413 -0.0266067054432241 0.8915516 -0.3728594 -0.2571217 44 44 44
-0.0201148517373189 0.00048439550936985 0.00895883992869721 -0.07553741 -0.7915987 0.6063544 98 98 98
0.0467828663218084 -0.03008591921934 -0.0290648773500508 0.6136031 -0.6731308 -0.4127786 75 75 75
-0.0561886515549048 0.00496983089735281 0.018565907739218 0.1568477 -0.7434891 0.6500944 77 77 77
-0.0216759738231311 0.0115985816942539 0.0204219102745821 0.1938747 -0.5010353 0.8434312 76 76 76
-0.0259934935414643 -0.00743715856367566 0.000111990176524392 0.0224766 -0.6839153 0.7292151 99 99 99
0.00768332893896062 -0.0123081460337129 0.00750482340641648 0.1529247 -0.62975 0.7615964 145 145 145
0.0479159747604898 -0.0339255448070529 -0.0224419045026901 0.7550974 -0.6040628 0.2548256 110 110 110
0.0113488686545926 0.0492718130342145 0.0353228661255804 -0.1685171 0.7180545 0.6752775 50 50 50
0.0315269951092163 0.026883774810791 0.0415243133834976 0.223139 -0.6393631 0.735815 116 116 116
-0.0301823397845693 -0.0375050126769146 -0.030878634758014 0.3062133 -0.831425 0.4636441 130 130 130
-0.00257693464201258 -0.0172605759272023 -0.00427864288123205 -0.3971476 -0.7123839 0.5786043 121 121 121
0.0438554793306611 -0.00494004640938051 0.00763293222112323 0.5821836 -0.4468652 0.679245 145 145 145
0.0394104760807186 0.0367616313699939 0.0270412227301332 0.9350455 0.3488308 0.063301 102 102 102
-0.0473208846170068 0.00429628677512695 0.015379032159304 0.2654909 -0.7395066 0.6185827 113 113 113
0.049248366185664 -0.0154999768920522 -0.0195584490962054 0.9719893 0.01412472 0.2346003 125 125 125
0.0255562853388036 0.0483462695942891 0.0388422782469996 -0.1532758 0.6533318 0.7413933 46 46 46
-0.0626300249759346 0.00806998967609618 0.00647382771457784 -0.8941348 -0.4384713 -0.09091745 98 98 98
0.0287147331609354 -0.00145048490287725 0.0140359927980487 0.224275 -0.6223322 0.7499356 132 132 132
-0.0198717538067648 -0.0365582268822129 -0.0302482423551369 0.2884878 -0.7940173 0.5350808 134 134 134
-0.00128586749800652 -0.0324850701713661 -0.0187517110927617 -0.193957 -0.6130226 0.7658877 95 95 95
-0.00466242740675948 -0.0381794835560705 -0.0336268536448667 0.1422331 -0.8370488 -0.5283173 75 75 75
-0.0366523605522451 -0.0155437871529882 -0.00868124695892226 0.1576336 -0.6257449 0.7639339 108 108 108
0.0481797248645313 -0.0187340460509063 -0.0178158444656277 0.9784335 0.003422945 0.2065337 109 109 109
-0.0673570794289517 0.0168138645789855 0.0178555503476791 -0.9673026 -0.2435713 0.07070139 91 91 91
0.0261166708974381 -0.0016895705213742 0.0143393416449846 0.2237391 -0.6217653 0.7505656 142 142 142
-0.0347116257401918 0.0229085205441732 0.0335794705503438 0.432052 -0.577329 0.6928364 73 73 73
-0.0165989179257671 -0.00921948056778976 -0.00201797106986012 0.04461895 -0.6765324 0.7350599 156 156 156
0.0204740578440008 0.0369399077018095 0.0406944867276318 -0.2240995 -0.3035971 0.9260714 95 95 95
-0.0685968744391476 0.0173195862565761 0.0203383106294553 -0.9475408 -0.1624462 0.2752776 94 94 94
-0.0406401442373734 0.0065533168741253 0.016624744153666 0.2801688 -0.7256039 0.6284937 108 108 108
0.0473756691861591 -0.0302895375515788 -0.0282588109371651 0.7057866 -0.5993015 -0.3777604 93 93 93
2.2624127934634E-05 -0.0362511288364068 -0.0367790201845692 0.1251108 -0.8930735 -0.4321655 111 111 111
-0.0183565166360373 -0.00694294376560745 0.000456583595181768 0.07932539 -0.6687909 0.7392064 126 126 126
-0.032729472191686 -0.00256459879139714 0.00464837448659879 0.137435 -0.6441595 0.7524428 101 101 101
-0.0313021676006886 0.0141262556888302 0.0248435245945458 0.283307 -0.5312489 0.7984433 93 93 93
-0.00247528079981008 -0.0123679341969617 0.00253136044908973 -0.4612055 -0.7447345 0.4823485 101 101 101
0.0329287333554951 0.0335221399620951 0.0481078753854574 0.2250238 -0.5541564 0.8014206 120 120 120
0.0228432746632281 -0.0167843601656861 0.00034274488326911 0.2188221 -0.6264164 0.748144 130 130 130
0.0349435496901038 -0.00692401178028201 0.00752595658559706 0.2183241 -0.6241472 0.7501832 176 176 176
0.0265182346912378 0.0460125533962734 0.0402211343229632 -0.1540963 0.6814409 0.7154667 37 37 37
-0.0669014610487744 0.0158670362520643 0.0185172158077679 -0.9566375 -0.282754 0.06996351 106 106 106
-0.0168032135299372 -0.0319944723833964 -0.0226204161780003 -0.2480278 -0.761309 0.599075 78 78 78
0.0475736034504739 -0.00856585868840976 -0.0108998248757513 0.9607473 0.1054385 0.2566073 72 72 72
-0.0176725800172117 0.0371842021492162 0.0379318278844098 -0.04949628 -0.1646269 0.9851133 108 108 108
0.0297617439291895 -0.0193318960082812 -0.00379276842602853 0.227311 -0.6262179 0.7457753 156 156 156
-0.0379871106297491 0.0018334259520868 0.00970833759983713 0.2043229 -0.7049066 0.679234 106 106 106
0.0477654857897889 -0.00727355512306849 -0.0108853567248742 0.9556802 0.1265932 0.2657998 59 59 59
-0.049831834426314 0.0257146118235261 0.0293448413728889 -0.5095209 0.3856456 0.7691982 32 32 32
-0.00765908785414826 0.015913991245245 0.0237483572955145 0.03417233 -0.5110887 0.8588484 111 111 111
0.0418303920060183 0.0260135934456853 0.0193185741505837 0.9160385 0.3779485 -0.1342702 161 161 161
-0.0183753319089046 -0.0167746212352515 -0.0099541118478246 0.004738623 -0.664952 0.746871 146 146 146
0.0371079361084039 0.0485288607262438 0.0379118487703976 0.678682 0.5344734 0.5037152 77 77 77
0.0390021913844847 0.0171473044517154 0.0304138907760853 0.3607692 -0.5627166 0.7437712 107 107 107
0.0399097091665022 0.00296361884891272 0.0161275028151309 0.4064946 -0.535233 0.7404646 133 133 133
0.00950232442369181 -0.0356692968600729 -0.0160473737095407 -0.02675848 -0.6710783 0.7409035 154 154 154
0.00758055590949924 -0.032500801762137 -0.0132930856353505 -0.06919321 -0.67366 0.7357951 140 140 140
0.00190228311218954 -0.0387962516173238 -0.0331316497319674 0.1881002 -0.8729045 -0.4501734 76 76 76
0.0303162880698884 -0.00199139692140315 0.0128724486782635 0.2259395 -0.6242745 0.7478186 139 139 139
0.00402943090578001 -0.0242407900142725 -0.00701296287262623 -0.3148146 -0.7120621 0.6275821 79 79 79
-0.0184385657857318 -0.0266656540832562 -0.0178269012756848 -0.04263712 -0.625807 0.7788117 118 118 118
0.0461360668236845 -0.00667099122849535 -0.0030542449971615 0.9931546 0.115871 -0.0147584 85 85 85
0.0264895936096621 0.0173284814741825 0.03306826635952 0.1343257 -0.62075 0.7724158 141 141 141
0.00486907473300446 0.0155268125645968 0.0245889609644383 -0.07278078 -0.536224 0.8409321 95 95 95
0.0477319035609978 -0.0288939347920142 -0.0169411774199553 0.733628 -0.3363099 0.5904961 125 125 125
-0.0399855512483223 -0.0350362146196013 -0.0274137253912316 -0.009440965 -0.7179731 0.6960069 116 116 116
-0.0245874754807662 -0.0269276961569979 -0.0191209529212322 0.1176588 -0.6428931 0.7568651 131 131 131
-0.0321378547198439 -0.0330868785297519 -0.0404629266929603 0.2025746 -0.6660084 -0.7179111 64 64 64
0.0392672480270062 0.0458662535095408 0.0245970229900902 0.9716769 0.1647381 0.1694266 81 81 81
0.039054132904651 0.0398731638917293 0.0451940091059155 0.6886951 0.6216164 0.3732187 64 64 64
-0.0232076882382137 -0.0360069716756352 -0.0365365150749858 0.2614838 -0.7024959 -0.6619107 59 59 59
0.038084653608744 0.0467353888587612 0.0318272699186155 0.9743578 0.1767948 0.1391779 104 104 104
0.00363094403021114 -0.0241007004130175 -0.00659080220554623 -0.3189195 -0.7173211 0.6194682 81 81 81
0.044135659714315 -0.0149774723792125 -0.00239006402434707 0.6676534 -0.4484757 0.5942293 144 144 144
-0.000551914408851939 -0.0360865344613504 -0.0211945373080865 -0.1722988 -0.6120227 0.7718428 90 90 90
0.0186676952041367 0.00294270797567919 0.0200678882940884 0.2180625 -0.6221066 0.7519522 188 188 188
0.0404054800769424 0.0270096247540591 0.0378593692673656 0.7377504 -0.4156521 0.5319377 133 133 133
0.0205859292849415 -0.0307832693199509 -0.0397107150173839 0.3546473 -0.8224171 -0.4448093 46 46 46
0.0416675686090926 -0.0342733706559816 -0.0261996812812826 0.3489148 -0.8307109 -0.4337947 56 56 56
-0.0043376653904752 0.0323222163143837 0.0352689106991231 -0.0568567 -0.5584275 0.8276026 99 99 99
0.044171295994921 0.00579585608715028 0.00830924992675596 0.9621292 0.2276018 0.1500162 109 109 109
-0.0194650103024845 -0.0129419265262858 -0.00581840144496788 0.05132912 -0.6880146 0.7238793 119 119 119
0.0335149744847043 -0.0186057138066642 -0.00374878877632049 0.2220298 -0.6269743 0.7467301 146 146 146
0.00556378815483782 -0.0112934066111031 0.00864606103694068 0.07177284 -0.6605781 0.7473187 150 150 150
-0.0425398918295938 -0.00032798029596659 0.00835910136489283 0.2508849 -0.6809992 0.6879658 98 98 98
-0.00835401314616879 0.00695533312155727 0.0171393084531459 0.06806358 -0.5307776 0.8447737 80 80 80
-0.00625070733562261 -0.033431885199747 -0.0204826797158919 -0.1519567 -0.5629541 0.8123989 96 96 96
0.0398916969751966 -0.0261467909077074 -0.0124610236695595 0.2241938 -0.6299282 0.743591 160 160 160
-0.0108739505998487 -0.0132715701870941 -0.00580006838660337 -0.156869 -0.6588085 0.7357741 139 139 139
-0.00294675799623478 -0.0389012771779911 -0.032711446250356 0.1239583 -0.8200464 -0.5587113 58 58 58
-0.0173989656929705 -0.0344642884751364 -0.0293664244716117 0.01161816 -0.8108998 0.5850697 121 121 121
0.00428539046469378 -0.0402454510876126 -0.0300013018614529 0.3130109 -0.8445753 -0.4344153 67 67 67
0.0489432690994938 -0.0302041783590644 -0.0222205825548623 0.9551421 -0.15801 0.2504724 90 90 90
0.0298111891159496 0.0112629941319753 0.0267716467992259 0.218962 -0.6265623 0.7479808 118 118 118
0.0423970721489395 0.00158959601822417 0.0142607583260201 0.5795774 -0.4554076 0.6757913 145 145 145
-0.0168123708185401 -0.0356063743357141 -0.0357705315633947 0.1576875 -0.7632977 -0.6265071 55 55 55
-0.0533967903757206 -0.0123106095110005 -0.00444278061317269 -0.2759584 -0.7970471 0.5371804 131 131 131
-0.000837106226446949 0.0239595816908621 0.0285786109520975 -0.04314219 -0.5319903 0.8456507 118 118 118
0.0142706506486165 0.00632364784813721 0.0245614242831133 0.1086251 -0.5959501 0.7956406 139 139 139
-0.00953436735122093 -0.0425340018937406 -0.0294802999080421 0.03475406 -0.9992805 0.01518732 82 82 82
0.0438617624300868 0.0100703130678879 0.00891616208893029 0.9725677 0.1731734 0.155316 103 103 103
-0.00421867602896864 -0.0329555744383817 -0.0198377599608723 -0.1776756 -0.5879964 0.7891081 81 81 81
-0.0101736376299351 -0.0396512214871274 -0.0322863424650996 0.1173279 -0.8185269 -0.5623593 80 80 80
0.0428941684624533 0.0117561972722197 0.0151870582694461 0.9801465 0.1887552 0.06069868 82 82 82
-0.0281788997996748 -0.0242920674963673 -0.0162777512125943 0.1564816 -0.5793444 0.799921 128 128 128
0.0136969566311724 -0.0398917443245775 -0.0210547354405167 0.260698 -0.870907 0.4166024 127 127 127
-0.0177396081149332 0.0196069772648133 0.0255727394483411 0.06547882 -0.5869989 0.8069354 103 103 103
-0.0165741588087656 0.00334812715394672 0.0133576987293889 -0.1096372 -0.6755303 0.7291355 88 88 88
0.0485634300251774 -0.0323403903471313 -0.0240977390306331 0.8548153 -0.5163684 -0.05152166 77 77 77
-0.0374250934998717 -0.0175260227535818 -0.0105443293058773 0.1068703 -0.6212667 0.7762773 134 134 134
-0.0408566342115515 -0.0178609000100636 -0.0110537316330192 0.06403553 -0.6528249 0.7547974 106 106 106
0.0172270785360142 0.0127477763951094 0.0285532001454765 -0.1690095 -0.3962752 0.9024421 109 109 109
0.0337088585654879 0.0169984322595356 0.0316060484674546 0.2228292 -0.6286935 0.7450447 156 156 156
-0.0362910133858469 0.0243136094823806 0.0356933462185639 0.2893679 -0.5142244 0.8073658 76 76 76
0.00548578091705476 0.0491257147807959 0.0348985513667942 -0.1730805 0.7806206 0.600562 37 37 37
0.00282023097198403 0.0153817058721514 0.0240650742839701 -0.05338524 -0.5131915 0.8566123 95 95 95
-0.0246899989605369 -0.0176182918381421 -0.0108588234882046 0.07652832 -0.6101822 0.7885564 120 120 120
0.0227229084070775 0.013865285427298 0.0303306044157108 0.05690533 -0.5986872 0.798959 138 138 138
0.0116610261084067 -0.0343132453285414 -0.0377283937563032 0.3132721 -0.8636689 -0.394888 84 84 84
0.0213999069159367 -0.0381832966776108 -0.0208363482679628 0.29678 -0.8676525 0.3988744 134 134 134
-0.016744662530233 -0.00888808214405801 -0.0017314644376338 0.04530783 -0.6730552 0.7382032 129 129 129
0.00671472919996008 -0.0232238469978617 -0.0040511598675187 -0.1022968 -0.701543 0.7052466 124 124 124
-0.0362697151375939 -0.0327575220990897 -0.0246228849438229 0.07803362 -0.6969429 0.7128684 102 102 102
0.0155603110858098 -0.0350171691951102 -0.0166350377105753 0.223731 -0.6274238 0.7458444 126 126 126
-0.0320146134896859 -0.0383614805530827 -0.0354747124029346 0.2124344 -0.8896035 -0.4043232 75 75 75
0.0291520043137723 0.0035426025935309 0.0188581789894497 0.2258525 -0.6286008 0.7442121 130 130 130
0.0443208026035813 -0.0247963393602479 -0.0120704020065755 0.5139918 -0.4880444 0.7054254 159 159 159
0.0272672873067568 -0.0329243174046833 -0.0315675742159598 0.3217684 -0.8936295 -0.3128761 70 70 70
-0.0103951287760222 0.00711849999952519 0.0175933450647309 0.06643849 -0.5274178 0.8470044 91 91 91
0.00929249464697035 -0.0033619263327539 0.0159203513513285 0.1645495 -0.6283267 0.760348 144 144 144
0.00434538946613827 0.010737501056285 0.0216785374182494 -0.1217567 -0.5051715 0.8543869 85 85 85
0.0464302783353419 -0.00770242753444028 -0.00237442645453274 0.9995134 0.02333594 0.02069713 36 36 36
-0.0158162349426192 0.0164265728323034 0.0233409377038014 0.01040047 -0.5675688 0.8232602 81 81 81
0.0101995629372542 0.0435179913633303 0.0393369447456388 -0.0774103 0.5972747 0.7982923 37 37 37
-0.0538033189147265 -0.0114414120971843 -0.0037234912593572 -0.4091017 -0.7517188 0.5172569 151 151 151
0.0102164810404921 -0.0302183185092373 -0.0107006942126502 0.06078014 -0.6667283 0.7428184 144 144 144
-0.0157196098001786 0.00790997754291556 0.0174172863613399 0.005531053 -0.5577949 0.8299604 101 101 101
0.0203581428121793 -0.0170542357117686 0.00036358679884383 0.2136973 -0.6267969 0.7493057 149 149 149
-0.0645762658937508 0.00796520132758172 0.0210568853843645 -0.6396592 -0.7362286 0.2209153 108 108 108
0.0326692504739521 -0.0339111219015422 -0.0298456366605622 0.1997365 -0.8715003 -0.4478756 75 75 75
0.0397387429231673 -0.00247419872692389 0.010791572690481 0.3540418 -0.5854319 0.7293311 148 148 148
0.00774916810318516 0.0434889564271926 0.0400461627572829 -0.01929107 0.554516 0.8319494 47 47 47
-0.0127321091458383 -0.0157828553708176 -0.00876942526429272 -0.1080511 -0.6297539 0.7692431 100 100 100
-0.0237648090027607 0.0261229265735023 0.0317364882936981 0.3104461 -0.5076407 0.8036941 86 86 86
-0.016543220666871 -0.0182183955916188 -0.0114213393400734 -0.05887857 -0.6293174 0.7749148 120 120 120
0.00650737584016881 -0.0223421067033324 -0.00287663854940053 -0.08592465 -0.7241904 0.684226 97 97 97
0.0219289092369501 -0.0111032792198538 0.00582046588994161 0.2205878 -0.6279182 0.7463644 147 147 147
0.0304960867776893 0.054476910212833 0.0346931394463556 0.06063086 0.7364727 0.6737446 40 40 40
0.0267849018276913 -0.00558765829752006 0.0105286684670023 0.2294829 -0.6215127 0.7490391 165 165 165
-0.0161068041983268 -0.0336823008658893 -0.0263801665469786 -0.3199921 -0.7555088 0.5716742 57 57 57
0.0266574167557527 -0.0329441165660171 -0.0165446360264425 0.2261833 -0.6286 0.7441123 158 158 158
0.0131672157918352 -0.0324136259262615 -0.041245971096772 0.1126778 -0.7609925 -0.6389008 100 100 100
0.0440880537015698 0.00262717297392145 0.011259663618122 0.9216963 0.04685449 0.3850721 96 96 96
-0.018385893108527 0.0118603042070345 0.0198041644540425 0.06219457 -0.4922767 0.868214 109 109 109
-0.00850144873440772 -0.0237445822256349 -0.0145338302237239 -0.1631123 -0.6136346 0.7725587 127 127 127
-0.0390208318943723 -0.0288214037314386 -0.019558652241861 0.03129067 -0.6693711 0.7422689 91 91 91
-0.0268242401558889 0.0223091578058828 0.029071239095774 0.2797171 -0.5758885 0.7681867 107 107 107
0.0321897785929695 0.00455842226216552 0.019125989624672 0.2182138 -0.6324252 0.7432503 135 135 135
-0.0151115865362952 -0.0342638143592785 -0.023870638693357 -0.4073427 -0.7066684 0.5785254 88 88 88
-0.0159709664144883 -0.0341192491700845 -0.0368709353704462 0.1984136 -0.6066886 -0.7697799 54 54 54
0.0373215996467229 0.046556354282731 0.0359813221553347 0.9279045 0.2900445 0.234238 66 66 66
0.039080894786363 0.045097309610131 0.0261165617806646 0.9718544 0.1695184 0.1635928 69 69 69
-0.0536815578854126 -0.0137805234760473 -0.00729404828757243 -0.4341325 -0.7759147 0.4576958 148 148 148
-0.0521615749808073 -0.0175525911759 -0.0149341505132419 -0.7051471 -0.6395562 0.3061624 68 68 68
-0.0226076527225803 0.000989048341038523 0.00796901949648367 -0.06261288 -0.7544541 0.6533595 115 115 115
-0.0247230907133278 -0.0154421474727896 -0.00894677094771967 0.07198185 -0.6635511 0.74466 127 127 127
-0.0212937916289011 -0.0389145315685417 -0.0331535565770921 0.2845573 -0.9432605 -0.1711338 80 80 80
-0.015648838622091 -0.0345264498389143 -0.0241692302355642 -0.3850187 -0.695152 0.607062 98 98 98
-0.0353778564344407 -0.0378592987804698 -0.0297496139895652 0.1244291 -0.7804532 0.6127073 111 111 111
-0.006584270079244 -0.00918812203979869 0.00229063264158171 -0.3882414 -0.7679321 0.5094595 108 108 108
0.0302208969306594 0.0337538750214464 0.0487903309698513 -0.2042225 -0.3747559 0.9043512 116 116 116
-0.0292150532891298 0.035347009870864 0.0324968391667939 -0.4772989 0.66383 0.5757738 17 17 17
-0.0439325078298372 -0.0205653178123504 -0.0138659529879204 0.03965091 -0.6348302 0.7716336 108 108 108
0.0151765381721094 -0.0051252252704046 0.0132451613121398 0.2184129 -0.6282877 0.746693 142 142 142
0.0456509112307137 -0.0345305498265297 -0.0249467465303447 0.5832398 -0.7684951 -0.2631474 67 67 67
-0.0437242864706344 -0.0172109959148218 -0.0105792806853165 0.1051663 -0.6804336 0.7252242 99 99 99
0.0382788496123081 0.0496291697833481 0.029097474548026 0.9674261 0.1981497 0.1575542 92 92 92
-0.0622215464041616 0.0225466424345092 0.0243123116570405 -0.4362836 0.2495304 0.8645179 54 54 54
-0.0334261327731276 0.0341586146544832 0.0311092441146736 -0.390065 0.6895445 0.6102275 28 28 28
0.022272919615383 -0.0331679579292936 -0.0158635589407595 0.218157 -0.6274814 0.7474454 167 167 167
-0.0268978006610756 -0.0340520185479928 -0.0386242884922366 0.2560217 -0.6888887 -0.6781484 57 57 57
0.0470803676265024 -0.0270403241231288 -0.0151101597709762 0.7936394 -0.2560146 0.5518995 127 127 127
-0.0574080709316696 -0.00445340531721838 -0.0049914785027361 -0.8124015 -0.5786685 0.07173989 80 80 80
-0.00944253968841791 0.011831334030196 0.020419357021259 0.03977698 -0.5311604 0.8463371 115 115 115
0.0368281332135951 -0.00618183850540999 0.00775496193498736 0.2209333 -0.6236429 0.7498387 141 141 141
-0.0183302004305639 0.0334796757645465 0.036044897630062 0.05131888 -0.3643916 0.9298307 88 88 88
-0.00111931082752115 -0.0216222922731387 -0.0079109644664958 -0.3932056 -0.6820679 0.6165814 99 99 99
-0.0191507631438297 -0.026399706875344 -0.0177814644767424 -0.03404767 -0.6542234 0.7555345 91 91 91
0.0428984415625613 0.0292541588995019 0.0310039133349249 0.9442447 0.3275232 -0.03362088 161 161 161
-0.0470884950099277 -0.0225227964754953 -0.015846943929366 -0.2649342 -0.6622928 0.7008411 140 140 140
0.0251246746482132 0.0362105198443136 0.0428452501451582 -0.6430857 -0.2578251 0.7210875 37 37 37
-0.0115276102933826 0.0099813812521885 0.0188564111178247 0.04994696 -0.5255305 0.8493074 106 106 106
-0.0169809295367926 -0.012280387025609 -0.00479531411600809 0.03870309 -0.6640887 0.7466514 102 102 102
0.019752145123991 -0.0196481795524662 -0.00219506202754214 0.2131677 -0.6335595 0.7437486 141 141 141
0.0246622640317815 0.0433296612334556 0.0421633001363915 -0.272151 0.6433275 0.7155862 39 39 39
0.0481378843703979 -0.0276099744773285 -0.0319684648672491 0.7880501 -0.5227729 -0.3250932 58 58 58
0.00251324770594463 -0.0156604039782308 0.00335125138385334 -0.2588741 -0.7320691 0.6301262 127 127 127
0.0225655461244432 0.00253403048861678 0.0190754211813226 0.2182784 -0.6298769 0.7453923 131 131 131
0.0410529445093712 -0.028361753456279 -0.0149977921426901 0.2303153 -0.6333035 0.738838 124 124 124
0.0388556856401516 0.0157999593054891 0.0290792749636548 0.3354561 -0.6033147 0.7235196 107 107 107
-0.025986045720316 0.0371641710077087 0.0323952525368085 -0.5593016 0.6046412 0.5670897 42 42 42
-0.0672727680017475 0.0154740331711639 0.022846193802564 -0.957974 -0.1833902 0.2205762 88 88 88
-0.0636624686647482 0.00696524541740173 0.0164690114457206 -0.7982224 -0.5861205 0.1389377 94 94 94
0.00154227953788322 0.026195521835932 0.0314734670326578 -0.1522258 -0.6053942 0.7812331 116 116 116
0.00800568981642114 -0.0308367031038552 -0.0113175599152575 -0.1034566 -0.6737009 0.7317266 134 134 134
-0.0146760978057179 0.0300177412453707 0.0328058735858527 0.1031182 -0.5083684 0.8549433 102 102 102
0.0381981880534403 0.0415153853030561 0.0315323723159869 0.9593529 0.2626618 0.1032027 102 102 102
-0.0262688655814771 0.0319133460141968 0.0363005101542628 -0.107206 0.121974 0.9867265 70 70 70
0.0122028226707416 -0.0393276112390619 -0.0270349946768091 0.384997 -0.8702575 -0.3072934 85 85 85
0.00528223498102909 -0.0188786106148016 0.00135731278526093 -0.1042798 -0.7358789 0.6690351 120 120 120
0.0347369746643826 -0.000243736357789182 0.0141299339157159 0.2206697 -0.6318858 0.742984 133 133 133
-0.00685296909323929 0.041851341199436 0.0394467025304758 -0.2628334 0.2202079 0.9393759 152 152 152
0.0492631526886615 -0.0130303035750251 -0.0195127355192102 0.9700803 0.0759963 0.2305835 101 101 101
0.0200616064101373 -0.0337036120399069 -0.0160398366045806 0.2195535 -0.6310632 0.7440131 169 169 169
0.0406915517940312 0.0315820995965076 0.0420395489857021 0.8817663 -0.1416893 0.4499025 111 111 111
0.0120199186823529 0.0410798694864078 0.041419924934936 -0.1281698 0.3216509 0.9381435 92 92 92
-0.00336622767567629 0.0244379205008607 0.0290112020141894 0.03935041 -0.5287356 0.8478739 117 117 117
0.0457972933292945 -0.0263053201885405 -0.0138803541616731 0.5772293 -0.4347856 0.6912076 131 131 131
-0.0111802669726719 -0.0422656270616369 -0.0300175546068834 -0.1080095 -0.9917693 -0.06875772 64 64 64
-0.0298893506338009 0.0270107277940507 0.0350933746967233 0.2248919 -0.3570204 0.9066201 101 101 101
-0.0485286410977488 -0.0150084449878757 -0.00736572797603837 0.04381244 -0.7215475 0.6909773 94 94 94
0.0450119939604123 0.0118486690176515 0.00575601962642634 0.9732246 0.1911641 0.127633 136 136 136
-0.00700099756802164 -0.0201916337987748 -0.0100970258241009 -0.2030838 -0.6770353 0.7073755 103 103 103
0.00680929055013424 -0.0392970453897266 -0.0302869676066629 0.3315244 -0.872425 -0.3591187 63 63 63
-0.0272706430853744 -0.0143598476937893 -0.00813241568548339 0.02968678 -0.6744716 0.7377037 108 108 108
-0.0156983212701718 -0.0107914717257277 -0.00369033995835787 0.02745498 -0.6712574 0.7407157 110 110 110
0.0153189049033045 -0.0327965688875558 -0.0402452989609607 0.3116555 -0.8645595 -0.3942177 71 71 71
-0.0605255052892502 -0.000233442970276165 0.0111685123262237 -0.4968697 -0.8160453 0.2952806 122 122 122
0.0433295866130612 0.0105622250658578 0.0122112677632173 0.974079 0.1598337 0.1600725 88 88 88
0.0464687264486172 -0.00693536670165307 0.00122653898929406 0.9769753 -0.01633499 0.2127264 63 63 63
0.0305322199850275 0.00100767650123057 0.0160660660692421 0.2187296 -0.6307291 0.7445388 114 114 114
-0.00534049228548206 -0.0372156400167235 -0.0339134602641653 0.08645883 -0.8234178 -0.5608101 74 74 74
-0.000915055192705072 0.0235790101789431 0.0286143177794607 -0.06328681 -0.5224835 0.8502975 126 126 126
0.0160475682078789 -0.0137397429423309 0.00438065507142815 0.2167571 -0.6362653 0.7403937 130 130 130
0.00446624019620856 -0.0378091296095139 -0.0339525281889749 0.2123743 -0.8892652 -0.4050981 65 65 65
-0.0274012861913748 -0.0131725665239926 -0.00620285043905535 0.0166057 -0.7100995 0.7039055 117 117 117
-0.00185293523866381 -0.0165765374251804 -0.00320406249177301 -0.4164585 -0.7085155 0.5697088 136 136 136
-0.0348500205678608 -0.0244325089013208 -0.0164543684539936 0.07932869 -0.5451661 0.8345663 87 87 87
-0.0290405614005338 0.00202321723721455 0.00940922199785236 0.1119149 -0.7295633 0.6746943 117 117 117
0.0324485820357325 0.0282391825367554 0.042814659979377 0.2247041 -0.6405406 0.7343131 116 116 116
-0.0155079124852904 -0.028890710966784 -0.0197084604673254 -0.09545102 -0.6709411 0.7353415 106 106 106
-0.0477783290807245 -0.0252019361321152 -0.0255033906622082 -0.7185615 -0.6637231 0.2077044 76 76 76
-0.0587334575348559 -0.00271484282470347 0.00504967230749435 -0.6321863 -0.7345719 0.2464642 141 141 141
0.030030947812008 0.0394039257979888 0.0473559542810028 -0.391591 0.5317295 0.7509462 31 31 31
0.0246738542924332 0.00555337288548297 0.0216535140188453 0.2183911 -0.6280139 0.7469296 125 125 125
0.0368442720802258 0.0429742936393802 0.0391807873701386 0.7611733 0.5708903 0.3077328 64 64 64
0.00531618377985499 0.0236323880274807 0.0310214270372453 -0.167326 -0.5671036 0.806471 76 76 76
-0.00991413765988591 -0.0224472110928624 -0.0134624656247025 -0.09554274 -0.6544393 0.7500538 137 137 137
0.0251623662075913 0.0501437224657713 0.0370778428065244 -0.1952277 0.6443796 0.7393653 33 33 33
-0.013646602938866 0.0134485088179526 0.0218230620046722 -0.0015536 -0.5280038 0.8492406 109 109 109
-0.0475669514174637 -0.0144513378878556 -0.00707737933544082 0.1381678 -0.7002758 0.7003738 87 87 87
0.0339455682220211 -0.0197777291550677 -0.00513329889556258 0.2240146 -0.6282843 0.7450344 155 155 155
0.0382931327259923 0.0402368222019376 0.0326255970461615 0.9270976 0.3746093 0.01256524 118 118 118
