ply
format ascii 1.0
comment File exported by Rhinoceros Version 7.0
element vertex 468
property float x
property float y
property float z
property float nx
property float ny
property float nz
property uchar red
property uchar green
property uchar blue
end_header
-0.024868126584321 -0.044381648263087 0.0183969134756096 -0.4895318 -0.07271495 0.8689483 108 108 108
-0.0297980863583383 -0.0416691600886485 0.0150762046047218 -0.4835525 0.06042344 0.8732273 111 111 111
-0.0293768603337106 -0.0405911504832408 0.0153997237154014 -0.5111056 0.02114624 0.8592578 97 97 97
-0.0310617942345437 -0.0403913557139537 0.0145598495670326 -0.477277 0.0552358 0.8770152 100 100 100
0.0325753431784812 -0.00249972935592147 0.00849910027465894 0.449514 -0.1679863 0.8773356 154 154 154
-0.0313425917160806 -0.0402119457331798 0.0140395606227882 -0.4692095 0.05616613 0.881299 93 93 93
-0.0289088148606119 -0.0442710220423839 0.0162747348018654 -0.4506434 0.09771057 0.8873405 97 97 97
-0.0284407991898355 -0.039771109780421 0.0161551678844459 -0.5491309 -0.02188416 0.8354498 99 99 99
-0.0286124009621438 -0.0385062992182872 0.0163017208047874 -0.5712188 -0.046852 0.8194596 97 97 97
-0.0276451367867288 -0.0383880436030528 0.0166782880493171 -0.6035431 -0.0844816 0.7928421 104 104 104
-0.0230895835888681 -0.0425950586405894 0.0194372231431968 -0.5399277 -0.1729372 0.8237541 112 112 112
-0.0237604338658151 -0.0408141910639903 0.0194031441875465 -0.6151608 -0.1934198 0.7643075 102 102 102
-0.0239710766804513 -0.0388173162547252 0.0199428195425041 -0.6755618 -0.2003064 0.7095729 100 100 100
-0.0129394788277444 -0.0509419738856456 0.0173177266784675 0.3095013 -0.4912215 0.8141931 157 157 157
-0.0118840593827066 -0.051838546952357 0.0163376177021034 0.287956 -0.5133798 0.8084074 158 158 158
-0.0130892354977426 -0.048710375985255 0.0180259043642051 0.2477968 -0.5817013 0.7747388 148 148 148
-0.0186432559025583 -0.0483292638865611 0.0204169893928535 -0.07936396 -0.2883983 0.9542158 170 170 170
-0.0179099995625314 -0.0495646297541759 0.0202270740934379 0.1293152 -0.3456275 0.9294187 172 172 172
-0.0175270695221719 -0.0463325082865855 0.0211252415843971 -0.1217697 -0.4311334 0.8940337 128 128 128
-0.0213266570103464 -0.0464020073023936 0.0197690272995003 -0.3671228 -0.1547399 0.9172112 127 127 127
-0.0191362459194955 -0.0460830032435557 0.0207031959959038 -0.2910781 -0.3033109 0.9073456 125 125 125
-0.0206714231503305 -0.0449780523387096 0.0201660985418327 -0.4211631 -0.2689411 0.8661942 133 133 133
-0.0195539850724039 -0.044441610535731 0.0211531514593132 -0.3896381 -0.366873 0.8447404 124 124 124
-0.0175823826325235 -0.0452031194773814 0.021958663529969 -0.2046926 -0.4692619 0.8590077 138 138 138
-0.0151419002545175 -0.0467782318202159 0.0206899488636024 0.1033232 -0.5575944 0.8236582 146 146 146
-0.0134168822300729 -0.0470274984446666 0.0198351437517174 0.1834533 -0.6295701 0.7549744 144 144 144
-0.0113762278092203 -0.0470257103053233 0.019450842804528 0.1662235 -0.6986566 0.6958798 140 140 140
-0.0154762227070627 -0.0452965795603892 0.0215546483465202 -0.05023846 -0.6161381 0.7860343 152 152 152
-0.0150783915055093 -0.0444314777461192 0.0227235699363716 -0.1260739 -0.6894215 0.7133046 149 149 149
-0.0125276107323465 -0.0452543794718883 0.021772637433625 0.04017527 -0.7540335 0.6556062 119 119 119
-0.0131750363838968 -0.0443505346385142 0.0229465658136375 -0.03306914 -0.7744972 0.6317123 148 148 148
-0.0113380212319192 -0.0441850721446178 0.0231129670806892 0.0729205 -0.7916192 0.6066478 130 130 130
-0.0223329324257669 -0.0404250919428966 0.020903154677964 -0.6292073 -0.283736 0.7235966 99 99 99
-0.0236761827004251 -0.0380454361048839 0.0205875331827171 -0.6958618 -0.2219251 0.6830268 105 105 105
-0.0238540429604349 -0.0367144643870494 0.020718201465226 -0.727846 -0.2355674 0.6440095 100 100 100
-0.0186276692879495 -0.0425749122706554 0.0227602565952308 -0.4663134 -0.4707323 0.7489746 114 114 114
-0.0179802138340768 -0.0430856048670909 0.0232363039918907 -0.4189711 -0.5484167 0.7236728 118 118 118
-0.0151953954232034 0.0534000099095204 -0.00747653894939349 -0.6627226 0.3316476 -0.6714229 51 51 51
-0.0168959457409677 -0.0424545108882091 0.0245460713573463 -0.3891458 -0.5634373 0.7287688 139 139 139
-0.0132413465512094 -0.0428537427989146 0.0248384172388084 -0.1027348 -0.7606017 0.6410387 163 163 163
0.0447364490496817 0.0274220407399037 -0.0234816377691262 0.4339938 0.834698 -0.3390114 66 66 66
-0.0127460021508035 -0.0418339073268077 0.0263454014726646 -0.09825294 -0.7614801 0.6406984 144 144 144
-0.0109082121384439 -0.0417342483607432 0.0267190629907615 0.03392309 -0.7652129 0.6428829 124 124 124
-0.0215138751995859 -0.0413513481227061 0.0214523071714409 -0.6100555 -0.3240562 0.7230628 113 113 113
-0.0207088548672494 -0.0404278337565562 0.022403820819474 -0.6229697 -0.3602682 0.6943454 111 111 111
-0.019735332204133 -0.0408888160792491 0.0231617087789543 -0.5706876 -0.4194904 0.7059345 120 120 120
-0.0210926491749582 -0.0387916862574718 0.0236090267368324 -0.6611109 -0.3496493 0.6638356 105 105 105
-0.0202969867718515 -0.0381689369288585 0.0243324632116325 -0.6584427 -0.3520635 0.6652101 122 122 122
-0.0215918678772745 -0.0368036329356334 0.0231326962181099 -0.7250826 -0.286179 0.6263838 103 103 103
-0.0222627181542215 -0.0368986427394054 0.0224877441593178 -0.7242934 -0.2801638 0.6300058 105 105 105
-0.0129722315800485 -0.0396836101618907 0.0288403922983177 -0.2281188 -0.6835065 0.6933835 127 127 127
-0.0128786522877511 -0.0389408170786998 0.0296573633619316 -0.2388631 -0.6558563 0.7160984 155 155 155
-0.0109596807492074 -0.0379689037409923 0.0307615543075569 0.04228447 -0.6531057 0.7560852 169 169 169
-0.0169427353871164 -0.0379205047694346 0.0269327307411201 -0.5724958 -0.4522789 0.6838804 126 126 126
-0.0198289412987527 -0.0359198152629039 0.0259388232894905 -0.6688403 -0.3206882 0.67068 123 123 123
-0.0205621976387796 -0.0325335561839244 0.0266711557575233 -0.7172987 -0.2311291 0.6573141 113 113 113
-0.0193141061795053 -0.0330679714289805 0.0272322142787941 -0.7001348 -0.2485453 0.6693553 115 115 115
-0.0198757607472238 -0.0353856384364268 0.0259331310459144 -0.6916775 -0.3035661 0.655309 130 130 130
-0.0176291722786722 -0.0354193746653697 0.0277790868946083 -0.6496317 -0.3558909 0.6718038 122 122 122
-0.0188226658833322 -0.0324969589320323 0.0283878440328605 -0.6966932 -0.2322285 0.6787404 102 102 102
-0.0171845514309701 -0.0326333343592784 0.0296468282409675 -0.679864 -0.263323 0.6844311 114 114 114
-0.0151017863285837 -0.0391727983561656 0.0273164952465065 -0.414926 -0.582958 0.6985674 160 160 160
-0.0135520953667459 -0.0364378988352916 0.0310758495994575 -0.3669462 -0.5310709 0.7637501 144 144 144
-0.0142593342793283 -0.0361473857966563 0.0312522793479927 -0.460853 -0.5245603 0.7158568 140 140 140
-0.015429433060914 -0.0346819460002086 0.0308020407625206 -0.6017814 -0.392799 0.6953906 120 120 120
-0.00883948392990203 -0.052816182335963 0.0146133745380409 0.2991181 -0.6284074 0.7180756 147 147 147
-0.00895493812683196 -0.0512429773417613 0.0155674362846382 0.2880039 -0.5291865 0.7981325 145 145 145
-0.00507181472900481 -0.0504998266307017 0.0147955114313133 0.2642424 -0.5449305 0.7957554 147 147 147
-0.00701000876548857 -0.0503801405039928 0.0155942881771095 0.2813532 -0.5302594 0.7997909 143 143 143
-0.00749623365524382 -0.0497705041972301 0.016098290152169 0.2773172 -0.5445022 0.7915886 131 131 131
-0.00922461934211821 -0.0488124191371104 0.0173005009361274 0.2533355 -0.617458 0.7446923 129 129 129
-0.0053198594582376 -0.0483520328608653 0.0162476593919761 0.2412029 -0.5952243 0.7665045 148 148 148
-0.00317859239700408 -0.0512533485499522 0.0134687567420967 0.2515285 -0.5850251 0.7710247 124 124 124
-0.00334137268188567 -0.0486349165049693 0.0155263388820656 0.2020534 -0.5976036 0.7759152 135 135 135
-0.00386896319511504 -0.0478222667781016 0.0165041530796058 0.2214522 -0.6184325 0.7539896 119 119 119
-0.00213723964813323 -0.0475112497416637 0.0164362633892067 0.1977143 -0.6199672 0.7593088 139 139 139
-0.00140243358734221 -0.0462945997325084 0.0171740794845588 0.2172405 -0.6162949 0.7569591 136 136 136
-0.0080344635975656 -0.047708064278712 0.0183741445013054 0.2777803 -0.6691865 0.6892225 146 146 146
-0.0103278417122659 -0.0450964271632335 0.0215761507221229 0.1216799 -0.777062 0.6175506 145 145 145
-0.00729837603691191 -0.0446036159602305 0.0209514195390709 0.3003841 -0.7457403 0.594677 122 122 122
-0.00675907321098418 -0.0430127679911754 0.0230676079460151 0.333454 -0.7402868 0.5837671 112 112 112
-0.00340613312843413 -0.0444820224848888 0.0191400790878303 0.2980823 -0.6590025 0.6905524 128 128 128
-0.00321369953277678 -0.0437133609858653 0.0203125918575294 0.3463393 -0.6592374 0.6674243 101 101 101
0.00088158659812837 -0.0403926670161388 0.0202937865921028 0.4575618 -0.5174677 0.7230937 136 136 136
0.00371319465515046 -0.048617750367274 0.0139975244470604 0.2920679 -0.5499387 0.7824728 140 140 140
0.0054085295664969 -0.0484111606684825 0.0132839972444542 0.3636328 -0.511536 0.7785256 144 144 144
0.00669691376563936 -0.0485910474864146 0.0125361824699409 0.3807589 -0.4985276 0.7787765 129 129 129
0.004889969156951 -0.0461285411921641 0.0148045266338356 0.3927725 -0.4889143 0.7789047 143 143 143
0.00329196863052278 -0.0458952486125133 0.0160623038478859 0.3375081 -0.4984403 0.7985272 149 149 149
0.00647461824294954 -0.0456995069590709 0.0143131012388237 0.4385942 -0.4500903 0.7778521 131 131 131
0.00524211339828401 -0.0449568330851695 0.0154077554412849 0.4109184 -0.4624921 0.7856507 145 145 145
0.00965726785537629 -0.0469769537058971 0.0118095422454841 0.4327835 -0.4221106 0.7965683 137 137 137
0.0119506161677542 -0.043737322053065 0.0122662777372368 0.4857706 -0.3476035 0.8019967 119 119 119
0.00852224640724092 -0.043652683457484 0.0144887412258156 0.4814183 -0.3870217 0.7864163 136 136 136
0.0070206265914145 -0.0429952442256114 0.0155195588537224 0.4899318 -0.3677319 0.790405 146 146 146
0.0131441097724143 -0.0402329265681407 0.0126364672847755 0.5022731 -0.2895173 0.8148015 142 142 142
0.00244951658126741 -0.0422312318888804 0.0184201294847496 0.3849146 -0.4670765 0.7960404 156 156 156
0.0050771873461905 -0.0426101982203624 0.0169194633432396 0.4472125 -0.407176 0.7963722 146 146 146
0.00631860308524995 -0.0424665510264537 0.0164572144218452 0.4943804 -0.3696776 0.7867188 147 147 147
0.00676167421218782 -0.0406257211772105 0.0169774139591224 0.5188885 -0.3358796 0.7860914 143 143 143
0.00264192037460237 -0.0406395494547984 0.0191464716859825 0.4587324 -0.4469706 0.7679726 142 142 142
0.00380680374977022 -0.041377931794276 0.0179747635789879 0.435454 -0.4119759 0.8004097 143 143 143
0.00476414375183015 -0.0387035905924937 0.0189578825899132 0.5140789 -0.364628 0.7763821 139 139 139
0.00621718578216462 -0.037812143525233 0.0182475740381248 0.5520994 -0.3287529 0.7662296 128 128 128
0.0050444941985312 -0.0367787181941173 0.0196618879505165 0.5589061 -0.343297 0.7548319 138 138 138
0.00801912360069185 -0.0396739542094371 0.0164228076406486 0.5457426 -0.2886554 0.7866658 135 135 135
0.00919700078842073 -0.0384756624308726 0.015657513804055 0.5494869 -0.2815959 0.786618 125 125 125
-0.00859611816528411 -0.0435028373805186 0.0241163367696769 0.2442601 -0.7771529 0.5799745 111 111 111
-0.00913175530555815 -0.0425075590220592 0.0252566183277138 0.2080709 -0.7771944 0.5938648 130 130 130
-0.00794085450294585 -0.0421953498927257 0.0249104047485359 0.3131594 -0.7608206 0.5684041 117 117 117
-0.00936057753685088 -0.0407048761454722 0.0275535429187782 0.2085288 -0.7351196 0.6450697 136 136 136
-0.00719201154831023 -0.0400938093272349 0.0269642168947227 0.3770262 -0.6991733 0.6074602 140 140 140
-0.00389235801818938 -0.0418604909983775 0.022169291443444 0.4253589 -0.6758558 0.6019043 131 131 131
-0.00150537080886931 -0.0401352941599986 0.0225129122205742 0.5127715 -0.5897686 0.6238898 122 122 122
-0.00330730862739653 -0.0403912365046641 0.0236154193349846 0.4828492 -0.6384244 0.5993921 132 132 132
0.000904981421202711 -0.0387035905924937 0.0214691007801063 0.5426699 -0.4815869 0.6881739 133 133 133
-0.00227763838890166 -0.0394263565150401 0.0239131445356376 0.5217949 -0.6138472 0.5923864 136 136 136
-0.00324493236663909 -0.0383186637965343 0.0258139068552025 0.5187274 -0.6287608 0.5792942 154 154 154
-0.0035413462651071 -0.0378383695689342 0.0264431232877739 0.5123585 -0.6277646 0.5860037 144 144 144
0.000977311657637647 -0.0360995828715465 0.0233071739145286 0.6546155 -0.4168854 0.6306227 137 137 137
-7.7869368821093E-05 -0.0363533794490001 0.0245982254215248 0.6657324 -0.4735644 0.5766603 156 156 156
-0.00902902670028777 -0.0398811399546763 0.0283472830720909 0.2263988 -0.7146384 0.6618425 152 152 152
-0.00941517539146514 -0.0392422973719737 0.0290751153894432 0.2214758 -0.685742 0.6933299 166 166 166
-0.00794085450294585 -0.0395543872920177 0.028069018787957 0.3063619 -0.6901962 0.6555696 125 125 125
-0.00677078552368254 -0.0390955507365367 0.0280251646705635 0.3781553 -0.6703507 0.638458 184 184 184
0.05051666908142 0.028439134398351 -0.0129594659141533 0.4403878 0.8490542 -0.2918313 78 78 78
-0.00592830367210478 -0.0379730760661265 0.0286817843385704 0.3966755 -0.6349594 0.6629292 153 153 153
-0.00491424985054106 -0.0366837083903453 0.0292531991668709 0.4429323 -0.5907787 0.6743823 147 147 147
-0.00937839932563872 -0.0364414751139781 0.0314795369573601 0.1562489 -0.6162741 0.771876 192 192 192
-0.00745880193832488 -0.036401420792689 0.030906617111779 0.3158595 -0.6168252 0.7209435 192 192 192
-0.00517946071746916 -0.0344782173243663 0.0308931911655433 0.4584421 -0.5694036 0.6823565 174 174 174
-0.00179400630119414 -0.0360879003611705 0.0272605264850624 0.6152287 -0.5362039 0.5779092 148 148 148
-0.000592704488068529 -0.0353396236506602 0.0260146701999672 0.7010087 -0.4528866 0.5508907 140 140 140
0.00110975317832857 -0.0325475036708018 0.0255349422164924 0.7669519 -0.3628858 0.5292436 135 135 135
-0.00319030470970244 -0.0326789915171763 0.0309997791715629 0.5868415 -0.4943322 0.6412899 174 174 174
-0.00142582841041655 -0.0327799617854259 0.0293533796735771 0.6811351 -0.438848 0.5860609 135 135 135
-0.000545914841919848 -0.0328418314067027 0.027776300377465 0.7348043 -0.3987847 0.5486651 97 97 97
0.0028915446269217 -0.0369276105967662 0.0211130375333793 0.5785688 -0.3802104 0.7215942 148 148 148
-0.0143997628224191 -0.0337446033564708 0.0323690319725044 -0.5135692 -0.407842 0.7549249 130 130 130
-0.0126586515438852 -0.034424692353358 0.032935231394387 -0.30191 -0.4952045 0.8146304 146 146 146
-0.012270208073884 -0.0357739030924937 0.0324387396045692 -0.2337422 -0.539081 0.8091701 173 173 173
-0.0110767144692239 -0.0347481071559093 0.033257319993592 -0.1194132 -0.5459179 0.8292853 181 181 181
-0.0155698318016824 -0.0332405864802501 0.0315475160547264 -0.6287712 -0.3150461 0.7109098 137 137 137
-0.0147741693985757 -0.0327108203974864 0.0326458061405189 -0.6100118 -0.3305763 0.7201423 122 122 122
-0.0112920064461526 -0.0323428213206431 0.034759520954705 -0.1891093 -0.5120144 0.8379015 164 164 164
-0.0147039849293527 -0.0303924381343028 0.0329773122735985 -0.6354106 -0.2023708 0.7451842 121 121 121
-0.0154427845013437 -0.0285405218211314 0.0331035549112327 -0.6619725 -0.1636456 0.7314455 119 119 119
-0.0113263089192209 -0.028709679803004 0.0358344162174232 -0.3545297 -0.2212857 0.908483 145 145 145
-0.00897055454376311 -0.0347082912531993 0.0327244395681389 0.1528674 -0.6242284 0.76614 188 188 188
-0.0076951343548593 -0.033971697053065 0.0327523345418937 0.2549033 -0.6561961 0.710233 171 171 171
-0.00496884770515532 -0.0332022010890147 0.0316870505281456 0.4808435 -0.5597062 0.6749211 155 155 155
-0.00512680001381011 -0.0323961078730723 0.0329855377145775 0.4720881 -0.5574484 0.6829231 164 164 164
-0.0102342326176462 0.0190279186161855 0.0340974027582176 -0.8323842 0.04006024 0.5527493 96 96 96
-0.00905078239563079 -0.0324778854457042 0.0349554414220817 0.03091503 -0.5728662 0.8190657 148 148 148
-0.00881141014221282 -0.0311448871699473 0.0358356679149635 -0.03498339 -0.473102 0.8803128 189 189 189
-0.00675907321098418 -0.0325192510691783 0.0343512440391548 0.2821627 -0.5823733 0.7623815 154 154 154
-0.00546028800132842 -0.0303098260966441 0.0350217664905556 0.4195233 -0.455548 0.78516 171 171 171
-0.00410297103050322 -0.0322248041239879 0.0325866485305794 0.5050185 -0.5404766 0.6729348 159 159 159
-0.000499125195771166 -0.0308564006892345 0.0294866556592949 0.7377002 -0.3811448 0.5572496 133 133 133
-0.00336348600509734 -0.0306097566691539 0.0332019174762733 0.5996589 -0.4507656 0.6612258 169 169 169
-0.0144933421147165 0.0671269596012929 0.0215354854532249 -0.9062676 0.3296615 0.2645795 132 132 132
-0.00499224252822966 -0.0288130342570445 0.0354448849626549 0.4463289 -0.3930115 0.803948 158 158 158
-0.0090875584614572 -0.0286318361369273 0.0367666477628715 -0.07959134 -0.2609986 0.9620525 180 180 180
-0.00748842544677825 -0.0298675596324107 0.0362903321453102 0.1842543 -0.4152336 0.89086 191 191 191
-0.00583469457748503 -0.0283035337535045 0.0362053657241829 0.3048733 -0.3626829 0.8806324 173 173 173
0.0134483318793479 -0.0427083074656627 0.0118042225309379 0.5020832 -0.3072885 0.808385 123 123 123
0.0167045038211051 -0.0425672828761241 0.00967213458499983 0.498912 -0.2951938 0.8148297 128 128 128
0.0151238780486289 -0.0404266416636607 0.0113719249435432 0.5035263 -0.2941974 0.8123479 132 132 132
-0.0330462712776956 -0.0364969074336192 0.0133094633289345 -0.4971349 0.03660647 0.8669007 123 123 123
-0.0309213954937753 -0.036389499863734 0.0146244013973243 -0.5412931 -0.009617434 0.8407789 105 105 105
-0.0342600304615793 -0.0343791544047496 0.0126310879655845 -0.5298405 0.09550276 0.842703 129 129 129
-0.0315766293537912 -0.034898906907191 0.0138375902839668 -0.5486854 -0.008538914 0.8359852 121 121 121
-0.0307809669506845 -0.0326582491007945 0.014642744726754 -0.6284888 -0.03291936 0.7771217 117 117 117
-0.0288308221829233 -0.0344288646784923 0.0162591481872566 -0.6451179 -0.08825993 0.7589685 114 114 114
-0.025501545144349 -0.036646634301295 0.0187993342348106 -0.6700435 -0.1528022 0.7264249 103 103 103
-0.0347124595177469 -0.0332496463862559 0.0122359389730461 -0.5572967 0.09549733 0.8248034 131 131 131
-0.0338231880200204 -0.0324133932200572 0.012686773604966 -0.5822287 0.05330814 0.8112755 113 113 113
-0.0318106371891794 -0.0328032075968883 0.0138379032083519 -0.5876116 -0.007954299 0.809104 127 127 127
-0.0300789136421976 -0.0318353473750255 0.0151728088327415 -0.6403438 -0.03838651 0.7671286 136 136 136
-0.0337295789254007 -0.0253302156535289 0.0115582490631111 -0.6825868 0.2199034 0.6969345 102 102 102
-0.0265218574536142 -0.0349654256907603 0.0183885986276634 -0.6836725 -0.1424886 0.7157435 79 79 79
-0.0255233604443368 -0.0352058708277843 0.0191689873405464 -0.7048622 -0.1517208 0.6929286 105 105 105
-0.0274579185974893 -0.0328109562007091 0.0177782023616798 -0.7035783 -0.1489516 0.6948317 98 98 98
-0.0267870683205423 -0.0324344932643077 0.0184300685592659 -0.7193435 -0.1758733 0.6720219 96 96 96
-0.0283003706467447 -0.0317416488734386 0.0170542741485603 -0.7116799 -0.1198089 0.692212 129 129 129
-0.0271146852505502 -0.0305346548167369 0.018845334119416 -0.7376251 -0.2129543 0.6407493 92 92 92
-0.0235732156765756 -0.034508019646754 0.0216770315834053 -0.7596848 -0.2103839 0.6153191 101 101 101
-0.0235732156765756 -0.0333196222392222 0.0219740415283211 -0.7697356 -0.2102689 0.6027389 110 110 110
-0.0309869009983835 -0.026658087929835 0.0149398589797981 -0.7281229 0.05162292 0.6834999 114 114 114
-0.0280195433628854 -0.0292445718852183 0.0179566884704597 -0.7687977 -0.1541751 0.6206288 93 93 93
-0.0273486930859384 -0.0289295017329356 0.0193730736442573 -0.7706238 -0.1698606 0.6142364 82 82 82
-0.0255155820381937 -0.0283314287272594 0.0214581931301124 -0.7485602 -0.1604218 0.6433681 100 100 100
-0.0235264260304269 -0.0307088195887706 0.0232689822383888 -0.761869 -0.1974631 0.6168987 99 99 99
-0.0230583805573282 -0.0284188091365001 0.0248523349233635 -0.7505736 -0.106421 0.6521609 88 88 88
-0.0256325859558877 -0.0268220007029674 0.0217130029865272 -0.7732262 -0.07149956 0.6300866 105 105 105
-0.028253581000596 -0.0254850685206554 0.01938296801529 -0.803938 0.03524595 0.5936678 97 97 97
-0.0233002264035043 -0.0240772068110606 0.0246429140039451 -0.7690847 0.03440983 0.63822 82 82 82
-0.024462487174302 -0.0217709838954112 0.0236826980777748 -0.8053839 0.0467433 0.5909077 114 114 114
-0.0224031466973123 -0.0331768095103404 0.024418904847718 -0.7660125 -0.222428 0.6031175 93 93 93
-0.0227307636273202 -0.0325964986888072 0.0234468872018821 -0.764113 -0.2243384 0.604817 103 103 103
-0.021451469136506 -0.0303697883692882 0.0259345764585502 -0.7433578 -0.158675 0.6498011 108 108 108
-0.0325126904976663 -0.0261459648219249 0.0141137833066948 -0.7125142 0.1636991 0.6822948 83 83 83
-0.0313113886845407 -0.0227386056986949 0.0128192300268181 -0.7414933 0.207085 0.6382033 74 74 74
-0.0303831357491312 -0.0220648347941539 0.0146333569952019 -0.752642 0.2109189 0.6237332 142 142 142
-0.031482990456849 -0.0195782482234141 0.0117535436817177 -0.7378414 0.2651702 0.6207051 89 89 89
-0.0335891801846323 -0.0166018306819102 0.00797958619079664 -0.6746767 0.2796086 0.6831035 62 62 62
-0.0316000241768655 -0.0160346328822276 0.0103194559284218 -0.713465 0.2734819 0.6451165 89 89 89
-0.0295640785229501 -0.017904072960963 0.0133885884948738 -0.7835943 0.2578675 0.5652295 125 125 125
-0.0307809669506845 -0.0145923196879527 0.0108762676187523 -0.7235417 0.2713748 0.6346992 78 78 78
-0.0288737375271615 -0.0143909751979014 0.013234406180001 -0.7758937 0.3231822 0.5417954 91 91 91
-0.0261942107212839 -0.019392520150294 0.0209444904991157 -0.8096743 0.1492782 0.5675768 172 172 172
-0.0256793756020364 -0.0203050672618053 0.0211366260715492 -0.8095574 0.1305502 0.5723403 150 150 150
-0.0250709313881692 -0.0192019044963023 0.0216160709329613 -0.8287264 0.122476 0.5460882 106 106 106
-0.0267090756428537 -0.0188316404429576 0.019795298046685 -0.8215711 0.1424967 0.5520106 151 151 151
-0.0287099141609964 -0.0163168012705943 0.0147502417036064 -0.8150787 0.2789584 0.5077685 136 136 136
-0.027879144622117 -0.0169356166926524 0.0176784092851646 -0.8400528 0.2110063 0.4997877 129 129 129
-0.0286748070252237 -0.0152994691935679 0.0147676462598808 -0.8136258 0.2940846 0.5015249 89 89 89
-0.0263658124935922 -0.0150157510844371 0.0186375672288902 -0.8337391 0.2618696 0.4861105 181 181 181
-0.0256559807789621 -0.0142522155848643 0.0189592683979042 -0.8377379 0.2892701 0.463161 169 169 169
-0.0247589010727701 -0.0144801437464854 0.0204131895967491 -0.8233207 0.2363619 0.5160195 201 201 201
-0.0247433144581613 -0.0121887027827403 0.0190135831304558 -0.8409079 0.3282273 0.4302799 126 126 126
0.0108741264807883 -0.0385165512171886 0.014568492240525 0.5217866 -0.2764316 0.8070467 144 144 144
0.0119037967192832 -0.0383199750987193 0.0141548211046226 0.4985915 -0.2856497 0.8184197 143 143 143
0.012863282488555 -0.0369028150645396 0.0137855256267555 0.4880151 -0.3065653 0.8172264 135 135 135
-0.0219819206726846 0.0554128587635854 0.0080990786024101 -0.968479 0.2476859 0.02646115 57 57 57
0.00858077816841035 -0.0366483032313487 0.0168198639818199 0.5698357 -0.3046594 0.7631972 135 135 135
-0.0107022482884225 -0.00119891758834334 0.0352943236299522 -0.5643842 0.06760699 0.8227392 151 151 151
0.0111643116938773 -0.034755617341151 0.0157019043632515 0.5096184 -0.3254156 0.7964884 129 129 129
0.0130271058547202 -0.0325351059046886 0.0155136728950508 0.4728566 -0.335978 0.8145707 117 117 117
0.000124935435027174 -0.0302037298289439 0.0287066245742805 0.760317 -0.356293 0.5431145 121 121 121
0.00572574548599153 -0.0346552431193492 0.0199868375726707 0.5737952 -0.3326626 0.7483947 147 147 147
0.00612357668754487 -0.0337422191706798 0.0202242130704887 0.5750294 -0.3318042 0.7478283 154 154 154
0.00674692206260591 -0.0307979881373546 0.0210405284830101 0.5574171 -0.3469961 0.7542413 136 136 136
0.00536069683906465 -0.0309686958399913 0.0217981631227501 0.5756626 -0.3627852 0.7328025 148 148 148
0.00483650379058748 -0.0303132831660411 0.0223313266702659 0.5793422 -0.3854963 0.718161 132 132 132
0.00700951032516389 -0.0285232364741466 0.0216181719966896 0.5484231 -0.4213179 0.7223042 141 141 141
0.00957298688766389 -0.0326261818019054 0.0176390702196129 0.5758513 -0.3318599 0.7471709 111 111 111
0.0092438202368918 -0.0305302440730235 0.0189324165054329 0.5678244 -0.387652 0.7261552 134 134 134
0.0129022937285605 -0.0305588543025157 0.0165365929075248 0.4944644 -0.3619443 0.790254 124 124 124
0.00881478600379854 -0.0280542671290538 0.0207108551927574 0.5577367 -0.4211294 0.715248 128 128 128
0.00942320041534334 -0.0290870964137218 0.0198559308715828 0.5481403 -0.4159426 0.7256266 139 139 139
0.010967735575408 -0.0291986763087413 0.0180382276245125 0.5224313 -0.4050851 0.7503143 98 98 98
0.0020750802027884 -0.0319351255503795 0.0245246881910332 0.7363036 -0.3595323 0.5732308 135 135 135
0.00313595347282319 -0.0310061275569102 0.0233292127319343 0.6695405 -0.3691566 0.6445454 128 128 128
0.00259513072845369 -0.0300889312831065 0.0250776404806144 0.7208446 -0.386136 0.5755711 126 126 126
0.00310475044128328 -0.0287828743067882 0.025397926039315 0.7015628 -0.4274417 0.5701783 111 111 111
0.00254312567588716 -0.028432637414088 0.0267496550746925 0.7136884 -0.4226204 0.5586063 135 135 135
0.00698423795577913 -0.0264662801829478 0.02324378437481 0.5768018 -0.4418781 0.6870541 132 132 132
0.00491449646827608 -0.026284724434962 0.0250638271041878 0.637956 -0.4762866 0.6051143 115 115 115
0.00620314888832002 -0.0259145795909068 0.0244718486734398 0.6286605 -0.4592684 0.6275815 121 121 121
0.00423738770362764 -0.0258201658335826 0.0264496797986992 0.6593966 -0.4767453 0.5813003 123 123 123
0.00867435746070772 -0.0247065126505992 0.023050605721093 0.6075307 -0.3643509 0.7058009 166 166 166
0.00703624300834566 -0.0241458713618419 0.024807020492173 0.6715661 -0.3705203 0.6416492 109 109 109
0.0101159255969229 -0.0227285921183726 0.0226322556205757 0.6643944 -0.1864015 0.7237642 163 163 163
0.00835609845992952 -0.0218680202571055 0.0244251931377418 0.7110196 -0.1991933 0.6743687 110 110 110
0.012340639160842 -0.0205639898387096 0.0205662394233711 0.6408762 -0.1275784 0.7569686 120 120 120
0.00947001986381441 -0.0204507410136363 0.0232606077857979 0.7018526 -0.1471252 0.6969628 143 143 143
0.0126117210852805 -0.0184561311808726 0.0207589412399299 0.623261 -0.1659642 0.7642 139 139 139
0.0113811831938925 -0.0190822183695933 0.0214948350854881 0.6716037 -0.1512261 0.7253131 122 122 122
-0.0305001396668252 -0.0174935161677501 -0.00570288353481219 -0.8837996 0.4042521 -0.2355387 38 38 38
-0.0316234189999399 -0.0173567831126353 -0.00422173791446612 -0.8419995 0.2971991 -0.4502329 31 31 31
-0.0288932282460031 -0.0121587812510631 -0.00631114893474505 -0.8835244 0.1995514 -0.4237497 46 46 46
-0.0316234189999399 -0.0107521116343638 -0.00289538555660174 -0.801378 0.1281077 -0.5842788 32 32 32
-0.0328403074276742 -0.0102305709925792 -0.0016849344305031 -0.8221516 0.14067 -0.5516147 35 35 35
-0.0263814289105234 -0.00649586316024275 -0.0091641848615639 -0.9020197 0.116712 -0.4156185 33 33 33
-0.0274579185974893 -0.00716724987899275 -0.00749602966823504 -0.8707871 0.07318128 -0.4861835 48 48 48
-0.0249118167889413 -0.000711590012659746 -0.0126086478761666 -0.9267576 0.07877056 -0.3673085 32 32 32
-0.0261474210751352 -0.00356701012526961 -0.00968742423572466 -0.8968599 0.02066094 -0.4418319 39 39 39
-0.0261942107212839 -0.00325646992598982 -0.0101849293045037 -0.8968599 0.02066094 -0.4418319 35 35 35
-0.0261942107212839 -0.00197616215621443 -0.00972478144683764 -0.8705407 -0.04458018 -0.490073 34 34 34
-0.0271458882820901 -0.000663429459681231 -0.00847692840614245 -0.8469384 -0.062823 -0.5279666 55 55 55
-0.0262410301697549 0.00149092082108049 -0.00996047311344073 -0.8575779 -0.05403413 -0.511508 26 26 26
-0.0303129214775857 -0.00520780678664656 -0.00392623298683092 -0.8109528 0.007652785 -0.5850616 69 69 69
-0.029220845176011 -0.00249984856521102 -0.00509510987319872 -0.7948544 -0.05087063 -0.6046641 52 52 52
-0.0334955710900125 -0.00576880570327254 0.000796123809433724 -0.9699571 0.1361348 -0.20162 76 76 76
-0.0303597409260568 0.000693649092564863 -0.00451381557502673 -0.831993 -0.1220426 -0.541196 37 37 37
-0.0300555188191232 0.00381597880447893 -0.00536105089702532 -0.8118543 -0.13351 -0.5683904 42 42 42
-0.0283003706467447 0.00256928805435686 -0.00766705029525683 -0.7917358 -0.1324641 -0.5963286 36 36 36
-0.0346968431008157 -0.0147189199534556 0.00693565554103925 -0.773077 0.3685043 0.5162911 46 46 46
-0.032637502623826 -0.0128760635462901 0.00886964745006635 -0.6831596 0.2832201 0.6731117 119 119 119
-0.0319042462837991 -0.0137036144343516 0.0097841019102104 -0.6879415 0.2990245 0.6613024 73 73 73
-0.0300320941937265 -0.0129539072123668 0.0111613417335518 -0.7342478 0.262178 0.6262131 137 137 137
-0.0290024239552316 -0.0132065116969249 0.0121903414197929 -0.7328463 0.2689918 0.6249638 82 82 82
-0.0306639630329904 -0.0102216302958629 0.0092175895639427 -0.7249633 0.2061447 0.6572158 140 140 140
-0.0308277565968332 -0.00814381237899275 0.00906686431846693 -0.7334542 0.2090291 0.6468012 126 126 126
-0.0345252413285074 -0.00816431637679549 0.00347232765636518 -0.9261234 0.2407955 0.2903671 126 126 126
-0.0334019619953927 -0.00680735703383895 0.00476691073856428 -0.8465486 0.2673836 0.4602841 86 86 86
-0.0310149747860727 -0.00902488823806258 0.00779049045524671 -0.7618858 0.2364251 0.6030201 171 171 171
-0.029922898484498 -0.00618091221724959 0.00892710632762983 -0.7460317 0.2106792 0.6317048 166 166 166
-0.031482990456849 -0.00370040532027693 0.00508353061161115 -0.8315723 0.247214 0.4973658 150 150 150
-0.025913413239747 -0.00969150658523055 0.0137545908161171 -0.7967863 0.2444388 0.5526131 129 129 129
-0.0270132977497873 -0.00848415490066023 0.0127513105340965 -0.7569997 0.19005 0.6251659 169 169 169
-0.027879144622117 -0.00755479927932234 0.0116361970373161 -0.7497278 0.1768606 0.6376743 170 170 170
-0.0257027704251108 -0.00983813401137801 0.0150193268724449 -0.8139443 0.2882954 0.5043615 133 133 133
-0.025164540482789 -0.010173827370753 0.0165519560047157 -0.8396397 0.2950119 0.4560407 110 110 110
-0.0302661318314371 -0.00715926285659285 0.00947880691967085 -0.7500731 0.214359 0.625652 128 128 128
-0.0290960330498514 -0.00766840573226424 0.0101958209939964 -0.7160396 0.1906111 0.6715316 214 214 214
-0.0291428524983224 -0.00449517365371199 0.00924822635135725 -0.752546 0.2023574 0.6266785 155 155 155
-0.0297512967121896 -0.00379803772841902 0.00795954412899091 -0.754416 0.2136751 0.6206443 180 180 180
-0.0292832512390909 -0.00266030426894637 0.00850009865245893 -0.7609273 0.2135538 0.6126862 182 182 182
-0.0275866348278818 -0.00448420639907332 0.0112211549945839 -0.7455673 0.1934202 0.6377445 165 165 165
-0.0253985781204996 -0.00305059548293563 0.0131441051431663 -0.7779315 0.168348 0.6053773 145 145 145
-0.0338543910515604 -0.00261643525039168 0.00111401028118208 -0.9396726 0.2606549 0.2215273 101 101 101
-0.0324658710491952 -0.00238433476363631 0.00436827487430647 -0.8598859 0.2633477 0.4373149 118 118 118
-0.0312021929753122 -0.000815063675989824 0.00505499488792494 -0.8299546 0.2238822 0.5109327 139 139 139
-0.0319510359299478 -0.000252276620020586 0.00257497972927168 -0.9001653 0.21683 0.3777395 90 90 90
-0.0322318632138071 0.00142011050308732 0.0024915928312309 -0.9142317 0.2252276 0.3368279 73 73 73
-0.0312958020699319 0.00103113059128312 0.00351692683181837 -0.8716653 0.2289056 0.4333611 84 84 84
-0.0329105216992197 0.000332564154515547 -0.00124746614017412 -0.9626586 0.08348144 -0.2575254 50 50 50
-0.0326297242176828 0.0014923513325551 -0.0015253280929558 -0.9780056 0.08840214 -0.1889181 80 80 80
-0.032684322072297 0.0011723935994008 0.000464111036873605 -0.9706733 0.2172072 0.1030261 106 106 106
-0.0327935177815256 0.00344476107681779 -0.000826284819030021 -0.9971192 0.06053334 -0.04570481 108 108 108
-0.0324659008515176 0.00320407752121477 0.000652715034104134 -0.96595 0.1275693 0.2250925 116 116 116
-0.0301725227368173 -0.00233820076858016 0.00697514361820295 -0.7941089 0.2396634 0.5585272 147 147 147
-0.0294002849591073 0.000752061644444746 0.00716690666160658 -0.7965747 0.1991784 0.570786 134 134 134
-0.0290492136013803 0.00266274813736467 0.00702972657165601 -0.791572 0.2077269 0.5746855 182 182 182
-0.0286045927536783 0.00108739737595109 0.00842855817756727 -0.7664163 0.1988823 0.6107798 178 178 178
-0.0275671143067178 0.00305923823441057 0.00860618001899793 -0.7759378 0.175655 0.6058596 149 149 149
-0.0273923832905588 0.00526115302170305 0.00756873137435987 -0.7710518 0.1949798 0.6061864 138 138 138
-0.0266622561943826 0.00561329726303605 0.00883166439018324 -0.7587351 0.2040035 0.6186305 167 167 167
-0.0300789136421976 0.00532397631729631 0.00303047842464521 -0.8762605 0.183245 0.445633 136 136 136
-0.0305235344898996 0.00392887000168352 0.0048918420740135 -0.8451347 0.2081549 0.4923604 178 178 178
-0.0305469591152963 0.00546297434891252 0.00413428194007948 -0.852489 0.1844174 0.4891347 182 182 182
-0.0314830202591714 0.00665590170944719 0.00158089346370771 -0.9065798 0.1812511 0.3811314 110 110 110
-0.0293144542706308 0.00704011324966936 0.00480312056026533 -0.846985 0.1698874 0.5037407 136 136 136
-0.0297980863583383 0.00797495249832658 0.00239534623107984 -0.8918645 0.1954316 0.4079021 113 113 113
-0.0292364317906198 0.00596484545792131 0.00621542281589582 -0.822009 0.1793206 0.5405048 162 162 162
-0.0299073118698892 0.00907477740372209 0.00329756683788374 -0.8800728 0.2127808 0.4244952 97 97 97
-0.0290375310910043 0.00946268443192033 0.00491462594947889 -0.8343316 0.194918 0.5156527 148 148 148
-0.0186276394856271 -0.0284548103419444 0.0294577176042564 -0.7470377 -0.1159362 0.6545941 106 106 106
-0.017769600821763 -0.0284651815501353 0.0304397339292534 -0.7408271 -0.1303222 0.658932 92 92 92
-0.0175823826325235 -0.0248199998942515 0.0310439164110191 -0.7648829 -0.07785287 0.6394476 97 97 97
-0.0161782760155496 -0.0261644422618053 0.0326617652841575 -0.7036093 -0.133598 0.6979152 100 100 100
-0.0168101150524911 -0.0242348014918468 0.0322721744247444 -0.7465506 -0.05413479 0.6631227 97 97 97
-0.0212611515057382 -0.0204899608698985 0.0270977014966972 -0.7951561 0.01964931 0.6060864 125 125 125
-0.018214221669465 -0.0225349962321422 0.0304270530410774 -0.7716459 -0.03171549 0.6352611 104 104 104
-0.0201565880310831 -0.0194728672114513 0.0269002909132011 -0.7962618 0.01729676 0.6047048 131 131 131
-0.0146961767208871 -0.0262179672328136 0.0342501992650993 -0.6294924 -0.1697557 0.7582363 122 122 122
-0.0148560959828195 -0.0259688198176524 0.0337470168539055 -0.6399682 -0.1717863 0.7489527 124 124 124
-0.0146961767208871 -0.0245082676020763 0.034423440165139 -0.6376413 -0.1396844 0.7575631 116 116 116
-0.012785013390809 -0.0263401567546031 0.0352325583168037 -0.5341347 -0.1717053 0.8277786 132 132 132
-0.0126680094731149 -0.0252148210612437 0.0361562067934044 -0.4841011 -0.1507306 0.8619318 115 115 115
-0.0132881659996805 -0.0244247018901012 0.0352942342229851 -0.5358673 -0.1613996 0.8287318 117 117 117
-0.0112451869976816 -0.0245653688517711 0.0364884579845436 -0.4142626 -0.1754035 0.8930958 141 141 141
-0.0134948749077615 -0.0219619571772716 0.0358263844915397 -0.5709599 -0.06031165 0.8187596 150 150 150
-0.0127928215992746 -0.0213969051448009 0.0365107352205284 -0.4791569 -0.07731495 0.8743175 153 153 153
-0.0110298950207529 -0.0205077230540416 0.0373571062751777 -0.390891 -0.02635022 0.9200597 169 169 169
-0.0182610113156137 -0.0201778709498546 0.0304143274494179 -0.7611758 0.01027174 0.6484643 126 126 126
-0.0173717696202096 -0.0165146886912486 0.0311695630022056 -0.7364511 0.09879235 0.6692383 151 151 151
-0.0154528278839883 -0.0208616554347179 0.0347760612436302 -0.6984996 0.007586311 0.7155702 134 134 134
-0.0157102305424509 -0.0178556739894054 0.0324361915060051 -0.7011833 0.1123589 0.7040721 116 116 116
-0.0244625169766244 -0.00429704781447859 0.0145544702478416 -0.8013945 0.1799327 0.5704307 169 169 169
-0.015351410580903 -0.0143956243601939 0.0327597106166847 -0.6677939 0.09894805 0.7377402 108 108 108
-0.0231519896519479 -0.0187207758036754 0.0234887147613533 -0.8031906 0.1054152 0.5863212 134 134 134
-0.022894557191163 -0.0184375345317027 0.0247582042881019 -0.8070784 0.08455991 0.5843578 121 121 121
-0.0231052000057992 -0.010724216660609 0.0207847947546013 -0.8443536 0.2971247 0.445852 87 87 87
-0.0219819206726846 -0.0181526243296763 0.0264782155223854 -0.8060076 0.08558541 0.585685 116 116 116
-0.0214046794903573 -0.0162518322077891 0.027054100699044 -0.7984461 0.1348384 0.5867729 114 114 114
-0.0208586115372476 -0.0179877578822276 0.0281046474643715 -0.7934754 0.0676783 0.6048276 140 140 140
-0.0213734764588174 -0.0155738889781138 0.0252389455505379 -0.8281859 0.1394548 0.5428264 121 121 121
-0.022379751874238 -0.0137785970774791 0.0244683469005592 -0.8327448 0.2057799 0.5139949 195 195 195
-0.0213266570103464 -0.0139872133341929 0.0259561980434425 -0.8238383 0.1630088 0.5428799 138 138 138
-0.0226605493557748 -0.0119867622462413 0.0227862889238365 -0.8325899 0.2531257 0.4926678 161 161 161
-0.0226371545327005 -0.010612755974879 0.022602527803994 -0.8513576 0.2369081 0.4680436 185 185 185
-0.0221457142365274 -0.00838819142257186 0.0214018518396385 -0.8641289 0.2643625 0.428245 104 104 104
-0.0216074842942056 -0.00770440693770857 0.0231386417814262 -0.8762155 0.2450041 0.4149933 156 156 156
-0.0203437764180002 -0.0165139734355113 0.0282407695718773 -0.7904921 0.110802 0.6023663 187 187 187
-0.0182610113156137 -0.0162426530924937 0.0305325383611686 -0.7493126 0.1132654 0.6524581 149 149 149
-0.0207650322449502 -0.0130309164134166 0.02622289902649 -0.8130945 0.2102459 0.5428389 112 112 112
-0.0170581895840463 -0.0139817297068736 0.031111403770066 -0.7210272 0.1074418 0.6845261 127 127 127
-0.0170909423363504 -0.0119939148036143 0.0309441829391487 -0.7483756 0.1016457 0.6554404 124 124 124
-0.0156166214478311 -0.0119362175074718 0.0317848319478996 -0.6689314 0.09016769 0.737835 122 122 122
-0.0168803293240365 -0.010212570389857 0.0308396810956962 -0.751356 0.1165538 0.6495224 151 151 151
-0.0199069637787637 -0.0118327438441417 0.0268547678657539 -0.8129978 0.1826545 0.552876 115 115 115
-0.0204373855126199 -0.00858309861098738 0.0250580901571281 -0.843892 0.2100224 0.4936972 101 101 101
-0.0193609256279764 -0.00831213589583846 0.0269202435680397 -0.8280486 0.1842063 0.5295315 156 156 156
-0.0184716541302499 -0.0107411443797252 0.0288541460700996 -0.7926198 0.1457941 0.5920286 108 108 108
-0.0124340016377267 -0.0177496969309947 0.0362451220222481 -0.5252245 0.1745554 0.8328683 87 87 87
-0.0132998783123788 -0.0163587629405162 0.035138412780381 -0.5852544 0.1882091 0.7887044 98 98 98
-0.0121063847077188 -0.0134858190623424 0.0347541565366752 -0.5632658 0.1133653 0.818462 134 134 134
-0.0110833901894388 -0.0116377174464366 0.0354314888187416 -0.5131392 0.06750196 0.8556469 143 143 143
-0.0150082070362863 -0.00995364781295272 0.0327757740684517 -0.645136 0.06135701 0.7616002 136 136 136
-0.0152141112816629 -0.0086317360011241 0.0325757557817467 -0.6613455 0.07138411 0.7466769 155 155 155
-0.0107223350537118 -0.0106029808131358 0.0357690895267494 -0.5200226 0.006879273 0.8541248 162 162 162
-0.0165995020401773 -0.00614753361617537 0.0306160593696602 -0.8025181 0.1176256 0.5849178 133 133 133
-0.0116985101235208 -0.00632897015487166 0.0346638554998405 -0.5827945 0.0500869 0.8110745 154 154 154
-0.0136274952423868 -0.0035583078471324 0.0331590170331962 -0.67214 0.1027931 0.733254 118 118 118
-0.0121999938023385 -0.00370112057601424 0.0342873478599556 -0.5980886 0.09719956 0.7955139 124 124 124
-0.0121999938023385 -0.00310221310531111 0.0341108138032921 -0.5922832 0.1032568 0.7990862 117 117 117
-0.013385679198533 -0.002169996461024 0.0331911439367302 -0.6252302 0.1061366 0.7731897 112 112 112
0.00101197175857454 -0.0280897914973399 0.0285124326416023 0.7510124 -0.3637196 0.5510794 120 120 120
-0.00100224800232024 -0.0287140905467174 0.0313323581882484 0.7463322 -0.3431009 0.5703244 141 141 141
-0.00133639164093108 -0.0261241495219371 0.0329554820724495 0.7128885 -0.3312717 0.6181011 151 151 151
0.00106296353217988 -0.0244272052851817 0.0311448568769462 0.6875083 -0.3930162 0.6106313 134 134 134
6.25293719473397E-05 -0.0245572626200816 0.0323196793266304 0.7160047 -0.3461303 0.6062435 148 148 148
-0.0054290849697885 -0.0262091457453868 0.0369019950099952 0.3642555 -0.328486 0.8714442 177 177 177
-0.00559287853363127 -0.0249035656062266 0.037565752334214 0.2492949 -0.3098137 0.9175334 171 171 171
-0.00709840245369048 -0.0249609052745006 0.0374638134904869 0.04107038 -0.3085095 0.9503342 154 154 154
-0.00705584473732085 -0.0222932397929332 0.0385044509836204 -0.009073822 -0.1749496 0.9845356 147 147 147
-0.00954153723838896 -0.0223317443934581 0.0375716978975303 -0.2748994 -0.1809463 0.9442927 156 156 156
-0.00313570685508818 -0.0264911949244639 0.0348878646560676 0.6248236 -0.3296621 0.7077558 149 149 149
-0.00097649879577727 -0.0247785150614879 0.0331375742622383 0.7134445 -0.3190693 0.6238524 148 148 148
0.000360373781889967 -0.0224848091212413 0.0330194080539711 0.6848892 -0.3329187 0.648145 130 130 130
-0.00138836689117522 -0.0225646793452403 0.0348337138362892 0.6694837 -0.2938647 0.682228 140 140 140
-0.0030889172089395 -0.0220433771220347 0.0367141509719856 0.5690383 -0.2720416 0.7760082 129 129 129
-0.00312479920509429 -0.0204819738474986 0.0372216994234092 0.5263425 -0.204393 0.8253406 135 135 135
0.000769261645049146 -0.0204264223185679 0.0335849667259224 0.6708663 -0.2840167 0.6850349 137 137 137
-0.00151317901733489 -0.0199388563243053 0.0358407939144142 0.631492 -0.1890418 0.7519848 153 153 153
-0.000592704488068529 -0.018996864518275 0.0353672052093513 0.645121 -0.1980417 0.7379691 126 126 126
0.00220880322334199 -0.0258425771800181 0.0287267411418922 0.6848924 -0.4383363 0.5820513 142 142 142
0.00259927325126558 -0.0246359407511851 0.0291024888225563 0.6642138 -0.4390503 0.6050247 138 138 138
0.00486657433387666 -0.0245459377375743 0.0272624636360176 0.6689658 -0.4400592 0.5990264 111 111 111
-0.0207884270680246 0.0256380737217763 0.0130412871309288 -0.8467513 0.02124346 0.5315647 155 155 155
0.00361958556053071 -0.0249585210887096 0.0278443688817985 0.6687329 -0.444984 0.5956388 129 129 129
0.00563213639137178 -0.0245244800654552 0.0260414177843101 0.6778649 -0.4145583 0.6071578 127 127 127
0.00451666526672273 -0.0224387943354747 0.0291683221527107 0.6930608 -0.3741972 0.6161519 133 133 133
0.00496519021865754 -0.0201527177897594 0.0295538300939567 0.7485498 -0.2894682 0.596558 108 108 108
0.00840914659377962 -0.0200943052378795 0.0247342879243858 0.7416859 -0.1972746 0.6410809 124 124 124
0.00731707029220491 -0.0201092063990733 0.0254859471984871 0.7695562 -0.2340916 0.594125 80 80 80
0.00309807472106843 -0.0204752981272838 0.0312345171638496 0.6855706 -0.303619 0.661671 126 126 126
0.00426313691017061 -0.0198954641429088 0.0305102909275062 0.7110856 -0.2880438 0.6413954 120 120 120
0.00463366918441682 -0.0180592834559581 0.0308046931692131 0.7137095 -0.2419198 0.6573383 109 109 109
0.00282392315742402 -0.0177228748408458 0.0325762624212272 0.6682187 -0.2321498 0.7068169 135 135 135
0.00165385417816072 -0.0172882377711436 0.0337281817861564 0.6718751 -0.2040387 0.7120057 115 115 115
0.00734046511527925 -0.0167795717326304 0.0274681145616539 0.7930353 -0.2738513 0.5441512 113 113 113
0.0101018589007559 -0.0192501842585704 0.0229597235389717 0.7029282 -0.1744078 0.6895462 128 128 128
0.013237718867034 -0.0149035751429698 0.0214489395090111 0.6572894 -0.2218109 0.7202573 121 121 121
0.00939202718612581 -0.0147394239512584 0.0251624280878074 0.7643527 -0.2628074 0.58881 100 100 100
0.0103300254809561 -0.0126723348704478 0.0253222132392891 0.7586356 -0.2170917 0.6142827 98 98 98
0.00979766659614473 -0.0128071605769298 0.0256668770977028 0.7761178 -0.2244479 0.5892914 83 83 83
0.0122080188262167 -0.0142052471247813 0.0224253231950767 0.6934334 -0.2369399 0.6804481 123 123 123
0.0121378343569937 -0.012405067643275 0.0231162453361519 0.7304212 -0.2137488 0.6486882 117 117 117
0.0111148398387137 -0.010664492806544 0.0248654628463753 0.7508001 -0.1987929 0.6299052 111 111 111
0.0131154995429221 -0.0084948837367198 0.023139625258065 0.7280523 -0.1964057 0.6567835 125 125 125
0.0055853467452231 -0.0170044004527232 0.0297531331249244 0.7663788 -0.2523462 0.5907494 130 130 130
0.00628740005371003 -0.0144639312831065 0.0303516382642753 0.7202231 -0.1741274 0.6715344 141 141 141
0.00536302142021089 -0.0125572979060313 0.0313626075454719 0.7043267 -0.1360845 0.6967101 142 142 142
0.00642002038833528 -0.010680943688502 0.0306918764778145 0.7149148 -0.09437643 0.692813 151 151 151
0.00989127569076448 -0.0128448307124278 0.0261716837354667 0.7811909 -0.2145594 0.5862637 95 95 95
0.0114513676631156 -0.00862517949019881 0.025126575893975 0.7451131 -0.1775515 0.64287 117 117 117
0.0104177933203879 -0.00673428173934432 0.0267289722629555 0.7336944 -0.1743516 0.6567298 127 127 127
-0.00726556367996306 -0.0206946432200572 0.0387271488376625 -0.04252334 -0.05865387 0.9973723 152 152 152
-0.00964921302917571 -0.0206582843867442 0.0378046924539573 -0.2692541 -0.03218057 0.9625314 174 174 174
-0.00850250907066435 -0.0211282074061534 0.0382577920623787 -0.1316199 -0.07562764 0.9884112 147 147 147
-0.00517946071746916 -0.02075758572494 0.0386290842958458 0.2019331 -0.1259345 0.971269 162 162 162
-0.00419658012512297 -0.0209755003062388 0.0379567588039406 0.3513809 -0.1867877 0.9174104 167 167 167
-0.00516777820709319 -0.0187450944987437 0.0387676650949486 0.1515718 -0.01348905 0.9883542 148 148 148
-0.00838547535064788 -0.0188422500697276 0.0385000849433906 -0.177473 0.02995429 0.9836697 140 140 140
-0.0073168236744699 -0.0180496275035045 0.0386352086730964 -0.08376653 0.03114991 0.9959984 146 146 146
-0.00497352666977019 -0.0164766609278819 0.0384072954126365 0.08474056 0.01086387 0.9963439 147 147 147
0.0106026869284812 -0.000381141862024981 0.0284927631088264 0.7318974 -0.1455289 0.6656933 118 118 118
-0.0078472454083261 -0.0157466232386729 0.037748470372773 -0.1834895 0.113633 0.9764318 133 133 133
-0.00561004467132659 -0.0145575105754039 0.0382277960248955 -0.00546578 0.02858499 0.9995764 124 124 124
-0.00749623365524382 -0.0120538770762584 0.0374124491878517 -0.3159894 -0.03841211 0.9479848 125 125 125
-0.00349452681663603 -0.0185354053584239 0.0381389851041801 0.3988873 -0.06701645 0.9145478 155 155 155
-0.00285487957122893 -0.0164273082820079 0.0378278339572914 0.3909491 -0.071298 0.9176466 153 153 153
-0.0036193389427957 -0.0159356891719005 0.03815957850895 0.2978552 -0.04126178 0.9537189 156 156 156
-0.00146638937118621 -0.0181631147471568 0.0366394514509208 0.6163363 -0.1733067 0.768176 156 156 156
0.00081137232658296 -0.0144863426295421 0.0351142281957634 0.6400017 -0.1637297 0.7507266 119 119 119
-0.00345944948318572 -0.0142311155406138 0.0381968463130958 0.1653208 -0.07263187 0.9835617 171 171 171
-0.00197344608429045 -0.0126778184977672 0.0381403858133323 0.3753768 -0.1635758 0.9123241 178 178 178
-0.00918894596222014 -0.0123105346766612 0.0363302523561485 -0.4661413 0.01233385 0.8846243 108 108 108
-0.00969600267532439 -0.0120173990336558 0.03583362645588 -0.4776108 0.02804702 0.8781237 115 115 115
-0.00611555166366667 -0.0123532116023204 0.0377155537076957 -0.1882617 -0.03769709 0.9813951 137 137 137
-0.00602191276672454 -0.0113027393427989 0.0377679610916145 -0.2758879 -0.123378 0.9532385 145 145 145
-0.0092914957535562 -0.00842419262801619 0.0368969584175117 -0.5356563 -0.03128075 0.8438565 151 151 151
-3.10797226724113E-05 -0.0136474668589732 0.0361349279352196 0.6305509 -0.1684225 0.7576538 156 156 156
-0.000955458356171557 -0.0108318626490733 0.0376501823135383 0.5212207 -0.2020626 0.829156 152 152 152
