ply
format ascii 1.0
comment File exported by Rhinoceros Version 7.0
element vertex 478
property float x
property float y
property float z
property float nx
property float ny
property float nz
property uchar red
property uchar green
property uchar blue
end_header
-0.0447456682812729 0.0704925260343209 0.00973789061713944 0.002514465 0.9743264 -0.2251262 63 63 63
-0.0465311857274219 0.0707145272048111 0.00994722146311881 0.009609696 0.9749907 -0.2220379 110 110 110
-0.0514087297925842 0.0698389151492672 0.0064663027381479 0.03179064 0.9769197 -0.2112281 78 78 78
-0.0500308500957761 0.0738623044378292 0.0284101771640714 0.02745912 0.9864363 -0.1618313 75 75 75
-0.0537537003310661 0.073955219956774 0.029070820993224 0.0504939 0.9876043 -0.148621 71 71 71
-0.0544749522322162 0.0736247568854831 0.0276822355506107 0.04662076 0.9843704 -0.1698277 54 54 54
-0.0557288719423897 0.074220275608651 0.0296121502352418 0.04523538 0.9884511 -0.1446311 67 67 67
-0.0597185018107974 0.0744924634696285 0.0297165444302589 0.02035732 0.9887066 -0.1484746 93 93 93
-0.0522011646738801 0.0728856694107749 0.0226736438530032 0.03637236 0.9860545 -0.1623991 61 61 61
-0.0548862737788606 0.0731684786875544 0.0228572834802737 0.03526267 0.9848948 -0.1695253 68 68 68
-0.0511341884790261 0.0727610913677904 0.0220832505535272 0.03348236 0.9855837 -0.1658426 53 53 53
-0.0550905464798165 0.0728585841806094 0.0211606585646363 0.0496191 0.9864415 -0.1564326 66 66 66
-0.0606195936956594 0.0738223774944624 0.02624678365396 0.008412502 0.9843864 -0.1758198 43 43 43
-0.0601166758483952 0.0732146581528153 0.0239048414238779 0.01774666 0.9836438 -0.1792485 52 52 52
-0.0600192753539451 0.0746975012212424 0.0320530502508151 0.03332224 0.9953621 -0.09024349 114 114 114
-0.0636375390933103 0.0745927952174993 0.0305481216377812 0.0009691408 0.991257 -0.1319419 77 77 77
-0.0648598615198014 0.0747749711017962 0.032739546726745 0.002303499 0.9955923 -0.09375829 94 94 94
-0.0614953351624844 0.0743685257746522 0.0282144033798582 0.0078748 0.9883212 -0.1521811 68 68 68
-0.0680412993340148 0.0745906124963494 0.0297789231154581 0.004430743 0.9920532 -0.1257415 108 108 108
-0.0680568284130662 0.0750237978342178 0.0347560330952734 -0.005303547 0.9961038 -0.08802833 103 103 103
-0.0622483015076215 0.0735273109710237 0.0244509296982242 0.02170263 0.9825198 -0.1848887 37 37 37
-0.0667061863975092 0.0741567281427012 0.0275221463518221 0.01214767 0.9906346 -0.135998 62 62 62
-0.0667700455917454 0.0737847181463686 0.0233498189725522 0.03401441 0.9882146 -0.1492479 83 83 83
-0.0702422502474066 0.0742239093044104 0.0276389300978646 -0.01108853 0.9923008 -0.1233536 76 76 76
-0.0683201919827995 0.0737295213075986 0.0242321165632496 0.01521761 0.9894313 -0.1442021 79 79 79
-0.0702592794731102 0.0741973656834356 0.0253836676922139 0.005193861 0.9903579 -0.1384349 76 76 76
-0.0511621614947729 0.0720232849062004 0.0186572219505288 0.02590342 0.9819056 -0.1875907 48 48 48
-0.0560856351869864 0.0722651396275299 0.0169227176415978 0.06619011 0.9800111 -0.1876088 100 100 100
-0.0536890004622786 0.0714053652874518 0.015583522488401 0.06602816 0.9821787 -0.1759693 45 45 45
-0.0562595490549381 0.0714001505694057 0.0136973779134178 0.0634075 0.9812332 -0.1821013 66 66 66
-0.0579949001688532 0.0718749140926816 0.0155809479882837 0.05225024 0.98224 -0.1802068 102 102 102
-0.0610728603583367 0.0723557155738395 0.0156670772758151 0.03475159 0.9820984 -0.1851351 63 63 63
-0.0520471637639338 0.0710063924380321 0.0117131699902431 0.04720046 0.9836248 -0.1739377 63 63 63
-0.0571849475817611 0.0708883866477493 0.00969635422251126 0.02400869 0.9750201 -0.2208154 63 63 63
-0.0576033796317484 0.0711273715691948 0.0102327378276917 0.02032506 0.9774816 -0.2100396 85 85 85
-0.0596517451587802 0.0712327770847289 0.0136248257064317 0.01723216 0.9770024 -0.2125307 47 47 47
-0.0591379398080064 0.0709308936738116 0.00996399099441769 0.01849605 0.9771508 -0.2117408 76 76 76
-0.0609921278660414 0.0701958570213276 0.00889177854844279 0.0263497 0.9730963 -0.2288873 51 51 51
-0.0626385192513709 0.0710077814283974 0.0104259120998054 0.04371973 0.978314 -0.2024607 40 40 40
-0.0657824756622812 0.0726365417552544 0.0173851375359436 0.0437275 0.985943 -0.1612587 29 29 29
-0.0721274291766606 0.0728801203496339 0.0179492254121194 0.007553274 0.9915494 -0.1295094 121 121 121
-0.066851643723053 0.0719711730284624 0.0133625199350909 0.0601932 0.9812294 -0.183209 98 98 98
-0.0686341364204707 0.072165778757907 0.0135091512315963 0.05696708 0.9834484 -0.1719996 128 128 128
-0.0721809829463519 0.0725724516044151 0.016085557078085 0.00741603 0.989751 -0.1426115 104 104 104
-0.0713115255531679 0.0721570684178812 0.0125526697087698 0.005445664 0.9848609 -0.173261 51 51 51
-0.0577317835646828 0.0724859971379988 0.0194713224208453 0.03012228 0.9886838 -0.1469589 57 57 57
-0.0613950535788336 0.0727843001039559 0.0201429992045544 0.04101425 0.9886227 -0.1447174 48 48 48
-0.0695591527938956 0.0731942872267667 0.0213312927848374 0.008779371 0.9901686 -0.1396037 98 98 98
-0.0707796634736911 0.0729835792164771 0.0173949042011145 0.02124363 0.9908972 -0.1329335 148 148 148
-0.111984665416486 0.0309888596754301 0.0543003630954885 -0.9911492 0.1151215 0.06610753 98 98 98
-0.112148192560258 0.0327456108573511 0.0525162613747341 -0.9912238 0.1148465 0.06546524 100 100 100
-0.11100063072156 0.035013450069776 0.0532787423855537 -0.9977317 0.02434338 0.06275924 94 94 94
-0.11240624388873 0.0334954505648712 0.0512276575161623 -0.9949653 0.08702555 0.04970649 42 42 42
-0.11258865936134 0.0307981494650101 0.046822001082383 -0.9700019 0.210726 0.1212056 37 37 37
-0.111835434907648 0.0363230703871832 0.0491620656528028 -0.9952478 0.007541566 0.09708236 29 29 29
-0.112103346482164 0.0378117596103296 0.046757710668544 -0.9877679 -0.09979687 0.1198129 29 29 29
-0.111572664210613 0.0402079928403161 0.050552260626223 -0.9776558 -0.1889874 0.09204887 27 27 27
-0.112917052794487 0.0434220753724754 0.052982309101497 -0.9831116 -0.1070019 0.1484658 83 83 83
-0.112705165974794 0.0407763702373059 0.047898488809587 -0.9719486 -0.2048837 0.1154924 36 36 36
-0.112315777319476 0.0474422858101955 0.049665865017343 -0.9810621 0.1854471 0.05591486 41 41 41
-0.11262265896478 0.0313560316168861 0.0424441933804712 -0.9679261 0.1850396 0.1699394 30 30 30
-0.112960348616472 0.032726501549399 0.0405192160857592 -0.9667895 0.1245691 0.2231604 24 24 24
-0.11307519268652 0.0310853147883808 0.0402928461002954 -0.9484559 0.1920381 0.2520966 37 37 37
-0.112025099156558 0.0373046050195746 0.0444094676540019 -0.9820804 -0.08843435 0.1664255 25 25 25
-0.113159702414583 0.0396826609801672 0.0421962922999786 -0.9821987 -0.1083844 0.1534226 43 43 43
-0.113187694140982 0.0361993038125104 0.0387771234553813 -0.9773024 -0.04689323 0.2065939 35 35 35
-0.113806466011349 0.0359519556688621 0.0375748865653779 -0.9757964 -0.04007516 0.2149777 36 36 36
-0.113688770303966 0.0427791999458145 0.0420116100852678 -0.986253 -0.1051078 0.1275042 44 44 44
-0.114092849574113 0.0405284542546442 0.0362473281076226 -0.9789141 -0.0504053 0.197956 44 44 44
-0.112661495015706 0.0421853469698947 0.0468499090825907 -0.9748089 -0.1727106 0.1411339 39 39 39
-0.113192252194538 0.0458616505878936 0.0488884576452222 -0.993308 0.08384918 0.07942639 47 47 47
-0.11297495768395 0.0418956244010664 0.0443478237154517 -0.9839872 -0.1432619 0.1060434 28 28 28
-0.113977251155546 0.0443546851340427 0.0440351618850651 -0.9951379 0.01306929 0.09762065 36 36 36
-0.11207994921894 0.0494956442454913 0.045081424357865 -0.9608603 0.2768035 -0.0112853 60 60 60
-0.111154355358668 0.0538581807814768 0.0452727222473555 -0.991347 0.1179416 -0.05762676 64 64 64
-0.113801996581787 0.0439752668469218 0.0382919237036237 -0.9892082 0.08699215 0.1178958 46 46 46
-0.11107100044001 0.0519954453990107 0.0380945936869778 -0.9613262 0.2635581 0.07993181 58 58 58
-0.110501279202282 0.0547082099956276 0.0393370178464022 -0.9897646 0.1347857 0.04689254 53 53 53
-0.073199211696939 0.0756043615947609 0.0405519520581527 -0.005636269 0.9968221 -0.07946064 85 85 85
-0.0762508458471817 0.0757064460685648 0.0409325349415997 0.008561091 0.9965742 -0.08225926 111 111 111
-0.0789538744636143 0.0753871568335133 0.0415781519165937 0.004879323 0.9966444 -0.08170772 111 111 111
-0.0836368119872281 0.0755771687288186 0.0441346938738185 -0.008464093 0.9980285 -0.06218993 101 101 101
-0.089113272245038 0.0754682161576535 0.044216281441854 -0.03540116 0.9981009 -0.05041162 96 96 96
-0.110905846859251 0.0564560196598717 0.049517347571174 -0.9960032 0.0103766 -0.08871271 43 43 43
-0.111121033547133 0.0540177624392651 0.0475605452743688 -0.9924542 0.08465733 -0.0887008 63 63 63
-0.110737700351199 0.0556302298937766 0.0458825669001068 -0.9959488 0.04110258 -0.07997877 48 48 48
-0.111632737499593 0.0594312421903218 0.050976154084411 -0.994127 -0.03736654 -0.1015642 43 43 43
-0.111202410939945 0.0613730518288734 0.049892063963251 -0.9921238 -0.06563681 -0.1066875 70 70 70
-0.111630235338204 0.0626008857661199 0.0490326848624939 -0.990029 -0.08612546 -0.1114677 54 54 54
-0.110743952335849 0.0554099645489347 0.0427606276311611 -0.9968356 0.07013146 -0.03742125 55 55 55
-0.110375857051271 0.0550236661225123 0.0408921118043147 -0.9964713 0.08267125 -0.01450216 45 45 45
-0.110354557920725 0.0571098741926345 0.041933270460187 -0.9992359 0.01740365 -0.0349969 45 45 45
-0.11070368170282 0.0609163004535812 0.0407163278848458 -0.9990244 -0.03515345 -0.02673011 35 35 35
-0.110630672701172 0.0598187884922948 0.0444580036125128 -0.9951077 -0.04905388 -0.08575811 45 45 45
-0.110866511597209 0.0633716049483933 0.0423291345314614 -0.9926963 -0.04772726 -0.1107975 45 45 45
-0.110960132233321 0.0657242533919009 0.0421148385871104 -0.9915357 -0.02375367 -0.1276426 50 50 50
-0.111007034684703 0.0625968872824341 0.0440788321975436 -0.9898158 -0.065267 -0.1265108 36 36 36
-0.111293948213189 0.0651027433011173 0.0467439694820087 -0.9894618 -0.08232281 -0.1191145 38 38 38
-0.0951012077149557 0.0752688541768433 0.0446840363724701 -0.0007956731 0.9983879 -0.05675251 70 70 70
-0.10270026546138 0.0759549844983329 0.0477640221113275 -0.08198002 0.9966109 -0.006784008 96 96 96
-0.104632677708538 0.0763960131688427 0.0465427945582841 -0.1567698 0.9875246 0.01478015 77 77 77
-0.1115113990443 0.065739253245729 0.0472016401920175 -0.991432 -0.05257097 -0.1195785 32 32 32
-0.111340532941356 0.0701818466608572 0.0441197107536856 -0.9889073 0.06591633 -0.1331064 70 70 70
-0.110913705746329 0.0720826891033451 0.0446898552628303 -0.9780436 0.2017717 -0.05214441 51 51 51
-0.114753527964602 0.043154574402981 0.0352100245251186 -0.9797601 0.08872464 0.1794385 42 42 42
-0.117179224991781 0.0402606535040581 0.0269418155137407 -0.9610075 0.1891817 0.2016801 42 42 42
-0.118626331516111 0.0376321050115079 0.0252412263606963 -0.978829 0.2037286 0.01971209 58 58 58
-0.116785270425633 0.0413238561413223 0.0274615053862507 -0.9524304 0.2029384 0.2273597 42 42 42
-0.116860832058265 0.0456211065734428 0.0260796327418993 -0.9436285 0.2902507 0.1591214 48 48 48
-0.113054496399171 0.0483682995493046 0.0340489505055751 -0.9301645 0.3327953 0.1550526 63 63 63
-0.11307733045694 0.0495029804320731 0.0328159258079291 -0.9236401 0.3520152 0.1515722 64 64 64
-0.110714680003543 0.0565216056886541 0.0361068638407469 -0.991585 0.1041349 0.07690952 47 47 47
-0.111878384727538 0.0513577205287554 0.0337941083500468 -0.9410544 0.312302 0.1299389 62 62 62
-0.112878618076145 0.0505138854526645 0.0299761486423284 -0.9006329 0.3929457 0.1856183 62 62 62
-0.111283574216777 0.0532566969551056 0.0316273505062367 -0.9452217 0.2940117 0.1418204 60 60 60
-0.117559653716146 0.0377075505264695 0.0224468535482004 -0.9846978 0.1419456 -0.1011025 51 51 51
-0.118255187698392 0.0407506340550019 0.0231214384889193 -0.9863123 0.1639511 0.01754938 88 88 88
-0.118606473244096 0.0407044848326044 0.0215406472839975 -0.9935606 0.110389 -0.02552566 84 84 84
-0.11747221251377 0.040649215760986 0.0202917383628291 -0.9942104 0.09976862 -0.03989938 59 59 59
-0.117224092539821 0.0449574270740282 0.0227424414579782 -0.9639903 0.2527405 0.0827342 44 44 44
-0.11728277610743 0.039897970155687 0.017143126451916 -0.997892 0.06186325 -0.01960898 52 52 52
-0.117284467478678 0.0392234088220756 0.012184824456691 -0.9975587 0.06061999 -0.03466755 58 58 58
-0.116919942391087 0.0435527632345342 0.0116379936507322 -0.9963255 0.08278587 -0.02195594 74 74 74
-0.117281558008636 0.0440705441211092 0.0179312725977701 -0.9787548 0.2050304 0.001278212 66 66 66
-0.114671064433425 0.0497565899421896 0.0243338209792713 -0.9088503 0.3863527 0.157235 68 68 68
-0.11170499965986 0.0577876512707363 0.0264714297275878 -0.977091 0.0455348 0.2078934 34 34 34
-0.113217827998081 0.0565652529064738 0.0212894874040581 -0.9457759 0.1224579 0.3008523 29 29 29
-0.115571773454438 0.0497209498591169 0.0192017718518836 -0.9622684 0.2315361 0.1429354 52 52 52
-0.116083661817434 0.0508482883541398 0.0153652447483361 -0.981383 0.1476872 0.1227844 77 77 77
-0.0368701695637862 0.0664692100558507 -0.0223399005935763 0.05769085 0.9946572 -0.08560874 42 42 42
-0.115008824217134 0.0561369904508745 0.0171268271882665 -0.9513654 0.08885725 0.2949718 27 27 27
-0.115230093866096 0.0597261323366407 0.015921493229628 -0.9529091 0.01936047 0.3026375 34 34 34
-0.0733933225529918 0.0744792386731025 0.0305419572950777 -0.0195341 0.9923875 -0.1215955 54 54 54
-0.0726692160455077 0.0752273916724268 0.0357578128956221 -0.0002425492 0.9952739 -0.09710676 54 54 54
-0.0793437294056746 0.0749842607195311 0.0354580757754292 0.01231888 0.9926362 -0.1205057 45 45 45
-0.0777919582084606 0.0748374020451629 0.0335197570132922 -0.00120637 0.9912541 -0.1319615 30 30 30
-0.0837795991119449 0.0747575162154783 0.0328938983243991 0.0004654891 0.9904788 -0.1376647 24 24 24
-0.0775170671494557 0.0742582161032576 0.0296079658890295 0.01171561 0.9944703 -0.1043625 19 19 19
-0.0784939348933883 0.0740963417306058 0.0278790972331345 -0.005375148 0.9931827 -0.1164445 20 20 20
-0.0732108572241673 0.073905538994982 0.0249940835391904 -0.01545682 0.9916801 -0.1277951 54 54 54
-0.0804388840408025 0.0744104901169209 0.0292074925980719 -0.007895339 0.9930707 -0.1172528 22 22 22
-0.0798121266693798 0.0742346912059889 0.0278975478052057 -0.009056133 0.9929901 -0.1178499 23 23 23
-0.0815487549455144 0.0741769286643501 0.028178140926685 -0.0131792 0.9929273 -0.1179904 22 22 22
-0.0856332904760723 0.0746699095019239 0.0328044840175284 0.009105209 0.9896004 -0.1435552 34 34 34
-0.0873198929720574 0.0752231364924344 0.0375579410874603 -0.03698581 0.9946627 -0.09632298 53 53 53
-0.0870955313388596 0.0750209951206658 0.0349484123438691 -0.02447715 0.9920425 -0.1235012 41 41 41
-0.0903263457768441 0.0751993551743156 0.0380239449136816 -0.0493574 0.9938322 -0.09930511 56 56 56
-0.0906969289148852 0.0750059488420767 0.0365521189910332 -0.06244815 0.9906208 -0.1215347 42 42 42
-0.0907728257266601 0.0751719011697729 0.0348755425862308 -0.04467704 0.9949328 -0.09007074 49 49 49
-0.0948009923188756 0.0746258220873035 0.0360053826619281 -0.008133283 0.9933988 -0.1144232 38 38 38
-0.0951746398083578 0.0744396946095618 0.0343592387056139 -0.01818095 0.995881 -0.08882821 36 36 36
-0.0861752927596166 0.0741747818717074 0.0307436169524476 0.002978061 0.9893922 -0.1452381 22 22 22
-0.0871414479063425 0.0746912775815687 0.0321186915668969 -0.005680657 0.9908172 -0.1350883 41 41 41
-0.0863443565091359 0.0740281898379805 0.0285595416386154 -0.005995564 0.9880375 -0.1540976 15 15 15
-0.0869073633383276 0.0738386634660479 0.0272569230025589 -0.006438865 0.9883037 -0.1523629 14 14 14
-0.0893031826233089 0.0739367617386337 0.02777521383921 0.01799414 0.9886575 -0.1491055 25 25 25
-0.0915323475157467 0.0747261256960331 0.0320644902758105 -0.02998311 0.9954659 -0.09026968 60 60 60
-0.0940627529096453 0.0745628890329134 0.0300309576742463 -0.03479577 0.9948272 -0.09543618 51 51 51
-0.0950161667098227 0.0747336786705364 0.0346392519672662 -0.01821687 0.9958794 -0.08883936 43 43 43
-0.0784632848875378 0.073091202620922 0.0171919312822668 -0.008443021 0.990548 -0.1369065 85 85 85
-0.0793464038681048 0.0722436193714349 0.0132363369393295 0.009096777 0.985216 -0.1710751 45 45 45
-0.0859023204482378 0.0727149836868504 0.0187863453580855 -0.01600693 0.9920139 -0.125109 23 23 23
-0.0836069542160746 0.0727761724855788 0.0158227477589925 -0.0204182 0.9907407 -0.134224 58 58 58
-0.0853016580782179 0.0722165993866107 0.0140896787808695 -0.02049115 0.9879214 -0.1535953 29 29 29
-0.0889073868858953 0.0723819461453848 0.0155499655779634 -0.01628633 0.9896901 -0.1422963 29 29 29
-0.0907494367027063 0.0723295394542205 0.0156083850821117 -0.01796996 0.9900264 -0.139731 34 34 34
-0.0963791645917832 0.0727757782362231 0.0188626772765493 -0.01947449 0.9852071 -0.1702577 16 16 16
-0.0756452710699248 0.0732036735284194 0.020817290718234 0.002544033 0.9930484 -0.1176796 65 65 65
-0.0772619516709533 0.0732722647811791 0.021063139088564 -0.006350949 0.9941486 -0.1078339 63 63 63
-0.0752574057240859 0.0731282303503908 0.0193181086910462 0.003472427 0.9934215 -0.1144624 78 78 78
-0.0781115798937014 0.0731734116849806 0.0189029864506803 -0.009356166 0.9917361 -0.1279529 97 97 97
-0.0798188955382287 0.0731218294788686 0.0193360418531557 -0.01817645 0.9938167 -0.1095357 113 113 113
-0.0818136820545304 0.0732497240952773 0.0222889652748867 -0.03110953 0.9907688 -0.1319441 20 20 20
-0.084692312390705 0.0736813815696609 0.0255535592227657 -0.03973064 0.9889953 -0.1425122 19 19 19
-0.0822774570338759 0.0731869777484691 0.0202443062860816 -0.02527931 0.9930462 -0.1149787 32 32 32
-0.0818085398085145 0.0727682998375963 0.0197294735626641 -0.02111192 0.9927107 -0.118658 48 48 48
-0.0777528981536454 0.0728036704284498 0.0181505838412854 -0.003205899 0.9907594 -0.1355934 79 79 79
-0.0835433701746545 0.072883107323866 0.0183354127740661 -0.02487868 0.9923015 -0.1213215 33 33 33
-0.0888315474171834 0.0737707952998767 0.0257277899960694 0.02222976 0.9899719 -0.1395046 15 15 15
-0.087620075396002 0.0732248874704631 0.0215683851901472 -0.004769264 0.9917357 -0.1282091 17 17 17
-0.0944894699842348 0.0738243454044739 0.0267107067047574 -0.01943105 0.9925735 -0.1200845 30 30 30
-0.0972671497473502 0.0735798983756105 0.0246658101734305 -0.02942055 0.9922901 -0.1203944 61 61 61
-0.0883145621323743 0.0728830142568117 0.0193751305126135 -0.007768661 0.99207 -0.1254464 17 17 17
-0.110626381242407 0.0581729438546291 0.0366791625825183 -0.9980537 0.02497249 0.05714237 51 51 51
-0.110661173020631 0.0603298916679507 0.0362455757977054 -0.9981459 -0.002793057 0.06080298 40 40 40
-0.110480737979958 0.0631460334047645 0.0400661328804286 -0.9991152 -0.02228536 -0.03566743 43 43 43
-0.110248774550174 0.0649077317378963 0.0396616932161283 -0.9995432 -0.02379773 -0.01862631 44 44 44
-0.110715394782683 0.0642777615220584 0.0373800956755866 -0.9998477 -0.005385246 0.01659887 30 30 30
-0.110416975665896 0.0666089739702348 0.0382616190617843 -0.9999629 -0.008617193 0.0002442916 37 37 37
-0.110885898195342 0.0594841331927899 0.0323820895834144 -0.9951321 0.003876966 0.09847311 45 45 45
-0.110826038142557 0.061379445511208 0.0317796555285063 -0.995898 -0.006891382 0.09022011 33 33 33
-0.111099309990116 0.0641939987010313 0.0328205324411269 -0.9962939 0.01551447 0.0846035 39 39 39
-0.11066902417554 0.0684957662080999 0.0362895441588607 -0.9985621 0.03924725 0.03651606 33 33 33
-0.110841992894714 0.06916539313587 0.0304988441316118 -0.9737716 0.1694271 0.1518659 39 39 39
-0.0945631559531065 0.0756809239626703 0.0401816101730756 -0.0006603013 0.997286 -0.07362208 45 45 45
-0.0974872287227736 0.0748341841332795 0.0362109748648792 0.01430808 0.9919555 -0.1257758 43 43 43
-0.100717644201416 0.0750688541751202 0.0373395209510365 0.0005347671 0.993338 -0.1152359 86 86 86
-0.0986568197766163 0.0749280722194998 0.0350651437158885 0.01000306 0.9922181 -0.1241096 48 48 48
-0.103357354073149 0.0749855178318174 0.0362892268071214 -0.00145497 0.9939363 -0.1099479 41 41 41
-0.0989178028604808 0.0739600244580707 0.0288867093039765 -0.03192685 0.9929072 -0.1145255 24 24 24
-0.10008959484019 0.074122261008249 0.0296052732923394 -0.02110519 0.9927101 -0.1186642 23 23 23
-0.101862938557063 0.0745117214229104 0.0335161388627515 -0.0002211481 0.9922935 -0.1239096 29 29 29
-0.103280544483442 0.074165553386864 0.0319767764296666 0.006768071 0.9921647 -0.1247533 28 28 28
-0.105477079370536 0.0747603507548111 0.0364320023126008 -0.09158596 0.9902397 -0.1050586 30 30 30
-0.10687736201484 0.0746502000705852 0.0349527800383553 -0.2005248 0.9737532 -0.1076775 35 35 35
-0.110609698339366 0.0713546041445405 0.0416566610967457 -0.9742778 0.1907338 -0.120014 63 63 63
-0.110439291425296 0.0708702554942881 0.0403088734855648 -0.9768769 0.1593623 -0.1425316 60 60 60
-0.110695190789504 0.0709115412110021 0.0373972255999525 -0.960775 0.2742249 -0.04137678 34 34 34
-0.110307818450511 0.0746169998695428 0.042917455406955 -0.7374563 0.6752125 -0.01569324 113 113 113
-0.106938633379834 0.0755431052186972 0.0423953603348686 -0.3696148 0.9267537 -0.06717544 31 31 31
-0.10716640860082 0.0750277193754237 0.0385878937475172 -0.323866 0.9412042 -0.0961531 51 51 51
-0.11167308398996 0.0743421137656803 0.0424641331080676 -0.9020821 0.420519 -0.09701362 115 115 115
-0.110120150733575 0.0732301074303166 0.0370203847121605 -0.8526509 0.4807069 -0.2047125 100 100 100
-0.100505199137265 0.0723925286093499 0.0171214400802996 -0.01364104 0.9862475 -0.1647113 24 24 24
-0.107795800914071 0.0723641217371042 0.018795340140321 -0.006195158 0.9870062 -0.1605626 17 17 17
-0.111630374577259 0.0616630665077522 0.0274537959346395 -0.9858009 0.0249457 0.1660553 24 24 24
-0.1125747306081 0.0598120777385515 0.0236259563871024 -0.9646422 0.03264173 0.2615339 33 33 33
-0.111366803158338 0.0646576841979455 0.0289798813538256 -0.9903645 -0.002473976 0.1384634 35 35 35
-0.111043538560452 0.0674628552162353 0.0290916296125848 -0.989796 0.05520645 0.1313622 22 22 22
-0.111023425443743 0.0706817498197865 0.0261687421125363 -0.9064882 0.4196593 0.04653214 40 40 40
-0.113318138809583 0.0604676313505483 0.0217360609390384 -0.9527879 0.02292755 0.3027699 25 25 25
-0.112467649550605 0.0616942279730287 0.0224232517819098 -0.9619234 -0.005051162 0.2732727 28 28 28
-0.112501444896316 0.0627957328027682 0.0227274719410901 -0.9621586 -0.0007481614 0.272489 29 29 29
-0.112981873269597 0.0696267901993866 0.0219678155382756 -0.9170933 0.3577236 0.1759935 37 37 37
-0.113252257184539 0.0724202037414838 0.0194963368548155 -0.5898373 0.7836683 0.1948228 102 102 102
-0.101350781158812 0.07376879778483 0.0259089016471596 -0.01582421 0.9929752 -0.1172599 23 23 23
-0.0999260505509662 0.0734857450906468 0.023585979555716 -0.02015219 0.9926859 -0.1190318 31 31 31
-0.104994296924497 0.0739536006582582 0.0282989165649939 0.004337273 0.994255 -0.1069492 86 86 86
-0.106916093660314 0.074084878292257 0.0284104160961605 -0.1668306 0.9751279 -0.1459213 70 70 70
-0.106721788004432 0.0738898368773416 0.0269614177042783 -0.1374239 0.9831561 -0.1204941 73 73 73
-0.103642875082604 0.0730646565366655 0.022265175437033 -0.03081941 0.9893519 -0.1422426 17 17 17
-0.106185411381042 0.0726626046760916 0.0201375154964285 -0.008986325 0.9873658 -0.1582024 21 21 21
-0.110455775847076 0.0733670825328087 0.0305162126174132 -0.741884 0.6631703 -0.09906235 123 123 123
-0.111071561673863 0.071132438859214 0.0275788425926316 -0.8724305 0.4864713 0.04701768 50 50 50
-0.110124875541698 0.0735004161004 0.0227645186598132 -0.4431885 0.8962781 0.01641602 55 55 55
-0.0295792738527719 0.0643580990832849 -0.038044568937583 -0.05741242 0.9782231 -0.1994576 108 108 108
-0.0638307578187084 0.0682433271383102 -0.0140911049299428 -9.529367E-05 0.973664 -0.2279876 21 21 21
-0.0872599226756193 0.0672493814298501 -0.0193362109417688 0.04073362 0.9580246 -0.2837776 59 59 59
0.0755327652694794 0.0555219580512593 -0.035976715616202 -0.0213426 0.009951932 -0.9997227 192 192 192
0.0942797332305082 0.0620954799147581 -0.0314891800275551 0.08870528 0.1249597 -0.9881884 164 164 164
-0.0622952096560877 0.0657085042094318 -0.0290583633028919 -0.01457712 0.9965837 -0.08129261 42 42 42
0.0706821817515746 0.0594914902621249 -0.0353088529399178 -0.003127695 0.043294 -0.9990575 111 111 111
-0.0444434967597841 0.0593890971061851 -0.044222940199447 -0.02157898 0.1306 -0.9912003 113 113 113
0.0151379984923754 0.0545836860237875 -0.0426972463926723 0.1962458 0.04771847 -0.9793929 230 230 230
-0.0709310036672627 0.0694524105568567 -0.00456337357567787 0.06657065 0.9963499 -0.05343356 107 107 107
0.0736817236999816 0.0610663772409321 -0.0353548105620574 0.007276804 0.2502291 -0.9681593 192 192 192
0.0320513665466929 0.0526182384998763 -0.0375807229378643 0.2274397 -0.008034959 -0.973759 174 174 174
-0.108702560203669 0.0578333277318583 -0.034269437303975 -0.9624109 0.0927413 -0.2552732 44 44 44
-0.0989959468709823 0.0650975590899994 -0.029232164772516 0.00834794 0.9823965 -0.1866209 114 114 114
-0.0129889283684589 0.0642522914531519 -0.0391749219628438 -0.01970975 0.8401569 -0.5419852 155 155 155
-0.11029974650382 0.066774686902893 -0.0169380560163278 -0.7391798 0.6418854 -0.2039518 115 115 115
-0.0994260753932042 0.0553331768623988 -0.043567875715494 -0.01571977 -0.03543363 -0.9992484 106 106 106
-0.0489961434161091 0.0689818583067079 0.000906847812263287 -0.001256441 0.9975006 -0.07064716 50 50 50
-0.0682099585894563 0.070537824226885 0.00567709150470084 0.06562535 0.9696814 -0.2353962 65 65 65
0.0276840311547658 0.0643628279160876 -0.0340210613365918 0.02321118 0.9680292 -0.2497613 34 34 34
-0.106047966049307 0.071076038226632 0.0101158466315724 -0.003266896 0.9819824 -0.188944 26 26 26
-0.0573381347597469 0.0652423155685211 -0.0327428584096387 -0.0009939992 0.9963174 -0.08573636 57 57 57
-0.0260264921482276 0.0680810968761834 -0.00955580917302463 0.02153006 0.9860941 -0.1647877 120 120 120
-0.097006435210211 0.0680531889445205 -0.0171748000428341 -0.03411938 0.9655242 -0.2580676 114 114 114
0.0983041110948485 0.0514902804750113 -0.0316071502079117 0.1253539 0.05461132 -0.9906079 163 163 163
0.112899962688598 0.0594063952441624 -0.0308586293474942 0.03524589 0.07558683 -0.9965161 212 212 212
0.107057706675605 0.0589590510603367 -0.0310747296231058 0.005648636 0.09385005 -0.9955703 156 156 156
0.110198066115577 0.061056668005136 -0.0305019036196813 -0.01040583 0.2179897 -0.9758956 214 214 214
0.113050247887562 0.0643327077307526 -0.0302997276158446 0.0596014 0.5160163 -0.8545027 231 231 231
0.109744613958599 0.0644348430640918 -0.0300278159258725 0.02518328 0.5843715 -0.8110954 225 225 225
0.108251318092982 0.0630250841195523 -0.0310667223051885 0.02910572 0.4343565 -0.9002707 220 220 220
0.108818677762157 0.0658545961470281 -0.0286705288342235 -0.03684042 0.7911086 -0.6105653 148 148 148
0.101024289590345 0.0498231101775518 -0.0313127916377993 0.08672234 0.0324752 -0.995703 161 161 161
0.101352278253514 0.0528519867367034 -0.0308883363696889 0.05375489 -0.006235181 -0.9985347 154 154 154
0.106727446711678 0.054748661678784 -0.031105932031194 0.02256101 -0.02071374 -0.9995309 158 158 158
0.106684487651076 0.0567503047224078 -0.0308946302383227 0.03043472 -0.001056041 -0.9995362 148 148 148
0.105595030393578 0.0571338433659407 -0.0307845907742508 0.03263824 -0.008324721 -0.9994326 136 136 136
0.0962511059559559 0.0565654222280484 -0.0312272461766478 0.1070355 0.06612439 -0.9920539 139 139 139
0.0985913042258327 0.058517481617354 -0.0312290519740099 0.03215255 0.01968062 -0.9992892 173 173 173
0.0985119408223333 0.0600263299018904 -0.031251835611502 0.04425919 0.06901985 -0.9966331 192 192 192
0.0955140964929964 0.0481486820988183 -0.0317432843108526 0.2170876 0.06713169 -0.973841 146 146 146
0.090317751753582 0.0511707544293391 -0.0333830900764078 0.2633081 0.06347281 -0.9626215 177 177 177
0.0881850953862432 0.0505888178406419 -0.0334561790608242 0.2362543 0.02977067 -0.9712351 145 145 145
0.092274573081035 0.0555058304733353 -0.0320237521898272 0.2206161 0.1627012 -0.9616948 144 144 144
0.0933149467049028 0.0569411233205402 -0.0318137620158708 0.1791569 0.1198855 -0.9764888 145 145 145
0.0941488616185766 0.0600108864034093 -0.0314137743350848 0.08458083 0.03624232 -0.9957573 119 119 119
0.0892764216271449 0.0591105923294441 -0.03199141296731 0.2542897 0.1611141 -0.9536136 131 131 131
0.0861617429870354 0.0533095707807001 -0.0344133709442163 0.2404059 0.07293138 -0.9679287 173 173 173
0.0853552017529207 0.0564059660903221 -0.0342516410959813 0.2708248 0.148635 -0.9510844 162 162 162
0.0873333294643247 0.059047032851079 -0.0329767257764521 0.2994094 0.1644954 -0.9398379 148 148 148
0.0831129363523284 0.0581707897552154 -0.0346105114450148 0.2826191 0.1124376 -0.9526197 156 156 156
0.106610023416083 0.0606079397691134 -0.0311650416107558 0.03216404 0.194025 -0.9804692 166 166 166
0.105033659027084 0.0638004426424802 -0.0299556984676113 -0.03338987 0.5427427 -0.8392351 233 233 233
0.10465613465151 0.0648782065640214 -0.0296677381679615 -0.02566452 0.6517642 -0.7579874 215 215 215
0.0954672800904243 0.0616679593790478 -0.0317035962146196 0.0599702 0.1242622 -0.9904355 139 139 139
0.0981256400221551 0.0648952841074039 -0.0304293963944105 0.07626851 0.567279 -0.8199864 179 179 179
0.102523034064582 0.0661770883808941 -0.0272549340802287 0.02260552 0.9494608 -0.3130705 80 80 80
0.0977756183732174 0.0663955255899649 -0.0271864001289564 0.0490505 0.9332348 -0.3559029 67 67 67
0.0941672847204305 0.0652232738875717 -0.0311526692389225 0.1058315 0.5814626 -0.8066604 161 161 161
0.0939183662902782 0.0661363689836246 -0.0286357067366393 0.0814678 0.868661 -0.4886625 56 56 56
0.0897308470507605 0.0665031778358363 -0.0251681769637831 0.01363121 0.9933537 -0.1142915 56 56 56
0.0849886757449756 0.0667606723079179 -0.0245835674912177 -0.0523069 0.9958438 -0.07455884 64 64 64
0.0854985762962657 0.0665359132429968 -0.0284881548786774 -0.07954823 0.9614805 -0.2631108 97 97 97
0.0904681094110689 0.0636205427593166 -0.0314772150785112 0.1813524 0.36634 -0.912637 142 142 142
0.0877839464138582 0.0613920725828282 -0.0323880821323407 0.2824777 0.1515332 -0.9472297 140 140 140
0.0861698170392498 0.0658838227163207 -0.0326135672277057 0.1081032 0.6408052 -0.7600542 165 165 165
0.084886960101747 0.0639773394283462 -0.0333954961902778 0.160799 0.5017781 -0.849919 184 184 184
0.0838835031775034 0.0659854756838433 -0.0297284962904201 -0.09884846 0.9280587 -0.3590766 80 80 80
0.0814010624934071 0.0536159764528901 -0.0351144679312442 0.1501902 0.04597555 -0.9875875 139 139 139
0.0771243064645288 0.0554521886821064 -0.0359523529519738 0.03547775 0.01569851 -0.9992471 182 182 182
0.0732903281876083 0.0513096298474883 -0.0355435350269946 -0.0338297 -0.0143612 -0.9993244 148 148 148
0.0714819365544338 0.0533273075672046 -0.0355203534015606 -0.03986025 -0.01321282 -0.9991179 97 97 97
0.0801849842699504 0.0577259840293857 -0.0353719076344083 0.1682815 0.05921371 -0.9839589 173 173 173
0.0751295629399553 0.057930264174093 -0.0355334596932771 -0.01460998 0.01759654 -0.9997384 180 180 180
0.0670681328037236 0.0496146745506308 -0.035182054145139 0.000271892 0.01963608 -0.9998072 79 79 79
0.0675085941453767 0.051144063011779 -0.0354628105417408 -0.01064588 -0.01571556 -0.9998198 84 84 84
0.0693458831110381 0.0530112966404079 -0.0356737643592249 0.001925354 -0.01325947 -0.9999102 101 101 101
0.0825535081005545 0.0664950717635039 -0.02398649268606 0.009501001 0.9937519 -0.1112065 100 100 100
0.0790237351206839 0.0666362756712261 -0.0243817529441792 0.09615301 0.9879381 -0.1213793 30 30 30
0.0763622762532238 0.0673904110983726 -0.0223291680762824 0.08813405 0.9937076 -0.0691203 42 42 42
0.0735638902216613 0.0674731904789523 -0.0207674024565887 0.01198839 0.9998151 -0.01503489 31 31 31
0.0755208692044433 0.06728216618128 -0.025249431116474 0.124663 0.9863433 -0.1076381 57 57 57
0.0811609919086603 0.0648630704685157 -0.0305581385162456 0.06349343 0.8668393 -0.4945282 68 68 68
0.0814450026732065 0.0630836333976884 -0.0345223301036093 0.1923048 0.4913141 -0.8494877 224 224 224
0.077119711442969 0.0648522163604453 -0.032662563605983 0.127291 0.8617068 -0.4911807 83 83 83
0.073918330108231 0.0662079330544387 -0.0312462676065898 0.1532374 0.9347183 -0.3206557 56 56 56
0.0737097934982015 0.0670252625702066 -0.0286379971749871 0.1489771 0.9653047 -0.2144587 56 56 56
0.072465351460722 0.0673991585494896 -0.0208031175220191 -0.0003401788 0.9999682 -0.007971242 32 32 32
0.0693817054930638 0.067545149298307 -0.0199377112830789 -0.02243066 0.9997468 -0.00179631 18 18 18
0.0708325711035943 0.0672126316949053 -0.0261392251927573 -0.003404552 0.9973572 -0.07257348 56 56 56
0.0690652015032868 0.0672498640005895 -0.0234745705723817 -0.02331947 0.9994794 -0.02229657 32 32 32
0.0616438797098853 0.0668657804357327 -0.0203500064315702 -0.09767038 0.9927021 -0.07073171 39 39 39
0.0623410581865211 0.0667308633204117 -0.0236697031464278 -0.128041 0.9884338 -0.08126544 46 46 46
0.0686271787831314 0.0669653338574915 -0.0296372471692543 -0.01619944 0.9795191 -0.2006984 92 92 92
0.0657861604786897 0.0669466942881977 -0.0296380534972485 -0.1009656 0.9775258 -0.1850656 84 84 84
0.0641488926272555 0.0665072886662798 -0.0284073276243019 -0.1436045 0.9814355 -0.1271299 71 71 71
0.061597052122061 0.0662969101432776 -0.0268787979830995 -0.1382077 0.9863912 -0.08905625 63 63 63
0.0727892389251565 0.0559832939451939 -0.0357714980941659 -0.02431578 0.005418296 -0.9996896 139 139 139
0.0710884188234051 0.0570416473596327 -0.0351849612236446 4.387624E-05 0.0104304 -0.9999456 99 99 99
0.0613040310288071 0.0521912649313398 -0.0354022116534141 0.07180128 0.04471964 -0.9964159 96 96 96
0.061081686719149 0.0546567641764273 -0.0354148830687089 0.0571455 0.008803787 -0.998327 91 91 91
0.0669678433386148 0.058691680849798 -0.0356238137922094 -0.02978566 0.03765461 -0.9988468 98 98 98
0.0701712652957416 0.0586012074412217 -0.0357337478768199 -0.0008971056 0.02885763 -0.9995831 127 127 127
0.0680574925736782 0.0605221160335238 -0.035408624119485 -0.02925085 0.1059522 -0.9939409 94 94 94
0.0626954395011213 0.0583857496933115 -0.0354152176725481 -0.04146149 0.07927075 -0.9959905 84 84 84
0.0596630672528713 0.0570981607562239 -0.0351161162415875 0.06462968 0.09072597 -0.9937766 75 75 75
0.0590613717915399 0.0583565655759186 -0.0352440110257038 0.07307192 0.1099229 -0.9912505 86 86 86
0.0627502190766313 0.0609766934741787 -0.0350528724346044 -0.05441018 0.1720501 -0.9835844 90 90 90
0.0775862924776558 0.0626377795405592 -0.0355392416843771 0.07326329 0.4446587 -0.8926988 241 241 241
0.0727869766569041 0.0637732914411279 -0.0353958873290428 0.1050264 0.4245697 -0.8992831 219 219 219
0.0663022821196029 0.0633940794734314 -0.0353507490576233 -0.05011569 0.3633371 -0.9303089 142 142 142
0.070331449763549 0.0648529041686973 -0.0352373176586725 0.05423721 0.5429703 -0.8379986 126 126 126
0.0660036422399271 0.0659409501832309 -0.032897293968928 -0.1722014 0.8594704 -0.4813079 131 131 131
0.0673814015897465 0.0655071222880838 -0.0342139258959068 -0.07357658 0.7058613 -0.7045186 112 112 112
0.0592679573424386 0.0656197430089405 -0.0316564224306448 -0.04051467 0.9488318 -0.313172 81 81 81
0.0591999538327358 0.0651750218662357 -0.0333156271694585 0.02730533 0.8158801 -0.577576 148 148 148
0.059126262272517 0.0662601941077965 -0.0232936062834404 -0.117819 0.9891825 -0.08738836 57 57 57
0.0537108775166263 0.0661443620786879 -0.0196560319920315 -0.07015828 0.9964937 -0.04558705 35 35 35
0.0553318674493263 0.0664043170654958 -0.0185676702071633 -0.1159194 0.9907091 -0.07112145 43 43 43
0.0552006692611913 0.066002607775305 -0.0207720899095233 -0.07083642 0.9952888 -0.06619997 59 59 59
0.0529173853400772 0.0658334536824511 -0.0272968043730757 -0.006008721 0.9987891 -0.04882856 80 80 80
0.0482592731257014 0.0656267219909017 -0.0279403294871538 -0.06885485 0.9968554 -0.03922149 39 39 39
0.0453285222974713 0.0652918409535481 -0.018985609769063 -0.0429698 0.9968838 -0.06615318 17 17 17
0.041715367312503 0.0657770888985515 -0.0158935118781881 0.04664969 0.9864513 -0.1572822 46 46 46
0.0426405483277531 0.0653598895401664 -0.0191391865094662 -0.008725558 0.9959621 -0.08934923 21 21 21
0.0387701736458195 0.0652692258255147 -0.0195391683040348 0.05351376 0.9883526 -0.1424621 26 26 26
0.0468530959847646 0.0657302476751617 -0.0227988845770422 -0.07618416 0.9967108 -0.02763051 30 30 30
0.0405683357748946 0.0652979633691802 -0.0209499402527405 0.007847377 0.9948637 -0.1009191 22 22 22
0.040141154016072 0.0650975177586791 -0.0258376895693087 -0.03385203 0.9979847 -0.05367136 37 37 37
0.0564703847064995 0.0523601908136601 -0.0360289416579966 0.07771289 0.06336775 -0.9949599 77 77 77
0.0571894325434295 0.0544092362631405 -0.0360818892040382 0.08370047 0.06953253 -0.9940621 94 94 94
0.0549213901547235 0.0538828075449454 -0.0361805579973422 0.05115378 0.06388951 -0.9966451 91 91 91
0.0489673857480107 0.0515381267180317 -0.0361821721006054 -0.05791928 0.06515224 -0.9961931 81 81 81
0.0526306828677027 0.053746330436029 -0.0357913853594692 -0.01930928 0.05678196 -0.9981999 67 67 67
0.0586136667649428 0.0561399477968998 -0.0356498328249142 0.07035658 0.0705152 -0.9950264 95 95 95
0.0548086047760424 0.0583341237918532 -0.0356194584320547 0.05443143 0.09680826 -0.9938136 71 71 71
0.0511749323049765 0.0570401542730536 -0.0362601105499949 -0.008455164 0.04675105 -0.9988708 86 86 86
0.0491984132470786 0.0583048682666425 -0.0356095283839456 0.04768386 -0.005974946 -0.9988446 53 53 53
0.0502761344223724 0.0597846702902134 -0.035817371539871 0.07562389 0.08306032 -0.993671 88 88 88
0.0468366065779241 0.059674208145562 -0.0360417552325388 0.04987382 0.01108077 -0.9986941 92 92 92
0.0442696468065251 0.0501046394563004 -0.0358941921684285 0.01482782 0.06147968 -0.9979982 109 109 109
0.0411014278658891 0.0505282344238679 -0.0358853859959758 0.08617068 0.03280598 -0.9957401 75 75 75
0.0388701136326349 0.0505700039650838 -0.0362523773612563 0.1472495 -0.004175694 -0.9890906 115 115 115
0.0397792191000248 0.0528773289335417 -0.037070733701223 0.1568565 -0.01981866 -0.9874225 115 115 115
0.0347701740347094 0.052040044544031 -0.0373781665277056 0.1863948 -0.04392616 -0.9814925 119 119 119
0.0373756486448596 0.0545013835209264 -0.0368627421425998 0.1930587 -0.01210487 -0.9811125 65 65 65
0.0338768991896757 0.0557082630603464 -0.0375879032973736 0.1760871 -0.0236892 -0.9840895 116 116 116
0.044507836811992 0.0592978023654644 -0.0363154967230018 0.05231851 -0.0358892 -0.9979854 86 86 86
0.0403405491672195 0.0570579312311827 -0.0362747793012936 0.1596128 -0.04177308 -0.9862955 91 91 91
0.039896862976802 0.0616219740340366 -0.0362546168879473 0.05264807 0.2455232 -0.96796 54 54 54
0.0361693007563839 0.058520772115022 -0.036929515598584 0.1803748 -0.03720409 -0.9828941 76 76 76
0.0355213956901217 0.0601518781702544 -0.0377554996560844 0.1963626 0.08495329 -0.9768443 125 125 125
0.0548297063766684 0.0654102355913439 -0.0324997688464235 0.02024035 0.9494197 -0.3133568 104 104 104
0.0566022487701132 0.0622613913279842 -0.0350097511479204 0.07295572 0.3536032 -0.9325461 106 106 106
0.0568347920754475 0.0641567597537314 -0.0348418681714007 0.04172323 0.671666 -0.7396783 214 214 214
0.0513841251283095 0.0653667666181031 -0.0336215454731074 0.0450914 0.8959464 -0.4418673 126 126 126
0.0519823717144768 0.0634934368621161 -0.0357456482724472 0.1201556 0.4538657 -0.8829318 153 153 153
0.0511556992575217 0.0650892140847111 -0.0355795049493559 0.1244817 0.6528597 -0.7471804 184 184 184
0.0473842565361465 0.0651636853127937 -0.0348334518077666 -0.05044815 0.7550191 -0.6537592 132 132 132
0.0443386032947668 0.0650994670493625 -0.0325368736135624 -0.1123203 0.936545 -0.3320658 112 112 112
0.0360850270240153 0.064937599724771 -0.0278707442334527 -0.03037344 0.996343 -0.07986231 33 33 33
0.0458473555851659 0.0639166958160507 -0.0363019610909115 -0.03952918 0.577404 -0.8155011 211 211 211
0.0439864802632381 0.0639256722546481 -0.0362070228247793 0.02448363 0.6097019 -0.7922525 207 207 207
0.0413930155384702 0.0643158065077906 -0.0361242017536255 -0.02663085 0.7403604 -0.6716825 169 169 169
0.0396245150958378 0.0621982969890909 -0.036453277803968 0.07137499 0.3099581 -0.9480673 61 61 61
0.038654534904293 0.0641365084532943 -0.0349108330979439 -0.01941336 0.8393045 -0.5433149 90 90 90
0.0397792390926899 0.0629490637583688 -0.0370543890289421 0.07858563 0.4135549 -0.9070814 163 163 163
0.037091734945578 0.0639394795483257 -0.0367661314429744 0.1339345 0.6787512 -0.7220516 176 176 176
0.0356056138177815 0.0664273884831053 -0.0167507688466751 0.09874473 0.9757075 -0.1955618 39 39 39
0.0337934270878507 0.066780197783031 -0.0168110595513354 0.09089436 0.9747528 -0.2039487 36 36 36
0.0322602205503771 0.0673457755280584 -0.0136256821838835 0.06538452 0.9928502 -0.09986701 37 37 37
0.0313978359142733 0.0668815042405417 -0.016010501152879 0.06895176 0.9826022 -0.1724486 26 26 26
0.0342672300918681 0.0652188561531426 -0.0213906235084806 0.05761033 0.9835429 -0.1712436 37 37 37
0.0346592426839686 0.065131689508037 -0.0231109414776839 0.02139081 0.9908397 -0.1333385 18 18 18
0.0328953053538816 0.0637802794130793 -0.0377810973280089 0.1657143 0.558442 -0.8128231 157 157 157
0.0310886928618659 0.0652639230949894 -0.0221171288582114 0.09932777 0.9758711 -0.194447 33 33 33
0.0312809800301036 0.0666048961381144 -0.0185942073135075 0.1018158 0.9733902 -0.2052926 37 37 37
0.0218730327967743 0.0674533574544667 -0.0157584767491146 -0.004558563 0.9961976 -0.08700367 28 28 28
0.0194516542158911 0.0671441560884683 -0.0142190688040428 0.009961047 0.9960543 -0.0881854 24 24 24
0.0250675668713183 0.0669050722896474 -0.0193413379950242 0.07101415 0.9824582 -0.1724319 26 26 26
0.0215196269467566 0.0670093037129729 -0.0187971799663167 0.01937123 0.9943162 -0.1046906 26 26 26
0.0221796211806744 0.0664246554483346 -0.0229503288320659 0.07874788 0.9767195 -0.1995441 49 49 49
0.0174783623074578 0.0671291745440812 -0.0161500433682081 0.008861816 0.9970667 -0.07602318 34 34 34
0.0155154038000058 0.0670810762916906 -0.0160736843104724 0.02436708 0.9949881 -0.09697935 47 47 47
0.0149838515321555 0.066770113459152 -0.0211628270301943 0.003417742 0.9959432 -0.08991941 68 68 68
0.0324397539086438 0.0524952094907707 -0.0378866477083817 0.2317251 -0.01685334 -0.9726353 186 186 186
0.0280192232671437 0.0509659291506732 -0.0390323877299505 0.3025028 0.03247977 -0.9525949 102 102 102
0.0339762603495722 0.0583381237380738 -0.0371076008821247 0.1856519 -0.03280151 -0.9820679 86 86 86
0.0353277805422032 0.0646016521831379 -0.029325786595849 -0.01007588 0.9975539 -0.06917155 27 27 27
0.025624563588727 0.065388087295561 -0.0251434758640878 0.05906777 0.9770748 -0.2045381 38 38 38
0.0283513690594202 0.0654280714254961 -0.025306457116873 0.07937542 0.982801 -0.1667389 27 27 27
0.0325899722748212 0.0643759460846987 -0.0347833686263919 0.0224668 0.9171773 -0.3978455 45 45 45
0.0295145113262254 0.0643737320708362 -0.0367500074483481 0.0289623 0.8248739 -0.5645744 69 69 69
0.0245424375368473 0.0644927568965425 -0.030856295655738 0.004103307 0.9901499 -0.1399512 33 33 33
0.0241981332367276 0.065164719476819 -0.0270821213889633 0.05397698 0.9754812 -0.2133613 31 31 31
0.0218788220939755 0.065002046363653 -0.0285074808683877 0.07864822 0.9754286 -0.2057997 32 32 32
0.022196858501828 0.0657819719630392 -0.0248256654621715 0.0902044 0.9664438 -0.2405192 48 48 48
0.0201358760405608 0.0657806882718152 -0.0267574578988218 0.1093978 0.9652483 -0.2373348 35 35 35
0.0178656411943413 0.0667567941919544 -0.0238407158819888 0.05033899 0.9860641 -0.1585673 56 56 56
0.0154288311699659 0.066394576393516 -0.0259150042548383 0.03429303 0.9809428 -0.1912465 77 77 77
0.0155259055099778 0.0660532278808973 -0.0272493500679541 0.06204614 0.9774088 -0.2020456 73 73 73
0.018732354581512 0.0646301182750777 -0.0306397451774297 0.07154766 0.9704508 -0.2304481 52 52 52
0.019611691103212 0.0641266208219596 -0.0342209538647751 -0.00259562 0.9796305 -0.2007919 78 78 78
0.0184221118947745 0.0642473915513505 -0.0328022816770069 0.02639543 0.974093 -0.2246022 69 69 69
0.0147883620702771 0.0655403557232123 -0.0295458560149818 0.09671754 0.9680602 -0.2313118 77 77 77
0.0201719059262512 0.0676236904609153 -0.0105022665803882 0.03391516 0.995919 -0.08363587 20 20 20
0.0254585691091944 0.0534815297849077 -0.039921780615608 0.2772217 0.02273493 -0.960537 186 186 186
0.022908050637094 0.05695872064401 -0.0405513209227188 0.2172381 0.02771324 -0.9757252 195 195 195
0.026600358760285 0.0570956807708789 -0.0392579414155592 0.2587846 0.01527228 -0.9658143 158 158 158
0.0270855494265344 0.0608863905902986 -0.0392994373978472 0.2244795 0.2231288 -0.9485897 120 120 120
0.0226022182100815 0.060725280320511 -0.0404731377707998 0.1877892 0.2538854 -0.9488295 194 194 194
0.0212297790299514 0.0523764352716853 -0.0407479331619145 0.2402344 0.04415673 -0.9697101 225 225 225
0.0186682744514489 0.0525950987168557 -0.0414979692790238 0.2336293 0.02666271 -0.9719601 209 209 209
0.0170273958247094 0.0537787872299527 -0.0421765391815314 0.2298284 0.02313567 -0.9729561 228 228 228
0.0177681639525832 0.0567791024363617 -0.0416314281477913 0.2198902 0.1362677 -0.9659604 188 188 188
0.012817737043234 0.0528017489916561 -0.0423158872289351 0.1593042 -0.007523352 -0.9872009 222 222 222
0.0207673453861473 0.0586851497248299 -0.040647084403062 0.1490102 0.1453771 -0.9780907 157 157 157
0.0171365642287415 0.0594778182262031 -0.0408216685810176 0.1448361 0.3463331 -0.9268635 151 151 151
0.0148700715103375 0.0603115167345483 -0.0407586241968876 0.1013005 0.5807485 -0.8077558 148 148 148
0.0107753186816288 0.0532265059916602 -0.0427067379072256 0.1358321 -0.001967381 -0.9907299 171 171 171
0.0148125346565252 0.0570166945442352 -0.0424080251976971 0.2112343 0.1715183 -0.9622689 218 218 218
0.0127565097463712 0.0566741412517751 -0.042995141914059 0.1917815 0.1339555 -0.9722529 229 229 229
0.0128853998744581 0.0601910319923788 -0.0425307838490317 0.2157703 0.3842189 -0.8976742 187 187 187
0.0123539235585979 0.0611689880441396 -0.0412169005904066 0.2053566 0.6336584 -0.745859 125 125 125
0.0255357544200555 0.0636450969772373 -0.0387674800431334 0.1335084 0.705907 -0.6956083 139 139 139
0.0193171535431644 0.0631013178135423 -0.0386830705883798 -0.07140569 0.8090398 -0.5834002 101 101 101
0.0137334106383572 0.0630299363198267 -0.0368243398794773 0.05106708 0.9167071 -0.3962831 93 93 93
0.0119077941883674 0.0629541447243623 -0.0383275972273004 0.09732287 0.8861802 -0.4530044 124 124 124
0.00568912058341398 0.067508416915865 -0.0120032322952701 -0.01426957 0.9870333 -0.1598802 47 47 47
0.00964953861468387 0.0673079716574029 -0.0139639565034651 -0.05343076 0.9924353 -0.1105323 73 73 73
0.00944657029353835 0.0673726682061039 -0.0163172502528584 -0.06927191 0.9942836 -0.08124995 95 95 95
0.00838556907235311 0.0667939436998429 -0.0191505448374472 -0.1048895 0.9897346 -0.09707563 96 96 96
0.00568843558397747 0.0668864513845029 -0.0133900304553528 -0.03551106 0.9858649 -0.1637359 54 54 54
0.00344338703847313 0.0666228870742319 -0.0152068626761038 -0.01723158 0.9831988 -0.181723 75 75 75
0.00302373777389164 0.066357199215907 -0.0174078269487705 -0.01891152 0.9928082 -0.118213 74 74 74
0.00670506384819558 0.0665306271786143 -0.0181046632085593 -0.1065276 0.9900336 -0.09211575 86 86 86
0.00325695114280677 0.0677213315438821 -0.0116475255967101 0.04400117 0.9744707 -0.2201605 53 53 53
0.00255883687455871 0.0670813461939068 -0.013823998070984 0.01246725 0.9771332 -0.2122622 75 75 75
0.00125834573646555 0.0663020485875586 -0.0166944321244774 -0.01265447 0.98922 -0.145889 65 65 65
-9.85587619717343E-06 0.0666133619289802 -0.0151599464507012 -0.01844664 0.9772658 -0.211214 59 59 59
-0.00475122580299059 0.0676913094301931 -0.0124723814140173 -0.02914277 0.9681346 -0.2487288 80 80 80
-0.00493684687157192 0.0664305671598341 -0.0161036808219567 -0.03058097 0.9826369 -0.1830016 26 26 26
-0.00360762867977515 0.0662786677362479 -0.0162486697802491 -0.01671216 0.9849882 -0.1718112 32 32 32
