ply
format ascii 1.0
comment File exported by Rhinoceros Version 7.0
element vertex 469
property float x
property float y
property float z
property float nx
property float ny
property float nz
property uchar red
property uchar green
property uchar blue
end_header
0.122660698858108 -0.0299189632537669 -0.00456944501170409 0.8589883 0.1408902 -0.4922286 75 75 75
0.124480150694411 -0.0281190340531738 -0.00260568778154291 0.849134 0.2319931 -0.4745004 53 53 53
0.121440552225846 -0.0252496933075441 -0.00625255816397693 0.802783 0.359111 -0.4760028 58 58 58
0.120201675445614 -0.0242873148233025 -0.00616513973978797 0.7578768 0.4355165 -0.485745 102 102 102
0.122712124894815 -0.0241481215015773 -0.00320510336610369 0.7951918 0.420085 -0.4372626 99 99 99
0.122082923173858 -0.0232613714104557 -0.00301800912458994 0.7698979 0.4526021 -0.4498985 95 95 95
0.123932938852866 -0.0238272461235667 -0.000119105572329969 0.7986398 0.4343466 -0.4165542 59 59 59
0.124644250924496 -0.0234552404438282 0.00130280924365211 0.8388493 0.4025516 -0.3664478 41 41 41
0.124152877463922 -0.0223934054345545 0.00315739544197668 0.8250058 0.4151794 -0.3833948 31 31 31
0.122201244964103 -0.0222531761702092 -0.000576236390190776 0.7870868 0.4529664 -0.4187073 96 96 96
0.12125650410371 -0.0216290121899227 -0.000717646175627085 0.8153836 0.3926707 -0.4253932 144 144 144
0.121720362546198 -0.0208317329019636 0.000834560578948706 0.8233531 0.4127162 -0.3895576 123 123 123
0.122404320922606 -0.0189490353403194 0.00171972318273128 0.8523837 0.3378735 -0.3991034 112 112 112
0.121297048996233 -0.0181557073998473 0.00112732365900081 0.8465518 0.3257338 -0.4210078 114 114 114
0.122442146228528 -0.0186464100765165 0.00308792546122527 0.8556868 0.3013344 -0.420711 70 70 70
0.111514344881326 -0.0476619256633393 -0.015340742759509 0.09704772 -0.0110765 -0.9952181 178 178 178
0.109404500276113 -0.0469946560093986 -0.0157841256638096 0.04825334 0.004737845 -0.9988239 144 144 144
0.108162990392696 -0.0467220109466349 -0.0157502472044952 -0.0004954837 0.00321772 -0.9999947 173 173 173
0.109489028810568 -0.0434948204649237 -0.0157260747270436 0.04394098 -0.005260228 -0.9990203 177 177 177
0.102809503366658 -0.0458432760479635 -0.0152933259933415 -0.03247367 -0.072793 -0.9968182 130 130 130
0.107730168113682 -0.043868477785673 -0.0154381315942629 0.004601092 -0.01972476 -0.9997948 158 158 158
0.104448900144389 -0.0448522769543132 -0.015539204201421 0.01358277 -0.04138125 -0.9990511 132 132 132
0.103848441820884 -0.0429488375336746 -0.0159082069762469 0.02221992 -0.03551951 -0.9991219 61 61 61
0.1140590733634 -0.0445331305499568 -0.0153394237401711 0.1876684 -0.005363542 -0.9822178 208 208 208
0.110688147194732 -0.0427820751103505 -0.0154623020153026 0.08664872 -0.03051282 -0.9957715 210 210 210
0.109849590460248 -0.0422711913964122 -0.0158786518095249 0.05708659 -0.02876131 -0.9979548 206 206 206
0.108253877354264 -0.0427528196304678 -0.0152899275560068 0.03161758 -0.02916768 -0.9990743 138 138 138
0.106369830356249 -0.041456336210774 -0.0161442183848604 0.0163804 -0.02883508 -0.99945 131 131 131
0.113082069579208 -0.0423891357841639 -0.0159311216061957 0.09757182 -0.00685907 -0.9952049 203 203 203
0.115037811052043 -0.0381877334134575 -0.0152615136197913 0.2800477 0.01838923 -0.95981 207 207 207
0.113297981509942 -0.0359872216270687 -0.0157979395169674 0.1915727 -0.002670953 -0.9814748 213 213 213
0.108754385405296 -0.041282968446839 -0.0157477196598049 0.03127285 -0.01312066 -0.9994248 126 126 126
0.109109761981965 -0.0397441155883664 -0.0160683046499942 0.02512735 -0.0002197044 -0.9996842 108 108 108
0.105416426955746 -0.0380502706131531 -0.0161123196544739 0.02641179 0.01878929 -0.9994745 75 75 75
0.107628651077182 -0.0366506832788138 -0.0157324650210474 0.0001499471 0.01035344 -0.9999464 77 77 77
0.109589410327414 -0.0350023069624126 -0.0157902098144457 0.04666355 0.01678959 -0.9987696 183 183 183
0.0994847044456311 -0.0462930293753279 -0.0154835519350851 -0.06502914 -0.0741762 -0.9951227 160 160 160
0.0980269573004771 -0.0443681811792691 -0.0157281183631025 -0.06085793 -0.1188546 -0.9910448 168 168 168
0.0956885908231406 -0.0466492545612387 -0.015159783074189 -0.05188058 -0.05840529 -0.996944 165 165 165
0.0964650658717514 -0.044839078026812 -0.0152899356638644 -0.08285548 -0.12261 -0.9889902 120 120 120
0.0956852222132296 -0.0421872742757867 -0.0157267734387551 -0.07061933 -0.1413743 -0.9874341 195 195 195
0.0932260615605407 -0.0387219278375908 -0.0162351565425368 -0.02489422 -0.04774266 -0.9985494 162 162 162
0.103308847920722 -0.0389345292731833 -0.0156885591040287 0.0365664 0.006156862 -0.9993123 81 81 81
0.101596918138281 -0.0336869242058471 -0.0157213695659867 0.01989738 0.001833462 -0.9998003 91 91 91
0.0935104399426807 -0.0322790309967906 -0.0159777029594527 0.03572544 -0.04717458 -0.9982476 75 75 75
0.115707914713896 -0.0353767433967997 -0.015170739658427 0.3330009 0.03954549 -0.9420969 192 192 192
0.11311460169527 -0.0353272722346141 -0.0156575976727008 0.1793288 0.009938952 -0.983739 197 197 197
0.112807974638196 -0.0322120544646143 -0.015774914529421 0.1319207 0.06898481 -0.9888569 199 199 199
0.108406779351898 -0.0319074765180072 -0.0155037073921615 0.01814522 0.07913953 -0.9966984 86 86 86
0.110676920057576 -0.0317001362054063 -0.0161213347225234 0.06245067 0.06570166 -0.9958831 116 116 116
0.106574707837315 -0.0300610894201101 -0.0160138933330152 0.0288422 0.03269545 -0.9990491 92 92 92
0.103748092680285 -0.032710403899576 -0.0157910008502377 0.01984417 0.00674647 -0.9997803 48 48 48
0.104191745873548 -0.0315651483027706 -0.0157881648195417 0.02978193 0.004649929 -0.9995456 85 85 85
0.102306334213232 -0.0307133485291238 -0.0153401222903836 0.03966203 0.00355978 -0.9992068 95 95 95
0.0986080873570194 -0.0325870483562751 -0.0156062070785021 0.04721776 -0.01497436 -0.9987724 75 75 75
0.0991122456081235 -0.0305899728118999 -0.0156864654324529 0.04038713 -0.04395759 -0.9982167 142 142 142
0.0972616406934463 -0.0303431074970972 -0.0159288415819377 0.07253279 -0.05813399 -0.9956703 78 78 78
0.0977431839944587 -0.026110576604836 -0.0160856902480656 0.078591 -0.04009823 -0.9961002 134 134 134
0.0950206302570922 -0.0261822545707415 -0.0164443007530919 0.08840423 -0.03584875 -0.9954394 74 74 74
0.117247328196426 -0.0335491444558291 -0.0143623030072989 0.4849633 0.1391926 -0.8633864 206 206 206
0.11481670815874 -0.0299961339730794 -0.0152204282848439 0.3423973 0.08938421 -0.9352939 158 158 158
0.114015581149811 -0.0295528915968157 -0.0145400872973605 0.3398916 0.08495609 -0.9366195 191 191 191
0.112841940327952 -0.0291612247851794 -0.015220278470323 0.1772497 0.04044056 -0.9833347 157 157 157
0.112698080032768 -0.0286036607710434 -0.015410317389561 0.2049549 0.02350615 -0.9784891 119 119 119
0.111196347919202 -0.0312119702788458 -0.0157084836254056 0.08160966 0.04845786 -0.9954857 114 114 114
0.111767028572336 -0.0299963395258362 -0.015302554637309 0.09160428 0.04658413 -0.9947053 139 139 139
0.111664072273298 -0.0283408957746283 -0.0149528590817959 0.1240311 0.001584266 -0.9922771 120 120 120
0.118810326704084 -0.0258534343711581 -0.00923753633185406 0.7664881 0.4065772 -0.4971831 80 80 80
0.116121715612777 -0.0262133016207755 -0.0135966165848982 0.6019087 0.2341878 -0.763454 103 103 103
0.116146101367971 -0.0260731431476746 -0.0153374240580681 0.565877 0.1216182 -0.8154705 108 108 108
0.114252478707659 -0.0257263545328805 -0.0154293861088779 0.4822352 0.09636406 -0.8707257 195 195 195
0.107586174098817 -0.0257240448328706 -0.0155959315339712 0.02921751 -0.0745641 -0.9967881 95 95 95
0.111502087211324 -0.0264808985785756 -0.015339491390479 0.1586923 -0.001313182 -0.9873272 117 117 117
0.111599671006211 -0.0252648051700952 -0.0156199171714421 0.2310209 -0.015059 -0.9728323 150 150 150
0.108618284046465 -0.0242541196392438 -0.0160178498097897 0.05665879 -0.07723966 -0.9954013 78 78 78
0.111730858089316 -0.0227996451055923 -0.0164046252391928 0.3317411 0.06721684 -0.9409727 175 175 175
0.112411840708739 -0.0220895824094371 -0.0155825174275024 0.5070087 0.2294708 -0.8308341 192 192 192
0.118048528054316 -0.026192405151686 -0.0118146184984802 0.7201948 0.3073824 -0.6219611 73 73 73
0.118416298044083 -0.0251168818239376 -0.0108159307430522 0.7678468 0.4175355 -0.485876 102 102 102
0.116777800505096 -0.0251720095508323 -0.0119184407771405 0.7075923 0.3655775 -0.6047034 130 130 130
0.117181874697085 -0.0245417755173623 -0.0106175657690251 0.7608135 0.4390055 -0.4779509 103 103 103
0.119338954613734 -0.0241612369373891 -0.00834091376205034 0.7480103 0.4575398 -0.480768 48 48 48
0.115515953178463 -0.021480339938502 -0.0121100325286949 0.754177 0.4340493 -0.4927659 81 81 81
0.116278006013223 -0.0217284847651791 -0.0097573389284977 0.7605324 0.4533591 -0.4648183 79 79 79
0.115733792952014 -0.0204619317277432 -0.010170038291762 0.746812 0.4606468 -0.4796628 90 90 90
0.114498993398803 -0.0199632635180809 -0.0107362766114079 0.7698489 0.4207416 -0.4799053 105 105 105
0.113516183137174 -0.0200678291780267 -0.0122564923282676 0.7438427 0.4024267 -0.5336205 67 67 67
0.10521024593096 -0.0284834432261905 -0.0151444381650346 0.03168527 -0.000162466 -0.9994979 97 97 97
0.103097215881467 -0.026089258076005 -0.0157807278286571 0.05388227 -0.04949 -0.9973201 100 100 100
0.10418954275321 -0.025184510201554 -0.0152111763079278 0.06307495 -0.07420915 -0.995246 80 80 80
0.104597359615245 -0.0244162452907588 -0.015731793241995 0.06758044 -0.07886061 -0.9945923 30 30 30
0.102368796443864 -0.0219785208663845 -0.0161997139283625 0.04469321 -0.070873 -0.9964836 71 71 71
0.0997691087593382 -0.0251849671269619 -0.0163518473556851 0.06985875 -0.05571109 -0.996 66 66 66
0.0982594646333288 -0.0234649731911107 -0.0163810158593965 0.0589403 -0.03271502 -0.9977253 158 158 158
0.0991702714745171 -0.0213405982760473 -0.0163729846623309 0.02921953 -0.06397065 -0.9975239 156 156 156
0.0978882094733713 -0.0220190991622746 -0.0166294698351399 0.03927104 -0.04412798 -0.9982537 121 121 121
0.0969470762731133 -0.0213017295534512 -0.0160079529906577 0.04217621 -0.03774901 -0.9983968 110 110 110
0.1010362202649 -0.0210187473495347 -0.0163265149592796 0.05944039 -0.08068259 -0.9949659 108 108 108
0.0894379243957593 -0.045294346095204 -0.0150854727246373 -0.007164257 -0.04677491 -0.9988798 136 136 136
0.0859768088225814 -0.0432313008612153 -0.0156191466479748 0.001354753 -0.09208874 -0.9957499 145 145 145
0.0879445678621464 -0.0408322417016178 -0.0155103163223732 -0.01396304 -0.1145574 -0.9933185 93 93 93
0.0834549109942646 -0.0427539171559115 -0.015566228721193 -0.0208321 -0.1086161 -0.9938655 150 150 150
0.081683344378598 -0.042704325154604 -0.0157273650067717 -0.04423709 -0.110956 -0.9928403 160 160 160
0.081129592684996 -0.044241488032488 -0.0152722957242143 -0.0357311 -0.08107462 -0.9960673 123 123 123
0.0821772884932779 -0.0403415856436771 -0.0161590560719724 -0.009633395 -0.09662785 -0.9952739 143 143 143
0.0852231409814594 -0.0397215249329925 -0.0162534101393406 0.003865006 -0.09460005 -0.9955078 206 206 206
0.0846669635620256 -0.0387107012758841 -0.0159833346043002 0.01799369 -0.06652608 -0.9976224 110 110 110
0.0829472588453943 -0.0380191731287314 -0.0157074729264716 0.006401357 -0.06264228 -0.9980155 107 107 107
0.0803537036409785 -0.039114783677229 -0.0156155481419746 -0.04722258 -0.1069024 -0.9931475 99 99 99
0.0808447335528593 -0.0375038527237188 -0.0157181629215367 0.02151974 -0.09535726 -0.9952105 83 83 83
0.0877281269874071 -0.0364427522510768 -0.0161522301663833 -0.05343578 -0.0380121 -0.9978476 115 115 115
0.0849719426996454 -0.0359077625491839 -0.015751624506841 0.0301374 -0.06672604 -0.9973161 75 75 75
0.0845284409420981 -0.0335201840150838 -0.0158517781241853 0.04231626 -0.09849487 -0.9942374 116 116 116
0.0832567073832213 -0.0348565721171927 -0.0159471539225002 0.04809046 -0.07253869 -0.9962055 74 74 74
0.0914014627231494 -0.0345262299196343 -0.0158449618986071 -0.01719356 -0.02182146 -0.999614 83 83 83
0.0892131736319697 -0.033741101178083 -0.0160587117621988 -0.02416418 -0.02292361 -0.9994451 148 148 148
0.077875797392327 -0.0417206945310638 -0.0153054174236152 -0.09063843 -0.08215401 -0.9924895 90 90 90
0.0758693827656369 -0.0430925286633623 -0.0146690923296335 -0.06316515 -0.04387517 -0.9970382 144 144 144
0.0739936529626992 -0.0408050407395935 -0.0148626865696598 -0.05263678 -0.09484065 -0.9940999 97 97 97
0.0783894637887541 -0.0405084495760941 -0.0158951743405516 -0.09043559 -0.1106321 -0.9897383 63 63 63
0.0739777476178696 -0.0389310525050477 -0.0151220171203434 -0.02337001 -0.1833728 -0.9827656 133 133 133
0.0760387623888006 -0.0386418232234633 -0.0155229477316915 -0.07974734 -0.149835 -0.9854897 88 88 88
0.0721176885215713 -0.0408523926368431 -0.0146930731354102 0.02682087 -0.1064069 -0.9939609 97 97 97
0.0703651683714632 -0.0400706151950203 -0.0148878805785027 0.1140841 -0.1791274 -0.9771889 54 54 54
0.0730235758942883 -0.0384261762357816 -0.014858130647763 0.01085385 -0.1977772 -0.9801869 116 116 116
0.0727858787381743 -0.0364320338662412 -0.0157399466740402 0.09442203 -0.2922899 -0.9516571 128 128 128
0.0787337512277881 -0.0374269672065077 -0.0161653509063555 -0.06660136 -0.1638221 -0.9842391 54 54 54
0.0778470902089787 -0.0320386294812232 -0.016602990597429 0.06715624 -0.1222906 -0.9902197 63 63 63
0.0716180286458044 -0.0348263073909292 -0.016556011707074 0.1342652 -0.3214392 -0.9373631 155 155 155
0.0712502487961686 -0.0358296240874194 -0.0158773755698801 0.1242921 -0.3150314 -0.9409074 132 132 132
0.0693352919922177 -0.0338188143120117 -0.0174268524548292 0.08490364 -0.2951555 -0.9516694 95 95 95
0.0709272999818245 -0.034674363223369 -0.0169014337024172 0.1459663 -0.3279729 -0.9333422 115 115 115
0.0717274449903407 -0.0326054323123421 -0.017531894242121 0.1226222 -0.2902789 -0.9490532 100 100 100
0.0926288164418612 -0.032320592319621 -0.0161926853612789 0.01810998 -0.04474559 -0.9988343 167 167 167
0.0903030616525831 -0.0316290317684829 -0.0164110377756801 -0.008323212 -0.1005824 -0.9948939 72 72 72
0.0900412836782092 -0.0292641915217078 -0.0163108448421035 0.03558702 -0.1375117 -0.9898607 85 85 85
0.0855733321165295 -0.0311717985254336 -0.0158066484969538 0.04657786 -0.1412662 -0.9888753 125 125 125
0.086990273436939 -0.0296912876899948 -0.0164121348999124 0.005261399 -0.145305 -0.9893729 143 143 143
0.0822903468291809 -0.0304988203088801 -0.0165189109498866 0.06718755 -0.143046 -0.9874329 163 163 163
0.0868177309658473 -0.0269305378222091 -0.0168266037200876 0.02244498 -0.1248391 -0.9919231 88 88 88
0.0847217084438054 -0.0272419548024758 -0.0170599752149286 0.03322693 -0.1596895 -0.986608 141 141 141
0.0851242329300339 -0.0268244282092365 -0.0171796998833636 0.04945107 -0.1308417 -0.9901692 148 148 148
0.0931229007159731 -0.0256163590192851 -0.0166973541501978 0.1083927 -0.02278496 -0.993847 105 105 105
0.0927482443343721 -0.0245125088565787 -0.0169830218984295 0.09321239 -0.01000862 -0.9955959 109 109 109
0.090551582439482 -0.0262282095006561 -0.0170554653653982 0.05163199 -0.03820578 -0.9979351 59 59 59
0.0892461360481298 -0.0239466441837795 -0.0167542300622605 0.02619029 -0.02551612 -0.9993313 135 135 135
0.0869941287010221 -0.0251602293765598 -0.0173312294154122 0.05309716 -0.04115761 -0.9977408 107 107 107
0.0832063484387096 -0.0258740073957913 -0.0179163373483786 0.06267092 -0.1412165 -0.9879931 146 146 146
0.0848372880775918 -0.02408033871411 -0.0166167658603338 0.0550871 -0.03468815 -0.9978788 143 143 143
0.08712619628901 -0.0218369643428005 -0.0169058662776374 0.06608437 -0.005059026 -0.9978012 127 127 127
0.0861913019268643 -0.020888150609967 -0.0170512638517979 0.07170426 0.003611712 -0.9974194 131 131 131
0.0757586558740417 -0.0307950999866886 -0.0168202233808293 0.1189164 -0.1530709 -0.9810343 91 91 91
0.076199746673447 -0.0276032211129862 -0.0173961559868546 0.1569445 -0.1812644 -0.9708304 65 65 65
0.0696742692857977 -0.0313022131741529 -0.0184342777494061 0.06182455 -0.245487 -0.9674264 109 109 109
0.0698163459319332 -0.0286089441801025 -0.0186470626908374 0.04330656 -0.1351512 -0.9898781 103 103 103
0.0733007674873063 -0.029583926283371 -0.0173451872970059 0.1920688 -0.2030596 -0.9601439 108 108 108
0.0728794605814316 -0.0296303712358799 -0.0181244641300394 0.1641134 -0.1922752 -0.9675211 72 72 72
0.071487479677963 -0.0293495415851077 -0.0184167362151407 0.1305003 -0.1835618 -0.9743073 107 107 107
0.0738555693622596 -0.0269059147264064 -0.0181053905099069 0.1527354 -0.1580325 -0.9755499 99 99 99
0.0727688342443775 -0.0258957582799406 -0.0183899125686328 0.1369222 -0.1416833 -0.9803969 111 111 111
0.0704905087502006 -0.0258271788057061 -0.0187446212831577 0.04660524 -0.0973487 -0.9941585 115 115 115
0.0800912026879632 -0.0283231204059804 -0.0167647992780461 0.06095714 -0.1351219 -0.9889521 139 139 139
0.0782011627688921 -0.0283611337373277 -0.0166834705917006 0.08200176 -0.1682713 -0.982324 90 90 90
0.0799861380610873 -0.0266413320792369 -0.0173950934200539 0.07891311 -0.1597129 -0.9840043 127 127 127
0.0762198113095414 -0.0262239556916195 -0.0173739464289761 0.1608418 -0.1831508 -0.969838 106 106 106
0.0792965501223915 -0.0247548932927155 -0.0176794412968456 0.1210879 -0.165549 -0.9787396 155 155 155
0.0801925150210248 -0.0245240489493137 -0.01784421011975 0.1026829 -0.1597531 -0.981802 154 154 154
0.0818114631269515 -0.0240575166886543 -0.01802870540787 0.09194387 -0.09260248 -0.991449 119 119 119
0.0791582008593577 -0.0211842486758369 -0.0186512897979881 0.1594637 -0.03755765 -0.9864891 87 87 87
0.0782248699304779 -0.0194977001643668 -0.0183162680735231 0.154593 0.01160956 -0.98791 115 115 115
0.081697678819129 -0.0206397590467451 -0.0180139705428851 0.1414034 -0.01549999 -0.9898307 111 111 111
0.0821625596711972 -0.02080887949545 -0.0173073832281519 0.137961 -0.03271735 -0.9898971 103 103 103
0.0792156525558716 -0.0190578149932128 -0.018125851068174 0.1509161 0.01195927 -0.9884742 143 143 143
0.0749422618193498 -0.0242778339976617 -0.0186544393259569 0.1443108 -0.1815701 -0.9727315 85 85 85
0.0714855174130244 -0.0216316505065355 -0.0192901638013656 0.02789011 -0.028944 -0.9991919 34 34 34
0.073318088786785 -0.0185493070487415 -0.0187742883192934 0.06088652 0.05081271 -0.9968505 38 38 38
0.0938975334781702 -0.0210639794389185 -0.0169278882487043 0.08500123 -0.02512247 -0.9960641 69 69 69
0.0925248072321767 -0.0206707919311142 -0.0167224227458942 0.07185367 -0.0158435 -0.9972894 76 76 76
0.088409138077286 -0.0205203747020237 -0.0166646562677632 0.04328005 0.0002691821 -0.999063 113 113 113
0.0826152717906425 -0.0184127847093989 -0.0171399779099388 0.123583 -0.02252494 -0.9920785 182 182 182
0.119522727192035 -0.0232239197884574 -0.00566234939320776 0.7448965 0.4768466 -0.4666332 128 128 128
0.116809199131846 -0.0209527670956355 -0.00774321804393127 0.7584118 0.4293581 -0.4903704 90 90 90
0.119448121969942 -0.02065719710426 -0.00498673894742008 0.7623171 0.4372669 -0.4771481 52 52 52
0.118351474170919 -0.0188307484260024 -0.00528085626146568 0.7802371 0.3747225 -0.5008125 59 59 59
0.11610381702253 -0.0178146895312279 -0.00764838027788203 0.780024 0.35715 -0.5138155 75 75 75
0.117200518274182 -0.0187388832785824 -0.00485955152903084 0.7597423 0.3878417 -0.5218912 39 39 39
0.117256634000272 -0.0171501829744896 -0.00466947122635886 0.784263 0.3063911 -0.5394961 91 91 91
0.114510862113688 -0.0180229877099671 -0.00938006576011122 0.7832791 0.3759978 -0.4950754 107 107 107
0.120103269682922 -0.0201575958829556 -0.00351875834255189 0.7808287 0.4090169 -0.4722412 53 53 53
0.121248605845387 -0.0186823583522426 0.000317917372804621 0.8387096 0.3524942 -0.4151074 142 142 142
0.119222943807956 -0.0160290290837291 -0.00157050004344106 0.8077954 0.2483198 -0.5346063 88 88 88
0.118964257692818 -0.016380326436999 -0.00201391975227816 0.8117844 0.2539541 -0.5258454 77 77 77
0.121753156087571 -0.016140494199373 0.00388246663472591 0.8585311 0.259979 -0.4419676 94 94 94
0.120994046310503 -0.0127784589856839 0.00257271121672209 0.8423408 0.2333643 -0.4858014 106 106 106
0.110821200544565 -0.0200145495291206 -0.0159996665344445 0.4545887 0.1923148 -0.869692 156 156 156
0.10906415003396 -0.0197546274869143 -0.0165801888792307 0.2590916 0.02379788 -0.9655595 75 75 75
0.112098371875006 -0.0192009693451014 -0.0152945378733802 0.6486566 0.333766 -0.6839918 79 79 79
0.112053888504326 -0.0174122928538945 -0.0135805532572633 0.7628974 0.3183487 -0.5627092 87 87 87
0.112165749717403 -0.0174458689763912 -0.0116832429861796 0.7814316 0.3545631 -0.5134683 123 123 123
0.109711157846981 -0.017153517647807 -0.0163049511453929 0.4811469 0.2168316 -0.8494008 137 137 137
0.110163710724377 -0.0157283990144894 -0.0147137736534278 0.6223755 0.2530873 -0.7406724 115 115 115
0.110892526562319 -0.01593186118649 -0.0154932210909325 0.5953526 0.2521389 -0.7628769 78 78 78
0.110871685159703 -0.0140793020159449 -0.0127667401541538 0.7879653 0.2885548 -0.543918 127 127 127
0.109321215544977 -0.0128083889150463 -0.015742066379374 0.5576568 0.284316 -0.779861 120 120 120
0.106858108250467 -0.0188041294382693 -0.0166789231860009 0.09574396 -0.03913601 -0.9946364 72 72 72
0.103838564134323 -0.0192652727530833 -0.016411953263542 0.02898865 -0.08779915 -0.9957163 16 16 16
0.104727049795132 -0.0189160012815786 -0.0162721269035954 0.02990207 -0.07123792 -0.9970111 35 35 35
0.105938833917625 -0.0173751141856109 -0.0166945759117314 0.08948828 -0.008973099 -0.9959475 32 32 32
0.098130709587827 -0.0197366203022098 -0.0167479565856018 0.0279864 -0.08552009 -0.9959433 65 65 65
0.0971469727848224 -0.0196739898551561 -0.0165559595821783 0.0279864 -0.08552009 -0.9959433 92 92 92
0.101221751989126 -0.017601658177347 -0.0161599294611585 0.02507062 -0.07046475 -0.9971992 99 99 99
0.0963548709084074 -0.0175976170258125 -0.016602533640847 0.03995553 -0.1050924 -0.9936595 33 33 33
0.100617691704211 -0.0151209953566152 -0.0172261607866755 0.0542748 -0.04355095 -0.9975758 102 102 102
0.0998581364736415 -0.0151154527119814 -0.0168138165255973 0.06224704 -0.04492643 -0.9970491 81 81 81
-0.0552907852841753 0.022888924533597 -0.020914605298709 0.01878418 -0.01923252 -0.9996386 60 60 60
0.0976457189129074 -0.014624526345878 -0.0169928443780158 0.08722143 -0.06166464 -0.9942786 90 90 90
0.107078945310472 -0.0160897359639358 -0.0164030403416112 0.2235509 0.04470762 -0.9736664 137 137 137
0.105705764292916 -0.0158874176516042 -0.0168168004476546 0.09711365 0.01347163 -0.9951821 137 137 137
0.105734402058951 -0.0146897193833417 -0.0163608669644373 0.1083412 0.0162173 -0.9939815 169 169 169
0.10343899640039 -0.0139881277687297 -0.0161550611236097 0.07229259 0.01067749 -0.9973263 169 169 169
0.0974778651464883 -0.0130371093042583 -0.0178169472528656 0.08723015 -0.02333253 -0.9959149 135 135 135
0.108514418987001 -0.0136821157956568 -0.0163530115547 0.3973921 0.2116573 -0.8929058 143 143 143
0.105694266330448 -0.0134756268922573 -0.0169006396243329 0.1326423 0.04503732 -0.9901402 167 167 167
0.104651066417692 -0.0103737299052762 -0.0164994050188028 0.2427373 0.1706997 -0.9549556 97 97 97
0.107780356119949 -0.0112216543157062 -0.0159035783469947 0.5073878 0.2613006 -0.8211453 162 162 162
0.108238595362575 -0.00934027000986437 -0.0155952345312841 0.588322 0.3590443 -0.7245442 131 131 131
0.104958653555618 -0.00921683640417648 -0.0164638726823383 0.3296168 0.2920437 -0.8978102 162 162 162
0.105299566850015 -0.00753881442953142 -0.0159811094061457 0.4345708 0.4916488 -0.7546057 187 187 187
0.098712011967045 -0.0099666804678149 -0.0168961349092441 0.08529776 0.01760694 -0.9961999 89 89 89
0.101408463378813 -0.00984233146958968 -0.0166632353625783 0.1185886 0.08559766 -0.9892471 69 69 69
0.101022827423209 -0.00715756573609005 -0.0164796266921488 0.2663019 0.2820822 -0.9216903 57 57 57
0.0989757961408118 -0.00658580254356655 -0.0163615658094829 0.211865 0.1718881 -0.9620643 95 95 95
0.103729282975039 -0.00699940150487044 -0.0171245833935856 0.3334298 0.3684007 -0.8678165 144 144 144
0.103061676473653 -0.00689506612165114 -0.0169280995216252 0.3461774 0.4075359 -0.84503 127 127 127
0.10276607931842 -0.00546036193976285 -0.0161855203240701 0.4536585 0.4433704 -0.7730567 118 118 118
0.0994215677702308 -0.00421272120107297 -0.0166703578789174 0.4030357 0.4138235 -0.8162795 58 58 58
0.0997808992818907 -0.00312356152379589 -0.0166881671862839 0.4168042 0.540318 -0.7309793 52 52 52
0.0781949911884068 -0.0173764357085009 -0.0182414726192383 0.1396098 0.02019598 -0.9900006 151 151 151
0.0772029730117958 -0.0153295698711893 -0.0183351135750313 0.1004534 0.05109305 -0.993629 188 188 188
0.0760553117136862 -0.0162172630558237 -0.0185610760513069 0.07560546 0.06640502 -0.9949242 127 127 127
0.0724902441441562 -0.0167215058461654 -0.0185696644008453 0.02986041 0.05970381 -0.9977694 65 65 65
0.0745888164417603 -0.0159345087760641 -0.0182098474123971 0.06418234 0.04252398 -0.9970317 59 59 59
0.0729317639594584 -0.014461510369745 -0.0183596736880777 0.0414162 0.03139091 -0.9986488 35 35 35
0.0943413793902361 -0.0194198450778353 -0.0169804810062974 0.0677785 -0.08223372 -0.9943056 50 50 50
0.0927183081964613 -0.0188286210967821 -0.0169140671620382 0.05259205 -0.05558734 -0.9970677 61 61 61
0.0942697229302141 -0.0183343815819808 -0.0161350002622652 0.06432881 -0.09244301 -0.9936378 39 39 39
0.0953990554916686 -0.016923688632249 -0.0168711849593338 0.04860446 -0.1081117 -0.9929499 15 15 15
0.0848484066405679 -0.0156844918649861 -0.0175410198676447 0.06355417 -0.06532882 -0.9958379 72 72 72
0.0877360134468055 -0.0132454818899417 -0.0174521877529356 0.03631446 -0.07485414 -0.996533 38 38 38
0.0856694369586992 -0.0149904215937919 -0.0171268575278848 0.0408517 -0.07899366 -0.9960377 50 50 50
0.0882789690822023 -0.0147986220144491 -0.0169509785515354 0.03156575 -0.08421205 -0.9959478 52 52 52
0.0938740043400546 -0.0103869718168526 -0.0176028349553958 0.07229346 -0.01507158 -0.9972695 73 73 73
0.0905995398776249 -0.0101158085848774 -0.0177959258248187 0.0677563 -0.05978032 -0.9959093 52 52 52
0.0884173239652091 -0.0103040567906043 -0.0179603850523248 0.08079203 -0.1047681 -0.9912095 120 120 120
0.0879884881928183 -0.0115237310138492 -0.0179039949546222 0.05295377 -0.09184489 -0.9943643 47 47 47
0.0858380069475357 -0.0108164958946513 -0.0176794351876097 -0.006779773 -0.1117875 -0.993709 110 110 110
0.0859953746732733 -0.00989306907016907 -0.0181815903322572 -0.004278264 -0.1289137 -0.9916466 134 134 134
0.089074629077992 -0.00841256264782797 -0.0180302547782466 0.09644983 -0.07402164 -0.9925816 85 85 85
0.0881461443088316 -0.0078563617477001 -0.0182623764184299 0.08902846 -0.07590325 -0.9931327 118 118 118
0.0862525972467152 -0.00781882068839068 -0.0181339864197392 0.01003615 -0.09471596 -0.9954538 180 180 180
0.0863351939688641 -0.00669845425085569 -0.018600047969744 0.02074995 -0.09194811 -0.9955476 163 163 163
0.092567388946188 -0.00590704986959767 -0.0170242843963186 0.1022406 -0.01688298 -0.9946164 86 86 86
0.0837197285076559 -0.01690010744301 -0.0176308338916809 0.1076165 -0.03574682 -0.9935496 144 144 144
0.0818858686668267 -0.0162017303866473 -0.0175264871666631 0.1032713 -0.006025742 -0.994635 92 92 92
0.0829226632332491 -0.0131201640994429 -0.0178423891742569 0.03321603 -0.01417595 -0.9993476 138 138 138
0.078538667573175 -0.0146886925506213 -0.018550641749673 0.0896021 0.01568486 -0.9958541 213 213 213
0.0778404354983686 -0.0137260169030491 -0.0180382343908549 0.1159248 0.02837567 -0.9928526 218 218 218
0.0786818246540757 -0.0122255580724868 -0.0180806761444831 0.09600338 -0.01148153 -0.9953148 197 197 197
0.0753885562120797 -0.0122072070329788 -0.0184197700925098 0.06374641 -0.03591341 -0.9973197 198 198 198
0.0838501093242439 -0.0107997295533591 -0.0177361246898185 -0.005701023 -0.09052504 -0.9958779 124 124 124
0.0795322394324733 -0.00960275423045376 -0.0181642444721785 0.08886251 -0.06193038 -0.9941167 203 203 203
0.0841632594517958 -0.00693376953066993 -0.0185749095332217 0.007337869 -0.117718 -0.9930199 178 178 178
0.0805432808304443 -0.00641939406091785 -0.0180162413137086 0.01110645 -0.1599581 -0.9870613 151 151 151
0.0786241940781078 -0.00981121027700627 -0.0180829246888546 0.1154222 -0.02745142 -0.9929371 213 213 213
0.0761699497481905 -0.0075710436364882 -0.0189745852252307 0.08339623 -0.07014965 -0.9940443 208 208 208
0.0781369574542583 -0.00631277496896598 -0.0186334207635376 0.07011076 -0.139393 -0.987752 161 161 161
0.0941055031392963 -0.00594216723875807 -0.0176205164125864 0.1108264 -0.007043162 -0.9938148 72 72 72
0.0970149353027208 -0.00423084777914529 -0.0170494601429524 0.2363007 0.130537 -0.9628718 162 162 162
0.0954062758044762 -0.00442733339185475 -0.0173647041088699 0.1993082 0.08435187 -0.9762996 85 85 85
0.0928033723163346 -0.00437389415479528 -0.0174968061280208 0.1267536 0.01334018 -0.9918445 61 61 61
0.0974088019817345 -0.00249562403001002 -0.0170767548374504 0.3376829 0.3934008 -0.8551059 204 204 204
0.0935814178389367 -0.00196986910887054 -0.0176252074510136 0.1847616 0.2564153 -0.9487436 90 90 90
0.0953374275012115 -0.00133064380390246 -0.0169780227183522 0.258853 0.35257 -0.8992717 128 128 128
0.0865816862603634 -0.0044523728309751 -0.0187614161349966 0.09116441 -0.03800537 -0.9951104 184 184 184
0.0897366716416594 -0.00342623310197609 -0.0181384588179151 0.1409298 0.01247438 -0.989941 88 88 88
0.0875474598373809 -0.00168872121110697 -0.0184629589779946 0.1489562 0.0355868 -0.9882032 195 195 195
0.0913296359736595 -0.00035270039918589 -0.0178641380048853 0.2579755 0.3033203 -0.9173033 166 166 166
0.0935271941386815 0.000435155730256653 -0.0173496699240958 0.253904 0.3380341 -0.9062371 115 115 115
0.0877521585429712 0.0017745906983806 -0.0186559460219438 0.3053167 0.2100075 -0.9288049 209 209 209
0.0851839631453024 -0.00500564804812975 -0.0188571233441373 0.04338753 -0.08234265 -0.9956592 200 200 200
0.081480133183105 -0.00418462416161436 -0.0187894501354972 0.02263748 -0.1101692 -0.993655 130 130 130
0.0772414164699402 -0.00345782487391011 -0.0186827591842189 0.1096371 -0.1603876 -0.9809462 190 190 190
0.076244518801027 0.000281274074992455 -0.020054189942981 0.1289973 -0.1231275 -0.9839712 174 174 174
0.083573477076051 -0.00422783170568741 -0.0185768640717383 0.03104019 -0.08448464 -0.9959412 213 213 213
0.0860156151652292 0.000243298922296464 -0.0184494627037446 0.1903678 0.06370662 -0.9796436 202 202 202
0.0841953742110344 0.000802364065213501 -0.0183608585504162 0.1385251 -0.0002352127 -0.9903589 210 210 210
0.0817294622099567 -0.00151765836730511 -0.0192836692555014 0.08048887 -0.09962102 -0.9917647 184 184 184
0.0788259956202788 -0.00161543740265646 -0.0192858288188549 0.09877232 -0.1498347 -0.983765 171 171 171
0.0783888606743584 0.00120718526754748 -0.0196370185628769 0.1347734 -0.08946887 -0.986829 183 183 183
0.0846122239443274 0.00267650841680478 -0.0186860782845361 0.2457467 0.0990781 -0.9642572 211 211 211
0.0856070613158102 0.00386162299284298 -0.0183241390192062 0.3336859 0.2207221 -0.9164799 196 196 196
0.0860816088048173 0.00403537645337693 -0.0186429458374925 0.3832518 0.2926731 -0.8760482 186 186 186
0.0855539548246798 0.00599138536926347 -0.0188682991496935 0.4940372 0.2674799 -0.8272737 145 145 145
0.0810129222991889 0.00295386054184976 -0.0193781345284889 0.1748544 -0.06161455 -0.9826645 200 200 200
0.0784543793245494 0.00305498271287363 -0.0199717301865617 0.1371314 -0.06329516 -0.9885285 194 194 194
0.0764669175217536 0.00195100377934487 -0.01978568955762 0.125091 -0.09354414 -0.9877256 145 145 145
0.116362285961981 -0.0158617993969155 -0.00621830743838706 0.7981794 0.302343 -0.521055 81 81 81
0.115636683516587 -0.0161142506451626 -0.00634269610690039 0.7960929 0.3121388 -0.5184645 81 81 81
0.113972330656303 -0.0135491808615398 -0.00776808286122063 0.794183 0.2772756 -0.5407325 137 137 137
0.1123566728204 -0.0128873897651529 -0.0100391656850634 0.7963018 0.293878 -0.5287145 110 110 110
0.114516425081151 -0.0139616309465362 -0.009009996996485 0.7912931 0.2860865 -0.5403793 72 72 72
0.111752193818428 -0.0116075634515662 -0.00984537011814893 0.7872621 0.3201151 -0.5270149 130 130 130
0.117121046237139 -0.0123916075705601 -0.00268896105625271 0.7683169 0.2570014 -0.5862077 117 117 117
0.115899077460483 -0.0123257421715515 -0.0043389157884437 0.7731453 0.2938071 -0.562071 123 123 123
0.114323987485388 -0.0113339271322219 -0.00572280199239361 0.7706503 0.3293022 -0.5455806 129 129 129
0.113954479481899 -0.00975532937587142 -0.00619628413471499 0.758579 0.3983584 -0.5156243 114 114 114
0.116651455294242 -0.00971242302521014 -0.00261989354308678 0.7260777 0.3612447 -0.5850756 164 164 164
0.115226125838471 -0.00968745621038569 -0.00455499130489645 0.7346766 0.3877532 -0.5566847 101 101 101
0.110367186075119 -0.0116071117472376 -0.0121026307809969 0.7809821 0.3490949 -0.51788 104 104 104
0.110807023396579 -0.0100918623250528 -0.0108079812001009 0.7731191 0.3786604 -0.5088252 102 102 102
0.113379192829549 -0.0102035408735739 -0.00858635017382506 0.7843297 0.3604124 -0.5049058 144 144 144
0.1120473499648 -0.0080616719919604 -0.00781389601227986 0.7562379 0.4392486 -0.4849381 140 140 140
0.112929984884534 -0.00754128525039155 -0.00556261801929803 0.721036 0.459797 -0.5183568 112 112 112
0.109848316470592 -0.00957356223845451 -0.0119391328748404 0.7590663 0.3880797 -0.5226973 141 141 141
0.109296433127243 -0.00753932845259953 -0.0107310534950595 0.6507317 0.5669158 -0.5051283 174 174 174
0.110944125664525 -0.00789783890478657 -0.00919360051179272 0.7256554 0.472035 -0.5006069 137 137 137
0.110020429583704 -0.006866124774358 -0.0098459519846856 0.6474198 0.5758566 -0.4992362 141 141 141
0.109099364347188 -0.00615407942308765 -0.0103088378139294 0.6061274 0.6325141 -0.4822194 133 133 133
0.106269113893732 -0.00544290025185568 -0.0116274788878742 0.4880683 0.7523956 -0.4423688 133 133 133
0.103741983734683 -0.00453029649206016 -0.0113315574900837 0.4711385 0.7750364 -0.421126 87 87 87
0.110888271364547 -0.00637262373836012 -0.00768465346476585 0.6694396 0.571535 -0.4745507 142 142 142
0.110099582761201 -0.00524773375268728 -0.00653837798575543 0.5922013 0.6832469 -0.4271666 143 143 143
0.11131581802348 -0.00512674789090006 -0.00371484548833467 0.6118889 0.6577296 -0.4392993 180 180 180
0.109398464979527 -0.00550804011941786 -0.0086844086595291 0.5767811 0.6753023 -0.4596633 162 162 162
0.106483325337623 -0.00481026532637152 -0.00942995126977894 0.4436833 0.7609124 -0.4734527 139 139 139
0.109473455876809 -0.00345324247578493 -0.0048981577506787 0.5270054 0.7356479 -0.4255436 156 156 156
0.104590933391383 -0.00365437326111184 -0.00895641871357353 0.4503238 0.7801517 -0.4342487 123 123 123
0.103784969535022 -0.00389279329049197 -0.00942629288108973 0.4650292 0.7642229 -0.4468907 124 124 124
0.119008640822051 -0.0112915791721577 -7.87830398112366E-05 0.7886193 0.2513927 -0.5611428 161 161 161
0.116361187506303 -0.00623559587445044 -0.00123555833299516 0.6762687 0.591551 -0.4390081 151 151 151
0.117476385986572 -0.00640781339285001 0.00118417518940706 0.7076412 0.5847302 -0.3966543 84 84 84
0.115729261770992 -0.00413044774047111 0.00497284862299052 0.6610481 0.6812503 -0.3145051 37 37 37
0.115351095199629 -0.00579018667435727 -0.00135619424601474 0.6717817 0.5809335 -0.459593 137 137 137
0.113324267338335 -0.00367217784957141 0.00141559234267019 0.6074449 0.7160528 -0.3439172 122 122 122
0.111021378381887 -0.00250773324932529 -0.00116431497204184 0.5736445 0.7197867 -0.3909464 178 178 178
0.110015358608881 -0.000589585468814935 0.000787835009089188 0.629196 0.6761562 -0.3833081 151 151 151
0.106657160342867 -0.00162057733556509 -0.00393736927223209 0.5027463 0.6869538 -0.5247292 159 159 159
0.105996303649162 -0.000253638188590255 -0.00309106419860383 0.5535495 0.6462919 -0.5252522 150 150 150
0.104300450309158 0.000912735344029914 -0.00355053156601992 0.5690179 0.6120339 -0.5492114 182 182 182
0.105847987621373 0.00197956991760773 -0.00141799320240166 0.6388671 0.6011374 -0.480086 176 176 176
0.111950163332825 -0.00174000951912934 0.00355088589284147 0.6170305 0.7095209 -0.3403725 142 142 142
0.111320883201776 -0.00121953889818194 0.00376465356977185 0.6300961 0.7062514 -0.3227814 146 146 146
0.110594610316363 -4.95169298022624E-05 0.00451511385153669 0.6610513 0.6628904 -0.3515502 94 94 94
0.107526438320148 0.0021967123179969 0.00157270590660064 0.6639199 0.6079755 -0.4354035 199 199 199
0.101664393610473 -0.0046111526761714 -0.0152421927674625 0.4852141 0.5659604 -0.6665254 83 83 83
0.100679212025177 -0.00281450577854536 -0.0131952416037075 0.561933 0.6883836 -0.4586495 73 73 73
0.0995643616877828 -0.0018084809489356 -0.0144995399760375 0.5584022 0.6191925 -0.5520758 53 53 53
0.10241947759598 -0.00312518387284677 -0.0108604321948303 0.5306098 0.7372144 -0.418292 84 84 84
0.101391891275479 4.42464674172971E-05 -0.0071076310163101 0.5760193 0.6238513 -0.5282152 70 70 70
0.103589292200019 0.00152532074364031 -0.00430174769084812 0.5823736 0.5879038 -0.5614358 184 184 184
0.103301101815838 0.00490018466251896 -0.00110957091336528 0.664016 0.5278976 -0.5295346 151 151 151
0.10427409043446 0.00484543917573732 -0.000284339469566186 0.6855647 0.5414403 -0.4866656 151 151 151
0.10333656910643 0.00694500586705371 0.000725448923684979 0.6815741 0.5043128 -0.5302125 147 147 147
0.104592690596814 0.00712710108550518 0.00426834553411048 0.7158843 0.5116993 -0.4750511 116 116 116
0.0984205446107289 0.000226262866724225 -0.0117120623271788 0.6120254 0.6785967 -0.4061175 147 147 147
0.0980331574817241 -0.00126601590285835 -0.0166365748132216 0.4393002 0.5497572 -0.7104804 180 180 180
0.0983828755846994 -0.000750140412243194 -0.0147277446591958 0.5424554 0.6264231 -0.5597644 83 83 83
0.0957565903262094 0.00154920966873484 -0.0153430993774381 0.4494383 0.660219 -0.6017609 93 93 93
0.0928852767640835 0.000807564389799786 -0.0160619634003251 0.3360468 0.4898451 -0.8044404 90 90 90
0.0943666663842011 0.00265601209097266 -0.0144884707253372 0.4492247 0.7022039 -0.5523648 164 164 164
0.0929357593807096 0.00266482727246675 -0.0141735475069868 0.4670126 0.676976 -0.568861 143 143 143
0.0958232941651671 0.00210747003002654 -0.0112388142122568 0.5211791 0.7250912 -0.4501278 105 105 105
0.0949928409299474 0.00344806077440207 -0.0104571504437391 0.5372636 0.6767877 -0.5032954 118 118 118
0.100208542880979 0.00338243175924546 -0.00631495741204788 0.5743232 0.5734692 -0.5841969 96 96 96
0.0962107444022204 0.00351456889130342 -0.00842088251060755 0.5760368 0.6323467 -0.5179955 122 122 122
0.0933930440612012 0.00573744031396362 -0.0084562974201671 0.5608903 0.6017009 -0.568646 143 143 143
0.0955558375798664 0.00514656063642271 -0.00787890901775132 0.5340443 0.6155245 -0.5795915 118 118 118
0.0906359067333526 0.0044443236582512 -0.0142798176000592 0.5625151 0.6173498 -0.54996 107 107 107
0.0891637555050213 0.00517940342520529 -0.0139503874099281 0.5914025 0.5755659 -0.5647716 66 66 66
0.0920483973149753 0.0062043382285859 -0.0100167470008627 0.5929506 0.5936086 -0.5440942 88 88 88
0.0908640021503682 0.00850575893714645 -0.00904444009067953 0.6233478 0.5104344 -0.5923633 117 117 117
0.0930148766108845 0.00825014888710696 -0.00726192134396805 0.5640742 0.5087698 -0.6503642 87 87 87
0.0912622128297338 0.00932323896756015 -0.00770787453126406 0.60655 0.4783188 -0.6350656 89 89 89
0.0890288932671006 0.00625472642351643 -0.0127844500269013 0.6243775 0.5706272 -0.5334205 92 92 92
0.0872988147933511 0.00780457131037116 -0.0151481735937991 0.6402647 0.482995 -0.597308 43 43 43
0.0875224923972411 0.00804740261282744 -0.013922608841896 0.6590266 0.5148864 -0.5482481 52 52 52
0.087917504725755 0.00865175627067338 -0.0124313876879841 0.6716461 0.5267388 -0.5209968 64 64 64
0.0868939610081334 0.0105552485102853 -0.0123234551799831 0.6838418 0.4915941 -0.539162 48 48 48
0.0850826776511844 0.0105480092916992 -0.014043875912934 0.6973869 0.4622193 -0.5477269 51 51 51
0.0897515161266482 0.0108131515578831 -0.00852858862822778 0.6355165 0.4501187 -0.6273053 120 120 120
0.100051951075771 0.00508972689781095 -0.00453668976111221 0.5755259 0.5286899 -0.6239046 97 97 97
0.102739701910411 0.00836439336359218 0.00269131526770772 0.687983 0.4837886 -0.5409511 180 180 180
0.0995111219186446 0.0101396326799763 -0.000426835851529583 0.6021863 0.4659073 -0.6483071 70 70 70
0.101793948165525 0.00986457116549699 0.00160163405253755 0.6555973 0.4485467 -0.6074521 66 66 66
0.0971399937359667 0.0103705692538016 -0.00276415178722167 0.5828995 0.424821 -0.6926438 79 79 79
0.0959673089053177 0.0108360208487237 -0.00266926602157724 0.5741259 0.3977838 -0.7156448 66 66 66
0.0992922108472576 0.0110813904888392 -0.000719140276271402 0.6110944 0.4634885 -0.6416714 52 52 52
0.0945607520006675 0.0121811747277698 -0.00266265911908614 0.5741861 0.3889397 -0.7204416 66 66 66
0.0956439986445705 0.0129340283789798 -0.00165941219630361 0.6123783 0.3642188 -0.7016677 118 118 118
0.0952040153730143 0.014407857126927 -0.00101710526868726 0.6270695 0.331933 -0.7047017 89 89 89
0.09404877248573 0.0138793333252183 -0.00246523841176605 0.6139708 0.3200921 -0.721513 77 77 77
0.0934583479536508 0.0142938548309826 -0.00394485411025425 0.6068125 0.3264627 -0.7247072 67 67 67
0.0941901027925001 0.0162687238570691 -0.00255160279113187 0.6388612 0.3032637 -0.7070272 85 85 85
0.0974155881802692 0.0159202528761972 4.67261676955211E-05 0.6517664 0.3589218 -0.6681136 57 57 57
0.0896148055038934 0.0149012683421934 -0.0063513395914114 0.6218342 0.3198895 -0.7148377 90 90 90
0.0881740673787599 0.0146146485709975 -0.00764988885959997 0.6528127 0.3435699 -0.6751262 93 93 93
0.0911678838932195 0.0123395415958962 -0.00582058373954766 0.6084871 0.3766005 -0.6985095 88 88 88
-0.0179425092050147 0.0172724884873952 -0.0220892177979519 0.04318628 0.06106094 -0.9971994 151 151 151
-0.0265932416765198 0.0988136563336099 0.00725450051428944 0.0264602 0.9973908 -0.06716703 202 202 202
0.101845580752535 0.0121427911478678 0.0035946560525616 0.64985 0.4243674 -0.6305611 171 171 171
0.0981364370601794 0.0171231934554614 0.0028295798784036 0.6746482 0.3632636 -0.6425647 86 86 86
0.0972393380367582 0.0180722795873283 0.00213843317488993 0.6792259 0.3264826 -0.6573137 116 116 116
0.0994545779136327 0.0197517097370139 0.00495904831284644 0.6977677 0.347332 -0.6264828 54 54 54
0.0337503248823334 -0.0750124224622539 0.0139462076279041 -0.1592668 -0.986113 -0.0470658 31 31 31
0.0272867227041549 -0.0741845148925984 0.0147362721665781 -0.1299804 -0.9914352 0.01269839 12 12 12
0.0629164305888898 -0.0331322328036543 -0.0171452423960161 0.009831499 -0.1576879 -0.98744 73 73 73
0.0669734356261769 -0.0323868953297988 -0.0179862110824906 -0.008197666 -0.2482217 -0.9686686 84 84 84
0.0635348153079209 -0.0320216581843764 -0.017743471678633 0.01304317 -0.1827405 -0.9830747 77 77 77
0.0613905542678252 -0.0334130042078515 -0.0171831385134655 0.06033423 -0.1506204 -0.9867489 74 74 74
0.0613389556769937 -0.0314289514643935 -0.0177938248409738 0.03886945 -0.1717841 -0.9843675 68 68 68
0.0672674431787073 -0.0300317954242806 -0.0179773444187416 -0.03088414 -0.1880115 -0.9816811 78 78 78
0.065895868715971 -0.0294346560438989 -0.0180800535299498 -0.04340209 -0.1856999 -0.9816475 85 85 85
0.0688025649255244 -0.0286036969055454 -0.0188600871032003 0.03956495 -0.126255 -0.9912085 76 76 76
0.0637676300187873 -0.0294892712658339 -0.0181357038769639 -0.02876295 -0.1928291 -0.9808107 67 67 67
0.0685252602397579 -0.0261405230976615 -0.0185692680473543 0.02326366 -0.1031912 -0.9943895 51 51 51
-0.0722913235102975 0.0626689923277912 0.0134518426088083 -0.6747514 0.6431617 -0.3620132 112 112 112
0.0648394900301192 -0.0257115455602901 -0.0188186850129941 0.02146876 -0.1434839 -0.9894198 76 76 76
0.0621865339523091 -0.028527625380862 -0.0180804568235715 0.007460451 -0.201321 -0.9794969 127 127 127
0.060701846406217 -0.0285874117641294 -0.0181496926218565 0.05024013 -0.1961979 -0.9792764 49 49 49
0.0578744222811793 -0.0293915213686478 -0.0184772565140273 0.1103376 -0.1661 -0.9799165 126 126 126
0.0602562144336973 -0.0270363280488313 -0.0187716515574058 0.05186888 -0.1622342 -0.9853881 97 97 97
0.0583854341630992 -0.0268948897415995 -0.0188148892129125 0.06874241 -0.1517495 -0.9860256 128 128 128
0.0662258369319089 -0.0216089931355083 -0.0190006451828336 0.04796855 -0.004809213 -0.9988373 97 97 97
0.061207016309615 -0.0205977483937294 -0.0189156614335203 -0.01910526 0.02655796 -0.9994647 44 44 44
0.0592020185288336 -0.0228405966636676 -0.0191546698761804 0.03389221 -0.04651214 -0.9983426 42 42 42
0.0646075012894669 -0.0199263351397796 -0.0196387259572235 0.05044763 0.0249747 -0.9984144 20 20 20
0.0631581486824833 -0.0197142639618948 -0.0194405172843804 0.02643239 0.03777108 -0.9989368 46 46 46
0.061790084541077 -0.01871703940728 -0.0194131192624102 -0.01950455 0.0323028 -0.9992878 44 44 44
0.0709083460951838 -0.0187388869093197 -0.0190781946100868 0.0204414 0.03811415 -0.9990643 61 61 61
0.0703118848355109 -0.0165216160621249 -0.0189129488589038 0.03759193 0.05778927 -0.9976208 62 62 62
0.0673967737311694 -0.0201178318654658 -0.0188109617935219 0.04901122 0.02393449 -0.9985114 132 132 132
0.0655417192688428 -0.0189412558221345 -0.0190406280647677 0.0540772 0.03176655 -0.9980313 54 54 54
0.0618542543420793 -0.0184773544783432 -0.019146752974262 -0.007116169 0.02478147 -0.9996676 83 83 83
0.0556229056453725 -0.0268603328687909 -0.0189683158280131 0.05110814 -0.08812588 -0.9947973 232 232 232
0.0522985788731365 -0.0257517310169209 -0.0190655428945972 -0.02137607 -0.04308823 -0.9988425 239 239 239
0.0545418496093499 -0.0246528188016328 -0.0195469980055182 0.01288368 -0.04586014 -0.9988648 231 231 231
0.0540424491015528 -0.0234112954313761 -0.0190264800970305 0.0009937126 -0.03883366 -0.9992452 224 224 224
0.0502139066479761 -0.025047464251259 -0.0190358614860366 -0.04669854 -0.01407275 -0.9988099 218 218 218
0.0507517359157301 -0.0243229186823557 -0.0195395980601048 -0.04309746 -0.01667539 -0.9989317 223 223 223
0.0483699918776397 -0.0232950938388181 -0.0191370501400476 -0.06834111 0.02457052 -0.9973594 96 96 96
0.0493782748726699 -0.022586874011217 -0.0181997917334687 -0.0795659 0.01495547 -0.9967174 126 126 126
0.052447379172933 -0.0227427167869836 -0.0197496570085607 -0.05430106 -0.005847111 -0.9985075 240 240 240
0.0586174373263444 -0.0199885342627095 -0.0191626589321849 0.01896548 0.01897824 -0.99964 36 36 36
0.0550355009244448 -0.019864646311778 -0.0195271405181931 0.02884473 0.006522933 -0.9995626 226 226 226
0.0580620230160047 -0.0186828675274218 -0.0190772392778598 0.04007073 0.01479479 -0.9990873 40 40 40
0.0536240410885562 -0.0171800632899541 -0.0194799837644598 -0.04200905 0.01880442 -0.9989402 241 241 241
0.0513390789956438 -0.0196598029787443 -0.0192178578311895 -0.0891244 0.02570969 -0.9956886 141 141 141
0.0491458740465762 -0.0215665291237537 -0.0196826791296229 -0.09143119 0.009224253 -0.9957687 111 111 111
0.0511728639592786 -0.0182439817688329 -0.0193531201555605 -0.1012325 0.04268013 -0.9939469 128 128 128
0.0519847206238042 -0.0160126188369445 -0.0190497386763293 -0.1123324 0.05358158 -0.992225 202 202 202
0.048703100738634 -0.018217735815129 -0.0190619246284221 -0.07153711 0.01349669 -0.9973466 110 110 110
0.0481327366512905 -0.0173597446393541 -0.0193896816752514 -0.0417906 0.03650362 -0.9984593 53 53 53
0.0496056543244179 -0.0161538493539632 -0.0191526211561396 -0.07367019 0.04181125 -0.9964058 118 118 118
0.058220956120977 -0.0161382692812042 -0.0183860741504951 0.04674561 0.007121284 -0.9988815 55 55 55
0.0455016568813642 -0.0246491635308355 -0.0187553847817246 -0.1012111 0.04936756 -0.9936393 104 104 104
0.0410426155684176 -0.0237838140391984 -0.0180809804683217 -0.01605335 0.01350689 -0.9997799 138 138 138
0.0444496476719425 -0.0230352445968194 -0.0187010797184228 -0.08825115 0.03616922 -0.9954414 113 113 113
0.0422056218150018 -0.0222597960434503 -0.0184096295128023 -0.02581493 0.02052907 -0.9994559 132 132 132
0.0404570198641481 -0.0216000738413531 -0.0183195069983877 -0.006731954 0.008705475 -0.9999394 122 122 122
