ply
format ascii 1.0
comment File exported by Rhinoceros Version 7.0
element vertex 471
property float x
property float y
property float z
property float nx
property float ny
property float nz
property uchar red
property uchar green
property uchar blue
end_header
0.0808322035758784 0.0817477973170933 0.0485390431521245 -0.8339661 -0.29825 0.4642708 114 114 114
0.0733489829289509 0.0693380809379729 0.0371806812046871 0.06185766 -0.5705001 0.8189647 134 134 134
0.137509116959083 0.0428298301048227 0.052585726995816 0.4610747 -0.7062589 -0.5372229 43 43 43
-0.0388551825019534 0.0615717318008384 0.0239590215953643 0.04135485 -0.5305587 0.8466388 159 159 159
-0.00418417021134587 -0.0202275395441234 -0.0304044622992515 0.04016761 -0.5564117 0.8299353 136 136 136
0.0566874338451222 -0.020030861909704 -0.0262472166224627 0.0509568 -0.5344259 0.8436779 128 128 128
-0.019250532911661 0.0778620784180171 0.0572998483401583 -0.9985428 -0.0273085 0.04654494 87 87 87
0.0282654399312956 0.0787278693589295 0.0546733836348818 -0.9994324 -0.02031313 0.02687409 86 86 86
0.0592954397720931 0.0212358518659812 0.00267835144233075 0.02301959 -0.5414729 0.840403 209 209 209
-0.0277224634693742 -0.094092736402227 -0.0666703267987078 0.5550646 -0.8215806 0.1300331 79 79 79
0.0560715407899415 0.0755766623142191 0.0407937031039488 0.0560133 -0.5227735 0.8506294 138 138 138
0.0470996537370829 0.0791744741046636 0.0535005665888085 -0.9986929 0.005862438 0.05077612 75 75 75
0.0388582091491032 -0.0535008154794323 -0.0349411772766176 0.5732411 -0.7127684 -0.404173 42 42 42
0.0462003130428781 0.0819871672200152 0.0493633329930033 -0.9783887 -0.109273 0.1755418 103 103 103
-0.0529951276523764 0.0721788273392281 0.0310878647355652 0.0311834 -0.5467579 0.8367099 109 109 109
-0.0322982573630091 0.0242480375189156 -0.00120509442053857 0.03276394 -0.5640086 0.8251187 139 139 139
0.0712121171956013 0.0055831575888321 -0.00723923780741931 0.04916815 -0.550623 0.8333048 103 103 103
0.0630135645872332 -0.0310832830976477 -0.00759232036642099 0.5688484 -0.6930914 -0.4427593 38 38 38
0.0536406722451672 0.024026719921465 0.00408088238132037 0.02963505 -0.5605724 0.827575 154 154 154
0.0716508870817925 0.061177469245578 0.0319562788420979 -0.009987549 -0.5643622 0.8254669 125 125 125
0.0503729727344924 -0.0419518367188654 -0.0257006882686294 0.4895339 -0.8491025 -0.1984476 46 46 46
0.00769540427866211 -0.0450901776262036 -0.0469666850577023 0.05086228 -0.5432863 0.8380054 96 96 96
-0.0137784226595494 -0.0723715011246742 -0.0670889497454401 0.07353654 -0.5753317 0.8146077 89 89 89
0.0455691473186643 -0.00854388594629607 -0.0189429407424354 0.01151361 -0.5442148 0.8388669 126 126 126
0.0649682664597644 -0.026174541926677 -0.0136609799410313 0.7645249 -0.5282975 -0.3693284 54 54 54
-0.0807227698743178 -0.0102328679259103 -0.016239508282121 -0.0001050472 0.8340352 0.5517113 89 89 89
0.0182398604931513 -0.0643453282299387 -0.047656276690607 0.8527416 -0.5153846 0.0849146 68 68 68
0.0911112616554615 0.0561273043007218 0.0296561023389731 0.04348271 -0.5649261 0.823995 131 131 131
-0.0405671889716781 -0.104386319814143 -0.0736350057640019 0.4716657 -0.8488994 0.2385399 67 67 67
-0.0480296419037947 -0.0918092125590215 -0.0833822172810937 0.03153863 -0.5570192 0.8299006 89 89 89
0.0901625691580792 0.0777631118508142 0.0441297516371063 -0.02680408 -0.5652291 0.8244984 141 141 141
0.0158437013587851 0.0654548063589697 0.0304107669951903 0.03873526 -0.5441426 0.838098 146 146 146
-0.0793234441320356 0.0637359015817132 0.0520151182407004 -0.001927945 0.8412402 0.5406581 88 88 88
-0.0795891019559143 0.0571002664119362 0.0473365981497162 -0.005004475 0.8359262 0.548819 109 109 109
0.0996278476357335 0.0794157180290751 0.051127894130392 -0.969605 -0.1231157 0.2114442 99 99 99
-0.0373163180761669 -0.0538514227589764 -0.0561051505496051 0.05588719 -0.5503943 0.8330323 125 125 125
0.13788996031589 0.0434492976551306 0.0540783410123743 0.4903736 -0.6908397 -0.5312948 59 59 59
0.110689046350005 0.0154055428469377 0.0141477728982966 0.4693778 -0.8433147 -0.2617342 81 81 81
-0.0377644289637051 0.0723872081529193 0.0319685275527832 0.0148771 -0.522825 0.8523102 147 147 147
-0.0307463971806801 0.0479150950696849 0.0152294022071058 0.03743335 -0.5525187 0.8326595 148 148 148
0.0619567496882865 -0.0238281668765685 -0.0269347424802814 0.4356664 -0.8324798 0.3423043 115 115 115
0.0297664847242824 -0.0648897178471031 -0.0421241292911043 0.7526288 -0.638492 -0.1608659 138 138 138
-0.00104542134693109 0.0799001656303437 0.0541670454756709 -0.9992904 -0.02428373 0.02879243 103 103 103
0.01404376295128 0.0449819455104266 0.0162398016981853 0.05392174 -0.5554019 0.8298321 139 139 139
0.105974631863842 0.0648837351951623 0.0368761174615664 0.0395932 -0.5470182 0.8361839 139 139 139
-0.029164356379705 -0.00586805716222338 -0.0218597860711963 0.03015558 -0.5563055 0.8304305 162 162 162
0.113959885343494 0.0584052606374663 0.0326313894043374 0.04192192 -0.5498788 0.8341917 122 122 122
-0.00314229449730341 0.0815104757877037 0.0407583144560468 0.02934697 -0.5510181 0.8339771 127 127 127
0.021792101387645 0.0340227237201212 0.00878161995016102 0.05643164 -0.5407197 0.8393078 202 202 202
0.00216215385064844 -0.0385030023178854 -0.0427390208708541 0.01591058 -0.5338511 0.8454288 191 191 191
0.0678005178824725 -0.00752552227950898 -0.0168188204866014 0.03147532 -0.5563941 0.8303221 101 101 101
0.0592518412873866 -0.0311369749867412 -0.015408011002303 0.5723019 -0.6791664 -0.4595689 57 57 57
-0.0137597062573991 0.0115637458847084 -0.00900386081080679 0.02285183 -0.5497974 0.8349854 188 188 188
0.0651704546036966 -0.0297223030485774 -0.00534048998706638 0.5423384 -0.6962707 -0.4701873 33 33 33
-0.00770308696624999 0.0784699973085916 0.0382925750246838 0.01741129 -0.5520732 0.8336139 137 137 137
0.0406451075412249 -0.0483117382641882 -0.0367330792591316 0.7348099 -0.6774173 -0.03406022 89 89 89
0.0726343058649341 -0.0177083547958417 -0.0137381245806708 0.6575221 -0.5864249 -0.4730438 55 55 55
-0.0299108833964521 -0.0296145643641925 -0.0388822560931456 0.05029651 -0.5551816 0.830207 213 213 213
0.0446273592145596 0.00429503459798064 -0.0100174883818701 0.03444448 -0.5626718 0.8259624 145 145 145
0.0281975519068447 -0.0341423498625355 -0.0379694341956865 0.03612285 -0.5658496 0.8237168 152 152 152
0.00820118555947635 -0.054853099100328 -0.0536975666140144 0.03229725 -0.5626873 0.8260387 91 91 91
0.0590963141959762 0.076699489519267 0.0414420779743176 0.0304171 -0.5392248 0.8416124 115 115 115
0.144275969986131 0.0761567407365573 0.0474478353704284 -0.4617097 -0.7311476 0.5022422 95 95 95
0.0682653923901668 0.00455215295496192 -0.00817244708506182 0.03433266 -0.5512007 0.833666 110 110 110
0.00156606332876397 0.0470343268878832 0.0170052727550683 0.03525058 -0.5433815 0.8387455 121 121 121
0.12021398820761 0.0297806321968894 0.0228347344528419 0.5364779 -0.6742659 -0.5075008 77 77 77
0.0337821772841194 -0.00301860425912603 -0.0158073598020131 0.05395292 -0.54312 0.83792 134 134 134
-0.0374134758156197 0.0808602776368599 0.0376689624797687 0.03858815 -0.5352903 0.8437863 154 154 154
-0.033376849039306 -0.0129050814375469 -0.0273639999343501 0.0567683 -0.564074 0.8237705 226 226 226
-0.0489351694849947 0.0431442142647813 0.0106708535748853 0.02463653 -0.552357 0.8332435 164 164 164
0.109803552914384 0.0670162251604149 0.0384066410918094 0.01049546 -0.5424401 0.8400289 121 121 121
-0.077698805601019 0.0606506226911681 0.02122814248596 0.0599539 0.104486 0.9927176 133 133 133
0.0121880800521272 -0.0534064608780909 -0.0522538750460777 0.04374523 -0.5574974 0.8290253 84 84 84
-0.0681633986515808 0.0266987624879498 -0.00183045897059336 0.01033809 -0.5757095 0.817589 132 132 132
0.125173249163864 0.0249866684497144 0.0404578139983801 0.5912952 -0.6407289 -0.489731 52 52 52
0.149137903153299 0.0653396797013122 0.0475137673198408 0.4898033 -0.6500876 -0.5809293 60 60 60
0.0505915433920414 0.0806816917467992 0.0437468766558513 -0.07287997 -0.5539114 0.8293797 132 132 132
0.0582528021400655 0.00286207030147634 -0.0104003549558278 0.02703677 -0.5356707 0.843994 89 89 89
0.119853430773039 0.0310153935648019 0.0177604296325808 0.7066025 -0.6843637 -0.1798868 80 80 80
0.0288035931113408 0.016321539195066 -0.00234958127783536 0.0179565 -0.5610692 0.8275741 101 101 101
-0.0628769247274055 -0.124499461728775 -0.086143845810219 0.7859955 -0.5716426 -0.235448 49 49 49
0.00238628227953175 0.0462065697316478 0.0168823323086008 0.02566416 -0.5397201 0.8414533 128 128 128
0.0731598745568625 0.0415642167066141 0.0179887897900414 0.02956426 -0.557783 0.8294601 144 144 144
0.0926520528261823 0.0817461975930733 0.0493711846591708 -0.897265 -0.2138235 0.3862578 113 113 113
0.120255879184797 0.0325358563331364 0.0156284521627274 0.5169231 -0.8198459 0.2462585 91 91 91
0.0526348879389222 -0.0362940916407724 -0.0238051360488104 0.5138153 -0.7753912 -0.3670999 56 56 56
0.0489575830671622 0.0775203769922734 0.0561379956299652 -0.9995785 0.01018854 0.02718409 93 93 93
-0.040526346388444 0.0813701886225293 0.0532913236592273 -0.999625 -0.01335264 0.02390544 115 115 115
0.0267978436003062 -0.0387814434103155 -0.0411580896886848 0.02580949 -0.5526097 0.8330405 103 103 103
-0.0809516501303622 -0.00275942153416353 0.006805016015066 0.0003446722 0.8271931 0.5619177 88 88 88
0.109867818498265 0.0321530925895215 0.0136442620948526 0.0369411 -0.5493786 0.8347566 124 124 124
-0.0449638702813253 -0.112737507076916 -0.0793481318320585 0.5060375 -0.8623143 0.01843964 47 47 47
0.0167137756829492 0.0676043934905823 0.03224483154044 0.01649063 -0.556553 0.8306484 137 137 137
-0.0698174436231564 0.0810677250268421 0.0357438931971195 0.01756838 -0.5678918 0.8229157 145 145 145
-0.0654414859185306 -0.12439044979332 -0.0904523521530987 0.7682 -0.5245788 -0.3669958 48 48 48
-0.025729314820353 0.0637255977993632 0.0268987848513933 0.0275889 -0.5574226 0.8297704 134 134 134
0.05261025623579 0.016258820128467 -0.00101457382103171 0.04910634 -0.5605842 0.8266401 115 115 115
-0.0421074355585311 0.0431764097217744 0.0111277695916344 0.0312148 -0.5436459 0.838734 168 168 168
0.0489709697088601 0.0459779258560125 0.0193337625440441 0.03789788 -0.5536717 0.8318722 142 142 142
0.0662486768392734 -0.0303428006713062 -0.0037542313277531 0.4918417 -0.7270083 -0.4791144 56 56 56
0.0894278173242946 0.0459004342871363 0.0223011994953692 0.01707174 -0.5659785 0.8242432 122 122 122
-0.0538322606402608 -0.0709888169939348 -0.0691907660197762 0.0345852 -0.5604821 0.8274441 156 156 156
0.0369299886034011 0.0661787957575264 0.0326221062998201 0.02914267 -0.5157982 0.8562143 146 146 146
0.0228028470618913 0.0792347852457589 0.0543345863985264 -0.9994755 -0.01768166 0.02713232 96 96 96
0.105355130804525 0.0609466989228322 0.0342054003914371 0.01419409 -0.5502517 0.8348782 145 145 145
0.0981202888800343 0.0447007935624382 0.022208686962805 0.02979727 -0.5282425 0.8485705 111 111 111
-0.00588923546059883 0.0238426800097706 0.000430402210121694 0.02660403 -0.5415999 0.8402153 104 104 104
-0.0211660929844468 0.0328031757605916 0.00527624915124086 0.04985356 -0.5485187 0.8346507 131 131 131
-0.0277057691040361 0.071985793492177 0.0322480350227268 0.03693623 -0.5762966 0.8164055 138 138 138
-0.0319015299198977 0.0843755966897326 0.0485995323865543 -0.9987411 -0.01737601 0.04705676 78 78 78
-0.0820538834998921 -0.0911847670385166 -0.0752501438805668 -0.01558347 0.8403363 0.5418414 102 102 102
0.00335341097869213 0.0202857340628835 -0.00138160341989696 0.04531949 -0.5484221 0.8349727 81 81 81
0.0169042114479598 0.0660904675328478 0.0311328336620275 0.02027141 -0.5539864 0.8322789 148 148 148
0.146289352433024 0.0571617458153337 0.0544973294310092 0.4740357 -0.6395308 -0.6052193 40 40 40
0.0466133520720775 -0.0437345958070718 -0.0335824730669292 0.6179222 -0.6573011 -0.4314249 71 71 71
-0.0283258836577573 -0.0849466393987768 -0.0770864493514922 0.05624173 -0.5585929 0.827533 105 105 105
0.045205841380656 -0.0516250548201163 -0.0209676542374446 0.7558429 -0.5777449 -0.3080784 46 46 46
-0.0835296038264941 -0.129676333281731 -0.0880986458091818 -0.00778312 0.8204798 0.5716226 97 97 97
0.0216991053066709 -0.050071163701789 -0.0493837905908732 0.2541978 -0.6972215 0.6702729 130 130 130
-0.0267666456482032 0.0674501098469773 0.0292640508082201 0.058598 -0.5651868 0.8228792 146 146 146
0.0546678043612836 0.0678974917432895 0.0352891335267306 0.02592916 -0.5591145 0.8286849 128 128 128
0.0126385120338055 0.0848613347336225 0.0441037977749089 -0.3627053 -0.5329218 0.7644863 132 132 132
0.0682352235564805 0.027237764818925 0.00751682961263855 0.033355 -0.5608399 0.8272521 193 193 193
0.0204939832397795 0.0105489890237302 -0.00747238977962772 0.02810941 -0.5315695 0.8465481 205 205 205
-0.0505733775947186 0.0389894636527017 0.00767669183220165 0.03098282 -0.5374556 0.8427227 162 162 162
0.0948270742111319 0.0736165446653427 0.0418917236657714 0.0368502 -0.557241 0.8295327 122 122 122
0.145598999180017 0.0647414622748226 0.0386854196030006 0.2758137 -0.868658 0.4115338 134 134 134
-0.0312889203124174 -0.0386811943701335 -0.0453491798937835 0.04062631 -0.5364186 0.8429737 109 109 109
0.111025099380063 0.0104255971934468 0.0189847655045267 0.4316238 -0.7858741 -0.442835 17 17 17
0.0380730267578544 0.0429524878296506 0.0163809749267854 0.05351724 -0.5341541 0.8436915 196 196 196
0.0188047946938084 -0.0252346203067011 -0.0322361856597858 0.01608638 -0.5520589 0.8336499 100 100 100
0.13423549993302 0.0457368508149165 0.037973278416511 0.5700744 -0.7326252 -0.3718542 51 51 51
0.100089557537045 0.0538205603275081 0.0283826934836325 0.04841132 -0.5285006 0.8475515 127 127 127
-0.0413523462771583 0.0301624482074123 0.00229376671393722 0.02770089 -0.5465783 0.8369497 158 158 158
0.0368613441740346 0.0202760213672479 0.000428315761993148 0.02983863 -0.5378992 0.8424809 91 91 91
0.11604327166877 0.0518930955236858 0.0280202818005592 0.04296068 -0.5445732 0.8376123 120 120 120
-0.001748194181447 -0.0216405806826292 -0.0311516643299629 0.02291955 -0.5428841 0.8394948 123 123 123
-0.0814078517688746 -0.0682320102244263 -0.0657251403041535 0.03560733 0.6274462 0.7778454 130 130 130
0.0498527476788215 0.00621239846652721 -0.00820329900149774 0.0305484 -0.5606444 0.827493 94 94 94
-0.0704702499410259 -0.0416264457124291 -0.0496662458566271 0.04940107 -0.5564119 0.8294368 170 170 170
0.109521303911008 0.0704192279966191 0.0408850268156128 0.02979671 -0.5542761 0.8317994 91 91 91
-0.0250352023382265 -0.0960354610560901 -0.0639795904883014 0.4834357 -0.8534024 -0.1949211 87 87 87
0.0647732022680838 0.073778459016814 0.0396187677801663 0.02528582 -0.5476034 0.8363559 127 127 127
0.0503823830902128 0.0718238615609708 0.0641144458068426 -0.9976212 -0.01761132 0.0666471 96 96 96
-0.0773320709204262 -0.0662466536743609 -0.067696873156276 0.01184729 -0.322885 0.946364 151 151 151
0.125548798246209 0.0280952873798295 0.0372296321173424 0.6123072 -0.6188446 -0.492048 101 101 101
0.139293371354368 0.0524214812538315 0.0421916746026547 0.4479674 -0.7784582 -0.4396907 59 59 59
-0.0830301050233424 -0.128093815173063 -0.0991803580929671 -0.00346985 0.8323249 0.5542771 90 90 90
0.0768485354123816 -0.0150463276915436 0.0082613953007849 0.5178661 -0.453019 -0.7256642 18 18 18
-0.0273762867421228 -0.100324200652362 -0.061181293220094 0.7012856 -0.5214493 -0.4860957 36 36 36
-0.0327151590841228 -0.0816354828681065 -0.0753909013333766 0.06296065 -0.5574664 0.8278086 138 138 138
-0.0521967031351478 0.0421371618386133 0.00998575143138059 0.0447153 -0.5539873 0.8313234 158 158 158
0.0174113670260763 0.0600524564331146 0.0269347398036351 0.04921727 -0.5371498 0.8420498 145 145 145
-0.0255839157758269 -0.037148164563662 -0.0438763779392417 0.03983907 -0.5578813 0.828964 137 137 137
-0.0284725937465935 0.0598650274259431 0.0236210772087297 0.00399776 -0.5710838 0.820882 147 147 147
-0.0192660967946154 -0.0241460390031263 -0.0342154700716363 0.02695904 -0.5399153 0.8412875 126 126 126
-0.00700225109419383 0.0456900641075386 0.0154311000119861 0.0238038 -0.556039 0.8308153 131 131 131
0.11928017834302 0.0775211917134542 0.0539681493705644 -0.9994145 -0.01029707 0.03262826 112 112 112
0.00187237371620563 0.0097941530454142 -0.00871055956843192 0.02752833 -0.5537856 0.8322041 115 115 115
-0.0828400057577112 -0.109404170197742 -0.0769627083327341 -0.02259916 0.8321984 0.5540172 90 90 90
-0.0809774414171667 -0.0131932585641139 -0.00507638209575412 0.002717462 0.8366815 0.547683 95 95 95
-0.0577496566236757 -0.0144785865368204 -0.0294240966197358 0.01961832 -0.5437793 0.8389989 157 157 157
-0.0792215740305595 0.0629996042743561 0.0530919247648938 0.003405143 0.8443009 0.5358585 87 87 87
0.0662835359896268 0.0498444612126734 0.0232480175637723 0.04664143 -0.5546513 0.8307746 126 126 126
-0.0238310036702303 -0.0492144014817419 -0.0518879603695588 0.04365863 -0.5543686 0.8311254 132 132 132
0.0218437157565035 0.0141970750289391 -0.00477535565124809 0.01983565 -0.5457913 0.8376864 121 121 121
-0.0736436648526029 -0.0535870617532295 -0.0582695681425635 0.03190745 -0.560698 0.8274054 173 173 173
0.0858510996307564 -0.00445828522426872 0.00715309418748811 0.7411048 -0.3901102 -0.5464226 25 25 25
0.091261700196446 0.00228494800143086 -0.00488202543393723 0.654693 -0.7485725 -0.1049585 60 60 60
-0.0490730148315919 0.0810003229904217 0.0540893107708507 -0.9990597 -0.02347311 0.03645022 105 105 105
0.128529203387712 0.0377223143076011 0.0326713149487083 0.5502222 -0.7954109 -0.2541203 108 108 108
0.126476540279232 0.0294095971511346 0.0355847280380877 0.5833741 -0.6729286 -0.4547986 128 128 128
-0.0825837927334576 -0.102947965648271 -0.0816517790253223 -0.0079645 0.8368825 0.5473247 145 145 145
-0.0615031289486181 -0.0577564396318371 -0.0603751433514813 0.03756767 -0.560114 0.8275633 167 167 167
0.0706086389588489 0.00105065749544853 -0.0106476068411144 0.02825174 -0.5555021 0.8310351 97 97 97
-0.0596950857537939 0.0834011028683843 0.038356171613713 0.0598187 -0.5408297 0.8390024 114 114 114
0.0564841457769534 0.0058045022054396 -0.0080670220585024 0.03797223 -0.5410073 0.8401603 105 105 105
0.107258919900475 0.0296258308401689 0.011999620151596 0.06327753 -0.5526202 0.8310276 141 141 141
0.0385521011751897 0.0304535755467732 0.00793363490302545 0.03175885 -0.5465698 0.8368111 139 139 139
0.0877068404379751 0.0513051989468625 0.0260103030826759 0.02975293 -0.5474674 0.8362979 104 104 104
-0.022992912406572 0.0860477784523277 0.0458562563844789 -0.8972696 -0.3025134 0.3215476 81 81 81
0.0329377604737382 0.068517392571783 0.034541195579318 0.02519846 -0.5333464 0.8455216 120 120 120
0.0626477898349176 -0.026043983235905 -0.0154851896410155 0.6566761 -0.5622631 -0.5026298 53 53 53
0.107640260512167 0.0167363957631497 0.0085970846789839 0.456649 -0.8893946 -0.02118726 92 92 92
0.0458252473215564 0.0780218032508304 0.0418951214229733 0.02930595 -0.5537177 0.8321886 120 120 120
0.0288404695323097 0.0218730775718958 0.00125670512647397 0.02434799 -0.5685105 0.8223156 104 104 104
-0.0418578018184168 0.0220032132248151 -0.00346320074412843 0.02762591 -0.5536971 0.8322598 127 127 127
0.0909556860184613 0.0745902053989833 0.058227779467842 -0.9992185 -0.02054037 0.03376962 92 92 92
-0.0480690514599349 -0.11835177524163 -0.078263758251996 0.6787381 -0.5952151 -0.4301553 48 48 48
-0.0699352451327995 -0.0817048426330242 -0.0780656629954878 -0.0146543 -0.5470527 0.8369699 133 133 133
0.00229747017092263 -0.047918440938777 -0.0491810030443958 0.03424492 -0.5456408 0.8373192 98 98 98
0.0493699316964529 -0.0470663542805898 -0.0229926977502794 0.7937738 -0.4661373 -0.3906907 42 42 42
0.0115752162807148 0.00700613171008047 -0.0102759563893168 0.02286259 -0.547383 0.8365698 119 119 119
-0.0623082808933968 0.0571759855010141 0.019900055639539 0.06334138 -0.5425189 0.8376521 129 129 129
-0.0623307946067135 0.0728221603943051 0.030837493501252 0.04075824 -0.5182993 0.8542275 135 135 135
0.151814556338192 0.0717587046680079 0.0608758742083493 -0.9091449 -0.3780522 0.1747344 118 118 118
0.0966315732421617 0.0264246821293204 0.00894533686391547 0.06987777 -0.5493584 0.8326598 136 136 136
-0.0163537056063712 0.00519074931321772 -0.0135700822329575 0.0397555 -0.5562196 0.8300839 135 135 135
-0.0608404608854629 -0.00577654654686954 -0.0242059915664797 0.0219179 -0.5354826 0.8442618 170 170 170
-0.0660848823823335 0.051312942386369 0.0156859079157394 0.008302748 -0.5511268 0.8343802 125 125 125
0.006291262679468 -0.0496523953339554 -0.0499786903248071 0.02790329 -0.550986 0.8340479 100 100 100
-0.00484740730057709 -0.00921978543075808 -0.0229071450202857 0.0571724 -0.5493556 0.8336305 171 171 171
-0.0172490245247348 -0.0363161954389466 -0.0425324900252652 0.03087943 -0.5635881 0.8254786 142 142 142
-0.0781369545998989 0.0725482423555868 0.0320955571200124 -0.003368432 0.5441924 0.8389537 80 80 80
-0.0713110109273303 -0.102465056356716 -0.0923941385064965 0.02233276 -0.5524239 0.8332641 129 129 129
-0.00346761998110656 0.076191112368116 0.0592050772767863 -0.9994695 -0.02387621 0.02214997 87 87 87
0.0420557890018998 0.0112764570709869 -0.00517414032294733 0.02540125 -0.5518662 0.8335457 113 113 113
-0.00561622616573887 -0.00212305917846378 -0.0177360078721157 0.0223945 -0.5452667 0.8379634 195 195 195
-0.0807428186112249 -0.0163126489270446 -0.0155419702421931 0.006163902 0.8325392 0.5539319 105 105 105
-0.0273704716719685 0.0349586607826176 0.00659613230049821 0.009691898 -0.5422559 0.8401574 142 142 142
0.0542494773665263 0.0821511042693905 0.0450002596629548 -0.4571569 -0.5379792 0.7082273 136 136 136
-0.0385363942857029 -0.0749486583556258 -0.0708992084486306 0.009541433 -0.5491335 0.8356802 138 138 138
-0.00578670254249936 0.0733434627277603 0.0634404928209987 -0.9991693 -0.03081732 0.02666351 133 133 133
-0.0594410671164871 0.0843888055902813 0.0492368535033113 -0.9990799 -0.01568236 0.0399159 94 94 94
-0.0549324431945455 -0.0397693124149761 -0.0475321831467113 0.06130551 -0.5217514 0.8508919 152 152 152
0.147740799693326 0.0602328732263584 0.0601685258512989 0.3452503 -0.6107851 -0.7125615 28 28 28
0.070337805790138 0.0697853076977371 0.0373274213185146 0.04409905 -0.5652425 0.8237453 138 138 138
-0.0689049040463994 0.0336968082489975 0.0034433214277439 0.04329314 -0.5451739 0.8372043 148 148 148
0.119661011549756 0.0282868012657245 0.0245830248459443 0.5424474 -0.6898383 -0.4794515 79 79 79
-0.0195077059546516 -0.0471839016049473 -0.0502930751470764 0.03316082 -0.5660597 0.823697 144 144 144
0.0709794096815783 0.0135558064563901 -0.00170496021079181 0.03201962 -0.5532942 0.8323703 98 98 98
-0.00641804202538054 -0.0450903632833071 -0.0477385543887439 0.01236915 -0.5416245 0.8405295 121 121 121
0.130785849415521 0.0518119516303861 0.0291410427770975 0.1445902 -0.5993748 0.7873014 115 115 115
-0.0309307701375703 -0.0986234105484884 -0.0682790053267672 0.6469194 -0.7498022 0.1388955 38 38 38
-0.0143629953961386 0.0147546940384071 -0.00662011531351886 0.01125612 -0.5421475 0.840208 118 118 118
-0.023881414350102 -0.0556652409343505 -0.0566359729023234 0.03731683 -0.5437156 0.8384395 127 127 127
0.119674545837178 0.0585669220677667 0.0328513367108887 0.03686561 -0.5422655 0.839398 149 149 149
-0.0536609284998559 0.0548627158878334 0.0187122058695535 0.02828948 -0.5426148 0.8395051 150 150 150
-0.058791392675583 -0.0445665816752046 -0.0511123627558109 0.03286387 -0.5497701 0.8346693 149 149 149
-0.0571304065132754 -0.0920997114916231 -0.084209385781022 0.05397988 -0.5388172 0.8406915 118 118 118
-0.00713752254167854 0.0357582303737165 0.00861094151842451 0.03247087 -0.5436471 0.8386856 139 139 139
0.00987329437097939 0.0788555152804078 0.0397082897750871 0.04054035 -0.5208842 0.8526642 132 132 132
0.135936757761316 0.0552915111585881 0.0316946765590109 0.1847827 -0.7085543 0.6810332 148 148 148
0.0434856974030753 -0.0140669930636446 -0.0227569856941358 0.0413114 -0.5690418 0.8212702 134 134 134
-0.0235787363280742 -0.0752436377347687 -0.0701218790671744 0.0367996 -0.5921002 0.8050237 102 102 102
-0.0373971129884634 -0.0293282813181381 -0.0390343389505947 0.04473321 -0.5321994 0.8454364 120 120 120
0.0318220051593499 0.0215935264940239 0.00144495854289317 0.03333198 -0.5453129 0.8375696 124 124 124
-0.0453665563802508 0.054904968566549 0.0192284945758702 0.006011685 -0.554642 0.8320674 154 154 154
0.0339876787150786 -0.0646293173471959 -0.0332146875124201 0.6404086 -0.5603231 -0.525276 35 35 35
-0.0829241101861977 -0.119048070808849 -0.0876011987288937 0.006721682 0.8325493 0.5539102 72 72 72
-0.00577751101562418 0.0332247267623482 0.00676416991894635 0.03445766 -0.5436046 0.8386338 124 124 124
-0.0598550181992263 -0.0756807209334822 -0.0726726703491992 0.04545341 -0.5546669 0.83083 145 145 145
0.00559436762034471 0.0552038714397449 0.0230067183530959 0.02276256 -0.5446129 0.8383785 117 117 117
-0.00394186070090186 -0.033335361505302 -0.039346435733666 0.03629591 -0.5383576 0.8419345 106 106 106
-0.0132610152663069 0.0639996392104139 0.0276975703526832 0.0246439 -0.533762 0.8452755 160 160 160
-0.0572362949492855 -0.121983158002247 -0.0836800537613873 0.8587549 -0.4868565 -0.1597213 79 79 79
-0.0124696043089148 0.0608689787050798 0.0257843463455836 0.0331048 -0.5411308 0.8402866 147 147 147
0.0337381005379362 -0.0231181918294325 -0.0296877645415765 0.04212829 -0.5862684 0.8090207 135 135 135
0.0195867070944034 -0.0272419133603587 -0.0336835891874559 -0.006445265 -0.5559323 0.8312026 111 111 111
0.130962665627889 0.0442903304317648 0.0314929111886648 0.5204318 -0.7078949 -0.4775308 57 57 57
0.0471501114511073 -0.0446565410038715 -0.0291551568214524 0.589523 -0.6812264 -0.4340428 42 42 42
-0.0806386405563333 -0.140320437736474 -0.0929829737097299 0.8425521 0.3901435 -0.3713409 65 65 65
0.0773647284208123 -0.0146663806251346 0.000127825451089136 0.4431227 -0.4474763 -0.7767929 47 47 47
-0.0120152882874329 -0.0375393033710854 -0.0431540860518288 0.0122623 -0.5304566 0.8476234 204 204 204
-0.0175268816919614 -0.00390212556659875 -0.0195766348182301 0.02994499 -0.5491241 0.8352041 128 128 128
0.0693933472535004 -0.0249763335014521 -0.00841553717700655 0.5782957 -0.5140347 -0.6335158 45 45 45
-0.0173252193926787 0.0336212801919828 0.00623902481716343 0.04390455 -0.5530147 0.8320139 139 139 139
0.131959158453491 0.0372555579948728 0.0425026567315223 0.457907 -0.7647166 -0.4533537 43 43 43
-0.0488235828977821 -0.0989398176976122 -0.0885000302018341 0.04562182 -0.5728405 0.8183962 124 124 124
-0.0765733210449415 0.0674908676907606 0.0257025396493156 0.011037 -0.1647617 0.9862717 140 140 140
0.0811854338023719 0.0441389333236839 0.0199156834779713 0.01747958 -0.5537622 0.8324913 137 137 137
0.143630877427817 0.068899502780837 0.0657450713100011 -0.999046 -0.01827717 0.03966171 97 97 97
0.0967302239780632 0.0804359543113546 0.0472501511620949 -0.6397821 -0.4832127 0.597649 93 93 93
-0.0612204553733324 -0.0943833775145821 -0.0861063913641746 0.01588338 -0.5585767 0.8293008 134 134 134
-0.0188728072936377 -0.0389521406970759 -0.044401190851963 0.03669403 -0.5591464 0.8282565 136 136 136
0.0637604952326245 -0.00190939318818906 -0.013000214037344 0.03397944 -0.5432053 0.8389121 110 110 110
-0.0549766180316507 0.0751181744356415 0.0625998474667619 -0.9994386 -0.01568169 0.02960557 92 92 92
0.0473458721164004 0.0699688941045169 0.0668741255216009 -0.9965435 -0.0481957 0.06766201 130 130 130
0.0307711897973837 0.0796802546021069 0.0414235837795432 0.03173471 -0.561144 0.8271096 155 155 155
-0.0092948444596419 0.0848657859781308 0.0425337336300627 -0.1865638 -0.549257 0.8145617 97 97 97
0.104703750379015 0.0327132394284246 0.0137396225545818 0.03070618 -0.5555393 0.8309231 139 139 139
0.111329429254352 0.0716127094515646 0.041763647588732 0.03051815 -0.5468321 0.8366859 120 120 120
-0.0797454034901381 0.0144901191013014 -0.00395606731254156 -0.003495914 0.8368703 0.54739 114 114 114
0.0969167076322526 0.0375430213112276 0.0170003272778099 0.04011682 -0.5282452 0.8481437 129 129 129
0.0620858727938649 -0.0120940805505481 -0.0201142065624335 0.01840464 -0.5531817 0.8328573 132 132 132
-0.0599252418329388 0.0662637576608767 0.0262630596336684 0.03251648 -0.5616488 0.8267365 155 155 155
0.0657633091307357 0.0170332627875149 0.000102186725316644 0.04494296 -0.5690586 0.8210679 136 136 136
-0.00498847561586047 -0.00403450223431445 -0.0194220982574001 0.03071211 -0.5368191 0.8431382 187 187 187
0.0426267117692145 0.0721792473855964 0.0375777730416142 0.02809652 -0.5306081 0.8471515 135 135 135
-0.017064456742947 -0.0193725848896542 -0.0307891699544656 0.01036756 -0.5603715 0.8281766 116 116 116
0.0687855738618062 0.0598037541056569 0.0305728878718111 0.00727322 -0.5577617 0.8299692 128 128 128
-0.0720954419560313 0.0208161015294881 -0.00641467997476436 0.02859615 -0.5501986 0.8345441 134 134 134
-0.0116146953705689 -0.054172369236722 -0.0544790538876422 0.04027124 -0.5377531 0.84214 133 133 133
-0.038017341233147 0.0189058049846369 -0.00553332374454102 0.03364424 -0.551276 0.8336443 153 153 153
-0.0716614307093399 0.000917594651856701 -0.0203788360555647 0.04140647 -0.5693206 0.8210722 122 122 122
0.0114268987841721 0.0613181348840313 0.0273951523582883 0.02787181 -0.5329271 0.845702 152 152 152
-0.0282336547318365 -0.0211268464495404 -0.0328367963846411 0.04388843 -0.5525756 0.8323064 119 119 119
0.140222057496578 0.0693133557975445 0.0649572164302782 -0.9989858 -0.02365947 0.03831071 70 70 70
0.0944167010103358 0.0166524174543108 0.00160531744662684 0.0564858 -0.5529572 0.8312928 166 166 166
0.0312089556502504 0.0380294050158008 0.012826876860793 0.02524328 -0.5690323 0.8219277 114 114 114
-0.0385170925998666 0.0562165343169303 0.0204427592727627 0.02919015 -0.5387068 0.8419875 155 155 155
0.0306748474493519 0.021082746697431 0.000773712411507976 0.02868059 -0.5533886 0.8324293 107 107 107
-0.0811233138581287 -0.0428308919249367 -0.0372045942003192 -0.002677963 0.8300836 0.5576325 101 101 101
0.0776180941960614 0.0106639904807948 -0.00330963376086818 0.01585408 -0.5596142 0.8286016 93 93 93
-0.0395586117220055 0.0480982427959096 0.015018399054519 0.01662513 -0.5366033 0.8436708 145 145 145
0.131802197669846 0.0321461516945631 0.044579372642456 0.4679774 -0.7280389 -0.5009555 92 92 92
-0.0733358821055594 0.00332953331378216 -0.0188045226274579 0.03124522 -0.5500066 0.8345757 142 142 142
-0.0791678018522064 0.0408885871233986 0.0127889424731838 0.01588138 0.78427 0.6202163 131 131 131
0.109958059571453 0.0701702410586222 0.0646972326344815 -0.9999314 -0.009168149 -0.007293315 90 90 90
-0.0812636094298478 -0.0684117184393644 -0.0642217917133501 0.02778171 0.7730925 0.6336846 95 95 95
-0.0280624722928864 0.0846452082637985 0.0481114254961535 -0.9987489 -0.03959407 0.03054423 100 100 100
0.0525335993692271 -0.0421618168810858 -0.0222075842787953 0.3748938 -0.9060488 -0.1962912 59 59 59
-0.0792583805919116 0.0533161648792422 0.0351307907347872 -0.007137607 0.8355515 0.5493658 103 103 103
0.136043011195832 0.0502275790322608 0.0346012412732928 0.4953006 -0.7560286 -0.4278997 67 67 67
-0.00720655120223235 0.0669950137858286 0.0306660689600463 0.01705742 -0.5579194 0.8297198 125 125 125
0.0995725946778672 0.0577461994297503 0.0310983991804228 0.03468779 -0.541641 0.8398939 134 134 134
0.0232660817705068 0.0783678608955443 0.0554998304992154 -0.9995193 -0.02062175 0.02315125 96 96 96
-0.0622736560817851 -0.0282426445313979 -0.0400668918340335 0.03844526 -0.5551367 0.8308702 141 141 141
-0.00883046153716682 0.0747326032851119 0.0619069205753974 -0.9992811 -0.02741312 0.02618813 99 99 99
0.0636626206857476 0.056529880579872 0.0277366958672687 0.03585273 -0.5472201 0.8362205 117 117 117
0.0846222685540172 0.0708391254255658 0.0391243343225942 0.05308713 -0.5534805 0.8311685 133 133 133
0.132242503421302 0.058266779647095 0.0334593066925676 0.05160767 -0.5533166 0.8313708 152 152 152
-0.000384676367656045 0.0172615760372457 -0.00396859730475152 0.02014104 -0.5489849 0.8355896 203 203 203
-0.00395964757083833 -0.0298874764379999 -0.0371086066472956 0.05802608 -0.5345094 0.8431683 128 128 128
0.0636021442681751 0.0618455336767272 0.0314554228560781 0.03281076 -0.559685 0.8280556 138 138 138
0.0973155426839574 0.00400134030899024 0.0022884909965537 0.7032208 -0.518584 -0.4863652 69 69 69
0.121989190473755 0.0296431865739275 0.0284858046834755 0.5882744 -0.7530312 -0.2947494 52 52 52
-0.023355088297901 0.0867031197988981 0.0435126139822442 -0.59745 -0.4949217 0.6309565 150 150 150
0.01718159849659 0.058285362414084 0.0257466809254494 0.05607831 -0.5482825 0.8344108 156 156 156
0.0359747888600968 -0.00516415512223611 -0.0171173147576989 0.03585671 -0.5279121 0.8485417 198 198 198
-0.0613935517217485 -0.0357399311668039 -0.0451959513008611 0.05560251 -0.5706009 0.819343 148 148 148
0.0585545140286068 0.076212351498931 0.0578768474586945 -0.9989332 0.0009101669 0.04616951 105 105 105
0.0543715867184278 0.0810002891336703 0.0509433229112849 -0.9992639 -0.02571715 0.02846596 100 100 100
0.0148396438323957 0.0138749954540665 -0.00553881167794762 0.03992165 -0.5518548 0.8329841 211 211 211
0.00529968354881971 -0.0252667677938612 -0.0334330290817579 0.04336481 -0.5466133 0.8362615 211 211 211
0.127872176644185 0.0532253379247083 0.0299875646569331 0.05314554 -0.5560738 0.8294321 119 119 119
0.0377345250388528 0.00815027928186662 -0.00785802804224833 0.007351321 -0.5399827 0.841644 147 147 147
-0.042019083711748 0.0461944646750607 0.0134233127623929 0.01278388 -0.5362964 0.8439329 147 147 147
0.147550623819607 0.0672567935437569 0.0411145155545367 0.4036675 -0.8351578 0.3735825 132 132 132
-0.0266251818326935 -0.0328048895893325 -0.0409867247885866 0.04309568 -0.5462078 0.8365403 147 147 147
0.0691341443569962 0.0430481963742437 0.018709563434252 0.01691509 -0.5411 0.8407881 147 147 147
-0.0796435725683708 0.0341026994819171 0.0210135881396079 -0.001021159 0.8279036 0.5608696 99 99 99
-0.0789324987392575 0.0535185844567798 0.0240105565351787 -0.003085185 0.8361704 0.5484611 119 119 119
-0.0325228816412375 -0.047840461136277 -0.0515914005714603 0.02614846 -0.5602211 0.8279303 123 123 123
0.00879935670531662 -0.0400800504380363 -0.0434986548053801 0.02997954 -0.5529437 0.8326791 169 169 169
-0.0770183771354231 0.0767732355633413 0.0324123942649599 -0.01389023 0.08570272 0.9962239 151 151 151
0.105012661025184 0.00831640236113862 0.0106938118222066 0.6995451 -0.6473341 -0.3026471 46 46 46
0.0313077230638652 -0.0256011312476165 -0.0317978473321198 0.03978333 -0.5800226 0.8136283 138 138 138
-0.0828894202817523 -0.108688604605998 -0.0728352064172753 0.01497919 0.8284003 0.5599362 105 105 105
-0.0130297768731658 -0.0847298401894416 -0.0491888385917458 0.7705249 -0.5187492 -0.3703927 49 49 49
0.136205685243784 0.0421618454759261 0.0483764914396065 0.4147317 -0.7113466 -0.567436 71 71 71
-0.0162711041701313 -0.0576608391770816 -0.0569621002180476 0.07434531 -0.5765743 0.8136553 134 134 134
0.0329321108020211 0.0134973169209851 -0.00433402589444698 0.02258503 -0.5773329 0.8161965 131 131 131
0.109204078821576 0.0807888980175084 0.049152206107045 -0.7314994 -0.4114054 0.5437409 138 138 138
0.0576982222615916 -0.0324018284708754 -0.01872077508199 0.5624854 -0.6852475 -0.462651 32 32 32
0.117986742730254 0.0298997373544181 0.0170072532559836 0.7225653 -0.685805 -0.08701137 68 68 68
-0.0300235578003956 -0.0607429019920387 -0.0603969475918993 0.04850871 -0.5440436 0.8376536 113 113 113
-0.0797933821849712 0.0203869674883226 0.00829270047561631 0.005107135 0.834631 0.5507858 126 126 126
-0.0814345793033082 -0.0340322562944924 -0.0205521463198466 0.01572363 0.8274128 0.5613741 86 86 86
-0.0620176374511381 0.0436038935498329 0.0103572334737458 0.03467524 -0.5196273 0.8536891 143 143 143
0.113463135568376 0.0321618530847747 0.0141958664840882 0.1282459 -0.6671029 0.7338438 125 125 125
0.0717936287767631 0.0815123651813419 0.0497417881525825 -0.9535623 -0.1617616 0.254071 101 101 101
-0.0708447747007184 0.0566954449212789 0.0188947469849106 0.02350568 -0.566274 0.8238818 133 133 133
0.000419682474968486 -0.0332348455524378 -0.0390715229837156 0.0469314 -0.5628206 0.8252457 135 135 135
0.00910993363533175 0.0333218100318364 0.00811912496640549 0.02557833 -0.5347328 0.844634 132 132 132
0.0626281053435296 0.0756436738214104 0.0584179310481238 -0.9993293 -0.01063102 0.03504086 80 80 80
0.0651464619698405 -0.000455047710416379 -0.0116680206382814 0.03576298 -0.5506272 0.8339849 88 88 88
0.139785783004102 0.054098513832801 0.0428533254427885 0.4950274 -0.7334177 -0.4658823 56 56 56
0.0494427065329877 0.0242941508230488 0.00426982809875459 0.02523869 -0.5424086 0.8397356 129 129 129
0.0425914329542536 -0.0478740608289523 -0.0333234357595287 0.6719142 -0.5961381 -0.4394891 51 51 51
0.0223069731932197 -0.0333571125139824 -0.0381258597209568 0.05072298 -0.5575149 0.8286159 151 151 151
0.0920281958070897 0.0270258923264783 0.00902675826954474 0.05127381 -0.5446418 0.8370999 129 129 129
-0.0472151158971608 -0.0174452373612293 -0.031398726745597 0.06559558 -0.5559219 0.8286423 117 117 117
0.00833067914142038 0.0842237032930122 0.0431014979241924 -0.2298404 -0.4689123 0.8528157 138 138 138
0.0364967710326023 -0.0367385149449519 -0.0392295954761299 0.05616514 -0.5590493 0.8272299 132 132 132
0.0980675512479054 0.0699110530731177 0.0396396599382728 0.03674247 -0.5308233 0.8466856 147 147 147
-0.00724000351994869 0.0082839488082922 -0.010831502386052 0.05998779 -0.5535137 0.8306769 105 105 105
0.0739905966169392 0.00237050013272921 -0.00923451207181181 0.0349056 -0.5468819 0.8364818 92 92 92
-0.0245225152743047 0.015446498061455 -0.00698798773632836 0.03850342 -0.5603938 0.8273308 129 129 129
0.120577971612059 0.0769495370034343 0.0540102265905953 -0.9979482 -0.03611052 0.05287147 118 118 118
0.0799705335608807 -0.0108109920116044 0.00449616636866779 0.4810382 -0.4747373 -0.7370391 46 46 46
0.00789550758729707 -0.00229613539380447 -0.0170769014128825 0.03972501 -0.5423654 0.839203 135 135 135
-0.0143572654805046 0.0864857939913619 0.0435643474599388 -0.4859197 -0.4296032 0.7611328 139 139 139
0.013461581425855 -0.0680700607424924 -0.0464873144713916 0.8597853 -0.5105786 -0.008866078 27 27 27
-0.0352687897082444 0.0270039840106711 0.000254122538012158 0.04692921 -0.5567163 0.829376 144 144 144
0.00935893816606681 -0.0502465199778788 -0.0503233943528292 0.04703118 -0.5380347 0.8416096 87 87 87
0.0726528473494366 0.0230307233143021 0.00526426772449617 0.02069676 -0.5489941 0.8355699 161 161 161
0.0466962260082799 -0.0457173192965208 -0.0299338314332687 0.5674873 -0.619599 -0.5422686 40 40 40
-0.08188104578596 -0.0622466999133093 -0.0404084533411432 -0.005608464 0.8358465 0.5489346 88 88 88
0.0939893388790032 0.0137036672088555 5.31540039319656E-05 0.04872206 -0.5413527 0.8393828 136 136 136
-0.0257021257511227 -0.00334350588536836 -0.0203020942363696 0.04501681 -0.5437542 0.8380363 150 150 150
0.0270204363481055 0.0517602415740566 0.0218252932673269 0.05976811 -0.5603161 0.8261197 151 151 151
0.0280414259578676 -0.0122776497602934 -0.0228917272746869 0.02406352 -0.5443749 0.8384968 197 197 197
0.00147475941870789 0.0390341336901971 0.0111689034991975 0.02658783 -0.5662438 0.8238088 150 150 150
0.00889828036278884 -0.0139322053416977 -0.0250352699921841 0.06347851 -0.5333264 0.8435244 118 118 118
0.0186397418634412 0.0367881319103354 0.010840445601762 0.02405673 -0.5337102 0.8453252 181 181 181
-0.000966529879898648 -0.0495166420406612 -0.0504038439033678 0.04158679 -0.5601684 0.8273342 125 125 125
-0.0703553525637046 -0.0838542524737724 -0.0792607205091761 0.02814916 -0.5415478 0.8401985 134 134 134
0.14403997347081 0.072882686658847 0.059181719232332 -0.9982526 -0.03775125 0.04545846 91 91 91
-0.0831543983142446 -0.116390194548788 -0.0813779975782194 0.002951805 0.8342776 0.5513368 107 107 107
0.0193863514792616 0.0320003459373934 0.00763555648491421 0.044759 -0.5437261 0.8380683 197 197 197
-0.0216417001255267 0.0787035420271802 0.0562198329631476 -0.9988169 -0.02425085 0.04215048 80 80 80
0.0830665484771353 0.0497518873704548 0.0247093851261111 0.0483321 -0.5602463 0.8269148 103 103 103
-0.0131782501323312 -0.0329643237466186 -0.0397527202401375 0.02822877 -0.5702741 0.8209693 218 218 218
-0.0787345765601817 0.0677061784551973 0.0352114963720777 -7.666992E-05 0.8344205 0.5511283 122 122 122
0.0467199537244194 0.0756262882480798 0.0590808627077199 -0.9997998 -0.003454389 0.01970964 97 97 97
0.0737671733111092 -0.0181923275332025 -0.0104909587406119 0.6338944 -0.5478656 -0.5459132 46 46 46
0.135550436056174 0.0747352371282963 0.0571856514936421 -0.9991911 -0.03161332 0.02485329 99 99 99
-0.0329169209678652 -0.0538825263981675 -0.0558586171195212 0.06387322 -0.555997 0.8287265 117 117 117
-0.00986830653607029 0.0272050576832348 0.00241530448640431 0.03652746 -0.5474266 0.8360561 116 116 116
0.0405503344940725 -0.0228695389489855 -0.0291392180564469 0.05246925 -0.5212899 0.8517651 113 113 113
-0.0812464465626626 -0.0488792133664513 -0.0504405287616989 0.01795747 0.7331223 0.6798596 100 100 100
-0.00816033053936271 -0.0352588521724264 -0.0408972786913159 -0.008723161 -0.5400559 0.841584 202 202 202
-0.0799719132706085 -0.090278866933869 -0.0838742465937449 0.006750274 -0.002413389 0.9999743 147 147 147
0.0474979130241655 -0.0485781882604734 -0.0202262291337976 0.7739095 -0.4966434 -0.3929496 23 23 23
0.0581269754685851 0.029502120704743 0.00822516821985486 0.04945236 -0.5424162 0.8386532 207 207 207
0.0494337393554729 0.0344959322163687 0.0113466960632042 0.05284195 -0.5443092 0.8372188 201 201 201
-0.00642790073906463 -0.031680881528853 -0.0383600720776501 0.04020628 -0.5338694 0.8446105 93 93 93
0.121333949626281 0.0593278144715044 0.0334386852216674 0.03224719 -0.5363888 0.8433547 141 141 141
-0.0311097696007372 0.0589830714894317 0.0228942543214629 0.02066774 -0.5712822 0.8204934 160 160 160
0.118012363114013 0.0278719170671902 0.0201250937695233 0.5896149 -0.6682148 -0.4536996 64 64 64
-0.0815604652954582 -0.103184103873303 -0.0917370583344033 0.1690014 0.3801891 0.9093375 92 92 92
-0.0756863594804811 -0.0472997066055252 -0.0543264043286522 0.05304956 -0.4566523 0.8880622 129 129 129
0.0961188091437188 0.0696778559270497 0.0655086969721451 -0.998837 -0.02285981 0.04245084 108 108 108
0.0518347781521737 -0.0440262461890537 -0.0233111519466684 0.5533894 -0.7995883 -0.2332785 75 75 75
-0.0687369457067475 -0.0589260719725524 -0.0618437828478033 0.03378079 -0.5550735 0.8311151 181 181 181
0.0616225237936829 0.070278065322245 0.0374056949420021 0.04376719 -0.5321448 0.8455213 123 123 123
-0.0813005372018325 -0.0673041527620732 -0.0647585072920651 0.05318403 0.6909868 0.7209083 133 133 133
0.017886912407143 0.0495993885723307 0.0196488627824313 0.02989708 -0.5468047 0.8367262 173 173 173
-0.0371321484740581 0.0169738828369324 -0.00673112013646343 0.04055275 -0.5462869 0.8366159 109 109 109
0.130235391338721 0.0785064011728798 0.0523793062426943 -0.980377 -0.113096 0.1614625 113 113 113
-0.0562171243038709 -0.0366745540123914 -0.0454266263355149 0.05372389 -0.5429628 0.8380365 142 142 142
0.126906763880928 0.0718824421485726 0.0608904841612786 -0.9988869 -0.01941438 0.04298781 96 96 96
-0.0577754073309462 0.0173924230983677 -0.00777369531323374 0.03358722 -0.541279 0.8401719 152 152 152
0.00160145171527359 0.0172283851043826 -0.00374268088290075 0.02660121 -0.5480216 0.8360411 203 203 203
-0.0726924530878068 -0.0248111201815149 -0.0382961219402159 0.03050011 -0.5520868 0.8332286 157 157 157
0.0210647899302066 0.0727766722385295 0.0360306254136131 0.039942 -0.5617151 0.826366 129 129 129
-0.0157226946261821 0.0391553992365152 0.0100324984771234 0.01824065 -0.547052 0.8368999 145 145 145
-0.0647932455884472 -0.0318628445868048 -0.042716334553031 0.02692659 -0.546805 0.8368269 141 141 141
-0.0213001679739744 -0.0638899396372603 -0.0620185199269132 0.03517506 -0.5749739 0.8174152 125 125 125
0.0289165050756144 -0.0124121689001184 -0.0227424128614718 0.02985804 -0.5500003 0.8346306 201 201 201
-0.0390674331780971 0.0573292749066872 0.0213351846634027 0.03689132 -0.5386543 0.8417189 159 159 159
0.0418673964132714 0.0717432698653484 0.0370870008530197 0.0206785 -0.5387793 0.8421932 147 147 147
0.14013122635425 0.0790140717010748 0.04916624380042 -0.6316622 -0.6204339 0.4648276 76 76 76
0.0477142512215929 0.0517670111065649 0.0236844792459416 0.02694657 -0.565327 0.8244266 124 124 124
0.0104265513454687 0.0362803500313555 0.0101420279927065 0.04477617 -0.5315419 0.8458477 133 133 133
-0.0779585579820097 0.0799410864039802 0.0352427381374593 0.002636675 0.3215249 0.9468974 104 104 104
-0.0139174506005948 -0.0197649457080331 -0.031006930314096 0.001823713 -0.5683812 0.8227633 122 122 122
0.0707464961825375 -0.0220281283221984 -0.00193018325400923 0.400364 -0.5088584 -0.7620838 53 53 53
-0.0193221661190637 -0.0819844687565103 -0.06172533771512 0.711189 -0.5866576 -0.3873539 36 36 36
0.112170757694985 0.0715744702768157 0.0625386881874125 -0.9992707 -0.03297241 0.01925618 113 113 113
0.0398277053169123 -0.0532301419742838 -0.028529853661465 0.4216627 -0.7369347 -0.5283256 35 35 35
0.0563617393984495 -0.0264905248437763 -0.0303252494245717 0.05405046 -0.5868054 0.807922 117 117 117
0.122998235728346 0.0254898122413016 0.0349826517723816 0.6096851 -0.6415597 -0.4654947 75 75 75
0.0589359810971479 0.00947703000518962 -0.00531502595904942 0.03485585 -0.5353324 0.843922 114 114 114
0.0292738130903518 -0.0607971242825733 -0.0438676173735437 0.6368862 -0.7560719 0.1507686 65 65 65
-0.0569712622556491 -0.0841792997519131 -0.0787610256220501 0.02663661 -0.5568628 0.8301772 140 140 140
0.144990677164224 0.0722878747560147 0.0612773153259972 -0.9991343 -0.02212925 0.03522763 97 97 97
0.135515638528299 0.0716689949011333 0.0431889694231338 0.0223482 -0.5478466 0.8362803 117 117 117
0.00980699810949304 0.0121600940790116 -0.00696012599153861 0.0452153 -0.5465356 0.8362144 212 212 212
-0.0287468959131187 0.0233420012249639 -0.00171765907557092 0.007059734 -0.5369602 0.843578 118 118 118
-0.0808096767655333 -0.00489800152367903 -0.00293082394375122 -0.00621977 0.8374855 0.5464242 108 108 108
0.0183316496664503 -0.0724705463203517 -0.0411364515694187 0.9044999 -0.4175716 -0.08668239 24 24 24
0.0660785589635089 0.0142663501262916 -0.00148626431581289 0.04203556 -0.5643885 0.8244384 122 122 122
-0.00225471094958918 -0.0464402171392302 -0.0486058816093785 0.03991445 -0.5685778 0.8216606 105 105 105
-0.0233048742603907 -0.000382668676245146 -0.0181132030862337 0.02637202 -0.5676242 0.8228653 164 164 164
0.074675104081722 0.0465120366532057 0.0219112335692162 0.01938626 -0.5658074 0.8243095 135 135 135
0.0523278220059136 0.0489266511135755 0.0218669024084395 0.03091725 -0.5481011 0.8358405 124 124 124
-0.0797683628885624 -0.075817410688013 -0.0740197828398159 0.06250112 0.01357806 0.9979525 140 140 140
0.13815311994406 0.0796624951389568 0.0499592585720452 -0.7923031 -0.4659022 0.3939427 146 146 146
-0.0134103806309112 -0.0793747438967531 -0.0537274167467252 0.7730381 -0.5280823 -0.3514843 33 33 33
-0.0625249190373505 0.0648254007856832 0.0249687162558307 0.0336283 -0.5593088 0.828277 152 152 152
0.0597050530062426 -0.0123036011227609 -0.0204636693133482 0.01700525 -0.5485566 0.8359405 121 121 121
0.0796893391973947 0.0113253423979314 -0.00277334979070731 0.01707188 -0.5574952 0.8300046 88 88 88
-0.0741657411995811 -0.0836825258992255 -0.0796245749641986 0.03419353 -0.5551566 0.8310426 105 105 105
-0.0199096971185146 0.0094076884211618 -0.0109067194805044 0.02445775 -0.5497472 0.8349729 138 138 138
0.0116521760589499 -0.0771407167257556 -0.0428110542280667 0.8849902 -0.4589521 -0.07845543 52 52 52
0.121702028454146 0.0389507505123377 0.0197263467794908 0.3323775 -0.758147 0.5610155 130 130 130
0.047170799282485 0.0444376976967571 0.0180946918221155 0.03455308 -0.5535677 0.8320871 183 183 183
-0.02103443478671 -0.00773354960450834 -0.0229355141725679 0.02526723 -0.5500637 0.8347403 216 216 216
-0.0539198914672236 -0.123495590660025 -0.080597444141266 0.8325335 -0.5235786 -0.1809792 69 69 69
