ply
format ascii 1.0
comment File exported by Rhinoceros Version 7.0
element vertex 476
property float x
property float y
property float z
property float nx
property float ny
property float nz
property uchar red
property uchar green
property uchar blue
end_header
0.00640483662699398 -0.030088861275904 -0.00780687190268181 0.491134 -0.8605514 -0.1350512 53 53 53
0.0419027404508465 -0.0191328123104499 0.0186530902269111 0.02473993 -0.5017317 0.8646694 170 170 170
-0.0156088276186115 -0.0243347480785774 0.017577822435163 0.0145042 -0.5064299 0.8621591 206 206 206
-0.0194738312044269 0.0197506353366448 0.0326895072343574 -0.5461399 0.6418883 0.5382478 39 39 39
-0.0469582481660968 -0.020549614716761 -0.0281422183630242 -0.9249051 -0.3801163 0.007885428 81 81 81
-0.0490724249162799 0.0257881090152337 -0.00405800796721123 -0.4535189 0.8722397 0.1830806 84 84 84
0.00746556088541683 -0.0237971141827034 0.0173889353158698 0.01806952 -0.5159847 0.8564072 124 124 124
-0.0176866455354816 -0.0357846811306404 -0.0367079124567284 0.4734738 -0.8666078 -0.1575225 43 43 43
0.0139170484266156 0.0326100990283562 0.0490798308732734 -0.3424412 0.5321308 0.7743196 95 95 95
-0.0223944587984211 -0.0406233861935066 -0.0218432889101281 0.3612864 -0.9250588 -0.117211 59 59 59
0.0112144546232098 0.00261918754459156 0.0323988749864326 0.01949177 -0.5060534 0.8622819 244 244 244
0.0374128417692059 -0.0260420635235237 0.013509298789762 0.2731529 -0.9514373 0.141967 50 50 50
-0.00725738242055241 -0.0410048559200691 0.00559746764924385 0.4184827 -0.9043451 0.08385822 61 61 61
0.0480055408201092 0.0160017415988518 0.0188274338128791 0.8758036 0.4286802 0.2218135 65 65 65
0.0219379262647503 -0.0235355690014289 -0.00724018074247978 0.2651809 -0.9288961 -0.2585174 85 85 85
0.047874768229472 -0.017301996041529 0.0194813265683875 0.01542238 -0.5027857 0.8642735 159 159 159
-0.034643690136922 0.0257226631152703 0.00954249047067024 -0.401463 0.8715424 0.2814982 73 73 73
-0.0452908678331501 0.021145622442968 0.00989123724725105 -0.336715 0.8119286 0.4768594 85 85 85
0.0378342466077679 0.0299655601489617 0.0321373298051582 0.8752406 0.4284054 0.22455 68 68 68
-0.0511429710664875 -0.0108069971096443 -0.0187809810755029 -0.9091321 -0.4109952 0.06754076 58 58 58
-0.0465441150941974 -0.00357075481533276 0.0302919700029121 -0.0750498 -0.3383202 0.9380336 89 89 89
0.027125199290263 -0.0251921012890266 0.00128918432023384 0.2199253 -0.9112687 -0.3481699 66 66 66
-0.00412968829060856 -0.0246690109264778 0.0167786433580146 0.04113482 -0.5123687 0.8577799 222 222 222
-0.0123684807100422 0.024589340399511 0.0331036105039344 -0.3971657 0.785992 0.473789 137 137 137
0.0465088681897992 0.0109016105640007 0.0349998130681739 0.7202565 -0.06667809 0.6904959 77 77 77
-0.0529956026353962 0.00244490356326832 0.0233609332921729 -0.7608443 0.5265984 0.3792229 178 178 178
-0.016700427083028 0.0272756025302483 0.0264286949517951 -0.30384 0.7928656 0.5282474 73 73 73
-0.0170908375063068 -0.0372813537609504 -0.0303145394441857 0.2576521 -0.9282361 -0.2683155 61 61 61
0.0478165940961712 -0.017912347604029 0.00188496254708626 0.1458329 -0.8622873 -0.4849674 96 96 96
0.01969297692393 0.0389743253696038 0.0394025697591529 -0.2560616 0.8706905 0.4199173 46 46 46
0.00107940003489193 -0.0319704607021736 -0.0161219284651055 0.4365142 -0.882163 -0.1767587 56 56 56
-0.00770417883778873 -0.0368396833431648 -0.00797251321051262 0.3233905 -0.9349087 -0.1461648 64 64 64
-0.024835626629842 0.028919379423864 0.0196120991590247 -0.508196 0.7522081 0.419428 57 57 57
-0.000773231534016761 0.00209609718204273 0.0321228160741553 0.01889997 -0.5059898 0.8623323 232 232 232
-0.0430713100710041 -0.0126376941692756 0.0251046075704322 0.0229681 -0.5002473 0.8655779 113 113 113
-0.0486364765443927 -0.0167352750790046 0.0155580892446265 -0.9048218 -0.4243631 0.03483628 93 93 93
0.0177095727643841 0.0424181625354363 0.0248430623891578 -0.2846857 0.9092485 0.3036794 87 87 87
0.00580914780710873 -0.00383229999660717 0.029071415889524 0.0343805 -0.5036483 0.8632244 144 144 144
0.0352830486020916 0.00971845836520924 0.036058480966352 0.01878704 -0.5080293 0.8611349 197 197 197
-0.0479389829912311 -0.017301996041529 -0.0158712611315026 -0.9257332 -0.3743886 0.05339602 100 100 100
-0.0132984323778278 -0.024727065850489 0.0171128466012702 0.02274618 -0.496486 0.8677467 128 128 128
-0.0548409624376422 0.015594880293615 -0.00195110298369072 -0.8015791 0.4954298 0.3346942 72 72 72
0.015198667498576 -0.0161599710476326 0.0212511374833808 0.02149308 -0.50512 0.8627815 115 115 115
0.00967129036997494 0.0327233478534295 0.0457233145120368 -0.4463165 0.7535034 0.4827361 110 110 110
0.0109092788419598 -0.032035906602137 0.0120271994950996 0.1912192 -0.8852145 0.4240643 132 132 132
0.0293702678403729 0.00135509223819508 0.0311419918420539 0.01382792 -0.5168356 0.8559729 242 242 242
0.0549714164457196 -0.0124110773098396 0.0223932220819221 0.05665911 -0.4927478 0.8683257 117 117 117
0.0323562221250409 -0.0181011751186775 -0.0157404885408654 0.3756874 -0.8755909 -0.3036439 67 67 67
0.000948627444254724 -0.0114172294628547 0.0244943454148994 0.01994758 -0.5037846 0.863599 105 105 105
0.0272559718809002 0.0172005102145745 0.0405359222772346 0.01738427 -0.510697 0.859585 221 221 221
-0.0186456842699176 -0.0244292810451912 0.0174761369111762 0.02454388 -0.5087041 0.8605915 237 237 237
-0.00116554930592838 0.0359447404849602 0.0262379600885139 -0.4486846 0.7520184 0.4828565 95 95 95
0.0450630979261273 -0.0145176246654914 -0.00598147965643547 0.374521 -0.8680393 -0.3259476 73 73 73
0.00843914315317806 -0.00255366115688549 0.0295654489877448 0.02480421 -0.507717 0.8611668 117 117 117
0.0487639503202313 -0.0200831487667488 0.00611185573365547 0.1265835 -0.8989893 -0.4192789 74 74 74
0.010386188479411 0.0187915966022087 0.0420180513742194 0.02186189 -0.497188 0.8673674 179 179 179
0.0186249808988446 0.0421129867541863 0.0265867068650947 -0.3076657 0.9161004 0.2571029 104 104 104
-0.0397874517717487 -0.037092526246302 -0.0337872997638955 -0.9336968 -0.3505444 0.0729994 79 79 79
-0.0393079920091755 -0.0400130346310066 0.00739198468949653 -0.7753233 -0.5389225 0.3292968 76 76 76
0.00600524708841976 0.0345933839786126 0.0358498647096381 -0.4821776 0.7922792 0.3738962 52 52 52
0.0589905576429242 -0.0003885820400642 0.00762447260644294 0.8720241 0.4252377 0.2423777 46 46 46
-0.0386104984560138 0.0164813205707146 0.0231429889085517 -0.6256967 0.6352979 0.452659 74 74 74
0.0529437856397503 -0.00647886543392406 -0.0163320944425835 0.13215 -0.8756564 -0.4645022 54 54 54
-0.0165533228197223 0.0311860248553826 0.021079654920362 -0.2654562 0.7151055 0.6466507 111 111 111
-0.0136326952257282 -0.0363078907024788 -0.0285563514349236 0.4196439 -0.888734 -0.1845289 45 45 45
0.00807579323862728 -0.0255407884609626 0.0161247804048286 0.01555602 -0.5108268 0.8595428 121 121 121
0.0541954831800335 0.00471154899478687 0.0164299263837562 0.8699005 0.437268 0.2281883 69 69 69
0.0128327207288617 0.0387728616702629 0.0336539401891456 -0.3809776 0.8695501 0.3142271 71 71 71
-0.041836301831258 -0.0270229175579475 0.0136836721780524 -0.6394144 -0.5854098 0.4984421 215 215 215
-0.0110825701036579 -0.0369181230556892 0.00978225015427925 0.01923123 -0.4902401 0.8713752 107 107 107
-0.0284972591676838 -0.0418874814999031 -0.0316513226148858 0.4738628 -0.8743872 -0.1044079 125 125 125
-0.0569405956545002 0.00362185687900318 0.0141849472406135 -0.9433491 0.2740145 0.187106 36 36 36
-0.050227562932027 -0.0123762681972908 -0.00168228603575371 -0.9057814 -0.4110946 0.1027677 61 61 61
-0.0377386017122394 -0.0327769115459846 0.0130733802201972 -0.1722865 -0.5233713 0.8345057 108 108 108
0.027125199290263 0.0473003789889885 0.0214865162255988 -0.3815011 0.8339664 0.398694 42 42 42
0.0332279996595257 0.0494798824298455 0.00880142592217781 0.8053043 0.5234097 0.2784372 70 70 70
-0.0563958092012531 2.55510318352137E-05 0.00932454608704902 -0.9299775 -0.3596559 -0.0760883 76 76 76
-0.042991439847005 0.0136042043674065 0.020876254070066 -0.5425779 0.6298035 0.5558388 127 127 127
-0.0245196028032428 -0.0399586751949714 -0.0323596940157189 0.4822278 -0.8716767 -0.08738486 82 82 82
-0.000206510571492347 0.0307938262927605 0.0356827630880103 -0.4314687 0.8464487 0.3120246 79 79 79
-0.0106684370317585 -0.0351962640774177 -0.0245023415205254 0.4963755 -0.8534058 -0.159091 73 73 73
-0.00493983462239567 0.0255519554126336 0.0441249563577399 -0.5708075 0.7246786 0.3860307 92 92 92
0.000338395091044275 -0.0360463455212043 0.00991302274491646 0.2820166 -0.7953312 0.536577 169 169 169
-0.0413567228593952 -0.0336923196804451 -0.00793764449331902 -0.8961166 -0.4437165 -0.009527103 70 70 70
0.0288253621778363 0.0514913007724358 0.0179618551614509 -0.4895945 0.5987203 0.6339015 85 85 85
0.053220112772929 -0.0169206455242561 0.0014944329145179 0.3364865 -0.8222493 -0.4590022 78 78 78
-0.0452254219331867 -0.0249087408077644 -0.00651002384398125 -0.9235933 -0.3831552 -0.01294346 86 86 86
0.0091918306074017 -0.0265259340298103 -0.0141450510141625 0.5104205 -0.836233 -0.2004627 54 54 54
0.0591504173002118 -0.00580843238949047 -0.0159729764578118 0.2928663 -0.8583713 -0.421222 82 82 82
-0.0413567228593952 -0.032994945336573 0.00466024421479561 -0.9476868 -0.3191308 0.006728907 66 66 66
-0.0478518410005695 -0.0175200298321174 -0.007458125126101 -0.9256976 -0.3782095 -0.006447905 29 29 29
0.052626212092387 0.00811175556064381 0.0163427545907722 0.8743292 0.4301532 0.2247591 47 47 47
0.0632079438886517 -0.00939019470333324 -0.00278297520849846 0.6378325 -0.6189212 -0.4583735 75 75 75
0.0401154355726117 0.0377538606631829 0.00823476456429817 0.8873224 0.4030158 0.2241368 91 91 91
0.0212622480115765 -0.0261510208141731 -0.000330929529406054 0.2622909 -0.9123809 -0.3142683 45 45 45
0.0365409450254315 0.0174838706958367 0.0405795230748878 0.1590548 -0.4625071 0.872232 128 128 128
0.0129144983014935 -0.0133351877224372 0.0227070703389869 0.03802735 -0.5021531 0.8639422 108 108 108
0.0090239839277142 0.0316400930392815 0.0462572827222572 -0.4200167 0.7760605 0.4704425 102 102 102
-0.0550531549730426 -0.00297792701839672 0.029812450635694 -0.7098349 0.04750322 0.7027645 112 112 112
-0.0268772049226886 -0.004050214577906 0.0296162917497382 0.0280501 -0.5050935 0.8626087 207 207 207
0.0636548595151776 -0.0143813684475349 0.0172145619275794 0.9294271 0.03582265 0.3672628 71 71 71
0.0219379262647503 0.00876561851382984 0.0357408776166663 0.01988813 -0.5062819 0.8621387 129 129 129
-0.0291076107301838 -0.004507978249781 0.0293329610707984 0.02876529 -0.5107349 0.8592569 242 242 242
-0.00391177370930973 0.00902716369510426 0.0366563155534492 0.02390076 -0.496604 0.8676481 147 147 147
-0.0011073751726276 -0.0327479436886238 0.0120126559617744 0.06984941 -0.5456598 0.8350907 172 172 172
0.047918279620158 0.023019950102575 0.00583722733285286 0.8721067 0.4308926 0.2318652 64 64 64
-0.0491508646288044 -0.0152532651913093 -0.00384876586172722 -0.9129978 -0.4057465 0.04248167 48 48 48
0.0288470582685345 -0.0286249712002205 0.0120925857904182 0.2344096 -0.9693385 0.07372156 35 35 35
0.00912197396372494 -0.0250902965557502 -0.0219595179674401 0.5371778 -0.8186964 -0.202919 76 76 76
0.0576246576032513 0.00796643943668141 -0.00238699175093315 0.8753173 0.4329463 0.2153533 57 57 57
-0.0455850763597614 -0.0230706527721809 -0.00856245018217705 -0.9202331 -0.3912139 -0.01107294 116 116 116
0.0463271932325238 -0.0221407011043953 0.016953016746305 0.1060036 -0.7234408 0.6821998 144 144 144
0.0413796500882977 0.0383205816257073 0.00117295526292183 0.8767375 0.434248 0.2067849 75 75 75
0.0361051158628338 0.0305831834781243 0.0374627663972602 0.8723861 0.4194298 0.2510401 98 98 98
-0.0444081230440265 -0.0269357755672859 -0.0185739443418755 -0.9326237 -0.3597145 0.02860894 48 48 48
-0.0192268295564777 0.0352255508411004 0.0118964269044624 -0.3816439 0.8836268 0.271204 113 113 113
-0.050074975041402 0.0257226631152703 -0.00109380937788628 -0.5776457 0.7899339 0.2057424 90 90 90
-0.0188635988512165 -0.0290281370174812 0.0146862819078193 0.02301943 -0.5047702 0.8629467 244 244 244
0.0266582565030926 -0.02427037506222 -0.00236416317198418 0.2756279 -0.9052535 -0.3233347 55 55 55
0.0307956533155316 -0.0168835714352058 -0.0200124428388848 0.3685114 -0.8862947 -0.2805016 57 57 57
0.0295402602872723 -0.017301996041529 -0.0202739880201592 0.3191004 -0.9060823 -0.2778304 74 74 74
0.00332434937571224 -0.0335180356991218 0.00363587878968574 0.4753576 -0.8387949 -0.2654398 82 82 82
0.0554858045301312 -0.00432046203731762 -0.0186175153372063 0.1701829 -0.8464673 -0.5045105 55 55 55
-0.025838176754964 0.0294061109530999 0.0164735271814094 -0.5485656 0.8056505 0.2236134 74 74 74
-0.0379130049028522 -0.0413643911373542 -0.0013989255544915 -0.9024401 -0.4307927 -0.004406226 79 79 79
-0.033379475621236 -0.0194379880916999 0.0207454516771064 0.02874822 -0.5071864 0.8613568 223 223 223
-0.0536930961885578 -0.00579388885616527 0.0210941984536872 -0.896803 -0.4312682 -0.09875295 78 78 78
-0.0540417833604938 -0.0058810308468269 0.0187402620198951 -0.8920654 -0.4454433 -0.07615511 73 73 73
-0.0512519283571369 -0.0106870725643562 0.0179120256784187 -0.9041566 -0.4230264 -0.05957754 86 86 86
0.0211968021116131 -0.013466079522364 0.0226852848413215 0.02352905 -0.507788 0.8611607 141 141 141
-0.0567444963731891 3.73573184742071E-06 0.0193941249730811 -0.9443957 0.1546956 0.2901485 100 100 100
0.0250764684400433 0.0112212106692864 0.037179405915998 0.02212337 -0.500484 0.865463 118 118 118
0.0249456958494061 0.00377444476962818 0.0326895072343574 0.01807845 -0.5101552 0.8598924 119 119 119
0.0297407703122967 0.00959388465762867 0.036133195388578 0.01558631 -0.5008076 0.8654183 118 118 118
0.00729115769480404 0.0349951192843987 0.0359090223195777 -0.4591333 0.804547 0.3766971 75 75 75
-0.0548918648042804 -0.00141294746517406 0.00555389665391304 -0.9002547 -0.4301209 -0.06736027 28 28 28
-0.0582919521608478 0.00723985881686939 0.00365763448502876 -0.9648432 0.2440942 0.09744538 50 50 50
-0.0192559166231281 0.0340223714816643 0.0158458008649573 -0.3636524 0.8735061 0.3236417 117 117 117
-0.0172725124635822 0.0341685220706536 0.0159940078141914 -0.288076 0.8972323 0.3346437 119 119 119
-0.0568752689638263 0.00118068904758228 -0.0166994974729791 -0.934221 -0.3565252 -0.01099591 49 49 49
0.0289561347684735 0.0445105239856316 0.0348254694822059 -0.138747 0.9591075 0.2467025 129 129 129
0.00140639111612972 0.0305830642688347 0.0395442201974616 -0.4097826 0.8668 0.2841408 94 94 94
-0.0228630705156452 -0.00822420864223705 0.027033503282331 0.02267622 -0.4956174 0.8682449 233 233 233
0.00546904370402035 -0.0253489807140754 -0.0302912638304009 0.4824025 -0.8504466 -0.2098292 83 83 83
0.023413737269389 0.0550470754611565 0.0111927344682441 -0.4515969 0.608362 0.652653 70 70 70
-0.0332923336305744 -0.00479121952175365 0.0293547465684638 0.02812615 -0.5118154 0.8586349 157 157 157
0.0212055043897503 -0.0211642578136848 -0.0164815530893578 0.2954965 -0.9107756 -0.2883915 66 66 66
0.0563314752302044 0.00155119151950611 0.0151657714727149 0.8770207 0.4323665 0.2095085 65 65 65
-0.0393624706545002 -0.0145339563381599 0.023829545009397 0.02311714 -0.5038989 0.8634533 118 118 118
-0.0171461506166584 0.0212762758243157 0.0355926706674323 -0.5355332 0.6704203 0.5135571 46 46 46
0.0618239240369671 -0.00731964855312572 0.00921555899407722 0.8964483 0.3914012 0.2078114 47 47 47
0.0466759996137494 0.0312369272220208 -0.00427598215315483 0.881242 0.4146554 0.2268777 66 66 66
-0.0331179304399616 -0.0246253803265022 0.0175414934041724 0.02774616 -0.501532 0.8646941 151 151 151
0.0445618228635662 0.0231943532931878 0.0182607724549995 0.8715998 0.4333821 0.229115 60 60 60
0.0251279668531292 0.0474272176730706 0.0195922806146369 -0.379722 0.7933275 0.4758601 71 71 71
0.0599495963773602 0.000178138922460214 0.000824208486341016 0.8727679 0.4343268 0.2227922 52 52 52
-0.0486801071443683 -0.000432212640039786 0.0316432967069373 -0.3265206 0.2221243 0.9187192 180 180 180
0.019235213252055 -0.0160595968258308 0.0211595847490058 0.02633946 -0.5076057 0.8611868 123 123 123
-0.00902287199879948 -0.0329513147365974 0.0120598926427589 0.01401333 -0.5050707 0.8629642 160 160 160
0.0255684451780194 0.0514913007724358 0.01566397689607 -0.4354415 0.5911013 0.6789624 62 62 62
0.042512972804057 0.0256790325152947 0.0210070266607032 0.8750083 0.4281997 0.225844 88 88 88
-0.050881425885213 -0.0120274618160652 -0.00429776765082024 -0.9057379 -0.4221503 0.03778989 46 46 46
0.00380392834757504 -0.0006937578213142 0.0309022619607673 0.01697786 -0.5042102 0.863414 247 247 247
-0.0478300257005817 -0.0165173604977058 0.0230122163179145 -0.4654817 -0.5835696 0.6654121 114 114 114
-0.0368320150652057 -0.0108941391003059 0.0258020713212714 0.02736578 -0.5086829 0.8605189 214 214 214
0.0351024465284222 -0.0218355253231453 -0.0014425263521447 0.3726758 -0.864042 -0.3384438 73 73 73
0.00397821232889828 -0.0129210546505378 0.0235353066804633 0.01813922 -0.501702 0.8648503 237 237 237
-0.0189072294511921 0.0180592939364983 0.0360460235955939 -0.5875167 0.6418736 0.4927702 77 77 77
0.0259918765745037 0.040979664038427 0.0407538964631782 -0.4306691 0.8480316 0.3088146 82 82 82
-0.0366343660631305 0.0208985015857293 0.0201061322572456 -0.5465806 0.7042389 0.4530974 70 70 70
0.0626958207807415 -0.00880165844082104 0.0087142541291938 0.9454646 0.2944257 0.1393205 81 81 81
-0.0569043560304767 0.0151590511310173 -0.00636834360335015 -0.8976011 0.3935224 0.1986262 47 47 47
-0.0123466654100544 -0.00529261379360424 0.0283303513410316 0.01998367 -0.499849 0.865882 237 237 237
-0.0226996345796711 -0.0476415946972297 -0.000832264196611865 0.4601446 -0.868384 -0.184868 49 49 49
-0.0483313007631427 -0.0141634538662361 0.00304737232949592 -0.9203195 -0.3908461 -0.01585467 120 120 120
0.0301330880842083 0.023325125883825 0.0440668418290839 0.02614225 -0.5051546 0.8626329 134 134 134
0.0500979022703045 -0.0189148977291511 0.0189582064035163 0.05093817 -0.5868222 0.808112 142 142 142
-0.00831453040028873 0.0285560295093132 0.0302047982099281 -0.4170098 0.7993672 0.4325677 61 61 61
0.0644539193830365 -0.0129428699505256 0.00419529818322517 0.6795729 -0.6540695 -0.3322254 37 37 37
-0.0365181370058185 -0.0237534835827278 0.0184351160409675 0.03309461 -0.5046188 0.8627077 133 133 133
0.0404642419538372 -0.0213124349605964 0.017606879699491 0.0482303 -0.5524196 0.8321697 164 164 164
0.0449354247770184 -0.022009928513758 0.00842779420640327 0.2336415 -0.8864031 -0.3996262 46 46 46
0.0476132230481976 -0.00740679054378734 -0.016583268415667 0.4307319 -0.8286965 -0.3573962 68 68 68
0.0398975209913128 0.0377102300632073 -0.000396345627047046 0.8759302 0.4330745 0.212586 79 79 79
0.0350981549939984 -0.0165783956539558 -0.0143368289587273 0.3963755 -0.8664327 -0.3036129 52 52 52
-0.0328128738680011 -0.0509545400631355 -0.00584525324080132 -0.1263166 -0.9531667 -0.274804 34 34 34
-0.0294999285020954 -0.0502135351192878 -0.0054093346712365 0.4029151 -0.8430908 -0.3561705 24 24 24
-0.0315051479616291 -0.0448735549938606 0.00575005553986885 -0.190933 -0.5305051 0.8258989 103 103 103
-0.0427080793657428 -0.0304666355144905 -0.00240153528425835 -0.918776 -0.392666 0.04079215 83 83 83
0.00105758473490414 0.0111630365359856 0.037506337392591 0.02499885 -0.4961858 0.8678564 101 101 101
0.0372675256452435 -0.0133351877224372 -0.0203175888178124 0.4297385 -0.8336718 -0.3468662 45 45 45
-0.0433183117189533 -0.0252792432796882 0.00849630974557258 -0.8884282 -0.4585811 0.01996951 85 85 85
0.0592521028241986 -0.00400670318721996 0.012375916469358 0.8768004 0.4251881 0.2245798 42 42 42
-0.00707213118459049 0.0427015230166985 0.00383200787331917 -0.3266918 0.8015701 0.5007573 81 81 81
0.0050419168195599 0.040979664038427 0.0192197813871131 -0.290254 0.910261 0.2952584 93 93 93
-0.0522327823915607 -0.00636060981868969 0.00374483608033516 -0.9107948 -0.4126823 -0.01208851 101 101 101
-0.0551752252855426 0.000744740675695077 0.0240583970430122 -0.8633362 0.4210325 0.2781767 39 39 39
-0.0330744190492755 0.00100628585696949 0.0323843612554298 0.02173679 -0.5009583 0.8651984 123 123 123
0.0488555030546063 -0.0180431201946663 0.00176143192078926 0.113925 -0.8795958 -0.4618792 88 88 88
0.0341434077939862 0.0322177812564446 0.0427590861203895 0.7754482 0.4228687 0.4688945 105 105 105
-0.0412804289140827 -0.0337359502804206 -0.0206772134420647 -0.8587402 -0.5114791 -0.03089296 78 78 78
-0.0151728792467243 0.0398389503467156 0.00371577881600715 -0.4280362 0.825812 0.3671776 86 86 86
-0.0559162302293903 -0.000475724030725821 -0.015391771566607 -0.9194788 -0.3924744 0.02286145 60 60 60
-0.0488399668016559 -0.0147447183620857 -0.000323687565065844 -0.908913 -0.405784 0.09600302 83 83 83
0.0087732867917889 0.0380590364444329 0.0299868240239844 -0.3491817 0.8698351 0.3485096 73 73 73
0.0351273612699383 -0.0210696056377815 -0.000589375269152148 0.3757184 -0.8591135 -0.347505 62 62 62
-0.0407755775728351 -0.0342590406429695 -0.0134592101690545 -0.8954816 -0.4446222 -0.02058715 93 93 93
-0.0407988233842975 -0.0304404094707893 0.0142416312577949 -0.4818484 -0.5269532 0.7001017 132 132 132
0.0569068984708661 -0.00835712700008617 -0.0100997731802239 0.2658317 -0.8801436 -0.3932947 59 59 59
-0.0230919523515827 -0.0351309373867439 0.0112861349466071 0.0153806 -0.5065487 0.8620741 238 238 238
0.0445181922635907 0.0333511039722039 -0.000570689213015063 0.8670883 0.4516567 0.2101523 60 60 60
0.0439951019010418 -0.00736327915310131 -0.0255485520479455 0.4701709 -0.8680876 -0.1592585 76 76 76
0.0273432330808514 0.0143453285205437 0.0389230503919349 0.01516445 -0.506229 0.8622658 122 122 122
0.01460583970164 0.0430283948886467 0.0220183386686073 -0.2230251 0.9112885 0.3461403 50 50 50
0.0447870092115277 -0.00821324138759838 -0.0203502819654717 0.5755118 -0.7734288 -0.2656955 58 58 58
-0.0227578087129718 0.0248798534381462 0.025598640668653 -0.4356067 0.675495 0.5949398 43 43 43
0.0125221805295819 -0.0267395570766853 0.0152529432656989 0.02976329 -0.5195045 0.8539492 232 232 232
0.0538031654081219 -0.0108505085003303 0.0235789074781165 0.03567487 -0.506663 0.8614058 114 114 114
0.0615406827649945 0.00547448844791187 -0.0139532432672753 0.8736976 0.4273389 0.232452 70 70 70
-0.0129439039507038 0.0390049621570183 0.00795140408303596 -0.3041728 0.8554534 0.41914 81 81 81
-0.0184276504793293 0.0343537733066155 0.0144683077218757 -0.3284249 0.9000909 0.2863101 67 67 67
-0.0495083732881672 -0.0129428699505256 0.0247122897985206 -0.4414565 -0.6042988 0.6632791 109 109 109
0.0317459897718304 -0.0112428262722419 0.0235789074781165 0.01533116 -0.495232 0.8686255 145 145 145
0.0467558698377484 -0.0238262012493538 0.0140759899499641 0.1981415 -0.9800652 -0.01456373 77 77 77
0.0193223552427166 -0.0247416093838142 0.016241039264463 0.01678596 -0.5117846 0.8589498 111 111 111
-0.029053132084859 0.0208731100070549 0.0259873225572333 -0.3690335 0.7479942 0.5516512 102 102 102
0.030946810694682 -0.00319298057674633 0.028504724729322 0.01775458 -0.5097105 0.8601628 231 231 231
-0.0453671617784626 -0.000301440049402579 0.0321663870694862 -0.2276173 -0.05062564 0.9724337 184 184 184
0.0379359321317547 -0.0215739801418708 0.00322174571778633 0.3119927 -0.8732473 -0.374299 81 81 81
-0.0108490391054279 0.0271487638461663 0.0297875656965003 -0.3889325 0.7997651 0.4572825 97 97 97
0.00257237717722592 0.0361519262301995 0.028504724729322 -0.3974672 0.7783545 0.4859878 72 72 72
-0.0149404211321003 0.00506035537601246 0.0344767525079475 0.02325602 -0.5018989 0.8646136 166 166 166
-0.0128262443819172 -0.0368744924557136 -0.0240228221533074 0.4769505 -0.8613626 -0.1748502 82 82 82
0.0212040738782757 -0.0228744342815803 -0.0105240688440575 0.3010916 -0.9214747 -0.2454143 68 68 68
0.0106695489606732 0.034124891470678 0.0422251179101691 -0.4363348 0.8438927 0.3121812 108 108 108
-0.0551752252855426 -0.00235017089962231 0.0111989631536231 -0.9009922 -0.4298877 -0.05839244 47 47 47
-0.0378258629121906 -0.00570674686550365 0.0288970425012336 0.02334359 -0.5053178 0.8626175 132 132 132
0.0262534217557782 0.0440309450137688 0.0302483692052589 -0.3522897 0.9005185 0.2548694 55 55 55
-0.0535623235979206 -0.000715453912012443 0.0277200891854987 -0.7331856 0.4402068 0.5183212 60 60 60
-0.042490164784444 -0.0302486017239021 -0.0101172075388207 -0.9254786 -0.3784855 -0.0154285 76 76 76
0.0253671006879681 -0.0187332227718757 -0.0201650009271874 0.2828115 -0.8993035 -0.3335729 67 67 67
-0.0537367267885334 -0.0064913824093269 0.0179120256784187 -0.8938009 -0.4438007 -0.06450537 101 101 101
0.0475477771482342 -0.0231868818294929 0.0134439124944434 0.2218707 -0.9740261 -0.04523774 61 61 61
-0.0488632126131183 -0.016709168244593 0.0137359752538428 -0.9063502 -0.4216255 0.02759069 115 115 115
-0.0370194120683796 0.0237610742557122 0.0115259244325385 -0.3676881 0.8750618 0.3147576 78 78 78
0.0128795699796551 0.0348942682254387 0.0436047568204627 -0.333767 0.8861747 0.3213937 108 108 108
0.0125003652295941 -0.0199828937542366 -0.032348786365725 0.5845737 -0.7857087 -0.2023253 85 85 85
0.000708897562968103 -0.0287375047695564 -0.02774262882445 0.465137 -0.8366893 -0.2891343 60 60 60
-0.0555457277574665 -0.000432212640039786 0.00803857587601997 -0.9049222 -0.414452 -0.0966712 63 63 63
0.0272124604902142 0.0311279699313713 0.0487747146966682 0.001423661 -0.3325799 0.943074 128 128 128
0.0192678765973919 -0.0268158510219978 -0.000745062601305468 0.3000519 -0.9148864 -0.2700958 71 71 71
0.0329664544782513 -0.00188525467037426 0.0293329610707984 0.01829041 -0.5036259 0.8637282 218 218 218
-0.0131096048631794 0.0408487722385003 0.00391920946862556 -0.3785958 0.8362905 0.3965896 55 55 55
0.0285574989042157 0.0556075975406243 0.0143313064458594 -0.1315432 0.786975 0.6027992 61 61 61
-0.0515352888383991 0.0114465162265374 0.0155144884469733 -0.775777 0.5124617 0.3681752 102 102 102
0.0155735807142132 0.0386256381976677 0.0381384148481116 -0.3404441 0.8538459 0.3937575 70 70 70
-0.0369539661684162 -0.0426286056530403 -0.0234125599977746 -0.8965449 -0.4424752 -0.02056259 32 32 32
-0.0193721456804401 0.00481335372806324 0.0345058097722755 0.02581199 -0.5033255 0.8637113 102 102 102
0.00118835732554134 0.0404129430759026 0.0171709611299262 -0.3698999 0.875262 0.3115936 61 61 61
-0.0496173305788166 -0.0149044588100837 0.0232519461992011 -0.703993 -0.6267341 0.334063 70 70 70
-0.0418217582979328 -0.0303502872478889 0.0118818833711372 -0.9039702 -0.3449392 0.2526953 111 111 111
-0.0390754146852619 0.00774840564609303 0.0360750808599219 -0.5399085 0.2009851 0.8173762 125 125 125
-0.0144464178362018 -0.0145266845714973 0.0232011034372077 0.0390448 -0.5093314 0.8596843 133 133 133
0.0618239240369671 -0.00810428409694897 0.0118092551114783 0.878768 0.4221796 0.2225562 71 71 71
-0.028628031758321 -0.041843970109217 -0.0300820515272393 0.470733 -0.871621 -0.1367012 70 70 70
-0.0445170803346759 -0.0268921449673103 -0.00630295730803154 -0.9272231 -0.3740511 -0.01852272 51 51 51
0.0347973899564618 -0.00832219867824779 0.0254242672803626 0.01841007 -0.5068628 0.8618301 117 117 117
0.0496619538984173 0.0260277196872307 -0.00523496128294609 0.8796435 0.4237081 0.2160989 61 61 61
0.039069254847514 0.00161663741946949 0.0311256601693854 0.01875357 -0.5074645 0.8614686 236 236 236
0.0368024902067059 -0.0152967765819954 0.0212467565419898 0.02620034 -0.512022 0.8585727 234 234 234
-0.00853244498158756 -0.0343461826336311 -0.0245459423181786 0.4592611 -0.8737253 -0.1602603 35 35 35
-0.0338154239931232 0.0240662500369622 0.0140324189546333 -0.4640055 0.8482969 0.2551299 83 83 83
-0.0334231062212116 -0.0157544210445808 0.0229686453225837 0.02921389 -0.5030633 0.8637557 226 226 226
0.018869002314555 -0.021172960091822 -0.0184082732317223 0.2428234 -0.8941722 -0.3761554 102 102 102
-0.0358206434526569 -0.0447645977032112 -0.0245459423181786 -0.6570604 -0.7416385 -0.1350702 28 28 28
0.00454493329142269 0.0421129867541863 0.0146862819078193 -0.2785979 0.8880623 0.3656892 104 104 104
0.0495373801908368 0.0197133228290154 0.00598668597962715 0.8800755 0.4140589 0.2324269 65 65 65
0.0369236068448895 -0.0132238462459968 -0.0219692037222161 0.4384142 -0.8312992 -0.3416644 53 53 53
0.00546904370402035 0.0300991937625481 0.0458976879003272 -0.4492593 0.7870613 0.4227299 71 71 71
0.0558955268583172 0.00161663741946949 0.0154273464563117 0.8768962 0.4311013 0.2126141 65 65 65
-0.0419234438219196 -0.0327334001552986 -0.0197072968599572 -0.8732531 -0.4871598 -0.01021463 89 89 89
0.0180582599363202 0.0443797513949944 0.0204403355005012 -0.297744 0.8794123 0.3714599 74 74 74
0.0436682300290936 0.0257008478152825 0.0179774119737373 0.8750185 0.4246881 0.2323414 49 49 49
-0.01759950354482 -0.0401439264309333 -0.0142802045461907 0.3767281 -0.9126244 -0.1587221 35 35 35
-0.0378693743028766 -0.0387054279339241 -0.0255921230432763 -0.9406087 -0.3368336 0.04240788 58 58 58
-0.0412433548250324 -0.0345379903805183 -0.0382336274502053 -0.9326442 -0.3604241 0.01641073 72 72 72
-0.038453619030965 -0.0387053087246345 -0.0221571371671929 -0.9288899 -0.3673336 -0.04721789 71 71 71
-0.0440158052721149 -0.0261728361141609 -0.0107274696943536 -0.9260491 -0.377301 -0.008771608 57 57 57
0.0490080909452313 -0.00771196632503734 -0.0157840893385186 0.3638782 -0.8500251 -0.3808545 57 57 57
0.00938351914499935 -0.0182973936092781 0.0202296330812202 0.02576004 -0.5089462 0.8604128 232 232 232
-0.0366052789964801 0.0228600904452874 0.0155726327779517 -0.4284606 0.8421158 0.3275096 75 75 75
0.0398975209913128 -0.0193943574917244 0.0186966612222419 0.01871309 -0.4998628 0.8659024 169 169 169
-0.00718108847523991 0.0211455032336785 0.0437180950525031 -0.2698041 -0.07705615 0.9598271 159 159 159
0.0335768060407513 0.0468644306171013 0.0156016900422797 0.783735 0.5646477 0.258713 66 66 66
-0.0363437338152057 -0.0447209671032356 -0.0104223535177483 -0.9244454 -0.3793233 0.03891787 112 112 112
-0.00288740828419987 0.0402094528186394 0.0116203381898627 -0.3596348 0.8645677 0.3509779 63 63 63
0.0637129144391888 -0.0173456266415046 0.0137127294423804 0.5636206 -0.8006561 -0.2031789 48 48 48
-0.0516225500383503 0.0147593423831536 0.00958609126832344 -0.8803762 0.359512 0.3093361 47 47 47
-0.0554367704668171 -0.00235017089962231 0.0172581627252326 -0.9104306 -0.4108198 -0.04840592 136 136 136
-0.0372300548830158 -0.0425123765957283 -0.0281349465963616 -0.8272818 -0.5611758 0.02620202 50 50 50
-0.0196918649950153 -0.0428901508343147 -0.00837356306288384 0.4481532 -0.859134 -0.2470781 78 78 78
-0.0110781593599445 0.0236128971088005 0.0358280792119727 -0.5067272 0.7602463 0.4065135 60 60 60
-0.0266664428987629 0.0309753820407463 0.00790780328538276 -0.5814162 0.7753949 0.2464102 101 101 101
0.0409546689710492 -0.0249087408077644 0.0153619303586707 0.2002233 -0.9308151 0.3057677 92 92 92
0.0148542718610638 -0.0201681449901985 -0.0263549730894341 0.5281048 -0.8062873 -0.2664696 62 62 62
0.0351315335950726 -0.00708707122921215 0.0261653318288551 0.02076811 -0.5100563 0.8598903 139 139 139
0.0312664107999676 -0.0160814121258186 0.021050597656034 0.02422424 -0.5090035 0.8604235 240 240 240
-0.0504383249559528 -0.0124634101879524 -0.0179200515863671 -0.8971106 -0.4333014 0.08626916 58 58 58
-0.0268190307893879 -0.0436966016781257 -0.0183777854559197 0.4843064 -0.849867 -0.2077821 58 58 58
0.0291740493497723 -0.00840945987819897 0.0254533245446906 0.02466138 -0.5126817 0.8582245 131 131 131
-0.00109581187154117 0.0277452871310784 0.0439273371579871 -0.3741257 0.7977074 0.4729618 95 95 95
0.0211242036542767 0.043122808645971 0.0281632497194038 -0.3545966 0.8952649 0.2697445 108 108 108
0.0544715718946331 0.0127904817569329 -0.000425402891375048 0.8663778 0.4505109 0.2154749 54 54 54
-0.0359950466432697 -0.0466390445721077 -0.0389746770975365 -0.1836533 -0.951193 -0.2479986 86 86 86
0.0205865697584027 -0.0179267719280647 -0.0242843971369042 0.2760611 -0.8568705 -0.4353887 49 49 49
0.0087732867917889 0.00131146163821949 0.0317304983022437 0.02508179 -0.5092243 0.8602683 194 194 194
0.0113234119138592 0.0380916997897698 0.0334741427781806 -0.3821225 0.8612779 0.3349368 116 116 116
0.0518850879392498 0.0204044982898308 -0.00379646278593682 0.8765219 0.426089 0.2239587 68 68 68
-0.0263903541841632 0.0294423505771233 0.0116929962518439 -0.5814161 0.7919874 0.1863094 78 78 78
-0.00343231394673649 -0.0298999145519661 -0.0315205500242486 0.4610133 -0.8319645 -0.3087099 80 80 80
0.0147016839704388 0.0478669807422234 0.0120126559617744 -0.3971062 0.7098339 0.5817581 61 61 61
0.0295912818632 -0.0125132396709846 -0.029920135509707 0.2399417 -0.8159673 -0.5259519 86 86 86
-0.0228522224702961 -0.045331199456446 0.00516157888200142 0.1241494 -0.6904193 0.7126768 130 130 130
0.0130016402921551 -0.0286008909237312 -0.000561986934877856 0.2980346 -0.9264823 -0.2297953 75 75 75
0.0290432767591351 -0.0261728361141609 0.0150023057344184 0.1125873 -0.7297965 0.6743301 149 149 149
-0.0278433962144977 -0.0177815750133918 0.0213993444326148 0.02001327 -0.5032161 0.8639288 234 234 234
-0.0446260376253254 0.00501672477603687 0.0313817515256629 -0.7085808 0.4844804 0.5130225 84 84 84
0.0193223552427166 0.0231943532931878 0.0442847862127052 0.01150563 -0.4993676 0.8663138 234 234 234
0.00153716370676693 -0.0264998271953987 0.0154273166539893 0.02068792 -0.5061882 0.8621749 117 117 117
0.0429489211759442 -0.0230561092388557 0.0168222441556678 0.110024 -0.6948832 0.7106561 122 122 122
-0.0396712227144367 0.0114682123172356 0.0291440739515052 -0.7101249 0.6491637 0.2725971 46 46 46
-0.0551315946855671 0.00532190055728687 0.0155145182492957 -0.8476871 0.4565527 0.2701599 59 59 59
0.0451284246168011 -0.0108177259457038 -0.0145526275751366 0.6402096 -0.6941003 -0.3291752 51 51 51
-0.0128044290819294 -0.0373975828182624 -0.0191842064974084 0.4648554 -0.8767788 -0.1231602 130 130 130
-0.0298049850740558 -0.04528768806576 -0.0190534339067712 0.3138052 -0.9277668 -0.2019284 65 65 65
-0.0153327389040119 -0.0226419761669563 0.0182389571550117 0.02075562 -0.5029915 0.8640421 173 173 173
-0.0208361549654132 -0.0392067029964851 -0.0268126771566644 0.3063115 -0.9244913 -0.2269122 74 74 74
-0.0102979345598346 0.0288393899905754 0.0273277714135871 -0.3550906 0.8028569 0.4788857 46 46 46
-0.00903813078786198 0.0377538606631829 0.0135354652288184 -0.2938108 0.9108698 0.2898129 66 66 66
-0.0414729519167072 -0.0305246904385017 0.0104433848741279 -0.9290239 -0.3201863 0.1854599 101 101 101
-0.0311708851137287 0.0259551212298943 0.0150059416177497 -0.5514647 0.811446 0.1934995 71 71 71
0.022678931208598 -0.0144686296474861 0.0220314218881354 0.02165623 -0.5006406 0.8653843 146 146 146
0.0455643729886883 -0.00217576770900951 0.0286790981176124 0.02277376 -0.5155635 0.8565487 131 131 131
0.03022023007487 -0.00431175975918041 0.0280688061597572 0.01916811 -0.5066696 0.8619272 236 236 236
-0.0420542164125568 0.00695661754489674 0.03388827585008 -0.7385111 0.4814678 0.4720065 116 116 116
-0.000271956471455725 0.0375140115726067 0.0224673106553779 -0.3540201 0.8914073 0.2829536 115 115 115
0.0406385259351605 0.00296799392581715 0.0317740692975745 -0.03346524 -0.5292613 0.8477986 168 168 168
-0.00508872702504459 -0.0373627737057136 -0.000317876112200244 0.3976684 -0.8961051 -0.197118 66 66 66
0.0569145278653973 -0.00904687194942699 -0.00862420059416436 0.2827123 -0.8667426 -0.4108905 63 63 63
0.052321036311137 0.0118170186984612 0.0108502163770423 0.8766651 0.4287457 0.2182556 54 54 54
0.0115631417951458 0.0428104803073479 0.0197428717496619 -0.314011 0.8984134 0.3070024 77 77 77
0.0197583036146038 -0.0276767805111335 0.000693435895703809 0.2710232 -0.9190031 -0.2863208 56 56 56
0.0442566470823162 0.0338306829440667 0.00134732865121223 0.8620656 0.4580324 0.2169084 68 68 68
-0.00135437682057682 -0.032384593774073 -0.0203175888178124 0.4165114 -0.889037 -0.190083 90 90 90
-0.0302627487459308 0.0301471158969475 -0.00192201591704033 -0.4754011 0.8790876 0.03462221 85 85 85
0.018886526080119 -0.0144075944912361 0.0222711517694221 0.01074707 -0.493421 0.8697242 111 111 111
-0.00334505274678532 0.0321305200564934 0.0282867803457008 -0.5315198 0.6969163 0.4814503 103 103 103
0.0168213443479412 0.0412193939197136 0.0296108379247413 -0.2880687 0.9331212 0.2151772 68 68 68
-0.0225688619890339 -0.0473364189159797 -0.00209638930533074 0.4966791 -0.794964 -0.3483419 43 43 43
-0.0461954279222614 -0.0217918947231697 -0.0181162104723229 -0.9081489 -0.4184657 0.01232611 70 70 70
0.038415391894328 -0.00888891964077221 0.0250174059751258 0.02608571 -0.5010539 0.8650229 75 75 75
-0.0129497452058918 0.0297185585010125 0.0244798018815742 -0.3166589 0.7489511 0.5820647 78 78 78
-0.0483313007631427 -0.0178250864040779 0.0111117913606391 -0.8863875 -0.4612744 -0.03928238 105 105 105
-0.00866321757222477 0.00632445068240894 0.0352177872541175 0.01107341 -0.4943763 0.8691775 253 253 253
0.0151003198346966 0.0394415065753533 0.0335800006273017 -0.3529656 0.8811643 0.3145868 85 85 85
-0.0580522222795612 0.00680402965427174 0.00509616278436043 -0.9490065 0.2391452 0.2054172 57 57 57
0.0490008191785687 -0.0087654188167976 -0.0117518947241082 0.2864907 -0.8620607 -0.4180603 43 43 43
-0.034454743412984 0.011075894545324 0.0381093575837836 -0.1690543 0.3243445 0.9307101 71 71 71
0.0232820110044354 -0.024225790787928 -0.00405073620054863 0.2288707 -0.9253028 -0.3023787 83 83 83
-0.00861970618153873 -0.0332346752178596 -0.0305397555944695 0.5055541 -0.8195643 -0.2696837 46 46 46
-0.0362711353578693 -0.0443722799312996 -0.0243425116655602 -0.7103029 -0.6988848 -0.08384407 77 77 77
0.0389239387235516 -0.00967355518459545 -0.028222148191668 0.4408412 -0.8411403 -0.3132764 64 64 64
-0.0548700495042926 -0.00411566047786938 -0.0166994974729791 -0.8935601 -0.4489431 0.0007297088 25 25 25
0.0168813066205853 -0.0284287527096199 0.00363587878968574 0.2022017 -0.9422098 -0.2671238 52 52 52
-0.0427952213564045 -0.00348361282467113 0.0303791417958961 -0.00932349 -0.4745112 0.8802001 100 100 100
-0.0335102482118732 0.0186608240115715 0.0273277714135871 -0.4259118 0.7515205 0.5038016 16 16 16
0.0171283082685345 -0.0199319913875984 0.0190018072011695 0.0215866 -0.5058014 0.8623798 139 139 139
-0.00664715006734196 -0.0354251459133552 -0.0142365739462151 0.3929836 -0.8990584 -0.1930231 84 84 84
0.0408274726590985 0.0318109199512078 0.016241039264463 0.874129 0.4372065 0.2115395 62 62 62
-0.0382618112840778 -0.0403182104122566 -0.00437403179381035 -0.9066681 -0.4210711 -0.02553608 83 83 83
0.0432976083478802 0.015478651236303 0.035621012676023 0.7183314 0.3136298 0.6209962 23 23 23
-0.0369104547777301 0.0226929590213372 0.0142503633382545 -0.3981886 0.8639388 0.3083109 102 102 102
0.0393308000287884 -0.0237099721920417 0.00810396217133857 0.275501 -0.8887947 -0.3662557 81 81 81
-0.0479826135912067 -0.0186097219479011 -0.0212329969522729 -0.903325 -0.4284692 0.02044988 71 71 71
0.0570724801740521 -0.0128120973598884 -0.0020029888269677 0.3473899 -0.7996727 -0.4897385 58 58 58
-0.0411388082780964 -0.0250176980984138 0.0179701402070747 -0.1849069 -0.590536 0.7855423 138 138 138
0.0566148357114666 0.0114465162265374 -0.00654271699164055 0.8632864 0.4518892 0.2247949 80 80 80
-0.0331615610399372 -0.0458107784283088 0.00544490956094124 -0.2665642 -0.5060982 0.8202488 88 88 88
-0.00273482039357487 0.0149555608737542 0.0400128319146857 0.02472252 -0.5042102 0.863227 94 94 94
-0.0347744627275592 0.016437689970739 0.0293765618684516 -0.4495328 0.7496937 0.4856744 55 55 55
-0.00160149767781559 -0.0298417404186653 -0.0285272941705956 0.4668342 -0.8319401 -0.2999023 74 74 74
0.0517253474912518 0.0135897800433709 0.00997840904023506 0.8720128 0.4364645 0.221568 62 62 62
0.0454190568647259 0.0219011709201409 0.0178829684140906 0.8685516 0.437937 0.2320115 65 65 65
0.0341870383939618 -0.0158198669445442 0.0212249710443244 0.0197411 -0.5119587 0.8587832 240 240 240
-0.0212611360826618 -0.0379206731808113 -0.0349206820842995 0.4592757 -0.8844868 -0.08215145 50 50 50
0.00526114270304379 -0.0266928270351814 -0.0261588142034783 0.5070138 -0.8332686 -0.2204549 68 68 68
-0.0140685243883258 -0.0387054279339241 -0.0166994974729791 0.3943664 -0.9137888 -0.09728958 53 53 53
-0.0422286196031696 -0.0319704607021736 -0.00425416685316704 -0.9197606 -0.3920926 0.01742783 94 94 94
0.00434883401011166 -0.0138582780849861 0.0229250445249305 0.02275947 -0.5062476 0.8620878 236 236 236
-0.0458902521410114 -0.021508653451197 0.00843089364793159 -0.8586257 -0.5054007 -0.08562684 21 21 21
0.0371337728223675 0.0296894714343621 0.0356885745408759 0.8763489 0.4179111 0.2395059 78 78 78
0.0292924241742962 -0.0248183801662849 0.00145318650033333 0.2805722 -0.8856358 -0.3700385 81 81 81
0.0405077533445233 0.0249669954288079 0.0313672377946601 0.8864782 0.4044859 0.2248278 83 83 83
-0.00966588690663639 -0.0288537338268684 0.0145990803125129 0.02224313 -0.5123891 0.8584653 168 168 168
0.0498363570890301 -0.0118095472347663 0.0229250445249305 0.008376091 -0.5131938 0.8582318 175 175 175
0.0487683610639447 -0.003897626687281 0.0274585440042243 0.01502622 -0.5081084 0.8611621 141 141 141
0.0521466331205243 -0.0216611221325325 0.012288744676374 0.2842059 -0.9219257 -0.2632108 65 65 65
-0.0268408460893756 -0.0502135351192878 -0.000192914974428637 0.4219132 -0.9066347 -0.001677644 50 50 50
0.0336552457532757 0.0370999977099968 0.0356101050260291 0.8732672 0.4390833 0.2112116 67 67 67
-0.0423920555391437 -0.020549614716761 0.0203313484075294 -0.1060837 -0.5446709 0.8319134 104 104 104
-0.0294126673021442 0.0261149808871819 0.0178902103784309 -0.5489521 0.7768983 0.3083514 137 137 137
0.0132108525953167 -0.0192898109447883 -0.0304961547968163 0.5456691 -0.8054566 -0.231268 94 94 94
0.00542553231333431 0.044955174635656 0.00935941480424263 -0.3655874 0.775912 0.5141073 78 78 78
0.0289996461591595 0.048520962904699 0.0213993444326148 -0.1069783 0.8468013 0.5210404 50 50 50
0.000665266962992517 -0.0185225799572395 0.0202223613145576 0.01458207 -0.5059986 0.862411 230 230 230
0.0310048656186932 0.0316946908938958 0.048818285691999 0.4594038 -0.1676964 0.8722534 115 115 115
-0.0164225502290851 0.0115554735171868 0.0384435608270393 -0.03294816 -0.3218295 0.9462242 136 136 136
-0.054129044560445 -0.00583751945614086 0.0105014994027839 -0.915053 -0.3996767 -0.05418987 112 112 112
0.0570724801740521 0.00244490356326832 0.00906297110345222 0.8774589 0.4245162 0.2232754 63 63 63
0.0445181922635907 -0.00657864360927807 0.0261725737931953 0.02547711 -0.5037784 0.8634571 238 238 238
-0.0215226812639362 -0.0462902381908821 -0.00203103281233452 0.5020606 -0.7902278 -0.3513904 53 53 53
0.0126616553983563 -0.0221842124950813 -0.0241623566267266 0.5370166 -0.80145 -0.2632321 67 67 67
0.0361486272535199 0.035160104941137 0.0294419481637702 0.8706805 0.4517993 0.1944039 100 100 100
0.0572905139646405 -0.016575415421717 0.0200915887239204 0.1007104 -0.5181183 0.8493591 128 128 128
0.00742193028544125 0.00729803295017017 0.0353631033780799 0.02307732 -0.4976627 0.8670636 241 241 241
0.0174697236738079 -0.0188059404385017 -0.024720315706469 0.4396132 -0.8502114 -0.2896218 64 64 64
-0.0517315073289997 0.00211064071536793 0.0263106479528175 -0.6105371 0.6100424 0.505067 54 54 54
0.0211532907209271 -0.0250613286983894 -0.00273281789991997 0.2666003 -0.9110858 -0.3143992 53 53 53
0.0354076223096722 0.041023175429113 0.020309562909864 0.869889 0.4351082 0.2323229 73 73 73
-0.0513282223024494 0.00697831363559498 0.0217044904115424 -0.6965107 0.5240096 0.4901907 61 61 61
0.0370205239972943 0.0427232191073967 0.012855435836576 0.8691201 0.4376833 0.2303552 73 73 73
0.00505348012064633 0.0385530397403313 0.025627697932981 -0.3148616 0.8890184 0.3324281 85 85 85
0.014752586337077 -0.0281489685070442 -9.84714147820309E-05 0.2707845 -0.9360663 -0.2246233 80 80 80
0.0574793414792889 0.00328759403110279 0.00564834021355964 0.8779644 0.4184958 0.2324645 61 61 61
-0.0108689470567829 0.0377886697757317 0.0115389778497443 -0.2914422 0.8961411 0.3346528 84 84 84
-0.0330307884493 -0.0496031835567878 -0.0105966971037164 -0.1972187 -0.9129643 -0.3572127 58 58 58
-0.0169310970583088 -0.0406379297268318 -0.0105966971037164 0.4125476 -0.8900821 -0.1937998 58 58 58
0.0466759996137494 -0.0229689672481941 0.0164299263837562 0.1194819 -0.8779458 0.463611 151 151 151
0.0443526105604046 0.0271698638904168 0.0116871847989783 0.8605294 0.4599302 0.2189827 63 63 63
-0.0422430439272052 -0.032035906602137 -0.0240228519556298 -0.848938 -0.5284843 -0.002944108 83 83 83
0.0481363134107464 0.0216250822055413 0.00915017269875862 0.8833294 0.4182647 0.2116217 75 75 75
-0.0287588043489582 0.0127650901782586 0.0360133304479346 -0.2863329 0.5614948 0.7763615 197 197 197
-0.020270983723653 -0.0204592540752815 0.0198860719087348 0.02011612 -0.5048296 0.8629845 233 233 233
-0.0465004844942218 -0.0220534399044441 -0.0267255053636803 -0.9277772 -0.3728451 0.01469648 90 90 90
-0.0328563852586872 0.0110760137546135 0.0378550841691718 -0.09183518 0.4582533 0.8840646 163 163 163
-0.0186020536699421 -0.0206367567074226 0.0195248975637183 0.02415469 -0.5042647 0.8632113 237 237 237
-0.0419234438219196 0.0258969470965935 0.000475491512082593 -0.1873496 0.9569454 0.2217105 65 65 65
-0.0378113193788654 -0.0407541587841438 -0.00984111882422112 -0.9224852 -0.3860228 0.00273625 55 55 55
-0.0189420385637409 -0.0164912536632942 0.0221403791787849 0.02486797 -0.5127928 0.8581522 222 222 222
0.0362793998441571 0.047605435560949 0.00788601778771736 0.854331 0.4668499 0.2284072 78 78 78
-0.00859789088155094 0.0426688596713616 0.00369035743501045 -0.3092176 0.8201524 0.4813881 77 77 77
0.022373755427348 0.0362062856662346 0.0479682638528571 -0.4246271 0.8201264 0.383516 138 138 138
0.0424403743467205 0.00734154434085621 0.0343314363839851 0.132176 -0.4400939 0.8881705 135 135 135
0.026838858576762 0.0516283914554192 0.0160500659826026 -0.4558006 0.5814254 0.6739364 65 65 65
-0.0470672054567463 0.00920156688571705 0.0225762977483497 -0.3737926 0.6927015 0.6168012 164 164 164
-0.0349226398744709 0.0271611616122795 0.00356176041390754 -0.3892987 0.8960692 0.2133227 81 81 81
0.00507601067637142 0.0335650846469475 0.0358716502073035 -0.4736696 0.8047211 0.3578563 83 83 83
-0.00302545264149967 0.039294044684179 0.0136545851114021 -0.3489783 0.8827617 0.3145567 79 79 79
0.0522774057111615 0.0209712192523552 -0.00715300894949578 0.8775797 0.4253142 0.2212727 61 61 61
0.0149197177610272 0.0142580673205925 0.0391845955732093 0.02456158 -0.5116265 0.8588569 105 105 105
0.0539339379987591 0.0133862897861077 -0.00152969814512871 0.867856 0.4452658 0.2203733 80 80 80
0.0146799878797406 -0.0117659166347908 0.0237096800687537 0.03425186 -0.5024308 0.8639387 116 116 116
0.046683271380412 -0.0151223733913826 -0.00299728370878838 0.2194399 -0.8685731 -0.4443275 63 63 63
0.0150068597516888 -0.0186969831478523 -0.0301692233202233 0.5216076 -0.8170362 -0.2457181 84 84 84
-0.0517024202623493 0.0200121805179192 -0.000512574684359057 -0.8989491 0.3782624 0.2209256 37 37 37
0.00447233483408627 -0.0320649936687873 0.00146355770852424 0.4500077 -0.8735912 -0.1852875 101 101 101
0.0403769807538861 0.0225840017306878 0.0349998428704963 0.898413 0.3298071 0.289968 69 69 69
-0.0271895332613117 -0.00659604816555248 0.0280077710035072 0.02063828 -0.5080957 0.8610533 228 228 228
-0.0134146614351398 0.0402385398852898 0.00396281026627876 -0.3825038 0.8402309 0.3843213 48 48 48
-0.0196482343950397 -0.0476415946972297 0.0026550545575843 0.421241 -0.8970321 0.1337509 44 44 44
-0.0475466652193195 0.0163505479800774 0.0147298529031501 -0.4503397 0.6777267 0.5812749 18 18 18
0.0484850005826825 0.0214943096149041 0.00779884599473335 0.8791233 0.4180067 0.2289379 73 73 73
-0.0469509763994342 -0.0204261138927864 -0.00877315260145806 -0.923891 -0.3821336 0.01998347 85 85 85
-0.0445825262346393 0.0222789451587273 0.0087142541291938 -0.3058494 0.8498031 0.4292911 63 63 63
0.054886658640849 -0.0140699937832283 -0.00168538547728203 0.3667423 -0.7941019 -0.4846671 72 72 72
-0.0165859861650592 -0.00900872497677074 0.026379640329145 0.01687862 -0.5031925 0.8640095 128 128 128
