ply
format ascii 1.0
comment File exported by Rhinoceros Version 7.0
element vertex 481
property float x
property float y
property float z
property float nx
property float ny
property float nz
property uchar red
property uchar green
property uchar blue
end_header
-0.0672434192649422 0.109639499163918 0.0228767037761987 -0.3267096 0.9371713 -0.1223551 82 82 82
-0.072075329398304 0.104846808886818 0.044079983271438 -0.02734894 0.9256008 0.3775117 55 55 55
-0.0653396469108162 0.102903399443916 0.0469057500732721 -0.0437457 0.9327682 0.3578124 54 54 54
-0.0678828578940925 0.105717751956276 0.040907466448623 -0.08522074 0.878445 0.4701827 59 59 59
-0.0590740066520271 0.106854233718208 0.0396001577747644 0.02532618 0.8777105 0.4785215 64 64 64
-0.0623536330215034 0.108679923987679 0.0383466124904931 -0.02694546 0.8802387 0.4737656 69 69 69
-0.0635131221763191 0.101308319545082 0.0485559642685235 0.001318379 0.9031318 0.4293613 33 33 33
-0.061246893977314 0.102362010455422 0.0473161280525506 -0.0375788 0.902386 0.4292871 22 22 22
-0.0570361834518013 0.102688822722725 0.050024533308822 -0.0562234 0.8653517 0.4980013 38 38 38
-0.0588147264472542 0.104699823832802 0.0462238431347192 -0.03190359 0.913198 0.4062655 56 56 56
-0.052829883670002 0.102661464190773 0.0497361660373987 -0.1050339 0.8729934 0.4762882 18 18 18
-0.0673976164809761 0.109868619418434 0.0316547394169153 -0.3281914 0.9392059 0.1009094 116 116 116
0.102104880238384 0.0163797473671953 -0.0306894838439642 0.9851232 0.1073079 0.1342283 182 182 182
-0.061786375617176 0.111676070666603 0.0265743375194848 -0.2541403 0.9647222 -0.06872962 108 108 108
-0.0576409917823372 0.110988829112343 0.0327370107544244 -0.05813402 0.9222246 0.3822594 75 75 75
0.0811573046692314 -0.0764887595412215 -0.00492886301152101 -0.03443933 -0.9986274 0.0394632 130 130 130
-0.0554852705947456 0.10806247947245 0.0386378407848657 -0.01350342 0.86165 0.5073233 68 68 68
-0.0506351214400825 0.107198510146431 0.042237633503753 -0.2245736 0.8808722 0.4166904 53 53 53
-0.054160438155323 0.112138304686836 0.0336156428230585 -0.1443257 0.8761512 0.459923 73 73 73
-0.0462357026092109 0.10838899371653 0.0404235363376916 -0.2906527 0.8534173 0.432666 64 64 64
-0.0433804017058906 0.11170885322123 0.0369774043930353 -0.2629887 0.8571986 0.4427724 54 54 54
-0.0762589198104439 0.105390880084328 0.00669049624331602 -0.249702 0.9651396 -0.07844985 117 117 117
-0.0749010067931709 0.106121096587471 0.0109984517467798 -0.2610712 0.9626152 -0.07220684 121 121 121
-0.0714723688117561 0.106816205954842 0.00908159617312559 -0.2497541 0.9646933 -0.08360447 112 112 112
-0.0751638036719856 0.105293784117989 0.0028230488670648 -0.2332048 0.9696288 -0.07372673 124 124 124
-0.0705728751174507 0.106706831431679 0.00684525970347533 -0.2552077 0.9617171 -0.09984645 114 114 114
-0.0677176338187752 0.107261333442024 0.00749819878466734 -0.2545581 0.9619818 -0.0989503 113 113 113
-0.0671751123420296 0.1089078521493 0.0175831854713739 -0.2999086 0.9431078 -0.1435353 122 122 122
-0.0650395971290169 0.109373006797127 0.0167214811218561 -0.2980154 0.941493 -0.1574093 119 119 119
-0.0652443390838203 0.108217153525643 0.0114597916973413 -0.2544697 0.9614024 -0.1046458 89 89 89
-0.0640628558150825 0.108286592936806 0.00926190022357115 -0.2374388 0.9651284 -0.1102273 114 114 114
-0.0597140413276253 0.111098859286598 0.016794347800094 -0.2574738 0.950898 -0.1717563 139 139 139
-0.0594076734534797 0.110384795642189 0.0121024191749872 -0.2721757 0.949963 -0.1532666 171 171 171
-0.0710222941390571 0.105510625815682 -0.00250551696888796 -0.2359802 0.9677405 -0.0882697 116 116 116
-0.0635409575454292 0.107905659652046 0.002682083882171 -0.239223 0.9695355 -0.05266308 135 135 135
-0.0699087601653633 0.105522725558571 -0.00867313738934389 -0.2173616 0.9747754 -0.05066444 116 116 116
-0.0645147782317695 0.108103308654122 -0.00270206328503481 -0.2869106 0.9525427 -0.1017097 146 146 146
-0.0606580596915779 0.108607325530342 -0.00469017621151796 -0.2622944 0.9600953 -0.09704928 163 163 163
-0.0556219440452156 0.111621413207344 0.0129067838562311 -0.2618701 0.9536103 -0.1484973 123 123 123
-0.0559665184966621 0.110232088542275 0.00702335838206419 -0.2564704 0.9555721 -0.1452756 130 130 130
-0.0569718104354439 0.109488222575478 0.00169538859255919 -0.2402955 0.9696946 -0.04416463 149 149 149
-0.0553571802131233 0.109916720366768 -0.000905638896149308 -0.2033867 0.9769318 -0.0651014 109 109 109
-0.0527345162383613 0.111355516887001 0.00730239752658018 -0.2413864 0.9589985 -0.1485074 107 107 107
-0.0535778027526436 0.110417995429329 0.00223722461588988 -0.2279077 0.9694045 -0.09117551 126 126 126
-0.0492671948424873 0.111543807959847 0.00317373279460081 -0.2395444 0.9617597 -0.1328037 122 122 122
-0.0597269159308967 0.111581954932503 0.0205440760029138 -0.2749134 0.9508779 -0.1423161 104 104 104
-0.0554700118056831 0.111977372145943 0.0162328720463098 -0.2602826 0.9528437 -0.1560185 125 125 125
-0.0527675968162117 0.113262746310524 0.0180770993603052 -0.239812 0.9567171 -0.1648717 151 151 151
-0.0513212901107368 0.114130768752388 0.0214503646267236 -0.2257977 0.9621978 -0.152285 158 158 158
-0.046772800063282 0.112028334117226 0.0333693266285242 -0.2196473 0.8797674 0.4216211 58 58 58
-0.0423633080474434 0.11345491168528 0.0345500648392023 -0.1849317 0.9045746 0.3841159 70 70 70
-0.0521302443496284 0.111548039889626 0.0089248657596887 -0.2407473 0.95893 -0.1499802 178 178 178
-0.0460443716994819 0.114347729659371 0.0180674136055292 -0.1941243 0.9673573 -0.1628977 148 148 148
-0.0512248497954902 0.112084898925118 0.00773557428248534 -0.237822 0.9595194 -0.150875 129 129 129
-0.0480346899978218 0.111959848380379 0.00457631949313292 -0.2514998 0.9574733 -0.1413954 120 120 120
-0.0397218686095772 0.114809844470314 0.0114584505928338 -0.1830116 0.9787552 -0.0924395 129 129 129
-0.0528352480880317 0.114160213446907 0.0267752647770227 -0.2297291 0.9640117 0.1338135 141 141 141
-0.0513155680648384 0.11429342982798 0.024581635035354 -0.2444267 0.967383 -0.06652651 142 142 142
-0.050493023966938 0.114971492266945 0.0275784671676935 -0.1813263 0.9624349 0.2020887 105 105 105
-0.0457645874969063 0.115715000605873 0.0260901689899743 -0.1443953 0.9834338 0.1095804 144 144 144
-0.0413643342010078 0.11657956597834 0.022963279522735 -0.1249605 0.9921497 0.004887978 95 95 95
-0.0419838052741585 0.115640554404549 0.0206068396938623 -0.1540193 0.9805886 -0.1213429 67 67 67
-0.0370081287375984 0.116250786757759 0.0241929531467737 -0.02556325 0.9971063 0.07159269 109 109 109
-0.0348550897590217 0.116363320327095 0.0237168908489526 0.0409086 0.9978043 0.05208575 55 55 55
-0.0403165441505012 0.114903423762612 0.0126611531151117 -0.1798286 0.9776786 -0.1086566 91 91 91
-0.0327306014052925 0.115806672549538 0.0176937222851098 0.0749513 0.9945592 -0.07234897 53 53 53
-0.0538119894019661 0.098378691649727 0.0568700969589532 -0.1410253 0.9465542 0.2900812 8 8 8
-0.048037551020771 0.0977034902337114 0.060363763607818 -0.215148 0.9713452 0.1009947 4 4 4
-0.0492365580550728 0.101554963565163 0.0528411209953607 -0.2403004 0.8337906 0.4970402 37 37 37
-0.0459979992858467 0.100246760821633 0.0556376219166101 -0.3073956 0.8599322 0.407461 15 15 15
-0.0471580844871101 0.104267630553536 0.0480067074669183 -0.2544244 0.8567599 0.4485875 50 50 50
-0.0421245318404732 0.103148553347878 0.0547521949184717 -0.2944032 0.8247151 0.4828786 39 39 39
-0.0396731716147957 0.104305717921547 0.0535288989914239 -0.2939391 0.8276592 0.4781005 39 39 39
-0.0415379625312385 0.0995871758225481 0.062988662756759 -0.1891884 0.9637569 0.188097 5 5 5
-0.0383172255508003 0.099791798568062 0.0629571617019952 -0.08012498 0.9280581 0.3637143 3 3 3
-0.0394007187835274 0.10012665746241 0.0594893932712854 -0.281876 0.8888312 0.3612825 25 25 25
-0.0346869450561104 0.104572091079048 0.0564469933880151 -0.3032852 0.8451936 0.4400749 35 35 35
-0.0311905961982307 0.104307565665535 0.0598995626343072 -0.2442232 0.8225333 0.5136088 29 29 29
-0.0453663092605171 0.107553932643227 0.0434349120033563 -0.2809406 0.8615004 0.4229532 60 60 60
-0.0388050895682869 0.107919964766792 0.0478584707153619 -0.3272425 0.8418294 0.4292268 48 48 48
-0.0449967604629097 0.108597073531441 0.0415340900791467 -0.2840575 0.8566107 0.4307312 65 65 65
-0.0411584001533088 0.112744245505623 0.0381963491810144 -0.2151832 0.8872178 0.408094 65 65 65
-0.0356525403014717 0.109579358077339 0.0469651759041131 -0.290707 0.8678439 0.40291 52 52 52
-0.0369891744605598 0.105417284941963 0.0528908908737482 -0.3076726 0.8394899 0.4478775 36 36 36
-0.0358238440505562 0.10751727578669 0.0509824693573297 -0.3163173 0.8408989 0.4391269 32 32 32
-0.0312505584708748 0.109247181392006 0.0509826779735864 -0.2496504 0.8646736 0.4359064 42 42 42
-0.0305153351775703 0.107739243483833 0.0546899378670038 -0.2575223 0.8512623 0.4572032 48 48 48
-0.0327335220328865 0.108791682696633 0.0502854526413263 -0.2675871 0.8567355 0.4409097 34 34 34
-0.0273878198615608 0.109304938292793 0.0522009969127954 -0.1814426 0.8885442 0.4213879 48 48 48
-0.0337960940352974 0.093051645732216 0.0687908172977746 0.2180596 0.5616005 0.7981572 58 58 58
-0.0246217471114692 0.094325158572487 0.0645049751175226 0.09421536 0.4814163 0.8714136 53 53 53
-0.027597687815815 0.104465875602059 0.0609202623737634 -0.1202701 0.7713287 0.6249697 27 27 27
-0.0208280306808052 0.1090099549058 0.0579646766556085 -0.1783643 0.9125982 0.3679004 30 30 30
-0.0182929259292183 0.108215663409523 0.0590774357689203 -0.1354665 0.9214312 0.3641613 52 52 52
-0.0128833275786934 0.10960045812159 0.0570729017628015 0.02045847 0.9635062 0.266903 54 54 54
-0.00540640172877882 0.0957667565110246 0.0668566763771356 -0.06448483 0.4918278 0.8683013 25 25 25
-0.00757654724040602 0.0978781318429033 0.0629949212444604 -0.0686336 0.5421576 0.8374692 46 46 46
-0.0373060327521858 0.112641367888741 0.0356602907551111 -0.04282272 0.9406446 0.3366807 33 33 33
-0.0316956859580574 0.111774954772286 0.0387753487003625 -0.05795735 0.9677674 0.245086 28 28 28
-0.02939423141399 0.112033519721321 0.0384932995212854 -0.04430881 0.9666352 0.2522959 44 44 44
-0.0314233523360786 0.114296708083443 0.0329892278087915 -0.01295359 0.9529518 0.3028449 53 53 53
-0.0274109464637337 0.11070832965403 0.0414940357578577 -0.07462251 0.9861102 0.1483856 39 39 39
-0.0236288529388008 0.111879441714577 0.0448682845009149 -0.03452863 0.9858908 0.1637897 43 43 43
-0.0279060822478828 0.112473580813698 0.0391837895286859 -0.07895888 0.9753079 0.2062524 22 22 22
-0.0238855105392036 0.112535748458199 0.0386590302360834 0.0509068 0.9902766 0.1294637 60 60 60
-0.0251881700507698 0.113904151892952 0.0350358724964441 0.1399751 0.970831 0.1946642 49 49 49
-0.0208025794974861 0.11203250644236 0.0409887075794519 0.09812395 0.9904936 0.09640619 50 50 50
-0.0173449736587105 0.111389312720589 0.0413913369549097 0.09903152 0.9943911 0.03713565 68 68 68
-0.0261220556251106 0.115107808089546 0.0295377016437829 0.2089459 0.9653217 0.1565106 45 45 45
-0.0259387713424263 0.115339729762367 0.0191804409397424 0.09983733 0.9948217 -0.01903182 50 50 50
-0.0209067088119087 0.114298734641365 0.0254899204147638 0.2172491 0.9623404 0.1634131 85 85 85
-0.0253480893127022 0.113680098033241 0.0337713301552118 0.1721133 0.9637466 0.203886 48 48 48
-0.0208760720244942 0.112319443202309 0.0318236291778863 0.2070343 0.9671515 0.147495 55 55 55
-0.0174570303908882 0.111961934542946 0.0349328756702722 0.112257 0.9907262 0.07654985 35 35 35
-0.021004281615406 0.113905463195137 0.0285235286129297 0.2263616 0.9594142 0.1681806 75 75 75
-0.0138114911071358 0.112303945994667 0.0306182146442712 0.0703241 0.988646 0.1327915 24 24 24
-0.011601946925312 0.111460361457161 0.0323370337856592 0.1415066 0.9806687 0.1351469 40 40 40
-0.0369478684417305 0.115607473826698 0.0290100515259088 0.001428139 0.962279 0.272061 49 49 49
-0.0337785106650886 0.116163525557808 0.024668270386535 0.06578647 0.9934981 0.09291714 43 43 43
-0.0275993567458687 0.115678343749336 0.0249551177395166 0.1553524 0.9860089 0.06043226 49 49 49
-0.0284027081481514 0.115336809134773 0.0217017174137414 0.1411623 0.9891488 -0.04071699 40 40 40
-0.0193849426261482 0.111525807357124 0.0492446959389032 0.003447856 0.9830278 0.1834242 41 41 41
-0.0106402259818611 0.110574874854378 0.0533522904289545 0.1456778 0.9771196 0.1549688 67 67 67
-0.00900187311091993 0.110203597522072 0.0490395069492639 0.2351843 0.97082 0.04687035 55 55 55
-0.00560744819560621 0.109173688864998 0.0570497751606286 0.1188425 0.9927661 0.01708769 49 49 49
-0.00888469037929152 0.109742436385445 0.0544767022503198 0.1560256 0.9778943 0.1392076 73 73 73
-0.00349654970088575 0.109019789672188 0.0568181217087091 0.1011602 0.9908401 -0.08945645 18 18 18
-0.00299181756892775 0.108260009265236 0.0526213288677514 0.1756075 0.9844425 0.0059218 29 29 29
-0.00282343444743727 0.108105931258492 0.0548460424316705 0.1107907 0.9923093 -0.05520569 37 37 37
0.00433383169254686 0.108372065997414 0.0530974209678949 -0.1656614 0.9822311 -0.08819528 42 42 42
-0.0109896284095344 0.110882971263222 0.0391259730232538 0.1960326 0.9798387 0.0385664 51 51 51
-0.00665547666469191 0.109159443354897 0.041626507080871 0.2825428 0.9592364 0.005928989 63 63 63
-0.00977709112086866 0.110609862780861 0.0420931220424951 0.2519086 0.9677495 -0.001730006 144 144 144
-0.0050906163207588 0.108654174781136 0.0380583942306817 0.2360506 0.9699773 0.05851703 41 41 41
-0.00140311536708448 0.108146939254097 0.0482970714939416 0.134227 0.9908934 0.01064936 21 21 21
0.0022534507759514 0.108050200915627 0.0462576985729516 -0.05648866 0.9984024 0.001294827 19 19 19
0.00710807027897264 0.109139118171028 0.049155437983352 -0.1458723 0.9887779 -0.03224104 49 49 49
0.00612322273334887 0.108510229564003 0.0470236778629602 -0.143051 0.9894046 -0.02479801 43 43 43
0.0090770501144829 0.109180424189858 0.0452166736496271 -0.1904657 0.9816895 -0.002917922 37 37 37
-0.0629496794692573 0.107118997550301 -0.00933665629498354 -0.282662 0.9545424 -0.0946096 116 116 116
-0.0626838427535591 0.107253584838204 -0.0119729101287543 -0.2211453 0.9618231 -0.1612173 133 133 133
-0.06195118245998 0.107476923442177 -0.00894517298809877 -0.2727213 0.9573513 -0.09540275 138 138 138
-0.0599493604651985 0.108316574073128 -0.0109191000091254 -0.1910742 0.9693489 -0.1544452 128 128 128
-0.0571946125976143 0.108904752707771 -0.00874931212536684 -0.1835805 0.9744322 -0.1295383 114 114 114
-0.0612342577926216 0.105436775660805 -0.0192040562259375 0.1051368 0.7494665 -0.6536407 233 233 233
-0.0607517581931648 0.106854829764656 -0.0166309833156287 -0.05252282 0.8993605 -0.4340416 195 195 195
-0.0552725416175422 0.108193252063088 -0.0111783802138983 -0.06034832 0.9718485 -0.2277467 119 119 119
-0.0548060160628853 0.110021326518349 -0.00327292677037111 -0.1901509 0.9787176 -0.07716502 99 99 99
-0.0522339564315376 0.110290560698799 -0.0043720662223517 -0.1325818 0.9808425 -0.1427234 102 102 102
-0.0497209650031624 0.110825750804238 -0.0035522043334662 -0.1278012 0.9734576 -0.1898609 140 140 140
-0.053544781779438 0.108494315123848 -0.0114192425834357 -0.0005416258 0.9669384 -0.2550096 92 92 92
-0.0538494807235298 0.108839127993874 -0.0102358519660651 -0.02099426 0.9722616 -0.2329519 58 58 58
-0.0497139912597236 0.10931513068705 -0.0111198484527289 0.02417707 0.9500004 -0.3113112 101 101 101
-0.0450213175765571 0.11021206138163 -0.00562301870457521 -0.05605459 0.9401563 -0.3361012 85 85 85
-0.0437238436690864 0.11009011027842 -0.00735074874035707 -0.01920437 0.9378083 -0.3466219 87 87 87
-0.058229885672718 0.100248906588844 -0.0250860511886298 0.1384662 0.9374526 -0.3193898 52 52 52
-0.0531972270957527 0.101681921458534 -0.0189251064883887 0.1724571 0.7849771 -0.5950374 56 56 56
-0.0546621304503975 0.0990662312272111 -0.0272965490447699 0.09306876 0.9724544 -0.213707 59 59 59
-0.0548385005942879 0.0991257762673418 -0.0303326010333716 0.09660818 0.9900256 -0.1025488 93 93 93
-0.0495045405379829 0.100424919104866 -0.0214320778476416 0.0965057 0.9488119 -0.3007369 14 14 14
-0.0615348440162239 0.10234788415461 -0.0213637411224066 0.1718742 0.8309773 -0.5290899 133 133 133
-0.0589571219436226 0.105119500136665 -0.0190826713668524 0.1215831 0.7274977 -0.6752515 178 178 178
-0.0531230193130073 0.103029344058327 -0.0176977872478186 0.1939189 0.6764459 -0.7105043 89 89 89
-0.0486698966971931 0.101036164737038 -0.0186592995750128 0.0874473 0.8323093 -0.5473703 110 110 110
-0.0467409711829719 0.100382361388497 -0.0192683100330054 0.0660163 0.8758029 -0.4781329 30 30 30
-0.0434784513465462 0.103129956698708 -0.0168565570937811 0.05652395 0.7260959 -0.6852662 107 107 107
-0.0411473136893806 0.0999748444321672 -0.021150147877854 0.1993329 0.8537444 -0.4810269 81 81 81
-0.0413964611045418 0.102861735797218 -0.01694179173581 0.08659095 0.7499694 -0.6557804 172 172 172
-0.037351093863636 0.103600892997078 -0.0150982200729071 0.1481871 0.7392705 -0.6569015 145 145 145
-0.0477386933318672 0.107283029532723 -0.0141978621112525 0.1474948 0.8109269 -0.5662533 91 91 91
-0.049115739440113 0.105195853686623 -0.0166397153960883 0.1605305 0.5803497 -0.7983885 106 106 106
-0.0456154566756782 0.104076061225228 -0.0159167110549628 0.1120845 0.6243907 -0.7730287 97 97 97
-0.0451559644691047 0.107245955443672 -0.0134064912425696 0.1101463 0.7560189 -0.6452157 64 64 64
-0.0456249934188423 0.108738336539559 -0.0114578663932501 0.02397095 0.8859649 -0.4631324 42 42 42
-0.0432862263671455 0.10539952275782 -0.0146187901126563 0.1400005 0.6603755 -0.7377697 120 120 120
-0.0412214022628364 0.107871863818459 -0.0119681715594946 0.1029871 0.7843448 -0.6117164 94 94 94
-0.0393616777411995 0.108112964606575 -0.0110347926246344 0.1226829 0.8071916 -0.5773999 116 116 116
-0.0385139208785591 0.105709943747811 -0.013600623570603 0.1664874 0.6937803 -0.7006789 115 115 115
-0.0448729020110664 0.112092647528938 0.0029557884109796 -0.2719013 0.9518808 -0.1413956 108 108 108
-0.0431525927535591 0.113105092025093 0.00116136077769408 -0.2522671 0.9465983 -0.200781 88 88 88
-0.0414862853042183 0.114118072963051 0.00501566532977232 -0.1984029 0.97511 -0.0989785 78 78 78
-0.0424438339225349 0.113248441195778 -0.00117317434422365 -0.2050181 0.9271527 -0.3136167 93 93 93
-0.0421170216552315 0.110577318644814 -0.00629106756321779 -0.01163633 0.9174896 -0.3975895 69 69 69
-0.0358829122535286 0.114714655852608 0.00256037119753966 -0.004927167 0.9773812 -0.2114279 100 100 100
-0.0349804383269844 0.113973948931984 0.00130611065753111 0.01356427 0.965046 -0.2617292 116 116 116
-0.0321651321403084 0.114801738238625 0.00835585001834044 0.0115528 0.9943478 -0.1055418 90 90 90
-0.0312043052665291 0.115017745471291 0.00521379116900572 0.01670166 0.9838477 -0.1782266 152 152 152
-0.0301339250556526 0.114632163024239 0.00446330908663878 0.006238507 0.9799359 -0.1992155 164 164 164
-0.035113237475544 0.102115664458565 -0.0153377711402594 0.1523448 0.7598596 -0.6319846 52 52 52
-0.036831758593708 0.107798073268227 -0.0110323190318762 0.1511947 0.7303379 -0.6661431 95 95 95
0.0852101224907341 0.109888944602303 0.0153730452431024 0.6837384 0.7245752 0.08656012 163 163 163
-0.0371949892989692 0.110422883010201 -0.00535479780308595 -0.02634685 0.8761694 -0.4812826 66 66 66
-0.0360023599616585 0.112316641784004 -0.00321964021794191 -0.03595382 0.8833392 -0.4673533 77 77 77
-0.031116746043354 0.112618658519081 -0.00280076857678285 0.04523537 0.8774706 -0.4774926 134 134 134
-0.0373139005652962 0.105699155307106 -0.0129805266486823 0.1677663 0.6945576 -0.6996029 96 96 96
-0.0329638939849434 0.105855021453194 -0.0117264151202857 0.1745178 0.6991181 -0.6933812 97 97 97
-0.0340873223296699 0.104694757437996 -0.0136256575214087 0.1698674 0.7154417 -0.6777081 124 124 124
-0.0293672901145515 0.107766959643654 -0.0090446531402289 0.1607771 0.7349187 -0.6588211 121 121 121
-0.0277681570998726 0.10940137860804 -0.00677744146458498 0.1338753 0.7522379 -0.6451477 126 126 126
-0.0266469341270027 0.107182476496987 -0.00892881151310793 0.1055143 0.7409336 -0.6632376 96 96 96
-0.0293279510489998 0.112965974784187 -0.00132850404850832 0.04007624 0.9218041 -0.3855789 96 96 96
-0.0268316489211616 0.114582869983009 0.00281491283305296 -0.02004083 0.9671177 -0.2535385 126 126 126
-0.0242894512168464 0.113377783274941 7.74205101312098E-05 -0.003182528 0.9349723 -0.3547064 85 85 85
-0.0215952020637092 0.114097390151314 0.000285649336654037 -0.0311532 0.9348139 -0.353769 145 145 145
-0.0251497846595344 0.10930589196711 -0.00641304846875063 0.07891259 0.761473 -0.6433753 94 94 94
-0.0270755511275825 0.10978481528788 -0.0057150780784308 0.1059288 0.7588322 -0.6426141 84 84 84
0.0692094940193596 -0.076643075966545 -0.00499269958607546 0.04379148 -0.9879394 0.1485196 70 70 70
-0.0190056782714424 0.113011751151375 -0.000911360942047745 -0.005959566 0.889929 -0.4560601 123 123 123
-0.0168842297545967 0.112830612635903 -0.00235346552006593 0.01364863 0.8466688 -0.5319452 132 132 132
-0.0333862524978218 0.115457150912575 0.0109917760265649 -0.01657913 0.9979034 -0.06256109 79 79 79
-0.0526089888564644 0.097895715213112 -0.0314906298743903 0.09914698 0.9935405 -0.05520108 56 56 56
-0.0525580864898262 0.0984786486390153 -0.0332206844913184 0.07793983 0.9954355 -0.05507846 113 113 113
-0.0498237830153999 0.0986644363167802 -0.0350148439037024 0.1293848 0.9913729 -0.02096074 93 93 93
-0.0450504642478523 0.0973219012978593 -0.030842280350846 0.2217206 0.9631119 -0.1524976 50 50 50
-0.0419840436927376 0.0969848370316545 -0.029078489504975 0.3215432 0.9298551 -0.1788279 30 30 30
-0.0453940254203377 0.0994986629250566 -0.0257076680289923 0.192027 0.9206246 -0.3399647 44 44 44
-0.0439063530913887 0.0982004737618486 -0.027082627974671 0.2722938 0.9049602 -0.3269606 40 40 40
0.0973706025131645 0.0348407363656084 0.0167962253464044 0.9978681 -0.04076135 0.05096732 105 105 105
-0.0475895625106392 0.0976523494484941 -0.0374371766673743 0.1737354 0.9822071 -0.07131013 74 74 74
-0.0430181842795906 0.0965636706116716 -0.0324927329646765 0.2218874 0.9743629 -0.03718744 140 140 140
-0.0408517938605842 0.0962016916039506 -0.0314090907203375 0.2253733 0.9733574 -0.0422174 34 34 34
-0.040490410899311 0.0961888170006792 -0.0339112937080084 0.1985577 0.9799413 0.01702744 140 140 140
-0.0411271077148018 0.0974441504242937 -0.0256302117931067 0.3517852 0.866511 -0.3541269 48 48 48
-0.04030492124477 0.0977855658295671 -0.0237758814918219 0.2993482 0.8380321 -0.456172 96 96 96
-0.0333606225005684 0.0976353025200883 -0.0228661954032599 0.04479747 0.8018339 -0.5958654 74 74 74
-0.0380026322356758 0.100391838527016 -0.0199064969646155 0.1355594 0.8267393 -0.5460091 76 76 76
-0.0346416455260811 0.100859615779213 -0.0182269274818121 0.1065919 0.8252465 -0.5546228 99 99 99
-0.0348849516860542 0.0944761967423479 -0.028265660964173 0.1668748 0.9808132 -0.1007882 10 10 10
-0.0374647003165779 0.0955143308404008 -0.0328738748656928 0.2181953 0.9758341 0.01177151 47 47 47
-0.0335220914832649 0.0947547292473833 -0.0267525970565497 0.1196865 0.9544955 -0.2731548 58 58 58
-0.0311514955512581 0.0955872273209611 -0.0249846338855444 0.03366536 0.8863794 -0.4617339 129 129 129
-0.0451839786521492 0.0962528323891679 -0.0431962370502173 0.1458658 0.9654855 -0.2157796 77 77 77
-0.0409642082206306 0.0964273547890703 -0.0412904679404913 0.1621448 0.9792935 -0.1212162 74 74 74
-0.0390248518935737 0.0966673826935808 -0.035666829310578 0.2305495 0.972616 0.02941301 104 104 104
-0.0370209437362251 0.0955987906220476 -0.0396794736015021 0.2564297 0.9648474 -0.05756135 133 133 133
-0.0410206538192329 0.0956948733094255 -0.0453486501800238 0.12915 0.968123 -0.2146119 59 59 59
-0.0392138582221565 0.0943705177071611 -0.0478996395694434 0.1777578 0.9503956 -0.2552455 61 61 61
-0.0369879227630195 0.0942830776932756 -0.0475060402976691 0.2252818 0.9433178 -0.2437206 71 71 71
-0.0349130254737434 0.0947435235741655 -0.0429049789535224 0.3270559 0.93463 -0.1396465 92 92 92
-0.0350170951835213 0.0945302581551591 -0.0436921774970709 0.323759 0.929753 -0.1753267 88 88 88
-0.0327906828872261 0.0933875775101701 -0.04538217779271 0.3608587 0.9129583 -0.1904941 96 96 96
-0.0309853178016243 0.0945717429879228 -0.0312176704036414 0.1749237 0.9839746 -0.03457932 44 44 44
-0.0301914435378609 0.0946238374474565 -0.0320488273727118 0.1748819 0.9833317 -0.0497503 47 47 47
-0.0285907608024177 0.0940263008835832 -0.0341947733985602 0.16973 0.9813174 -0.09059738 37 37 37
-0.0336461883536873 0.0945735907319109 -0.0393234252559363 0.3108897 0.9474166 -0.07582465 114 114 114
-0.0311262827865181 0.0996955370667497 -0.0195945858585059 0.06706596 0.8668857 -0.493975 93 93 93
-0.0288647633544502 0.0994112229111711 -0.0196062385665595 0.06490701 0.8732018 -0.4830174 79 79 79
-0.0249079686156807 0.102019879794411 -0.0138386547195136 0.03542834 0.7815726 -0.6228074 74 74 74
-0.02325089988628 0.101552221751503 -0.0150669872390448 -0.003211145 0.8139848 -0.5808772 109 109 109
-0.0289851647368965 0.0967807507279436 -0.0241963922607123 0.02504756 0.8392369 -0.5431888 99 99 99
-0.0261231285087166 0.0991742944481889 -0.020128464661759 0.03674855 0.8737113 -0.4850547 92 92 92
-0.0231142860404548 0.096345696425728 -0.0235443770515143 -0.02738401 0.8387717 -0.5437942 66 66 66
-0.0232414227477608 0.100541565394692 -0.0169562756644904 0.0282654 0.8672323 -0.4971008 101 101 101
-0.0207743268958626 0.100229892707161 -0.0166100024806677 -0.01066552 0.8503579 -0.5260966 86 86 86
-0.015519342993885 0.101874027228645 -0.0153586029636084 -0.1682823 0.7658272 -0.6206365 86 86 86
-0.0231215578071174 0.106369290328316 -0.00951874848477235 -0.02539473 0.739104 -0.6731125 80 80 80
-0.0194218379012642 0.106207821345619 -0.0103585779296576 -0.11047 0.7683988 -0.6303647 64 64 64
-0.0164046507827339 0.109212491488747 -0.00701350566021791 -0.06133356 0.8197781 -0.5693874 121 121 121
-0.0137592774383125 0.109831664538674 -0.00562248226277223 -0.0224426 0.8327087 -0.5532565 84 84 84
-0.0133208852759895 0.105570290065102 -0.012593543492478 -0.1533046 0.7536427 -0.639156 98 98 98
-0.00897755441585157 0.106015477156929 -0.0128989278899848 -0.1415026 0.8219594 -0.551688 75 75 75
-0.0241055708877144 0.093410704112343 -0.0294859468566596 -0.01167853 0.9702435 -0.2418495 39 39 39
-0.0178653222075996 0.0973375177147905 -0.0232068061458289 -0.1213355 0.8864661 -0.4466044 50 50 50
-0.0198572498313484 0.0933921670678178 -0.0292206167804419 -0.03449528 0.9471921 -0.3188057 42 42 42
-0.0191391330710945 0.0932292675736467 -0.0335671364890753 0.06745144 0.9902247 -0.1220876 31 31 31
-0.0133707743636665 0.093805048442177 -0.0291764795409857 0.1471151 0.8378432 -0.5257147 80 80 80
-0.0136313062659797 0.0928430294755022 -0.0302024244891821 0.1662776 0.8792925 -0.4463142 15 15 15
-0.0127383094779548 0.100053343749336 -0.0195666014777838 -0.1950106 0.8465823 -0.4952466 67 67 67
-0.00859209117808912 0.104301366782478 -0.0150488972293555 -0.1997915 0.7782871 -0.5952752 134 134 134
-0.00944938478389357 0.101218852973274 -0.0192753731834113 -0.2461534 0.8231581 -0.5116827 52 52 52
-0.00601144847789381 0.102965090251259 -0.0183390438186347 -0.2180095 0.8308443 -0.5120251 78 78 78
-0.0113369446746406 0.0948070025208513 -0.0276292621719061 0.0634362 0.7109244 -0.7004015 113 113 113
-0.00896193799892042 0.0970090961220781 -0.0263631701099097 0.01455317 0.6595619 -0.7515093 82 82 82
-0.00453480300822828 0.0957715844872514 -0.0258169233428656 -0.002225228 0.5090412 -0.8607393 112 112 112
-0.00527211246409987 0.100591037249855 -0.0215591251479804 -0.229349 0.8333549 -0.5029101 80 80 80
-0.00312783536830519 0.101305577731423 -0.0231752752887427 -0.2043869 0.7568409 -0.6208203 90 90 90
-0.0245499235145149 0.114702317691139 0.0139884889496149 0.009780615 0.998433 0.05509937 85 85 85
-0.021799347972065 0.114447686648659 0.0145876050365747 -0.000525912 0.9967641 0.08038048 68 68 68
-0.018133781527668 0.1144010162118 0.0197113693130792 0.1312368 0.9812335 0.1412721 50 50 50
-0.0225636583320198 0.114915165877632 0.0126598418129266 -0.009735885 0.9980252 0.06205463 46 46 46
-0.0172145586959419 0.115573677993111 0.0129250526798547 -0.05291924 0.9940405 0.09530433 61 61 61
-0.014799140071064 0.115395579314522 0.0151029169929803 -0.02446123 0.9821852 0.1863168 91 91 91
-0.0143805366508064 0.112589511847786 0.0258952618015588 0.113811 0.9810465 0.1568272 63 63 63
-0.0110399943343696 0.112598273730568 0.0266224384678186 0.03571296 0.988011 0.1501961 45 45 45
-0.00945290145793531 0.112759087062172 0.0273092031849206 0.09127049 0.9790792 0.1818614 34 34 34
-0.00936593828120802 0.112902376628212 0.0245708465946496 0.02944469 0.9876699 0.1537566 47 47 47
-0.00988348541179274 0.115412566638283 0.0171307862175287 -0.05824331 0.9471205 0.3155479 71 71 71
-0.00469245729365919 0.112627241587929 0.0234433055294336 0.009728367 0.9424189 0.3342932 36 36 36
-0.0176213007918892 0.115627381778053 0.0069274247062982 -0.02898981 0.9910743 -0.1301201 120 120 120
-0.0155418139449653 0.115791890597634 0.00886508230097899 -0.03588296 0.998459 -0.04233297 111 111 111
-0.0134912353507576 0.11589220521479 0.0088338196647943 -0.01441227 0.9972923 -0.07211412 161 161 161
-0.0143266540519295 0.1121558284524 -0.0027076363193213 -0.007105393 0.8336889 -0.5521886 132 132 132
-0.0111904364577827 0.115218434310249 0.0047277450931848 -0.06391723 0.9769331 -0.2037555 112 112 112
-0.0100374442092476 0.114486131644539 0.000782513655501693 -0.0884321 0.9073377 -0.4109965 155 155 155
-0.0110078078261909 0.115999135947518 0.0126173735035242 -0.07250972 0.9962559 0.04708101 74 74 74
-0.00489481506267164 0.116105649447731 0.0127167344463647 -0.1038368 0.9935426 0.04572797 117 117 117
-0.00269021806636427 0.114733133292488 0.0192998290432275 -0.1903327 0.8889019 0.4166857 85 85 85
-0.00292458352962111 0.11658242700129 0.0155112386120141 -0.09238489 0.9754938 0.1996921 122 122 122
-0.00449689445415113 0.116427514529518 0.00573422912486204 -0.07764112 0.9875051 -0.1371329 163 163 163
0.00136665287098314 0.116483006453804 0.0111561060322107 -0.09425063 0.9921111 -0.08265844 131 131 131
-0.00915875253596876 0.116582546210579 0.011385434902984 -0.08399459 0.9962586 -0.02034249 109 109 109
-0.00290849027553175 0.117049548602394 0.0130268276108087 -0.0685222 0.9976315 0.006014404 139 139 139
-0.00425674734035109 0.110517535186104 0.0293020546806634 0.1321816 0.9478629 0.2899723 71 71 71
0.00321386041721727 0.109496567225746 0.0329307258499444 -0.1260896 0.96577 0.226693 44 44 44
-0.00253006038585279 0.112660381770424 0.0249729991329492 0.01300952 0.9362409 0.351118 77 77 77
0.00453714313587572 0.110179398036293 0.0312887967003168 -0.1601601 0.9455504 0.2833428 51 51 51
0.00553689184269335 0.112130258059792 0.0263985932243646 -0.2273704 0.877764 0.4217024 80 80 80
0.00689438762745287 0.109815928912453 0.0374244988334955 -0.1942491 0.9677016 0.1606889 43 43 43
0.00694600524982836 0.109991524195961 0.0347781718147577 -0.2276311 0.9509996 0.209246 41 41 41
0.0118461030968132 0.110732707953743 0.0380903423202814 -0.26086 0.9486 0.1791928 44 44 44
0.102163650418133 -0.0759867692229231 -0.000575369559448868 0.3435504 -0.9377059 -0.05177696 107 107 107
0.0116727727898064 0.111071202731423 0.0342115402592004 -0.3040848 0.9084997 0.2866368 28 28 28
0.0138754028328362 0.112424943423561 0.0332580745590509 -0.3577615 0.8781341 0.3176275 60 60 60
0.00120589914402391 0.114470574832253 0.0209066808594049 -0.181763 0.8659583 0.4659169 82 82 82
0.00726858558735277 0.114482495761208 0.023771727122146 -0.2631493 0.8421018 0.4707623 64 64 64
0.009252168560833 0.113044116473488 0.0279118061435998 -0.3138233 0.8623531 0.3973185 65 65 65
0.0129461664207878 0.114920113063149 0.0269681752098382 -0.3287754 0.8463748 0.4189946 37 37 37
0.0134297985084953 0.113394234156899 0.0305415630710901 -0.3319021 0.8606963 0.3860609 61 61 61
0.0186203497894707 0.114810321307472 0.0317951679600061 -0.3413026 0.8697759 0.356374 68 68 68
0.00220272722324755 0.116927418685249 0.0183860898388208 -0.1833696 0.9425476 0.2792484 72 72 72
0.00626186313709642 0.11780426261454 0.0183474958313287 -0.1561909 0.9495476 0.2719628 54 54 54
0.0103499073036614 0.118001494384102 0.0204032302273096 -0.21924 0.9198827 0.3251916 64 64 64
0.0156872052200737 0.11763313767939 0.024101191796142 -0.3158725 0.867498 0.3842809 84 84 84
0.0211731571205559 0.119390103793434 0.0256583929432214 -0.1840907 0.9462394 0.265973 56 56 56
0.02278683366856 0.119272146201424 0.0231728494537652 -0.0915455 0.993066 0.07375154 58 58 58
-0.0101240497581062 0.111288759684853 -0.0037840067969977 -0.03722175 0.8176796 -0.574469 55 55 55
-0.00549819288173292 0.114118728614144 -0.00089875455967775 -0.1016162 0.8508575 -0.5154761 49 49 49
-0.0052347403518257 0.108469161963753 -0.0094118177520453 -0.08855198 0.8837436 -0.4595169 76 76 76
-0.00516393003383253 0.109906587577156 -0.00585860606304994 -0.07535118 0.8452681 -0.5290029 92 92 92
-0.000707350348621349 0.109423491931252 -0.00746828909985414 -0.02352306 0.8930898 -0.4492631 86 86 86
-0.00269468841472242 0.112862799144081 -0.00263107415310732 0.0076368 0.781711 -0.623594 94 94 94
-0.00361301717677687 0.116218123412422 0.00377809409030089 -0.05775382 0.9768351 -0.2060525 130 130 130
-0.00072338399806593 0.116597685790352 0.00510399941332945 -0.03607411 0.9896127 -0.1391594 144 144 144
-0.0029388886443672 0.114982221103005 0.000255012549239486 -0.04978924 0.8832936 -0.4661689 44 44 44
0.000860251808971424 0.115990910506539 0.00103815797694334 0.1174098 0.8797998 -0.4606161 102 102 102
0.0029970187195244 0.116880092597298 0.00907939080126891 -0.07013138 0.9926138 -0.09899213 148 148 148
0.00316540184101488 0.111780438399605 -0.0029769897090613 0.125446 0.8224938 -0.5547678 79 79 79
-0.000902257537036877 0.114594910121254 -0.00187028046719423 0.06328534 0.7908866 -0.6086816 66 66 66
0.00427541914066698 0.113794717765144 0.000238293446379989 0.1548461 0.8274975 -0.5396949 112 112 112
0.00704500856480028 0.116515431380562 0.00282856229670653 0.05153387 0.8944706 -0.4441471 136 136 136
-0.00247933683314894 0.104298326945595 -0.0169583618270575 -0.1492494 0.8231946 -0.5477912 73 73 73
-0.00152399358668898 0.103041980243019 -0.0183737933265387 -0.1513638 0.8619359 -0.4838962 49 49 49
3.10319908561896E-05 0.102870378470711 -0.0206443130599677 -0.15138 0.8759652 -0.4580055 90 90 90
-0.00408073482432936 0.107548210597328 -0.0119347929584204 -0.1152071 0.8782128 -0.4641871 69 69 69
-0.000944099997669201 0.10884669778376 -0.00959426756970277 -0.07322755 0.9094284 -0.4093626 89 89 89
0.00209412756046679 0.109292600131325 -0.00899386998288026 -0.07342944 0.9351202 -0.3466387 47 47 47
0.00199512424549486 0.105961117720894 -0.0155500828849494 -0.1479239 0.8421865 -0.5184982 66 66 66
0.00661668958744432 0.107459101653389 -0.0146337210761725 -0.1190122 0.8856524 -0.4488384 63 63 63
0.00499311866840746 0.105731520629219 -0.0186735450851142 -0.1305234 0.8423136 -0.5229449 65 65 65
0.0103921073921623 0.110282812094978 -0.00719309445492616 -0.01475662 0.9606808 -0.2772628 112 112 112
0.00672010364612963 0.109151515937142 -0.0112346171962439 -0.08523403 0.9431428 -0.3212737 32 32 32
0.0112499970444145 0.108921561217598 -0.0126579165088355 -0.02693014 0.9340867 -0.3560293 47 47 47
0.0119630474098625 0.10936031100779 -0.0112927317248999 -0.02982028 0.9426808 -0.3323607 77 77 77
0.00985542717060472 0.117305908179573 0.00924357179530272 -0.06483474 0.9841943 -0.1647969 74 74 74
0.0123590010651055 0.114441070533089 0.00216248039134154 0.02600016 0.796203 -0.6044707 80 80 80
0.0152334946640434 0.116913173175148 0.00433965925105223 0.03968776 0.8929815 -0.4483402 149 149 149
0.0158360380180779 0.117249760604195 0.0102178395164789 0.07124767 0.9857177 -0.1525925 80 80 80
0.0168286937721672 0.116430792784981 0.00821977261431822 0.09623322 0.9827622 -0.1578529 102 102 102
0.0204993266113701 0.117851469493202 0.0148502827060998 -0.004722298 0.9711837 -0.2382855 86 86 86
0.0220527428635063 0.116686675525002 0.0110415459049524 0.008215977 0.9785936 -0.2056381 79 79 79
0.0146393555649224 0.111524078822426 -0.00309834476582399 0.02310005 0.9420914 -0.3345596 48 48 48
0.0134859460838738 0.112325165248207 0.000249022282439559 0.03046832 0.8299203 -0.5570493 55 55 55
0.0161850232132378 0.116383287883095 0.00337245468028197 0.04463523 0.8148506 -0.5779501 134 134 134
0.0203517455109062 0.113991651511482 0.00276892784960875 0.04313857 0.8246756 -0.5639585 97 97 97
0.0219161290176811 0.112936351275734 0.00246449712641844 -0.02178947 0.8602808 -0.5093548 73 73 73
0.0207769054420891 0.110883746123604 -0.00505099292866579 -0.03559356 0.9464875 -0.3207716 64 64 64
0.0213189500816765 0.111667249179176 -0.00283119674794069 -0.04287304 0.9378034 -0.3445092 63 63 63
0.0227309841164055 0.112699720835976 -0.000942265950363785 -0.08309965 0.9033755 -0.4207222 57 57 57
0.0226604718216362 0.116274330592446 0.00689863566287169 0.03317673 0.960638 -0.2758149 97 97 97
0.0250603336342278 0.113945100283913 0.00224890712626585 -0.1097346 0.8787076 -0.4645764 30 30 30
0.0271506685265007 0.116897854781441 0.0103984117878259 -0.06904835 0.9794632 -0.189431 84 84 84
0.0302828330048027 0.116537842726998 0.0069591641796411 -0.07834544 0.9661741 -0.2457024 79 79 79
0.0268458503731194 0.113658759570412 0.000444316901046127 -0.1059594 0.8863167 -0.4507942 63 63 63
0.0283595699318352 0.113993082022957 0.000431501902419418 -0.121558 0.8860494 -0.4473702 38 38 38
0.0347006100662651 0.116363439536385 0.00468965772517332 -0.104055 0.9300859 -0.3522964 63 63 63
0.00995401325306322 0.118322763419441 0.0139968932045282 -0.07397909 0.9938035 -0.08295564 59 59 59
0.0133803266533318 0.118691000914864 0.0161738038433374 0.002476482 0.9977951 -0.06632313 105 105 105
0.102312304402203 0.0136396622422258 -0.0193392395602881 0.9490796 0.3150061 0.004365847 169 169 169
0.0207366127022209 0.11893609521418 0.0172973513973535 -0.0797065 0.9759525 -0.202888 92 92 92
0.0247919339188042 0.119228336787514 0.0231321990860284 -0.05018513 0.9987221 -0.005972409 49 49 49
0.0264637846001091 0.11963019130259 0.0189375520122827 -0.03952969 0.992457 -0.1160453 82 82 82
0.0282526391991081 0.118937942958168 0.0163807511699975 -0.05948808 0.9639845 -0.2592202 100 100 100
-0.0591690760604439 0.092028114772133 -0.0650699495898902 0.01457065 0.9331812 -0.3591109 175 175 175
-0.0554301959029732 0.0926230287316362 -0.0632797836887061 0.03279647 0.9373389 -0.3468719 80 80 80
-0.0510079484931526 0.09209260699778 -0.0630453884231268 0.07339382 0.8740033 -0.4803453 178 178 178
-0.0469017845145759 0.0935997104409257 -0.057030206881684 0.1766233 0.9536297 -0.2437101 43 43 43
-0.0456651073447761 0.0923098063233415 -0.0613752960788428 0.1485746 0.9398953 -0.307445 131 131 131
-0.0413474064818916 0.0929236149552385 -0.0551171958076178 0.159044 0.9613748 -0.2246408 78 78 78
-0.0418465953818855 0.0928449964287797 -0.0566339254008948 0.1673055 0.9552428 -0.2439673 107 107 107
-0.0400195938102302 0.0926257109406511 -0.0551444649326026 0.1560109 0.9607436 -0.2294174 94 94 94
-0.0352020483962593 0.0934781765702287 -0.0494504034148871 0.2706579 0.9318959 -0.2414836 68 68 68
-0.0377691012374458 0.0925990080597917 -0.0555038809405982 0.1778882 0.9509861 -0.2529448 102 102 102
-0.0323334556571541 0.092350814318947 -0.0491860866176306 0.3486049 0.9109369 -0.2206095 105 105 105
-0.0174666863433418 0.0928947067025224 -0.0371203779803931 0.05580716 0.9892514 -0.1351566 48 48 48
-0.00468065557399366 0.0935758089783708 -0.0280848800765692 0.06920763 0.6996846 -0.7110919 93 93 93
-0.00341822919765089 0.0954434013131181 -0.0255887567626654 -0.005923849 0.4978743 -0.867229 77 77 77
-0.00146063384929274 0.0971513724091569 -0.025761371813935 -0.08706344 0.4833097 -0.8711095 132 132 132
-0.000564179991870861 0.0996010041001359 -0.0252168833839118 -0.1005175 0.5688266 -0.816292 74 74 74
0.00135759296497728 0.0971945261719743 -0.0258027076350867 -0.07272834 0.4875714 -0.8700486 88 88 88
0.000938870335430164 0.100849125361733 -0.0246767460929572 -0.09262285 0.6700869 -0.7364812 99 99 99
0.00465629282078173 0.101883742785744 -0.0232992231475531 -0.04317006 0.7426605 -0.6682752 60 60 60
0.00863907518467333 0.105235669589333 -0.0187651574241339 -0.07775283 0.8530177 -0.5160575 124 124 124
0.0101833123215141 0.103129718280129 -0.0207663237678229 -0.09513237 0.8213207 -0.5624785 55 55 55
0.00715211811146166 0.0963139867547075 -0.0271133541690528 -0.1745892 0.5666879 -0.8052226 54 54 54
0.0071311968811455 0.100218806243233 -0.0256186484920203 -0.1170079 0.6219545 -0.7742621 143 143 143
0.0106537121780815 0.0957257485154192 -0.0289962052928626 -0.2181349 0.6603958 -0.7185364 93 93 93
0.0150558728226128 0.0994842982056657 -0.0266179501640021 -0.2241737 0.6669198 -0.7106083 92 92 92
0.0142921585091057 0.104228589511208 -0.0207220077144324 -0.1527131 0.8627886 -0.4819486 70 70 70
0.0149646777161064 0.10088441131144 -0.0256379305946051 -0.2268341 0.7047966 -0.6721667 77 77 77
0.0185789841659966 0.104515883899025 -0.0226571619140326 -0.1879094 0.8489397 -0.4939549 60 60 60
0.0130756873138848 0.106050763106636 -0.0170237481223761 -0.1117073 0.8695165 -0.4811056 70 70 70
0.0191976803787651 0.109250161624245 -0.0119865297900855 -0.02848978 0.9639094 -0.2647015 80 80 80
0.0225649255760613 0.108384702182106 -0.0156724214183508 -0.07440077 0.9374394 -0.3401058 69 69 69
0.0240289944656792 0.106631014323525 -0.0199334084617316 -0.05091238 0.9156454 -0.39875 63 63 63
0.0168609994896355 0.0977180933716814 -0.0290831386672675 -0.293653 0.6788385 -0.6730128 85 85 85
0.0193010348328057 0.0953940486672441 -0.0332044720279395 -0.2919167 0.7902755 -0.538748 58 58 58
0.0196846503265801 0.102158877826027 -0.0258275329696356 -0.2174304 0.7285666 -0.6495496 86 86 86
0.0216118473061028 0.105216238475136 -0.0246235489474951 -0.08805759 0.8501323 -0.519154 50 50 50
0.0281076807030144 0.104724857783608 -0.0244649707900702 0.2785317 0.7820154 -0.557559 227 227 227
0.0232785123833122 0.0957551336052934 -0.0347740411388098 -0.2287398 0.8067487 -0.5448253 72 72 72
0.0289509672172966 0.10122391936808 -0.027372276745957 0.388525 0.7940485 -0.4674776 106 106 106
0.0218421000488701 0.108798537230782 -0.0141594767200171 -0.0593437 0.9493246 -0.308644 31 31 31
0.028847374344677 0.111412856555275 -0.00543100234143129 -0.1334152 0.9369845 -0.3228936 63 63 63
0.0927511233337822 -0.0683566594359358 0.0532965600860895 -0.0940373 -0.9853937 0.1419726 95 95 95
0.0261139053352776 0.108902547335915 -0.0150549769031226 -0.06759161 0.9453821 -0.3188793 83 83 83
0.0295877832420769 0.108267817473702 -0.0165869652854621 0.008769819 0.9256874 -0.3781877 50 50 50
0.0301081317909661 0.109383020377449 -0.0137168824302374 -0.02091004 0.9522138 -0.3047158 58 58 58
0.0285511988647881 0.111984345889382 -0.00360096093289247 -0.1311467 0.9152103 -0.3810389 20 20 20
0.0328691977508965 0.112965617156319 -0.00248534079663149 -0.09607212 0.9233474 -0.3717522 81 81 81
0.0345868844040337 0.113573226905159 -0.00170681472889772 -0.09902708 0.9217257 -0.3749872 62 62 62
0.0365016836174431 0.11367395875483 -0.00290352698437563 -0.08599789 0.9243531 -0.37172 65 65 65
0.0386149066933098 0.111536178565315 -0.00708059068791261 -0.08221236 0.9200659 -0.3830403 57 57 57
0.0407657403000298 0.111433360553078 -0.00888518091313234 -0.03089677 0.9029763 -0.4285781 49 49 49
0.0386558550842705 0.113185319876961 -0.00353724356762758 -0.08920833 0.9295732 -0.3576808 70 70 70
0.0290770906456413 0.103956553912453 -0.023814862929505 0.3298221 0.7561263 -0.5652348 147 147 147
0.0299720543869438 0.105257008052162 -0.0224838316070258 0.3280127 0.7511346 -0.5728914 124 124 124
0.0341885465629997 0.102647397494606 -0.0211754500495612 0.514897 0.5362001 -0.6688576 119 119 119
0.0368823784836235 0.103476021266274 -0.0186384081470191 0.5476772 0.4404611 -0.7113674 152 152 152
0.0309993404396477 0.100283238864235 -0.0280401169883429 0.4245661 0.8156762 -0.392958 91 91 91
0.0356377142914238 0.0975624656441728 -0.0244470297919928 0.6216915 0.6833479 -0.3827994 119 119 119
0.0295998233803215 0.101717267012886 -0.0257733225452124 0.444591 0.7365506 -0.5097372 122 122 122
0.0388955849655571 0.0996544098618547 -0.0195714294540106 0.5420553 0.5773149 -0.610642 142 142 142
0.0384589809425774 0.09571889398127 -0.0249275028335272 0.6342836 0.6450801 -0.4260939 153 153 153
0.0286556858070793 0.1068086957696 -0.0199257194625556 0.1015364 0.8694338 -0.483503 69 69 69
0.0350550192840996 0.107503030276589 -0.017255967818421 0.2383443 0.734011 -0.6359401 99 99 99
0.0442122596748772 0.105673942542366 -0.0142084121333777 0.4108938 0.2409181 -0.8792751 123 123 123
0.0486255663879814 0.10139778611689 -0.0117322265731513 0.5035617 0.3787734 -0.7765026 112 112 112
0.0447282570846977 0.0977817511323015 -0.016516929827851 0.433471 0.599108 -0.6731808 138 138 138
0.043622650528759 0.1001028156045 -0.0155137240516364 0.4593903 0.4755563 -0.7502044 159 159 159
0.0462046045311394 0.0972837543252031 -0.0164149462806403 0.3965629 0.6120322 -0.6842182 141 141 141
0.0488534945496025 0.0970183348420183 -0.0154562651740729 0.3618193 0.6328033 -0.6845778 125 125 125
0.0464195388801995 0.105952713465981 -0.0130940138923346 0.4685698 0.2421963 -0.8495783 109 109 109
0.0392058867462578 0.109144124961189 -0.0145043789970099 0.2748531 0.7226261 -0.6342455 94 94 94
0.0464123863228264 0.111294422126106 -0.00867632623783937 0.2559123 0.7403598 -0.6215916 164 164 164
0.0264984745033684 0.0974356269600908 -0.0353056549655615 -0.04321064 0.8100497 -0.5847669 73 73 73
0.0310393947609368 0.0978696083787004 -0.0328634440528571 0.4022 0.7629286 -0.5061374 96 96 96
0.0344921130188408 0.095747802233986 -0.032785034142655 0.6225781 0.5817731 -0.5233895 92 92 92
0.079784669304699 0.0680653190377275 0.0467099786175073 0.674695 0.2961448 0.6760805 99 99 99
0.0346863645561638 0.117934677577309 0.0406446099651636 -0.3237246 0.9129642 0.2483924 28 28 28
0.107350744629711 -0.00991633179158768 -0.0197179078685462 0.969335 0.02215956 -0.2447418 119 119 119
0.0989135283478203 0.0579694247010271 0.0151893139255823 0.9949206 -0.1001874 0.00977484 111 111 111
0.0442288893707695 0.120908412909798 0.0289661527050317 0.01706254 0.9989964 -0.04141256 131 131 131
0.10120777072987 0.023915801024727 0.0538389623535455 0.7109424 0.4508521 0.5397159 99 99 99
0.0624712485321465 -0.0675881171462019 0.0685784757507623 0.163937 -0.9860738 0.02798358 59 59 59
0.0573028701790276 -0.0701027178999861 0.0567734182251275 0.3526116 -0.9137847 0.2016499 45 45 45
0.0894974249847832 -0.00977596285314164 -0.0615599512683569 0.1576767 0.1034956 -0.9820523 127 127 127
0.105041720295757 -0.0763115549323042 0.0208151281250299 0.4724658 -0.8809454 0.02666744 83 83 83
0.104004241848797 -0.0755107069251021 0.00333290699847349 0.3855383 -0.9222335 -0.02907791 73 73 73
0.104308761978954 0.00731239078073898 -0.0343022703754126 0.9579224 0.2868492 0.0101091 173 173 173
0.101280428791851 0.0125127768281023 0.0126311123741449 0.9444653 0.3280949 -0.01841094 105 105 105
0.102642752552837 -0.0410461092230757 -0.055934882126969 0.9647412 0.2500003 -0.08230548 124 124 124
0.101311959648937 0.0114540791276018 -0.00960738059155336 0.9252141 0.371693 0.0763094 151 151 151
0.0827236551292839 0.0631705260041276 0.0464071870220483 0.6069595 0.3135138 0.7302803 114 114 114
0.0599726218231621 0.114028785205177 -0.000329440795105607 0.3760392 0.5863552 -0.7174832 116 116 116
0.105884470368237 0.00305047986536422 -0.0149246513473212 0.9511318 0.3087682 0.003252743 122 122 122
0.0830406922348442 0.0420246457818071 0.0549384296310724 0.5745916 0.3108588 0.7571071 138 138 138
0.0808243531235161 0.0794473027947465 0.0409191787613214 0.7275299 0.3263597 0.6034812 113 113 113
0.0766712802895012 0.114408586001686 0.0205484569443048 0.4292343 0.9012286 0.05953882 177 177 177
0.0959757942207756 0.0709804033997575 -0.0407518207656561 0.917262 0.3831802 -0.1086429 139 139 139
0.038834311390728 0.11576751229792 0.0509715319050134 -0.4928409 0.7772245 0.3911905 41 41 41
0.0717171806343498 0.0841577982667009 0.0491706967724145 0.690985 0.2207986 0.6883224 249 249 249
