ply
format ascii 1.0
comment File exported by Rhinoceros Version 7.0
element vertex 474
property float x
property float y
property float z
property float nx
property float ny
property float nz
property uchar red
property uchar green
property uchar blue
end_header
-0.00345675245203125 -0.00474899053926736 -0.0355682733289671 0.0238062 0.5467841 -0.8369352 238 238 238
-0.00229419860391455 -0.00284080729518366 -0.033849572454734 0.02020852 0.5505524 -0.834556 237 237 237
-0.00208614756649128 -0.0050902613911451 -0.0357868066095453 0.03217511 0.5417256 -0.8399394 246 246 246
0.000170086366048317 -0.000912277756948909 -0.0330304953816678 0.02530186 0.5474567 -0.8364514 226 226 226
0.000524053021173754 -0.00441110473546258 -0.0351978079873203 0.0344068 0.5327529 -0.8455712 233 233 233
0.00214825264432517 -0.00590467767635328 -0.0357882970663649 0.03305086 0.5448399 -0.8378885 127 127 127
0.00156133970506356 0.00222599227683384 -0.0305414403051719 0.04016739 0.5465351 -0.8364723 99 99 99
0.00149521886361759 0.000678048398505271 -0.0318139723955636 0.03034256 0.5464553 -0.8369384 165 165 165
0.00366958910492232 -0.000774831150815225 -0.0331393793775867 0.03988717 0.5492161 -0.8347279 71 71 71
0.00461342011876287 -0.00277773408045123 -0.0338574376080912 0.04078891 0.5455238 -0.8371022 116 116 116
0.00436281539032257 0.00117054048554788 -0.0311745681884721 0.04081754 0.5521216 -0.8327639 86 86 86
0.00675059173628467 -0.000125810801324122 -0.0318096929415025 0.0182623 0.5578176 -0.8297626 98 98 98
0.0036786912338802 -0.00426198460079286 -0.0348900639104529 0.03916388 0.5395327 -0.8410533 99 99 99
0.00483562772084012 -0.00192635809158104 -0.0335056193681839 0.04293449 0.5408162 -0.8400443 115 115 115
0.0030986623984689 -0.00825446817043274 -0.0374225572373545 0.03119494 0.5428557 -0.8392464 112 112 112
0.00365334885232271 -0.00663686262803365 -0.0363612912570231 0.03752983 0.5384213 -0.8418397 102 102 102
0.00383594941334087 -0.00856977904288836 -0.0377239428124485 0.03269978 0.5473493 -0.8362652 88 88 88
0.00493327312512082 -0.00487639839450205 -0.0351745400506015 0.02844454 0.5414875 -0.8402275 81 81 81
0.00659081514982018 -0.00444355475282088 -0.0349048168840919 0.01717514 0.539204 -0.842 151 151 151
0.00717941146400936 -0.00607046127319311 -0.0358630949827997 0.002254465 0.5369426 -0.8436158 223 223 223
0.00556589252450268 -0.00370371192567676 -0.0345939287615998 0.01756164 0.5433971 -0.8392921 102 102 102
0.00809642455266535 -0.00254894292576424 -0.0338953310508595 0.008059137 0.5504916 -0.8348018 92 92 92
0.00931546053890941 -0.00341588840144091 -0.0341140784686692 0.0173542 0.552485 -0.8333421 140 140 140
0.00758455531864077 -0.00151982390609573 -0.0326157575890607 0.009039451 0.5569966 -0.8304656 111 111 111
0.00864067386638201 -0.00191250876785876 -0.0331537057359633 0.0150431 0.5557063 -0.8312426 116 116 116
0.0107831486035188 -0.00193470813251528 -0.0331517245013551 0.02348569 0.5580841 -0.829452 124 124 124
0.00883652207347474 -0.00527503723966116 -0.0353211369850362 0.01226538 0.543835 -0.8391026 224 224 224
0.0113126289658084 -0.000411298112848235 -0.0321843730019443 0.02320396 0.5574297 -0.8298998 118 118 118
0.0105344280906186 -0.00366206310637029 -0.0345048304448548 0.01679318 0.556329 -0.8307925 235 235 235
0.0107994617803222 -0.00276807249183519 -0.0345697951200771 0.01843339 0.5584528 -0.8293315 220 220 220
0.0140261905311962 -0.00201638763056067 -0.0331684101146256 0.03968909 0.5560469 -0.8302028 205 205 205
0.00462274621179681 0.00516245255530923 -0.0285479281529419 0.0150774 0.5339733 -0.8453669 109 109 109
0.00596006947058936 0.00630159037246047 -0.0281346033680274 0.011904 0.539514 -0.8418925 123 123 123
0.00712935655354041 0.00758729248529344 -0.0272492386186988 0.01670942 0.5463542 -0.8373876 207 207 207
0.00574564124627752 0.0026544221292738 -0.0305285933361514 0.02470948 0.5321038 -0.8463185 105 105 105
0.00725453990317015 0.00336338217167265 -0.0300215097225214 0.01785458 0.5164074 -0.8561568 129 129 129
0.00701437718702558 0.00306731515391434 -0.0296832023505145 0.01848165 0.5158293 -0.856492 95 95 95
0.0087321900332713 0.00273325744219932 -0.0302536373793975 0.01963888 0.5200505 -0.8539097 125 125 125
0.00814028466948857 0.00670322976518911 -0.0276520922823331 0.02552311 0.5410218 -0.8406212 186 186 186
0.00787456721264179 0.0088163091490806 -0.0263917054464298 0.0164568 0.558689 -0.8292139 230 230 230
0.0100616382722101 0.0117387467560094 -0.0243311664674299 0.007626201 0.5488845 -0.8358634 118 118 118
0.00927024462361103 0.00817117918455346 -0.0268032934988639 0.03912326 0.5557817 -0.8304072 228 228 228
0.0108354063680187 0.00976406300136123 -0.0253252871350468 0.02155348 0.5533706 -0.8326563 214 214 214
0.0118491203399266 0.0103409356374727 -0.0248703532893935 0.02233265 0.5496119 -0.8351216 201 201 201
0.0110003941295704 0.00612340837152014 -0.0283236374908061 0.04787201 0.5430503 -0.8383344 124 124 124
0.0118975587958676 0.00668303286977545 -0.0276427217007016 0.04970049 0.5431991 -0.8381316 223 223 223
0.0108608493812753 0.00196814545213064 -0.0305283962294255 0.03203335 0.5196999 -0.8537481 127 127 127
0.0119207429877064 0.00296215313702508 -0.0300398180549938 0.03716724 0.5247356 -0.8504535 172 172 172
0.0128319629146754 0.00441217017690654 -0.0287608586590731 0.04677321 0.5349234 -0.8436049 174 174 174
0.0136249491451769 0.00198284939126714 -0.0305569881521543 0.02417425 0.5423355 -0.8398141 151 151 151
0.0126289253803216 0.000969633513543733 -0.0310636334098664 0.03580254 0.5523311 -0.8328556 182 182 182
0.0136971864408594 0.000391106410332021 -0.0314504415147547 0.03570963 0.56161 -0.8266311 144 144 144
0.0156085212753653 0.00107414549232521 -0.031047858796527 0.02133596 0.5448148 -0.8382849 126 126 126
0.015366903162398 0.000135367070396852 -0.0314465803911536 0.02205861 0.5428667 -0.8395292 103 103 103
0.0170682303570228 0.00242507080090382 -0.0301129707269342 0.03184149 0.5489152 -0.8352713 218 218 218
0.0138612830643025 0.00590773408333145 -0.0280097144954339 0.03735813 0.5379369 -0.8421569 163 163 163
0.0148944123376454 0.00734515993780527 -0.0270585875706759 0.02790269 0.5469286 -0.8367141 232 232 232
0.0159055673163351 0.00866169158383145 -0.0260126353985592 0.03128354 0.5433502 -0.8389231 236 236 236
0.0156611239684852 0.00567482457876156 -0.0279117596941107 0.05202377 0.5405656 -0.8396918 195 195 195
0.0168100593094497 0.00515660249470817 -0.0284665747965032 0.03470446 0.5479364 -0.8357998 228 228 228
0.0186734813787053 0.00731156163807201 -0.026938816744629 0.04563665 0.5363972 -0.8427309 235 235 235
0.0123909674666859 -0.0107968265054016 -0.0388182393947318 0.022949 0.5429727 -0.8394367 101 101 101
0.0111621878862092 -0.00892263481380973 -0.03738082757189 0.02328229 0.5464674 -0.8371567 99 99 99
0.0118229591391601 -0.00882302818195979 -0.03756771923873 0.02437345 0.544375 -0.8384878 82 82 82
0.0129149582562629 -0.00571663746012063 -0.0354903736371673 0.04028868 0.5374917 -0.8423061 179 179 179
0.0147103142349776 -0.00793717932584082 -0.0369640967387368 0.03571366 0.5550048 -0.8310801 87 87 87
0.0155094076913892 -0.00695593019585228 -0.0361620996733661 0.02686989 0.5428116 -0.8394246 90 90 90
0.0155084622547305 -0.004456772434143 -0.0345717245086783 0.05050317 0.5448554 -0.8370078 228 228 228
0.0165923597087498 -0.00532416544841963 -0.0350852872960028 0.03058225 0.5446684 -0.8380937 179 179 179
0.0150978304377527 -0.00275489203480894 -0.0334071856651761 0.04535027 0.5461907 -0.8364324 229 229 229
0.0155239541952931 -0.0178676308428255 -0.0365222361067116 0.2318284 -0.7433265 -0.6274722 33 33 33
0.0151439328329388 -0.0175387661378651 -0.0373410755171698 0.2477925 -0.7273749 -0.6399412 54 54 54
0.0164270046364894 -0.0171507587858274 -0.0377452160749177 0.2157417 -0.7323616 -0.6458344 21 21 21
0.0180404192002827 0.00180506049533002 -0.0302028801184853 0.03400585 0.5502495 -0.8343076 237 237 237
0.0192581493676025 0.00115048401132467 -0.0310441509387153 0.04453227 0.5448336 -0.8373609 228 228 228
0.0204497154932107 0.00267554012460447 -0.0299857565659953 0.03081992 0.5400058 -0.8410968 189 189 189
0.0204827566928809 0.00363186218096112 -0.0286483788965203 0.02997736 0.5402114 -0.8409953 114 114 114
0.00951641847192441 0.0138366350718467 -0.0231760110562539 0.009020404 0.5420508 -0.8402973 121 121 121
0.0105997605556257 0.0152999464114846 -0.0219548589641718 0.01809512 0.5489758 -0.8356424 146 146 146
0.0114297752917213 0.0162621622094391 -0.0214287838420477 0.02531873 0.5487579 -0.8355978 201 201 201
0.0125120872642556 0.0167676846428034 -0.0211070570956438 0.03510925 0.549689 -0.8346313 232 232 232
0.0133056320960574 0.0119776184663946 -0.0241152577563784 0.02633271 0.5486248 -0.8356539 213 213 213
0.0137122637236561 0.0140750771588766 -0.0227127716970671 0.02356302 0.5519773 -0.8335261 239 239 239
0.0146708195779668 0.0156723772385189 -0.0213558779588174 0.02879474 0.5512902 -0.8338166 232 232 232
0.0153245438878955 0.0146455915121159 -0.022394306398658 0.02011587 0.5543189 -0.8320612 220 220 220
0.015584243626576 0.0187553668304784 -0.0197123952580557 0.01962477 0.5476447 -0.8364808 215 215 215
0.0158116564621082 0.0158634326227475 -0.0212875521505959 0.01974865 0.5401418 -0.8413423 239 239 239
0.0167748705459143 0.0181044522012018 -0.0202052086060501 0.0203458 0.5459344 -0.8375809 212 212 212
0.0168877036476404 0.0191547356911933 -0.0191117024984495 0.01226467 0.5424829 -0.8399773 157 157 157
0.0160804291087392 0.0127779570731162 -0.0234605227422645 0.02139348 0.5406721 -0.8409613 233 233 233
0.0179693461466227 0.0156112101111451 -0.0214258224766619 0.03212379 0.540689 -0.840609 186 186 186
0.0191749823387148 0.0171408124357603 -0.0203751582938174 0.03480484 0.5456436 -0.8372943 158 158 158
0.0192331578015398 0.0179216791694027 -0.0198965829999851 0.03588648 0.5373945 -0.8425671 61 61 61
0.0161217414051387 0.0115421935250301 -0.0241301327367369 0.027508 0.5419021 -0.8399913 228 228 228
0.0168917342445473 0.0109263520795139 -0.0250847268823413 0.02787472 0.536112 -0.8436865 232 232 232
0.0197615794841172 0.0129224871960659 -0.0234117038903978 0.04072143 0.5445567 -0.8377349 146 146 146
0.0206643992526371 0.0121527385215657 -0.0236197329309351 0.04766046 0.537348 -0.8420128 166 166 166
0.0196988298097767 0.00868130063191896 -0.0258845295279787 0.0349696 0.5349197 -0.8441789 231 231 231
0.0221757908988766 0.00962970690564957 -0.025312655243487 0.04587103 0.5380095 -0.8416897 221 221 221
0.0183267768865091 0.0149648735002698 -0.0222293064687268 0.03556158 0.5507542 -0.8339095 200 200 200
0.0208253456184616 0.0152680905529187 -0.0216197397328503 0.03936644 0.5411174 -0.8400252 133 133 133
0.020647206997866 0.0143056198163226 -0.0225251050867526 0.03725427 0.5453538 -0.8373777 115 115 115
0.0230739501180994 0.0152084699796214 -0.0213167010086072 0.0344675 0.5450552 -0.8376914 208 208 208
0.0227271060223204 0.0133329990880396 -0.0229836144453302 0.03514715 0.5437671 -0.8384999 148 148 148
0.0237972852771627 0.0147388216205583 -0.0218669605581012 0.03873204 0.547303 -0.8360378 169 169 169
0.0247382313762129 0.0162008446560574 -0.0207754851164761 0.03254388 0.5488444 -0.8352908 114 114 114
0.0258537184868023 0.0156278508912423 -0.0213069823579953 0.03032141 0.5465702 -0.8368642 78 78 78
0.015402798047478 0.0223946717228417 -0.0171511495124768 0.01673913 0.5537583 -0.8325092 122 122 122
0.0183967658553758 0.0255605013031465 -0.0150198428352681 0.03420112 0.5487404 -0.8352929 202 202 202
0.0191415593376821 0.0218190654127478 -0.0172698556821518 0.02800996 0.553174 -0.8325947 161 161 161
0.0179748008716731 0.0264630743180799 -0.0146807372221069 0.03309235 0.544237 -0.8382786 202 202 202
0.0209919868638322 0.0271691373650133 -0.0139270217086505 0.0383663 0.5436201 -0.8384541 130 130 130
0.0226129823994757 0.0290780431712409 -0.0124950421080635 0.03468726 0.5455884 -0.8373351 185 185 185
0.0232785946816403 0.0263477830252031 -0.0142286994417418 0.02942714 0.5471292 -0.8365307 187 187 187
0.0222550261010657 0.025153773103081 -0.0151084053341449 0.03359915 0.5495337 -0.8347957 182 182 182
0.024361017406333 0.0275783949091647 -0.0136238676587026 0.02333226 0.5423217 -0.8398468 163 163 163
0.0200564871138201 0.0207350168533272 -0.0183509456426831 0.03239189 0.5492525 -0.8350285 90 90 90
0.0211735531647584 0.0197179530539308 -0.0188558706582265 0.0383345 0.541584 -0.8397722 100 100 100
0.0235643357524242 0.0244190634639757 -0.015557280146638 0.03178922 0.5524327 -0.8329511 164 164 164
0.0249216843401839 0.0258414965105948 -0.0149196559535431 0.02951114 0.5506366 -0.8342233 167 167 167
0.0258806949499745 0.0267291438746599 -0.0139577620432957 0.02783276 0.5441286 -0.83854 123 123 123
0.0255100934842261 0.0191475469972483 -0.0188173762853971 0.03084732 0.5378618 -0.8424684 97 97 97
0.0240260541532228 0.0225082291487705 -0.017027420657085 0.03302768 0.5498592 -0.8346041 166 166 166
0.0234120300835367 0.021018492935598 -0.0180607646011825 0.04599105 0.5485165 -0.8348739 194 194 194
0.0252360077059226 0.0182636628989056 -0.0198319425845727 0.0343844 0.5403621 -0.8407298 83 83 83
0.0272704912870662 0.0164079609040081 -0.0206663319152069 0.01928928 0.5527946 -0.8330942 86 86 86
0.0281297347728849 0.0180487801141881 -0.0195611658230452 0.01388355 0.5425993 -0.8398769 101 101 101
0.0263099313082799 0.0192288032743585 -0.0187800566120851 0.02219289 0.5441518 -0.8386932 111 111 111
0.0270641107622127 0.0197361825040471 -0.0184805494894442 0.02028946 0.5394639 -0.8417643 108 108 108
0.0248041478374454 0.0238435866747201 -0.0159952951883824 0.03578662 0.5494409 -0.8347659 87 87 87
0.0270697840420119 0.024543251206958 -0.0153606171500442 0.02153753 0.5467888 -0.8369936 92 92 92
0.0271888358891569 0.0265285583394738 -0.0141710666746419 0.01934774 0.5455292 -0.8378685 108 108 108
0.0284934195740298 0.0215083169617468 -0.0172201895035401 0.01759672 0.5479527 -0.8363242 113 113 113
0.0285012874538054 0.0231100207558929 -0.0162398550916213 0.01428282 0.5432178 -0.8394703 135 135 135
0.0296532550763937 0.0232605265257825 -0.0163213100533376 0.02085174 0.5471371 -0.8367832 103 103 103
0.0302966362512874 0.0246316817549433 -0.0152004816425847 0.009125623 0.5532426 -0.8329702 89 89 89
0.0299085873663938 0.0209548968841015 -0.0178378127788157 0.03727684 0.5372754 -0.8425827 114 114 114
0.0323753303372993 0.0237907049242544 -0.0158216813375049 0.03074631 0.5422353 -0.8396639 97 97 97
0.0338916636437467 0.0235857157520091 -0.0162843729643352 0.07051776 0.5117473 -0.8562371 100 100 100
0.0225541313159016 0.00786331479677294 -0.0260857939337365 0.02980548 0.550832 -0.8340838 130 130 130
0.0233377417223567 0.0068501448815842 -0.0269357040160815 0.02250245 0.5396583 -0.8415834 137 137 137
0.0244820634272409 0.00839973459387544 -0.026110558260365 0.02883838 0.5519549 -0.8333752 147 147 147
0.0262493723975977 0.0109389893458648 -0.0241973001390058 0.02684477 0.5379438 -0.8425532 107 107 107
0.0258252479573122 0.0126022247256951 -0.0231303365919705 0.03420603 0.5455332 -0.8373908 121 121 121
0.0284666372749907 0.0140768472385321 -0.0221817089282567 0.01345212 0.5465812 -0.837298 94 94 94
0.0372634740205036 0.0126467948276378 -0.00881799972128139 0.9898596 -0.1373237 -0.03633294 33 33 33
0.0369936672538121 0.0111305547370594 -0.0110484478315516 0.9943651 -0.1058658 -0.00552266 49 49 49
0.0368715123719383 0.0119828534993379 -0.0069920457145875 0.9894086 -0.1404534 -0.03665315 38 38 38
0.0379956353721634 0.0153319455300601 -0.00768197917870117 0.9926124 -0.1168278 -0.03274019 102 102 102
0.0278406399159692 0.0160361061620508 -0.02104955299239 0.02085305 0.5461813 -0.8374074 113 113 113
0.0302371547193044 0.0167564892747071 -0.0204324090669412 0.04220713 0.5465777 -0.8363441 97 97 97
0.033297590005447 0.0210918105465733 -0.0175321615441899 0.1927312 0.4865257 -0.8521429 97 97 97
0.0352809923845897 0.0228858994407063 -0.0161810058365691 0.3708617 0.418931 -0.8288295 78 78 78
0.0369634471471855 0.011823691588703 -0.0153613647622017 0.9949093 -0.03740246 -0.09357665 61 61 61
0.0373520327583778 0.0149689912855707 -0.0136383714620404 0.9873508 -0.05435296 -0.1489435 35 35 35
0.0376319562051873 0.0180090487147196 -0.0137553074029811 0.967186 0.06689988 -0.2451033 56 56 56
0.0375622053035016 0.0163271831112147 -0.0130289446441771 0.984881 -0.06064641 -0.1622693 70 70 70
0.0375586371423433 0.0176359425824685 -0.0156462872724212 0.9289727 0.1301805 -0.3465006 44 44 44
0.01374764966831 -0.0135971288952393 -0.0405364129213723 0.109557 0.2089268 -0.9717751 113 113 113
0.0160583341384123 -0.0103958724084084 -0.0385881993699279 0.0203161 0.5506421 -0.8344942 89 89 89
0.0163532366822884 -0.014092486047128 -0.0408929331208985 0.1186123 0.06870446 -0.9905608 82 82 82
0.01718096993471 -0.0114010262772669 -0.0389119391784498 0.06316792 0.4950079 -0.8665893 100 100 100
0.0179417171193986 -0.0113514446256434 -0.0395469426685341 0.05118557 0.4630247 -0.8848662 92 92 92
0.0190034231981877 -0.0162322634781741 -0.0382760176763915 0.1206971 -0.6619613 -0.7397564 32 32 32
0.019455910647834 -0.0128467627265009 -0.0399033298453806 0.02611557 0.1783611 -0.9836184 84 84 84
0.0205022216035392 -0.0136228437278837 -0.0406573974283267 0.02597292 0.1151828 -0.9930047 83 83 83
0.0207911985975351 -0.0113451445768969 -0.0387453729708573 0.03291626 0.4619813 -0.8862786 95 95 95
0.0236038242241745 -0.0128133077327909 -0.0397861456672803 0.004666988 0.4251463 -0.9051126 77 77 77
0.0204412956300449 -0.00905658683725064 -0.0375697399232649 0.02458191 0.5507357 -0.8343176 92 92 92
0.0207808002586296 -0.00752559072907155 -0.0369134868216413 0.01735745 0.5493219 -0.8354305 74 74 74
0.0218633314064507 -0.010237664106446 -0.038158621599737 0.04187721 0.5421295 -0.8392509 83 83 83
0.0237936728398553 -0.00731137386817327 -0.0361884042316621 0.02394748 0.542933 -0.8394345 74 74 74
0.024890544780815 -0.00847206373790976 -0.0363076925803407 0.02908618 0.5375699 -0.8427174 82 82 82
0.0176486468922462 -0.0033019240539699 -0.0338542850808932 0.03261549 0.5385806 -0.8419425 233 233 233
0.0189299273847474 -0.00133193237321583 -0.0323773197640599 0.03602053 0.5466407 -0.8365922 227 227 227
0.0202101689362717 -0.00452485971416816 -0.0346810735904137 0.01591338 0.5599388 -0.8283811 133 133 133
0.0193597368862419 -0.00386707819499044 -0.0341418677715055 0.02652865 0.5398067 -0.8413709 227 227 227
0.0225874511894817 -0.00220857166727872 -0.0329171293152697 0.0266936 0.5506752 -0.8342927 97 97 97
0.0218918179554437 0.000112414992017418 -0.0316030628000239 0.03249795 0.5469095 -0.8365607 123 123 123
0.0222687927196799 0.00104118553283838 -0.0306599951429151 0.02876179 0.5431811 -0.8391228 84 84 84
0.024144033041358 0.000625227030942699 -0.030968675877566 0.01039431 0.5506682 -0.8346595 91 91 91
0.0232255374817194 -0.000263573137538553 -0.0315718016392559 0.02867822 0.5433344 -0.8390264 97 97 97
0.0230999919943579 0.00285817997009474 -0.0294804480826427 0.02289544 0.5429285 -0.8394668 115 115 115
0.0238384099570009 0.00308981887847637 -0.0293958178744664 0.02778859 0.5439451 -0.8386605 109 109 109
0.0227363930094678 -0.00433910814535288 -0.0341302380923209 0.01891153 0.5672442 -0.8233325 107 107 107
0.0236208044066423 -0.00433002177996078 -0.0343962497818241 0.02051269 0.5687352 -0.8222649 93 93 93
0.0231532627603027 -0.00277942142314636 -0.0331383990147588 0.008644226 0.5669003 -0.8237411 94 94 94
0.025051760662295 -0.00343658614704634 -0.0336000410483296 0.01669509 0.5597128 -0.8285185 85 85 85
0.0257842380040427 -0.00428717680039592 -0.0343204150381968 0.02053871 0.5454144 -0.8379149 77 77 77
0.0250691186044375 -0.00727220861761235 -0.0363711467222082 0.02739851 0.544678 -0.8381976 95 95 95
0.0279870529266952 -0.00512222194050083 -0.0347751647192629 0.07038065 0.5196677 -0.8514646 74 74 74
0.0279740193735045 -0.00277483249778288 -0.0332355259145892 0.03331812 0.5670847 -0.8229854 87 87 87
0.0280794158692985 -0.00111797741640063 -0.0320748855466863 0.02629463 0.5388294 -0.8420044 85 85 85
0.0285150316433471 0.00251808190051206 -0.029669735175399 0.01852435 0.546107 -0.8375106 102 102 102
0.0290991260918475 -0.00120869671187818 -0.0324950353360283 0.0468191 0.5442322 -0.8376272 85 85 85
0.0248069497491921 0.00595303195903119 -0.0275166186533401 0.01855485 0.5424595 -0.8398769 101 101 101
0.0260121452311057 0.00756465371767889 -0.0264343703989783 0.0215895 0.5494681 -0.8352357 128 128 128
0.0252283905939381 0.00545310008181554 -0.028242086487001 0.01724276 0.5431387 -0.8394659 106 106 106
0.0270005685127322 0.00706920279553869 -0.0268622599532984 0.01544735 0.5511194 -0.8342834 107 107 107
0.0288111923722912 0.007605594586923 -0.026333666688907 0.02361108 0.5524221 -0.8332301 105 105 105
0.0282245131416314 0.0094708519653649 -0.0252101281385212 0.01644903 0.5483078 -0.8361148 112 112 112
0.0301309613910944 0.00848079013333003 -0.0257859770919628 0.07800945 0.5345556 -0.8415253 85 85 85
0.031565624843621 0.0106090402350841 -0.0242572160084625 0.1609819 0.4981022 -0.852044 79 79 79
0.0328453347970574 0.0114057272858693 -0.0240042481482186 0.2194763 0.5007651 -0.8372959 96 96 96
0.0300338920015404 0.00469044257958962 -0.0283032740120246 0.03781334 0.5524814 -0.8326671 91 91 91
0.0311239079343051 0.00181986538068279 -0.0304403781705677 0.1773145 0.5410129 -0.8221099 108 108 108
0.0315186048992449 0.00632117991728143 -0.027149600044973 0.09390827 0.5635073 -0.8207563 86 86 86
0.0330253699766344 0.00372900955359745 -0.0289075873389964 0.3072098 0.4838095 -0.8194819 89 89 89
0.0364208357136924 0.0067549144805753 -0.0214504785821074 0.9874656 -0.03983536 -0.1527251 72 72 72
0.0360679685965968 0.00604335348564755 -0.0219420822006085 0.9632102 -0.009263053 -0.2685894 74 74 74
0.0341607104498457 0.00905468191210901 -0.0247597076732827 0.6028172 0.4419447 -0.6643013 97 97 97
0.0351608394093474 0.0107422031556114 -0.0236784260564021 0.6734527 0.3796592 -0.6342873 65 65 65
0.0347481985437936 0.00628081367993938 -0.0254073779780581 0.7718975 0.3628951 -0.5219975 34 34 34
0.0351614917023453 0.00518229964180261 -0.0273179571150076 0.7758193 0.2374141 -0.5845844 57 57 57
0.0367325557146676 0.00834323102847068 -0.0242975120501808 0.8531701 0.276786 -0.4421428 47 47 47
0.0322659958148908 0.0167219380060813 -0.0201819882550018 0.1950592 0.5565845 -0.8075677 97 97 97
0.0317018617311289 0.015061951918958 -0.0210275368136778 0.0774531 0.5613427 -0.8239511 58 58 58
0.0336692021709715 0.0136206375420905 -0.0224646578758132 0.3382748 0.5197654 -0.7844833 60 60 60
0.0349361243660889 0.0160124230966475 -0.0202111517958569 0.4123193 0.4892631 -0.7685145 72 72 72
0.0346544868105624 0.0199911215682064 -0.0177175301592366 0.3728592 0.4159697 -0.8294246 52 52 52
0.0360646870291673 0.0220859146814129 -0.0161584345898787 0.6145454 0.3914845 -0.6848897 38 38 38
0.0361534064772047 0.0174246030372801 -0.0182946223695322 0.7179314 0.3109905 -0.6227835 60 60 60
0.0363506715165212 0.0175633256300077 -0.0170326327232146 0.8100468 0.2347102 -0.5373409 85 85 85
0.036864243004725 0.0188222556379437 -0.0176062798121058 0.7666614 0.2807304 -0.577426 65 65 65
0.0361045976250376 0.0195709974769759 -0.017744586116765 0.6447072 0.4159027 -0.6413872 77 77 77
0.0349194355906628 0.0129761022122598 -0.0221001626636544 0.5558642 0.4035243 -0.7267621 57 57 57
0.0361887072661 0.0108535177537145 -0.021647845060409 0.8127676 0.3104599 -0.4929742 74 74 74
0.0367919560498674 0.0117195273527012 -0.0197998432571327 0.8897813 0.1960186 -0.412148 66 66 66
0.0364359962576741 0.00795076514233861 -0.020216362629289 0.9892875 0.001199382 -0.1459756 54 54 54
0.0361684544468415 0.00932333633863591 -0.0218693650013109 0.8684847 0.255672 -0.4246953 78 78 78
0.00385518336559643 0.0384087706089288 -0.00312631220399312 -0.3360264 0.9310485 0.1422497 32 32 32
0.00552954648012183 0.0384802143680149 -0.00177992018983431 -0.2880024 0.9160334 0.2791727 64 64 64
0.0044831488132856 0.0393124162242512 -0.00533741637673768 -0.1968099 0.9400941 -0.2783685 74 74 74
0.00560650096473103 0.0392300309511983 -0.00511090490717597 -0.2096826 0.9308536 -0.2992403 73 73 73
0.00939765724222053 0.0401846270599787 -0.00303883685294315 -0.2214148 0.9745853 0.03404424 55 55 55
0.00779853301630007 0.038404503159626 0.000136582261728746 -0.2953866 0.8801929 0.3714933 85 85 85
0.00928341731439519 0.038356487177751 0.00111366126905638 -0.2854969 0.8858274 0.3657887 76 76 76
0.0131927114811669 0.0393861495242821 0.00129803188486249 -0.1770173 0.9400817 0.2913955 58 58 58
0.0150485542088494 0.039071549625192 0.00285307198291146 -0.1488795 0.9426104 0.2988653 104 104 104
0.0117017573016165 0.0398189249835282 -0.000995166316449358 -0.1386398 0.9630313 0.2309757 41 41 41
0.0132964840520609 0.040554325309308 -0.0015255432264541 -0.07950357 0.9860169 0.1464581 15 15 15
0.0121479275343752 0.0394942015425114 0.000466036416415794 -0.1932426 0.9326295 0.3047288 44 44 44
0.0147270182688747 0.0395525333984542 0.000286697189160801 -0.09221049 0.9680368 0.2332422 54 54 54
0.0179296972219434 0.0400292612162666 0.00205045906522761 -0.06020192 0.970988 0.231426 66 66 66
0.00890293968127143 0.0379247007382685 -0.00726413823516553 0.01164383 0.6669036 -0.7450531 159 159 159
0.0122539426066595 0.0409769184533825 -0.00465773559775007 -0.02464689 0.971668 -0.2350614 98 98 98
0.0130962833852151 0.0388193367623687 -0.00645061632081739 0.01864433 0.7540779 -0.6565204 136 136 136
0.012813010716642 0.0377526757500931 -0.00734546095476885 0.02409393 0.6135858 -0.7892604 149 149 149
0.0156148235148514 0.034933560206812 -0.00930261544491845 0.01404119 0.5425687 -0.8398941 87 87 87
0.0165495125425033 0.0373889130053823 -0.00746652473396925 0.05242271 0.6272758 -0.7770309 105 105 105
0.0121650627473352 0.040521238893794 -0.00343724629095632 -0.07909923 0.9964029 -0.03040742 79 79 79
0.0138470255227947 0.0408483356315751 -0.00468018421472277 0.06632002 0.9768851 -0.2032172 92 92 92
0.0175785346521398 0.0392077801162919 -0.00629846543293788 0.03812122 0.7241842 -0.6885521 97 97 97
0.0189018127496106 0.0402358855688677 -0.00507961916380828 -0.01977319 0.8388053 -0.5440723 82 82 82
0.0175372884005637 0.0371516711370027 -0.00766408284920189 0.04472442 0.627394 -0.7774165 109 109 109
0.0215076849002278 0.0402929374501907 -0.00064491454270893 -0.07768196 0.9912391 0.1068199 42 42 42
0.0211455154771493 0.0407345935113744 -0.00470152612647073 -0.01143237 0.8701573 -0.4926414 67 67 67
0.018615776241742 0.0396243306496912 0.00484205665876458 -0.06182059 0.9582224 0.2792634 75 75 75
0.0182278172374204 0.0382336978824803 0.00724552207128781 -0.06865892 0.9554527 0.2870474 34 34 34
0.0195249561129452 0.0384491821095622 0.0078509591323781 -0.04782409 0.9581541 0.2822298 78 78 78
0.0203004755142876 0.0387122903195797 0.0067295250714926 -0.02629189 0.9633055 0.2671163 54 54 54
0.0238610961748867 0.0394458947999602 0.00368489674072253 -0.07799124 0.9503202 0.3013452 59 59 59
0.0230742932747847 0.0401690966142355 0.00128242301814352 -0.07793666 0.9693061 0.233177 36 36 36
0.0223854931035655 0.0402036755628971 0.000528266201683114 -0.07712906 0.9822912 0.1707486 68 68 68
0.0238266866545891 0.0408780386717625 -0.000343744445804262 -0.0856852 0.9887906 0.1222752 42 42 42
0.0175521323655269 0.032985526146419 -0.0103222084239739 0.02425846 0.5403005 -0.8411224 114 114 114
0.0181748107457658 0.0331811438395967 -0.0103605634862357 0.03366047 0.5426147 -0.839307 129 129 129
0.0193811805646564 0.0350491103805338 -0.00895619034045661 0.05404219 0.5525305 -0.8317388 137 137 137
0.020483391340343 0.0373465187270315 -0.00719295117765778 0.03087753 0.6053127 -0.7953886 128 128 128
0.0208765699007829 0.0315981059560554 -0.0110605420004094 0.04611799 0.5394231 -0.840771 133 133 133
0.0213096304794796 0.032322011590071 -0.0103369382442564 0.05188909 0.5414136 -0.8391536 176 176 176
0.022645917335625 0.0364625053880231 -0.00784520621631313 0.01683445 0.5577328 -0.8298498 196 196 196
0.0227367634213176 0.0346386127633879 -0.00891153292815777 0.02327144 0.5479639 -0.8361782 216 216 216
0.0230040176160667 0.0414106050148694 -0.0038087526190172 -0.0676593 0.9347032 -0.3489301 68 68 68
0.02362093070036 0.0372334686912591 -0.00734948274463443 0.01339438 0.575873 -0.8174294 130 130 130
0.0234762646883103 0.0395443622833273 -0.00562918354765768 -0.05213662 0.7581684 -0.6499711 150 150 150
0.0262454070018993 0.0406532340498259 -0.0047703815718792 -0.06148542 0.8264439 -0.5596517 79 79 79
0.0267230875651832 0.0380577538121997 -0.00698810472890077 0.008824653 0.6188086 -0.7854922 113 113 113
0.0267692539113225 0.0412956904931464 -0.00364164991183208 -0.1321749 0.9297766 -0.3435771 61 61 61
0.0284468009246825 0.0416160300740979 -0.000727371882538075 -0.2549331 0.9665475 -0.02819775 60 60 60
0.0280538812473398 0.0398641228810311 -0.00523450709297185 -0.01435394 0.6471218 -0.7622515 100 100 100
0.0216846547413855 0.0373589448069963 0.00905925368920263 -0.04468437 0.9644852 0.2603299 24 24 24
0.022691543022668 0.0380275562697697 0.00708050232678864 -0.02041802 0.9676191 0.2515878 65 65 65
0.0237863892518192 0.0370825441196866 0.0103068611994148 -0.1173623 0.9837791 0.135664 47 47 47
0.0244884222449481 0.0378298263275897 0.00816600361698877 -0.08529661 0.9756603 0.2020185 52 52 52
0.0254506899721894 0.0378984140365052 0.0104220931444682 -0.1615044 0.9832147 0.08488259 29 29 29
0.025784192804394 0.0387952350143278 0.00603366260191701 -0.157084 0.9474477 0.2786891 30 30 30
0.0280771876265602 0.0381319295718711 0.0124139647101323 -0.1799314 0.9818026 0.06073093 27 27 27
0.0325052617932834 0.0396768810052085 0.0118271026716543 -0.2157476 0.9554173 0.2015705 36 36 36
0.0340709761377245 0.0392235400701054 0.0127045808710802 -0.2119806 0.9512356 0.2240873 28 28 28
0.0313167577663169 0.0394079604282743 0.0098174272081048 -0.2886492 0.9329067 0.2153295 45 45 45
0.0346062936323381 0.0404252968382627 0.0105803202788262 -0.2003223 0.9564487 0.212313 46 46 46
0.0274254177508371 0.0388116731792555 0.00597743952535001 -0.2018039 0.9435 0.2628362 30 30 30
0.0287074044225726 0.0393123819992548 0.00535084679024944 -0.2633821 0.9229599 0.2806687 38 38 38
0.0273664100565101 0.0405843094456971 0.00100730196244408 -0.1953067 0.9681438 0.1566937 75 75 75
0.0305618359649049 0.0406096289532284 0.00529323279918054 -0.3260087 0.8985738 0.2937404 17 17 17
0.0314524291197348 0.0403107180942442 0.00665034995234931 -0.3150331 0.9088033 0.2735519 15 15 15
0.0350118766182728 0.0427558809419243 0.00461998151999166 -0.1111743 0.9185569 0.3793328 29 29 29
0.0380540087195188 0.0407555717448097 0.00757426501721598 0.5818436 0.7946528 0.1731618 51 51 51
0.0384648149117117 0.0191540457462948 0.00917289648264147 0.9946235 -0.101501 -0.02053435 70 70 70
0.0375831207149415 0.0160845766712937 0.000868160879008539 0.9929546 -0.1130498 -0.03550826 51 51 51
0.0382360271353894 0.0166411464270312 -0.000490310322547816 0.9941501 -0.09694122 -0.04762377 45 45 45
0.0383079268690485 0.0189184992623274 0.00668672726038455 0.9962227 -0.08636616 0.00900886 79 79 79
0.038813744666346 0.0215258129294077 0.00455162206396487 0.9955696 -0.09109014 -0.02331927 64 64 64
0.0384611888069886 0.0203393218417732 0.00196755867128268 0.9935918 -0.1072287 -0.03573951 73 73 73
0.0393275265919264 0.0217476077712156 0.00346530150583912 0.9959942 -0.08409366 -0.03039524 97 97 97
0.039389702483643 0.0227009446539123 0.0149064830097901 0.993621 -0.106249 -0.03779455 51 51 51
0.039287636963141 0.0254304520037686 0.0143013665438725 0.9949259 -0.08080232 -0.05994611 40 40 40
0.039376896151234 0.0251583485756158 0.011807852903009 0.994955 -0.09591763 -0.02939896 66 66 66
0.0386748918223437 0.0263322746207176 0.0102473997791917 0.9954489 -0.08817142 -0.03615616 74 74 74
0.0387058075947595 0.0208947223108787 0.00955488203439364 0.9954503 -0.09086031 -0.02869112 67 67 67
0.0389302998331739 0.0239766596878587 0.0107546424031782 0.9950531 -0.09605521 -0.02535287 68 68 68
0.0399167300363361 0.0298908526093925 0.0154908545718008 0.9948628 -0.09805848 -0.02514965 56 56 56
0.0396921159271075 0.0253174440472531 0.0162894158163963 0.9965123 -0.07098301 -0.04387117 66 66 66
0.0395022880249531 0.0314187244175076 0.00615193624446181 0.9919728 -0.1224463 -0.0315736 83 83 83
0.0400673047674447 0.030509427091446 0.0055768982747087 0.9941124 -0.1063669 -0.02065302 60 60 60
0.0393882987064433 0.0285045063267914 0.00259014475063046 0.9959703 -0.08587117 -0.02587167 70 70 70
0.0400757751546563 0.0307643480322816 0.00442849644518323 0.9938405 -0.1046766 -0.03638496 61 61 61
0.0391275373955775 0.0278059060211949 0.0044856479310173 0.996034 -0.08897266 0.0003074035 68 68 68
0.0397794849930695 0.0350535142463121 0.00837658661156793 0.9996061 -0.02118976 -0.01840078 60 60 60
0.0404884059484951 0.0356463865576785 0.00788619565261645 0.9983813 0.05174041 -0.02361606 70 70 70
0.0409553795696693 0.0352691229335397 0.00861815328049409 0.9998949 -0.01405144 0.003573317 49 49 49
0.0403195925215809 0.0361970356597133 0.00543043888166356 0.9980471 0.05426235 -0.03094418 87 87 87
0.0403824329847108 0.0379765768565888 0.00696719113693328 0.930172 0.3632416 0.05324994 67 67 67
0.040082559461545 0.0323109891791743 0.0044620297314466 0.9935907 -0.1085948 -0.03138103 101 101 101
0.0387993297034677 0.0252386962757206 0.00755329678522776 0.9964077 -0.08460439 -0.003707362 72 72 72
0.0389416546427138 0.0227945952031924 0.00752045663566547 0.9944677 -0.1045937 -0.009703776 67 67 67
0.0395308478332849 0.0233758700740666 0.0058024411204663 0.9964356 -0.08431371 -0.002709341 52 52 52
0.0391526123768744 0.0265584740876373 0.00308722136602957 0.9940812 -0.1054609 -0.02608685 51 51 51
0.0213180531989577 0.0307124990198241 -0.0116976250354346 0.04318819 0.535654 -0.8433324 119 119 119
0.023978863010424 0.0320716217707059 -0.0106230019771982 0.02007101 0.5404182 -0.8411571 170 170 170
0.0234393256418798 0.0336238542889361 -0.00957781116501066 0.02896555 0.5464679 -0.836979 189 189 189
0.0254723814586012 0.0327353017778912 -0.0101665181048215 0.02351817 0.5423614 -0.8398161 100 100 100
0.0261361611957671 0.0295941768832827 -0.0121673873921148 0.03223002 0.5465928 -0.836778 91 91 91
0.0264874507518166 0.0307182840231538 -0.0113422409745421 0.02262883 0.5331151 -0.84574 112 112 112
0.0278365009246655 0.0315337194936124 -0.0106406189770669 0.02947051 0.5386191 -0.8420338 115 115 115
0.0263122111039523 0.0349459762002761 -0.00868632785424628 0.03442048 0.5383802 -0.8419988 83 83 83
0.0278639340432987 0.0346856469364171 -0.00948227769597082 0.03656144 0.5463519 -0.8367574 93 93 93
0.0292807176151961 0.0369377729324144 -0.00707643236294225 0.02097342 0.5747613 -0.8180523 95 95 95
0.0298380769347861 0.0353020202603754 -0.00838085302789543 0.02092936 0.5460191 -0.8375113 125 125 125
0.0312106932254047 0.0360091827940404 -0.00766519347221001 0.03011389 0.5527964 -0.8327721 122 122 122
0.0323199411007757 0.0373786732929845 -0.00692524843412617 0.01619829 0.5526259 -0.833272 106 106 106
0.0280309734616475 0.0295908721761479 -0.0120667391870448 0.02687157 0.5415735 -0.8402238 85 85 85
0.0289890745272261 0.0301876257081796 -0.0119405805989845 0.03546024 0.5326051 -0.8456208 113 113 113
0.0302633547575285 0.0310182010599783 -0.0110431445850802 0.03052883 0.5365372 -0.8433242 156 156 156
0.0297896126621481 0.0316709850647868 -0.0106512936353234 0.03407597 0.5398303 -0.8410839 136 136 136
0.0299559066114293 0.031998853587574 -0.0104045607126695 0.0415258 0.5429355 -0.8387471 143 143 143
0.0295372118372621 0.0274509456337139 -0.0133973443801631 0.02391114 0.5523905 -0.8332425 133 133 133
0.0323218752150768 0.0295313031511623 -0.0119177272331808 0.01573299 0.5435551 -0.8392261 101 101 101
0.0312713276763232 0.0273811993215366 -0.013770225529418 0.01940951 0.5616814 -0.8271259 104 104 104
0.0322758237861449 0.0278383970014126 -0.0132027564221321 0.02480875 0.5515879 -0.8337477 110 110 110
0.033615080761954 0.0246909380539097 -0.0152405042883442 0.03671227 0.5485982 -0.8352797 127 127 127
0.0350424570709849 0.0264440083832159 -0.0140979999218868 0.1204858 0.5532712 -0.8242415 102 102 102
0.033919679596454 0.0291542937213408 -0.0122227250266188 0.1264918 0.5453193 -0.8286294 115 115 115
0.0351435744397994 0.0277340915425833 -0.0127430969276247 0.2603493 0.5514654 -0.7925302 127 127 127
0.0357636430157009 0.0269743259151106 -0.0134629022776589 0.2784736 0.5433246 -0.7919917 78 78 78
0.0338959247298125 0.0308523829577189 -0.0109055320969711 0.06099331 0.5560696 -0.8288947 123 123 123
0.0339364246864923 0.0309643526025442 -0.0109091691749762 0.06099331 0.5560696 -0.8288947 104 104 104
0.0288600522334079 0.0408384373389304 -0.00460306839030877 -0.0132749 0.795994 -0.6051589 89 89 89
0.0317214017288064 0.041957490672578 -0.00391890328194311 -0.1174614 0.78943 -0.6024974 126 126 126
0.0327259309864865 0.0414685644831089 -0.00420341610007435 -0.08194179 0.7330347 -0.6752374 91 91 91
0.0309788841433323 0.0420062175134303 0.000653401118331509 -0.3628255 0.9208574 0.1427561 29 29 29
0.0331336806401765 0.0432310047365311 -1.91963422890296E-05 -0.259758 0.9630834 -0.07068312 40 40 40
0.0365517150272059 0.0428918345681276 0.00386567239145463 0.1953205 0.9071532 0.3727236 38 38 38
0.0371573947270749 0.0436097404177228 0.00218278137449263 0.363047 0.8939509 0.2627711 69 69 69
0.0340875877878102 0.0440246885949981 0.000273964816321859 -0.1929946 0.9810083 0.01938472 39 39 39
0.0378518653045024 0.0438342334924168 0.00167153543411552 0.3137819 0.9274985 0.203193 74 74 74
0.0403938764899576 0.0396441509198578 0.0045139168758298 0.9395774 0.3327151 0.08059173 63 63 63
0.0397612248036069 0.0375734331706316 -0.000616349971202967 0.9755679 -0.005250036 -0.2196355 67 67 67
0.0409689141887444 0.0398323301023872 -0.0001533447008501 0.9714457 0.2128803 -0.104762 84 84 84
0.0353411972692648 0.0381068603656768 -0.00631249713657495 0.1308763 0.5580327 -0.8194333 101 101 101
0.0365272207489111 0.0395445651664527 -0.00581258739450774 0.3664532 0.4854733 -0.7937428 151 151 151
0.0370756604350158 0.0411884766622151 -0.0045539742794784 0.378724 0.6079005 -0.6978718 121 121 121
0.0361719734645346 0.0423220962987881 -0.00387954967959264 0.2130588 0.7439808 -0.6333234 95 95 95
0.037084812716579 0.0436544627254224 -0.00273810305727468 0.2812003 0.8643781 -0.4168655 95 95 95
0.0357659897722311 0.0359586809012232 -0.00770400177697367 0.07779489 0.5469482 -0.833544 85 85 85
0.0369465491038924 0.0368735422532939 -0.00700898065263073 0.4786669 0.4501768 -0.753803 99 99 99
0.0387621180549496 0.0392165712868567 -0.00531374153732056 0.6681876 0.2736235 -0.6918494 84 84 84
0.0375047250072302 0.0383187648428841 -0.00666150369290475 0.4928738 0.4304745 -0.7561528 106 106 106
0.0397654736334601 0.0438452338925172 -0.00113261980845691 0.6281877 0.7707115 -0.1066962 89 89 89
0.039967311037999 0.0388292530394728 -0.00318011392007556 0.8646217 0.1143159 -0.4892456 66 66 66
0.0386208119289416 0.0274458522844313 -0.000834689109264597 0.990855 -0.1297416 -0.03705996 42 42 42
0.0387397847630913 0.0257319355214328 -0.00416517384494292 0.9913108 -0.1280022 -0.03030258 67 67 67
0.0396200420916398 0.0275040066021678 -0.00155675667758221 0.9921575 -0.1233605 -0.02014348 41 41 41
0.0386872598756736 0.0265014390050012 -0.00509495224599049 0.9936615 -0.1007214 -0.04992056 66 66 66
0.0384250401397386 0.0200045948962054 -0.00301927806749896 0.9939508 -0.09562162 -0.05402146 71 71 71
0.0375509164175916 0.0146322649608516 -0.00301616135426397 0.9905198 -0.1208931 -0.06523375 61 61 61
0.0380366712104636 0.0161971525061405 -0.00379558846886313 0.9928687 -0.11689 -0.02341975 42 42 42
0.0377956649766789 0.0158899774108286 -0.00445029167021799 0.9927226 -0.1155715 -0.03383818 49 49 49
0.0376837226391831 0.017374810121051 -0.00417502282655513 0.9936494 -0.1019701 -0.04757074 39 39 39
0.0390796568430043 0.0185828541958791 -0.00213629900128698 0.9924745 -0.1015975 -0.06835447 50 50 50
0.0380912447700442 0.0185190018136071 -0.0053439380460516 0.9933649 -0.1059276 -0.04478383 40 40 40
0.0381983588647907 0.0192574725543281 -0.00481242937198972 0.9944414 -0.09825651 -0.03784072 43 43 43
0.0385458045730644 0.023442588003772 -0.000796301001619759 0.993876 -0.1011498 -0.04448691 65 65 65
0.0382079611237182 0.0213320456843943 -0.00226767751692653 0.9933957 -0.1058978 -0.04416525 63 63 63
0.039272357070947 0.0249290091780797 -0.002169920591436 0.9921412 -0.1223221 -0.02632647 87 87 87
0.0380294747083683 0.0229850256207315 -0.00802101649632542 0.9914405 -0.0990369 -0.0850727 35 35 35
0.0385957558510144 0.0234140492347047 -0.00907800807072581 0.9708846 -0.0003114589 -0.2395474 52 52 52
0.0361247847366263 0.0254956821859421 -0.0146634451488332 0.5200667 0.4561228 -0.7221375 111 111 111
0.0368584909608303 0.0265045265462777 -0.0136151870285887 0.6227187 0.4425703 -0.6452541 115 115 115
0.0381360822989341 0.0209690745709284 -0.0112561738984922 0.9830487 -0.002628362 -0.1833259 18 18 18
0.0393172300288189 0.0242816859494553 -0.00726515813748829 0.990561 -0.1304625 -0.04205288 81 81 81
0.0398987171843503 0.0276854572770026 -0.00454149721497049 0.9934161 -0.1008998 -0.05425535 87 87 87
0.0388193859298269 0.0270005829862544 -0.0109632755801854 0.8397886 0.2881538 -0.4601332 38 38 38
0.0380259381880552 0.0186037628100052 -0.00928340750176471 0.9940653 -0.1056119 -0.02608013 34 34 34
0.0379098365061887 0.0195099917530853 -0.0119025014564623 0.9873124 0.05048995 -0.1505486 27 27 27
0.0378824529850057 0.0200664562194625 -0.0119724721566186 0.9841832 0.05718297 -0.1676711 27 27 27
0.039276382933698 0.0272767254610918 0.000387025823796738 0.9949936 -0.09597002 -0.02788176 37 37 37
0.0396281370550917 0.0325044952617287 -0.00269330849715005 0.9881985 -0.03382104 -0.1493983 62 62 62
0.0392619758446425 0.0308083198872321 -0.00387775154722508 0.9756904 0.03059341 -0.2170076 57 57 57
0.0353250000575234 0.0381096075078929 0.0168832314549792 0.03176721 0.9467638 0.3203578 32 32 32
0.0362545070813476 0.0395955682899717 0.014030869132735 0.1499379 0.920741 0.3602148 26 26 26
0.037651360124225 0.0395362839348851 0.015407915506126 0.325711 0.9081472 0.2630226 63 63 63
0.0363217854389635 0.0409198472530977 0.0107327495178826 0.03173257 0.9702752 0.239915 71 71 71
0.0385783162482018 0.0408210637780854 0.00976405577388517 0.5378934 0.799912 0.2661043 15 15 15
0.0388687268478438 0.0403430418849781 0.0106245417401735 0.6585173 0.7263281 0.1969833 22 22 22
0.0395346794298794 0.0413124391210781 0.00793989723115196 0.6362857 0.7512454 0.1754161 76 76 76
0.0409820688584253 0.0394715746534972 0.00681950342804055 0.9240574 0.3553987 0.1407471 75 75 75
0.0379080732239431 0.0374717905655136 0.0190212248322254 0.5903549 0.7482161 0.3027438 76 76 76
0.0401321146339449 0.0354676302370739 0.0171985290839736 0.9039913 0.4270915 0.01981548 59 59 59
0.0405058595146379 0.035130286304997 0.0172546216263674 0.9382723 0.345746 0.01023501 61 61 61
0.0404998218020306 0.037786928145998 0.0130516638047857 0.8636593 0.4391519 0.2474637 56 56 56
0.0404592438506908 0.0364487984676117 0.0133819871198495 0.949588 0.2894844 0.1203389 55 55 55
0.0408181993651386 0.035281685611826 0.0158729653260955 0.9698983 0.238994 0.04668002 60 60 60
0.0402232095136836 0.0312749252919405 0.0190900465621032 0.9982536 -0.05831754 -0.009428808 56 56 56
0.0407402129234811 0.0334221064794554 0.0181761900524617 0.9950094 0.07477003 0.06607335 52 52 52
0.0404611360497069 0.0367517261212879 0.0110493531081177 0.9459921 0.2785576 0.1658452 65 65 65
0.0393770700281224 0.0417568108013665 0.00493832870763311 0.6878183 0.6923955 0.2179321 65 65 65
0.0386423992923706 0.0428578345462848 0.0033676422938026 0.4386806 0.851691 0.2866736 57 57 57
0.0401272846191393 0.0414119457824177 0.00430691709822523 0.7818806 0.5803062 0.2278322 67 67 67
0.00678925754360382 -0.0308530116525719 -0.0186028748703136 0.2237846 -0.8817329 -0.415292 15 15 15
0.00570951426483113 -0.0301002696639562 -0.0210862587808442 0.2330382 -0.8872046 -0.3981975 10 10 10
0.00884761599314898 -0.0296055687175886 -0.0196474871201315 0.1735685 -0.8948774 -0.4111793 27 27 27
0.00472055568013596 -0.0293170661339074 -0.0229247586947326 0.2330207 -0.8888602 -0.3944984 30 30 30
0.00708893959398171 -0.0288391462633507 -0.0227683153121633 0.2168549 -0.8882138 -0.4050311 42 42 42
0.00869574596683909 -0.0279373002382043 -0.0238867791282664 0.201542 -0.8830955 -0.4237017 23 23 23
0.00627647266847808 -0.0280482961475569 -0.0275835239132006 0.2334974 -0.8768852 -0.4201801 32 32 32
0.00733781595094019 -0.0272490994351805 -0.0269041120579241 0.2388984 -0.8731148 -0.4249683 52 52 52
0.00849050168748788 -0.0268199630776241 -0.027491967414453 0.2180182 -0.8701739 -0.4418885 67 67 67
0.0092553331427826 -0.0256947872239118 -0.0282998511358898 0.2489444 -0.8433421 -0.476236 54 54 54
0.0109911975957415 -0.0261792873986265 -0.0267076089030404 0.2260811 -0.8582299 -0.4607914 62 62 62
0.0126015867065574 -0.0279985674565563 -0.023533306309151 0.0290169 -0.8467998 -0.5311196 46 46 46
0.0170297828147921 -0.0284585426906862 -0.0244284586083641 0.07976301 -0.7073852 -0.7023133 34 34 34
0.00944016959549365 -0.024883428491676 -0.0307053487416964 0.2697582 -0.8209899 -0.5031959 56 56 56
0.0109675103618463 -0.0247487432558654 -0.0290519553509786 0.2457064 -0.8343598 -0.4934289 63 63 63
0.0141341409341115 -0.023868410754062 -0.0290635155211855 0.2377819 -0.8236517 -0.5148376 43 43 43
0.013304520981851 -0.0224079639914833 -0.0323113267379166 0.2811119 -0.752167 -0.596004 52 52 52
0.0140497568685105 -0.0218963486317268 -0.0326272269375724 0.218538 -0.7672361 -0.6029841 63 63 63
0.0144042001317717 -0.0241142556150998 -0.0303643913950681 0.2500099 -0.8001504 -0.5452104 55 55 55
0.0200022676550746 -0.0276198052328901 -0.0239859270012769 0.09762105 -0.5434996 -0.8337135 24 24 24
0.0201191077970984 -0.0290698282145391 -0.0231429829149411 0.06254774 -0.6110059 -0.7891512 19 19 19
0.0183732040831505 -0.0336303933601713 -0.0115128314932034 0.1038508 -0.7503738 -0.6528048 50 50 50
0.0191772459022718 -0.0327934286004875 -0.0122002762132616 0.1062707 -0.7668558 -0.6329603 33 33 33
0.020891721672945 -0.0323538956538049 -0.0123892772110227 -0.04643806 -0.8295316 -0.5565258 41 41 41
0.0185480214262251 -0.0312147657772487 -0.0170418631442658 0.001519811 -0.9105993 -0.4132876 33 33 33
0.023204136914498 -0.0337213790782661 -0.0111930859403453 -0.07327598 -0.8082359 -0.5842819 23 23 23
0.0245220155130508 -0.0327851242622156 -0.0144550167161154 -0.0689996 -0.9331539 -0.3527928 11 11 11
0.0238204790182297 -0.0302678831683788 -0.0220552326405729 -0.06309322 -0.6531503 -0.7545953 42 42 42
0.0294021469566941 -0.0353760372324922 -0.0183892645955706 0.3082144 -0.8825582 -0.3550985 15 15 15
0.0330905480156386 -0.0305038565863817 -0.0128768425189502 0.9979369 -0.06253522 0.01453514 88 88 88
0.0333334504706584 -0.0251650522837953 -0.00378107802924044 0.9928631 -0.1007179 -0.06386612 96 96 96
0.0341549162319434 -0.0224450338918299 -0.00177672623629788 0.994727 -0.08807231 -0.05255075 79 79 79
0.0345347675643106 -0.0254754153330293 -0.00224018046048369 0.993638 -0.103575 -0.0442242 81 81 81
0.0336868575130882 -0.0235146897669002 -0.00760488844767188 0.9920903 -0.109177 -0.06194456 85 85 85
0.0338473807694133 -0.0222780054903696 -0.00534104171449307 0.9936064 -0.088453 -0.07015864 86 86 86
0.0341084101277398 -0.0212979513335804 -0.00669478384156269 0.991532 -0.1226825 -0.04258178 80 80 80
0.0340567921388695 -0.0275341854903367 -0.00593545272948154 0.9871966 -0.1267088 -0.09689007 100 100 100
0.0336536860818379 -0.0236598439827823 -0.00358961724807466 0.9953516 -0.07033709 -0.06578629 85 85 85
0.0342144162521617 -0.0210743803065466 -0.00223434687913909 0.9944303 -0.09265814 -0.05022844 73 73 73
0.0342538511373944 -0.0174556718516855 -0.00840281945754268 0.994257 -0.1020675 -0.03217612 76 76 76
0.03456071587697 -0.0148925572502646 -0.0114019537987872 0.9930045 -0.1163298 -0.02023476 88 88 88
0.0338600609286128 -0.0201853753373104 -0.0131792756918998 0.9904917 -0.1296969 -0.04588006 86 86 86
0.0339864412867246 -0.0188827177983341 -0.0119658777303721 0.9929143 -0.1067322 -0.05224532 89 89 89
0.0344534875313987 -0.016379329064271 -0.00964139890951282 0.9943184 -0.1010581 -0.03343966 82 82 82
