ply
format ascii 1.0
comment File exported by Rhinoceros Version 7.0
element vertex 473
property float x
property float y
property float z
property float nx
property float ny
property float nz
property uchar red
property uchar green
property uchar blue
end_header
-0.0496711497447955 -0.0462742343365621 -0.0037007031726303 -0.6680899 -0.1576035 -0.7271981 47 47 47
0.00764053753605931 0.0262896969958772 0.0166154305807576 -0.6790246 0.4930869 0.5438666 36 36 36
0.0226569641973533 0.0537483514052357 0.00775828766470091 0.5486169 0.711946 -0.4383519 44 44 44
-0.00365815550232296 -0.0161206465514587 -0.0111046827646288 -0.09475411 0.02096607 -0.9952799 144 144 144
-0.0270870625883546 -0.0185930414482611 0.0069534748092944 -0.5185612 0.4199186 0.7448239 37 37 37
-0.0489250978228912 -0.0502539041362717 -0.00333144930397741 -0.7143788 -0.2708653 -0.6452092 56 56 56
0.0430431106477152 0.0204845207472979 -0.00147065370686036 0.8048868 0.5818533 -0.1166356 54 54 54
0.000871326891545232 0.0343904228145218 -0.0108844634604635 -0.1836815 0.2544329 -0.9494867 82 82 82
0.030671505456412 -0.00614205932927492 0.0054912321373268 0.431742 -0.87882 0.2031606 30 30 30
-0.024550869178785 -0.0245225672618843 0.0102853590664816 -0.5228087 0.7105767 0.4709052 25 25 25
-0.0224673874479011 -0.0336149159843144 0.0137311509021392 0.4822648 -0.8014911 0.3535994 13 13 13
0.0486485833021353 0.000281223881806847 0.000657468175789627 0.5707964 -0.762302 0.3051019 24 24 24
-0.0356657876159217 -0.0203251405812084 -0.0114515868115301 -0.1436342 -0.01187884 -0.9895595 138 138 138
0.00158376047768605 0.000987107262354625 -0.0115703550370279 0.100044 0.1577478 -0.9823985 26 26 26
0.00298067198366736 0.0338864333413942 0.00184503904394259 -0.7524316 0.4822599 0.4486335 44 44 44
-0.0517755310713073 -0.045444383432933 -0.00181852933548057 -0.7228384 -0.1602872 -0.6721701 62 62 62
0.0489739529434747 0.0103342164970042 -0.00149483885796611 0.7811197 0.6042284 -0.1573533 76 76 76
-0.0322128515818332 -0.00667436635919838 -0.00934108474385245 -0.06519548 0.174744 -0.9824531 74 74 74
0.0529640368675761 0.00609586565779541 -0.00641752500824519 0.8737642 0.4856806 0.02550706 73 73 73
-0.0458576838693758 -0.0112491144958224 -0.00876556643417117 -0.6723695 0.6950453 -0.25462 47 47 47
0.0172431514661089 0.00946052731121716 -0.011092431070082 -0.1159635 0.04018056 -0.9924404 61 61 61
-0.0326216408879112 -0.0453527374094786 -0.0110632416831155 -0.03106198 -0.06834725 -0.9971779 75 75 75
-0.0407994915146481 -0.0286472915062712 0.00843986104711195 -0.4850409 0.5828275 0.6519566 61 61 61
0.0352422051333934 0.0349954394701537 0.00543932517703796 0.7839113 0.5999353 -0.1598769 101 101 101
0.0109586979252361 0.0403026614672652 -0.00447929406552713 -0.7274164 0.402191 -0.5559746 71 71 71
0.0098578835011367 -0.00856055031400293 -0.0112689477109919 -0.03892642 0.1626732 -0.9859118 57 57 57
-0.00992609439406955 -0.00814447873539703 0.0170316113531515 -0.5692442 0.5229765 0.6343947 31 31 31
0.00441465259484541 0.0280575106675538 0.00986970409079871 -0.8003504 0.3637784 0.4765549 51 51 51
0.038286768497654 0.0314349235325546 0.0133048911254463 0.8585889 0.4957792 -0.1304921 97 97 97
-0.0358897266949325 -0.0102029736927327 -0.0106990408423118 -0.17319 0.1100867 -0.9787166 80 80 80
-0.011797679381288 -0.0144619830023274 0.0199807131358271 -0.6420311 0.4407611 0.6273162 12 12 12
-0.0256994820997467 -0.00164482500385388 -0.0109430187737568 -0.1078487 0.09653004 -0.9894699 92 92 92
0.0136771977557855 0.0552458575726105 -0.00447654668098804 -0.3602137 0.861749 -0.3572601 73 73 73
0.0453761923904266 -0.00341882364837609 -0.0118581299006681 -0.9252137 -0.3469004 -0.1537522 34 34 34
0.0341961475401942 -0.00552221604501679 0.00498164476709748 0.4033401 -0.8915868 0.2058877 20 20 20
-0.00200968331491791 0.00163576979433566 -0.0113095638936303 -0.1610476 -0.06690922 -0.984676 120 120 120
-0.0497271314771555 -0.0258342203958095 -0.00930099159795553 -0.327812 0.003338205 -0.9447371 101 101 101
-0.0510340762510346 -0.0240455967227511 -0.00212553105561039 -0.581863 0.6627707 0.4713495 37 37 37
-0.0281009183737309 -0.017143478786243 0.00869980303023585 -0.5774157 0.5041534 0.6421997 37 37 37
0.0014018048555331 -0.00252717732550889 -0.0120767155677366 -0.05281349 -0.004829619 -0.9985927 23 23 23
0.0190981274904527 0.00627446156432954 -0.0112232554907903 -0.1908217 0.09543306 -0.9769747 80 80 80
-0.0313543260888092 -0.0103844599900398 -0.0112844435893319 -0.01652172 0.06318279 -0.9978652 53 53 53
0.00467260872379582 0.0253131339330079 0.013271573832363 -0.7829492 0.4717402 0.4055266 33 33 33
0.0386613311545274 0.0246501740615162 -0.00500902319535271 0.7903371 0.6103794 -0.05295572 72 72 72
-0.0303551374925348 0.00520189411520344 -0.00904102439349411 -0.3368014 0.3007545 -0.8922508 55 55 55
-0.0030553388475596 0.0151408654731988 -0.0100815681604085 0.07200795 0.005755062 -0.9973875 47 47 47
0.0212076884742141 -0.0127524722919505 -0.0133588562355676 0.105442 0.02700961 -0.9940585 35 35 35
-0.0481532499095869 -0.0208350723765667 -0.00990659335842767 -0.2682209 0.08964941 -0.959177 75 75 75
-0.0467296966134993 -0.0281633075345233 0.00320423952371054 -0.4141828 0.6637613 0.622795 51 51 51
-0.0353233253209808 -0.0351694181874724 -0.00873844481129735 -0.06947743 -0.1937725 -0.9785832 82 82 82
0.045570881969917 0.0174448900554358 -0.000216931077119759 0.8284499 0.5364407 -0.1609415 79 79 79
0.00853561875248987 0.00382456935546949 -0.0137770617799275 0.03525097 0.02660205 -0.9990244 51 51 51
0.0434221963464598 0.00891643235922346 -0.0139616816815294 -0.2039094 -0.00235984 -0.9789869 52 52 52
0.0257103202128754 0.000495729036953163 -0.013014453666016 -0.05146833 0.08096002 -0.9953876 117 117 117
-0.0320196054161661 -0.0216217063676689 -0.0120111137019518 -0.08072609 0.04191159 -0.9958548 37 37 37
-0.00941478892419223 0.0137317265768306 -0.0104029845256408 -0.05288173 0.170084 -0.9840096 59 59 59
0.00782824916162372 0.00531996681596847 -0.0111896621899444 0.1512926 0.08028371 -0.9852234 172 172 172
-0.0150056683735282 0.0128372059814539 -0.0103255676899842 -0.0787872 0.003962243 -0.9968836 35 35 35
-0.00201580218476649 -0.00506403732671679 -0.0116638739816022 -0.2379293 -0.01972055 -0.9710823 192 192 192
0.0224967613431797 0.0317704703545734 -0.0114566923256913 -0.1484547 -0.005265204 -0.9889052 81 81 81
-0.000429047049040676 -0.010558186577553 -0.00999658205735862 -0.1437952 0.03049754 -0.9891374 100 100 100
0.0406534162990455 -0.00851468899521501 -0.0177795367337303 -0.06757429 -0.1657349 -0.9838524 67 67 67
-0.0384811000014962 -0.0154678463123341 -0.000405205019931271 -0.4925039 0.4737213 0.7300877 34 34 34
-0.0319268772158952 -0.0318393498484744 0.00854575896272394 0.450029 0.217957 0.8660073 38 38 38
0.00154396075870111 0.0117972294852227 -0.0103138041591795 0.2082654 0.3839885 -0.8995434 129 129 129
-0.0052613157994521 -0.0316423417248823 -0.0121767789101719 0.4330499 -0.4064247 -0.8045413 59 59 59
0.0421430848154942 0.000464258332394607 -0.0154521932974044 -0.3099049 0.07465821 -0.9478318 60 60 60
0.0232603389041086 0.0394608782573045 -0.0119944793931938 0.1766251 0.1637375 -0.9705636 71 71 71
-0.000537661468972939 0.0385550295376944 -0.00938258252307952 -0.09476397 0.2430309 -0.9653786 79 79 79
-0.0054263918295514 -0.0100278079209766 -0.0118244996038619 0.002780046 0.2208973 -0.9752931 86 86 86
0.0402039163900876 0.00870761821335542 -0.0132216237587224 -0.04386796 0.06930359 -0.9966306 65 65 65
-0.000866138873238942 -0.0154989915830259 -0.0139091492962036 -0.08443853 -0.03176609 -0.9959222 137 137 137
-0.0286604079066575 -0.0250652110029879 -0.0109410341066503 -0.02311613 -0.06673446 -0.997503 120 120 120
0.0111919896812105 -0.0152915746736031 0.00791088073853455 0.3899826 -0.9066303 0.1610436 59 59 59
0.0377301701001025 0.0329763199416098 0.0182303146849389 0.8092609 0.587396 0.007919021 103 103 103
-0.052177488032664 -0.046794076703411 -0.000194184367497269 -0.7294133 -0.224861 -0.6460602 53 53 53
0.0155520611792699 -0.0160212721765198 0.00115822387662864 0.4340941 -0.8753198 0.2130198 36 36 36
0.00443280448273087 -0.0147930179816635 -0.0141493315210592 -0.2480609 0.1929737 -0.9493297 189 189 189
0.0168938720419496 0.0373727006644389 -0.0118214131434928 -0.1553509 -0.02548072 -0.9875306 46 46 46
0.0371702032157566 0.0333923751775376 0.0104922328473407 0.7895293 0.5787874 -0.2040802 100 100 100
0.0187777351230496 0.0478111981036391 -0.00998678390448485 0.1458248 0.3425421 -0.9281164 56 56 56
0.0153077893395592 0.0285430950909813 -0.00735249719696199 -0.1536981 -0.05769167 -0.9864323 60 60 60
-0.0259881101525472 -0.0177193418073944 -0.0110230265707231 -0.1192472 0.1941883 -0.9736894 123 123 123
0.0329348680468919 0.0395276525092869 0.0143740509503487 0.4978789 0.8668517 0.02616457 66 66 66
0.0113250409119887 0.010918620972509 -0.00763937512932847 -0.01758667 -0.03601605 -0.9991965 54 54 54
0.0265369442653804 0.0456595364685273 0.00799363595126032 0.8291491 0.4485866 0.3335893 67 67 67
-0.0288970637293959 -0.0235931468905881 -0.0129288255817945 -0.06057848 -0.07480552 -0.9953564 66 66 66
-0.0223196289296819 -0.00392521898405507 0.00268065592073344 -0.5878683 0.6102151 0.5310823 37 37 37
-0.0183499844391903 -0.0327757777771882 0.00579337093188151 0.4717324 -0.8529189 0.2236023 20 20 20
-0.00439380278057988 0.026882262652111 -0.000575078506099364 -0.6956135 0.3964881 0.5990986 28 28 28
0.0407591534790017 0.0255183703411268 0.00762711278840958 0.7940385 0.5879532 -0.1543173 48 48 48
-0.0320964431177033 -0.00636408476486316 -0.00771068205764167 -0.5173765 0.1431357 -0.8437024 111 111 111
-0.0291582993637716 -0.0389741913519506 -0.0101090502452297 -0.09460283 -0.1328484 -0.9866112 121 121 121
0.0475465031651316 0.0171340701558369 0.0038660743784005 0.8167342 0.4898827 -0.3048938 65 65 65
-0.00330827853258553 0.0384782271272057 -0.00870697151249475 -0.02051631 0.06410027 -0.9977325 89 89 89
-0.0533469536133133 -0.029329371369472 -0.00865782998336603 -0.3493448 -0.1105898 -0.9304451 109 109 109
0.00464569046599506 0.0327683956811993 0.00597957302967986 -0.7582486 0.416274 0.5017718 50 50 50
0.0515902573420031 0.00830133697249202 -0.00723408071170453 0.7615231 0.6332127 -0.1382906 89 89 89
0.0397921177807208 0.0319792544695445 0.0115423105233404 0.8575038 0.4791249 -0.1874205 118 118 118
0.0291148366304654 0.0274707483587324 -0.01686094950445 -0.2338664 0.0298415 -0.9718107 34 34 34
-0.00305039361128778 0.0167681445349817 0.00950666491570787 -0.7002001 0.5129309 0.4966102 60 60 60
0.0404667170356661 0.0288555199234997 0.0163773120335752 0.8122597 0.5659838 -0.1410549 68 68 68
0.023891450242834 -0.0117260427043777 -0.0149270072914252 -0.03230505 0.0001459781 -0.999478 39 39 39
0.0269760065846005 0.0424394329725843 -0.00813482918936989 0.6647453 0.5179828 -0.5383377 33 33 33
0.025209085273441 -0.00184266776207775 -0.0131773695117829 -0.1448666 0.1285912 -0.9810596 82 82 82
0.0175252978152496 0.0555257177947293 -0.0015979732130291 0.2562416 0.9225191 0.2886152 81 81 81
0.0421947136287606 0.0179408991666179 -0.00677295366473249 0.6873459 0.5821925 -0.4342896 75 75 75
0.0437454142826967 0.00150433512032677 -0.0125228340061326 -0.2641634 0.0903584 -0.960236 62 62 62
0.0494326874481399 0.0118755576140583 0.00103276902544605 0.7086396 0.6685072 -0.2256725 76 76 76
-0.00707970165014848 0.00454250341699192 0.013119916111454 -0.6141974 0.3574764 0.7035426 34 34 34
-0.00554270714085314 0.0366117563055808 -0.00885870028555155 -0.2725389 0.2262069 -0.9351754 65 65 65
-0.0078563180279414 0.0267806574226912 -0.00591019212783375 -0.9856049 0.1182139 -0.1208652 67 67 67
0.0534394232565558 0.00279929763645059 -0.0136691206922677 0.7085255 0.2653534 -0.6538954 115 115 115
-0.0480486701876299 -0.0300678963674101 0.00529016522461725 -0.3895163 0.6593633 0.6430529 33 33 33
0.00117332214366406 -0.0251932133095949 -0.00497752617551309 0.5523115 -0.8244692 0.1232987 49 49 49
-0.00875813735824282 0.00460771105458546 0.0100342506098825 -0.6712111 0.3605444 0.6476754 34 34 34
-0.021070420507241 0.00407177968564554 -0.00300047837388182 -0.6130067 0.4991374 0.6124416 33 33 33
-0.0274121268140457 -0.00257478640402486 -0.0115030958546343 -0.1630369 0.04176525 -0.9857356 138 138 138
-0.0436225423175527 -0.0270350597392031 0.00407666321155323 -0.4657977 0.6351375 0.6161435 63 63 63
0.0161520950693455 -0.00361849860487129 -0.012806737962563 -0.01822495 0.126101 -0.99185 106 106 106
-0.00391263291220456 0.0203628451127273 -0.00269177285016572 -0.6624928 0.5700939 -0.4858973 32 32 32
0.0311532502177039 -0.00966116473303402 -0.0158187711325748 0.05843679 0.19288 -0.9794807 83 83 83
0.020405394024148 0.0432891015737775 -0.0143806931502065 0.06711967 0.5773787 -0.813713 67 67 67
-0.00603453270984322 0.0360551859094012 -0.00543829073483357 -0.6739035 0.5411885 0.5029603 74 74 74
0.0020314807009163 0.0321745754380605 -0.0112303433948881 -0.05716446 0.1363506 -0.98901 75 75 75
0.0169960394780824 0.0282247784123713 -0.0109443180769043 -0.09122534 0.138139 -0.9862026 41 41 41
0.037969625339245 0.0333745639696432 0.0156699693399872 0.8329924 0.5417241 -0.112511 92 92 92
0.0461237376747923 -0.00243362566045802 -0.0160872180823564 -0.05532149 -0.1268784 -0.9903744 81 81 81
-0.0197394505110877 0.00809262232371522 -0.0110935334710684 -0.001594034 0.1361081 -0.9906927 99 99 99
0.00937186339593232 0.0553643261080987 -0.00642956536934089 -0.6012782 0.7493762 -0.2773083 72 72 72
-0.0511512157883753 -0.0442252951065902 -0.00283355298349589 -0.699866 -0.1146965 -0.7050052 46 46 46
0.00816319803278609 0.00322900348474398 -0.00891402875448463 0.08908864 -0.06812618 -0.9936911 153 153 153
0.00476323261157119 -0.018929904549593 0.0110922916538187 0.4665558 -0.8650056 0.1846379 40 40 40
0.0286148660940893 0.0116347882780956 -0.0112192633130898 -0.202361 0.04558929 -0.9782493 42 42 42
-0.0479409140474159 -0.0337448538225449 -0.00950268985188488 -0.2396098 -0.005185937 -0.9708554 102 102 102
-0.00467788693598359 0.000454553851707118 -0.0113675653981301 -0.02423945 -0.09296123 -0.9953746 195 195 195
0.0384670068464923 0.0318198954755808 0.0187219448005616 0.8199443 0.5713307 0.03567259 79 79 79
-0.0196720215016564 0.00407153840507091 -0.00324637571530165 -0.7196018 0.4666286 0.5142285 58 58 58
0.0225494476794197 0.00265814686814481 -0.011217074901038 -0.1154678 0.1505085 -0.9818423 175 175 175
-0.0254855932988389 -0.00328903464454977 -0.0115274286331429 -0.05316874 0.05296193 -0.9971801 121 121 121
-0.0370651952549641 -0.0118903254803631 -0.001087864503616 -0.4734994 0.5549905 0.6839473 24 24 24
-0.045506462087944 -0.041630315242928 -0.0100195759441026 -0.3683586 -0.2498691 -0.895476 75 75 75
0.0390613293672335 0.0283071965777584 0.00410462030767714 0.8060777 0.5722523 -0.150884 84 84 84
0.0129255029942588 0.00368337896965842 -0.0126687138047019 0.06028179 0.08001474 -0.9949692 75 75 75
0.0293175961265939 0.0202730746225601 -0.0121972688308149 -0.05096238 -0.1626613 -0.985365 59 59 59
-0.0273837467375575 -0.0460431616352446 -0.0099819570650663 -0.09425543 -0.1262757 -0.9875072 51 51 51
0.0312732898382466 0.0278576036163918 -0.0137275953333282 -0.3958805 -0.1968446 -0.8969564 62 62 62
0.009820529799206 0.0338776050437559 -0.0102961878698229 0.006341586 0.07209967 -0.9973773 30 30 30
0.0115685957846647 0.0219303367308963 0.016425929289915 -0.7579314 0.4593487 0.4631833 48 48 48
-0.0280771027752555 -0.0112075913988576 -0.0117947715658731 -0.1134582 -0.06894799 -0.9911475 116 116 116
-0.0301916290163655 -0.0473380691673226 -0.00893906862330704 -0.1064019 -0.0446415 -0.9933206 47 47 47
0.0375715258047398 0.0188459436098223 -0.0132874143996542 0.228293 -0.01955049 -0.9733962 43 43 43
-0.00878948233123045 -0.0107131189304406 -0.0117489255773057 -0.0389935 0.04660339 -0.9981521 140 140 140
0.0521372376006621 0.00821899466347786 -0.00886266832098273 0.729818 0.6408074 -0.2381836 55 55 55
-0.00140012665756606 -0.000479265623776648 -0.0118155133995504 -0.1727058 -0.1369426 -0.9754073 173 173 173
0.0085904193409978 0.0239845518062811 -0.00714556657811863 0.04126276 0.1363121 -0.9898062 165 165 165
-0.0307991574397577 -0.0273921949309324 0.0171778264383632 -0.5183201 0.5323692 0.6692737 11 11 11
0.0360946211012829 0.0350423444461481 0.0149867767005965 0.7423589 0.6694441 -0.02734748 109 109 109
0.045543811021463 -0.00310511298932936 -0.00893124879086263 0.378205 -0.9174215 0.1236883 24 24 24
0.0447560118254759 0.019256510425621 0.000175657530239931 0.8257644 0.515655 -0.2285017 64 64 64
0.0176967507644892 0.0287701106821969 -0.00786920277325434 -0.1556585 0.05800991 -0.9861061 90 90 90
0.0138011553334505 0.00476654655331887 -0.010966682815215 0.09673135 0.2285998 -0.9687029 68 68 68
0.0110151698301109 0.0460722558950595 -0.00887628735235521 -0.1625391 0.2905087 -0.9429665 38 38 38
-0.00263755989538961 0.00209134578350612 -0.0145395568169076 -0.2146006 -0.02978095 -0.9762477 66 66 66
0.0250424204998101 -0.0104823208715701 0.00216871361326407 0.4745476 -0.8524436 0.2194184 42 42 42
0.0320189323190052 0.0147895836455614 -0.0125814938540605 -0.129321 0.08287445 -0.9881335 33 33 33
0.0471777301846645 0.0149213848556351 -0.00365849599674781 0.8211138 0.57063 -0.01239305 86 86 86
-0.00335725592885194 0.0175989279513047 0.00649796375783177 -0.6611192 0.5330275 0.5280182 66 66 66
0.00254840875302698 0.00849140567793527 -0.0104308536653902 0.2117367 0.4236031 -0.8807542 130 130 130
-0.0101073366655695 0.000884452888263221 -0.0121328165282099 0.1080007 0.07706036 -0.9911597 78 78 78
-0.0383591920762441 -0.0294588612064552 0.0111988458561743 -0.5885249 0.4751255 0.6541362 60 60 60
0.00207579074529218 0.0114790067997848 0.0188568871527381 -0.7089044 0.2974484 0.6395147 49 49 49
-0.0502296562756808 -0.0470349125726839 -0.00267671315071313 -0.7139513 -0.1873347 -0.6746697 53 53 53
0.0445598785020731 -0.00394224117114028 -0.0145969265338386 0.03652097 -0.1320047 -0.9905761 58 58 58
-0.000607537985020778 0.0343180137528634 -0.00463664275506062 -0.6968775 0.607434 0.3812947 70 70 70
0.0107785543630698 0.033807958793957 0.0144377319187242 -0.3589048 0.5788925 0.7321686 79 79 79
-0.00145181562221897 0.00488643994847915 0.0164748950172646 -0.6578967 0.3526675 0.6654304 83 83 83
-0.0448795002499613 -0.0170788190674176 -0.00991042010634888 -0.1833916 0.03304401 -0.9824844 56 56 56
-0.0104557145345081 -0.00139824732727578 0.0120148276645358 -0.6235107 0.4601843 0.6320323 15 15 15
-0.024168421130883 -0.0242212307217382 -0.0118056512651274 0.02386194 0.04920664 -0.9985036 86 86 86
0.0286145699818172 0.0395496889293561 -0.00193466157961056 0.8562049 0.4964315 -0.1430702 73 73 73
0.0135195209368284 0.0353438412501312 0.0136186342778092 -0.151391 0.6832277 0.7143393 35 35 35
0.0336265715581534 0.03195916653175 -0.00514096322569982 0.8060775 0.5658847 -0.173244 75 75 75
-0.00948748129868515 0.0103925925070834 0.00661440642976327 -0.6932401 0.2994178 0.6555663 60 60 60
0.0229327139980668 0.0423926682971112 0.0104670165062966 -0.1839184 0.4729521 0.8616788 54 54 54
0.0468752661870819 0.0128250415293463 -0.0110890630560586 0.5982726 0.5730963 -0.5600272 96 96 96
-0.0135440543838918 0.0201695237941755 -0.00917720611866132 -0.1187194 0.3805195 -0.9171208 49 49 49
0.0117025840533784 -0.0159816137841968 0.0067693323049294 0.420208 -0.8921148 0.1660013 34 34 34
0.00179785216894546 0.0116956861881954 0.0107362997556252 -0.7635015 0.1870813 0.6181149 41 41 41
0.0117605046275486 0.0404155218596216 -0.0112296317124646 -0.3294841 0.09068719 -0.9397957 68 68 68
-0.0363190665525808 -0.0232138625340226 0.00755013964052711 -0.5154353 0.5651715 0.6441333 45 45 45
0.0217601098514404 0.0115253045951809 -0.0112243067517435 -0.119862 0.2556071 -0.9593217 141 141 141
-0.0526319510026036 -0.0367905468194549 -0.00267304447178732 -0.7759333 -0.3634687 -0.5155755 75 75 75
0.0286947882119171 0.0423844521235763 -0.00298409904919281 0.8384226 0.5176742 -0.1704728 43 43 43
0.0209861117499845 0.0288206314917252 -0.00805853478406779 -0.208043 0.2111702 -0.9550525 108 108 108
0.0365134703079908 -0.00422662432822474 -0.0131091045710341 -0.3220839 0.06190659 -0.9446849 88 88 88
0.00756830422605526 0.0424729996389555 -0.00771269231524777 -0.3028024 0.2070079 -0.9303002 81 81 81
-0.0398350227184638 -0.0277526269386053 -0.010564302813357 -0.008415962 -0.02074903 -0.9997493 75 75 75
-0.041521493479149 -0.0214249953196837 -0.0106558557711222 -0.1782228 0.1809959 -0.9672007 108 108 108
-0.00770264296624723 0.018565709378952 -0.0072691388381432 -0.3977925 0.2852316 -0.8720115 34 34 34
0.0101781304630657 0.0299253072903116 -0.0108194003490562 0.1464712 -0.1682933 -0.9747941 41 41 41
-7.21954221405419E-06 0.0151123978444587 0.0147837185884242 -0.7924314 0.2630011 0.550348 26 26 26
0.017230626279338 -0.00965152439794781 -0.013238582440963 -0.05153786 0.1515968 -0.9870979 59 59 59
-0.0223539738923981 -0.0399282700955539 -0.0104786557747719 -0.08830072 -0.03219898 -0.9955733 119 119 119
-0.00411291213515508 -0.00578172430285195 -0.0111494154044955 -0.174976 0.0892345 -0.9805206 149 149 149
0.0201758455818439 0.0536162844034975 -0.0018914782342809 0.6936083 0.7202258 0.01350491 75 75 75
0.0435522607267338 0.00684347225809279 -0.0137843049527757 -0.3256289 0.3876068 -0.8623959 60 60 60
0.0398952697415325 0.00982196013488235 -0.0102830393132613 -0.1849459 0.009895365 -0.9826989 102 102 102
0.0322139069947209 0.0109463835958719 -0.0125184167719079 -0.01378165 -0.06829777 -0.9975698 58 58 58
-0.0533277905254903 -0.040430821922816 3.98036043236794E-05 -0.7623858 -0.02766806 -0.646531 90 90 90
-0.0312410484468177 -0.0348106218085578 -0.0110156725432226 -0.08287096 -0.116036 -0.9897818 93 93 93
0.0246911433258787 0.013901147698737 -0.00871404772397674 -0.2004616 0.1753148 -0.9638879 182 182 182
-0.0179089115682878 0.0016799890046999 0.00327051355175592 -0.6169447 0.4586439 0.6395506 14 14 14
0.028603011536789 -0.0133240398520853 -0.0175346248363406 -0.08306617 -0.0640933 -0.9944808 83 83 83
-0.0166899442731916 -0.00901700824380725 0.00621170697190207 -0.970688 0.15368 -0.1847898 30 30 30
-0.0304021811912196 -0.0117766921570441 -0.00974503867694518 -0.01272571 -0.07462321 -0.9971306 33 33 33
0.0503709289314795 0.0120790708910163 0.00184171337355313 0.769117 0.6018106 -0.2151349 71 71 71
-0.0450909023279611 -0.0446006895536804 -0.00883380294411237 -0.4377569 -0.1249757 -0.8903651 47 47 47
-0.00328664682373936 0.0265828881654935 -0.00913274731773814 0.04084396 0.2484223 -0.9677904 40 40 40
0.00510798730379469 0.0265915188342034 -0.0111159609222159 0.006398587 -0.1403496 -0.9900814 108 108 108
0.0335428619329534 0.0314375789496899 -0.0095825209194392 0.7032489 0.4661205 -0.5368173 90 90 90
0.0389079753503914 0.00319204580199428 -0.0135968668694609 -0.2103732 0.2750954 -0.9381182 55 55 55
0.0290958255777374 -0.00846052177553624 -0.0154128049757801 0.005502807 0.2474819 -0.9688769 78 78 78
-0.0236814877463611 0.00743965773032396 -0.0108729160975118 -0.3126499 0.3227726 -0.8933464 76 76 76
-0.036657884338819 -0.0138360608422596 -0.0107113694929592 -0.1321793 0.03409028 -0.9906394 148 148 148
0.0262190084405212 0.0386266182075869 -0.0127468122307639 -0.006046462 0.2914524 -0.9565662 69 69 69
0.00912687828085534 0.0279486692317381 0.0179705482942511 -0.6396333 0.5181231 0.5678183 87 87 87
0.00394771189178411 -0.0216430676571167 0.00125101404107339 0.4682193 -0.8583225 0.2098883 38 38 38
0.0070316846780365 0.0330910405218094 0.00866266907356025 -0.8412952 0.3908798 0.3734104 53 53 53
-0.0489461577775603 -0.0269794811145312 0.00202400132274708 -0.3897306 0.670844 0.6309346 22 22 22
0.0352098241028267 0.000271276501929041 -0.0112530817416579 -0.1171146 0.2143707 -0.9697058 64 64 64
-0.0232262751194716 -0.0181579755734984 -0.011170790014659 -0.02500689 0.0186719 -0.9995129 86 86 86
0.0178612589514786 0.0302953932587497 -0.0113722723026637 -0.2273769 -0.1929633 -0.9544972 33 33 33
0.0179217469028665 0.00080194713816395 -0.0107053167778923 -0.1072471 0.1704026 -0.9795208 73 73 73
-0.0408195699547871 -0.0319067265036983 -0.0107977683191551 -0.1614158 -0.06562296 -0.9847023 59 59 59
-0.0421813580254906 -0.0112522935114434 -0.00989755814299878 -0.234917 0.4089603 -0.8817967 86 86 86
-0.020339689166271 0.0028299650110053 -0.00208006064434949 -0.6153501 0.4855073 0.6209887 28 28 28
0.0268308021589327 -0.00945470969669726 -0.0160311116548406 -0.2215099 0.3167542 -0.9222799 51 51 51
-0.0403546032235347 -0.0106349491845259 -0.0103387769594147 -0.1659741 0.3367456 -0.9268522 92 92 92
0.0168298081328966 0.0240509563095261 -0.00781578321493662 -0.2593713 -0.08322226 -0.9621853 160 160 160
-0.0384755491887796 -0.02661370551364 0.00867859319678624 -0.5090238 0.5620868 0.6518844 55 55 55
0.0362154313720382 0.034985396852887 0.0111784740031818 0.7831957 0.5874283 -0.2037952 122 122 122
0.0139006257661785 -0.016309302170789 0.00177071789177877 0.4483898 -0.8665931 0.2190043 55 55 55
0.000602419628059181 -0.0121181259191721 -0.0135045104742501 -0.08266485 0.2063679 -0.9749763 128 128 128
0.00630740021535936 0.0225134544071823 -0.0101551691875446 -0.06157398 0.01565601 -0.9979797 151 151 151
-0.00491202751811404 0.0141781848288727 0.00930296461962701 -0.6738746 0.4338604 0.5980453 46 46 46
0.0171579109505859 0.051142112121092 0.0037509615394157 -0.358566 0.5521594 0.7526954 71 71 71
0.0143790552373255 0.0361159899471086 -0.0112767394289689 -0.05103253 0.0003742314 -0.9986969 47 47 47
-0.00949144320190132 -0.00474197301738277 0.0151031951677628 -0.6221435 0.5015219 0.6011765 13 13 13
-0.0267340835136736 -0.0252903851781987 -0.0120521006271496 -0.0006541766 0.01190818 -0.9999289 57 57 57
0.0453933791809245 0.000765695463561755 -0.0154323341502806 -0.1935156 0.09748128 -0.9762424 54 54 54
-0.00619180921587903 -0.0159409038673513 -0.0130159525302053 -0.1331075 0.09924243 -0.9861203 149 149 149
-0.00700445822224238 0.0335140465385637 -0.00789047370951926 -0.8025984 0.2372583 -0.5473064 56 56 56
-0.0236636728251334 -0.0259679234800758 0.0145055049129689 -0.7046954 0.6411173 0.3039293 25 25 25
0.0425518605567647 0.00677346395047151 -0.0140228036290794 -0.3070356 0.329306 -0.8929091 99 99 99
0.0374716575850977 0.03040414741509 0.0117917263556805 0.843034 0.5001462 -0.1978572 99 99 99
-0.0556085199584964 -0.0335287858016553 0.000265114444535502 -0.9881827 0.0523432 -0.1440664 85 85 85
-0.0213928480041228 -0.0389879268026496 -0.0124118642458281 -0.1860631 0.04948362 -0.9812909 83 83 83
0.0433347278189158 0.00486599717633629 -0.0147663390929723 -0.2983611 0.1384407 -0.9443595 73 73 73
-0.0115651690240479 0.0196579187329611 -0.0093071164966386 -0.2255718 0.2914813 -0.9295999 42 42 42
-0.0227543203415683 -0.0360889155218234 0.00409094301766602 0.4782192 -0.830006 0.2870478 25 25 25
-0.0438803451814118 -0.0211352543137331 -0.0107378352637479 -0.01529298 0.1711763 -0.9851217 68 68 68
0.0369563861062547 0.0321135286935574 0.00950906389589404 0.8287587 0.5253031 -0.1929136 70 70 70
0.013386343734421 0.0257556840526085 -0.0103097630532591 0.07411176 0.2182137 -0.9730828 73 73 73
0.0200636933812572 0.0426684739709364 -0.0151581667576861 0.0791388 0.4362051 -0.8963605 56 56 56
-0.0190811468384398 0.010592698902999 -0.00461406572786835 -0.4944302 0.656769 0.5693797 59 59 59
-0.00381795863645107 0.0227699866954791 0.00369473222005137 -0.5565757 0.405878 0.7249045 29 29 29
0.0109940336537862 0.0409321483321088 -0.00790661493124575 -0.7172203 0.0908237 -0.6909024 79 79 79
0.0119108363506861 0.0167244277392176 -0.0106273163225439 0.01985342 -0.05178123 -0.9984611 78 78 78
0.0171700065300651 0.0261653818121734 0.0213434435487053 -0.1282493 0.642518 0.7554619 34 34 34
-0.000317379237825932 0.032059991228534 0.000616879856987301 -0.6086087 0.5456639 0.5760611 42 42 42
0.0222032552877875 0.0510434102055395 -0.00108716179446774 0.697379 0.7152669 0.04534127 73 73 73
-0.0499511359470597 -0.0208460157966619 -0.00826302969603024 -0.6450876 0.2727627 -0.7137664 85 85 85
-0.0416958728547649 -0.0411688405927821 -0.00960550369631027 -0.06275517 -0.1435286 -0.9876544 46 46 46
0.0178613288276186 -0.0223358342867583 -0.0135512402663192 -0.008107444 0.05933983 -0.9982049 54 54 54
0.0297274162538954 0.02593878428263 -0.0134113590877525 -0.4196766 -0.02713389 -0.907268 87 87 87
0.0459435120320697 0.00987940460683356 -0.0113303169359107 0.07777233 0.6082916 -0.7898942 60 60 60
-0.0380821023359637 -0.0146479759709339 -0.0010268746211918 -0.4294561 0.4939277 0.7560442 48 48 48
-0.0119846572414883 0.011186524956873 0.0033981825339098 -0.6821305 0.3771914 0.626438 56 56 56
-0.017727160987391 -0.0191438865165248 -0.0124094396903646 0.07932296 0.1218755 -0.9893706 36 36 36
-0.0268778614665608 -0.0224045725841797 0.0148161331040893 -0.4773353 0.7232984 0.4989893 21 21 21
0.0197037750805671 0.0285890768912631 0.0185111883396694 -0.0593403 0.6542379 0.7539572 37 37 37
-0.00623589321807616 -0.000107476979914756 0.0152910894136439 -0.621589 0.4000758 0.6734734 13 13 13
-0.00490843993267442 -0.00651158437350885 0.0200278863851856 -0.6209132 0.4702871 0.6271338 14 14 14
0.00503317614394194 -0.0131046708026741 -0.0131201535933349 -0.1945709 0.1760917 -0.9649528 182 182 182
0.0153560013368346 0.0327013716417546 0.015244375138853 -0.09005094 0.5981024 0.7963444 38 38 38
0.0294248024162929 0.00924401145576836 -0.00936298800351928 -0.2034886 -0.1588021 -0.966113 62 62 62
-0.0344292732845064 -0.0242791747626394 0.00998164106278623 -0.5183371 0.5950466 0.6142036 50 50 50
-0.00117586637782918 0.00723631780550704 -0.0115466951583318 -0.2232856 0.1171781 -0.9676843 30 30 30
-0.0214760838981725 0.0143119606253417 -0.00604683639484235 -0.4391597 0.5436681 0.7152369 94 94 94
0.0293759501914754 0.0433693408608169 0.00257849845428962 0.8450187 0.5315096 -0.05866027 100 100 100
-0.0224610758085853 0.00230899946920027 -0.011776332112643 -0.2506137 0.09847319 -0.9630658 135 135 135
0.00413197299273538 0.0301047485397463 -0.0113260485031861 -0.2004753 0.04926899 -0.9784591 79 79 79
0.0203882102371229 0.0244080739000396 -0.0114496412124032 -0.2137285 0.07526326 -0.9739895 71 71 71
0.0258396625092239 0.0242677623945635 -0.0119959287386721 -0.1363523 0.1726833 -0.975494 82 82 82
-0.0509624421018555 -0.0346386800956393 -0.00788324118269831 -0.680306 -0.3816154 -0.6257424 81 81 81
0.0300348737582123 0.00513063301880945 -0.00963885172207876 -0.04706298 0.2779472 -0.9594428 97 97 97
0.0101921261507265 0.0313871909315055 0.0171958974844788 -0.3355258 0.5176331 0.7870695 67 67 67
0.00823014279105139 0.0484187614765501 -0.00137563526014348 -0.7332347 0.5294033 0.4267305 76 76 76
0.00758651045205627 -0.00454391389395759 -0.012885584876164 -0.05434716 0.09354381 -0.9941307 70 70 70
-0.0412439792089663 -0.0419512499652006 -0.00905301448336779 -0.05176311 -0.09846061 -0.9937938 34 34 34
-0.0268111522535783 -0.00876865895979995 -0.00980397300039712 -0.20509 0.1804469 -0.9619652 36 36 36
-0.0352154018067514 -0.0218975825978427 0.00808988933569568 -0.5004449 0.5836666 0.6394437 48 48 48
0.0467996380979792 0.0140610781614992 -0.00137981471805596 0.7979357 0.5914865 -0.1159409 79 79 79
0.0141360396260894 -0.0200284473219181 -0.014003512707655 -0.1391449 -0.166924 -0.976102 40 40 40
0.0467942389408826 0.0155051216874507 -0.00249640998331288 0.8142054 0.57701 -0.06425738 75 75 75
-0.0105647057010489 -0.0148843922827215 -0.0112233696004962 -0.06647644 0.08638076 -0.9940419 123 123 123
-0.000332501882536418 0.0139240872629989 -0.00967680602932761 0.1698668 0.3326824 -0.927614 91 91 91
-0.0391268445660744 -0.0425956399890519 -0.00953307659842609 -0.003399475 -0.004526969 -0.999984 43 43 43
0.00728653933838497 0.0408704072193806 0.00313951782762659 -0.8028646 0.3843576 0.4557167 43 43 43
0.0441101048493715 -0.00239284777566695 -0.0135367807741462 0.6936143 -0.1244288 -0.7095186 68 68 68
-0.0370405475129518 -0.0164613916760459 -0.0105201432918164 -0.1911293 0.06511367 -0.9794028 195 195 195
0.00864797445403886 0.0095851366884161 -0.0102980175977212 -0.1099719 0.2208919 -0.9690784 71 71 71
-0.00169375022607055 0.00394653326309347 0.0169405696527381 -0.6542236 0.3347092 0.6782044 22 22 22
0.035612680042391 0.0143694239743963 -0.0101187875220423 0.1244429 0.1671975 -0.9780383 83 83 83
0.0466751658366962 0.019459966195545 0.00326879214597689 0.7740903 0.5825531 -0.2478226 76 76 76
0.0442017077404315 0.0185305156042594 -0.00597698285780804 0.7877454 0.5936223 -0.1645289 57 57 57
0.00188491948103553 0.0310436546725958 -0.0105936896554727 -0.0986184 0.02587479 -0.9947889 87 87 87
-0.0544344176836227 -0.0278854581153052 -0.00821469874502742 -0.4232994 -0.03537668 -0.9052989 85 85 85
0.0142395304804077 0.0373816263636333 -0.0162106768832209 -0.1899334 -0.009144846 -0.9817544 71 71 71
0.0369704341313819 0.0113215238270989 -0.0130735736373979 -0.01918003 -0.1363081 -0.9904808 56 56 56
-0.0190804457296341 -0.00193461957018304 -0.0128758184990594 -0.1466987 -0.1194665 -0.9819406 85 85 85
0.00980914328533355 0.0343443857019599 -0.00812995658683671 0.1627346 0.1179834 -0.9795904 77 77 77
-0.0313935652934112 -0.0163139795797678 -0.0117859054027752 -0.09436186 0.1500403 -0.9841665 187 187 187
-0.0299160345705616 -0.0176913646346055 0.00725193443821368 -0.5239701 0.5330756 0.6642933 42 42 42
0.0543288075618673 -0.0035025462294016 -0.0158295020406247 0.6243194 -0.2480066 -0.7407551 83 83 83
-0.0364130941012961 -0.0410255244823117 0.0129903889284176 0.3532935 -0.7136102 0.6049331 78 78 78
0.004138885953757 -0.0228144926610072 -0.0039695249120156 0.4786128 -0.8636252 0.1583707 44 44 44
0.0140019893261272 0.0399949425295503 -0.00829888262570624 -0.3553347 0.01512105 -0.9346169 66 66 66
0.0358750859867281 0.00509345734648714 -0.0131167508366729 -0.01371265 0.3282927 -0.9444765 78 78 78
0.0108702675073769 -0.0181372620333669 -0.0144858003847186 -0.2091141 0.07792471 -0.9747815 60 60 60
-0.0178026151879973 -0.0224573248694433 -0.0131735124501422 -0.1510931 0.2300279 -0.9613834 140 140 140
0.0440707957538937 0.000392374671058571 -0.0146614400373506 -0.1060645 0.03857667 -0.9936107 109 109 109
0.00913349734256874 -0.0127313829703599 -0.0141569218567009 -0.06376061 0.1767236 -0.9821932 73 73 73
0.020559229969775 0.0207528938297663 -0.0118755846432495 -0.1136884 -0.03213731 -0.9929965 79 79 79
0.00252864112912365 0.0384705041978342 -0.00709945021113503 -0.4645752 0.2737709 -0.8421516 78 78 78
-0.00676052593327592 0.00371918912864211 -0.0108325074071597 0.1721287 0.1422037 -0.9747563 121 121 121
0.0239355991099435 0.0487101590945929 -0.000196775955485479 0.7548059 0.6554441 -0.02570966 25 25 25
0.00266695937503858 0.0211778183153828 0.0144157723268925 -0.829017 0.3810794 0.409279 44 44 44
-0.0309078495087742 -0.0120541161771619 -0.0117226942577258 -0.1228512 -0.01447563 -0.9923195 130 130 130
0.0123321539289172 0.00137793158241739 -0.0116391550137391 -0.02437945 0.04949732 -0.9984767 181 181 181
-0.00707630081567268 -0.00291472534579751 -0.0114838965979362 0.1410093 -0.05057 -0.9887159 143 143 143
-0.0264619390626759 0.00710881003117758 -0.00778013828994115 -0.4831825 0.8242084 0.295322 41 41 41
-0.00860639200110103 -0.0144113011889624 -0.0121573913160732 -0.06452999 -0.001721313 -0.9979143 172 172 172
0.0150464904695435 0.00112630458070706 -0.011936446401193 0.08565207 0.2151165 -0.9728251 122 122 122
-0.0266233824104007 -0.00738980742617823 -0.0118673717889691 -0.1502239 0.03010641 -0.9881935 71 71 71
-0.0380752637272499 -0.0407855397014916 -0.00945803914928714 -0.06890215 -0.1183991 -0.9905726 30 30 30
-0.0351099003907362 -0.0350562289073342 0.0133531913413509 -0.60339 -0.1929159 0.7737596 48 48 48
0.0470712643979774 0.00959402822433963 -0.0146053422526755 0.07037061 0.1862038 -0.9799878 77 77 77
-0.0220627184837925 -0.0274855095632822 -0.0119448167133034 -0.01272139 0.02770754 -0.9995351 149 149 149
0.0294806145846864 -0.00996865084216547 -0.0152104465347151 -0.06049141 0.07080269 -0.9956545 71 71 71
-0.0157419057347197 -0.0285061457770817 -0.0126253018351601 -0.1187412 -0.1605532 -0.9798588 53 53 53
0.0360679102027295 0.00601228415741173 -0.0122700930449495 -0.2171014 0.2331032 -0.9479082 74 74 74
0.0196459115466043 0.0434245091010339 0.007513292672402 -0.1677026 0.4757756 0.8634312 65 65 65
0.0445949597806481 -0.00414931205741009 -0.0104846086668392 -0.1907557 -0.9801216 -0.05453488 57 57 57
-0.0228842641439189 0.00524731615241847 -0.0117162836373249 -0.1929896 0.2215407 -0.9558634 166 166 166
0.0121051112993269 0.00356250242524747 -0.0108786934550806 -0.1288153 0.2559215 -0.9580766 36 36 36
-0.00798880811415192 0.00972048824935179 -0.0108704559651367 0.03151456 0.1953047 -0.9802362 83 83 83
0.0384044651523443 0.00122310419806793 -0.0117546635611314 -0.2703376 0.05753512 -0.9610449 54 54 54
-0.0114508271330882 -0.0284730447055148 -0.0153247875829108 0.0332455 -0.1069942 -0.9937037 56 56 56
0.0190168281109404 -0.0105496775593557 -0.013930890136494 -0.2617142 0.1974267 -0.9447372 69 69 69
0.00203286972132655 -0.018084197402287 -0.0138787693646348 -0.2030554 -0.03224473 -0.9786362 171 171 171
-0.0380557838939255 -0.0395627455156782 -0.00993084428649102 -0.002162773 -0.1818329 -0.983327 52 52 52
-0.013021117983361 0.0156424898244611 -0.0105750403491312 -0.007286679 0.05235614 -0.9986019 65 65 65
0.00337470566899722 0.023045473132085 0.00871990971881118 -0.9140942 0.3871644 0.1205636 29 29 29
0.0518471693484559 0.0104081090854449 0.0016494135610701 0.7539017 0.6315772 -0.1809491 78 78 78
-0.00743153048852574 -0.0269667345168774 -0.00505060994638387 0.5622346 -0.8071071 -0.1801956 38 38 38
0.0487741515508977 -0.00597274767939382 -0.014965763043152 -0.1855132 0.6913781 -0.6982701 66 66 66
-0.00600941800933774 0.0230548441497538 -0.00934123974101334 -0.09479178 0.1663704 -0.9814965 27 27 27
0.0183348662810456 -0.0135570642974627 0.00935224315744662 0.4440849 -0.8702444 0.213221 35 35 35
0.0335700999784752 0.0263048031029296 -0.0141599744422838 0.1944556 0.08374053 -0.9773303 77 77 77
-0.0324714049755996 -0.0334161000221402 -0.0111409824599958 -0.1111872 -0.07799971 -0.9907338 84 84 84
-0.0373607913339922 -0.0480112754999928 -0.00877084093084571 -0.04900117 -0.0198509 -0.9986014 41 41 41
-0.0143342483273212 -0.0034938414679706 0.00379362528347035 -0.3662019 0.04934144 0.9292263 50 50 50
0.0242549764315949 0.0118955865604793 -0.0118147398318799 -0.2468475 0.09714491 -0.9641728 145 145 145
0.03206790762094 0.0325422994109865 -0.0100487193824452 0.5391573 0.4949976 -0.6813859 93 93 93
0.000957398937966536 0.0424884615019026 -0.00653120495008039 -0.6875679 0.7237949 -0.05806337 91 91 91
-0.00448435305479555 -0.0123933141239871 -0.0128634848769194 -0.1001002 0.182533 -0.9780908 50 50 50
0.021465037859753 -0.0125485459782642 0.00121531077858597 0.4490099 -0.8742101 0.1847884 64 64 64
-0.0166289858282038 -0.00300954835874712 0.00759323642765522 -0.5622641 0.4857532 0.6692554 22 22 22
-0.00144731488737238 0.0402101672100466 -0.00886695833566212 -0.111903 0.1885945 -0.9756587 106 106 106
-0.0288444823600158 -0.0127292543829416 0.00431612649602323 -0.5582583 0.4938469 0.6666806 40 40 40
-0.0237150350132793 -0.0101833766752166 -0.011961623915951 -0.1175495 0.09771703 -0.9882477 37 37 37
-0.0457326966452258 -0.0179300187851499 -0.00319961315141307 -0.6580287 0.5690718 0.493108 31 31 31
-0.00970521885680609 -0.0259432656826353 -0.00973926159361024 0.3109279 -0.3236056 -0.8936461 97 97 97
0.0322880754608323 0.0360805686723882 0.0103343145129185 0.7061599 0.6939222 -0.1407489 87 87 87
0.00329347237221134 -0.00419077261360368 -0.0125923986188301 -0.02342339 0.0507273 -0.9984378 27 27 27
-0.0453496587676097 -0.0510506264786232 -0.00337403909071574 -0.696713 -0.3012072 -0.6510494 21 21 21
-0.0018379024789803 0.0344228275595382 -0.00302661707787696 -0.5875989 0.6039988 0.5384357 38 38 38
-0.0386858689693668 -0.0253342294609102 -0.0106796359090827 -0.08317427 -0.03586965 -0.9958892 95 95 95
-0.00253821503787677 -0.0126533617025717 -0.0132129849523633 -0.09093942 0.09653391 -0.9911666 41 41 41
-0.038511939186763 -0.011052644192957 -0.00275461175529187 -0.5187382 0.637854 0.5692565 35 35 35
0.0485827098981988 0.0162713207798375 0.00891860571631672 0.8004462 0.5779151 -0.1590595 62 62 62
-0.0339581072985837 -0.0279398131244566 0.0147341831250053 -0.5293172 0.5716037 0.6269709 31 31 31
-0.0179517107428679 -0.0355363887319324 -0.0122293618634667 -0.1100006 -0.07155863 -0.9913522 50 50 50
0.00546705409925052 -0.0179812231568781 0.0133835764574119 0.4455465 -0.8779424 0.1752297 61 61 61
0.0204770533364618 0.0226906861672245 -0.0118245812656147 -0.04549212 0.03211816 -0.9984483 65 65 65
0.00667667252538573 0.0385346159195221 -0.0106115473020833 -0.06123322 0.2094786 -0.975894 75 75 75
0.0519283227657306 0.00156304402409813 -0.00252133254787382 0.6855969 -0.6980936 0.2064517 33 33 33
0.0339485706892682 -0.00816510512467072 -0.00701670108225491 0.4518648 -0.8910273 0.04345659 58 58 58
0.0432885104432252 -0.00251101668801312 -0.0158219167524285 -0.05798478 -0.001106068 -0.9983169 37 37 37
0.00033315635753306 -0.0264156817828927 -0.00756681478595719 0.6406 -0.7599716 -0.1098855 36 36 36
-0.0280018383892173 -0.0197215316632029 0.0113511630377222 -0.4694017 0.5260081 0.709209 25 25 25
0.0117535855508355 -0.0164135474218536 -0.0141379341115222 -0.1852058 0.03190452 -0.9821817 47 47 47
0.0541788335940316 0.00434669417152644 -0.0132184338599619 0.6633081 0.5482442 -0.5093631 20 20 20
0.0235359846380627 0.0467189449055296 0.0151739615680525 -0.3576819 0.2538426 0.898681 112 112 112
-0.00529691538726262 -0.0240653420579635 0.0128209469254047 0.4500361 -0.8424162 0.2963147 13 13 13
0.0380828728870386 0.0269051438405454 -0.00636647575491942 0.8236077 0.555542 -0.1142075 57 57 57
0.0146152588613944 -0.0147007578851877 0.0113372544446764 0.4202702 -0.8818185 0.2139369 29 29 29
-0.037925540595771 -0.0140571783554782 4.9727022124163E-05 -0.4914951 0.4662528 0.7355548 25 25 25
-0.036312124477522 -0.0216455798397206 0.0068408502929119 -0.4867431 0.5774863 0.6554317 48 48 48
-0.0315570114728263 -0.0235992562846501 0.0117440210210772 -0.5158041 0.6050766 0.6064887 38 38 38
0.0393627045718083 -0.000598629867788691 -0.0144970071059098 -0.2147893 0.2407799 -0.946515 46 46 46
0.0328040531767313 -0.00651161723029614 -0.0124082422562312 -0.2916628 -0.005785618 -0.9565037 91 91 91
0.0523221546515733 0.00804073128217619 -0.00626399799937891 0.7540863 0.6490487 -0.1004474 86 86 86
-0.0130708801773105 0.00335041271919767 -0.0115827291096466 0.02076984 0.1886744 -0.98182 105 105 105
-0.0259968573768432 -0.0111489530127113 -0.0120441750920184 -0.143483 0.05030102 -0.9883736 80 80 80
0.00214465415782761 -0.0246193529017376 -0.00676795763115554 0.6181669 -0.7859529 0.01215304 49 49 49
-0.0342506260796793 -0.00953536217188278 -0.0111254246991907 -0.09284536 0.05962588 -0.9938936 58 58 58
-0.0165704018819448 0.00267793169861141 -0.010649875654122 -0.005398598 0.2317859 -0.9727519 182 182 182
0.0354710101450177 0.0265584846128479 -0.0146934138799842 0.4208656 0.2870016 -0.8605244 80 80 80
0.0553671948714725 0.00674557235573769 0.00519443640539022 0.8237512 0.4969928 -0.2728226 98 98 98
-0.00260145146179136 -0.0136261340011248 -0.0108835064089852 -0.08376152 0.05016594 -0.9952223 178 178 178
0.00701911692930723 0.0469072304702873 -0.00255317826597509 -0.8327188 0.4468074 0.3270205 68 68 68
0.0259105421446426 0.00456436178903608 -0.00932802638418886 -0.2066414 0.2022251 -0.9572901 145 145 145
-0.0528186784043878 -0.0308706837184862 0.00266133745554889 -0.7483677 0.475655 0.4622749 40 40 40
0.0155046341134486 0.0278905212792611 -0.0105627226787893 0.07416815 -0.07816616 -0.9941776 51 51 51
-0.0347665196163931 -0.0245216161129409 -0.0115873108599964 -0.1348052 -0.02759334 -0.9904878 186 186 186
0.0209065484790742 0.0309078872288147 0.0161435958606559 -0.1147479 0.6240232 0.7729347 57 57 57
0.0142748948741416 0.0316738892764226 -0.0109978956168373 0.1367516 -0.4113195 -0.9011744 30 30 30
0.0244131930050855 0.0359224904040036 0.0145537414568429 -0.3642371 0.5098079 0.7793762 45 45 45
0.00444089929963076 0.0179500929541836 -0.00715607832464968 -0.04967003 0.03633297 -0.9981046 194 194 194
0.00697080822432317 0.00978685657257672 -0.0100729641982093 0.1950504 0.2737894 -0.9418039 76 76 76
0.00166272743720364 0.0416450421599175 -0.00419086961451962 -0.7903626 0.4772145 0.3841786 73 73 73
0.0502081266820842 -0.000863316528147751 -0.00985694604238593 0.5655916 -0.8176025 0.1078533 51 51 51
-0.0410482056291148 -0.0123131284765583 -0.00890753289823984 0.006104408 0.3953429 -0.9185133 85 85 85
-0.0379865961075467 -0.0355462311482175 0.0131327036767945 -0.6249771 0.04026893 0.7796037 23 23 23
0.0156092075415588 0.0397208327505891 -0.0155104296672874 -0.2806646 0.0894433 -0.9556293 81 81 81
0.00843874604069628 0.0472986209676227 0.000425204416564101 -0.6410736 0.453174 0.6194013 112 112 112
-0.0280542552562852 -0.0387077350814404 0.00519007238175354 0.4562966 -0.8058922 0.377268 22 22 22
-0.0432864361927754 -0.0539784366413418 -0.00420180391951494 -0.4475036 -0.4149308 -0.792195 28 28 28
0.0167119673835767 0.0206177067207904 -0.011172385843686 -0.1092137 -0.06578245 -0.9918392 168 168 168
-0.0436925564573076 -0.0480703821252448 -0.00906373341453906 -0.3909655 0.02913406 -0.9199441 88 88 88
-0.0314808518881853 -0.0324268823910765 -0.00954529763138676 -0.04808664 -0.09544247 -0.9942728 146 146 146
0.0256837266763112 0.0171115714560446 -0.0117270160825204 -0.0233769 -0.0828793 -0.9962854 65 65 65
-0.0423725529298435 -0.0271350456652657 -0.00885667490060413 -0.1073072 -0.007900977 -0.9941945 43 43 43
0.0156801984779744 -0.012466004751944 -0.0126897814325866 -0.08654017 0.2420777 -0.9663898 44 44 44
-0.00656860780735213 0.0275118078976238 -0.008764610956326 -0.3805401 0.3041173 -0.8733281 56 56 56
-0.0449685423433759 -0.0224741684899501 -0.00928227217287494 -0.08077002 0.1765464 -0.9809728 49 49 49
0.0424518948875383 0.00885820334260012 -0.0140597220052569 -0.2674401 0.04820972 -0.9623677 47 47 47
0.0123714748342023 0.0422522631512661 -0.0103179351696148 -0.2701278 0.2514369 -0.929414 64 64 64
-0.00608057910711035 0.0243042228466948 -0.000548771880457571 -0.6968732 0.4261314 0.5768707 41 41 41
-0.0340953417763816 -0.0372166387431723 -0.0106713051815947 -0.1004406 -0.2588804 -0.960673 40 40 40
-0.0383200217380464 -0.00685582912282512 -0.009687518735673 -0.3989599 0.4750454 -0.7843232 76 76 76
-0.00641156046392566 0.0166144648767399 -0.0105858613055182 -0.01815738 0.1168575 -0.9929827 20 20 20
-0.028501907803379 -0.00947899529580543 -0.0116113220240528 -0.04304202 0.1012152 -0.993933 64 64 64
-0.0151640926376149 0.0152766741977093 -0.0102318164289379 -0.1017112 0.300117 -0.9484643 38 38 38
0.0339196845005965 0.0345180035469477 0.00184012675775794 0.8155525 0.5517814 -0.1743884 69 69 69
-0.0214398670309077 0.00769723300496539 -0.00526527331593793 -0.767796 0.2523182 0.5889183 68 68 68
0.0420702365744232 0.021539053270976 -0.00242063445088184 0.8011367 0.5804656 -0.1457387 84 84 84
-0.0230932438095497 -0.0191299014891519 -0.00941289976089718 -0.01030828 -0.01076399 -0.999889 182 182 182
9.7685253085622E-05 0.0193677329461421 -0.0073775048733645 0.08935964 0.03178584 -0.9954921 134 134 134
-0.0213194635305574 -0.0183203363858788 0.0150874429268741 -0.5500352 0.5146924 0.6576875 20 20 20
0.0329597807748419 -0.00633631948750213 0.00251323361778386 0.4143791 -0.8858677 0.2086345 20 20 20
0.0390536560108334 0.0275519051992008 -0.0104632357590977 0.7939922 0.4583284 -0.3993888 64 64 64
-0.0252108280818872 -0.03465087078078 0.014065029700047 0.4137411 -0.8147807 0.4061413 31 31 31
0.0217238093350531 0.0430455986803748 -0.0115063032392615 0.1799667 0.5911829 -0.7862027 67 67 67
-0.0259014112135725 -0.0117134066478028 -0.00858431241201682 -0.1625834 -0.004946655 -0.9866824 206 206 206
0.0483500501631229 0.0146545253783157 -0.0016771602160974 0.7976995 0.5954808 -0.09527953 86 86 86
0.00224192192147177 -0.017876510804965 -0.0115434884114514 -0.05136261 0.02593038 -0.9983433 17 17 17
0.0132914999818423 0.0538261560903603 -0.00524876100165819 -0.033772 0.6249803 -0.7799097 60 60 60
-0.0546217520570622 -0.0397805316286706 0.00135298045247076 -0.7595799 -0.07281744 -0.646325 65 65 65
-0.0309303644435175 -0.0427678383015739 -0.0111883687561893 -0.07633284 -0.09249153 -0.9927832 60 60 60
