ply
format ascii 1.0
comment File exported by Rhinoceros Version 7.0
element vertex 474
property float x
property float y
property float z
property float nx
property float ny
property float nz
property uchar red
property uchar green
property uchar blue
end_header
0.0276579682648443 -0.0270546385490562 -0.00815476571545974 0.3050258 -0.9179274 -0.2537096 185 185 185
0.0286114935696386 -0.0261487671577598 -0.00963272993789092 0.2946104 -0.9025049 -0.3141491 172 172 172
0.032727551919248 -0.0244324514114524 -0.00993467961774246 0.2274343 -0.9392211 -0.2571719 159 159 159
0.0347855810940527 -0.0236934730255272 -0.01151594614015 0.1886206 -0.9418817 -0.2779948 130 130 130
0.0344280128300451 -0.0244610616409446 -0.00737287198529617 0.2201243 -0.9640895 -0.1485822 160 160 160
0.0149442677319311 -0.0314726540290977 -0.00613646303639785 0.3621512 -0.9175539 -0.1641383 146 146 146
0.0171119396508001 -0.0306780049049522 -0.005685129215578 0.4038978 -0.9063516 -0.1240696 153 153 153
0.0179915551960729 -0.0300939985954429 -0.00542529021726028 0.3868829 -0.9138349 -0.1233992 158 158 158
0.016406339865949 -0.0312978336059715 -0.00500812475905792 0.3993479 -0.9084942 -0.123124 137 137 137
0.0165970449269079 -0.0314218112671043 -0.0015754262112178 0.434884 -0.8940689 -0.1073159 136 136 136
0.0189570312321447 -0.0301933595382835 -0.00167077874169723 0.3764403 -0.9193404 -0.1144805 168 168 168
0.0200774197399877 -0.0292000481331016 -0.00562791620717422 0.3647102 -0.9181086 -0.1551228 150 150 150
0.0200297360241674 -0.0292477318489219 -0.00443600957618133 0.3383915 -0.9320456 -0.1295458 150 150 150
0.0221751754105352 -0.0287828752243187 -0.00530610327945129 0.2472518 -0.9553586 -0.1617299 157 157 157
0.0211262826741003 -0.0290570565902855 -0.00181380753741638 0.3331641 -0.9384004 -0.09168565 176 176 176
0.0222705130398534 -0.0293192574226524 -0.00178996567950622 0.2775656 -0.9585171 -0.06482581 187 187 187
0.0130689863980077 -0.0334432431900169 0.00123748088850602 0.3561059 -0.929389 -0.09708094 155 155 155
0.0144198064625524 -0.032902927085128 0.00225457454695328 0.3833889 -0.9166831 -0.1127165 181 181 181
0.0167162542164587 -0.0320606538498069 0.00223074013962372 0.4689569 -0.8767977 -0.1063257 146 146 146
0.0141655330479406 -0.0331572004997398 0.00414573306812867 0.3557816 -0.9336756 -0.04085749 148 148 148
0.0166542653858923 -0.0322990128242637 0.00600511486305817 0.4504423 -0.8888869 0.08355747 150 150 150
0.0177889590084814 -0.031917602702346 0.00447946692480668 0.4893701 -0.8709822 -0.04366818 106 106 106
0.0364065592110418 -0.0245397397720482 -0.00354207401500121 0.2261757 -0.9736141 0.03033498 170 170 170
0.0241299097359441 -0.0294384667122032 0.000426976928850256 0.3075663 -0.950853 0.03579854 202 202 202
0.0226042692482732 -0.0292954155647422 0.00161889101042374 0.3123803 -0.9493228 0.03471144 176 176 176
0.0239964251339697 -0.0285898157798912 0.00204797739758118 0.3014275 -0.9525207 0.04296283 186 186 186
0.0225247864544653 -0.0289299198829795 0.00398681218399628 0.37396 -0.9258424 0.05449551 160 160 160
0.0227472905934118 -0.0293907829963829 0.00462250317110642 0.3991216 -0.9154057 0.05229169 168 168 168
0.0209832911312841 -0.0284372874939109 -0.00624770765529052 0.340714 -0.9294031 -0.1418589 140 140 140
0.0249165718376897 -0.02829423634645 -0.000383519580224909 0.3405129 -0.9400723 0.01774862 203 203 203
0.0249404136955999 -0.0281631061279441 0.00445563251747712 0.3351588 -0.932681 0.1333218 162 162 162
0.0266662959873937 -0.0281702586853172 -0.00398784970269576 0.3543189 -0.9334546 -0.0558623 196 196 196
0.0269428019345068 -0.0276267239296104 -0.000764929702142633 0.3952735 -0.9180767 0.02990077 196 196 196
0.0277533058941625 -0.0271976300918724 -0.0034348080061473 0.3554115 -0.934705 -0.003030134 193 193 193
0.0307887022316717 -0.0255448528968956 -0.00141650532708541 0.3821155 -0.9214414 0.07023798 125 125 125
0.0323779110729955 -0.0253144809448387 -0.00431681518779174 0.3089143 -0.9501202 0.04293624 179 179 179
0.0336651627838873 -0.024909169360366 -0.00457903837190048 0.2335744 -0.9722203 0.01519004 157 157 157
0.031329048138883 -0.0250045367920066 -0.000764929702142633 0.3921426 -0.9147239 0.09749002 96 96 96
0.0349643354237341 -0.0245039173805381 -0.0018018866084613 0.2013391 -0.9728253 0.1143393 119 119 119
0.0260846142590307 -0.0275075742447044 -0.000216656377176203 0.3778081 -0.9257123 0.01782402 203 203 203
0.0276579682648443 -0.0269115874015953 0.000140919337411963 0.4317904 -0.901875 0.01336154 153 153 153
0.0288578097641729 -0.0265699335777427 0.000323682079454504 0.446023 -0.8942356 0.03750016 146 146 146
0.030065608483579 -0.0260772415840294 0.000522336909910284 0.4386352 -0.8975044 0.04566084 95 95 95
0.0284684424221777 -0.0269950339042808 0.00259625072254761 0.4312637 -0.9014416 0.03761307 195 195 195
0.0270143275082372 -0.0271976300918724 0.0061004673935376 0.361723 -0.91567 0.1752279 93 93 93
0.0288736944020055 -0.0263394424163963 0.00430068279280289 0.4329026 -0.898965 0.06676286 150 150 150
0.028039378386762 -0.0274360486709739 0.00509926582350358 0.3739814 -0.9191516 0.1236861 166 166 166
0.0305821125328802 -0.0258468100273277 0.004034488449236 0.4464259 -0.8940509 0.03710699 107 107 107
0.032171321374204 -0.0246072122299339 0.0025088479615651 0.3879602 -0.919708 0.06020099 65 65 65
0.0344453279793523 -0.0236479350769188 0.00206965113653763 0.2543192 -0.9644796 0.07142049 139 139 139
0.0349047605812811 -0.0240510412895347 -8.15699003733766E-05 0.2270904 -0.9645575 0.1343829 155 155 155
0.0350001280129217 -0.0235583492958213 0.00463839525951966 0.2575065 -0.9647794 0.05376938 157 157 157
-0.00509570791122688 -0.0360893317901756 0.0061004673935376 -0.14421 -0.8179352 0.5569429 130 130 130
-0.00280724717972053 -0.0363038489067222 0.00648187751545533 -0.07486396 -0.8731385 0.4816892 109 109 109
-0.00952960802910102 -0.0324420639717247 0.0070063164330922 -0.2045449 -0.5700044 0.795774 89 89 89
-0.00991101815101875 -0.0295576163971092 0.00896105075850114 -0.2030717 -0.5054557 0.8386158 117 117 117
-0.00705044223663581 -0.0310594150268699 0.00905640328898057 -0.2196915 -0.5166411 0.8275371 128 128 128
-0.00714577986595405 -0.0307256886207725 0.00934246088041886 -0.2268528 -0.5181327 0.8246673 97 97 97
-0.00380842639801277 -0.0335862943374778 0.00857964063658341 -0.1512911 -0.64912 0.7454893 169 169 169
0.000506294232632987 -0.0320129701339866 0.0103436624504529 0.003692532 -0.6222368 0.7828203 138 138 138
-0.00502418233749641 -0.0305826970779564 0.00993841047062501 -0.2266423 -0.5259014 0.8197933 87 87 87
-0.000971692341539987 -0.0313932010376121 0.0105105256535016 -0.08046688 -0.5934673 0.8008256 103 103 103
-0.000971692341539987 -0.0301536032402183 0.0109396194912396 -0.1152468 -0.5633144 0.8181657 181 181 181
0.0055838053047918 -0.0337293454849388 0.00757843161596879 0.1806976 -0.7791069 0.6002839 137 137 137
0.00296158836486565 -0.0318699189865257 0.0102006336547337 0.004590241 -0.6522893 0.7579562 103 103 103
0.00629894183280694 -0.0320129701339866 0.00910407955422028 0.09363338 -0.7181891 0.6895195 152 152 152
0.0128862385571264 -0.0337690421783592 0.0063865249849759 0.2771142 -0.9521694 0.1287681 163 163 163
0.00758622334602105 -0.0315361925804283 0.00948548967613801 -0.003765579 -0.7508589 0.6604519 146 146 146
0.00702599928977715 -0.0304277250015403 0.0106297200418912 0.02598385 -0.7164747 0.6971291 147 147 147
-0.0067167158305384 -0.0281750270568992 0.010605878183981 -0.2296987 -0.5678641 0.7904232 118 118 118
-0.0070027585208155 -0.0250045367920066 0.0127274831630193 -0.2275936 -0.6532616 0.7221153 163 163 163
-0.00674848510620368 -0.024066896125045 0.014507397065302 -0.2364452 -0.6806733 0.6933812 147 147 147
-0.00809930517074836 -0.0229544350349571 0.0147298863030873 -0.2146427 -0.6581045 0.7216834 102 102 102
-0.00265227510330451 -0.0256600686752464 0.0146583681799374 -0.2020306 -0.7071745 0.6775602 243 243 243
-0.00487320377228034 -0.0254177161895897 0.0136333322025739 -0.2150274 -0.6685473 0.7119043 192 192 192
-0.0105308170497156 -0.0217386790954734 0.0158502822615109 -0.1968722 -0.6345787 0.7473629 109 109 109
-0.00727688028213752 -0.0222512790405418 0.0162555342413388 -0.2430585 -0.6452746 0.7242536 200 200 200
0.00253252432945 -0.0263990470611717 0.0145391812421285 -0.1066094 -0.7370344 0.667394 240 240 240
0.0184087281048559 0.0364979794776772 0.0102959861852132 0.6733695 0.5787928 0.4599701 45 45 45
0.00396279738548028 -0.027865142508712 0.013108893284937 -0.0630568 -0.7046744 0.7067233 245 245 245
0.000434768658902518 -0.0238603064262535 0.017066030750414 -0.1513853 -0.6933415 0.7045283 193 193 193
0.0012929265320562 -0.023669631167617 0.017399764607092 -0.1582455 -0.685775 0.7104021 56 56 56
0.00277088330390679 -0.0243370839798118 0.0169230019546948 -0.1366202 -0.7097178 0.6911118 181 181 181
0.00677571938636529 -0.0284372278892662 0.0129658644892178 -0.03276048 -0.7350914 0.6771761 134 134 134
0.00706179187896477 -0.0279604503357078 0.0141577711202107 0.0001610057 -0.733603 0.6795782 236 236 236
0.00888539598586785 -0.0278055378639366 0.0140028213955365 0.03232381 -0.7249073 0.6880876 175 175 175
0.00866685555579888 -0.026863903685775 0.0150159438945256 0.04169525 -0.7480424 0.6623398 228 228 228
0.00691874073150384 -0.0241701909744407 0.0181149085856877 -0.03270137 -0.7061002 0.7073565 218 218 218
0.00911186383369195 -0.0258150407516624 0.0166369443632565 0.06765192 -0.7220628 0.6885118 246 246 246
0.0106375043213628 -0.0252905794822837 0.0163508867718182 0.1093771 -0.7191828 0.686158 181 181 181
-0.0105784709632136 -0.0190926500999595 0.0177811747290097 -0.1605864 -0.5611441 0.811991 86 86 86
-0.00628762199280036 -0.0193787523948814 0.0188300525642835 -0.2674959 -0.5148356 0.8144877 169 169 169
-0.00295026852485908 -0.0209043928825523 0.0192591464020215 -0.2323679 -0.5755087 0.7840886 144 144 144
-0.000757145422670968 -0.0218102046692039 0.0186870312191449 -0.1924457 -0.6214439 0.7594552 129 129 129
-0.00509570791122688 -0.018472881003585 0.0193068152166806 -0.2661635 -0.4959098 0.8265776 68 68 68
-0.00507979347107185 -0.0165022918426658 0.0204192614056073 -0.2728986 -0.5126737 0.814059 81 81 81
-0.00156764938232673 -0.0189019748413231 0.0203080242372952 -0.2480616 -0.5356707 0.8071693 112 112 112
-0.00515131904480232 0.0319448402679299 0.0420961147047482 0.1767096 0.02461589 0.9839551 98 98 98
-0.00309328986999763 -0.0175670096122886 0.0211185132957898 -0.278143 -0.4966153 0.8221981 56 56 56
-0.00158353402015937 -0.0165499755584861 0.0220402544237576 -0.2688611 -0.4936856 0.8270358 85 85 85
-0.000804829138491281 -0.0174240180694725 0.0216270601250134 -0.2685306 -0.4936064 0.8271905 75 75 75
0.000840020638730399 -0.0221678325378563 0.0189730888105832 -0.1669302 -0.6402821 0.749782 108 108 108
0.00300927208068597 -0.0228591272079612 0.0185439949728452 -0.1437149 -0.6719447 0.7265234 105 105 105
0.00229413555267083 -0.020284564181533 0.0204510455824338 -0.1633346 -0.5992511 0.7837219 81 81 81
0.00497354314925896 -0.0217243739807274 0.0198789303995572 -0.08777084 -0.6382267 0.7648287 240 240 240
0.00670419381263482 -0.0213096448623802 0.0201649879909955 -0.05542625 -0.6295857 0.7749515 228 228 228
0.00586987779739129 -0.0201415726387169 0.022024369785925 -0.08601665 -0.5961984 0.7982159 224 224 224
0.00525007889869439 -0.0181391545974876 0.0229302262760602 -0.1214179 -0.5746092 0.8093713 207 207 207
0.0080915813267492 -0.0220581599914695 0.0199456876017056 0.02879067 -0.6801943 0.7324663 216 216 216
0.0103991155445837 -0.02266839234468 0.0194975202776395 0.1035423 -0.7055121 0.7010931 231 231 231
0.011781734687116 -0.0212381192886497 0.0201173191763364 0.105545 -0.7230974 0.6826348 233 233 233
0.00899268434646355 -0.0165658303939964 0.0238837515808545 -0.04348534 -0.5486026 0.8349516 57 57 57
0.0114956621945165 -0.0171855994903709 0.024026772925993 0.04546353 -0.5762593 0.8160014 117 117 117
0.0153574471295141 -0.0332048842155601 0.00734005028977021 0.3880379 -0.9070351 0.1634438 194 194 194
0.015977246028211 -0.0333479353630211 0.00714934522881135 0.4061835 -0.9015876 0.1488446 171 171 171
0.0170737926781439 -0.0318540641510154 0.00795984173788651 0.4443541 -0.8710555 0.2093123 161 161 161
0.0182657067597173 -0.0312501498901512 0.0097715472675763 0.399933 -0.8575634 0.323479 155 155 155
0.0203158085167669 -0.0295719215118553 0.00622442270292863 0.4813857 -0.8750275 0.05093727 95 95 95
0.0226996068775915 -0.028570742293563 0.00639606172813996 0.4310082 -0.8974332 0.09405118 152 152 152
0.0213885133087896 -0.0289616891586448 0.0108442669607602 0.406177 -0.8708368 0.2768816 141 141 141
0.022628081303861 -0.0283895441734459 0.0082459067799054 0.4419692 -0.8887504 0.1215976 53 53 53
0.0227234487355016 -0.027984292193618 0.0104390149809323 0.4367687 -0.8610664 0.2603799 128 128 128
0.0250516359627508 -0.0266414591514732 0.00888159031643494 0.4102986 -0.8905283 0.1965054 153 153 153
0.0227091436207555 -0.0276553341591026 0.0124032785989247 0.2995987 -0.8815705 0.3647933 111 111 111
0.016823512774732 -0.0279246875488426 0.0124414181210004 0.07327957 -0.7305221 0.6789459 115 115 115
0.0181346063435339 -0.0282823154174949 0.0122745549179517 0.07180495 -0.7893549 0.6097236 116 116 116
0.0161043827355169 -0.0263712712967064 0.014110094854971 0.07279625 -0.6997159 0.7107028 121 121 121
0.0162275557339452 -0.0235623428070213 0.0164104765154324 0.04768553 -0.724758 0.6873513 138 138 138
0.0234862689793371 -0.0269354292595054 0.0130850588776074 0.2740312 -0.8841545 0.3783883 94 94 94
0.0234624271214269 -0.0273406812393333 0.0135379796720944 0.2740312 -0.8841545 0.3783883 124 124 124
0.0249165718376897 -0.0262083718025352 0.0127513175703488 0.3086731 -0.9045835 0.2940231 83 83 83
0.0235577945530676 -0.0263871261322166 0.014563015649458 0.1337108 -0.8671488 0.479765 115 115 115
0.0188759689152502 -0.0223442026817466 0.0178383877374135 -0.02649182 -0.736033 0.6764271 177 177 177
0.0251311187565588 -0.0274360486709739 0.00674409324898347 0.3601049 -0.9217492 0.1438851 164 164 164
0.0287862841904424 -0.0263977357589866 0.00626998300327881 0.3836204 -0.9150412 0.1246392 139 139 139
0.0266329173863195 -0.0262322136604454 0.00893720890059098 0.3308599 -0.9288197 0.1668102 160 160 160
0.0287449781716131 -0.0258722612106468 0.00880848521961793 0.2872954 -0.9490153 0.1297358 138 138 138
0.0298033778488897 -0.0257196733200218 0.00757843161596879 0.3582385 -0.9300097 0.08214052 137 137 137
0.0287386302769445 -0.0256958314621116 0.0100496625400983 0.2463878 -0.9576887 0.1487461 136 136 136
0.0307092492401861 -0.0251475879394676 0.00900872702374085 0.3523332 -0.9345096 0.05052763 136 136 136
0.0306456808865331 -0.0253541776382591 0.00994636024012192 0.290839 -0.9567648 -0.003710438 138 138 138
0.0285757307827734 -0.0255289980613853 0.0118931447960339 0.1449407 -0.9852205 0.09128381 159 159 159
0.0308681552231573 -0.0253541776382591 0.0121553605295621 0.1324888 -0.9908187 0.02692777 151 151 151
0.034577829104688 -0.02379223792192 0.00850471759810074 0.2924201 -0.9562585 0.007764131 142 142 142
0.0320441846668981 -0.0245754429542686 0.0102673834063016 0.2876112 -0.9574147 -0.02523611 97 97 97
0.0342253868401312 -0.0237530776703025 0.0107250725723706 0.3215892 -0.9460108 -0.04054668 145 145 145
0.0286829893410467 -0.0252786585533287 0.0139193897940122 0.1274779 -0.9829947 0.1321768 144 144 144
0.0302038614571356 -0.0250045367920066 0.0143866157032452 0.08023271 -0.9850412 0.1525008 138 138 138
0.0263230030358099 -0.0253382631981041 0.0152543252207242 0.1360194 -0.8953696 0.4240425 138 138 138
0.0270381693661474 -0.0248615452491905 0.0154450302816831 0.1105507 -0.8861991 0.4499219 82 82 82
0.0246543412030004 -0.0239175268852378 0.0177430352069341 -0.0882244 -0.7559261 0.648685 135 135 135
0.0307251338780187 -0.0247423359596397 0.0162952607370816 0.005218029 -0.9381093 0.3462999 179 179 179
0.032449436646726 -0.0246946522438194 0.0119408136106931 0.2778279 -0.9590968 -0.05426771 82 82 82
0.0343231086552404 -0.0244991490089561 0.0140624185897313 0.2879555 -0.9575474 0.01358617 138 138 138
0.0370501999676489 -0.0228999563896324 0.0120259588457547 0.3413993 -0.9399183 0.0003313982 155 155 155
0.0364780847847723 -0.023364455386367 0.0141196315981351 0.3738749 -0.9268956 -0.0328954 131 131 131
0.0320918683827184 -0.0253382631981041 0.0147298863030873 0.1677218 -0.9837452 0.06414676 142 142 142
0.0337605302155279 -0.0251952716552879 0.0158264404036008 0.2350987 -0.9676383 0.09167746 168 168 168
0.0230810169995092 -0.0235265800201561 0.0177811747290097 -0.06310266 -0.7362691 0.6737402 75 75 75
0.0145469431698583 -0.0213096448623802 0.0194498514629804 0.08162277 -0.743614 0.6636083 197 197 197
0.0154766564190649 -0.0198078462326194 0.0213092183567487 0.07440692 -0.6818378 0.7277093 226 226 226
0.0205064837754034 -0.0203894683563377 0.0205463981129132 0.001618032 -0.6502793 0.7596934 217 217 217
0.0227472905934118 -0.022406191512313 0.0182340955234967 -0.07151303 -0.7218235 0.6883726 129 129 129
0.0209832613289617 -0.0188066074096824 0.021595275948187 0.03996444 -0.6064485 0.7941178 217 217 217
0.022985679370191 -0.0195694276535179 0.0214045708872281 0.004304211 -0.5896518 0.8076461 200 200 200
0.0293027882397436 -0.0230260202133323 0.0190922831989728 -0.02262338 -0.7315477 0.6814148 91 91 91
0.0251787726700567 -0.0214764782631065 0.0194975202776395 -0.06360786 -0.6088674 0.7907177 127 127 127
0.0264660541832708 -0.0199667522155906 0.020689434359213 -0.03442743 -0.5346754 0.8443559 197 197 197
0.0284843568623327 -0.0204117008888389 0.0207847868896924 -0.0176615 -0.5248827 0.8509914 134 134 134
0.0266090755284094 -0.0189973422729637 0.0212138658262692 -0.00374459 -0.5078104 0.8614607 211 211 211
0.0283254210770391 -0.0158824631416465 0.0229302262760602 -0.04861587 -0.5284719 0.8475576 89 89 89
0.0346663718045019 -0.0216290661537315 0.0207466399170361 0.008365074 -0.6994163 0.7146655 116 116 116
0.0322158162415289 -0.0181296178543235 0.0224057799078427 -0.1063092 -0.5117831 0.8525118 90 90 90
0.0324732785046362 -0.0168280908310081 0.0230255639053784 -0.1355151 -0.5311134 0.8363936 78 78 78
0.0370501999676489 -0.0196647950851585 0.0222150748468839 0.1301313 -0.5688583 0.8120752 38 38 38
0.0364644651234411 -0.0182140776359703 0.0229438459373914 0.07543102 -0.4420368 0.8938197 51 51 51
-0.0552512283503748 -0.011607498809066 -0.0138520831368961 -0.5953511 -0.5928015 -0.5423499 93 93 93
-0.0491168673217036 -0.0135304042541649 -0.0181350121401347 -0.4948415 -0.6752515 -0.5469618 148 148 148
-0.0509007449328638 -0.0121319600784446 -0.0177496308587588 -0.5736089 -0.6382741 -0.5133994 130 130 130
-0.0500068242728449 -0.0155169674598838 -0.0149724790953197 -0.4837415 -0.7140904 -0.5060326 96 96 96
-0.0542977030455805 -0.0131808230125572 -0.0132084572814502 -0.5761824 -0.6048524 -0.5496977 109 109 109
-0.0597089703261591 -0.00402692048188702 -0.0176900336645641 -0.8319338 -0.4475154 -0.3280489 146 146 146
-0.0576985950648524 -0.00846085040208355 -0.0140030617021121 -0.6165676 -0.6024797 -0.5068161 94 94 94
-0.0550128395735957 -0.0101771661483909 -0.0150916734837093 -0.5988801 -0.6137794 -0.5144099 80 80 80
-0.0583025093257166 -0.00707826106187359 -0.0150201553605594 -0.648465 -0.6390153 -0.413706 102 102 102
-0.0595778699099757 -0.00599357573625103 -0.0134349176786937 -0.8426571 -0.4602901 -0.2793957 126 126 126
-0.0559186811625697 -0.014110476657119 -0.00989494567141906 -0.6126911 -0.6084309 -0.5044021 132 132 132
-0.0584455306708552 -0.0112737724029686 -0.0104432264469661 -0.6417028 -0.5784854 -0.5035595 152 152 152
-0.0582071716963984 -0.0108923622810508 -0.0103478739164867 -0.6417028 -0.5784854 -0.5035595 150 150 150
-0.055426048773501 -0.0121001311981346 -0.0122549319766559 -0.5983866 -0.5838093 -0.548726 107 107 107
-0.0114128167807795 -0.012417943164077 0.0223581110931836 -0.02443454 -0.7084733 0.7053145 153 153 153
-0.0547506089389063 -0.0134430238449241 -0.0118973637126483 -0.5804694 -0.6052811 -0.5446927 97 97 97
-0.0568722362696863 -0.0130377718650962 -0.00991878752932922 -0.6279728 -0.5976249 -0.4984923 148 148 148
-0.057166236180041 -0.0143170663559105 -0.0075190747283496 -0.641817 -0.5966444 -0.4817534 142 142 142
-0.0514490480601527 -0.0162678667747642 -0.0116232195995845 -0.4565585 -0.7148973 -0.5296001 152 152 152
-0.0455729241549708 -0.014694542571273 -0.0179999256633319 -0.4405243 -0.6940683 -0.5693923 106 106 106
-0.0472797329604365 -0.0156981059753563 -0.0159927616022624 -0.4344747 -0.7298468 -0.5277833 132 132 132
-0.0450842256724573 -0.0162678667747642 -0.0171655947469272 -0.4898865 -0.6592315 -0.5704604 97 97 97
-0.0600665385901667 0.0015034964835976 -0.0164027745030917 -0.9997199 0.02330291 0.004133165 58 58 58
-0.0600188548743464 -0.00440839020844952 -0.0145433927081622 -0.9261779 -0.3627247 -0.1030792 191 191 191
-0.0606863374888636 -0.00331178395387188 -0.0149724790953197 -0.9662046 -0.2571033 -0.01861772 197 197 197
-0.0588746245085932 0.00703397305372699 -0.0155446017287768 -0.8005941 0.5311286 0.2774013 81 81 81
-0.0592560346305109 -0.00345483510133282 -0.00791638438926116 -0.9370099 0.04268499 0.3466848 55 55 55
-0.0571582789599634 0.000311582402024113 -0.00810708945022003 -0.7444369 0.3703128 0.5555917 48 48 48
-0.0593514020621516 0.0042687347686623 -0.012731694629053 -0.8506605 0.3635205 0.3797757 92 92 92
-0.0556803221881129 0.00739154131773456 -0.0115397805474795 -0.7095394 0.5591496 0.4288422 56 56 56
-0.0556803221881129 0.00436410220030292 -0.00777335559354202 -0.6909218 0.421848 0.587087 59 59 59
-0.0534871990859248 0.00803515227201923 -0.00937051420436279 -0.6515878 0.5836668 0.484527 57 57 57
-0.0584932143866755 -0.013848275824752 -0.00677214657292739 -0.6590269 -0.5847291 -0.4730491 99 99 99
-0.0593196029841639 -0.0133715578758384 -0.00612057094798461 -0.888868 -0.4041043 -0.2159012 169 169 169
-0.0577780778586603 -0.00555262057420269 -0.00476974343285934 -0.9119656 0.1801751 0.3685861 76 76 76
-0.0570152576148249 -0.00641074864503399 -0.0037208655975856 -0.8905704 0.2051031 0.4059767 43 43 43
-0.0561094160258509 -0.00612470595475689 -0.00205218886361495 -0.7140715 0.4197557 0.5602741 89 89 89
-0.0571582789599634 -0.0137052246772911 0.00104677582754716 -0.952193 0.08458946 0.2935524 51 51 51
-0.0547506089389063 -0.0122034856521751 0.00409806425346955 -0.8367304 0.2402626 0.4920937 69 69 69
-0.0548698182284571 -0.0107969948494102 0.0037881648041211 -0.8054654 0.3430384 0.4832703 66 66 66
-0.0530581052481867 -0.00898531167146221 0.00462250317110642 -0.7755639 0.4209982 0.470384 31 31 31
-0.0496016020953394 -0.00529036013719097 0.00474169010891541 -0.6614047 0.5906819 0.4622106 36 36 36
-0.0489579613387324 -0.00478980033036724 0.00462250317110642 -0.6696358 0.5853603 0.4571009 42 42 42
-0.0575396890818812 -0.00436070649262921 -0.00467439090237991 -0.8168711 0.3100815 0.4863858 64 64 64
-0.0567291851222254 -0.0033594676696922 -0.00476974343285934 -0.6987807 0.3995761 0.5933334 27 27 27
-0.0556803221881129 -0.00231060473557965 -0.00472206716761962 -0.7007945 0.3966992 0.5928885 30 30 30
-0.0548221345126368 -0.00388392893907086 -0.00190916006789581 -0.6737429 0.4329146 0.5988784 98 98 98
-0.0530342931925989 -0.00409844605561749 0.000212437460561835 -0.659899 0.4673152 0.5883451 62 62 62
-0.0537414725005366 -0.00218346802827374 -0.0021952176593341 -0.6657913 0.4194649 0.6170666 71 71 71
-0.0545837457358576 0.00364896567228779 -0.00581862126813308 -0.6938919 0.3996363 0.5990031 70 70 70
-0.0536302204310633 0.00159886391523822 -0.00505580102429763 -0.6938889 0.3811091 0.6109616 62 62 62
-0.0517946953952051 0.00255235941771015 -0.00350631867871658 -0.6639998 0.3656806 0.6522132 42 42 42
-0.0516039605319239 0.00722464831236347 -0.0058662975333728 -0.6551037 0.4985181 0.5677313 57 57 57
-0.0501498456179835 0.00567516596678241 -0.00324409549460784 -0.6596471 0.406904 0.6318979 57 57 57
-0.0490532989680506 0.00779673369291767 -0.00364934747443572 -0.658571 0.4874707 0.5732857 72 72 72
-0.0499273712813593 -2.2144004073299E-05 -0.000113354077199854 -0.6435743 0.408704 0.6471269 45 45 45
-0.0489698524653651 0.0017895391738747 0.000200516531606756 -0.640951 0.378329 0.667869 63 63 63
-0.0490532989680506 -0.00259664742585675 0.00257241631521805 -0.649809 0.4831835 0.5867554 51 51 51
-0.0477565105139948 -0.000365407153334774 0.00222914571537598 -0.6324516 0.4258528 0.6470351 68 68 68
-0.0454299028098322 0.00074067623976215 0.00385967547669037 -0.6437097 0.4747927 0.6001747 51 51 51
-0.0431771750628687 0.00192066939238056 0.0050873448945485 -0.6669729 0.4789317 0.5707639 79 79 79
-0.0473369534194208 0.0061758449828957 2.17323996029722E-05 -0.6358233 0.3517888 0.6870032 91 91 91
-0.0451319093882777 0.00784447701338276 0.000808394501348578 -0.6018984 0.3979668 0.6923444 79 79 79
-0.0433003480612971 0.00814643414381488 0.00158710683359727 -0.6106043 0.3923393 0.6879188 65 65 65
0.0390685026467107 0.0101647070205544 0.00255652422680482 0.8838693 0.2241416 0.4105307 99 99 99
-0.0455252404391505 0.00169423134687885 0.00314453149809464 -0.6188428 0.4426233 0.6489362 62 62 62
-0.0413297290980555 0.00417336733702167 0.00467017943634614 -0.6933714 0.4003572 0.5991246 40 40 40
-0.0511987383544184 0.0141853979385231 -0.0162597457073726 -0.6197935 0.7015926 0.3516019 40 40 40
-0.0489102776229121 0.0129458597457741 -0.0100141400598086 -0.5970864 0.6932234 0.4036449 50 50 50
-0.0534157033145167 0.00786831887129291 -0.00815476571545974 -0.6434146 0.5495395 0.532939 46 46 46
-0.0518662209689356 0.010657339409623 -0.00977575873361007 -0.6266142 0.6398029 0.4449797 46 46 46
-0.0490532989680506 0.011086433247361 -0.00820244198069946 -0.6133043 0.6451789 0.4556336 49 49 49
-0.0484573717295863 0.0161401918685768 -0.0160452062390842 -0.6234016 0.6982865 0.3518044 44 44 44
-0.0450484926879145 0.017939894512925 -0.0138401696585216 -0.6587515 0.6691912 0.3438453 31 31 31
-0.0472415859877802 0.0120399883544777 -0.00720123296008483 -0.6287121 0.6548182 0.4194451 33 33 33
-0.0455729241549708 0.0129934838569497 -0.00720123296008483 -0.6785062 0.6184412 0.396434 42 42 42
-0.0450008089720942 0.0161878159797524 -0.0100141400598086 -0.6710659 0.6559197 0.3456008 45 45 45
-0.0425693268954493 0.0189053705489968 -0.0116351405285396 -0.6715105 0.6650363 0.3268034 38 38 38
-0.0446193988501765 0.0156395128524636 -0.00717739855275527 -0.6712578 0.6350514 0.3822601 55 55 55
-0.0421402330577113 0.0207170537269448 -0.0118258455894984 -0.6918513 0.6486067 0.3172557 39 39 39
-0.0398517723262049 0.0218136599815224 -0.00882223342881576 -0.7430043 0.5980293 0.3005087 30 30 30
-0.0378493542849757 0.022290377930436 -0.00734426920638458 -0.7752122 0.557628 0.2968114 64 64 64
-0.0463595862567164 0.0117539456642006 -0.00531802420840637 -0.6711494 0.5914376 0.4469451 63 63 63
-0.0443333561598994 0.0133748939788674 -0.00472206716761962 -0.6864961 0.5839821 0.4332298 43 43 43
-0.0480997736632563 0.00884565623167499 -0.00300571416840927 -0.6500988 0.5344138 0.5401607 49 49 49
-0.0480044360339381 0.00846424610975727 -0.00233824645505325 -0.6437244 0.5247761 0.556982 75 75 75
-0.0478137011706568 0.00932243378523334 -0.00300571416840927 -0.6519237 0.543947 0.5283153 50 50 50
-0.0430460746466853 0.0121353557861184 -0.000812605967382349 -0.6935378 0.4751977 0.5414726 49 49 49
-0.0425454850375391 0.0159256151473854 -0.0037208655975856 -0.727708 0.5670441 0.3858784 63 63 63
-0.0422832544028498 0.0168552687919472 -0.00457903837190048 -0.7137576 0.5893681 0.3784117 55 55 55
-0.0421879167735316 0.0159971407211159 -0.00333944802508727 -0.7539579 0.5523789 0.3555631 76 76 76
-0.0398517723262049 0.0166169098174904 -0.00114633982406036 -0.8138379 0.4659948 0.3471552 63 63 63
-0.0432367797076441 0.0111102751052712 0.000212437460561835 -0.6803584 0.4683142 0.5637325 81 81 81
-0.0437135572612025 0.0107527068412636 -2.10945830718401E-06 -0.6320176 0.4855585 0.6039758 91 91 91
-0.0404238875090815 0.013470261410508 0.00142818594946488 -0.820685 0.3579068 0.4453975 40 40 40
-0.041615801590655 0.00827357085112079 0.00395502800716981 -0.6988425 0.3512204 0.6231079 52 52 52
-0.0381830806910731 0.0135179451263283 0.00495623702778443 -0.8929698 0.1724589 0.4157678 61 61 61
-0.0397564048945643 0.016283183411393 0.00295382643713578 -0.8880225 0.3185696 0.331556 50 50 50
-0.0371103758990504 0.0224095872199868 -0.00569943433032409 -0.7878971 0.5526387 0.2716775 55 55 55
-0.0365144188582636 0.022862522915635 -0.00457903837190048 -0.8371184 0.5119819 0.1926327 66 66 66
-0.0371342177569605 0.023720710591111 -0.00616824721322433 -0.8172822 0.5244403 0.2387722 50 50 50
-0.0378731961428858 0.0218136003768776 -0.00367318933234588 -0.8058622 0.5567542 0.2015215 36 36 36
-0.0378493542849757 0.0207170537269448 0.00123748088850602 -0.8985057 0.4335827 0.06850906 43 43 43
-0.0367528076350428 0.023982911423478 0.00371664668097123 -0.8848562 0.4634144 0.04771392 73 73 73
-0.035513209837649 0.0261521628654335 -0.00486509596333877 -0.8459029 0.5116495 0.1505425 107 107 107
-0.0324142451464869 0.0289650848663185 -0.00438833331094161 -0.7585666 0.6514897 0.01174106 32 32 32
-0.0324619288623072 0.0291081360137795 -0.00190916006789581 -0.7882358 0.6152947 0.009831101 42 42 42
-0.0360853250205256 0.0245312145507668 0.00285847390665635 -0.8709561 0.4905907 0.02750062 75 75 75
-0.0345120008170344 0.0266289404189919 -0.000240490784505762 -0.8615672 0.5065342 0.03354258 72 72 72
-0.0327956552684046 0.029727905110154 0.00438411439432725 -0.7154348 0.695966 0.06151747 64 64 64
-0.031381266850207 0.0314601352966164 0.00425697768702134 -0.6377618 0.7691258 0.04129697 63 63 63
-0.0543930406748988 -0.015230865164962 0.00581440980209931 -0.8556708 0.0733128 0.5123014 86 86 86
-0.0537732715785242 -0.0156599590027 0.00710166896357163 -0.8375582 0.05571057 0.5435004 82 82 82
-0.0514688964068629 -0.0159142324173118 0.0107409646607838 -0.7459339 -0.08222941 0.6609243 89 89 89
-0.0522476310908533 -0.0130377718650962 0.00910407955422028 -0.8042446 0.1478816 0.5756055 54 54 54
-0.0522952850043513 -0.0101295420372154 0.00781681294216736 -0.7733038 0.390486 0.4995216 62 62 62
-0.049387025374148 -0.0078649231636192 0.0102244680620633 -0.6847273 0.4932052 0.5365605 67 67 67
-0.0487195725619532 -0.00617238967057721 0.00962851847185715 -0.6481463 0.5661931 0.5092463 54 54 54
-0.0496730978667475 -0.0117664047920372 0.012377857217928 -0.6624372 0.2478806 0.7069173 93 93 93
-0.0475753421962 -0.00502815930482403 0.00877034569754227 -0.6537638 0.5919064 0.4714231 75 75 75
-0.0476230259120203 -0.00586250512238995 0.0105105256535016 -0.6459197 0.5600266 0.5188043 84 84 84
-0.0459066505610682 -0.0122272679054405 0.0142531236506902 -0.568374 0.0750296 0.8193421 98 98 98
-0.0480997736632563 -0.0117981740677024 0.0131565695501767 -0.5970417 0.2294062 0.7687092 91 91 91
-0.0458113129317499 -0.0164704629623558 0.0150159438945256 -0.3302699 -0.3422533 0.8796502 114 114 114
-0.0455729241549708 -0.0143012115204002 0.0152781670786343 -0.4332128 -0.2494103 0.8660954 108 108 108
-0.0430460746466853 -0.0148971387588646 0.0159694691993199 -0.3520177 -0.3869543 0.8522616 125 125 125
-0.0448816294848658 -0.0123941013061668 0.0155403828121625 -0.5433963 -0.0770975 0.8359285 86 86 86
-0.0435546214759089 -0.00447192875978009 0.0122507130600415 -0.6201349 0.5695861 0.5394481 33 33 33
-0.0428076858699061 -0.00707826106187359 0.0159694691993199 -0.6671719 0.3830149 0.6388906 45 45 45
-0.0410198445498682 -0.00633922307130352 0.0175666278101407 -0.6748905 0.3433561 0.6531687 52 52 52
-0.0465264494597651 -0.00259664742585675 0.00567138100638016 -0.648382 0.5912458 0.4796135 57 57 57
-0.0434179480254389 -0.000556082411971248 0.0080933337904416 -0.6275687 0.5843693 0.5144609 61 61 61
-0.0459066505610682 -0.00421765534516827 0.00934246088041886 -0.6456943 0.5947388 0.4789202 47 47 47
-0.0422832544028498 0.000645308808121525 0.00714934522881135 -0.6890047 0.5156529 0.5092884 78 78 78
-0.0386598582446314 0.00622346909407123 0.00805519426836594 -0.8275146 0.3120957 0.4667075 52 52 52
-0.0380400593459345 0.00391110690000995 0.0117739504076444 -0.8541593 0.3003322 0.4245144 47 47 47
-0.0375950808703638 0.00795569928053363 0.0100099285937749 -0.8894361 0.2213943 0.39986 41 41 41
-0.0369673545539118 0.00785633833769306 0.0120480945207082 -0.9090251 0.1883082 0.3717705 51 51 51
-0.0407099301993586 -0.00340715138551251 0.0138717135287724 -0.6610453 0.5452749 0.5154555 38 38 38
-0.0396849091231562 -0.00235828845139996 0.0136094903446637 -0.69971 0.510531 0.499764 55 55 55
-0.0367528076350428 -0.000999481364455379 0.0178050165869199 -0.7635439 0.4190044 0.4913614 43 43 43
-0.038326131838534 0.0033151796615456 0.0120123317338429 -0.8267574 0.3251674 0.4590625 54 54 54
-0.0391842897116877 -0.0143727370941307 0.0179718797899686 -0.2682463 -0.5225248 0.809328 118 118 118
-0.0418065066516138 -0.0108923622810508 0.018496326158186 -0.5709703 -0.1140638 0.8130082 99 99 99
-0.0384214694678522 -0.0107493111335899 0.0204510455824338 -0.4052248 -0.3228779 0.8553027 125 125 125
-0.0409960026919581 -0.00955739705201641 0.0196405565239392 -0.6078708 -0.03158891 0.7934074 94 94 94
-0.0375633115946986 -0.00493279187318341 0.0203080242372952 -0.6644484 0.2365529 0.7089084 38 38 38
-0.0366097862899042 -0.00879457680818096 0.0220720386005841 -0.4433657 -0.3152765 0.8390635 87 87 87
-0.036991196411822 -0.00622007338639752 0.0217859810091458 -0.6188294 0.08436748 0.7809816 75 75 75
-0.0354655261218287 0.00441178591612323 0.0161124979950391 -0.9130716 0.1965805 0.3572901 48 48 48
-0.0356562311827875 -0.0152785488807823 0.0176858221985303 -0.1142195 -0.5519134 0.8260421 95 95 95
-0.0319374973952509 -0.0155646511757042 0.0176858221985303 -0.07294333 -0.5585158 0.8262805 97 97 97
-0.0326526339232661 -0.0121319600784446 0.0191637938715421 -0.1226677 -0.6511587 0.7489626 136 136 136
-0.0330817277610041 -0.0117981740677024 0.0197835778690778 -0.115006 -0.6845297 0.7198561 123 123 123
-0.0301734681308009 -0.0156599590027 0.0176381459332906 -0.06639543 -0.5801798 0.8117777 53 53 53
-0.0291245753943659 -0.0149925061905052 0.0184486424423657 -0.1374178 -0.6004025 0.7878028 104 104 104
-0.0279803450286127 -0.0151355573379661 0.018496326158186 -0.1314199 -0.6245515 0.7698469 154 154 154
-0.0275512511908747 -0.0129900881492759 0.0199266141153775 -0.1848125 -0.6381588 0.747394 106 106 106
-0.0288861866175867 -0.0119889089309837 0.0203795349098645 -0.1479975 -0.6703444 0.7271418 113 113 113
-0.029143648880694 -0.00991019694444195 0.02247252220883 -0.08961195 -0.7484633 0.6570939 132 132 132
-0.0327956552684046 -0.00955739705201641 0.0234546577431165 -0.3041935 -0.5835562 0.7529466 152 152 152
-0.0313335831343867 -0.00936672179337994 0.0237407153345548 -0.2292404 -0.6930977 0.6834211 155 155 155
-0.0274559135615565 -0.009223670645919 0.0236930465198956 -0.09430034 -0.7633764 0.6390336 161 161 161
-0.0260732944190241 -0.0095097133361961 0.023120931337019 -0.1478494 -0.7309607 0.6662109 133 133 133
-0.0344166631877161 -0.00841316668626324 0.0239314203955136 -0.4002525 -0.4639125 0.7903057 102 102 102
-0.0313971514880396 -0.00903299538728253 0.024821377346655 -0.2387734 -0.684445 0.6888558 129 129 129
-0.0319613094508387 -0.00817480771180645 0.0257192766167127 -0.3471742 -0.5533469 0.7571507 119 119 119
-0.0310316260039545 -0.00698289363023297 0.0269827162720166 -0.3138828 -0.5941111 0.7406143 86 86 86
-0.0292080218970515 -0.00887802331086651 0.0246942406393491 -0.1175897 -0.7541001 0.6461468 148 148 148
-0.0270109350859858 -0.00866744010087506 0.0242651617027722 -0.08727803 -0.7919371 0.6043328 147 147 147
-0.0249529059111811 -0.00848469225999371 0.0246465718246899 -0.1693787 -0.7451531 0.6450253 143 143 143
-0.0267407770335413 -0.00669685093995587 0.0279600834347211 -0.081438 -0.7672388 0.6361702 111 111 111
-0.0268679137408472 -0.00469443289872662 0.0301293497778378 -0.3165957 -0.6551713 0.6859429 111 111 111
-0.022068488138888 -0.0157553264343406 0.0198074197269879 -0.1269351 -0.707493 0.6952274 117 117 117
-0.0214486892401911 -0.0115598150932457 0.0236930465198956 -0.1846084 -0.6649907 0.7236761 93 93 93
-0.0169861788928248 -0.01161703555223 0.0239791041113339 0.007629533 -0.7266381 0.686978 162 162 162
-0.012604730862353 -0.0122391888343956 0.0222865855194531 0.02120225 -0.715903 0.6978778 145 145 145
-0.0124378676593043 -0.011464447661605 0.0232639526821576 0.02050729 -0.7312114 0.6818426 179 179 179
-0.021162646549914 -0.0108923622810508 0.0240744566418134 -0.1599351 -0.6928155 0.7031553 93 93 93
-0.0195177967726923 -0.0110115119659568 0.0245035504795514 -0.1430656 -0.7083421 0.691219 135 135 135
-0.0178252930819727 -0.0109638282501365 0.0247419243551694 -0.03190114 -0.7294044 0.6833385 169 169 169
-0.0187978918730952 -0.010186702891555 0.0258766179777585 -0.1141124 -0.7303571 0.6734664 159 159 159
-0.0223545308291651 -0.00912830321427838 0.0247419243551694 -0.2002281 -0.7281217 0.6555513 66 66 66
-0.0228789920985438 -0.00636306492921368 0.0291281407572232 -0.07696638 -0.7641305 0.6404536 81 81 81
-0.0233557398497797 -0.00517121045228497 0.0297479396559201 -0.06569599 -0.7382689 0.6712995 41 41 41
-0.0206381852805353 -0.00705441920396344 0.0282222991682492 -0.1332868 -0.7202522 0.6807874 46 46 46
-0.0124855215728022 -0.00779339758988873 0.0276978528000317 0.0656334 -0.651713 0.7556205 189 189 189
-0.0148693497359492 -0.00650611607667462 0.0287943994499646 0.0889435 -0.6407946 0.7625426 212 212 212
-0.0357039148986079 0.000502317265305363 0.0191161101557217 -0.8360668 0.2786866 0.472574 42 42 42
-0.0355767781913019 0.0012174537933205 0.0188459521032773 -0.8655902 0.2640277 0.4254914 50 50 50
-0.0351079578578211 -0.000522763415541805 0.0203080242372952 -0.8294787 0.2839074 0.4810007 31 31 31
-0.032223540085528 -0.00355020253297345 0.0253617083527051 -0.6717332 -0.2656941 0.6915064 54 54 54
-0.0305071945368983 -0.000355870410170711 0.0296287452675305 -0.7983606 -0.1902883 0.5713237 64 64 64
-0.0299986477076746 -0.00205633132096783 0.0296843713022672 -0.7257058 -0.2680228 0.633652 90 90 90
-0.0316514249026514 0.00198027403715595 0.0267443274952374 -0.8853592 0.002187619 0.4649024 46 46 46
-0.0312700147807337 0.005635469273362 0.0264264857269727 -0.922385 0.06667201 0.3804744 60 60 60
-0.0314130659281947 0.00815436156157001 0.0265536224342786 -0.9077538 0.06679284 0.4141519 66 66 66
-0.0306502158820368 0.00546064885023578 0.0280792629219495 -0.9243562 0.05519949 0.3775165 72 72 72
-0.029553669232104 0.00698628933790668 0.0297002559400998 -0.9310153 0.06776062 0.3586349 80 80 80
-0.0390412683665491 0.00913169892195209 0.0070063164330922 -0.8423235 0.2598118 0.472217 68 68 68
-0.0384691531836726 0.0165215423858498 0.00710166896357163 -0.9394302 0.1206302 0.3208101 94 94 94
-0.0372931237399317 0.01725259335402 0.00830947513355836 -0.9438335 0.1003115 0.3148268 80 80 80
-0.0382307644068934 0.0176180890357827 0.00710166896357163 -0.9340045 0.1812449 0.307873 83 83 83
-0.0367289657771326 0.00996604473951801 0.0118216266728841 -0.9494025 0.1120439 0.2933958 50 50 50
-0.0356562311827875 0.00875028880003437 0.0139193897940122 -0.943372 0.1009095 0.3160169 78 78 78
-0.0356800730406977 0.00798746855619892 0.0165892680980168 -0.9427637 0.08936979 0.3212624 67 67 67
-0.0350602741420008 0.0198350837982033 0.0145868575073682 -0.9102946 0.1721874 0.3764508 73 73 73
-0.0342736418425776 0.017665772751603 0.0150159438945256 -0.9182165 0.1799223 0.3528546 70 70 70
-0.0333677704512812 0.0291081360137795 0.00581440980209931 -0.7589673 0.6395451 0.1222732 47 47 47
-0.0312461729228236 0.0305145672118996 0.00602895672096833 -0.6539614 0.7474263 0.1169973 80 80 80
-0.0339398856341578 0.0259614876067971 0.00939013714565858 -0.8173172 0.5176463 0.2530511 56 56 56
-0.0292676265418269 0.03196868212584 0.00821014399304017 -0.5689104 0.796555 0.204551 54 54 54
-0.0341305906951166 0.0246265223777626 0.0143484761811696 -0.8504633 0.4042224 0.3366249 89 89 89
-0.0347027058779932 0.0218612840926979 0.0148252388335667 -0.9074745 0.2170404 0.3596992 83 83 83
-0.0313653822123743 0.0274156025207375 0.0146822100378476 -0.6981593 0.6475055 0.305467 45 45 45
-0.0322235698878504 0.0259376457488869 0.0175666278101407 -0.817768 0.4599992 0.3459135 51 51 51
-0.0267884309470393 0.0314283660209511 0.0142213394738637 -0.5031878 0.8143281 0.2892606 37 37 37
-0.0288385327040888 0.0284406235969399 0.0150159438945256 -0.6607991 0.7032527 0.2622595 42 42 42
-0.0276704604804255 0.0297755888259743 0.0168991600967847 -0.5959767 0.7640908 0.2469352 44 44 44
-0.0254773373782374 0.0316349557197426 0.0159694766499005 -0.4988972 0.8246161 0.2666645 38 38 38
0.0105326001465582 0.0293560317314003 0.0321794366337262 0.670299 0.5642556 0.4819906 74 74 74
-0.0348457570254542 0.00793978484037861 0.0183771317697965 -0.933252 0.08100476 0.3499698 76 76 76
-0.033701526659701 0.00822588713530048 0.0205463981129132 -0.9184738 0.06293733 0.3904418 67 67 67
-0.0353701884925104 0.0128504923141335 0.0176858221985303 -0.9404832 0.09893337 0.3251208 87 87 87
-0.0349410946547724 0.01165857823256 0.0194498514629804 -0.9300994 0.1087803 0.3508303 95 95 95
-0.0329863901316859 0.0138755729949807 0.022024369785925 -0.8827662 0.1864083 0.4312491 96 96 96
-0.0327003176390864 0.0136371544158791 0.0233354782558881 -0.868806 0.1418879 0.474388 86 86 86
-0.0346550519644953 0.0140900901115273 0.0183532899118863 -0.9210861 0.1507053 0.3590103 95 95 95
-0.0337491805731989 0.0154726794517372 0.0196882253385983 -0.8859236 0.2414018 0.3960613 87 87 87
-0.0326049502074457 0.0178088238990639 0.0212615495420895 -0.8662031 0.2761732 0.4164379 73 73 73
-0.0316196258246638 0.0179359606063698 0.0226759528614484 -0.8547465 0.2750615 0.44017 82 82 82
-0.0319374973952509 0.0121830395019387 0.0245035355783902 -0.8741941 0.130364 0.4677498 111 111 111
-0.0313018138587214 0.0117380312240456 0.0262993490196668 -0.8902588 0.1319159 0.4359329 121 121 121
-0.0296013231456019 0.0119923046386574 0.0285798674322568 -0.9162636 0.1368261 0.3764831 92 92 92
-0.0302211518466212 0.015854089573655 0.026648974964758 -0.8726043 0.2048119 0.4434116 63 63 63
-0.0296728487193323 0.0198589256561135 0.0248849457003079 -0.8858202 0.2322719 0.4017118 75 75 75
-0.0287670071303583 0.0154726794517372 0.0285321986175977 -0.8981332 0.211712 0.3854021 66 66 66
-0.0288385327040888 0.0170936873710488 0.027078068802496 -0.878517 0.1976848 0.4348893 58 58 58
-0.0320328350245692 0.0216706088340615 0.0187585418917142 -0.874051 0.227511 0.429271 50 50 50
-0.0313653822123743 0.0233393004691933 0.0189730888105832 -0.8426276 0.3419217 0.4160147 84 84 84
-0.0325096125781275 0.0254370263374184 0.018496326158186 -0.8225974 0.4254192 0.3772955 77 77 77
-0.0303641731917597 0.020478694752488 0.0235976939894162 -0.8799913 0.2276405 0.4168874 93 93 93
-0.0301734681308009 0.0270580342567299 0.0204987292982541 -0.8060945 0.5039746 0.3101956 47 47 47
-0.0253104741751887 0.0312535455978249 0.018400966177126 -0.5209626 0.829733 0.2003528 29 29 29
-0.0287431652724482 0.0275824955261086 0.0232639526821576 -0.7676072 0.5544712 0.321467 40 40 40
-0.0280041868865229 0.028345315769944 0.0227156793571912 -0.6792929 0.6782067 0.2803512 43 43 43
-0.0270458932101466 0.0282404115951393 0.0244272565342389 -0.706439 0.6452112 0.2909408 52 52 52
-0.0279803748309351 0.0222189119613503 0.0277693783737622 -0.9063135 0.2398298 0.347962 65 65 65
-0.0254058416068293 0.0292511275565956 0.0260530179239713 -0.664138 0.6965004 0.2716762 50 50 50
-0.0236894662558771 0.0310628703391884 0.0185439949728452 -0.5055583 0.8391474 0.2006053 37 37 37
-0.0216870780169703 0.0319209984100197 0.0231686001516782 -0.5389726 0.8265159 0.1624193 30 30 30
0.0268474345028661 -0.0149209806167747 -0.0184051776431598 0.2614784 -0.4890758 -0.8321261 74 74 74
0.0305185441792272 -0.0156957217895652 -0.017344378878931 -0.004951826 -0.4239794 -0.9056583 85 85 85
0.028945219975736 -0.0139913269722129 -0.0183098251126804 0.1934746 -0.5156092 -0.8346944 67 67 67
0.0305662278950475 -0.0136456796371605 -0.0184051776431598 0.06656339 -0.4999149 -0.8635128 77 77 77
0.0337128464997076 -0.0150878736221458 -0.0181191200517215 -0.1070353 -0.3847774 -0.9167823 70 70 70
0.0312813644230627 -0.0129900881492759 -0.0185958827041186 0.03628337 -0.5053376 -0.8621586 71 71 71
0.0362873797238134 0.0124690821922158 0.00338291282429322 0.8477063 0.4132002 0.3326554 58 58 58
0.037272674304273 0.0178618124282692 0.000744826147695624 0.7841102 0.2967284 0.5450903 75 75 75
0.0346663718045019 0.019096105412278 0.000856070766588293 0.7840796 0.3077786 0.5389727 58 58 58
0.0361205165207647 0.0195847442901467 0.00202413553967103 0.7681758 0.3527217 0.5343158 57 57 57
0.0351431493580602 0.0201925924575661 0.00240554566158875 0.8421006 0.2523024 0.4766656 64 64 64
0.035524559479978 0.0148529103553627 0.00276312137617692 0.7908417 0.4345145 0.4310064 50 50 50
0.0360132579624914 0.0159613779342507 0.00413381213917359 0.8467933 0.3910794 0.3605524 58 58 58
0.0331884150326513 0.0178088238990639 0.00405038053764924 0.8662019 0.3115436 0.3906852 54 54 54
0.0345574145138525 0.020233481243882 0.00414573306812867 0.8791705 0.203516 0.4308602 53 53 53
0.0357629482567571 0.0189053705489968 0.00371664668097123 0.822288 0.2825383 0.4939784 71 71 71
0.0368499581635259 0.0236634901321267 -0.00537046139464752 0.7907268 0.5209723 0.3214636 35 35 35
0.0360807900250219 0.0255483082092141 -0.00613646303639785 0.8128374 0.5093174 0.2826503 27 27 27
0.0362714950859808 0.0241021207130288 -0.00378443395123855 0.8132284 0.5022252 0.293989 41 41 41
0.0362396960079931 0.0254847100532387 -0.00398308878169433 0.8186664 0.4966747 0.2882699 44 44 44
0.036534411174085 0.0217139414108132 -0.00172279124484435 0.8144008 0.4445002 0.3730562 54 54 54
0.0349524442971014 0.0222426942146157 -0.00090795849786178 0.8346284 0.3889213 0.3900456 40 40 40
0.0353815381348394 0.0230055144584511 -0.00109866355882064 0.867851 0.3795939 0.3205356 64 64 64
0.0331884150326513 0.0285359910285805 -0.00362550561652557 0.7713723 0.5752329 0.2721985 48 48 48
0.033350509864118 0.0278017810142372 -0.00213800465093032 0.772267 0.5770245 0.2657939 50 50 50
0.0321395222962164 0.0292193582809304 -0.00154364203439132 0.7482047 0.6127957 0.2543054 48 48 48
0.0343644444763921 0.0272646239555214 -0.00176613127217666 0.8171678 0.504084 0.2795286 69 69 69
0.0355150227368139 0.0221569231307839 0.000541402945657812 0.8527113 0.3546183 0.3835745 55 55 55
0.0365495805561803 0.0212653568542336 0.00133283341898545 0.8119094 0.3105512 0.494329 51 51 51
0.0341419403374456 0.0251986673629616 0.00204797739758118 0.8121913 0.4685219 0.3476098 67 67 67
0.0327116374790929 0.0215275576866005 0.00262009258045777 0.8937459 0.1603451 0.4189364 55 55 55
0.0340704147637151 0.0216865232742165 0.00424903536810502 0.8665584 0.213106 0.4512897 79 79 79
0.0333791200936102 0.0237683943069313 0.00285847390665635 0.8224103 0.4022522 0.4022864 94 94 94
0.0334172670662664 0.023835091904435 0.0044985404111348 0.8104528 0.3241454 0.4879509 83 83 83
0.032663983565595 0.0257469108856057 0.00402058566584214 0.7763562 0.4758297 0.4133489 71 71 71
0.0320918683827184 0.0250079324996804 0.00533764714970215 0.7641987 0.3928151 0.511563 67 67 67
0.0307330612957739 0.0285121491706704 -4.97857235468996E-05 0.6890338 0.6431013 0.3341455 53 53 53
0.0271692697823309 0.0314919641769265 0.00400270427240952 0.6625294 0.6494098 0.3732582 49 49 49
0.027610284549024 0.0304907253539894 0.00419340933336838 0.6873292 0.6329691 0.3562705 46 46 46
0.0285757307827734 0.0297517469680642 0.00444371158852204 0.7010651 0.6358688 0.322767 47 47 47
0.029421967726972 0.0302046826637123 0.00300150270237549 0.6901327 0.6405188 0.3368272 77 77 77
0.0278963272393011 0.0313012293136452 0.00338291282429322 0.709688 0.6301883 0.3149693 44 44 44
0.0331884150326513 0.0266766241348122 -0.000574224641183771 0.8173233 0.507655 0.2725233 51 51 51
0.0319726590931677 0.0285598328864907 4.55668069325316E-05 0.7134327 0.6232303 0.320309 58 58 58
0.0309476380169653 0.0267719915664528 0.004860884497305 0.7115408 0.5544292 0.4316457 50 50 50
-0.00902106119987739 -0.0146270105087425 0.0204828297592603 -0.09303727 -0.6060488 0.7899677 118 118 118
-0.00871910406944526 -0.0155646511757042 0.0197359090544186 -0.1459817 -0.5780265 0.8028541 84 84 84
