ply
format ascii 1.0
comment File exported by Rhinoceros Version 7.0
element vertex 474
property float x
property float y
property float z
property float nx
property float ny
property float nz
property uchar red
property uchar green
property uchar blue
end_header
0.144825513895636 -0.057994375057925 0.0362371767730336 0.03494332 -0.5638509 0.8251371 203 203 203
0.146417494352942 -0.0937433932502163 0.0198481644363027 0.2373858 -0.3902181 0.8895942 180 180 180
0.0329413371645263 -0.100240657158603 -0.0254437510996242 -0.6550786 -0.705503 -0.2704395 65 65 65
0.128554459150915 0.0894016529839146 0.00723299038120317 0.00103789 0.9661617 -0.257935 108 108 108
-0.0377283734716126 -0.128600964375247 0.0134324694842916 0.005430858 -0.6381458 0.7698964 55 55 55
0.0342055516802123 -0.0804259274680508 0.0379306937427144 -0.2696134 -0.2660857 0.9254767 123 123 123
-0.145127598706598 0.109755804709684 0.055083003160439 0.06134757 0.9824799 -0.175982 44 44 44
0.0220315414034179 -0.109020302124728 -0.0181461309223552 0.0237545 -0.5855009 -0.8103237 96 96 96
0.055697436865454 -0.0375672672469509 0.0433442259997945 -0.01181564 -0.5191218 0.8546185 175 175 175
0.0921727376543334 -0.116842875309695 -0.0268072818546672 -0.1390747 -0.8749204 -0.4638669 27 27 27
0.150175090368872 0.0898554827492344 -0.0102527772217174 -0.0837021 0.9782172 -0.1899607 113 113 113
-0.145303134385461 0.105426361731778 0.0235637391776662 0.06315251 0.9783804 -0.1969352 145 145 145
-0.164067570630426 -0.0659116004187954 0.0120884443492513 -0.9357898 -0.3488029 0.05132215 118 118 118
-0.112000112000818 -0.119500408001651 -0.0515541468887706 0.1546821 -0.8246047 -0.5441511 80 80 80
-0.00353402322899787 -0.0735490415770901 0.0263506139487844 -0.1819034 0.3000771 0.9364107 175 175 175
-0.0682437462247559 0.104184200934659 0.0488861466617208 0.2563787 0.9640319 -0.07008886 149 149 149
0.0585724073015502 -0.125658104248751 -0.00285703289798689 -0.2397632 -0.8982999 -0.3681996 134 134 134
0.160487945612555 -0.0299619529921902 0.035779830333672 -0.1516363 -0.4572408 0.8763203 88 88 88
0.175073381003027 0.010173132590543 0.00110420238681841 0.9917443 -0.02830948 -0.1250674 180 180 180
0.0204816418253234 -0.130195448227633 0.00747605812259722 -0.0414407 -0.9850477 -0.1672236 154 154 154
-0.0298486990369508 0.0525128151695835 0.0527990127772908 0.1538171 -0.1045038 0.9825575 118 118 118
0.156461115416174 -0.10609800560068 -0.053884122255363 0.1476366 -0.9584989 -0.243892 100 100 100
-0.0370243234075257 0.0802834536354649 0.0539438391894917 0.4203446 -0.0333361 0.9067519 174 174 174
-0.136023048821802 -0.0978514645774258 0.0159956778258901 0.05941631 -0.6291872 0.7749794 122 122 122
0.0147271113954833 -0.0366347525794399 0.0336983765334706 -0.5276773 -0.5245433 0.6681399 218 218 218
-0.155776504937524 -0.00347615224908715 0.0610503519744496 0.1375576 -0.5720208 0.8086224 141 141 141
-0.0353644532598206 -0.130174348183383 0.0117442275256734 -0.01189022 -0.6081045 0.793768 62 62 62
-0.0600965065396973 -0.0697610471923245 -0.0571162735252757 0.06903011 -0.5951282 -0.8006605 45 45 45
-0.111485068265314 -0.129948684998263 -0.0323265378504176 0.6265698 -0.7348992 0.2594868 75 75 75
0.00864004665244134 -0.0916503165442837 -0.0335492228298564 0.3225122 -0.5097438 -0.7975883 14 14 14
-0.0457568807042786 -0.120433697529544 0.0211051667899709 -0.162362 -0.6925138 0.7028963 70 70 70
-0.047606412831659 -0.118106434174289 -0.0248003189592738 0.1892038 -0.7905629 -0.5824193 61 61 61
-0.0383704943097779 -0.112024376221408 -0.0314082537918468 0.07825047 -0.49623 -0.8646575 137 137 137
0.0549014764391235 -0.0493717883307827 0.035919960853539 -0.1581107 -0.3240373 0.9327384 215 215 215
0.00238912874091179 -0.117713758774508 -0.0183808838158031 0.1478004 -0.637844 -0.7558506 111 111 111
-0.06665176576745 0.0501606370728123 0.0597061778277974 0.2414915 0.003271826 0.9703974 223 223 223
-0.0949798864759156 -0.13622553093027 -0.00475252020648909 -0.05379616 -0.4897714 0.8701896 247 247 247
-0.0252600354589173 0.0994653012077915 0.00959741723247576 0.07212257 0.9592244 -0.2732891 95 95 95
-0.172846917573328 0.0689298416893589 -0.0243809108763118 -0.9983568 -0.04463276 -0.03593841 80 80 80
-0.0915617389119813 -0.12562001688074 0.00193446528621721 -0.2775093 -0.3724853 0.8855751 108 108 108
0.0992898898683837 -0.0429316852767361 0.0479319657058339 0.0110727 -0.3986153 0.9170514 138 138 138
-0.14613426155221 0.0993370320122349 -0.00400469053081465 -0.08285557 0.991011 -0.1050342 153 153 153
-0.131324057046289 0.107935240439664 0.0414650703639607 0.0512875 0.9505583 -0.3062817 69 69 69
0.142476554449683 -0.122332701512088 -0.0230097358255763 0.05204782 -0.8432815 -0.5349461 115 115 115
0.0614567356668761 -0.116191754170169 -0.0145607029228587 -0.1478951 -0.8312939 -0.535796 97 97 97
0.164982970293646 0.0826821829598057 0.0190144444675069 0.9222778 -0.3758287 -0.09031337 76 76 76
0.0635169106088928 0.0636790897171604 0.0583870972365956 -0.160989 -0.0008705611 0.9869558 122 122 122
-0.159096543256159 0.104581525496732 0.0300596023769002 -0.06873614 0.9770604 -0.2015647 162 162 162
0.167722101744299 0.0586064364235508 -0.0420494859247584 0.9947938 -0.0004511143 0.1019068 83 83 83
-0.0255878014005372 -0.123348245449771 -0.0104608272343059 0.2601322 -0.8973954 -0.3563885 124 124 124
-0.173455659810419 0.0155424978058445 0.0118933881492238 -0.9932463 -0.06218126 0.09795538 21 21 21
0.165732141073828 -0.0106687639434231 -0.0526963506966014 0.9851327 -0.1668239 -0.04102901 103 103 103
0.160501952704077 -0.105687568016757 -0.0483132933407207 0.213067 -0.9675829 -0.1355942 126 126 126
0.0806854324899963 0.0975578333656895 0.0412419999808888 -0.06464867 0.9904407 -0.1218513 135 135 135
0.11478840881217 0.00385778205801124 0.0668174887866597 -0.1026556 -0.1130387 0.9882733 209 209 209
0.152539666231757 -0.12248588544916 0.00411292564579058 0.04449025 -0.5607753 0.8267719 200 200 200
-0.0927791637815186 -0.125453779526461 0.00070953023143816 -0.3167291 -0.3361489 0.8869535 142 142 142
0.0745438294969848 -0.0716434214789761 0.0414528812141042 0.06619169 -0.3534282 0.9331169 196 196 196
0.167511399325018 0.0197998191635715 -0.0255713646440883 0.2264529 -0.3006262 0.926468 115 115 115
-0.176592771474237 0.0501673127930271 0.0574411715240102 -0.9765399 -0.2138887 -0.0249309 104 104 104
0.0188943701349548 -0.0992931817252529 -0.0217821036606212 0.1368929 -0.5566462 -0.8193933 64 64 64
0.169477994974737 -0.0480752084929836 -0.0275373195438762 0.9909874 0.1289102 -0.03641523 120 120 120
0.139511104162817 -0.112665364571322 0.0106262530059438 -0.1049288 -0.53482 0.8384256 114 114 114
0.0974637823664001 -0.0324125383574856 0.0533758665294271 -0.1155558 -0.3790176 0.9181463 101 101 101
0.0563061194979003 0.0970049406807529 0.0521260167331319 0.06666758 0.9787382 0.1939764 46 46 46
-0.0175809902585694 -0.0818661544997585 0.026096072313271 -0.112134 0.2608044 0.9588571 142 142 142
0.0881342249475768 -0.0921165440757168 0.0284542406768422 0.01591368 -0.4401177 0.8977991 168 168 168
-0.0683842343724915 -0.134908625908603 -0.00523066866687727 0.3869265 -0.9090965 -0.1543744 47 47 47
0.0788866835199645 -0.129385301895846 0.00798809182354021 0.1622541 -0.9553825 -0.2468157 123 123 123
0.113055940207129 0.00995599286962623 0.0687404538364034 -0.1938044 -0.05160043 0.9796822 78 78 78
-0.0898605031408021 -0.0916953776557339 0.0138359631270986 -0.3744528 -0.3170702 0.8713504 159 159 159
-0.00146037763726203 -0.116101512737979 0.0222979451388936 0.08236051 -0.4972638 0.8636813 189 189 189
0.00793772512305291 0.0474978591721165 0.042966213342629 0.04244324 -0.2794353 0.959226 132 132 132
0.0367028074823669 -0.128220805950869 0.00617417347141314 0.07661418 -0.8175196 -0.5707819 97 97 97
-0.157957140866632 -0.0846241806228054 0.0258846546382527 0.1039264 -0.4444399 0.8897598 104 104 104
-0.0733318967260072 0.0835061575691807 0.0586024190158467 0.03070711 -0.03123801 0.9990402 172 172 172
0.160054798658972 -0.091981420346011 0.00530790936657 0.9943728 -0.03798933 0.09889105 125 125 125
0.06716912561286 0.0983956362526524 0.0502600337237935 -0.085218 0.970047 -0.2274792 140 140 140
0.0623346524797729 -0.0999716017920864 -0.0319897418051143 -0.3387891 -0.6889082 -0.6408021 112 112 112
-0.149973754350061 0.0322990919869053 0.0724406207770925 0.06332085 -0.2680949 0.9613093 153 153 153
-0.134498660031671 -0.102871367760409 0.0118515754909139 0.005727854 -0.6792437 0.7338904 44 44 44
0.112494047220831 -0.123847791977633 -0.00623178828052473 -0.1241338 -0.9704191 -0.207069 78 78 78
0.166855867441778 -0.0955475066382778 -0.0314990018635173 0.9191987 0.186692 0.3467274 165 165 165
-0.145291451875086 0.0989224221031773 -0.000323805692710399 -0.01291979 0.9971837 -0.07387689 118 118 118
0.168494697149878 0.00419806497503394 -0.0267847960024257 0.9949954 0.08224133 -0.05674892 102 102 102
0.16339098983634 -0.0629636738974941 -0.00282872069171858 0.9637223 -0.1547681 0.2174535 100 100 100
-0.157395247880335 -0.0493626688201321 0.0416754747600179 -0.05162166 -0.3789881 0.9239606 139 139 139
0.0142588573061279 -0.0907018278319729 -0.0282730047731776 0.1883367 -0.6284442 -0.75471 100 100 100
0.154784853991156 -0.0799092744071377 0.0254270101756673 0.3081017 -0.5147397 0.8000727 234 234 234
-0.0892673773206422 0.105958750418912 0.0537205303878407 0.06934682 0.9975892 -0.002596819 60 60 60
-0.0309958500302979 0.0999044682304966 0.0536300505370717 0.1003057 0.1587575 0.9822091 198 198 198
-0.00381493991982429 0.0926414038460361 -0.0140950714378734 0.0155649 0.9651014 -0.2614138 64 64 64
0.0722416596971801 -0.125660667248477 -0.000698480489768505 0.2236945 -0.8500779 -0.4767896 96 96 96
-0.179308537904138 0.0170646812241184 -0.0492691879301448 -0.9814553 0.07211393 -0.1776097 37 37 37
0.100413675840979 -0.0759165976722134 0.0350933934421163 0.2228168 -0.4808308 0.8480297 204 204 204
0.040362771090155 -0.124472627468814 0.00182169329830217 0.05244279 -0.7832994 -0.6194286 90 90 90
0.0803264933191589 0.00587313430715675 0.0608821476668935 -0.2305776 -0.1473878 0.9618268 140 140 140
0.173036571081763 0.0504505540649998 0.0177740122050862 0.9394789 0.3127364 0.1399121 118 118 118
0.110141213472967 -0.00262678606103783 0.0649253691405873 -0.05925047 -0.1017312 0.9930459 223 223 223
0.161611671980505 -0.10987306577753 0.00610738646694231 0.9725042 -0.04211115 0.2290463 201 201 201
0.00756310993063958 -0.127827415295352 -0.00774193156055403 -0.07277988 -0.7875203 -0.6119761 229 229 229
0.163812394674902 -0.00745190126489526 0.0399639869899373 0.538951 -0.8188739 -0.197427 109 109 109
0.165942843493109 -0.0939333532531155 -0.0520390902786632 0.7088839 -0.2057767 0.6746403 118 118 118
0.167698677118903 -0.096034953423251 -0.0460817252426524 0.9392803 0.1174337 0.3224311 103 103 103
0.0740990000330261 -0.0229375456054104 0.0525210465163808 -0.1464759 -0.5151206 0.8445091 140 140 140
0.0628379541002563 0.0888118054192173 -0.0398637090950389 0.04497983 0.9804556 -0.1915299 79 79 79
0.162033076819067 0.0271292831223118 0.0747150744170766 0.08232027 -0.1296199 0.9881407 150 150 150
0.152574773367529 0.0883723999779331 -0.0257913951902766 -0.06937619 0.9974722 -0.01536797 115 115 115
0.0585380154215148 -0.0962206814963711 -0.0336653326778789 -0.1347525 -0.701526 -0.6997878 91 91 91
0.169665272768622 0.0160860325615513 0.0441569949359517 0.8082173 -0.5680334 -0.1553153 93 93 93
-0.003206257287378 -0.116149732895602 -0.0209374760418315 0.05992549 -0.7775174 -0.6259997 73 73 73
0.149250324305182 -0.0614528749663723 0.0342697466582875 0.00771513 -0.4696536 0.8828171 150 150 150
0.168416615065222 -0.0160559509475124 0.0212299193114858 0.9600664 -0.04811276 0.2756043 158 158 158
-0.083523754540796 -0.128310868569125 -0.0239779238729854 -0.02346478 -0.9162626 -0.3998904 20 20 20
-0.15720797008645 0.0663743521492588 0.075943108913384 0.1579595 0.1168536 0.980507 160 160 160
-0.113240901891107 -0.140372762509097 -0.0121076737671275 0.6248062 -0.7807798 0.0003176412 87 87 87
-0.107306067410822 -0.136222431488742 -0.00628865111164045 -0.1230652 -0.9441235 0.3057544 193 193 193
-0.107294384900446 -0.133765230007876 -0.00302616107753706 -0.01963653 -0.4937947 0.8693568 107 107 107
-0.0994748515523621 -0.137297937699069 -0.00640508878520918 0.06816425 -0.9895906 -0.126744 101 101 101
-0.0988193196691224 -0.0686248038489712 0.0203041995734792 0.3070033 -0.3638643 0.8794042 152 152 152
-0.0912027997411439 -0.136205921002139 -0.00451240289501142 -0.03192021 -0.6811777 0.7314219 189 189 189
-0.082009796563501 -0.137354204483737 -0.0030890439777751 -0.3593235 -0.7157744 0.5987934 237 237 237
-0.0788960499204346 -0.139352867432345 -0.00381216752819014 -0.3811016 -0.8249732 0.4173497 156 156 156
-0.0713887257016846 -0.139224479027499 -0.00402862179569197 0.5220725 -0.8440547 -0.1225236 54 54 54
-0.076227132741327 -0.137134203739871 -0.000898871305503368 -0.2766259 -0.7534683 0.5964592 209 209 209
-0.0711561483777711 -0.139539131947268 -0.00229052055171919 0.3372797 -0.9252534 0.1736335 59 59 59
-0.0692036194242188 -0.136688003369082 0.00140523564525652 -0.03181027 -0.9895177 0.1408641 106 106 106
-0.0182833117879578 -0.12139124614786 0.0233310426444631 0.08553809 -0.5850807 0.8064514 49 49 49
-0.0736284298337647 -0.13582361681055 0.00468334209629107 -0.3373643 -0.6593097 0.6719345 85 85 85
-0.0704678935445496 -0.132519671746005 0.00590401541896868 -0.3510347 -0.4928958 0.7961334 66 66 66
-0.0709751290715882 -0.127643892594088 0.00943597805210161 -0.3346958 -0.5110981 0.7916802 79 79 79
-0.0638517183698365 -0.135883221455325 -0.00247022855571699 0.1858556 -0.9711788 -0.1492295 29 29 29
-0.0638657850660035 -0.135741481610049 0.00165950905986834 0.1132272 -0.9885119 -0.1001189 37 37 37
-0.0576335830129334 -0.135438093968142 0.00176724445529985 0.2052511 -0.9673831 -0.1484654 35 35 35
-0.0565847796834656 -0.134898969956149 0.00133210074611712 0.2363231 -0.9613894 -0.1410028 34 34 34
0.0969331222139648 -0.108631381817569 0.0199479724139791 0.03194491 -0.4641162 0.8851981 172 172 172
-0.0618156237043092 -0.135519454308261 0.00719111811824846 0.01749562 -0.8629687 0.5049543 70 70 70
-0.0598468226827332 -0.135990271397342 0.00344097268291521 0.2016254 -0.9679016 -0.1500459 33 33 33
-0.065176848832483 -0.135110030003299 0.00888153564640093 -0.1876277 -0.6078768 0.7715449 52 52 52
-0.0638423604406068 -0.13029725296091 0.0104841555327992 -0.1536537 -0.584116 0.7969938 118 118 118
0.0269479709230712 -0.0970534179885281 -0.0250452195434947 -0.119061 -0.7375466 -0.6647176 56 56 56
-0.056022886697168 -0.135233828850497 0.00752508294292498 0.03645123 -0.9266273 0.3742099 48 48 48
-0.0563038033879945 -0.135348090954531 0.00395586740680742 0.2558001 -0.9553397 -0.1479603 54 54 54
-0.0542435688413331 -0.134245405026187 0.00618350159832048 0.01710521 -0.9908888 0.1335922 98 98 98
-0.0456222934163758 -0.132517049141635 0.00131952416606951 0.037447 -0.9566977 -0.2886646 37 37 37
-0.0416949433721253 0.0660345460693943 0.0533355141849141 0.1938618 0.1226634 0.97333 153 153 153
-0.052557949487085 -0.1349862311561 0.0092419947356801 -0.001540093 -0.8583724 0.5130247 39 39 39
-0.0462836665548035 -0.133206734486331 0.0123776162833791 -0.08566521 -0.5013453 0.8609961 69 69 69
-0.0475791139043519 -0.130346903630008 0.0117775465221028 -0.01645536 -0.5526068 0.8332796 47 47 47
-0.0574510139859864 -0.130512544937838 0.0135674442023854 -0.05702841 -0.6839058 0.727338 64 64 64
-0.0595502299703309 -0.127631196804751 0.0130000079841237 -0.06056725 -0.644074 0.7625617 59 59 59
-0.0575836939252564 -0.125905523129214 0.0140485728950124 -0.1311669 -0.5385951 0.8322923 44 44 44
-0.051293734971399 -0.128688821621646 0.0125593806476216 -0.08468449 -0.6324869 0.7699278 106 106 106
-0.0558199924863526 -0.126331815548648 0.0141828025550466 -0.1138326 -0.6128306 0.7819724 64 64 64
-0.0475634974874207 -0.130072305031527 0.0129676426620107 -0.007764087 -0.5413094 0.8407876 89 89 89
-0.0479458612836549 -0.127614149876345 0.0134569371909719 0.03560164 -0.5582801 0.8288884 65 65 65
-0.0530729932225892 -0.124292144604434 0.0164170826644521 -0.1205924 -0.5198766 0.8456866 71 71 71
0.142273660238867 -0.111892053910006 0.0116410220832448 -0.02870789 -0.4592044 0.8878666 223 223 223
-0.0344373626149842 -0.135342786141146 0.00804456722446489 0.02851503 -0.9949662 0.09606864 104 104 104
-0.0413827938474366 -0.13330508215021 0.00372960817524004 0.02879173 -0.9585937 -0.2833181 65 65 65
-0.0375276846326539 -0.132578501530398 0.00319161665149736 0.08500817 -0.9284507 -0.3615977 134 134 134
-0.0338754696286866 -0.133703658409823 0.00562029730983782 0.08578396 -0.9626697 -0.2567261 121 121 121
-0.0429591578878114 -0.135061034985293 0.00901525866695452 0.09619535 -0.9586254 0.2679248 72 72 72
-0.0374902529157349 -0.133948812313784 0.00959002625652361 0.09158474 -0.9223535 0.3753348 96 96 96
-0.0352333230413148 -0.132639953919162 0.0131865705222707 -0.09527791 -0.5853695 0.8051488 42 42 42
0.162875886496191 -0.106928715534915 -0.0302084420948405 0.69376 0.7011229 0.164693 111 111 111
-0.037199918691034 -0.130146453209628 0.0122406150073628 -0.008327954 -0.6057386 0.7956201 73 73 73
-0.175484661523218 0.0559368039887058 -0.0187838112144847 -0.8723102 0.364716 -0.3256643 101 101 101
-0.0273670000470826 -0.133303592034091 0.00634890448757219 0.2092678 -0.9148172 -0.3454222 134 134 134
-0.0243703765309998 -0.131766507454623 0.00587138187595415 0.2866268 -0.8836375 -0.3701752 120 120 120
-0.0285844249166199 -0.133586356468905 0.0111394489974599 0.07857055 -0.8735139 0.4804167 75 75 75
-0.0220603985227296 -0.132793137856234 0.00934332263179827 0.1355596 -0.9861332 0.09573314 148 148 148
-0.0309724254049012 -0.0859950874526394 -0.044834393742599 0.106435 -0.315356 -0.9429858 55 55 55
-0.0415545148290345 -0.127427646942843 0.0152085388869863 -0.1238523 -0.6335591 0.7637169 47 47 47
-0.0364741725362489 -0.127148101158847 0.0149421955318074 0.02911832 -0.7157416 0.697758 43 43 43
-0.0435835165418336 -0.123513231106509 0.0174944664210896 -0.1496096 -0.7407907 0.6548635 90 90 90
-0.0391665143407532 -0.123261043854464 0.0192775393695455 -0.1028691 -0.7939283 0.5992461 77 77 77
-0.0356664699948975 -0.123304257221927 0.0196520055503469 -0.03252001 -0.8045768 0.5929576 62 62 62
-0.0291307014859864 -0.127962479420413 0.0137443507880788 -0.1554456 -0.7080078 0.6888843 82 82 82
-0.0282567185796448 -0.128334531613101 0.0155078436107259 -0.2317584 -0.7353866 0.6367846 62 62 62
-0.0260092062390992 -0.128083178826083 0.0178955758781056 -0.1450479 -0.748814 0.6467137 39 39 39
-0.0287249726690003 -0.12463010294031 0.0180983806819539 -0.1839487 -0.7454671 0.6406572 121 121 121
-0.0253536743558594 -0.12557221395563 0.0191893840999227 -0.03282258 -0.7405473 0.6712022 80 80 80
-0.0194305223859498 -0.129648754425753 0.00370555770107317 0.106995 -0.8960717 -0.430822 132 132 132
-0.0113318604863831 -0.130076060124148 0.00593357932277727 -0.004422925 -0.944766 -0.3277159 146 146 146
-0.0193251413739869 -0.130227396317233 0.0124096239776235 0.1021923 -0.7947975 0.5982087 81 81 81
-0.0115407747663209 -0.13189465744089 0.0086180831164937 0.03154345 -0.9974725 0.06366792 181 181 181
-0.0117020649350831 -0.129619726963748 0.0113828147620778 0.2417832 -0.7463256 0.6201121 198 198 198
0.00058644586432488 -0.130123028584231 0.00374397289463091 -0.2084047 -0.9356036 -0.2849798 133 133 133
-0.00845045274865119 -0.130710372753848 0.0068153704375844 0.02656944 -0.9969805 -0.07296563 95 95 95
0.0101734953485778 -0.129813501663913 -0.00458911407283735 0.1263771 -0.9002525 -0.4166224 154 154 154
0.000711317595129324 -0.13082523090433 0.00702410590358782 -0.08268855 -0.9963827 -0.01960142 186 186 186
-0.0174137396253297 -0.127553114720095 0.0154143239230733 0.2256749 -0.7364821 0.6377029 104 104 104
-0.0156846684850404 -0.12743646843027 0.0152404273719411 0.2798059 -0.6990029 0.6581061 128 128 128
-0.0132263941205689 -0.127068826981295 0.0146549309463124 0.302979 -0.6603597 0.6871163 176 176 176
0.168962951239233 -0.0794345830161465 -0.0440890525608439 0.9278739 -0.2095296 -0.3084596 69 69 69
-0.0177682680524537 -0.125095674820651 0.0190804566115956 0.231179 -0.7538586 0.6150232 131 131 131
-0.0181335253156373 -0.121899673767794 0.0220367575854878 0.1252001 -0.6356394 0.7617661 136 136 136
-0.0139989895261475 -0.123089322872866 0.0191531742782216 0.3713639 -0.7534432 0.5425976 109 109 109
-0.00863773054253547 -0.126910278626193 0.0120883847446065 0.1321884 -0.7075604 0.694179 88 88 88
-0.00821632570397346 -0.12480933410715 0.0145570899219136 -0.01002448 -0.7545449 0.6561719 190 190 190
0.0024593430124572 -0.129672775097598 0.0133869911403279 0.02393886 -0.6545982 0.7555978 220 220 220
0.00235235267508538 -0.125250050850619 0.0154609347552876 0.08622558 -0.6217171 0.7784812 204 204 204
-0.00484502739083259 -0.125671217270602 0.0173073972434621 -0.1174687 -0.662964 0.739378 112 112 112
0.000389810141210867 -0.121563443966616 0.0191001857490163 -0.009674993 -0.6435186 0.7653693 238 238 238
0.00637691789496453 -0.131236264534701 0.00133517038532305 0.01300186 -0.9956021 -0.09277586 143 143 143
0.0782428341471008 -0.0540864561278713 0.0433602894515615 -0.2364583 -0.1576036 0.9587745 223 223 223
0.0122126298509887 -0.130553850956668 0.00552594315715838 0.1017571 -0.9946187 -0.01947462 125 125 125
0.00458806329596551 -0.131259510346164 0.00986861836620379 0.04546664 -0.9062756 0.4202349 198 198 198
0.164467866953497 -0.0599477980811489 -0.0059169863491435 0.968622 -0.2474132 -0.02362662 74 74 74
0.0143290715776733 -0.13043654901575 0.0071714187831502 0.07321134 -0.9968267 0.03125079 137 137 137
0.0200707870088866 -0.129902908631076 0.00577163350292254 0.0591242 -0.9616351 -0.2678847 120 120 120
0.0165609675012878 -0.130269477196444 0.00795596492000628 -0.00887017 -0.9982402 0.05863238 122 122 122
0.0164039092623046 -0.12970013362955 0.0115955735416036 0.003463387 -0.8139473 0.5809284 210 210 210
0.0225231605135253 -0.131199130841006 0.0100807512969594 0.002259244 -0.9666049 0.2562611 117 117 117
0.00845276885855706 -0.12602079851221 0.0135015810699086 0.02509795 -0.4720632 0.8812073 231 231 231
0.00633632713187249 -0.12381554586481 0.0155113006801229 0.143159 -0.5949224 0.7909316 227 227 227
-0.0696110171712586 0.10477297561575 0.0499141181678395 0.2429765 0.9691648 -0.04101285 155 155 155
0.00434988313544304 -0.121927866764773 0.0177133942813497 0.1846643 -0.6119524 0.769034 198 198 198
0.0161669211946777 -0.128603825398196 0.0122823084563832 -0.01258633 -0.5773209 0.8164203 229 229 229
-0.0176184219754884 -0.113438138790835 -0.0262342577009578 0.05606046 -0.8067386 -0.5882432 88 88 88
0.0205398159586242 -0.124049196072329 0.0156254435748677 -0.1443934 -0.5823727 0.7999953 209 209 209
0.025824184950476 -0.128603169747104 0.0122739042014699 0.07062995 -0.7134566 0.6971307 178 178 178
0.164678569372778 -0.105458149739016 -0.0207868551044841 0.9636754 0.1514408 0.2199895 81 81 81
0.0243960576616576 -0.125690469570864 0.0174394811362844 -0.05704094 -0.6384121 0.7675782 141 141 141
0.0242522316538146 -0.121641228028048 0.0177814329833608 -0.1189739 -0.5884176 0.7997561 176 176 176
0.0316771226488403 -0.128972539730777 0.00636750113674212 0.1579347 -0.8626863 -0.4804467 132 132 132
0.0341938691698364 -0.128367194958438 0.00591626417347002 0.1195844 -0.8256835 -0.5513132 117 117 117
0.0384363489710143 -0.130223581619967 0.00969245683857012 -0.0116198 -0.9661106 -0.2578669 189 189 189
0.0364062743746093 -0.131243178673495 0.0102403725356679 0.04610403 -0.9815207 -0.1857188 216 216 216
0.0444676833711913 -0.128712484665622 0.0074581767291646 0.004463113 -0.8542969 -0.5197662 118 118 118
0.0425822096430114 -0.13049233896326 0.0118385518760304 0.0286715 -0.986018 0.1641536 207 207 207
0.0419548111521056 -0.130996713467349 0.0113387371272664 0.01090841 -0.9987049 0.04969494 241 241 241
0.0500318365656188 -0.12889332515787 0.00707625996776629 -0.170448 -0.8121174 -0.5580438 92 92 92
0.0500786262117675 -0.130442271061648 0.0117359424800496 0.0211596 -0.965095 0.2610437 191 191 191
0.0293827610575011 -0.131525049038638 0.0132537151546102 -0.02994036 -0.8528147 0.5213546 212 212 212
0.0324730830751708 -0.128343174286593 0.0135099555224996 -0.01184768 -0.6272212 0.7787511 193 193 193
0.0305299120508483 -0.125691482849826 0.0153268839091878 -0.05582866 -0.620805 0.7819746 142 142 142
0.0760655360781005 -0.0580053423125637 0.0419098700255971 -0.06913688 -0.0009358975 0.9976068 182 182 182
-0.141553406182642 0.00964509504247779 0.0645560289592366 0.1135892 -0.4010838 0.9089715 108 108 108
0.0344162540994933 -0.127025911637057 0.0148728753299336 -0.05833854 -0.4913021 0.8690333 215 215 215
0.0325199323259643 -0.124961325951327 0.0168506766528707 0.07020175 -0.5689059 0.8194008 224 224 224
0.0341921406351379 -0.121873745747317 0.0175749922961812 0.02047327 -0.5003038 0.8656079 206 206 206
0.0442725377641967 -0.127819428272952 0.0140280688972096 -0.02614005 -0.633356 0.773419 197 197 197
0.0481963711344054 -0.12991381628107 0.0131899679870229 0.006362088 -0.7971686 0.6037233 198 198 198
0.0505644636713317 -0.125872442551364 0.0161227549285512 0.05831696 -0.5159992 0.8546016 180 180 180
0.0464170532785705 -0.12262792331766 0.0184767807693105 -0.01350917 -0.493556 0.8696091 182 182 182
0.159727032717352 -0.0918490980346096 0.00772285115428972 0.9811134 0.1572312 0.1126716 113 113 113
0.0539181786142638 -0.131197998352755 0.00870725166507769 -0.09392027 -0.9726778 -0.2123131 72 72 72
0.0546205001436523 -0.129500815697421 0.00629043233104754 -0.184965 -0.8286062 -0.5283936 61 61 61
0.0578606682382873 -0.131097862549533 0.00981333505817461 0.2059032 -0.9150573 0.3468055 193 193 193
0.0622339802347472 -0.128322551079501 0.00987496626087236 0.2628317 -0.7193609 0.6429925 148 148 148
0.170367653902655 -0.00551331979822045 -0.061921242359199 0.9868153 -0.02283667 -0.1602309 31 31 31
0.0669935303293517 -0.128347763844241 0.00817989957042742 0.0791637 -0.7741033 0.6280901 155 155 155
-0.127627376977319 -0.0938674305159939 0.0180880690784078 0.2864115 -0.4479095 0.8469626 166 166 166
0.0722884493433288 -0.127900669403781 0.00920483123966265 0.01033345 -0.6063474 0.7951327 206 206 206
-0.157676224175806 0.099816253356229 -0.00661328780940962 0.1204787 0.9817821 -0.146931 96 96 96
0.0565121727548888 -0.126311847992648 0.0143760706157308 0.2073513 -0.6484599 0.7324651 158 158 158
0.0523261981569579 -0.125466475315799 0.0168143476218801 0.07417497 -0.521375 0.8500977 225 225 225
0.0524900513254455 -0.123015532322635 0.0177653397292714 0.06143644 -0.5082048 0.8590422 218 218 218
0.0582258658968261 -0.122218856640567 0.0175631905765157 0.1992445 -0.4776327 0.8556685 204 204 204
-0.133609060708399 -0.00765872938226586 0.0562327767581563 0.1606291 -0.2508136 0.9546155 138 138 138
-0.0851157349981019 0.0353353525917637 0.0616951252193074 0.1389951 -0.2321111 0.962707 153 153 153
0.168635185297613 0.0479128267090427 -0.0621729229717631 0.9957539 -0.08397423 -0.03771649 103 103 103
-0.00329989618432014 -0.0178098176200283 0.0290806854934316 -0.4304615 -0.2210087 0.8751332 169 169 169
-0.140913490716333 -0.0635351632316006 0.0353438521594625 0.1677337 -0.2940467 0.940958 156 156 156
-0.112491731110925 -0.0160076711852444 0.0491265619964223 0.3422578 -0.4818915 0.8066227 157 157 157
-0.115558688107843 -0.133774349518527 -0.0343637650041957 0.402731 -0.8180698 -0.4105722 60 60 60
-0.116144005719537 -0.131542930432071 -0.0377208178072352 0.3071318 -0.7138513 -0.629354 97 97 97
-0.114973370496149 -0.127004096337069 -0.0387353931694407 0.2859474 -0.874695 -0.3913345 72 72 72
-0.170131210748071 0.00589846628118629 0.0621599222392659 -0.4530445 -0.2721546 0.8489302 135 135 135
-0.113437597218866 -0.129660138912906 -0.0306275074510951 0.754375 -0.5167326 0.4048529 57 57 57
-0.125414971772546 -0.022949585743655 0.0487053359717946 0.1097831 -0.626807 0.7714018 127 127 127
-0.107648138467188 -0.129540393181552 -0.0342870538263698 0.469496 -0.8827667 -0.0172203 75 75 75
-0.107715789739008 -0.12690187437128 -0.0359938477306743 0.265161 -0.9230957 -0.2785391 83 83 83
-0.101347808305139 -0.126407632656802 -0.0381586735277553 0.2229746 -0.8640118 -0.4514044 86 86 86
-0.0995373172200867 -0.126666376419772 -0.0305193548231502 0.04197477 -0.9989524 0.01822414 38 38 38
-0.0977424425519654 -0.126857886143435 -0.0351573859482188 0.09377296 -0.9486752 -0.30203 68 68 68
-0.0937156123555848 -0.126770803757418 -0.0317073498993297 0.003082735 -0.9996991 -0.02433595 33 33 33
-0.088120226327295 -0.125962326355685 -0.0345754359989543 0.2744111 -0.8718185 -0.4057475 67 67 67
-0.0892518205083558 -0.127344438858737 -0.0323149745493312 0.165899 -0.9584299 -0.2321413 62 62 62
-0.0876286072171876 -0.126703986950625 -0.0302377824812312 0.1646433 -0.9651731 -0.2033063 21 21 21
-0.0841636700071046 -0.125141808815707 -0.0341258083610911 0.2529578 -0.8663012 -0.4307372 52 52 52
-0.0841168207563111 -0.124216565914859 -0.0327800397901912 0.1927473 -0.8708186 -0.4522428 33 33 33
0.136139805849676 -0.0883796308715237 0.0241530204982381 0.02863568 -0.4731613 0.8805103 202 202 202
-0.115628902379388 -0.123340258427371 -0.0482802425651927 0.2050276 -0.7933909 -0.5731444 48 48 48
-0.111548606816644 -0.123614976235141 -0.0462887172727962 0.2454209 -0.7969144 -0.5519927 55 55 55
-0.115207497540826 -0.120205352135409 -0.0508041267424006 0.1668151 -0.8166543 -0.552493 38 38 38
-0.105550174180383 -0.121531972714175 -0.0475208495884318 0.06508227 -0.9194521 -0.3877785 63 63 63
0.00653302245963128 0.0819448735039341 0.0444675947398763 0.2273503 0.08556704 0.9700465 156 156 156
-0.103829447690363 -0.11195201618265 -0.0539536808758159 0.1420008 -0.3537626 -0.9244933 75 75 75
-0.111555282536859 -0.126426050492038 -0.0404363160162349 0.1980585 -0.8678721 -0.4555995 75 75 75
-0.107294384900446 -0.124379167385806 -0.0406557952194591 0.2006959 -0.7745827 -0.5997856 62 62 62
0.0596306281648925 0.0632235314171421 0.0572996998996358 -0.1872766 0.04936149 0.9810662 126 126 126
-0.106943194333429 -0.122070560284365 -0.0446040515928645 0.1737268 -0.8586184 -0.4822794 22 22 22
-0.100270871583337 -0.123214134999026 -0.0418284271984477 0.1446457 -0.8864946 -0.4395508 86 86 86
-0.0958226961530396 -0.123447367974032 -0.0404368822603602 0.07986557 -0.9070692 -0.4133364 45 45 45
-0.0962908906377503 -0.122409055062045 -0.0430660133390803 0.09215736 -0.9575426 -0.2731651 25 25 25
-0.0934659284986207 -0.122606108017672 -0.0405673270254512 0.1358512 -0.9098994 -0.3919535 38 38 38
-0.0934814853109071 -0.117774853535403 -0.0483475362091441 0.2521288 -0.5776426 -0.7763763 35 35 35
-0.0936219734586426 -0.124782154389132 -0.035958546879806 0.1154745 -0.8899757 -0.441145 39 39 39
-0.0950266761220643 -0.116419503517855 -0.0475958024292369 0.2239867 -0.580734 -0.7826736 36 36 36
-0.0902038854993531 -0.123613128491153 -0.0404444818525691 0.2386978 -0.8768672 -0.4172856 29 29 29
-0.0881905002034852 -0.119265088864077 -0.0456847285061259 0.2436244 -0.6420841 -0.7268943 50 50 50
-0.0876520318425843 -0.120780179329623 -0.0429944132595439 0.3011412 -0.8833459 -0.3591852 31 31 31
-0.0827121180928895 -0.118896016903628 -0.0428523455887218 0.275398 -0.7883381 -0.5501626 35 35 35
-0.167930488053674 -0.028646836109866 -0.0221426521568675 -0.9088062 -0.4172164 -0.001294429 108 108 108
-0.0881904405988404 -0.120791385002841 -0.0382233892708201 0.2989758 -0.8243556 -0.4806779 16 16 16
-0.091795865956659 -0.120784649677981 -0.0404883955746074 0.2820084 -0.9166418 -0.2832651 28 28 28
-0.0790365380681702 -0.11990256053995 -0.0397641842394252 0.2897341 -0.7286654 -0.620565 44 44 44
0.16800307803977 0.0856867338936436 0.00358056676097918 0.9052554 0.4247275 0.01091682 108 108 108
-0.0698732180036256 -0.123426387139071 -0.0325070654182811 0.1285127 -0.8396482 -0.5277076 21 21 21
-0.0749394936002442 -0.118642995186557 -0.0390388404159923 0.2892024 -0.6649024 -0.6886703 24 24 24
-0.0114564937986085 -0.0682398174483669 -0.0506791507034678 0.08650855 -0.68758 -0.7209369 10 10 10
-0.0736987037099549 -0.114565858669986 -0.0400605683355708 0.299997 -0.4371694 -0.8478707 39 39 39
-0.0876051825917908 -0.11674744827341 -0.0476519202022929 0.2842802 -0.519437 -0.805835 29 29 29
-0.0910466951764771 -0.107038030453433 -0.0502280478506465 0.2968644 -0.5328643 -0.7924186 30 30 30
-0.0859897775090882 -0.111345956154574 -0.0448221151857753 0.4443305 -0.3154553 -0.8384858 27 27 27
-0.0819161576665589 -0.104882130451907 -0.0467137728958507 0.7304341 -0.6818777 0.03884395 42 42 42
-0.0792940301335999 -0.106729874439944 -0.0503490750818629 0.5442665 -0.7495331 -0.3767946 71 71 71
-0.0334540647901246 0.10025112884451 0.0384932125777822 0.1793183 0.9621462 -0.205231 54 54 54
0.158614988859778 -0.0506020281989468 0.0296730364532094 0.9871665 -0.1520572 0.04879506 80 80 80
0.0062052565180114 0.0931007172386753 -0.0516117100744624 0.2410023 0.955645 -0.1692945 83 83 83
0.0104349213205627 -0.0995944235999477 0.028108384725533 0.1356152 -0.4407614 0.8873206 155 155 155
0.160675163801794 -0.112107822724093 0.00767176997371721 0.76229 -0.2168372 0.6098325 213 213 213
0.0171619015299133 -0.0769419167716396 -0.0405505781202693 0.1778633 -0.6159797 -0.7674201 41 41 41
0.11853426271308 0.0262611414711582 0.0677780474395375 -0.0980515 -0.2873193 0.952803 126 126 126
0.157959456976538 -0.0562251303870571 0.033994820234261 0.6145608 -0.5330196 0.5815541 162 162 162
-0.0659494442380616 -0.118110248871554 -0.0358865742712398 0.3248199 -0.5748467 -0.7510282 25 25 25
-0.0633585495389649 -0.113330850430239 -0.0387066339283366 0.353253 -0.4295605 -0.8310777 55 55 55
-0.0688056392110535 -0.105496415920962 -0.0432425771980662 0.325908 -0.5177356 -0.7910334 2 2 2
0.162782247599249 -0.116142043896426 -0.00683626878551435 0.945868 -0.2921154 0.1414299 82 82 82
-0.0456906003392884 0.0999118592064487 0.0556985999316792 0.07734901 0.4763556 0.8758439 174 174 174
0.100320036944037 -0.113100597687472 -0.0347276513605494 -0.1977951 -0.7345725 -0.6490611 62 62 62
0.10214614444602 0.0835364367287266 -0.0628198419838328 -0.04336632 0.9196262 -0.3903935 34 34 34
-0.153438691560144 -0.05309964162897 0.0395968819827657 0.06478465 -0.3267907 0.9428737 140 140 140
0.10668795877326 -0.105747232266177 0.0215594137878041 0.05792447 -0.4041975 0.9128358 195 195 195
0.0805137711130431 0.0636327769081699 0.0622897411555867 -0.1974056 0.2395192 0.9506112 127 127 127
-0.140129153195734 -0.0242465828139675 0.0493606890411 -0.1010171 -0.4025994 0.9097853 193 193 193
-0.101254169408197 -0.0956511591155422 -0.0573901717691798 0.1558879 -0.3876253 -0.9085404 41 41 41
0.100382443007117 -0.121498892136325 0.0115836228103261 0.1627686 -0.6167853 0.7701183 186 186 186
-0.0746117276586243 -0.102195391484011 -0.0518457030086894 0.5197046 -0.7636839 -0.3830065 35 35 35
-0.0765314740575501 -0.103126594849337 -0.0492175554066081 0.7333263 -0.6591762 0.1664908 33 33 33
-0.0735347909368226 -0.101177224941958 -0.0501623337297816 0.6103057 -0.7680274 -0.1940638 19 19 19
-0.0718023223317811 -0.0950734112937344 -0.054380092504539 0.5596141 -0.600935 -0.5707093 0 0 0
-0.176592771474237 0.0762582327644932 -0.0162110065250773 -0.9341942 -0.3324824 -0.1293701 59 59 59
0.0134628372751525 0.0360132362167942 0.0438847805232625 -0.4051963 0.2339948 0.8837774 171 171 171
-0.170412127438898 -0.00928408844064599 0.0330357516975026 -0.9930807 0.05048349 -0.106029 83 83 83
0.171756740149145 -0.00985384924005395 -0.0467700396805186 0.9199845 0.1619168 -0.3569475 92 92 92
0.154775496061926 0.0903069283287632 0.0782701040477376 -0.2536185 0.4753422 0.8424532 182 182 182
0.0312088685594848 -0.00518072588037377 0.051650043842278 -0.3094624 -0.3708333 0.875623 221 221 221
0.0637510376535705 0.0190493370812046 0.0614263082713704 -0.1617823 -0.13169 0.9780001 103 103 103
0.132234747942572 -0.11642105323862 -0.0344691460161586 0.1439778 -0.8399916 -0.5231487 93 93 93
0.146597023543005 -0.116047749348391 -0.0305606012373347 -0.006538328 -0.7880751 -0.6155444 71 71 71
-0.0138819260038087 0.0425187255661594 0.0455766285628896 0.2415838 -0.2428898 0.9394901 185 185 185
-0.127756123010034 0.0109950806419956 0.0649743045539479 0.06379198 -0.3708238 0.9265097 158 158 158
-0.0161294383443543 0.0955827738564121 0.000764008876762867 -0.02530145 0.9996614 -0.006068454 81 81 81
0.112158473070746 -0.126237759419192 -0.0183169876366038 -0.2673889 -0.9621961 -0.05178811 119 119 119
-0.085264031354303 -0.0744654629905117 0.0157046581477742 -0.0361706 0.04474917 0.9983432 192 192 192
-0.172050957146997 0.070380857161771 -0.0221087073116679 -0.9792047 -0.05514851 -0.1952352 85 85 85
0.160722013052588 -0.10653323871683 0.00960477840610552 0.8521651 -0.1533998 0.5002831 115 115 115
-0.0682905954755494 -0.0966078136641872 -0.050063658240356 0.6433153 -0.5629371 -0.5188904 6 6 6
-0.131068889562006 0.0285153295319187 0.0704693461627584 0.03157365 -0.09558849 0.9949201 140 140 140
0.0522793489061645 -0.112576434441317 0.0257401729793172 0.04193681 -0.5440251 0.8380203 130 130 130
-0.113269035283441 -0.0536337588508022 0.0312751497001271 0.3434901 -0.2520972 0.9046887 109 109 109
0.171116824682837 0.0428478028099644 -0.0147473846702952 0.9740078 -0.04042512 -0.2228777 100 100 100
0.162126715716009 -0.0389462207038296 0.0120751525134664 0.6865177 -0.1396622 -0.713574 82 82 82
-0.0410394114888856 -0.124941537209262 -0.0114794110088725 0.2323019 -0.803808 -0.5476573 202 202 202
0.158006306227331 -0.0703200791556728 0.000430938121757984 0.5335358 -0.820878 0.2037128 86 86 86
-0.0473020715154359 -0.0500912163932217 0.0179559851855855 0.1779543 0.06200383 0.9820834 170 170 170
0.0600051837526611 -0.104274639912356 0.0278303290576558 0.3811137 -0.1210196 0.9165733 212 212 212
0.166715438898688 0.0391346718590366 0.0685478414268117 0.6025456 0.09464966 0.792452 228 228 228
-0.115956668321008 -0.135220596619357 -0.0215280984669108 0.5140731 -0.6889903 -0.5109023 61 61 61
-0.11558211273324 -0.132265517540683 -0.0218233202724833 0.3043081 -0.8328835 -0.4622788 73 73 73
-0.116026942197199 -0.139985809155215 -0.0146513019829173 0.5064067 -0.697257 -0.5073311 105 105 105
0.164458509024268 -0.109622368641604 -0.0160385404854197 0.9738677 0.2133701 0.0778132 74 74 74
-0.111204091969843 -0.134079227276553 -0.0161728893547435 0.4225191 -0.7909133 -0.4426439 119 119 119
-0.10536528057229 -0.133551070519198 -0.0145829056530375 0.1849621 -0.8795427 -0.438399 64 64 64
-0.113334600392694 -0.132298717327823 -0.017802510145225 0.4456161 -0.7931589 -0.4151208 54 54 54
-0.109869663182611 -0.130126068421115 -0.0199507807522197 0.2515202 -0.9029974 -0.3483292 42 42 42
-0.109583501283045 -0.129763612576236 -0.0262162570982356 0.4399074 -0.8656492 -0.2390248 79 79 79
-0.064029638234491 0.0986989046852695 0.0193463231296163 -0.003189632 0.980344 -0.1972701 116 116 116
-0.169335190717096 -0.0158725474555386 -0.0467820053129573 -0.9574367 0.07851078 0.2777609 27 27 27
-0.0938280267156312 -0.131268629856814 -0.0157597993641276 0.009685881 -0.8913035 -0.4533038 43 43 43
-0.111403111878748 -0.128115544148196 -0.0286694948702235 0.4232054 -0.9041365 -0.05860325 63 63 63
-0.105327789250726 -0.129291901417483 -0.022180665019073 0.1302683 -0.8983305 -0.4195622 43 43 43
-0.104227427903528 -0.126816937752475 -0.0264050250082393 0.09546299 -0.9765877 -0.1927779 27 27 27
-0.14126468128335 0.0243285204689609 0.0683095718593221 0.04042299 -0.1230444 0.9915776 157 157 157
-0.163084332410211 -0.0578864310462368 0.0193515087337117 -0.9884517 0.03777291 -0.146753 143 143 143
-0.0981638473905274 -0.12717510206293 -0.0280322318106074 0.03572969 -0.9967112 -0.07273335 42 42 42
0.171819146212225 0.0282754804413425 0.00321355116077471 0.9287972 0.2267536 -0.2931187 134 134 134
-0.0973678273595521 -0.128873596020449 -0.0192617808609385 0.05310028 -0.9047233 -0.4226772 30 30 30
-0.11545330709588 -0.136193523236026 -0.00773176896861982 -0.06249901 -0.6727729 0.7372045 192 192 192
-0.115008477631921 -0.131756076641787 -0.00439522016338301 -0.177161 -0.4716063 0.8638296 182 182 182
-0.112042252484674 -0.130084166355838 -0.00384462225727034 -0.2657761 -0.4437006 0.855858 120 120 120
-0.113966707650537 -0.130187759228457 -0.00397968638233137 -0.2368981 -0.4461848 0.863017 118 118 118
0.0180879192911437 -0.128282735176791 0.000257190582237721 0.2489986 -0.9203666 -0.3015377 93 93 93
-0.105608765546198 -0.131434986420382 -0.0021771525173564 0.07242423 -0.2928345 0.9534163 128 128 128
0.0757768111788085 -0.0616719816405666 0.0419314469070058 0.002042483 -0.05895015 0.9982588 178 178 178
-0.0975083155072877 -0.134359726734866 -0.0101830397873302 0.03950592 -0.896885 -0.4404958 80 80 80
0.0744735556207946 -0.125998625584353 0.00181284200855303 0.2623717 -0.8306231 -0.4911479 83 83 83
-0.0972741884626099 -0.13556338293146 -0.00771251666835737 0.089458 -0.9545031 -0.2844664 23 23 23
-0.103428844872827 -0.127961287327517 -0.00218046057514143 0.05394831 -0.3279594 0.9431502 190 190 190
-0.0957289976514527 -0.132315764256228 -0.00217974531940412 -0.1261543 -0.403523 0.9062308 173 173 173
-0.0960099739469239 -0.130302796192874 -0.00337601054004621 -0.1425501 -0.3579454 0.9227971 145 145 145
-0.0917584342397401 -0.131807992287387 -0.0144523118763347 -0.01500539 -0.8654442 -0.5007806 32 32 32
-0.0855777305997559 -0.129714021511782 -0.0202492510109324 -0.164196 -0.9225892 -0.3490973 32 32 32
-0.0819083494580933 -0.131474265881289 -0.0164130066662211 -0.09485303 -0.879325 -0.4666803 42 42 42
0.170976336535101 0.0253190304558384 -0.0183128153114696 0.9465868 0.2132911 -0.2418269 119 119 119
-0.0413671774305054 -0.0385012720305813 0.0177448357314687 0.09390485 -0.2412102 0.965919 156 156 156
-0.0575680179036805 0.103740623168241 0.048626419422112 -0.1101108 0.9926158 0.05088814 138 138 138
-0.0696250838674256 -0.131074855156649 -0.0182548199921031 -0.009936784 -0.8760796 -0.4820641 4 4 4
-0.0701634926236817 -0.131519565411319 -0.0161449943809886 0.03407467 -0.8696361 -0.492516 24 24 24
-0.0710063023008057 -0.130891153641452 -0.0165554915695567 0.01848946 -0.8578178 -0.5136213 6 6 6
-0.0875724000371644 -0.127382287808169 -0.0263102685242076 0.00889286 -0.9787166 -0.2050236 44 44 44
0.0828181462847045 -0.121627101727237 -0.0104569827347178 -0.1142577 -0.9899276 0.08359777 145 145 145
-0.0815416020787904 -0.12795532686304 -0.0244076137571712 0.01472116 -0.8961111 -0.4435857 22 22 22
-0.0857673925794312 -0.12713802797388 -0.0268284713058848 0.0574196 -0.9600744 -0.2737885 45 45 45
-0.0835022968686768 -0.126139888592471 -0.0282832716732402 0.1408832 -0.9357916 -0.3231812 24 24 24
-0.0913510364927003 -0.128096828289737 -0.0223137621908565 -0.02259741 -0.955339 -0.294647 17 17 17
-0.0876598400510499 -0.128700802155246 -0.0207596455841441 -0.1240055 -0.9324777 -0.3392757 22 22 22
-0.0788258356488892 -0.127279350586642 -0.0261605118542094 0.02741939 -0.8998706 -0.4352944 41 41 41
-0.0734567684568116 -0.128601262398471 -0.0229875927000422 -0.02636584 -0.9067738 -0.4207923 27 27 27
-0.0758876842893311 -0.125315615959872 -0.0301037465362926 0.03082207 -0.908036 -0.4177566 20 20 20
-0.0710063023008057 -0.127030381985415 -0.0278720890312572 0.007509226 -0.8723312 -0.4888578 51 51 51
0.160956140097266 -0.0625861976821316 0.0266756976813893 0.8685985 -0.4864266 0.09447659 61 61 61
-0.0689227027333924 -0.128515848942508 -0.0224259232311625 0.05763586 -0.9202772 -0.3869986 30 30 30
-0.0864580315984437 -0.135872611828555 -0.00920600045017195 -0.2116075 -0.8705668 -0.4442248 47 47 47
-0.0817522448934266 -0.136885711975802 -0.00933096158794355 -0.2115249 -0.8695825 -0.4461878 28 28 28
-0.0921704215444276 -0.131940433808078 -0.00341567743114424 -0.1316569 -0.4116292 0.9017915 203 203 203
-0.0864111823476502 -0.133281001873721 -0.00179350722125959 -0.2640449 -0.5085919 0.8195209 193 193 193
-0.173221532765741 0.00513826864172096 0.0225895608634572 -0.9785722 0.01285559 -0.2055023 127 127 127
-0.115760032597894 -0.126387605496157 -0.00205538022808027 -0.02862296 -0.5329883 0.8456383 102 102 102
-0.112210814420099 -0.126652190514315 -0.0015445088177104 -0.1135319 -0.4625174 0.8793112 134 134 134
-0.116658989850397 -0.125403055973758 -0.000719044092216015 0.04528697 -0.5568212 0.8293969 182 182 182
-0.111368004742975 -0.123277971573581 0.00141289484211016 -0.05490329 -0.4636355 0.8843234 170 170 170
0.113336856897955 0.092746784857999 0.00923779260822344 0.2107198 0.9399487 -0.2685026 111 111 111
-0.113428239289636 -0.118698487110843 0.00236725461193132 -0.03959259 -0.4353028 0.899413 94 94 94
-0.107659642163629 -0.117835173435916 0.00307255637355852 0.02163082 -0.4217544 0.9064521 131 131 131
-0.0958460611737916 -0.125743160076846 -0.00160280216030073 -0.2387294 -0.3253173 0.9149737 192 192 192
-0.0992032927907655 -0.121838102169741 3.54301639604593E-06 0.04956996 -0.3799289 0.9236866 157 157 157
-0.0947925490773865 -0.122137734719027 0.000765797016106129 -0.3518725 -0.3322853 0.8750841 150 150 150
-0.103806023064966 -0.120195517369021 0.00191127907939959 0.1231574 -0.4501498 0.8844193 134 134 134
-0.0941838664449403 -0.119575569458712 0.000442292806587696 -0.2923541 -0.2552395 0.9216192 149 149 149
0.166247184809332 -0.00181407672952538 0.0522698129386525 -0.1019822 -0.2154033 0.9711854 181 181 181
-0.093060080472345 -0.118036041088809 0.00619071376033831 -0.6141974 -0.4144361 0.6715685 169 169 169
-0.11183625883233 -0.113349149056186 0.00519981634326983 -0.01250868 -0.3788725 0.9253643 162 162 162
-0.110337857667322 -0.113800058193911 0.00507881891437578 -0.002147017 -0.3921262 0.9199089 140 140 140
-0.113578025761957 -0.106153139897097 0.0080610181064229 -0.06321877 -0.3983427 0.9150555 195 195 195
-0.107762579385156 -0.105051467247714 0.00867411148258257 0.02581264 -0.4132081 0.9102708 158 158 158
-0.101478938523645 -0.110100159474124 0.00573557269283342 0.1431501 -0.3491409 0.9260716 175 175 175
0.137731786306982 -0.0190021489341152 0.0591709281177144 -0.01063 -0.5917588 0.806045 56 56 56
-0.0936453980840394 -0.109664687939395 0.00488546144672442 -0.1783806 -0.3075387 0.9346659 180 180 180
-0.103392426434869 -0.103972563572635 0.00845658433147478 0.1172748 -0.4258559 0.8971585 145 145 145
-0.101993982259149 -0.102108785935153 0.00968521487422991 0.1091307 -0.4700118 0.8758878 91 91 91
-0.0957914633191773 -0.102006921597232 0.00888442647167254 0.02164403 -0.4861237 0.8736219 163 163 163
0.170929487284308 0.0169760491173374 0.025992986080132 0.2359144 0.5795705 -0.7800272 152 152 152
-0.0904379529393861 -0.124598691292514 0.00221624624439287 -0.3136224 -0.4004027 0.8609987 168 168 168
-0.0819161576665589 -0.129085192509402 0.00223204147525835 -0.4143326 -0.4996499 0.7607092 209 209 209
-0.0924513978398988 -0.124777982063998 2.97677227067972E-06 -0.3037911 -0.3086983 0.9013414 154 154 154
-0.0879797381795594 -0.11831165296625 0.00413977753826189 -0.3920588 -0.3325125 0.8577443 203 203 203
-0.0818225187696168 -0.1211683247764 0.00683772217937517 -0.5957912 -0.3240128 0.73488 246 246 246
0.132487590845709 -0.124942371674289 -0.0190701221256633 0.1684004 -0.9277486 -0.3330523 68 68 68
-0.0773040694631287 -0.126015910931338 0.00816210758396196 -0.4053351 -0.5855479 0.7020236 133 133 133
-0.0218887371457764 0.0720021034996616 0.0495827461452107 0.1847121 0.1392465 0.9728782 156 156 156
-0.0813308400548646 -0.115272590943087 0.00949474823185015 -0.5398609 -0.2890505 0.7905694 196 196 196
-0.0736284298337647 -0.124503264256228 0.0112069214553456 -0.2654173 -0.4929525 0.828584 71 71 71
-0.070116702977533 -0.122146973438968 0.0124180282325368 -0.1623966 -0.4836364 0.8600716 80 80 80
-0.0806519431508729 -0.117916176148166 0.00886842262455034 -0.5689333 -0.3344529 0.751303 252 252 252
-0.0694143218434998 -0.118255386181582 0.015575345870934 -0.1516756 -0.5819333 0.7989669 48 48 48
-0.0798325580991456 -0.112388083763827 0.012110945102654 -0.5687736 -0.2594528 0.7805004 234 234 234
-0.0928259534276673 -0.114252278633822 0.00716596495815325 -0.3883771 -0.07888021 0.9181183 183 183 183
-0.0658557457364747 0.103137901000272 0.0383623505801778 0.1260481 0.9906645 0.05192066 107 107 107
-0.0816820306218812 -0.107702920265902 0.0116863216132741 -0.6329137 -0.2743442 0.7239859 167 167 167
