ply
format ascii 1.0
comment File exported by Rhinoceros Version 7.0
element vertex 471
property float x
property float y
property float z
property float nx
property float ny
property float nz
property uchar red
property uchar green
property uchar blue
end_header
0.00651666287278474 -0.0165638325865167 0.0142351079952122 0.01851051 -0.02516402 0.999512 238 238 238
0.00652916707061957 -0.0149367304587396 0.0140625310329439 0.01248473 -0.05048963 0.9986466 240 240 240
0.0127536306903789 -0.0184397021159624 0.0141396360991183 0.02796059 -0.1137674 0.9931139 191 191 191
0.00950845543814682 -0.0142963001093748 0.014527741098056 0.00128736 -0.07758313 0.9969851 180 180 180
0.00460321922722384 -0.0105245893216184 0.0149960799514603 0.07666479 -0.161003 0.9839718 228 228 228
0.00595701593696152 -0.010867364580142 0.0146814223290447 0.04590001 -0.1384511 0.989305 221 221 221
0.0101817495509773 -0.0115927535029035 0.0148904066568355 -0.0238851 -0.1231985 0.9920946 233 233 233
0.0107313460817978 -0.0114330605421322 0.014942069154046 -0.02149767 -0.1207397 0.9924514 248 248 248
0.00287528807653392 -0.00897314832165397 0.0153124968268727 0.1045101 -0.1854344 0.9770833 217 217 217
0.000706653215671094 -0.00556923716605029 0.0171579795080831 0.06548984 -0.1040609 0.9924124 198 198 198
0.00487189824359413 -0.00498480259972522 0.0159081586563462 0.09113911 -0.118043 0.9888172 196 196 196
0.00823928311729882 -0.00855206349738458 0.0153984127383466 -0.004118034 -0.1376696 0.9904696 227 227 227
0.00722411200486095 -0.00735771063654678 0.0156412538789841 0.06201253 -0.136944 0.9886358 236 236 236
-0.0332510734201854 -0.00988310326130715 0.00624185353111548 -0.395658 -0.149883 0.9060849 156 156 156
-0.0291322003176978 -0.008717608665751 0.00803155019694887 -0.3683193 -0.09279773 0.9250565 122 122 122
-0.0296511536469491 -0.00725155102692399 0.00814080040308948 -0.3200631 -0.126248 0.9389468 109 109 109
-0.0337785153801966 -0.00758586762858537 0.00679801628129753 -0.399823 -0.1004417 0.9110725 167 167 167
-0.0323413354787949 -0.00756060854920504 0.0078172670110582 -0.3700205 -0.1078315 0.9227444 77 77 77
-0.0330654811042299 -0.0057067204156489 0.00726978475067294 -0.410352 -0.05821326 0.9100673 137 137 137
-0.0319871425901257 -0.00529579195414764 0.00802393667861914 -0.4041636 -0.07199724 0.9118488 78 78 78
-0.0297639124180684 -0.0031207442571306 0.00904948101036154 -0.3800523 -0.08370594 0.9211697 83 83 83
-0.0250741651093023 -0.00950950959621744 0.010055172600502 -0.5059963 0.08590102 0.8582475 78 78 78
-0.02823199703848 -0.00656159055661454 0.00850011417647487 -0.3408706 -0.1099088 0.9336634 117 117 117
-0.0238360827526009 -0.0090757921890765 0.0106479493838184 -0.4905282 0.08710963 0.8670605 96 96 96
-0.0275857729703575 -0.00260053493267765 0.00932330196641865 -0.3333668 -0.09216877 0.9382812 90 90 90
-0.0255426350050544 -0.00427266130091875 0.00966977987326181 -0.3393337 -0.09895774 0.9354464 105 105 105
-0.0332646577037599 -0.00297793755066134 0.00741096083311157 -0.5057231 0.07343152 0.859565 116 116 116
-0.0315384400558795 -0.000923638027440221 0.00822073488903804 -0.4973633 0.08411368 0.8634551 101 101 101
-0.0335561573765589 -0.000774888288450626 0.00659781149116964 -0.5687686 0.1334104 0.8116058 95 95 95
-0.0304844653957124 -0.00307629115469976 0.00861167055197251 -0.3889542 -0.05425064 0.9196584 84 84 84
-0.0343562078093537 -0.00179053760828274 0.00572781343238013 -0.5650635 0.1277952 0.8150899 116 116 116
-0.0263090417145286 -0.0027788526696011 0.00948286404262919 -0.3214946 -0.108529 0.9406714 91 91 91
-0.0235456996031612 -0.00379796188824821 0.0108371557066067 -0.3911538 -0.0179836 0.9201496 89 89 89
-0.023245643080316 -0.00287464437057827 0.010797070277807 -0.3554628 -0.08225503 0.9310641 89 89 89
-0.0292279034704438 -0.00161667620568862 0.00960498068830565 -0.3872723 -0.04656823 0.9207886 104 104 104
-0.0320717659079934 0.000836336212151734 0.00744694557471556 -0.5444206 0.1162522 0.8307176 66 66 66
-0.033762977514129 0.00253780711078955 0.0056889861981245 -0.6032032 0.1727489 0.7786551 84 84 84
-0.0307177504179547 0.00131504013508699 0.00843795685507145 -0.5159475 0.1165285 0.8486574 78 78 78
-0.0291996754763072 0.00103116384026714 0.00914504144554149 -0.4784151 0.06513914 0.8757145 47 47 47
-0.0273247307417612 -0.00150799649938582 0.00972514729922988 -0.3351148 -0.08192482 0.9386088 54 54 54
-0.0276470719723017 -0.000955931023208123 0.0102268718459288 -0.3640907 -0.07818747 0.9280758 66 66 66
-0.0251958086368981 0.00136503337437532 0.011151043780132 -0.3675976 -0.02803655 0.9295622 80 80 80
-0.0275949774143839 0.00166602824110917 0.00995963218128679 -0.4575453 0.06231508 0.8870001 53 53 53
-0.0237626458171885 0.00211152586345253 0.0112943393071828 -0.3792443 -0.06596102 0.9229425 93 93 93
-0.0263095859413964 0.00537568779487851 0.0100464967441634 -0.5036671 0.1528349 0.8502711 55 55 55
-0.0244257496929401 0.00296559234479532 0.0111240036451898 -0.4367155 0.01370019 0.8994954 61 61 61
-0.0213169213351584 -0.00520605234529148 0.0117378173857247 -0.3848799 0.06494004 0.9206793 96 96 96
-0.0202353588608001 -0.00439360888910345 0.0119844517696648 -0.3644041 0.05505494 0.9296121 119 119 119
-0.017925340962988 -0.00642127208352838 0.0131553208571141 -0.375663 0.08305071 0.9230276 118 118 118
-0.0178660279448551 -0.00501028272437942 0.012887805052967 -0.3788031 0.08104343 0.921922 91 91 91
-0.0215805408999926 -0.0021621443534352 0.0115237298633219 -0.3596587 -0.0599287 0.9311575 95 95 95
-0.0194468460245031 -0.00297250375286073 0.0124783896565569 -0.3601548 0.02103637 0.9326553 94 94 94
-0.0175823317305301 -0.00252949435211214 0.01298762430388 -0.4033474 -0.009085035 0.9150018 104 104 104
-0.0186509964033469 -0.000202712907943159 0.0130021429735655 -0.344892 -0.08691257 0.9346099 102 102 102
-0.0114645149137595 -0.00345783363536278 0.0160618132619846 -0.2458117 -0.03993792 0.9684945 204 204 204
-0.0125251716170487 -0.00253832696685063 0.0159950262189834 -0.2959064 -0.004596373 0.9552059 239 239 239
-0.0122563363180268 -0.00167668118740449 0.0156848864752989 -0.2866364 0.006346306 0.9580184 207 207 207
-0.0162037428406548 -0.00258744800794308 0.0135513993991382 -0.417679 0.0005596353 0.9085945 84 84 84
-0.0213832068915992 0.00155490102535349 0.0119358508874944 -0.351272 -0.09410863 0.9315318 100 100 100
-0.0176307869432136 0.000741926704480589 0.0133978746201764 -0.3649459 -0.07249023 0.9282024 108 108 108
-0.0318698044247986 0.00495593473511402 0.00675987604285702 -0.5737056 0.198979 0.7945246 95 95 95
-0.0330890182385093 0.00823762502230418 0.00495168269118282 -0.5874038 0.2195144 0.7789545 68 68 68
-0.0303224614138818 0.00693686157685169 0.0066933324070392 -0.5591811 0.2248061 0.7979842 74 74 74
-0.031408517663827 0.00909577714112553 0.00593251034286099 -0.5792153 0.2102512 0.7875938 90 90 90
-0.0317327055993722 0.0100756727565634 0.00506307220983646 -0.5787085 0.2141206 0.7869236 75 75 75
-0.0333319354291156 0.00998228422105774 0.00414168858679484 -0.5827497 0.2179772 0.7828721 65 65 65
-0.0339104650718662 0.013756759718708 0.00270804160955926 -0.598709 0.2216954 0.7696744 117 117 117
-0.0111520376363807 -0.00194459650449397 0.0161778639831648 -0.2274674 -0.0006604873 0.9737855 234 234 234
0.000211686359011254 -0.00356133745540754 0.0168102898246974 0.05185843 -0.05689038 0.9970327 228 228 228
0.00877364095520639 -0.0018118949211765 0.0157135310420679 0.07862494 -0.06225181 0.9949587 198 198 198
0.0113352408226043 -0.00455361019088762 0.0156411639380623 0.04711867 -0.06995138 0.996437 229 229 229
0.0116307702308613 -0.00408358589032587 0.0156869549784443 0.05559037 -0.0507352 0.9971638 222 222 222
-0.0243361307928608 0.00596046941560036 0.0112452564469042 -0.4945025 0.1144955 0.861602 57 57 57
-0.017471793180902 0.00259928436495271 0.0138666577962245 -0.336065 -0.08017121 0.9384204 108 108 108
-0.0220844217615979 0.00361152265183495 0.0126511412550571 -0.3812334 -0.008969336 0.9244353 81 81 81
-0.0192749634799224 0.00514919073309184 0.0140566974701223 -0.3538371 -0.02440556 0.9349886 92 92 92
-0.0170901517894451 0.00530828782674053 0.013936875130148 -0.2779198 -0.03418044 0.959996 101 101 101
-0.0202075266405999 0.00748033536143033 0.0137221091680164 -0.4126693 0.02383228 0.9105691 115 115 115
-0.0161811870624878 0.00160805786758167 0.0139881578870999 -0.3415959 -0.05496167 0.9382385 105 105 105
-0.0160092143540614 0.00370235587837264 0.0142380688114077 -0.2910889 -0.04072847 0.9558287 106 106 106
-0.0159500232311167 0.00731101284879143 0.0143579655786869 -0.2359366 -0.02397929 0.9714726 112 112 112
-0.0157056635076676 0.0096286870246205 0.0148749733332816 -0.2357851 0.01546252 0.9716822 121 121 121
-0.0117672009590799 0.00832826598247705 0.015291112575113 -0.1870262 0.01002468 0.9823038 67 67 67
-0.0254686059435264 0.0074386692746693 0.0100958219289086 -0.5315683 0.1367482 0.8359037 56 56 56
-0.0275742425376178 0.00893155663851419 0.00875012978664527 -0.5480983 0.1746561 0.8179752 58 58 58
-0.0254605181131486 0.00911417227272637 0.010024718663996 -0.554485 0.151761 0.8182389 96 96 96
-0.0276273876522932 0.0097895306929916 0.00821198363909934 -0.5580981 0.1774307 0.8105831 65 65 65
-0.0244999266244705 0.00969485115662772 0.0102460111785986 -0.5448847 0.1535821 0.8243259 66 66 66
-0.0248291917923233 0.0110687915953755 0.0102371387476935 -0.5440906 0.1439556 0.8265847 63 63 63
-0.0236037475041356 0.0116926990159887 0.0108148279711968 -0.5448881 0.1515452 0.8247006 70 70 70
-0.0293096545434095 0.0137373529908043 0.00629979886710261 -0.6019432 0.1648151 0.7813452 149 149 149
-0.029298722786783 0.0143785321400063 0.00615741029795849 -0.6082776 0.176624 0.7738231 146 146 146
-0.028789479144312 0.0116365364487845 0.00709293529705632 -0.5903734 0.160455 0.7910205 62 62 62
-0.0268730190613475 0.0138836185369757 0.00797696895073732 -0.5764202 0.1575086 0.8018296 47 47 47
-0.0239308432285753 0.0142202541806054 0.0102012049519457 -0.5226421 0.1673477 0.8359665 136 136 136
-0.0240740741927856 0.0145705434264924 0.00930024037372759 -0.5288722 0.1662435 0.8322604 126 126 126
-0.0266108718964954 0.0160497892968283 0.00794158541851267 -0.5832235 0.1767435 0.7928506 92 92 92
-0.0264839963536656 0.01756547881211 0.00750798049377296 -0.5799217 0.2089582 0.7874181 93 93 93
-0.0251004124600861 0.0170271359011194 0.00863940041806624 -0.5577692 0.1928793 0.8072739 103 103 103
-0.0242267889425539 0.0170643840142588 0.00924566879646369 -0.5296055 0.2021616 0.8238014 98 98 98
-0.0228452862170564 0.00973926964933924 0.0111931584627667 -0.5206411 0.139046 0.842377 77 77 77
-0.0177405867572287 0.00959181978429591 0.0144214880506628 -0.3369222 0.03726416 0.9407948 116 116 116
-0.0221651862794225 0.0113796815243894 0.0116737893095084 -0.5168333 0.1583346 0.8413165 44 44 44
-0.0218786443928003 0.013219385419442 0.0115122797995561 -0.5105533 0.1646471 0.8439353 67 67 67
-0.019390368391615 0.0123565749130168 0.0131508726420326 -0.4487306 0.1329983 0.8837151 148 148 148
-0.0174417216342281 0.0130212668030585 0.0140006033080678 -0.3785762 0.1219619 0.9174995 142 142 142
-0.0153447916746091 0.0119720748272441 0.0149449616605087 -0.2609388 0.06230072 0.9633429 108 108 108
-0.0112760941502831 0.0104865918446206 0.0151417888374662 -0.1739961 0.01665594 0.9846055 90 90 90
-0.0130226777207022 0.0111207008276342 0.0151623069780502 -0.1811774 0.01715348 0.9833008 77 77 77
-0.0159042766933393 0.0133012260548935 0.0146529713772647 -0.3155543 0.08404469 0.9451783 167 167 167
-0.0136323573009136 0.013373712249962 0.0151755660956185 -0.2049873 0.07103331 0.9761837 98 98 98
-0.0138641086951756 0.0159794770122066 0.0146129751925345 -0.2379353 0.09184856 0.9669285 96 96 96
-0.0203473963370703 0.0143924210424906 0.0119746114884486 -0.4908912 0.1797129 0.8524841 139 139 139
-0.0220724363122691 0.0158607251738259 0.0109706823826874 -0.5051244 0.1939991 0.84096 143 143 143
-0.0196790655750563 0.0175086835074534 0.0117059138344216 -0.4896863 0.1950202 0.8498085 123 123 123
-0.0199515993635312 0.0170528040434181 0.0116782769352845 -0.4867422 0.1960022 0.8512727 99 99 99
-0.0211523223823981 0.0179065938369387 0.0108831988803319 -0.4978704 0.200313 0.8438008 113 113 113
-0.0188630296342636 0.0193184559220061 0.0120287937058455 -0.4890861 0.1890061 0.8515113 151 151 151
-0.0174659665227629 0.0199495666044975 0.0125002177583363 -0.4642959 0.1610325 0.8709179 118 118 118
-0.0128300226909486 0.0171101659703201 0.014924690488324 -0.2401571 0.09996151 0.9655735 138 138 138
-0.0120205405839253 0.0197284347797915 0.0147951792128141 -0.2495695 0.09823934 0.9633608 105 105 105
-0.0170809911020585 0.0207822324594138 0.0125292875017196 -0.4842765 0.1981066 0.8521913 94 94 94
-0.015001481451653 0.0215436461300456 0.0137569226088686 -0.4027091 0.1564838 0.9018527 125 125 125
-0.00901772482075136 -0.00184912812845739 0.0167260591087876 -0.09977853 -0.02015969 0.9948054 218 218 218
-0.00924113057524278 0.000768105246931938 0.0163613471277298 -0.1266743 0.01234051 0.9918676 239 239 239
-0.0103449564574961 0.00125668688080416 0.0163345400371358 -0.18884 0.04473833 0.9809883 247 247 247
-0.00593124388764654 -0.000616720932149262 0.0162072369138724 -0.07580122 -0.01400574 0.9970246 224 224 224
-0.00136046090205999 0.00240358418241082 0.0167806962220728 -0.02019411 -0.02535719 0.9994745 229 229 229
0.000366165744418279 0.00245428785836554 0.0166200664351095 0.009336408 -0.03207402 0.9994419 216 216 216
-0.0108949902095593 0.00455950036802411 0.0156060032869096 -0.2243272 0.05463156 0.9729813 203 203 203
-0.00816209329512341 0.00440720803902894 0.0163577352170624 -0.1655727 0.03428875 0.9856013 215 215 215
-0.0061400215064692 0.00389366304898364 0.0166058503239132 -0.1017274 0.01636567 0.9946777 223 223 223
-0.0099525966546149 0.00817165221250638 0.0157957854453664 -0.1906825 0.03070394 0.9811715 172 172 172
-0.00384701291291822 0.00431978900263585 0.0171762601197517 -0.0407915 -0.03149947 0.9986711 221 221 221
-0.00498623810991972 0.00544511943343928 0.0168758038639117 -0.09385716 -0.007383449 0.9955583 218 218 218
-0.00501539350570313 0.007605014398395 0.0166336950479421 -0.119154 0.02580771 0.9925403 180 180 180
-0.00634473560305349 0.00759531410763481 0.0168132558920637 -0.1693842 0.04628621 0.9844626 238 238 238
-0.00731550272057657 0.00844694055331696 0.0161640985497313 -0.1833317 0.03983684 0.9822436 153 153 153
-0.00791955032045399 0.00960210451071042 0.0159470031304306 -0.1809806 0.06184558 0.9815402 150 150 150
-0.00571923412972752 0.010109472645125 0.0163978025675322 -0.1585183 0.07274545 0.9846725 149 149 149
-0.00358453796842695 0.00644947727630485 0.0171686954912539 -0.04870741 -0.01098592 0.9987527 216 216 216
-0.00438691682524139 0.00988966239768607 0.0166236020569333 -0.1225021 0.07070869 0.9899462 174 174 174
-6.47789829176793E-05 0.00840567364443867 0.0171221086874207 -0.008628267 0.001696984 0.9999613 174 174 174
-0.000715496471841992 0.00986985437572163 0.0171596833357347 -0.03429998 0.0487087 0.9982239 185 185 185
0.00457537678694842 -0.000982351122054803 0.016549414218137 0.07778171 -0.03587801 0.9963247 196 196 196
0.00175831847152152 0.00224341223914837 0.0165412267721047 0.03668465 -0.0385448 0.9985833 200 200 200
0.00423155051637281 0.00297994111829358 0.0167600389328024 0.0590084 -0.04240653 0.9973564 190 190 190
0.00844344897992688 0.00193198197286448 0.0161481031051459 0.06230582 -0.05517669 0.9965307 173 173 173
0.00065208142490325 0.00310279874582209 0.0164337685228171 0.0108885 -0.04181029 0.9990662 219 219 219
0.00236921608409724 0.00344671857295875 0.0162593410165757 0.04080439 -0.04336789 0.9982255 165 165 165
0.0014115913566779 0.00666865798459226 0.0167163306574898 0.02506089 -0.01646379 0.9995503 187 187 187
0.00542011394598418 0.0037218165643691 0.016887494824043 0.05377385 -0.0462241 0.9974827 197 197 197
0.0106011639286192 0.0032770133965021 0.0157880106173837 0.07503054 -0.05228618 0.9958095 202 202 202
0.00810499328318648 0.00456188524687429 0.0166720196977122 0.06300726 -0.04216911 0.9971218 193 193 193
0.006467550948139 0.00480867390174233 0.01663689556523 0.05420218 -0.03283011 0.9979901 199 199 199
0.00219017130830002 0.00692176131135502 0.0168123312239024 0.04252328 -0.02349662 0.9988191 209 209 209
0.00153284713661272 0.0096625790593643 0.0170882313676805 0.01955034 0.01575774 0.9996847 173 173 173
0.00443349658366576 0.00767434143765922 0.0169034667752273 0.05322094 -0.01273374 0.9985016 202 202 202
0.00672799615892217 0.00724071973615081 0.0165720325649347 0.066809 -0.02018654 0.9975616 218 218 218
0.00956434885576829 0.00835730303440929 0.016415094754193 0.1007686 0.01214677 0.9948357 216 216 216
0.010172230391836 0.0101763241321711 0.0162983611032307 0.1029003 0.02092809 0.9944715 201 201 201
0.0107021774452487 0.00994324411358183 0.0165915041058559 0.09946175 0.02556236 0.994713 199 199 199
-0.00889353074378396 0.011129644747383 0.0155037795674289 -0.1590646 0.04041478 0.9864406 114 114 114
-0.00853897797648195 0.0131956188678086 0.0154871519327932 -0.1502981 0.03672895 0.9879583 118 118 118
-0.00757303345137228 0.0168042549609149 0.0158236572229548 -0.09805308 0.08690345 0.9913796 209 209 209
-0.00598843159941331 0.0164471842301299 0.0158659406324885 -0.09066467 0.1113488 0.989637 193 193 193
-0.00348177011962214 0.011907576506518 0.0165977984632854 -0.1157715 0.08386156 0.9897293 201 201 201
-0.00213069781718001 0.0122702204589675 0.0166567782926434 -0.066533 0.09729323 0.9930294 223 223 223
-0.00161151654749636 0.0159873161611785 0.0162955485903402 -0.05864478 0.1367886 0.9888628 226 226 226
-0.00805873741144303 0.017475428585868 0.0158022938903369 -0.09846544 0.09163602 0.9909124 228 228 228
-0.00366048031034905 0.0182475490642906 0.0157548639245433 -0.04535519 0.1544247 0.986963 217 217 217
0.000766669964453737 0.0109715539049464 0.0166962788521534 -0.004480335 0.04300428 0.9990649 159 159 159
0.00248552121652867 0.0111884799827169 0.016733818139397 0.02434772 0.03826306 0.998971 164 164 164
0.000731672583883514 0.0130959257884811 0.0168366517393828 -0.03497016 0.07602543 0.9964924 179 179 179
0.00219079996171667 0.0145960489641148 0.0169345347271514 0.004451952 0.0922365 0.9957272 225 225 225
0.00410127584592335 0.0146204512274706 0.0168305716057075 0.02693264 0.06098576 0.9977752 237 237 237
0.00645935397425612 0.0139552688339173 0.0167620186592812 0.04469503 0.03682443 0.9983218 223 223 223
0.00451546860393293 0.0167025673557135 0.0164558081670219 -0.006307933 0.08594268 0.9962801 220 220 220
0.00679985759454338 0.0104968318793714 0.0164559450888356 0.07535015 0.01660962 0.9970188 206 206 206
0.00721203844316565 0.0104610491841024 0.0162528189549078 0.07919335 0.01816921 0.9966937 190 190 190
0.0078474998004967 0.0116305264643684 0.0163425866044341 0.0785988 0.009530272 0.9968608 186 186 186
0.0108701842323519 0.0121228896551673 0.0159693263953324 0.1011203 0.004023992 0.9948661 193 193 193
0.00859498535762682 0.014571381806789 0.0164861668576876 0.07267549 0.03235984 0.9968305 212 212 212
0.00687858268472841 0.0164915581469669 0.0164160255273366 0.04556711 0.03797926 0.998239 229 229 229
0.00853888136958014 0.0161659982490154 0.0163094689689526 0.07374185 0.03047721 0.9968116 229 229 229
0.000227684137678819 0.0176898234736755 0.0161626393072315 -0.06002387 0.1545662 0.9861574 232 232 232
-0.0097574169739999 0.0198883660181708 0.0151551005360876 -0.129121 0.09788673 0.9867857 187 187 187
-0.00839638047606983 0.0199282929023874 0.015317666629402 -0.09679671 0.1038483 0.9898717 223 223 223
-0.00629993188756528 0.0220030129422644 0.0150647928572949 -0.01670676 0.1149023 0.9932363 207 207 207
-0.00721683704739806 0.0238015868138168 0.0149771502520354 -0.03994177 0.09908655 0.9942769 188 188 188
-0.00763950796770763 0.0234891081841211 0.0149122892595933 -0.04415677 0.09117302 0.9948556 205 205 205
-0.00511203266114091 0.0192711468558702 0.0155894167837662 -0.04367798 0.1277872 0.9908394 228 228 228
-0.00176958138187566 0.0183955498392876 0.0157249378783771 -0.04785776 0.166752 0.9848368 232 232 232
-0.00556009151255021 0.0211283146955816 0.0152701366564737 -0.02078523 0.1223295 0.9922719 226 226 226
-0.00345208071979697 0.0214066507602979 0.0152323225552659 -0.01781011 0.1363199 0.9905047 124 124 124
0.000675951282163467 0.0215015779334804 0.0154218434699797 -0.09894498 0.1254466 0.987154 159 159 159
-0.0011964837490267 0.0222604534278068 0.0147371013860028 -0.06758093 0.1279292 0.9894781 141 141 141
-0.00249914092719361 0.0229792760555512 0.0150152080644449 -0.01257958 0.1124137 0.9935819 136 136 136
0.0113953273756168 0.0169205882518544 0.0168125434907209 0.0817358 0.03796529 0.9959307 245 245 245
0.00172808242155564 0.0220021237049608 0.0154736205861012 -0.1574079 0.0799482 0.9842921 139 139 139
0.0064783005762904 0.0221960534727088 0.016568117531273 -0.02144761 -0.008167275 0.9997366 216 216 216
0.0063521006136783 0.0241401047148539 0.0165863682805859 -0.0947054 -0.01344622 0.9954146 202 202 202
0.00849293961221687 0.0200507229194888 0.0159605404591034 0.0604584 0.009200911 0.9981283 206 206 206
0.0114255084404825 0.0189692452681429 0.015944160363822 0.08530368 0.02446235 0.9960546 201 201 201
0.010571944111693 0.0197753479806617 0.0158774006817502 0.08734699 0.01733825 0.9960271 219 219 219
0.00856379403618202 0.0220253136232915 0.0159786984510014 0.05597279 -0.0007887297 0.998432 218 218 218
0.0425098887711393 0.00239323043629125 -0.00626338694947995 0.8125083 0.06242971 0.5795971 47 47 47
0.00464177600682514 0.0403596250152596 -0.00865168219789944 0.3164957 0.9432037 -0.1009811 34 34 34
-0.00349348652478942 0.0277475025468987 0.0143234425391324 -0.03151223 0.09534159 0.9949457 218 218 218
-0.0373977423475779 0.029485547164976 -0.00487197204821679 -0.5613755 0.2380957 0.7925705 105 105 105
-0.0271079221694931 0.0396943501243709 -0.000899484204911677 -0.5715681 0.2996684 0.7638775 93 93 93
0.0028487770394684 0.0426140779275557 -0.00249087117314153 0.2224238 0.9724898 -0.06921823 52 52 52
0.0346382100207392 -0.025465869789663 0.00823262387762372 0.7417189 0.05664776 0.6683144 33 33 33
0.0362423056518975 -0.0352371356839651 0.00480810352119745 0.9165528 0.054193 0.3962247 60 60 60
0.000776680920207773 0.0427755227923379 -0.00815902983880942 0.2768992 0.9556909 -0.09990834 62 62 62
-0.0397161438629349 0.0181552218209977 -0.00318163390761414 -0.5522882 0.2346298 0.7999541 132 132 132
0.0199601773902895 -0.0290143140801438 0.0141550005936492 0.04582432 0.02474726 0.9986429 214 214 214
0.0413306519414801 -0.0383604193632825 -0.000564254872010922 0.7373085 0.2215799 0.6381837 78 78 78
0.0258772961777516 -0.0536806163458967 0.0119013341258773 0.01508669 -0.1194283 0.9927282 143 143 143
0.0169017557864545 -0.0562471823484074 0.0115640998359247 0.1274682 -0.06883427 0.9894512 93 93 93
0.0289355721445566 0.0173490707047887 0.0108850963142821 0.7947674 0.2109352 0.5690792 71 71 71
0.0314737422364619 0.0246421010000013 0.00264196481513876 0.8000184 0.1094153 0.5899143 26 26 26
-0.0205459556977291 0.0330285108330546 0.007265090780847 -0.5352523 0.2509588 0.8065511 72 72 72
0.0369373263978963 0.0301534016953917 -0.010776085863129 0.3596544 0.8988907 0.2502884 66 66 66
0.038614659624445 -0.0524540673946283 0.0065739865791021 0.6596521 0.1382672 0.738743 62 62 62
0.0240433993141284 0.0372721624247574 0.00808483260189238 0.3870954 0.8460767 0.3664852 67 67 67
-0.0331768417619008 0.021924988158275 0.000480050365296719 -0.6219235 0.2533119 0.7409752 93 93 93
0.0411001151092825 -0.0023590713281878 -0.00457624447775443 0.8110583 -0.0813804 0.5792769 61 61 61
-0.0265950342997229 0.0474997858853843 -0.0101872735385337 0.08341245 0.9934237 -0.0784327 53 53 53
0.0307188478975308 0.021242749022113 0.00378918469170894 0.7880679 0.1261037 0.6025336 91 91 91
0.0378703055674028 -0.00379440754425575 -2.60507760865558E-05 0.8294167 -0.01441925 0.5584443 94 94 94
-0.0160197513692367 0.0469082673017565 -0.00442694412139469 0.1532625 0.9348546 -0.3202459 70 70 70
0.0152300818045995 -0.0440574858057055 0.0131563496703307 0.002650625 -0.08088597 0.9967198 160 160 160
-0.0407750285219719 0.0152345986396316 -0.00280274095383773 -0.5682753 0.2188574 0.793199 117 117 117
0.0387790028468014 -0.0351707390322449 0.000752324251753506 0.7979599 0.1364996 0.5870501 71 71 71
-0.033092767627445 0.0339697983885763 -0.003576543610569 -0.5946822 0.2771953 0.7546627 135 135 135
-0.0152119745796184 0.041987302336963 0.00681574938984894 -0.5275729 0.3558867 0.7713699 69 69 69
-0.028213199745685 0.0478195570049482 -0.00717448516965127 -0.09828978 0.9522517 0.2890602 72 72 72
-0.0275118352637695 0.0382430611230213 -0.000832138939134724 -0.5613379 0.3168184 0.7645429 102 102 102
0.0277830993604444 0.0298212528365602 0.00888039120892312 0.7204176 0.003513409 0.6935316 58 58 58
-0.0342833698114231 0.0269005513337275 -0.00217129130297369 -0.6049623 0.2282893 0.7628267 102 102 102
0.0263339896965017 0.035323419465765 -0.00514961843020292 0.4130091 0.9031677 -0.1170965 62 62 62
0.0156427040444403 -0.060737406260315 0.0111588295621956 0.06528599 -0.06478756 0.9957612 152 152 152
0.0450281134624743 0.0285212517447984 -0.00854836824233327 0.386571 0.4421425 0.8093657 72 72 72
0.0244810673763238 -0.0588169205180724 0.0106237948041275 0.09624759 -0.08345539 0.9918526 153 153 153
0.0240455417169871 -0.0063580862760042 0.0143708284916254 0.1721764 0.1044382 0.9795141 212 212 212
0.0325587508200534 0.0167691303897657 0.0022586024709095 0.7321229 0.2014791 0.6506937 74 74 74
-0.00194295772115982 0.0427453882068118 -6.66504317927974E-05 0.1746895 0.9793999 0.101289 36 36 36
0.0134415375079212 -0.0646723280246457 0.0111277048894279 -0.01121762 -0.1538108 0.9880366 224 224 224
0.0241375262085309 -0.0627451804565395 0.010617474911528 0.1456222 -0.08896917 0.9853318 52 52 52
0.0138152283855583 -0.061736755578466 0.0114577086098445 0.04179966 -0.1132269 0.9926895 139 139 139
0.0130200565025719 -0.05885981077588 0.0118835781467498 0.07627562 -0.1245488 0.9892773 175 175 175
0.0166327967014525 -0.0603742835923435 0.0115631867508727 0.06994892 -0.05900407 0.995804 140 140 140
0.0186801452971352 -0.0623782800351926 0.0113149389624479 0.04789138 -0.04496128 0.9978401 176 176 176
0.0212874259604137 -0.0614233995607121 0.0109735665836727 0.04445089 -0.01813521 0.9988469 173 173 173
0.0171462211605926 -0.0587156147233332 0.0116761388213383 0.09870499 -0.04554829 0.9940738 108 108 108
0.0126931618701014 -0.0576836754059509 0.0121752139544211 0.0931071 -0.1103664 0.9895203 178 178 178
0.014827833562855 -0.0570690886513747 0.0116700111696943 0.1140438 -0.08471782 0.989857 114 114 114
0.0189465765117096 -0.0573577350647121 0.0108640493884489 0.09904286 -0.04589805 0.9940241 127 127 127
0.0214016420693857 -0.0575862632691786 0.0108377694390959 0.04501306 -0.0286751 0.9985748 127 127 127
0.0230706933522132 -0.0566487287717832 0.0109894589894687 -0.0230111 -0.07931917 0.9965836 128 128 128
0.0205054325836282 -0.0533527881861073 0.0109568026734907 0.04557936 -0.1529457 0.9871829 148 148 148
0.024736750853244 -0.056907336822295 0.0108875777362686 -0.03547833 -0.07955189 0.9961992 155 155 155
0.0225307747844471 -0.05442132279316 0.0111952505534336 0.0184696 -0.1534282 0.9879872 141 141 141
0.0289987551783035 -0.0604268908779917 0.00819171872549421 0.2883409 -0.3406724 0.8948753 114 114 114
0.0308539289215679 -0.0603131791550335 0.00778914303997932 0.3353966 -0.4234317 0.8415549 117 117 117
0.0330470476115713 -0.059017116028979 0.00761043609769804 0.3678026 -0.355352 0.8593289 96 96 96
0.0353143949455904 -0.0587724190819858 0.00722363728247852 0.3982836 -0.3102656 0.8631949 84 84 84
0.0268160144242752 -0.0602010286779044 0.0113525859535687 0.1819633 -0.1859825 0.9655567 181 181 181
0.0299883296226408 -0.0601685267670762 0.00946559570669694 0.2860208 -0.3487937 0.8924881 176 176 176
0.0266434129791352 -0.0571410303842257 0.0109821341982985 0.09795497 -0.1772803 0.9792734 157 157 157
0.0306642721954082 -0.0571592797922416 0.0109561132427122 0.2546944 -0.2858194 0.9238171 237 237 237
0.0291362060421447 -0.0544167898209371 0.0114262119726985 0.1780608 -0.09728775 0.9791984 197 197 197
0.0313875601936194 -0.05846307153172 0.00963356807205959 0.3135257 -0.3429127 0.8855013 218 218 218
0.0325908671986992 -0.0585307091588709 0.0089548164107203 0.3736468 -0.3457064 0.8607411 170 170 170
0.032861336279946 -0.0568333787926678 0.0103286583894141 0.3445239 -0.316213 0.8839189 236 236 236
0.031708386628859 -0.0554887331544003 0.0107451863504559 0.2908479 -0.1699276 0.9415584 222 222 222
0.0330561546733591 -0.0548039713806094 0.0104550737587361 0.405563 -0.09450091 0.909169 198 198 198
0.0340270041590873 -0.0527211656565298 0.00973417206703811 0.4586722 0.008488547 0.888565 232 232 232
0.0247368396041877 -0.0519855286857938 0.0121471224212517 0.03988997 -0.1312408 0.9905477 220 220 220
0.016721926082647 -0.0511693727640152 0.0124048813311195 0.08472518 -0.1626695 0.9830363 147 147 147
0.0181578601945412 -0.0511658596840607 0.0121148426120317 0.06142742 -0.1918162 0.9795066 145 145 145
0.0164029996063215 -0.0487131402056173 0.0127824505590513 0.04119397 -0.1603303 0.9862034 168 168 168
0.022376241466892 -0.0510312451644201 0.0120147632822168 0.03962564 -0.1702785 0.9845989 187 187 187
0.0247135035666314 -0.0506959919246801 0.0120490175847496 0.05654265 -0.1308571 0.9897875 215 215 215
0.0206722622196513 -0.0496170203845874 0.0123779674136646 0.0524605 -0.1828564 0.981739 225 225 225
0.0232840378737257 -0.0492625936858113 0.0122825021033416 0.05582787 -0.1664719 0.9844645 209 209 209
0.0133020175131556 -0.0435807786457962 0.0134263719725921 0.02789371 -0.04433723 0.9986271 220 220 220
0.0179458630202 -0.0455717510471534 0.0133311301719394 0.003640606 -0.114548 0.9934111 192 192 192
0.0168803022405076 -0.0437244631877662 0.013422552096359 -0.003134293 -0.09320013 0.9956425 211 211 211
0.0186744907221165 -0.0447144395736958 0.0133127731224046 0.009992375 -0.1030247 0.9946286 197 197 197
0.0207411189658187 -0.0452441172010676 0.0131985219248145 0.04461635 -0.1377825 0.9894571 219 219 219
0.0141576591007159 -0.0409941728454712 0.0133305540132283 -0.004679824 -0.05737834 0.9983416 113 113 113
0.01299361273441 -0.0399686856672248 0.0133848675068651 0.01353504 -0.03831452 0.9991741 113 113 113
0.0161796460856227 -0.0390630736267885 0.0133695146434564 -0.002861892 -0.05236387 0.998624 130 130 130
0.0185380272110226 -0.0390869631782167 0.0133795304165182 -0.003803569 -0.037609 0.9992853 184 184 184
0.0210215307953175 -0.0419456814803503 0.0136844648859709 0.02385915 -0.05382155 0.9982655 230 230 230
0.0194512477988151 -0.0402780811640733 0.013451269440561 0.0006069579 -0.0371241 0.9993105 200 200 200
0.025085059693591 -0.0403274290217961 0.0133959505307026 0.1113938 -0.06207172 0.991836 151 151 151
0.0222461333514631 -0.0385525781644844 0.0133878362331803 0.03689113 -0.01433676 0.9992164 203 203 203
0.0289996596047897 -0.0506971920460331 0.0115047455178497 0.2170414 -0.05427384 0.9746525 193 193 193
0.0281907158692768 -0.0495962911203403 0.0115594157235844 0.1585447 -0.07929717 0.9841623 164 164 164
0.0300273681478921 -0.0502167207688 0.0111394085087107 0.2283365 -0.05006327 0.9722943 165 165 165
0.0305523186175283 -0.0484223073581216 0.0112816294344258 0.305679 -0.0627583 0.9500641 170 170 170
0.0250403653480273 -0.0486639143897081 0.0119428327669585 0.1021183 -0.1320608 0.9859675 184 184 184
0.0333079884920093 -0.0509041466318765 0.0104253268006124 0.4199022 -0.0221694 0.9072986 218 218 218
0.0343777986188686 -0.0501288569747511 0.00957607620434078 0.5030988 -0.009269428 0.8641792 205 205 205
0.0342328839743457 -0.0488216148761651 0.00970460727782688 0.5167359 9.585668E-06 0.8561449 160 160 160
0.0332369906142743 -0.0481019999313146 0.0102321686119725 0.4785568 -0.01730176 0.8778861 191 191 191
0.0306321975718079 -0.0475361791687334 0.0115484099734189 0.3039167 -0.07960087 0.9493673 187 187 187
0.0319971539831889 -0.0472867516210229 0.0110902448179031 0.3966415 -0.03162814 0.9174286 184 184 184
0.035134976314951 -0.046971017279966 0.00864164058154263 0.6329301 0.07013413 0.7710257 83 83 83
0.034546869400963 -0.0452380633268725 0.00943534230564733 0.6463084 0.05366593 0.7611868 123 123 123
0.0334788011156616 -0.0449869036557169 0.0103580860968571 0.5360799 -0.01773622 0.8439808 149 149 149
0.0341767932933514 -0.0432097516744077 0.00976890081442214 0.6583649 9.636307E-05 0.7526989 157 157 157
0.0269041475874475 -0.0424958974101741 0.012968298893289 0.1934194 -0.09963714 0.9760438 192 192 192
0.0283140277335397 -0.0426668180179111 0.0125948294897112 0.2556068 -0.09046993 0.9625385 181 181 181
0.0262869467621731 -0.0407875900832235 0.0131369805536456 0.1709441 -0.06665617 0.9830234 150 150 150
0.0268300191268706 -0.0387682014669124 0.0131819035889858 0.1709334 -0.02315883 0.9850104 171 171 171
0.0286770708225504 -0.0379518879027345 0.0129148381069301 0.2763107 -0.02908635 0.9606282 200 200 200
0.0342531211472977 -0.0408196928001079 0.00946199845095533 0.7226078 -0.01060715 0.6911769 79 79 79
0.0304572023768583 -0.0387612150553518 0.0124177010657404 0.423681 -0.02114237 0.9055647 182 182 182
0.0311953530242324 -0.0379632258891505 0.0118103883048691 0.4846178 -0.004389287 0.874715 169 169 169
0.0322809249538997 -0.0383521595896859 0.011261668449887 0.5528819 0.001577325 0.8332582 216 216 216
0.0396938695279647 -0.058612604966674 0.00730622544237433 0.4723026 -0.1451254 0.8694072 84 84 84
0.0407383872455341 -0.0576333015761588 0.00615745321390063 0.5549388 -0.02768876 0.8314303 76 76 76
0.0363871282228814 -0.0571011644059751 0.00845924592034622 0.4426657 -0.1761561 0.8792133 170 170 170
0.0396758592848765 -0.0562254909423985 0.00635299453745983 0.5741856 0.02850827 0.8182287 98 98 98
0.0409281611066714 -0.052595348178458 0.0037620297337628 0.7071478 0.1587803 0.6890071 55 55 55
0.0366486290046486 -0.0513153031949383 0.00791558154800151 0.609593 0.05209053 0.7910013 109 109 109
0.0383653474822401 -0.0511347344747628 0.00737546382387569 0.6711968 0.1119488 0.7327772 84 84 84
0.0382640866716492 -0.0496413698870262 0.00721810955218696 0.6896462 0.1093929 0.7158362 61 61 61
0.0406577913889455 -0.0468905186358113 0.00198264895513331 0.7939019 0.1651029 0.5852016 58 58 58
0.0383902254153271 -0.047631014330898 0.00570362576212172 0.752232 0.1594733 0.6393084 65 65 65
0.0402368671250342 -0.0454104350305933 0.00215227776046265 0.7884872 0.1844891 0.5867296 68 68 68
0.0385365423190068 -0.0434851799854141 0.00422094013950033 0.763912 0.1941888 0.6154099 70 70 70
0.0369227368516841 -0.0433399606288163 0.006146422264 0.7628007 0.1447772 0.6302179 63 63 63
0.0351859340304108 -0.038261455014504 0.00855195032085623 0.8236632 0.00831225 0.5670183 65 65 65
0.0349232860172087 -0.0344005014991082 0.00884940020108246 0.8010402 0.06640343 0.594916 69 69 69
0.0311894417109007 -0.0366943106822 0.0122275512286117 0.4934938 0.02862042 0.8692783 221 221 221
0.0311914921765988 -0.034638250969562 0.0119876750511206 0.4852239 0.05726764 0.8725126 182 182 182
0.0323359600217084 -0.0350063666978828 0.0108851146876247 0.5727873 0.06653202 0.8169995 98 98 98
0.0342044893822945 -0.0362997511726149 0.00979578562579395 0.7567178 0.02446293 0.6532838 88 88 88
0.0357986842247092 -0.0351885278290365 0.00866220178011853 0.8291725 0.04440705 0.5572262 75 75 75
0.0345088629929711 -0.0336485126593757 0.00956403448325135 0.740706 0.08252116 0.6667419 73 73 73
0.0353565026635081 -0.0308773246088252 0.00774228383002443 0.8185147 0.0229173 0.5740283 67 67 67
0.0404392432047715 -0.0411649686441269 0.00174405406023784 0.7514684 0.2308326 0.6180709 73 73 73
0.0367858406426179 -0.0414403823506211 0.00532419303454365 0.7976106 0.1610858 0.5812647 64 64 64
0.040106469308385 -0.0420828394308039 0.00319232300396602 0.7604787 0.2208584 0.6106502 52 52 52
0.0368616335503237 -0.039137058360077 0.00475190216274665 0.8301392 0.1820647 0.5269927 80 80 80
0.0387397030165583 -0.0371810663854735 0.00131772862504639 0.7872745 0.1837822 0.588577 71 71 71
0.0372922748345049 -0.0375514670625374 0.00296810583438731 0.8339382 0.1950755 0.5162292 71 71 71
0.0389686622765137 -0.040098593261632 0.00263175125476264 0.7897061 0.2303616 0.5685929 65 65 65
0.0398871579080736 -0.040494340916746 0.00232835073620627 0.7801854 0.2227336 0.5845516 60 60 60
0.0359551080757763 -0.0390944528741299 0.00754380000980578 0.8456598 0.0276046 0.533008 45 45 45
0.0400784076253524 -0.035741323028361 -0.000138330570314621 0.7725816 0.1517305 0.6165189 76 76 76
0.0403838729338514 -0.0334218635128067 -0.000578624007555456 0.8105088 0.06610759 0.5819838 52 52 52
0.0379775677395524 -0.0359783918869119 0.00177048219356288 0.8157682 0.1539435 0.5575156 67 67 67
0.037487950853935 -0.0330610902137913 0.00220037089996342 0.8737085 0.01346789 0.4862633 67 67 67
0.0376853440341098 -0.0332942239998821 0.00151329065481928 0.8568486 0.03229772 0.5145555 86 86 86
0.038698622220298 -0.0320334434267451 0.000620952332602426 0.8535174 0.003718584 0.5210511 66 66 66
0.0382118383732629 -0.0318880265539205 0.00146112106146087 0.8644668 -0.002474921 0.5026838 68 68 68
0.0398729351436649 -0.0324259905169595 -0.00070322962767369 0.8126426 0.05851741 0.5798171 47 47 47
0.0361717771301044 -0.0374008537228312 0.00688827482491819 0.8818181 0.06299304 0.4673635 70 70 70
0.0359462219071498 -0.0372652512235421 0.00805315348524796 0.8417345 0.01522811 0.539677 88 88 88
0.0362531422968555 -0.0360748055014657 0.00628196743283357 0.9148539 0.05539216 0.3999676 63 63 63
0.0359232247717467 -0.0338393671627213 0.00740415926417973 0.8771192 0.02813122 0.4794481 98 98 98
0.0364378220019853 -0.0288852842894685 0.00582225029451419 0.8650205 -0.01366292 0.5015504 74 74 74
0.0388621757538176 -0.0299014698899902 -0.000233978306666743 0.8581361 -0.007417715 0.5133688 71 71 71
0.0399151599343048 -0.0282597463142169 -0.00113773215538285 0.8483173 -0.03591283 0.528269 69 69 69
0.0406403299996777 -0.0282638953039556 -0.00216609252345687 0.8521451 -0.02857256 0.522525 63 63 63
0.0410902496943574 -0.026367477071966 -0.00267904367900421 0.8308362 -0.05457722 0.5538344 51 51 51
0.0436038496810865 -0.0227784230533996 -0.00533887831157656 0.8267149 0.0104735 0.5625236 36 36 36
0.0386034943613092 -0.0261937960765866 0.000833571746100131 0.8811197 -0.04523286 0.4707251 69 69 69
0.0389735784470413 -0.0272058920798051 0.000105694379686022 0.8755802 -0.04324372 0.4811333 60 60 60
0.0390791632460514 -0.0259956710577514 -0.000369157174304996 0.8586194 -0.05456358 0.5097014 84 84 84
0.0396436339440192 -0.0249814404616648 -0.0010691374995179 0.8553863 -0.03269486 0.5169579 88 88 88
0.037030770624502 -0.0252762369102839 0.00463059898933657 0.886349 0.03263463 0.4618663 72 72 72
0.0378837701408079 -0.0233623922323247 0.00285650884654456 0.8797835 0.05330989 0.4723761 73 73 73
0.0390466906651458 -0.0234210544740647 0.00110029320074698 0.8667522 0.022276 0.4982413 57 57 57
0.0401105225605544 -0.0236376024993432 -0.000824034420729786 0.8405936 0.004006116 0.5416514 65 65 65
-0.0154662008925842 0.0466022372617125 -0.00407827008286041 0.1532543 0.9364401 -0.3155839 65 65 65
0.0412908424248057 -0.0221823142679844 -0.00248507079225133 0.8085791 0.03798609 0.5871601 49 49 49
0.0401372882734671 -0.0221697893810204 0.000421765709729766 0.8350634 0.03914874 0.548759 87 87 87
0.0411976607380046 -0.0177565488056084 -0.00312599500395519 0.7934296 0.169136 0.5846901 52 52 52
0.0402069728673589 -0.0193413907631941 -0.000886701772512183 0.7889611 0.1512292 0.5955419 78 78 78
0.0398696261941167 -0.0174662336679114 -0.0021804257910927 0.7791458 0.2072252 0.5915992 75 75 75
0.0408200952246788 -0.0160001625764672 -0.0031810652350597 0.7798067 0.179507 0.5997322 76 76 76
0.0424808071716273 -0.0165698013170845 -0.00547509185437053 0.7769606 0.1627142 0.6081582 67 67 67
0.0416721471880014 -0.0141019632976331 -0.00520267870458616 0.7680462 0.150705 0.622409 32 32 32
0.0421920600309789 -0.0123803988063516 -0.00645584709610506 0.7915974 0.08670624 0.6048599 43 43 43
0.0424988226485681 -0.0101884440967392 -0.00676063847468925 0.8027101 0.02875077 0.5956759 58 58 58
0.013937608391244 -0.0342743040973919 0.0142083122440545 0.0142863 -0.1196446 0.992714 165 165 165
0.0161255269563166 -0.0319350523509534 0.0143017333353988 0.03243677 -0.07045338 0.9969876 165 165 165
0.0147968580082388 -0.0300580351340543 0.0145865830982415 0.03709187 0.01844915 0.9991415 233 233 233
0.0147781877735955 -0.0289671794237685 0.0144043524687148 0.03602086 0.03177121 0.9988459 210 210 210
0.0186444970986002 -0.0314674138261577 0.0140911684221783 0.03204129 -0.05787114 0.9978098 226 226 226
0.0218313705198493 -0.0354275209414443 0.0137363803294519 0.03526158 -0.07393985 0.9966391 220 220 220
0.0226626708288548 -0.0344245377360501 0.0137945040049149 0.0477551 -0.09379996 0.9944451 217 217 217
0.0208227864097451 -0.0321335725047605 0.0141673221163694 0.05302009 -0.08403819 0.995051 207 207 207
0.0210677760847531 -0.0301265601194389 0.0141955943694228 0.0595375 -0.02589408 0.9978902 223 223 223
0.0189923439652618 -0.0281524669814881 0.014276305076274 0.02154285 0.05111808 0.9984602 225 225 225
0.0166565641864902 -0.0285825237486121 0.0144583679942309 0.0334915 0.05859457 0.9977199 235 235 235
0.0149720911028828 -0.0237019909035183 0.0133923748562767 0.0003116055 0.07019638 0.9975331 156 156 156
0.0166230516287456 -0.0235531520155619 0.0135682741701663 -0.02915091 0.06298286 0.9975888 196 196 196
0.0166805217510156 -0.0214916133033485 0.0138142461006436 -0.02689645 -0.06037895 0.9978131 191 191 191
0.0219521857999304 -0.0248123248862981 0.0138960887049527 0.007307321 0.007076658 0.9999483 194 194 194
0.0203642439030273 -0.023809760415981 0.0139820183351286 -0.01255538 0.004781366 0.9999098 198 198 198
0.0210425229937594 -0.0222213622434639 0.0139401331807806 -0.01883336 -0.02362963 0.9995434 205 205 205
0.0208799990014094 -0.0217437171796819 0.0141528018080072 -0.01597307 -0.07615858 0.9969678 214 214 214
0.0217494522781988 -0.0215474965135256 0.0139461663586159 0.008390703 -0.05826019 0.9982662 226 226 226
0.0232830940010923 -0.0210796787268515 0.0139366945316238 0.06941152 -0.03105078 0.9971048 209 209 209
0.0267055012017423 -0.0339798672974059 0.0132708804429423 0.2586876 -0.0003803514 0.965961 207 207 207
0.0288868028941237 -0.0346039898912249 0.0130123644230772 0.3529047 0.03326217 0.9350679 209 209 209
0.0264116830358393 -0.0319338036682462 0.0135764522333811 0.2529285 -0.01994218 0.9672794 213 213 213
0.0270549767450514 -0.0309541582203539 0.013416839559646 0.2976695 -0.01116288 0.9546037 226 226 226
0.0244722557600471 -0.0281675098266125 0.0140026914612978 0.1739652 -0.02293878 0.9844846 213 213 213
0.0268486579499828 -0.0284068391576409 0.013408058045265 0.3170711 -0.04260089 0.9474445 196 196 196
0.030918774950535 -0.0325984912481847 0.0118177311563974 0.4768937 0.05697631 0.8771124 170 170 170
0.0312859527742576 -0.0306209106925321 0.0110036811281376 0.5408739 0.08614177 0.8366809 141 141 141
0.0293528038714124 -0.0282614760532927 0.0128375743712723 0.4740948 -0.006658212 0.8804486 221 221 221
0.0326690762292178 -0.0285781937271796 0.0101117042259575 0.6265177 0.05106531 0.7777325 83 83 83
0.0353486761799549 -0.0293569740460875 0.0080544650398561 0.7893216 0.03706245 0.6128603 68 68 68
0.0340099534863394 -0.0272340250356093 0.00905998105276953 0.6926159 0.02221447 0.7209645 42 42 42
0.032773459387389 -0.0247374404679959 0.00942552605958566 0.6507318 0.05916171 0.7569994 68 68 68
0.0264039388626942 -0.0253086071148541 0.0138730920866783 0.2793429 0.001952976 0.9601894 206 206 206
0.0253444833842214 -0.0243126080446721 0.0142093290532968 0.188342 0.009890406 0.9820537 216 216 216
0.029055001689651 -0.0245490030277506 0.0127196478756616 0.506642 0.00723465 0.8621262 224 224 224
0.0298207940936418 -0.0224649056954203 0.0123435340423773 0.5290418 -0.022645 0.8482935 195 195 195
0.0247888990976459 -0.0233796271419735 0.0143055286105772 0.1596108 -0.01234538 0.9871028 226 226 226
0.0269357438871056 -0.0222769351123173 0.0137408665912461 0.2522363 -0.02752129 0.9672742 212 212 212
0.0299217699637914 -0.0239774494790439 0.0124001650524834 0.5247138 -0.003617677 0.851271 215 215 215
0.0130751555800617 -0.0209198234267443 0.0134343313262703 0.03715418 -0.0569876 0.9976833 190 190 190
0.0210534926270615 -0.0200732321982398 0.0141489969460629 0.007716738 -0.06737324 0.997698 229 229 229
0.0238971887270185 -0.0203341492021989 0.0137728519258508 0.1018925 -0.02578131 0.9944613 167 167 167
0.0225651459346631 -0.0196039117687183 0.014368908869195 0.04022038 -0.05002109 0.997938 215 215 215
0.0358061170412342 -0.0245301526849744 0.00729009590645538 0.8030946 0.08671898 0.5895073 31 31 31
0.034064472974245 -0.0212835067762458 0.00862139136931248 0.7376562 0.08617742 0.6696543 37 37 37
0.0286482743570086 -0.0177282103151049 0.0129246924871298 0.4382687 -0.02819697 0.8984016 174 174 174
0.0291157913234376 -0.0168190473949914 0.0126745847322447 0.4747611 -0.01579602 0.8799729 167 167 167
0.0319673093944882 -0.0224133967526272 0.0101148546444544 0.6687214 0.001520364 0.7435116 87 87 87
0.033078609489932 -0.0208738488240607 0.00930333397173735 0.7198607 0.03185939 0.693387 65 65 65
0.0318521965138636 -0.0180798338408075 0.0107346166539179 0.6748796 -0.0214028 0.7376174 90 90 90
0.031445480558721 -0.0185253268364742 0.0115925165143232 0.6544531 -0.02488017 0.7556931 227 227 227
0.0305714317574138 -0.0178027036219268 0.012021755310742 0.5917813 -0.03557996 0.8053129 201 201 201
0.0303015512021139 -0.0162060661499634 0.011900968530988 0.571258 -0.01426878 0.8206465 156 156 156
0.0348652271268685 -0.0171407201751022 0.00665827963497503 0.8558066 0.09553796 0.508397 74 74 74
0.0356840192686299 -0.0176876624654552 0.00605676135153485 0.8693785 0.09403098 0.4851177 69 69 69
0.033900030977882 -0.0171700039740803 0.00804435021104097 0.8017522 0.06971134 0.5935771 65 65 65
0.0355794052084067 -0.0161262553621278 0.00515584580941367 0.8899748 0.08267821 0.4484519 79 79 79
0.0144364372917217 -0.0181981674375891 0.0138125148932773 -0.01723652 -0.1287546 0.9915267 184 184 184
0.0167009818886514 -0.0168270938092792 0.0144126824575452 -0.02964454 -0.1292913 0.9911634 232 232 232
0.0130531638207955 -0.0163650541508498 0.0147216760336506 0.004485625 -0.1211038 0.9926297 217 217 217
0.018933298039731 -0.0181297269897072 0.0144548045854379 -0.02091584 -0.1148712 0.9931602 216 216 216
0.019517649542711 -0.0158576065072571 0.0148577331544524 -0.004508747 -0.09945545 0.9950318 234 234 234
0.0215788030201345 -0.0154977446546503 0.0147002158036121 0.08336147 -0.0860729 0.9927952 211 211 211
0.0225970914300376 -0.014525832131584 0.0146523589538592 0.1511414 -0.06043233 0.9866632 216 216 216
0.0133713764738723 -0.011866400964635 0.0149854098863677 0.000923892 -0.1269505 0.9919086 241 241 241
0.0147893080336976 -0.0113411801899685 0.0147879362594759 0.002409443 -0.09624086 0.9953551 237 237 237
0.0162056147397734 -0.0102156710218324 0.0151134376028155 0.03912085 -0.06738163 0.99696 245 245 245
0.0223797277721196 -0.0111656493116992 0.0150045254145134 0.1472952 0.02611306 0.9887478 243 243 243
0.023521387321085 -0.0105976335717002 0.0146014145829594 0.1810236 0.05611113 0.9818768 210 210 210
0.0236578419481617 -0.0103205832519659 0.0147364492313941 0.1890123 0.06359342 0.9799134 240 240 240
0.0148987590826569 -0.00611065449076809 0.0155606924940107 0.1046047 -0.05791983 0.9928259 236 236 236
0.0165626322332197 -0.00764182023062321 0.0153095415520665 0.1013348 -0.01320815 0.9947647 244 244 244
0.0129237063101094 -0.00557601450331657 0.015642441574286 0.06087233 -0.07351112 0.9954349 216 216 216
0.0190295916565881 -0.0079303027324098 0.0147351024686178 0.09836917 0.06352759 0.9931202 218 218 218
0.0244238312126369 -0.00823296102654081 0.0144152966779648 0.2595828 0.07454188 0.9628397 233 233 233
0.0239426223743769 -0.00821500118788498 0.0145454900914688 0.1954231 0.08075938 0.9773882 246 246 246
0.0249846079857317 -0.0178574108630576 0.0141355724427653 0.1702482 -0.05662864 0.9837727 191 191 191
0.0269013016992004 -0.0165142556880893 0.0137191036040985 0.3336964 -0.04722235 0.9414971 149 149 149
