ply
format ascii 1.0
comment File exported by Rhinoceros Version 7.0
element vertex 470
property float x
property float y
property float z
property float nx
property float ny
property float nz
property uchar red
property uchar green
property uchar blue
end_header
-0.052362106617827 0.141006493485407 -0.0275584706165509 -0.4494535 0.2358118 -0.8616173 77 77 77
0.0583031366399918 -0.0409203955526695 -0.0507019232538499 -0.03734599 0.02944472 -0.9988685 150 150 150
0.0264246155235366 -0.149194369474771 -0.0345186741523384 0.02533174 0.05639585 -0.998087 192 192 192
0.0705545985543701 0.00993291539296881 0.0130608230404637 0.9678153 -0.0986191 -0.2315335 154 154 154
0.0383295721650763 -0.1769966381064 -0.0126673844520603 -0.09271808 -0.8479967 -0.5218286 166 166 166
-0.0896649043883126 -0.0177859326882094 -0.00417881584297569 -0.8968658 0.0479996 -0.4396906 100 100 100
-0.0982369611590381 0.0929290788709847 -0.00918815459839717 -0.998641 0.03626248 0.03743307 117 117 117
-0.0172468750448491 0.0538044668678435 -0.0410540088531604 0.05911601 -0.2171047 -0.9743567 136 136 136
-0.0577215805009144 0.131360288299239 -0.0275685267774767 -0.0651398 0.2071476 -0.9761387 104 104 104
-0.0514044513594989 0.0798436229208133 -0.0381265985049976 -0.1701395 0.1055546 -0.9797504 191 191 191
-0.0696832495170332 0.148924362153821 -0.0238791655985432 -0.1111904 0.1296281 -0.9853087 126 126 126
0.0822726961346989 0.147666123412631 0.0269221597857591 0.9471511 0.08800291 0.3084807 111 111 111
0.0229957920152137 0.0497505473798645 -0.0411775250519074 -0.03209873 0.04908463 -0.9982787 181 181 181
0.0606908106624831 -0.179019309456876 0.00624897862911802 0.5527967 -0.8330899 -0.01941529 87 87 87
-0.0363576632682761 0.171683705882906 -0.0284819099349884 -0.1035311 -0.03798827 -0.9939005 124 124 124
-0.0896211495284644 0.0016323808986991 -0.00605117505183567 -0.8697601 0.129691 -0.4761277 131 131 131
-0.0665804714201879 0.184675045767097 -0.00605889016284256 -0.2231574 0.969722 -0.09919725 52 52 52
0.0207315328404172 0.195802588826084 -0.0342846002233201 -0.02282627 0.2530742 -0.9671775 124 124 124
0.0615467976588446 0.0382008513129324 -0.0438275922562686 0.1527472 0.0009328646 -0.9882649 104 104 104
0.0830459935208463 0.126766522752005 0.0280243383301832 0.946731 0.1152975 0.3006773 109 109 109
0.0785194015285677 -0.166388173660477 0.0554730356130763 0.9668197 -0.1167497 0.2272206 84 84 84
0.079232510094998 0.0688022959471322 0.0312464778013194 0.9938838 -0.04439211 0.1011153 189 189 189
0.0338856356419064 -0.185198317556256 0.0324797789625302 -0.4340197 -0.8372375 0.3326563 68 68 68
-0.0679266805150802 -0.143409329600385 -0.025446550880529 -0.2118042 -0.2940381 -0.9320304 146 146 146
0.0771371642593519 0.171730837634509 0.0252997911988588 0.6400034 0.7181557 0.2732178 131 131 131
0.0671585257712746 0.18158391488367 -0.00286637697236453 0.5400758 0.8274917 0.1535434 117 117 117
-0.0962693314720484 0.0616435407041718 0.00410439461483006 -0.9721632 -0.2194548 -0.082087 93 93 93
0.0118843952978716 -0.157569740240449 -0.0339692570937216 -0.1416765 -0.2894427 -0.9466524 101 101 101
-0.0465097880723095 -0.0661731777466441 -0.0372244599207907 -0.2664192 -0.01175706 -0.9637855 212 212 212
-0.00512456319437282 -0.0383719837922383 -0.0387747290798748 -0.2729473 0.09782372 -0.9570425 97 97 97
-0.0642985126158586 -0.1512254512632 0.0222050202407131 0.005664787 -0.9718481 0.2355403 54 54 54
-0.0385252342584885 0.161379738237051 -0.027130283133403 -0.3368682 0.2227232 -0.9148301 123 123 123
-0.0771385959359616 -0.14640859104142 -0.0182736578562718 -0.2698888 -0.8786074 -0.3939658 119 119 119
-0.0299558447834696 -0.1580681506668 -0.0220188985681858 -0.0582713 -0.8967144 -0.4387571 80 80 80
0.0799469231937504 0.043828132905732 0.0358357818253732 0.985445 -0.09703616 -0.1395783 180 180 180
0.0289053954259919 0.148614658776535 -0.0404355735349149 0.07007658 -0.06523142 -0.9954065 108 108 108
0.0703437924237202 0.0220468840824473 0.00555608904307847 0.9778941 -0.107971 -0.1790683 152 152 152
-0.00685305470248254 0.0392828127884233 -0.0381238106736014 0.001596444 -0.01550348 -0.9998785 140 140 140
0.0531249311102062 -0.082108699908086 -0.0445489956092138 -0.04350442 0.08691895 -0.995265 113 113 113
-0.0977004065818177 0.0850101523580897 -0.00480244982591688 -0.9966792 0.00684365 0.08113945 57 57 57
0.0717808500575634 -0.0711716613997789 -0.029205894075216 0.9834642 0.06345917 -0.1696201 92 92 92
-0.104633859084203 -0.144654646247704 0.012555140865202 -0.05592753 -0.9960931 -0.06834225 77 77 77
0.0667994605497659 -0.0393729209058726 -0.044011722120793 0.9848437 -0.006805559 -0.1733103 196 196 196
0.0788995926906586 -0.0947743815008735 0.0117981053171578 0.9985872 -0.02850985 -0.04484195 154 154 154
0.075115304698655 -0.174143147224439 0.0449897505541182 0.1697699 -0.9744664 -0.1469466 58 58 58
0.0820932455038172 -0.146625866861045 -0.0313073880330691 0.9591895 0.1796736 -0.2183412 74 74 74
-0.0442788870464677 -0.158931578287462 -0.00415913968197204 -0.1645622 -0.9306213 -0.3268994 141 141 141
-0.0327858562464169 0.181383998192837 -0.0290819921051532 -0.09639136 -0.04401311 -0.9943699 134 134 134
-0.00659164107821031 0.0948543250156799 -0.0463209658246267 0.1582414 -0.07048302 -0.9848816 210 210 210
-0.0497277347587688 -0.113688127117337 -0.0273929402205355 -0.09504362 -0.003704457 -0.9954662 61 61 61
0.0772970396326116 -0.102548551125957 -0.00167037508084639 0.9990565 -0.04069914 0.01515938 136 136 136
-0.0650247209977586 0.0224717456073114 -0.0411186720438419 0.1421614 -0.2017051 -0.9690744 201 201 201
-0.0226285889262203 -0.15561893357494 0.039958106894854 -0.4029847 -0.9143912 0.03862804 24 24 24
-0.0239614993314543 -0.163968816793321 -0.00478203610357145 -0.3686182 -0.9268543 -0.07114541 90 90 90
-0.0168933458682274 0.0955548995293161 -0.0453349140882164 -0.2090917 0.1056202 -0.9721754 167 167 167
-0.06315547292844 -0.120182784058635 -0.0255605129820291 -0.2142676 0.150511 -0.9651092 85 85 85
-0.0522856825965397 0.0643479490601231 -0.0431569326073165 -0.1701128 0.3773033 -0.9103317 113 113 113
0.0817195261372006 0.0832882981045235 -0.0271096978940231 0.9628667 -0.2572454 -0.08193009 139 139 139
-0.057264032752721 -0.0822497696180384 -0.0237552234654714 -0.06407657 0.09119789 -0.9937692 159 159 159
-0.0129959602061418 0.152850468633283 -0.033263191080261 -0.362364 0.09451313 -0.9272322 154 154 154
0.0891501619437283 0.142204626828828 0.0055129059213179 0.9605319 -0.1154284 0.2530901 64 64 64
-0.0481716486904831 -0.0854453344919076 -0.0307179014957447 -0.9372467 -0.206674 -0.2808103 76 76 76
-0.102018478127624 -0.121693748390961 -0.0127408259291196 -0.3248846 -0.077868 -0.9425426 99 99 99
0.012886541976795 -0.178926017926273 0.0272360827707192 -0.2227046 -0.7977934 0.560293 87 87 87
-0.0312812176372161 0.0890992852810422 -0.0425969139052054 -0.09032378 0.1008768 -0.9907903 164 164 164
-0.0604601523851653 -0.152724403133802 -0.0140460349652842 -0.2553596 -0.9451813 -0.2035286 180 180 180
0.0313727035506983 -0.0887623758068765 -0.0429662746124618 -0.1295384 0.001368299 -0.9915735 61 61 61
-0.110290056814949 -0.145209940091488 0.0216136061540767 -0.06695582 -0.99349 0.09216585 81 81 81
0.0778647668433528 -0.158213112813321 -0.0359635254457303 0.06241657 -0.100107 -0.993017 101 101 101
-0.0305029857357821 0.0330558705661483 -0.0387337591661447 0.07921992 -0.2561918 -0.9633743 118 118 118
0.0399589579076705 -0.149035766129303 -0.0349638211949806 -0.1603668 0.003829433 -0.9870501 161 161 161
-0.0918308847337874 -0.148638564068642 0.00963810393993225 -0.3816846 -0.9233781 0.04110687 36 36 36
0.0715510542936459 -0.172320862816979 0.00655080700417643 0.1226595 -0.9722151 0.19938 39 39 39
0.0577633423566235 0.188267841181545 -0.0175315121243653 0.4955607 0.8678776 -0.03475747 209 209 209
0.0447364665817065 0.00131174732814365 -0.044661858315699 -0.05915313 0.1492926 -0.9870221 50 50 50
0.0795698927087414 -0.114273825842889 0.0370799504453784 0.9971774 -0.002877508 0.07502696 148 148 148
0.0586581956815824 -0.180034581234054 0.00635710265867001 0.5385996 -0.8353299 -0.1101563 86 86 86
0.0478512040452563 0.123102710868014 -0.0401121350874473 0.1525368 -0.134165 -0.9791487 224 224 224
0.0784636499143483 0.0464575556367455 0.0370417823900488 0.9998626 0.01509869 -0.006850084 132 132 132
-0.0816851776621159 0.0282346264038087 -0.0362510277552172 -0.7860653 -0.5284148 -0.3207476 46 46 46
-0.112388750326785 -0.116111364977154 -0.00121544859243938 -0.8911346 -0.1406609 -0.4313856 26 26 26
0.0762927553552131 -0.061428316210702 0.0170832696118918 0.9890119 0.09038743 -0.1169849 103 103 103
-0.122986241365495 -0.112812984250319 0.0117258232662614 -0.9595844 -0.09197669 -0.2659661 136 136 136
-0.0405418344788107 0.056688307959309 -0.0457194659802031 0.1712696 0.04095107 -0.9843727 135 135 135
0.0384054467447474 -0.0281533848323762 -0.0450875070582311 -0.1640273 0.05585421 -0.9848733 172 172 172
-0.0808230273535457 0.109209428592391 -0.0315700408846729 -0.0226439 0.2322071 -0.9724028 158 158 158
0.0530383263290264 -0.173456837126056 0.0599303336380076 0.05709568 -0.9904145 0.1257744 47 47 47
-0.0242228043769419 -0.155810631269448 -0.0299498006547886 -0.05686424 -0.872836 -0.4846893 104 104 104
0.0532933969359672 0.184504636165005 -0.0356514784641383 0.2222284 0.3002713 -0.9276053 62 62 62
0.0717059771429929 -0.172770951401171 0.0613109868789964 -0.05116459 -0.9983341 0.02666805 111 111 111
0.0103942173879101 0.0169565990111129 -0.0398128691402708 -0.1038318 -0.007431925 -0.9945671 100 100 100
0.0782890578166082 0.17213555655597 0.00512007242488577 0.6455627 0.7580975 -0.09239538 152 152 152
-0.0373803761701175 -0.0648249756997051 -0.0393844491836047 -0.1572247 0.04352451 -0.9866033 226 226 226
-0.0223809689300136 0.152640981910616 -0.0304110037222099 -0.2680084 0.04707132 -0.962266 146 146 146
-0.0735334776315071 0.149585163060782 -0.0232521536899734 -0.1225424 0.1421127 -0.9822359 120 120 120
0.0347259290170094 0.0625518521285553 -0.0404074265591367 -0.1283517 0.03698265 -0.9910389 157 157 157
0.0785018361619936 0.070474696275082 0.00794247142525489 0.9639485 -0.2612166 -0.05068564 62 62 62
-0.021654024906649 -0.160439517045414 -0.0177182650132387 -0.01740725 -0.9034463 -0.4283478 83 83 83
0.0241478528258314 -0.146164685962855 -0.0341307028825999 -0.003236965 0.07440893 -0.9972225 157 157 157
-0.0967548550715795 0.123018960042406 -0.00575579241138988 -0.9699538 -0.1303145 0.2054454 56 56 56
0.023198773635666 0.0195300059509016 -0.0421712832534912 -0.1248667 0.04619238 -0.9910977 116 116 116
-0.00405308559352457 0.0244938740768139 -0.0388135041507429 -0.1506431 -0.008005657 -0.9885558 124 124 124
-0.0446953027909429 -0.154026418716928 -0.0190729136052175 -0.213732 -0.9408025 -0.2630766 84 84 84
-0.0831947785900979 0.172784677428162 -0.0147633690583854 -0.8173053 0.5447557 -0.1877584 43 43 43
0.0493575478151835 0.185218024649121 -0.0363426690029718 0.109155 0.2878928 -0.9514216 43 43 43
-0.0899274466310063 0.0512156503855536 -0.0342962087495288 -0.9601853 -0.2642398 -0.09067306 95 95 95
0.00744079699051214 -0.17342473174226 0.0359455403070369 -0.1630013 -0.9540506 0.2514319 50 50 50
0.066842356176962 -0.164019170821465 -0.0325322079964125 0.01039105 -0.9047524 -0.4258111 75 75 75
0.0461125482058389 0.116856101157102 -0.0388090668430149 0.1054301 -0.1177121 -0.9874352 195 195 195
-0.0652833345634747 -0.125904305075223 -0.0254466972104124 -0.2339799 0.02935644 -0.9717981 113 113 113
-0.0511573604449151 0.081198062690143 -0.0379417330951004 -0.1650653 0.09642066 -0.9815582 179 179 179
-0.0556991763514407 0.165988939311045 -0.0256779752029711 -0.148446 -0.09113389 -0.9847124 146 146 146
0.0339077703597352 -0.164364153786845 -0.0339238567608277 -0.1131602 -0.6993383 -0.7057767 124 124 124
0.0680909582831091 -0.05215327667642 -0.036921805453707 0.9516225 0.09375869 -0.2926156 230 230 230
-0.0212751393954345 0.195528927885217 -0.0276277207795688 -0.4156453 0.8334619 -0.3641156 129 129 129
0.0183542385049376 -0.0878615653788077 -0.0422272914882997 -0.08004211 0.08090161 -0.993503 54 54 54
0.045964491919285 0.164656274721215 -0.03843824942072 0.1417976 0.05312197 -0.9884692 58 58 58
0.0672765679019114 0.181497560066782 0.00922722113872568 0.5741577 0.8165306 0.06017246 153 153 153
0.0687363767618696 -0.0284897476892658 -0.0285315472097704 0.9897192 0.1139602 -0.08642387 111 111 111
0.0413306010706047 -0.14129946078234 -0.0348991402228575 -0.2918249 -0.09130467 -0.9521038 179 179 179
0.00975893957855467 -0.181461677833587 0.00650763746451871 -0.09335577 -0.9356045 -0.3404833 126 126 126
-0.0996937641171063 0.129823799904981 -0.012558724479131 -0.9756551 -0.1455585 0.1640425 38 38 38
-0.0654180564080264 -0.0143766428142972 -0.0172600494111754 -0.9139446 -0.2169156 -0.3430056 30 30 30
-0.0887851033434202 0.0494107388984537 -0.040863447042872 -0.8831493 -0.3958003 -0.2517726 153 153 153
-0.0271360750405187 0.0705514693614187 -0.0460771239075612 0.1155087 -0.02896748 -0.992884 163 163 163
0.0105711548579785 0.103626111070623 -0.0439226606637511 0.03009544 -0.1964854 -0.9800448 184 184 184
0.074259940544477 -0.0499147651654539 0.0463844621301824 0.9953944 0.002411208 0.0958337 39 39 39
0.00190286413302454 -0.18206006741937 0.0109768094408021 -0.4171204 -0.893573 0.1659451 129 129 129
0.0656673609299316 -0.0365268235363728 -0.0415564062133406 0.9881549 -0.0005428983 -0.1534591 77 77 77
-0.0110466137674603 -0.100025863689605 -0.0413396614533781 -0.08247862 -0.05052514 -0.9953113 132 132 132
0.064916406540477 -0.173073528917117 0.0335924026639163 0.2369445 -0.9574385 -0.1648293 70 70 70
-0.0146520728053989 -0.158875266267778 0.0280089686418684 -0.4542907 -0.8877504 0.07429028 52 52 52
0.0481386039018861 0.0342667569652084 -0.0427114973832815 -0.0004943705 -0.02282428 -0.9997393 141 141 141
0.0260265059764055 -0.121147411235917 -0.0369224842145979 -0.1795691 -0.3708824 -0.9111538 136 136 136
0.0507525498642876 -0.0240121025636827 -0.0457188256446341 -0.09149078 0.1358546 -0.9864953 112 112 112
0.0515766870679197 -0.176791349491989 -0.00818115292989435 0.03755227 -0.8825136 -0.4687851 216 216 216
-0.00581550154859034 -0.167116510673374 -0.00721815262831021 -0.147758 -0.820865 -0.5516776 142 142 142
-0.0562337918545612 -0.138758599336794 -0.0271235662603519 -0.1586397 -0.07129295 -0.9847593 124 124 124
-0.0363420806733368 0.19016018913955 -0.00829363874884603 -0.09262931 0.9956368 -0.01127309 64 64 64
0.0200526331396915 -0.170782720710985 0.0522012256104563 -0.2563416 -0.957032 0.1355684 28 28 28
0.0042059474502838 0.207553657391254 -0.0218259250371593 -0.5234998 0.8510242 -0.04130122 62 62 62
0.0670541853207118 0.0198368485044449 -0.0171125211612922 0.9777287 -0.1129324 -0.176898 168 168 168
-0.0699908506949383 0.0323353773637371 -0.0437685070005655 0.1041418 -0.1778021 -0.9785402 190 190 190
0.00268979023995808 -0.0375497967416036 -0.0405730028052891 -0.2617558 0.06709516 -0.9627991 103 103 103
-0.047892507385471 -0.0351762000987759 -0.0353480354302031 -0.05391306 0.09008463 -0.9944738 157 157 157
0.0755348498419046 0.116986002954439 -0.0375740379640338 0.2201837 0.0598413 -0.9736211 42 42 42
-0.0274158259024175 0.0210604285700591 -0.0356750992075682 -0.009805012 -0.2315946 -0.972763 120 120 120
-0.0699875237929644 -0.127426935077957 -0.0245133545855242 -0.1745821 -0.02050936 -0.984429 144 144 144
0.00671034661025427 -0.160561715471828 -0.0289982947790037 -0.1696378 -0.8930326 -0.4167923 66 66 66
0.026278578290631 0.183562811313871 -0.0386165312256262 0.04630568 0.2077802 -0.9770789 163 163 163
-0.0463091174205528 0.118029213897387 -0.030425451381112 -0.1590959 0.09183047 -0.9829831 112 112 112
0.0792457058326477 -0.133413729875785 0.0067518514303995 0.9898687 0.1244849 -0.06828916 49 49 49
0.0817894129977828 0.144837926851097 -0.0351536353295823 0.1611886 0.1094223 -0.9808389 52 52 52
0.00169256717064714 -0.17966600803629 0.00499769159165775 -0.1971459 -0.7814845 -0.5919589 208 208 208
-0.00729125060628188 -0.05168632576722 -0.0406329618633727 -0.04728903 0.1950269 -0.9796572 96 96 96
-0.0963868557068097 0.00484040558538545 0.0026523474744497 -0.7293137 0.1572098 -0.6658729 154 154 154
-0.00938415148978278 -0.152008243734588 -0.0322233096500017 -0.05863889 -0.1183641 -0.9912373 73 73 73
0.0111439509593523 -0.12158800474897 -0.037573335438591 0.1114603 -0.3676675 -0.9232536 142 142 142
-0.0335183857214973 0.0195339319260441 -0.0352580097022191 0.06710105 -0.2513557 -0.965566 173 173 173
0.0743065690521112 -0.0723150967391346 -0.0128313749206042 0.991891 0.06981011 -0.1062014 65 65 65
0.0706573869683056 -0.145928256131068 -0.0371383977199396 0.1325869 -0.2091887 -0.9688451 213 213 213
0.00372945593503138 -0.150449685302617 -0.0322169459108456 -0.1322753 -0.02282907 -0.9909501 142 142 142
-0.0655340798764241 0.0727220410245644 -0.0402388548404991 -0.002649292 0.3258034 -0.9454339 144 144 144
-0.0270146371213817 -0.15729378936491 -0.0247538240765027 -0.1158795 -0.9080132 -0.4025965 49 49 49
-0.0659293007603208 -0.0824718706139301 -0.0233284546023141 -0.2883232 0.08086068 -0.9541128 66 66 66
-0.006072979111865 -0.16394922383307 0.0258912447267655 -0.5885118 -0.7856509 0.1908049 61 61 61
0.0840845013078879 0.0933920963914625 0.000315987649051663 0.987037 -0.1578339 0.02909373 122 122 122
-0.0760292263664355 0.00370440084710633 -0.0126553546861544 -0.3066482 0.02440758 -0.95151 156 156 156
-0.094615354922071 0.149099098163987 -0.000803916971945096 -0.8336413 0.530897 0.1522846 50 50 50
0.0799396477766559 -0.16259345455544 0.0357998176022903 0.9930911 0.02919435 0.1136564 59 59 59
0.07290953161626 -0.0379409215802442 0.0248354350172094 0.9940284 0.09559721 -0.05261814 85 85 85
-0.0255618447793933 -0.164937286637844 0.00324098639652115 -0.2950081 -0.866433 -0.4028201 159 159 159
-0.0477803454024857 -0.15206036290484 0.0316299837215377 -0.3345295 -0.9418929 0.03046046 46 46 46
-0.031267038805455 0.191734183408658 -0.00558404897485679 -0.3161592 0.9446856 -0.0872489 55 55 55
0.0779612465947923 -0.0850258170416268 0.0282239213085711 0.9982715 -0.05664394 0.01566761 171 171 171
0.0872425863703605 0.109201075988278 -0.0111348343378368 0.9584008 -0.2830443 0.03679311 138 138 138
-0.00305294052296556 0.169816098378527 -0.0358201958813196 -0.2581197 0.205607 -0.9439809 152 152 152
0.0484307996247173 -0.188420707860169 0.0138371323068541 0.304364 -0.9441316 -0.1264049 126 126 126
-0.0135483007305943 -0.0816230081745691 -0.0420265895770403 -0.05291716 -0.0261419 -0.9982567 164 164 164
0.018731302087998 -0.183475147863942 0.0200984690033518 -0.2078987 -0.9565361 0.2044918 154 154 154
0.0743539262646506 0.175582173640419 0.0108034838936139 0.5956062 0.7961397 0.1068398 129 129 129
-0.0578229375142212 -0.0227072631973021 -0.0336959229344631 -0.1827103 -0.2865216 -0.9404905 145 145 145
-0.0617841728927284 0.128108450762377 -0.0280312219580003 0.04427262 0.2309976 -0.9719465 141 141 141
-0.01628899945739 0.100108385634622 -0.0452563099284724 -0.2461403 0.1840599 -0.951597 124 124 124
0.0177391861432663 0.0522476501331448 -0.0403986195826296 -0.0695218 0.06324999 -0.9955733 163 163 163
0.0210167334746791 -0.116783625269336 -0.0397948955932499 -0.06575812 -0.6020181 -0.7957701 113 113 113
0.0650114243229067 -0.143982953052257 -0.038398011120152 0.02403205 -0.2503732 -0.9678511 150 150 150
0.0688273364107301 -0.17090156901888 0.0280520987926713 0.1278323 -0.9914189 -0.02733974 44 44 44
-0.0916468790738425 -0.00834818878270083 -0.00168753197591465 -0.8925569 -0.02591517 -0.4501895 178 178 178
-0.0530047656037786 -0.0345865145131005 -0.0310986100119479 -0.7836391 -0.2429035 -0.5717583 102 102 102
0.0129670389761745 -0.0786374610351679 -0.0416583713050001 -0.1398041 -0.03918442 -0.9894035 84 84 84
0.0530714091673952 -0.177244044597542 -0.00847197083753212 0.01821182 -0.9194931 -0.3926842 209 209 209
-0.0974383868737445 0.0949383832418942 -0.00357989246367291 -0.995504 0.06362976 0.07016374 77 77 77
0.0157422815915922 0.124032174779137 -0.0432578154935258 -0.0965786 0.1470947 -0.9843961 82 82 82
0.0855391077169743 0.101118952432256 0.0273947394564588 0.9937097 -0.008944836 0.1116291 32 32 32
0.0334433318454694 -0.176876432751754 0.0481924231250946 -0.4584238 -0.8583456 0.2304136 48 48 48
0.0264639047189772 -0.173975372085805 0.045606914653437 -0.3876383 -0.897032 0.2122973 33 33 33
0.0194511821482388 -0.175798378117587 -0.0091227816368406 -0.3329453 -0.7963095 -0.5050133 112 112 112
-0.0361054032427828 0.191002763720949 0.0140994818356489 -0.168919 0.9854501 0.01882664 67 67 67
0.0348563941877336 -0.160576823995996 -0.0352608681071868 -0.04904568 -0.1236816 -0.9911092 169 169 169
-0.0960415203678315 0.119812526403019 -0.00239153011757437 -0.9865434 0.00630619 0.1633781 31 31 31
-0.0909127904221334 0.116544109868948 -0.0292358037479501 -0.09805387 0.2132693 -0.9720605 150 150 150
0.0766362402296297 -0.135017119837356 -0.0393395842437681 0.5056987 -0.1516961 -0.8492686 157 157 157
0.0407803015672967 0.174534669623399 -0.0389906173617788 -0.008685713 0.1260676 -0.9919837 25 25 25
-0.102534095166422 -0.111086094273753 -0.0129120391844206 -0.3879059 -0.09975369 -0.916285 130 130 130
0.0234367814311218 0.0461277816970505 -0.0407480982577209 -0.03391747 0.03156593 -0.998926 170 170 170
0.0735431255876451 0.0043125004554867 0.0310866497183125 0.9738052 -0.1040855 -0.2021621 123 123 123
-0.061112836046592 0.0554668054300878 -0.046313303843019 0.03208134 0.2838725 -0.9583252 117 117 117
-0.00210098824552851 -0.170945991647617 -0.00327383062330891 -0.2374238 -0.8221406 -0.5174116 165 165 165
-0.086306620411738 0.0255875668938581 -0.00592232775117182 -0.7697099 -0.3149076 -0.5553196 75 75 75
0.0528342935971597 0.190877032172643 -0.00951717061201718 0.5200859 0.8537735 0.02411387 165 165 165
-0.0367004325832521 -0.159888667020664 -0.00615462197512895 -0.2550882 -0.8999754 -0.3535171 92 92 92
0.0216454227219676 -0.145651313422271 -0.0337499425801369 0.004290492 0.05513089 -0.9984699 195 195 195
0.0486066899497608 -0.0191021948849158 -0.045403117620459 -0.110166 -0.002693529 -0.9939095 141 141 141
0.0723397816725213 -0.0164460797569814 0.0163374574759834 0.984292 -0.1036326 -0.1429315 102 102 102
-0.0345218264827576 0.190814706928328 -0.00852817591934579 -0.2040174 0.9785246 0.02943608 61 61 61
0.0725015791204622 -0.0434525431595495 0.00242923856134081 0.9859319 0.1640547 0.03200465 85 85 85
0.0484966121546364 -0.117287516858071 -0.0427273391888378 -0.09254301 -0.1121614 -0.9893713 122 122 122
0.0664008553786282 -0.155898005270719 -0.036926624427255 0.05717674 -0.04711521 -0.9972517 152 152 152
0.0305191467379884 -0.1855205245933 0.00990607276037395 -0.2828297 -0.9495665 -0.1353915 161 161 161
0.0443899944543515 0.168460784663298 -0.0386521843051241 0.131423 0.04021799 -0.9905102 94 94 94
-0.0151499012256964 0.0238421375577329 -0.036541004783637 -0.07575697 -0.1597577 -0.9842451 107 107 107
0.0497139531434025 0.193580294478031 -0.0281783702900826 0.5690548 0.8161003 -0.1007818 209 209 209
0.0822453241053713 -0.153522372229363 0.00747121819704033 0.9989638 0.01456215 -0.04311943 159 159 159
0.00442486412527243 0.203853694470025 -0.0311851271643371 -0.2946301 0.354849 -0.8872854 128 128 128
-0.0914975831488061 -0.132282488035534 -0.0148366751172294 -0.5227129 -0.08636693 -0.8481226 140 140 140
-0.0175823042847871 -0.00663151318826749 -0.0349571243019257 -0.01048169 0.1027587 -0.9946511 150 150 150
0.00723353895425571 -0.139750731026975 -0.0340714946180638 -0.1186456 -0.07547098 -0.9900643 124 124 124
0.0447656434317625 0.0962848877037332 -0.0379713387744892 0.009914479 0.06819536 -0.9976227 194 194 194
-0.0726699754654634 -0.0272183688283509 -0.0140613600674723 -0.142605 0.08932798 -0.9857405 99 99 99
-0.0563199877459888 -0.0245081896981435 -0.0331736280150627 -0.2233099 -0.2715531 -0.9361579 156 156 156
-0.00192083302517254 -0.0667456175760441 -0.042221333083867 -0.03291855 -0.08213288 -0.9960776 133 133 133
0.0481254028872979 0.194729940632325 -0.0100966108198713 0.5852608 0.8050503 0.09676635 155 155 155
-0.00964477508465578 -0.163409492268761 0.0414591763388545 -0.5544076 -0.8287614 -0.07607079 34 34 34
0.0625583049271534 -0.177291642437443 0.00737063812601149 0.6679525 -0.7322243 0.1329927 41 41 41
0.0702577383969247 -0.0372772823011459 -0.0135967723952443 0.9866852 0.1575196 -0.040495 91 91 91
-0.0838893208971463 -0.119988368298986 -0.0215695060877931 -0.4424436 -0.005727574 -0.896778 184 184 184
0.0400384643122753 -0.187080702495032 0.0136486523147484 -0.1959149 -0.9715009 -0.1334292 102 102 102
0.0606716924598154 -0.0486820243104074 -0.0489952924817679 0.01093572 -0.3924702 -0.9196997 218 218 218
0.00604018347126667 -0.0519774204898305 -0.0416607975179495 -0.1664725 0.01619793 -0.985913 117 117 117
-0.0390543737856626 -0.110804679516655 -0.0297771339895866 -0.3132406 0.07916932 -0.946368 91 91 91
0.011504151299186 -0.162591828236818 -0.025160493819467 -0.1566076 -0.9066984 -0.3916274 71 71 71
0.0459367603821823 0.195080896050082 0.00894480743448986 0.4385247 0.8907797 0.1191956 121 121 121
-0.000915605059055302 0.174892714023446 -0.0352581873457792 -0.1585617 0.1708107 -0.9724618 168 168 168
0.0152455353193122 0.00631317344833304 -0.0404715638032281 -0.1856776 0.05402939 -0.9811242 71 71 71
0.0386857622774666 -0.117079142009308 -0.0414670691318839 -0.1308385 0.01064271 -0.9913466 125 125 125
0.069110064970916 -0.0107538581011111 -0.00960070129239926 0.992188 0.02823817 -0.1215139 172 172 172
-0.117395774550838 -0.0900967902132614 0.0104075766625565 -0.8363968 0.4221485 -0.3496155 81 81 81
0.0518798644424447 -0.0601333707143739 -0.0438191777878508 -0.1873705 -0.1390896 -0.9723921 97 97 97
-0.00256301393790581 0.0559852547894897 -0.040435353514143 0.1628031 -0.05999918 -0.9848326 157 157 157
0.0111633108856832 -0.173537699569451 -0.00593362923410776 -0.3208756 -0.7943293 -0.5158293 198 198 198
0.0145634444624654 -0.114370745560921 -0.0404168932205592 -0.1746085 -0.3609096 -0.9161093 120 120 120
0.0694429670081478 -0.163642244813093 -0.0343188274968959 0.03744559 -0.7995054 -0.5994906 49 49 49
-0.104438860696785 -0.116408412895922 -0.0121766295797817 -0.4029685 0.01359275 -0.9151129 128 128 128
-0.00170450188878757 -0.170431813942993 -0.00550222922929158 -0.2560634 -0.8176283 -0.5156699 91 91 91
-0.0772750242790576 -0.0562960290344086 -0.0165370862047767 -0.1995358 0.1627308 -0.9662837 133 133 133
-0.0241974451487814 0.032443012507724 -0.0382682391378383 0.03290485 -0.2610131 -0.9647743 120 120 120
-0.0684257148620895 -0.044016223085489 -0.0158137499954014 -0.1894837 0.01341265 -0.9817923 122 122 122
-0.110264468874261 -0.125869041172988 -0.00301224885380141 -0.8760107 -0.2042606 -0.4369015 64 64 64
0.0399969167558019 -0.167414588216466 -0.0313182793662408 -0.1990854 -0.8431236 -0.4995075 82 82 82
-0.00737977702911818 -0.160468139124139 -0.0218603905245573 -0.1918495 -0.9112105 -0.3645396 103 103 103
0.0886966054637486 0.1145685149838 -0.00690460891160533 0.9474735 -0.3046121 0.09749616 41 41 41
-0.0391135905014934 0.189570598371339 -0.0156952204054738 -0.2554715 0.9627177 -0.08893289 48 48 48
0.0946437412321472 0.129269947683113 -0.0319228637668973 0.6498658 -0.1753026 -0.7395562 54 54 54
-0.115597919463249 -0.0978308080799457 -0.000369536742504478 -0.8354504 0.3172477 -0.44875 84 84 84
-0.0121016824235789 0.19852342527262 -0.0232456788543178 -0.3426596 0.9393951 0.01100974 81 81 81
-0.0280322222872345 0.192492111607346 -0.0209850558343041 -0.2791922 0.9602351 0.0005081952 51 51 51
-0.0108825402232839 -0.15498662951711 -0.0314625984663827 -0.07173703 -0.6517388 -0.7550433 60 60 60
-0.0778300315128853 0.0491486773884011 -0.0462571040696991 -0.0855868 0.06069192 -0.9944805 196 196 196
0.0867069810055554 0.122952307860661 0.0150452543520538 0.9599401 0.01444069 0.279833 48 48 48
0.0702757901456508 0.0378426083302339 -0.0103741662946093 0.9876187 -0.1283559 -0.09018908 145 145 145
-0.096977489554094 0.145478067294781 -0.000932961236622676 -0.9131442 0.3456191 0.2161368 106 106 106
-0.0963545861173434 0.109107178192827 -0.000493474187241383 -0.9854735 0.05926652 0.1591527 45 45 45
0.0239262194390104 -0.162673255486168 -0.0328980972788762 -0.1898856 -0.8131261 -0.5502449 123 123 123
-0.0120626688437113 0.180696742513294 -0.0325590562018227 -0.1368163 -0.03073748 -0.9901195 133 133 133
0.0366112859316847 -0.159053054751979 -0.0351833127438576 0.005996779 0.03848151 -0.9992413 199 199 199
-0.0042001453274545 -0.116061239712811 -0.0397153686548953 -0.04777696 -0.3408649 -0.9388975 168 168 168
0.0854917163179536 0.166333358898545 -0.0105845598007648 0.5852545 0.8107319 -0.0138191 193 193 193
-0.0681235624305514 0.122138128516395 -0.0290247773696272 -0.1147825 0.1293183 -0.9849374 137 137 137
-0.0751808205329687 -0.106519264040598 -0.0232489141058762 -0.05368897 0.03903173 -0.9977946 158 158 158
0.0822407889276886 -0.151796831817091 0.00872288738918287 0.9994119 0.02828075 -0.01939296 134 134 134
0.0347997164737506 -0.183025729017822 0.00168643200809465 -0.05049295 -0.9552037 -0.2916102 121 121 121
0.0244179769169945 -0.0167539554103829 -0.0416519037076506 -0.3227805 -0.1140614 -0.9395759 165 165 165
0.0850417358058673 0.0978973777893437 0.00272105909114828 0.9839008 -0.174622 0.03803007 165 165 165
0.073305872924033 -0.00507015393034882 0.0300134663402559 0.9977776 0.02550571 -0.06155766 136 136 136
0.091279687001864 0.146424986553536 -0.00378940423140958 0.9519089 -0.1947156 0.2365486 76 76 76
0.0724379248933325 -0.170494449018615 0.0229933774258196 0.2030754 -0.9786412 -0.03196636 44 44 44
-0.0852957118808089 0.0349233608205506 -0.0244603107184458 -0.9371167 -0.3488976 -0.009097199 63 63 63
-0.094974193462904 0.147935201513472 -0.000484974305098057 -0.8472679 0.5023217 0.1726556 26 26 26
0.0542186053720468 0.16605238970496 -0.0373120176302081 0.1142073 0.1012205 -0.988287 79 79 79
-0.0987249826255558 0.147115575565087 -0.0154335869466765 -0.8321456 0.5469257 0.09168372 45 45 45
0.0776610740228945 -0.167513511719606 -0.021837611915848 0.1817857 -0.9642835 -0.1926428 78 78 78
-0.0187250757289861 0.194601380001957 -0.018455574515439 -0.3591075 0.9332585 0.008390074 64 64 64
0.0369658468215022 -0.186654870126382 0.0274466087722556 -0.001793825 -0.9898958 0.1417854 83 83 83
-0.00723101626373657 -0.166123071059025 -0.00906059625283276 -0.1475029 -0.863055 -0.4830931 145 145 145
0.0289977882714942 -0.178156430163176 -0.00853747177820649 -0.1268085 -0.8629453 -0.4891269 111 111 111
0.0915323913584549 0.135767574853279 -0.000604413682986304 0.9740136 0.0227149 0.2253477 67 67 67
0.0828268138267809 -0.168226312419828 0.00219750995511625 0.8493973 -0.5004656 0.1675065 150 150 150
0.00892698483377297 0.11101842422265 -0.0446673873920113 -0.03587757 -0.04750831 -0.9982263 146 146 146
0.0338559712721027 0.196194585466543 0.0186102045293937 0.2024317 0.7835306 0.5874532 89 89 89
-0.0669454113041992 0.0954282130219211 -0.0345289686047026 -0.05764489 0.1703592 -0.9836945 179 179 179
0.0589475258241268 -0.0414140614731098 -0.0503752728468642 -0.03257595 0.01495332 -0.9993574 143 143 143
-0.0795829260065353 0.0240842002975099 -0.0337895063458527 -0.8007146 -0.4717118 -0.369248 54 54 54
-0.0828726495471264 0.0270119196568122 -0.0255669212734356 -0.9233744 -0.3817128 -0.04092936 49 49 49
-0.0606455287456571 -0.0675265541517653 -0.0218287953361797 -0.2342771 0.1741373 -0.9564468 80 80 80
-0.0924845142533153 0.0818047783962343 -0.0358990568082888 -0.4101141 0.1094996 -0.9054371 168 168 168
0.0681922587864885 -0.0490839952997798 -0.0369412866343169 0.9658074 0.0965209 -0.2406239 166 166 166
-0.0694362978723593 -0.0115956030928728 -0.0140529696685442 -0.3257492 -0.1166091 -0.9382376 88 88 88
-0.0267700794388981 -0.163499431422337 -0.00649376906638174 -0.3224087 -0.9412532 -0.1004743 93 93 93
0.00346690820113915 -0.174563498060914 -0.00171764058481244 -0.2428116 -0.7615265 -0.6009325 148 148 148
0.0962721180235837 0.156738844955377 -0.0205886861351321 0.9476881 0.2263839 0.2250279 111 111 111
0.0890031543133181 0.163216447150249 -0.0159497716304693 0.6062765 0.7705038 0.1968571 135 135 135
0.0614080674761857 0.174808557172814 -0.0358519382269434 0.08942134 0.1022426 -0.9907322 68 68 68
0.0107938422872231 0.0732267106045685 -0.0410463817743172 0.08625682 -0.03960489 -0.9954854 133 133 133
0.0198657875162001 -0.0478910666180532 -0.0454295538826403 -0.04584159 -0.05177782 -0.9976059 79 79 79
0.0584388951321126 -0.144765364412187 -0.0378052442194452 -0.09475317 -0.1737889 -0.9802139 151 151 151
0.0713874648520183 0.176311941860053 0.0196550442747667 0.5246844 0.8462657 0.09241597 133 133 133
0.081349764277125 0.0762604456500984 0.0273395802024824 0.9871006 -0.1332855 0.08869818 178 178 178
0.0631162388933388 0.104164883658906 -0.0384768151224938 0.05039359 0.0008985112 -0.9987291 88 88 88
-0.0488833057607692 0.027054161561084 -0.0387090156642858 0.1365324 -0.2614092 -0.955523 153 153 153
0.0776021827050641 0.019623788311913 0.041481189058427 0.9975172 -0.0333204 -0.06204206 110 110 110
-0.00153294352224576 0.195090818107527 -0.0332236694753928 -0.1328482 0.2112925 -0.9683526 173 173 173
-0.0491748941017276 0.188254460414069 -0.00724177565366785 -0.2842988 0.954609 -0.08885898 75 75 75
-0.0588707454889046 -0.0398935699228564 -0.0231789633455327 -0.850841 -0.1031056 -0.5152076 76 76 76
0.0392081523658181 -0.170811031041137 -0.0237944978544345 -0.1113585 -0.8755686 -0.470084 127 127 127
-0.0706693172111548 -0.0644464089381923 -0.0194178569248702 -0.1826084 0.1709373 -0.9682121 109 109 109
-0.0180384849985247 -0.15630326647594 -0.0284798854383499 -0.0471593 -0.8988159 -0.4357821 84 84 84
-0.07294940463842 -0.14305385494124 -0.0252073236660776 -0.2394307 -0.3746537 -0.8957162 183 183 183
-0.0370787934009154 -0.156574560576295 0.0117585108781777 -0.1206296 -0.7690925 0.6276506 67 67 67
0.0754905147470954 -0.171088349403645 0.0339745971107639 0.07768702 -0.988928 -0.1264368 87 87 87
-0.0847934368659513 0.0684168669870471 -0.0399897486212742 -0.113156 0.2300719 -0.9665726 148 148 148
0.0626064569643847 0.0707545423573135 -0.0416841372573263 0.01026947 0.09053938 -0.99584 94 94 94
0.0502211732306579 -0.180910047460766 -0.00311428346485151 0.233854 -0.8666751 -0.440666 142 142 142
0.00659538555387362 -0.175760021204831 -0.0011865766339017 -0.175424 -0.770453 -0.6128855 192 192 192
-0.0980614241758677 0.101380157289592 -0.0248655177403078 -0.9751099 -0.1316519 -0.1784054 126 126 126
0.0103197277634473 -0.168603959493881 -0.0129668206306577 -0.3818537 -0.7924396 -0.4756335 133 133 133
0.0753224251814468 -0.115719755859258 -0.0330620702795278 0.9843911 0.1551451 -0.08309139 93 93 93
-0.0700855963029565 -0.0683800461616615 -0.0204266807582872 -0.2202518 0.2150887 -0.9514337 101 101 101
-0.0672517697931689 0.00240883547057935 -0.0399633020627321 -0.3716239 -0.2508536 -0.8938502 184 184 184
-0.0331835604030024 -0.159878153908797 -0.0175214761742605 -0.2955295 -0.9509081 -0.09184789 96 96 96
0.0771243440514833 -0.0644619325992212 0.0175905696503163 0.9864365 0.07522635 -0.1458903 138 138 138
0.077941320827529 -0.171749940296001 0.00116354315962403 0.4285305 -0.894356 0.1284097 33 33 33
0.0582355672544295 -0.176882246424304 0.0324937996240438 0.7824674 -0.6223348 -0.02107721 39 39 39
-0.0362547337094341 -0.157823271288241 -0.022185065651193 -0.3048672 -0.8989994 -0.3144138 93 93 93
-0.0247646564196482 0.0403044085649504 -0.0406942449828376 0.04287872 -0.1393519 -0.9893141 200 200 200
-0.00780010514698759 -0.164156282830781 -0.0131056987941704 -0.1755654 -0.8696309 -0.4614314 103 103 103
0.0960135736218568 0.138893094736319 -0.0321650170391976 0.588353 -0.03120842 -0.8080017 38 38 38
0.0651822266552817 0.171000845793987 -0.0358822950221301 0.08125295 0.05506983 -0.995171 67 67 67
-0.0584019993716796 -0.0966879292206224 -0.0274538812970672 -0.1980611 0.2441607 -0.9492931 43 43 43
-0.0924966640869149 0.0662823433695801 -0.0325719517874588 -0.9776398 -0.2100724 0.009486056 87 87 87
0.0766020051531431 0.175804570119758 -0.00758360925753032 0.6949574 0.7159945 0.06622722 147 147 147
0.0229806035843318 0.0479558335015589 -0.041170415667257 -0.02866681 0.01646775 -0.9994534 177 177 177
-0.0973749554920831 -0.0132252055923781 0.00604020198457625 -0.7447969 0.003270559 -0.6672832 80 80 80
-0.087801740801615 0.0381689311405218 -0.0198771586325034 -0.897658 -0.3826894 -0.2185382 126 126 126
-0.0122390463795599 -0.175934166084368 0.00531223947026863 -0.4294809 -0.90298 0.01316325 118 118 118
0.0502411334112152 -0.0424735905640771 -0.0500556665466961 -0.1410925 -0.06073593 -0.9881316 176 176 176
-0.0169757463990061 0.0558522498620702 -0.041599784384773 0.07763758 -0.1961028 -0.977505 171 171 171
-0.0910085183200935 0.0543469410170436 -0.037240730586872 -0.9543963 -0.2855044 -0.08726338 157 157 157
-0.0477557763609022 0.161383641489941 -0.0262107840838741 -0.06140629 -0.08573257 -0.994424 174 174 174
-0.0365911199604496 -0.0808773372598263 -0.0390603357748519 -0.1903686 0.01572634 -0.9815867 169 169 169
0.00762682533375658 0.195761008293934 -0.0337516659343078 -0.02411162 0.2577421 -0.9659129 163 163 163
0.0531341903107867 0.191317750336847 -0.016816489450145 0.5586599 0.8226484 -0.1055876 198 198 198
0.03696465385456 -0.186225671681118 0.0273374005120637 -0.001793825 -0.9898958 0.1417854 64 64 64
-0.0237574124764368 -0.0292565224954057 -0.034589952663711 -0.02047889 0.03644988 -0.9991256 103 103 103
-0.0880336755325537 -0.0696091377206034 -0.0106593856962736 -0.758626 -0.02617917 -0.6510002 98 98 98
-0.0951157300550709 0.0758811450049222 -0.0339086916592282 -0.9309307 0.0100004 -0.3650589 106 106 106
0.0746550872796088 -0.0954462319364652 -0.0259291791679079 0.9686025 0.2298516 -0.09474917 77 77 77
0.0861672304074119 0.11877833924594 0.0168060909524654 0.9646628 -0.02520604 0.262279 21 21 21
-0.0299862862202454 0.0304564956610878 -0.0381817115344656 0.0557151 -0.2540498 -0.9655851 143 143 143
-0.0951061215916713 0.082162308133765 -0.0346888171057757 -0.7025677 0.001190514 -0.7116159 169 169 169
-0.050490478234952 0.104040200079087 -0.033244161360948 0.05336855 0.2364039 -0.9701881 73 73 73
0.0700875504315635 0.0115434532599483 0.0069541454860545 0.9704369 -0.08528519 -0.2257847 108 108 108
-0.0247368531038168 -0.159757492462402 -0.0198066959336364 -0.01588074 -0.9181191 -0.3959863 76 76 76
0.0792402529356031 0.0732519263675808 -0.0147869077222427 0.986032 -0.1665431 -0.002063104 87 87 87
-0.0441053473282103 0.0615443614682472 -0.0450001335724421 -0.0001614881 0.2836382 -0.9589314 126 126 126
0.063921470222458 -0.161118909210404 -0.0367414623739314 0.005839018 -0.3712387 -0.9285191 77 77 77
0.013899328562728 0.206507689582047 -0.0321297267155383 -0.1043884 0.1731816 -0.9793422 151 151 151
0.0162750768880042 0.0862417441060574 -0.0411997573788753 0.1296807 -0.07469761 -0.9887382 221 221 221
-0.0654896215220244 -0.149930874781413 -0.017712064084584 -0.3064905 -0.8991386 -0.3124314 168 168 168
-0.0358681741664255 0.191144343154057 0.00908425310299546 -0.1243066 0.9922 -0.009334291 41 41 41
0.0194092599030009 -0.0792264833948672 -0.042391710932704 -0.09339651 -0.04223816 -0.9947326 123 123 123
0.0826072481035132 -0.154627444577011 -0.0052797477984019 0.9797296 0.124899 0.1566212 50 50 50
-0.0682480174645823 -0.12509316860545 -0.0248237569475749 -0.1651815 -0.04537404 -0.9852189 113 113 113
-0.0278443852316936 -0.0416635652320756 -0.036103457807568 -0.02487872 0.2490927 -0.96816 107 107 107
0.088963273589282 0.128960140048267 -0.0340217138103638 0.2706642 0.01738171 -0.9625169 83 83 83
-0.121359576531831 -0.116891035055126 0.00823489422729637 -0.8505611 -0.1133635 -0.513512 76 76 76
-0.0676860575084284 -0.00830830404553451 -0.0153294808944605 -0.6906461 -0.2879854 -0.6633795 25 25 25
0.0132901627037412 0.0830892551325679 -0.0413090348228529 0.1111474 -0.05220996 -0.9924315 213 213 213
0.0175423934004382 -0.173122268955353 -0.0121862605979288 -0.3751302 -0.7904893 -0.4841529 69 69 69
-0.105600681407731 -0.144039990506715 -0.00838696819207443 -0.5068877 -0.5415124 -0.670693 122 122 122
-0.000872113652715001 -0.176892677223981 0.0140521219132473 -0.6049827 -0.7397261 0.2946205 82 82 82
-0.0859566995240342 0.0345825215795048 -0.022577725830022 -0.9249942 -0.3761254 -0.05399455 67 67 67
0.0732205279823974 0.011475598852529 0.0240491352581875 0.9823124 -0.07038014 -0.1735196 152 152 152
0.0775285713706322 -0.107906275163875 -0.00361433337955056 0.998138 0.06006667 -0.01060618 98 98 98
0.0726779622336413 0.0913911007114951 -0.0385594669875879 0.07623203 0.1303286 -0.9885359 52 52 52
-0.0642013190165205 -0.0527014659314409 -0.0180175162767077 -0.3224559 0.1219507 -0.938696 123 123 123
-0.0961702193846667 -0.102054863271916 -0.0161167419354419 -0.3625484 0.3192919 -0.8755634 191 191 191
-0.00812484618280118 -0.0852578634023184 -0.041660842564909 -0.06315253 -0.0503631 -0.9967323 126 126 126
0.0471096593363356 0.195105607109474 -0.0194016792219142 0.5585636 0.8284898 -0.04014206 175 175 175
-0.0266729121087441 -0.0576063261269804 -0.0401176169434421 -0.1843415 0.1273686 -0.9745745 124 124 124
-0.078085617232603 0.0164584653503084 -0.0236437180966144 -0.8864513 -0.4424083 -0.1359374 115 115 115
0.0563146480624241 0.0100378224495317 -0.0442769491604409 -0.05005295 0.0653027 -0.9966094 105 105 105
-0.107672442943765 -0.106589066419622 -0.0117865242442373 -0.3467363 -0.06010515 -0.9360349 109 109 109
-0.0785943647233163 -0.093881021791922 -0.0195841215844457 -0.4034053 0.2514234 -0.8798013 128 128 128
0.0351335917245987 -0.182922971962359 0.000190222542255425 -0.01384416 -0.9483433 -0.3169439 125 125 125
0.0323681634492772 0.205599840763422 0.00384562475014399 0.5634918 0.7960998 0.2206853 150 150 150
-0.034095291441846 -0.0448945179309813 -0.0369346376890967 0.01961707 0.2305388 -0.9728654 110 110 110
0.0559556665850862 -0.0140051648458217 -0.0458546086666099 -0.04972488 0.04182637 -0.9978868 150 150 150
-0.106959451986744 -0.0478377578629147 0.0118845114174163 -0.7461022 -0.276137 -0.6058712 53 53 53
0.0604355640636687 0.0450127703179883 -0.0436732223038208 0.05516936 -0.01230305 -0.9984012 172 172 172
0.0645863604611172 0.0103778307831954 -0.0387953710221877 0.934972 0.1776384 -0.3070374 23 23 23
0.0565013283941385 0.0188748766364404 -0.0429211987111757 0.02403581 0.04136564 -0.9988549 155 155 155
-0.0902026588365201 -0.0227935269114615 -0.00570468196354948 -0.9404432 0.1330742 -0.3128226 111 111 111
0.052984274476104 -0.164457343398497 -0.0342161852062468 0.09410835 -0.6397158 -0.7628285 188 188 188
-0.0573676421626068 -0.15538285165604 -0.00634116054146347 -0.2446912 -0.9375939 -0.2470707 155 155 155
0.0909572623746677 0.123190508449395 -0.0333961695084049 0.5572375 -0.020154 -0.8301085 90 90 90
0.0145034353206706 -0.174534816983847 -0.00761985244835625 -0.4083014 -0.7859843 -0.4642398 103 103 103
0.0817937960617661 0.141273446133734 0.0327435923421609 0.9873933 -0.003491673 0.1582474 108 108 108
0.00702982583435041 -0.163062296967178 -0.0230925890015617 -0.1702991 -0.905256 -0.3892426 82 82 82
0.0772012196934475 -0.100635669986241 -0.00795802627959999 0.98622 0.09250108 -0.137163 59 59 59
0.0760919170500287 0.0442566661598396 0.0264098250372203 0.9668806 -0.1387215 -0.214239 179 179 179
0.0768021005927353 -0.173041206206216 0.0570667550353971 0.1945983 -0.9802839 0.03427782 71 71 71
-0.0884738404205714 -0.0032496215597968 -0.00903362534590335 -0.6626185 0.0469759 -0.7474824 146 146 146
-0.0256133587008529 0.0503508958081749 -0.0416245927910886 0.2028315 -0.1303349 -0.970501 181 181 181
0.0468832543789501 -0.176109674339906 0.0505967506164386 0.2160492 -0.9666345 0.1376245 45 45 45
0.0786412374153564 -0.170003423034975 -0.00688798331822082 0.1120597 -0.9372518 -0.330154 102 102 102
-0.0978649788216699 0.112104085833774 -0.0177609535946008 -0.9992876 0.03771964 -0.001222347 62 62 62
0.0688006540279642 -0.0166815655913678 -0.0144941125600817 0.9911218 0.04922622 -0.1235082 34 34 34
0.0137161125097154 -0.032380565275701 -0.0432822854418075 -0.2433032 0.2062533 -0.9477674 121 121 121
0.0842707536061793 0.125399002699917 -0.034735529488142 0.2127306 0.03527154 -0.976474 185 185 185
0.0759823598438296 -0.0580389561740798 0.0468425363908523 0.9702792 0.1926028 0.1465008 43 43 43
-0.00223164099244544 -0.176626786164899 0.00237378360342255 -0.1407039 -0.7195598 -0.6800265 156 156 156
-0.104004518942075 -0.0559362951603212 0.0135780410976006 -0.8201556 -0.1797195 -0.5431811 73 73 73
0.082310073351116 0.154437187637145 0.0257322326101739 0.905453 0.00616803 0.4244016 92 92 92
0.048359657718295 -0.143968630528977 -0.0365131835988918 -0.1830743 -0.1450812 -0.9723349 194 194 194
0.0275804366482406 -0.184446241487181 0.0145999446332595 -0.1709937 -0.9846527 -0.034931 115 115 115
-0.0196674741375222 -0.162610177963817 -0.0137898164722079 -0.02464475 -0.9020309 -0.4309673 82 82 82
-0.10157358835768 -0.0856503697238622 -0.0019346555120747 -0.5870863 0.1799975 -0.7892595 147 147 147
0.0720217909743015 0.179267362754184 -0.0211538941248838 0.5631374 0.8235113 -0.06859616 206 206 206
-0.0944534060106554 0.0414069359893792 0.00520434085423871 -0.9155352 0.09363475 -0.3911878 63 63 63
0.0936169651614618 0.148690371871323 -0.0149080268716404 0.9764754 -0.1222105 0.1776523 94 94 94
-0.0998695489847785 -0.00459851170842773 0.0103856233269697 -0.8704361 0.02749166 -0.4915131 128 128 128
0.0716244440472016 0.0287414082946127 0.0131285303862083 0.9857743 -0.1189343 -0.1187587 125 125 125
-0.0105826133952776 0.0971223622327002 -0.0464551023510891 -0.05107925 0.03129094 -0.9982043 202 202 202
0.0811504417895672 -0.142748356830395 0.00428948616678276 0.9923918 0.1093758 -0.05652826 147 147 147
-0.113249385470604 -0.0838340377813844 0.00859205909507302 -0.7429492 0.4665801 -0.4799264 76 76 76
-0.040109321774993 -0.0117256988149399 -0.0347102149273361 -0.06093995 0.06735217 -0.9958665 141 141 141
-0.0416257584894697 -0.0867222987910066 -0.0380209881885329 -0.2610525 0.006815831 -0.9653006 213 213 213
-0.0193612751442349 0.14429546181685 -0.031812470907389 -0.4016439 0.05765073 -0.9139795 163 163 163
0.0847437061658964 0.169830107355537 -0.0321767435272691 0.5150602 0.512538 -0.6870356 183 183 183
-0.00941107768585425 -0.159166013473911 -0.0233078092484342 -0.1812246 -0.9124581 -0.3668485 106 106 106
0.00324548567352201 -0.160640413186821 -0.0260043609017029 -0.2689435 -0.8869383 -0.3755127 83 83 83
-0.0467155327327808 -0.152513748497194 0.0364479454508183 -0.2168684 -0.9742963 0.06094987 73 73 73
0.0901724883488613 0.129334787007995 0.00210657683201132 0.9766297 -0.03611969 0.2118723 77 77 77
0.0643714272878797 0.00291915700124612 0.0474929623012424 0.5425094 -0.05268139 0.8383962 47 47 47
0.0651384167272702 -0.17031102587321 0.0226323836448359 -0.03501693 -0.9943647 -0.1000636 52 52 52
0.060877023823918 -0.139980061892676 -0.0392222645825941 -0.1066283 -0.2468441 -0.963171 188 188 188
0.0696312676391764 0.0206809123268934 -0.00312393529954805 0.9987752 -0.0427383 -0.02493187 138 138 138
0.0734958163691801 0.154374526603398 -0.0355806840437706 0.1165445 0.03344774 -0.9926221 79 79 79
-0.0872625640986979 0.0453291285108981 -0.0373723249341933 -0.9075546 -0.3168538 -0.2755873 157 157 157
0.0716236055361654 0.017630655215267 0.0118058929371647 0.9708192 -0.03908078 -0.236607 169 169 169
0.00860565368862476 0.17157413407547 -0.0385551331918886 -0.2412809 0.1692748 -0.9555781 115 115 115
-0.0924701112547468 0.0416110175106703 -0.00691388388309591 -0.9391812 -0.2894006 -0.1848945 75 75 75
-0.0980668546967767 -0.0556464770677157 0.00198601746933935 -0.9256718 0.0902161 -0.3674136 61 61 61
0.0353482872666642 0.203542653676728 -0.0122742695214214 0.5847515 0.8058233 -0.09335115 190 190 190
0.0664138251828255 0.00604556666329636 -0.0225208283174472 0.9833226 -0.01462838 -0.181281 131 131 131
0.0753446860973455 0.0582742522923232 0.00488150785880717 0.9542133 -0.2969875 -0.0357124 64 64 64
-0.0556163833506376 0.110492439296734 -0.0323079050797945 0.03890434 0.2084685 -0.977255 106 106 106
-0.0673074568356351 0.178795564359526 -0.0215820960267498 -0.3282967 0.1961143 -0.9239916 114 114 114
-0.0181399144043053 0.083797993943439 -0.0460318638301008 -0.05525285 -0.07316499 -0.9957882 170 170 170
