ply
format ascii 1.0
comment File exported by Rhinoceros Version 7.0
element vertex 470
property float x
property float y
property float z
property float nx
property float ny
property float nz
property uchar red
property uchar green
property uchar blue
end_header
-0.0187886987336761 -0.0414346579182383 0.0142190000024143 -0.8839061 -0.330232 0.3311448 156 156 156
-0.0270134150320036 0.0264694945426165 0.0379356456746151 -0.947849 -0.1968173 0.2506895 90 90 90
-0.0188888761941199 -0.0415501578115578 0.0131635508901129 -0.8928989 -0.3547142 0.2773253 161 161 161
-0.0191673055402726 -0.0395448905558135 0.0139592214006237 -0.9119142 -0.2704352 0.3086703 165 165 165
-0.0183718220743989 -0.0412715965038254 0.0161587065844521 -0.7287662 -0.3771574 0.5715349 154 154 154
-0.0171270018766749 -0.0417908556392785 0.016943258997528 -0.6435937 -0.404012 0.6500472 173 173 173
-0.0186162507402883 -0.0394643088410708 0.0164722406479682 -0.8273208 -0.3189425 0.4624024 144 144 144
-0.0182039198980044 -0.0393397165739099 0.0179904524092013 -0.6749433 -0.4085642 0.6144322 149 149 149
-0.0190322181665186 -0.0370338365444151 0.0175790621945216 -0.8180145 -0.265222 0.5104013 146 146 146
-0.0164728946387522 -0.0390911938965532 0.0180175412100384 -0.6065272 -0.391774 0.6918366 179 179 179
-0.0167452461527748 -0.0383454836218105 0.0199463699444839 -0.4023892 -0.3440912 0.848342 200 200 200
-0.00936393970231464 -0.0404236861159494 0.0153787418567833 0.2766638 -0.4752652 0.8352126 187 187 187
-0.00838047755114468 -0.0411716813919411 0.0161298375347723 0.281009 -0.4915408 0.8242703 179 179 179
-0.00918081768746526 -0.0399658424407142 0.0166994872745479 0.2571175 -0.4271132 0.8668708 161 161 161
-0.0098660115444853 -0.0386447682648929 0.0181574509978178 0.2519591 -0.4010804 0.8807105 172 172 172
-0.0193096884802975 -0.0368091063887939 0.0156196871912277 -0.9156705 -0.2327557 0.3276773 138 138 138
-0.020004480624001 -0.033621934494217 0.0150247569901566 -0.9618793 -0.1823238 0.2038293 134 134 134
-0.0197324312728264 -0.0322976134243227 0.0166177727819522 -0.9380411 -0.2133821 0.2730329 148 148 148
-0.0190588389966644 -0.034753049968848 0.0195132913636688 -0.7613513 -0.3027343 0.5733203 133 133 133
0.0052659063696654 0.00297820524133252 0.0294531759869846 0.2852681 -0.3694949 0.8843617 98 98 98
-0.0158405638853667 -0.0363376026226976 0.0197601843102181 -0.2470316 -0.3097733 0.9181589 201 201 201
-0.0190860025668076 -0.0337285749047697 0.0188513498479735 -0.829965 -0.2681622 0.489129 130 130 130
-0.0121085502278537 -0.0348677081648875 0.0195697042426943 0.03999101 -0.4153644 0.9087756 175 175 175
-0.0109659040076202 -0.0360035377504329 0.0194323255181979 0.2383887 -0.3857152 0.8912882 129 129 129
-0.0117519433918227 -0.032086087996681 0.0200671582614699 0.149241 -0.4226396 0.8939255 93 93 93
-0.000159659184643779 -0.0418567410361312 0.0119920678873606 0.364713 -0.4461804 0.817256 228 228 228
-0.000256342259211229 -0.0396229571675677 0.0129010923029906 0.3761737 -0.4002396 0.8356444 237 237 237
0.000972936313311301 -0.0391175265166727 0.0131262327804101 0.3802352 -0.3808331 0.8428448 229 229 229
0.00255645636560353 -0.0360604036332307 0.0120717804460462 0.3839873 -0.3972245 0.8335265 171 171 171
0.00339271834143817 -0.0358289233524105 0.0129055471493771 0.3792652 -0.4010456 0.8338587 148 148 148
0.00323158127883194 -0.0322733733637096 0.0141169640011669 0.3570562 -0.405862 0.8413007 102 102 102
-0.00749783057069608 -0.0398713258817167 0.0150102801640239 0.3151391 -0.4516173 0.8347031 177 177 177
-0.004949557821192 -0.0389067179466009 0.0145945878089973 0.3466835 -0.4136028 0.8418689 144 144 144
-0.00476181746329396 -0.0399072128313691 0.0159170160522603 0.3387475 -0.4308061 0.8364546 185 185 185
-0.0061919172726328 -0.0330273482709542 0.0184635612555633 0.3369182 -0.3850093 0.8592171 231 231 231
-0.00346204984009857 -0.0321996354853189 0.017409702703905 0.3687713 -0.3723696 0.851674 78 78 78
0.00041718410059044 -0.0352434136473746 0.0150367348059026 0.3613637 -0.3679094 0.8567724 88 88 88
-0.00232596795426288 -0.0315131149613127 0.0168144918294742 0.3597594 -0.3946626 0.8454671 99 99 99
-0.0306498741578427 0.0190376130771041 0.0143110343144507 -0.959199 -0.1885335 0.2106953 118 118 118
0.00689679866162107 -0.0410628261575996 0.00929013466986693 0.3782724 -0.5001092 0.7789742 222 222 222
0.0037962929573454 -0.0398406827055832 0.0105701219073024 0.38085 -0.3778613 0.8439041 224 224 224
0.00688948956742896 -0.0388299689451075 0.00915084006271261 0.3488933 -0.3923656 0.8510715 228 228 228
0.00907793390456701 -0.0392790378671863 0.00887413020416232 0.370591 -0.3820872 0.8465647 237 237 237
0.0106678833831082 -0.037450635875702 0.0092793966432678 0.3527901 -0.4083872 0.8418783 170 170 170
0.00556109674464289 -0.0343175559341802 0.0134317031911074 0.3506983 -0.4442726 0.8243983 116 116 116
0.0112306284219135 -0.0344394227504018 0.0107560246148151 0.3474458 -0.4212186 0.8377686 230 230 230
0.00974596403572159 -0.0330763520382029 0.0112355300438152 0.3754757 -0.4352691 0.8182657 168 168 168
0.0138003361026204 -0.0331787735429412 0.0101120901863225 0.3265558 -0.4243453 0.8445663 192 192 192
0.0152096866311908 -0.0327426841235275 0.00894704475182184 0.3093428 -0.4202746 0.8530394 183 183 183
-0.019687773087498 -0.0312933925798938 0.0179381252069633 -0.9077649 -0.2184354 0.3581185 143 143 143
-0.00574492576316743 -0.0297893418694262 0.0193249017418812 0.3327781 -0.4148492 0.8468524 235 235 235
-0.00414808216863083 -0.031290065548024 0.017637701278581 0.339099 -0.4188694 0.842354 86 86 86
-0.00542255817347104 -0.0312017536659489 0.0186879699163625 0.3400228 -0.4071173 0.8477263 223 223 223
0.00183884334540352 -0.0302018004715414 0.0162360873763989 0.3415376 -0.3693714 0.8642435 81 81 81
0.0016773361190261 -0.0291304700394336 0.0170326376448448 0.3404522 -0.3652264 0.8664306 97 97 97
-0.00104974292394178 -0.0311893342446939 0.0174499092831001 0.3600673 -0.3984324 0.8435658 76 76 76
-0.00244870775270134 -0.0268384685768625 0.0202044177440974 0.3861792 -0.4016529 0.8303858 195 195 195
0.000535625657093419 -0.0280396497566087 0.0176257975864461 0.34774 -0.364078 0.8640162 81 81 81
0.00133286747084704 -0.0279916077412909 0.0175559979435121 0.3509872 -0.3634921 0.8629493 84 84 84
0.00280009455805219 -0.0231096685999158 0.0184820195953516 0.3805822 -0.3494057 0.8561967 233 233 233
0.000522404506675844 -0.0228879558400887 0.0193971650271041 0.4103189 -0.350822 0.8417615 215 215 215
-0.0196440521327395 -0.0288284550945546 0.0213075400848544 -0.7938886 -0.3382665 0.5052888 157 157 157
-0.0179083391425108 -0.0291627380471561 0.0230366477079124 -0.3933704 -0.5061018 0.767542 189 189 189
-0.0146712221827143 -0.0309097575512661 0.0206632990364423 -0.148096 -0.4539729 0.8786218 206 206 206
-0.0179547169989427 -0.0285469067828327 0.0236740312046804 -0.3908474 -0.5387512 0.7463146 171 171 171
-0.0193740440864874 -0.0257700727986691 0.0249492958716297 -0.5090473 -0.4634878 0.7252929 157 157 157
-0.0164308229201378 -0.0273794482309975 0.024171329296196 -0.2785372 -0.5523813 0.7856793 172 172 172
-0.0141338506325537 -0.0255483353399233 0.0249855124822563 0.09116566 -0.501623 0.8602692 159 159 159
-0.0086290109203051 -0.0297056263134892 0.0207577432330681 0.3031338 -0.4424513 0.8440064 231 231 231
-0.0241640558535574 0.00472193522833941 0.0317467033283522 -0.9573448 -0.21128 0.1971086 102 102 102
-0.00850564798839804 -0.0267864050186716 0.022698563833433 0.2864881 -0.4587724 0.841102 125 125 125
-0.0136700791950246 -0.0287611109461736 0.0237579807989461 0.03205742 -0.498509 0.8662915 171 171 171
-0.0196953365664052 -0.0247221941672866 0.0255410806315895 -0.5123162 -0.4851097 0.7086613 138 138 138
0.0178503779425454 0.0251261522271244 0.0342135093029238 0.2970172 -0.3699823 0.8802806 88 88 88
-0.00926194482515097 -0.0254216409063248 0.0226982950785407 0.2828298 -0.4597599 0.8418006 107 107 107
-0.00972203596461241 -0.0225945361133881 0.0253390049991847 0.3064393 -0.433762 0.8473166 157 157 157
-0.0163303247889786 -0.0214740587036633 0.0271720690765002 -0.267511 -0.5084493 0.8184847 173 173 173
-0.0156905375584144 -0.0213338277891193 0.0284468142705197 0.0251091 -0.5059462 0.8621995 164 164 164
-0.0118201795382049 -0.0211866856096681 0.026844897539586 0.2495097 -0.4495976 0.8576753 152 152 152
-0.00703826689978038 -0.0277398115353908 0.0218008659305812 0.3314387 -0.4437542 0.8326047 227 227 227
-0.00395161568458025 -0.0269795642940006 0.0205489803893208 0.3901884 -0.4004906 0.829072 226 226 226
-0.00368220857678092 -0.0254971687125045 0.0209113737766079 0.3950248 -0.4065714 0.8238052 218 218 218
-0.00516391123894544 -0.0245432641261631 0.0222800034997412 0.3927292 -0.4084477 0.8239746 204 204 204
-0.00259424299544064 -0.0228944539647765 0.0223192039025719 0.4128328 -0.3717303 0.8314961 200 200 200
-0.00821830159659975 -0.0227269313781108 0.0249719666374841 0.3423857 -0.4325227 0.834084 126 126 126
-0.00125589721254227 -0.0217068048694893 0.0210394833349541 0.4239118 -0.3542654 0.8335435 208 208 208
-0.0193019827814729 -0.0176992535617205 0.028631166631316 -0.6772838 -0.4549483 0.5781944 171 171 171
-0.0199631418257382 -0.0171535770617869 0.0294064028214583 -0.7318847 -0.4639914 0.4990558 63 63 63
-0.01804580092801 -0.0176476888925825 0.0304062425303302 -0.3911727 -0.5098472 0.7661852 139 139 139
-0.0167750022270619 -0.0152723702345923 0.0317228681455807 0.02027149 -0.4931725 0.8696953 178 178 178
-0.0166643519482568 -0.0145890950330307 0.0311294495387066 0.02027149 -0.4931725 0.8696953 197 197 197
-0.0124687648659243 -0.0167202956420615 0.0288915925512763 0.3194618 -0.4149743 0.851904 81 81 81
-0.0115831455402526 -0.0159202684127777 0.0286384812275511 0.3382833 -0.3973617 0.8530346 76 76 76
-0.0111522841005596 -0.0143904301501201 0.030208198972682 0.3413601 -0.3554969 0.8701122 223 223 223
-0.0143257892125013 -0.0114362117102118 0.0320103872077662 0.2743608 -0.3407129 0.8992446 195 195 195
-0.0136137846604043 -0.0132569865577179 0.0318973345310849 0.3598131 -0.3630975 0.8594735 213 213 213
-0.0113842440419041 -0.0127042123389982 0.0308902316116786 0.3610379 -0.3541137 0.8627023 222 222 222
-0.0123180646274321 -0.0126383206141965 0.0312563497559534 0.3478997 -0.3509738 0.8693579 221 221 221
-0.01054047562529 -0.0134316808714279 0.0299781631236711 0.3434563 -0.3337699 0.8778585 222 222 222
-0.00852064294986588 -0.0113299831128215 0.0291063470200887 0.3458963 -0.3777306 0.8588803 217 217 217
-0.00965644547103595 -0.0118792958211147 0.0301115462315312 0.3613137 -0.3707805 0.8555549 219 219 219
-0.00893450289571063 -0.00959838213996256 0.0301532230345723 0.3571885 -0.3548713 0.8639923 107 107 107
-0.00934738265956536 -0.00841417191488203 0.0306994335025368 0.3545417 -0.320856 0.8782662 108 108 108
-0.00668052653812068 -0.0186652882923881 0.0256937391566531 0.3921134 -0.3725907 0.8410846 129 129 129
-0.00399486318696018 -0.0185218166048363 0.0241622435828972 0.4244372 -0.3968214 0.8138709 81 81 81
-0.0042056001802353 -0.0165853329842673 0.0244110099121309 0.4131603 -0.3966534 0.8197345 76 76 76
-0.00547793212788505 -0.0168609601657196 0.026031354522616 0.4249605 -0.3704273 0.8259493 125 125 125
-0.00245504403456387 -0.0152808967248118 0.0244976001454717 0.4511838 -0.4188555 0.7880313 91 91 91
0.00206255855451509 -0.019327056590995 0.0205752372000806 0.396046 -0.3100243 0.8643104 100 100 100
0.00224127644299843 -0.0180045103622584 0.0209379659880322 0.4081103 -0.3565815 0.8404139 101 101 101
0.00203339336478869 -0.0165684535477121 0.0219164676827481 0.3868366 -0.380648 0.8399194 91 91 91
0.00214232416538263 -0.0150415798669391 0.0218005810974652 0.4449134 -0.3373318 0.829614 76 76 76
-0.00262811137624364 -0.0134904076272503 0.0265351798056288 0.4290332 -0.3585154 0.8290942 219 219 219
0.00300379212729029 -0.013717398714249 0.021706398926666 0.466454 -0.3420261 0.8157443 112 112 112
-0.000323622492847786 -0.0120158420302792 0.0244445446516123 0.4921066 -0.3481147 0.7979017 196 196 196
0.00134462910162325 -0.0134687243902288 0.0245572512412414 0.4770986 -0.3279832 0.8153551 122 122 122
0.00186267572936827 -0.0114616200323757 0.0247591094791851 0.4905517 -0.3323653 0.8055385 213 213 213
0.000908740391626583 -0.0120335013650278 0.0254905820713826 0.5080626 -0.317004 0.8008626 224 224 224
0.00135547988511897 -0.00961761197895628 0.0247122771126232 0.4920365 -0.2772969 0.8252312 166 166 166
-0.00659209699404206 -0.0168401133475024 0.0274232116196392 0.4016063 -0.383288 0.8317468 99 99 99
-0.00596182589673599 -0.0146968474734983 0.0268727655802132 0.4174081 -0.3821067 0.8244786 225 225 225
-0.00796562160552816 -0.0147478859195785 0.0276054652242769 0.3690314 -0.3893762 0.8439206 179 179 179
-0.00650874017235381 -0.0138765603042514 0.0283766525089644 0.4079166 -0.3663394 0.8363011 220 220 220
-0.00649509082875288 -0.0107087058653025 0.0288286790906531 0.4058727 -0.3541613 0.8425183 213 213 213
-0.00269358932494868 -0.0106762124588584 0.0267712842259607 0.471757 -0.3116288 0.824823 227 227 227
-0.00428913877354797 -0.00947142479621743 0.0286639106884033 0.4194705 -0.3074343 0.8541245 99 99 99
-0.00216360121966375 -0.00953396737859036 0.0278779638236694 0.4748136 -0.279724 0.8344498 145 145 145
-0.00810756736665952 -0.01187470939112 0.029835413790439 0.3522752 -0.3690311 0.8600687 216 216 216
-0.00618606509857145 -0.00949909126932591 0.0296774192263751 0.4127135 -0.3325609 0.8479804 166 166 166
-0.000275500173468002 -0.0117171921105815 0.0264037186314739 0.4878132 -0.3550396 0.7974868 224 224 224
-0.00178841989062439 -0.00875947282965428 0.0266307787188172 0.4927703 -0.2456609 0.8347623 214 214 214
0.00994310347526195 -0.0291536083095788 0.0137598935844231 0.3886962 -0.3645753 0.8461679 239 239 239
0.0113285352520605 -0.0276907985900595 0.0138697257480946 0.3599922 -0.3738672 0.8547683 116 116 116
0.00532522158948345 -0.0309441812258785 0.0149320822948675 0.3415415 -0.3874438 0.8562924 146 146 146
0.00682341344032067 -0.0288881545098382 0.0154283947921706 0.3555273 -0.3689256 0.8587748 171 171 171
0.00905359194674937 -0.0280609118183787 0.0152868436489217 0.3743477 -0.3424294 0.8617459 238 238 238
0.00562957326620883 -0.025290099828668 0.0167934588149922 0.366163 -0.3179905 0.8745323 243 243 243
0.00552701290170887 -0.0207996859867855 0.0184290296857676 0.3533956 -0.3727535 0.8580014 84 84 84
0.0104988622799398 -0.0242745538231049 0.0146875016941471 0.3488354 -0.3085737 0.8849272 58 58 58
0.0116297678376001 -0.0208514204851351 0.0160943134679708 0.3633453 -0.3822707 0.8496172 107 107 107
0.0158621454054815 -0.029138432112753 0.0107190501411098 0.3214376 -0.3872833 0.864112 146 146 146
0.0194349853207585 -0.0285363872743877 0.00920825843523522 0.2827108 -0.3987345 0.8724021 235 235 235
0.0183478981675218 -0.0299511562898485 0.0103966627754644 0.2665261 -0.3785377 0.886382 237 237 237
0.017835362218463 -0.0260327357588197 0.0111221699516297 0.2698229 -0.3574087 0.8941222 150 150 150
0.0163386257955713 -0.0274713144008407 0.0125847503143371 0.3176241 -0.3589743 0.8776402 113 113 113
0.0218928359191175 -0.0271834442953686 0.00987461363688256 0.2848435 -0.4159079 0.8636462 224 224 224
0.0230323662639187 -0.0277048175919378 0.00906433505572375 0.2647247 -0.4283012 0.8639901 243 243 243
0.0235021042248986 -0.0267602868303862 0.010125773236629 0.2453115 -0.4670652 0.8495131 225 225 225
0.019444612961804 -0.0251301542937179 0.0121664858031827 0.2414273 -0.3814275 0.8923149 76 76 76
0.0156182025615388 -0.0223909617210625 0.0137194118379032 0.2827855 -0.3705733 0.8847077 124 124 124
0.0158492292990198 -0.0205968908991292 0.0144460831253013 0.2838227 -0.3613347 0.8881902 120 120 120
0.0197787790971848 -0.0199178330560505 0.012889022165094 0.1811094 -0.3741091 0.9095283 69 69 69
0.0233888943884215 -0.0241469351374625 0.0109280439047968 0.2086331 -0.4502479 0.8681872 134 134 134
0.0255093207236228 -0.0250755425933409 0.00994563944380734 0.3003611 -0.4500087 0.8409966 236 236 236
0.0263938691504142 -0.0244132515583549 0.00882681856398888 0.3171524 -0.4728484 0.8220881 234 234 234
0.0229605062238449 -0.0226584945090998 0.0118840839302301 0.2025147 -0.4547113 0.8673093 70 70 70
0.0214880696590847 -0.022906023499552 0.0120084550581316 0.1976371 -0.4541598 0.8687223 74 74 74
0.0248467655341624 -0.0232749683206543 0.0122005272344318 0.2511549 -0.4742797 0.8437891 90 90 90
0.0224726994990925 -0.0213672922849066 0.0132050284483191 0.1765844 -0.3905177 0.9035009 96 96 96
0.0240202040004307 -0.0214549504289493 0.0119719910811918 0.1882924 -0.4173917 0.8890051 84 84 84
0.0256716253572116 -0.0210505069957825 0.0123674097739758 0.242064 -0.4432558 0.8630928 73 73 73
0.0239725158472204 -0.0199494746561466 0.0134742090313997 0.1776188 -0.3846196 0.9058252 61 61 61
0.0168202170662932 -0.0201531202680801 0.0145806005630326 0.2597856 -0.347793 0.9008616 120 120 120
0.00611603645348224 -0.0196355472499218 0.0185633753313342 0.3750553 -0.3684409 0.8506379 65 65 65
0.00702684350858851 -0.0197244316317871 0.0180150300643621 0.3701692 -0.3558486 0.8581064 56 56 56
0.00733650715290124 -0.0158479023893862 0.0196961720099092 0.3469217 -0.3201983 0.8815432 91 91 91
0.0135672291135152 -0.0173588138647608 0.0162463938058227 0.3196393 -0.3889673 0.8640227 122 122 122
0.0144866750326509 -0.0160109106058384 0.0167673164642287 0.3224511 -0.3870177 0.8638533 100 100 100
0.013125671979682 -0.0176095615511659 0.0173639755551409 0.3476427 -0.3735725 0.8599931 195 195 195
0.0104249134696415 -0.0126482839792464 0.0195048043123045 0.3426972 -0.3219177 0.8825688 237 237 237
0.0133882522303312 -0.0130947953083975 0.0193178887390046 0.3113958 -0.3696795 0.8754255 124 124 124
0.0142948016950666 -0.0114510979173976 0.0195422700140354 0.297513 -0.3766046 0.8772998 224 224 224
0.0167227174548781 -0.0178743267108816 0.0150338510046334 0.2887076 -0.3817235 0.8780291 136 136 136
0.0178649167468676 -0.0189191269948616 0.0148052169121717 0.2405448 -0.3647911 0.8994808 123 123 123
0.0179930241350572 -0.0154688740373788 0.0161225883834152 0.2984322 -0.3663146 0.8813353 107 107 107
0.0201305285166526 -0.0142623658591066 0.0158212560937918 0.2164406 -0.363086 0.9062682 112 112 112
0.0217302238730877 -0.016400598840744 0.0146132969587994 0.1761035 -0.3719308 0.9114028 61 61 61
0.0212412425565567 -0.0151101015014861 0.0153266109087467 0.1881448 -0.3470277 0.918789 108 108 108
0.0204477359160742 -0.0135318733428262 0.016116079013381 0.2200399 -0.3564833 0.908021 165 165 165
0.0176917595387502 -0.0129918537391885 0.0177380548514758 0.2969271 -0.3689463 0.8807457 192 192 192
0.0164754293439369 -0.0100330187665445 0.0181696687316032 0.2943085 -0.4299942 0.8535148 222 222 222
0.0243615028450659 -0.0114223936113417 0.0167904202677096 0.2590162 -0.3435744 0.9026999 213 213 213
0.00655824252927184 -0.0139346500262529 0.0211536107947601 0.3766215 -0.3106413 0.8727303 104 104 104
0.00604940302912227 -0.0109956088010603 0.0222220357556769 0.380132 -0.3276615 0.8649495 222 222 222
0.0293821532442562 0.0407826775694492 0.0376084281739748 0.1135448 -0.2923262 0.9495541 82 82 82
0.00463394230012382 -0.0100657623725346 0.022291775375318 0.4500907 -0.333344 0.8284323 227 227 227
0.0073230346352795 -0.010742069956408 0.0212397314572648 0.3223787 -0.3323216 0.8863602 222 222 222
0.00832262182073729 -0.0100558236530616 0.020781476428103 0.281046 -0.3547419 0.8917238 230 230 230
0.0105774037773441 -0.0091816502654164 0.0217791361547751 0.2769501 -0.3593319 0.8911673 222 222 222
0.0114628350720869 -0.00822198944511543 0.021639767149384 0.258716 -0.3780311 0.8889086 219 219 219
-0.019673690678325 -0.012681694160564 0.0336389350866445 -0.5076412 -0.4012891 0.762409 134 134 134
-0.0181738648125616 -0.0107158445911826 0.0349100698106272 -0.2252146 -0.3513991 0.9087338 141 141 141
-0.0263617094356288 -0.00723790528390933 0.010675845203269 -0.9640046 -0.1739334 0.2011025 119 119 119
-0.0267746558616762 -0.00540371764365521 0.00976299686113891 -0.9649723 -0.1841762 0.1868358 124 124 124
-0.0262621286382991 -0.00552695497340994 0.012097825392477 -0.9650043 -0.1808241 0.1899195 117 117 117
-0.0255879701289612 -0.00754314091405728 0.0139256772722862 -0.9576111 -0.2014213 0.2059377 126 126 126
-0.0272235860148375 -0.00206980926215328 0.00925861264661532 -0.9577832 -0.1927706 0.213286 137 137 137
-0.0269643389723797 -0.0013877169160913 0.0121910812839859 -0.9626955 -0.1911654 0.1915025 137 137 137
-0.0279116518586735 0.000901149195609352 0.0121350055051696 -0.9592354 -0.2026625 0.1969655 135 135 135
-0.028240931954518 0.00321475677625771 0.0104391358696512 -0.955819 -0.1977655 0.2174833 130 130 130
-0.0281234952336196 0.00286347425279432 0.0117951093910361 -0.958499 -0.1993426 0.2038189 124 124 124
-0.0272708110235433 0.000303757077991462 0.012673859276046 -0.96209 -0.1987286 0.1867881 134 134 134
-0.023651022317015 0.00763514472100246 0.0372224901152459 -0.886651 -0.2412014 0.3945528 136 136 136
-0.0268124276578818 0.00029938211217706 0.0141845484202426 -0.9587657 -0.1942564 0.2074434 140 140 140
-0.0252148534056629 -0.00716078859944991 0.0151626292258016 -0.9549661 -0.2065543 0.2130141 137 137 137
-0.0254209140434261 -0.00675105574778845 0.0153220144480188 -0.9539856 -0.2026018 0.2210522 122 122 122
-0.0253298408109528 -0.00611141566084772 0.0164831991349859 -0.9580438 -0.191442 0.2133123 135 135 135
-0.0255761386465365 -0.00318268484610928 0.0177619574308064 -0.9610935 -0.1796122 0.2098538 131 131 131
-0.0247767581303202 -0.00724726180491764 0.0179494678132337 -0.9533844 -0.2036699 0.2226584 127 127 127
-0.0249479967025945 -0.00497983855776651 0.0186174292523514 -0.9557554 -0.197402 0.2180921 124 124 124
-0.0244127711130429 -0.0057451556605308 0.0203605211497112 -0.9561824 -0.1935736 0.2196464 134 134 134
-0.0252924446570675 -0.0024633213984705 0.0183701565105176 -0.9593079 -0.1860729 0.2123799 118 118 118
-0.0250412294284155 -0.00320805064099061 0.0199838390260764 -0.956757 -0.1941976 0.2165717 110 110 110
-0.0262625780305104 -0.00122689042056368 0.0163709285365479 -0.9569092 -0.1922862 0.2176021 136 136 136
-0.0268339893042178 0.000924178160567002 0.0160143464448297 -0.9545739 -0.1975908 0.2230395 133 133 133
-0.0271829447972098 0.00235690495950158 0.014494211549102 -0.9611325 -0.1840417 0.2057985 131 131 131
0.0153271938921622 0.0433236703985097 0.0402578907443591 0.1120971 -0.2538621 0.9607228 130 130 130
-0.0270241221769612 0.0023234115257722 0.016644984186676 -0.9555203 -0.190488 0.2251559 131 131 131
-0.0274782276509764 0.00313291661658954 0.0164534285140697 -0.9544301 -0.1932571 0.227409 129 129 129
-0.0267086659674316 0.00261648527023994 0.0181518886610246 -0.9582414 -0.1870253 0.2163215 143 143 143
-0.025787925634571 -0.00140756514764118 0.0184153683241692 -0.9562281 -0.1916219 0.2211535 122 122 122
-0.0261128380261522 0.00261156295685705 0.0204123093423821 -0.9595942 -0.1937152 0.2040916 117 117 117
-0.0253387713953195 -0.00116238962568516 0.0203511163829844 -0.9591092 -0.1849976 0.214209 120 120 120
-0.0258926202095764 0.000269725533698306 0.0189148965156335 -0.9566287 -0.1977505 0.213907 118 118 118
-0.0290341394185583 0.00682796571082622 0.0107173459129856 -0.9635422 -0.1692362 0.2072333 119 119 119
-0.0284533953379165 0.00475990839204976 0.0122719907305672 -0.9634209 -0.1689507 0.2080285 136 136 136
-0.0280204982389671 0.00458660871326855 0.0139006468791539 -0.9654475 -0.1720744 0.1957078 133 133 133
-0.0283596704065319 0.00661336774842025 0.0138077429372493 -0.9655245 -0.1679849 0.1988556 124 124 124
-0.0299206954085414 0.0107286623015133 0.010281431326349 -0.9549111 -0.1987536 0.2205487 147 147 147
-0.0296455754598128 0.0110123405698964 0.0118148887240595 -0.9556343 -0.2055137 0.2110146 144 144 144
-0.0305081819421837 0.0141603995184626 0.0106886207549279 -0.9518558 -0.2146163 0.2188842 110 110 110
-0.0296682340809438 0.0127208536714676 0.0140945955970178 -0.9607117 -0.1969796 0.1955303 86 86 86
-0.0300509468423598 0.0147565630654958 0.0126315548902349 -0.9530699 -0.2235174 0.2041999 92 92 92
-0.0301402099670665 0.0150314674514773 0.0141732475094514 -0.9556132 -0.218127 0.1980507 107 107 107
-0.0277037428092637 0.00524102745063559 0.0159891484149021 -0.9625311 -0.1832756 0.1998599 123 123 123
-0.0271583624162808 0.0052454396728302 0.016404855764812 -0.9615134 -0.1836098 0.2044001 109 109 109
-0.0279254202215162 0.00732353880799652 0.015902487578926 -0.9668608 -0.1706082 0.1899288 140 140 140
-0.0276562534904563 0.00716311704593797 0.01834486934016 -0.961993 -0.1843944 0.2014155 124 124 124
-0.0273752139019019 0.00691645345865022 0.0170413044893679 -0.9644245 -0.181772 0.1919488 116 116 116
-0.027002357720509 0.00495940540116291 0.01825818535013 -0.958147 -0.1921831 0.2121789 129 129 129
-0.0277654779530472 0.00854976519851447 0.0183844668591037 -0.9635087 -0.2034189 0.1739881 132 132 132
-0.0287117345191974 0.01115604773795 0.0162249263501603 -0.9616485 -0.2119755 0.1740651 111 111 111
-0.0281772020165731 0.0105339751237753 0.0184466883267398 -0.9616582 -0.2110217 0.1751667 120 120 120
-0.029084160718321 0.0130154848477863 0.0150775974785789 -0.9610291 -0.2077822 0.182345 95 95 95
-0.0291073503840547 0.0142253276570985 0.0170358388511459 -0.9626355 -0.1949767 0.187928 147 147 147
-0.0279359624683269 0.0106019990366861 0.0201217253744155 -0.9626569 -0.2038524 0.1781459 122 122 122
-0.0241624285446989 -0.00577582924930653 0.0220178126402909 -0.9570338 -0.1998833 0.2100786 125 125 125
-0.0232198982606231 -0.00723742644798187 0.0222001565034816 -0.9574786 -0.1957604 0.2119257 138 138 138
-0.0234809849108255 -0.00730909864037399 0.0239780106046051 -0.9594415 -0.2031533 0.1954501 121 121 121
-0.0247253180880387 -0.00314067840011023 0.0222322046710108 -0.9603666 -0.1901965 0.2037677 123 123 123
-0.023769262230134 -0.0053430316713462 0.0242496686880837 -0.9617764 -0.2037461 0.1829581 138 138 138
-0.023037683709479 -0.00586685238005114 0.0246591532631956 -0.9595661 -0.2107158 0.1866331 136 136 136
-0.0229678404651594 -0.0055002997802045 0.0262080628820857 -0.9623997 -0.1983864 0.1855522 142 142 142
-0.0241216513025306 -0.00354684519041104 0.0240203291333353 -0.9628693 -0.1920557 0.1897294 119 119 119
-0.0234710757139298 -0.00480674150152327 0.0263448512597478 -0.9618234 -0.2069115 0.1791183 146 146 146
-0.0254748464295167 -0.000568743628567736 0.0217406179807538 -0.9627874 -0.1936205 0.188551 117 117 117
-0.0256636061989777 0.00162605479611777 0.0220725976322153 -0.9625272 -0.1970025 0.1863634 126 126 126
-0.025168618186717 0.00248855256584157 0.0243417543108654 -0.9635137 -0.1950704 0.1832729 118 118 118
-0.0246032673375944 -0.000984625813426954 0.0242916318241963 -0.9586997 -0.2082466 0.193722 111 111 111
-0.0246614145066109 0.000243713807625223 0.0245546260141281 -0.9618917 -0.1918324 0.1948453 105 105 105
-0.0242206170119712 -0.000901600836639038 0.0260783138298087 -0.9582978 -0.1992948 0.2048096 120 120 120
-0.0228636298621403 -0.00698813616867311 0.0266653301348125 -0.9586588 -0.2145987 0.1868707 138 138 138
-0.0225027461659089 -0.00736497520213086 0.028191804788275 -0.9528936 -0.2209687 0.207766 115 115 115
-0.0236098269340779 -0.00313016007398215 0.0282343929705927 -0.9655421 -0.190009 0.1778345 123 123 123
-0.0219214716472118 -0.0076496477776169 0.0300064184589699 -0.9588799 -0.2161379 0.1839393 126 126 126
-0.0223633426068803 -0.00560294814963869 0.0303268575221301 -0.9433165 -0.2110031 0.2561867 134 134 134
-0.0219238236229236 -0.00572557236957505 0.0321536814446444 -0.9209426 -0.2496329 0.2992459 132 132 132
-0.023022685762202 -0.00288325053802263 0.030002804816444 -0.9604292 -0.1861461 0.2071844 130 130 130
-0.023882641919607 -0.000943618194218954 0.0282019481336839 -0.9654028 -0.1605391 0.2054861 119 119 119
-0.0241651644014234 0.000923815652434268 0.0281076106031836 -0.9579329 -0.1729817 0.2290018 114 114 114
-0.02318304155956 -0.0012149151873031 0.028163071868849 -0.9641035 -0.1648071 0.20819 79 79 79
-0.024560514033136 0.00200495353724217 0.0281275478137507 -0.9566961 -0.1797377 0.2289692 116 116 116
-0.0231106424061738 -0.00141749898828258 0.0301455687551655 -0.9643863 -0.158105 0.2120418 132 132 132
-0.0232768195838069 0.000427148367103558 0.0296652115072572 -0.9634052 -0.1636554 0.2122907 96 96 96
-0.0232340952419388 0.00248041631834361 0.0317135036505016 -0.9649779 -0.1675224 0.201876 130 130 130
-0.0238747760318565 0.00329861876473392 0.0316680999358966 -0.957177 -0.2042853 0.2051335 104 104 104
-0.0261211918919373 0.00464764985620936 0.022123056524433 -0.95688 -0.2087965 0.2019522 111 111 111
-0.0269270596624935 0.00874717105590506 0.0225868182677045 -0.9566807 -0.2180915 0.192868 131 131 131
-0.0266592513453454 0.00873013410990442 0.0240300377666318 -0.95002 -0.2251723 0.2162397 108 108 108
-0.0261874391540382 0.00710171567869 0.024275895686937 -0.9560073 -0.20358 0.2111996 105 105 105
-0.0258073335597204 0.00496997121372245 0.0241349089656687 -0.9583549 -0.2144128 0.1886343 120 120 120
-0.0275125875260178 0.0094730054439115 0.0213223666487281 -0.9588803 -0.2127642 0.1878297 119 119 119
-0.0272093373906659 0.0104478986198802 0.0228094059193906 -0.9630888 -0.1941993 0.1864043 126 126 126
-0.0277652706887923 0.0108637960046405 0.0227111465447664 -0.9591537 -0.2056686 0.1942281 137 137 137
-0.0282468288587019 0.0148443908652338 0.022375704400036 -0.9659542 -0.1662064 0.1982622 153 153 153
-0.0279031058564629 0.0148977243107804 0.0237971856799844 -0.9656138 -0.166911 0.1993258 135 135 135
-0.0274185367873858 0.00988628415495796 0.023782626459219 -0.9584581 -0.2007003 0.2026761 108 108 108
-0.0264816269606845 0.0103477229531842 0.0261502158822906 -0.9529852 -0.1971252 0.2301321 120 120 120
-0.0275057905975009 0.0125183550883382 0.0242582334284823 -0.9621443 -0.1836794 0.2013461 143 143 143
-0.0276296280662223 0.0150826796351839 0.0253719919955789 -0.9667839 -0.1620677 0.1976432 120 120 120
-0.025164719369446 0.00495225092170226 0.0267466259197401 -0.9581609 -0.1929602 0.2114096 121 121 121
-0.0250604341511695 0.00661811355880115 0.0285977822404647 -0.9548612 -0.1932986 0.2255565 131 131 131
-0.0257658905341254 0.00856748747793246 0.0282549512351318 -0.9504641 -0.2054318 0.233272 104 104 104
-0.0253559621433799 0.00898733565607035 0.0289297451030834 -0.9528688 -0.2045406 0.2240628 111 111 111
-0.0241981918297089 0.00361433939907085 0.0297086917864771 -0.9478131 -0.2190003 0.2317093 135 135 135
-0.0243688183025184 0.00485972065698281 0.0299657818940706 -0.951544 -0.2037213 0.2303513 107 107 107
-0.0251212406015811 0.00753123108952525 0.0301842607687791 -0.9554182 -0.1939251 0.2226414 114 114 114
-0.0251684220044899 0.00784968578826462 0.0298877526609043 -0.9574162 -0.1870133 0.2199549 105 105 105
-0.0253944322790762 0.0080328795216229 0.0312551024327014 -0.9581338 -0.1884883 0.2155266 116 116 116
-0.0259730369544542 0.0107438326085191 0.0284001381497879 -0.9548442 -0.1841444 0.2331593 114 114 114
-0.0270063930238831 0.0148295521223784 0.0280650258875166 -0.956842 -0.1934118 0.2168991 118 118 118
-0.0271559840741866 0.015086019201776 0.026966196682369 -0.9601865 -0.1864211 0.2080605 82 82 82
-0.0259249253637484 0.0109831826378939 0.0303138130522887 -0.9538139 -0.195293 0.2282535 132 132 132
-0.0259123079282888 0.0127316167136983 0.0302631487993209 -0.9533274 -0.2030657 0.2234528 126 126 126
-0.0254051863322871 0.0116791648851179 0.0317066092406417 -0.9571404 -0.1888048 0.2196245 125 125 125
-0.0251760920943342 0.0115741262261968 0.0322531994739229 -0.9586753 -0.1860719 0.2152182 120 120 120
-0.0258338297004996 0.0130227683465729 0.0322526697328261 -0.9558223 -0.1966374 0.2184889 123 123 123
-0.0317877504538502 0.0190557803675753 0.0100883894391411 -0.9607912 -0.1807559 0.2102562 121 121 121
-0.0321710180123917 0.0208108904930474 0.00998806136858899 -0.96112 -0.1794151 0.2099014 118 118 118
-0.0318995796633978 0.0225560815672623 0.0119953053721946 -0.9645321 -0.1779487 0.1949667 112 112 112
-0.0327101546621011 0.0248019293124218 0.0104934771731878 -0.9542113 -0.2167816 0.2061226 138 138 138
0.0426155094177074 0.0352040336309721 0.0112815592207055 0.9547052 -0.09036944 -0.2834984 15 15 15
-0.0337402874684076 0.0267342645951769 0.00939603735181292 -0.959397 -0.1931265 0.2055712 152 152 152
-0.0317947114652146 0.0209416833408713 0.0117098862669771 -0.9622511 -0.1844006 0.2001728 105 105 105
-0.0326745773690624 0.0269200077765438 0.0123203568049063 -0.95024 -0.2148646 0.2255599 115 115 115
-0.0320152591989347 0.0250361399652967 0.014081353501203 -0.9579225 -0.1910693 0.2141891 109 109 109
-0.032349037005531 0.0265847479785903 0.014232047944598 -0.9581518 -0.1882147 0.2156859 107 107 107
-0.0317053185976905 0.0173299584584388 0.00938062259522361 -0.9573289 -0.1942499 0.2139824 85 85 85
-0.0309792393184409 0.0168909230131947 0.0105517301872233 -0.9559662 -0.197516 0.2170623 115 115 115
-0.0317274631686475 0.018335026643686 0.011566961178456 -0.9621105 -0.1778641 0.2066584 118 118 118
-0.0314401594099254 0.0207047611070886 0.0107434188041208 -0.9635091 -0.1751504 0.2024167 132 132 132
-0.0306980211487606 0.0176103473921165 0.0126141782413123 -0.9592583 -0.1899846 0.2091159 83 83 83
-0.0303051151839542 0.0166790176432501 0.0140652887869153 -0.9563705 -0.2016515 0.2114049 99 99 99
-0.0315238114929421 0.0197504774977704 0.0133422838629854 -0.9634408 -0.1799264 0.1985155 98 98 98
-0.0309095733893696 0.0208249335345356 0.0147185328250048 -0.9549304 -0.1962207 0.2227228 119 119 119
-0.0302776502481903 0.0183709436786653 0.0161411540090914 -0.9593975 -0.1937169 0.2050127 125 125 125
-0.0298138730677442 0.0165527617895495 0.0164253631568826 -0.9611843 -0.1908384 0.1992624 155 155 155
-0.0296895685051601 0.0167670605454167 0.0181666993192151 -0.9627067 -0.1794964 0.2024276 142 142 142
-0.0305045575884813 0.0207897939588587 0.0160584485415333 -0.9580597 -0.1967213 0.2083806 115 115 115
-0.0299723236815956 0.018685051416976 0.0178251300250856 -0.9563184 -0.1941906 0.2185065 147 147 147
-0.0292269792170559 0.0165274320214399 0.0179676078329166 -0.9625491 -0.1770732 0.2052909 154 154 154
-0.0294480008612048 0.0152981683316821 0.0196328074202125 -0.9640388 -0.1762177 0.1989386 132 132 132
-0.029281680936011 0.0198092643385638 0.0186702665109639 -0.959802 -0.1874213 0.2089339 126 126 126
-0.0296869678713674 0.0191718902110786 0.0203350924380603 -0.9618768 -0.1863036 0.2002097 129 129 129
-0.0300846994893762 0.021039082150633 0.0203472976615101 -0.9571767 -0.2042778 0.205142 125 125 125
-0.0306338596075106 0.0226755032468625 0.0182094261338324 -0.960409 -0.1922605 0.2016194 121 121 121
-0.031483636225889 0.0231721571483862 0.016482726566267 -0.9583864 -0.1926795 0.2106421 115 115 115
-0.0311144581761353 0.0241303085662755 0.0165037658099733 -0.9615064 -0.1891516 0.199317 115 115 115
-0.0310225907071917 0.0247780451163916 0.0180674954775632 -0.9634021 -0.1778902 0.2005281 125 125 125
-0.0339702162052886 0.0306124013207199 0.0100253974624106 -0.9640765 -0.1719063 0.2024962 109 109 109
-0.0329791262987504 0.0316369485758219 0.010505555057887 -0.9565096 -0.1874585 0.2234918 99 99 99
-0.0329194725150703 0.0290205921546342 0.0138580423104841 -0.960306 -0.1804128 0.2127524 122 122 122
-0.0337805771266377 0.0329518184851691 0.0124845544210107 -0.9657516 -0.1764206 0.1902616 114 114 114
-0.0329765048641848 0.0317985367885979 0.0123054646041987 -0.9545555 -0.2041456 0.2171371 108 108 108
-0.0335634865856056 0.0312294803233935 0.0144262501104879 -0.9637206 -0.1918616 0.1855582 145 145 145
-0.0332777380520701 0.0321570550950455 0.014470253638205 -0.9592727 -0.2031297 0.1963012 104 104 104
-0.0348559758504812 0.0340002019327957 0.0100047763818354 -0.9554368 -0.2180623 0.198971 95 95 95
-0.0342265349885771 0.0349524151515274 0.0120168702971369 -0.9559137 -0.2110451 0.204179 111 111 111
-0.0349719499692271 0.0367183269662822 0.00940939212124152 -0.9611382 -0.2015112 0.1886973 95 95 95
-0.0359129068755837 0.0371420498198 0.0106409788910799 -0.9607586 -0.1872488 0.2046478 101 101 101
-0.0352327102336745 0.0382380314075538 0.0107068934279648 -0.9590831 -0.1773908 0.2206631 122 122 122
-0.0340218797505565 0.034938937452649 0.0138252448017546 -0.960525 -0.2068347 0.1860405 106 106 106
-0.0342520364553054 0.0368259882824152 0.0142647107938303 -0.954936 -0.1954352 0.2233883 108 108 108
-0.0346398245369648 0.0383638667062249 0.014459723328643 -0.9561129 -0.1830595 0.2287734 112 112 112
-0.0325242698780803 0.0303158773497473 0.0162939650516379 -0.955063 -0.2097939 0.2093831 115 115 115
-0.03177635075554 0.0288947333380506 0.0201451621553362 -0.9647012 -0.1817089 0.1906135 114 114 114
-0.0317288680058365 0.0308776775117447 0.0204845767210571 -0.9634323 -0.1851969 0.1936499 100 100 100
-0.0333251361201998 0.034860229140807 0.0165361729502727 -0.960898 -0.189599 0.2018101 104 104 104
-0.0337589451666491 0.0359696147441769 0.0154692511414973 -0.9572214 -0.1998113 0.2092908 99 99 99
-0.0341419291957969 0.0385953497628259 0.0162245082656083 -0.9574185 -0.1824996 0.2237044 108 108 108
-0.0330165409452825 0.0348679391743921 0.0184451042293646 -0.9537109 -0.2009546 0.223725 109 109 109
-0.0325170375428778 0.0352047692972626 0.0206404236290905 -0.9530045 -0.2030732 0.2248194 112 112 112
-0.0332111456879778 0.0384014573248618 0.0203872847874408 -0.9608214 -0.2033669 0.1883193 101 101 101
-0.031222108110101 0.0278688763375724 0.0181630011616254 -0.9620517 -0.1786786 0.2062289 94 94 94
-0.0288923334590483 0.0188197627075941 0.0223544914153168 -0.962135 -0.1838064 0.2012747 116 116 116
-0.0293078962150437 0.0203752171851601 0.0221027642241066 -0.9619098 -0.1792513 0.206394 121 121 121
-0.0296446277082989 0.0211335740658314 0.0219961349044038 -0.960222 -0.2006598 0.194189 118 118 118
-0.0281678496062125 0.0164284399198208 0.0240588917151125 -0.9636753 -0.1711773 0.2050078 128 128 128
-0.0279919329374163 0.0171940341162607 0.0261828769538704 -0.9653398 -0.1720463 0.1962629 120 120 120
-0.0281992595412353 0.0188460799435566 0.0261615775364176 -0.9619046 -0.1852615 0.2010414 112 112 112
-0.0284745774901707 0.0208685531621466 0.0261050234267112 -0.9623681 -0.1903964 0.1938991 104 104 104
-0.0302217788756882 0.0246019764911786 0.0221754022675321 -0.9574931 -0.1997116 0.2081399 120 120 120
-0.0297684313055968 0.0226996339932115 0.0235743736496938 -0.9588816 -0.1934818 0.2076314 91 91 91
-0.0292364988779177 0.0231277273370972 0.0244995841290446 -0.9585721 -0.1982802 0.2045102 109 109 109
-0.0288682226769474 0.022931259344294 0.0262178982997347 -0.9554194 -0.2042865 0.2131684 120 120 120
-0.0299257196595659 0.0243928936851378 0.0235423000846405 -0.9563673 -0.2016972 0.2113762 108 108 108
-0.0301349515727818 0.0269883206318303 0.0244156507433924 -0.9609929 -0.1730228 0.215768 116 116 116
-0.0272037049158631 0.0164202263572286 0.0281382165469706 -0.9605 -0.1747574 0.2165633 118 118 118
-0.0278442968085861 0.0191299293131948 0.0282956898358476 -0.9642882 -0.1733871 0.2002129 121 121 121
-0.028299890363803 0.0206717942967067 0.0278959375149076 -0.9606177 -0.1810035 0.2108352 105 105 105
-0.0274316314881606 0.0170018158580943 0.0291974874911763 -0.9578124 -0.1834643 0.2212154 131 131 131
-0.0265380080997826 0.0171905706467163 0.0323629875934424 -0.9570019 -0.1968393 0.2130766 128 128 128
-0.0275956327667155 0.0189734090869051 0.0301980759744885 -0.9581436 -0.1893173 0.2147553 129 129 129
-0.0277519941202602 0.0206746202444327 0.0298226829788112 -0.9620285 -0.1783781 0.2065971 125 125 125
-0.0276976358975243 0.0209080085006929 0.0318214174080848 -0.9595821 -0.186724 0.2105617 98 98 98
-0.0271500988084514 0.0207426618112495 0.0318662334099207 -0.9585536 -0.1891973 0.2130246 101 101 101
-0.0285463899266825 0.0230067309074563 0.0279791018958571 -0.9570259 -0.1980934 0.2118027 113 113 113
-0.0293485058527065 0.026137714744332 0.0267141377555292 -0.9620678 -0.1826537 0.2026403 109 109 109
-0.0288708724022531 0.0250400013004736 0.0285298741056461 -0.9638923 -0.1773392 0.1986513 117 117 117
-0.0296070168682938 0.0269830721940243 0.0280777363987894 -0.9608662 -0.1841342 0.2069561 101 101 101
-0.0280676288590205 0.0227066428431805 0.0302492547196754 -0.9591327 -0.2030243 0.1970926 125 125 125
-0.0276999707035908 0.0225271438019355 0.0316433375678355 -0.9584782 -0.194088 0.2089242 113 113 113
-0.0284444199188241 0.0245080100012475 0.030392511186201 -0.962714 -0.1823306 0.1998434 108 108 108
-0.0288903705532666 0.0265340371354255 0.0299067298674855 -0.961905 -0.1895979 0.1969554 105 105 105
-0.0282606222545336 0.0249434877195337 0.0320607697484525 -0.9643993 -0.1816276 0.1922119 116 116 116
-0.0320843589031241 0.0333842848770746 0.021545637103121 -0.9630648 -0.1815664 0.198846 116 116 116
-0.0324363136093229 0.0364920119213153 0.0222383819365258 -0.9537901 -0.2288107 0.1947563 102 102 102
-0.031879371258376 0.0366155422592878 0.0259519079853031 -0.9551556 -0.2019461 0.2165539 114 114 114
-0.0315849383041296 0.0290561828254746 0.0213067344458094 -0.9584774 -0.1879883 0.2144327 85 85 85
-0.0311611517874342 0.0310639617213052 0.0223518353567841 -0.9607922 -0.1906197 0.2013514 104 104 104
-0.0311172814876084 0.0309792142383337 0.0238420661941009 -0.9592339 -0.2037126 0.1958861 100 100 100
-0.0306046804031759 0.0287780163015413 0.024358690911533 -0.9615904 -0.1783783 0.2086266 101 101 101
-0.0317972718674406 0.032886862856661 0.0241509281397067 -0.9626305 -0.1911106 0.1918839 122 122 122
-0.0312317434874945 0.0343929979941655 0.0244899882989488 -0.9611409 -0.2019345 0.1882305 105 105 105
-0.0320548544940709 0.0386305629071122 0.0261878709109784 -0.956618 -0.06165906 0.284746 98 98 98
-0.0292483898876887 0.0286609107025206 0.0277288197183351 -0.9618632 -0.1761149 0.2092912 112 112 112
-0.0304406696763164 0.0310649229719452 0.0278192464263484 -0.9561104 -0.1890991 0.2238178 102 102 102
-0.0292039032868099 0.0287143905907211 0.0300984321770481 -0.9645193 -0.1705615 0.2015225 104 104 104
-0.0287557371815474 0.029108208826888 0.0322846625897437 -0.9681929 -0.162736 0.1900512 103 103 103
-0.0292482028547094 0.0303050525854293 0.0308258175129599 -0.9625469 -0.1760852 0.2061488 101 101 101
-0.0300199046742036 0.0331273698804847 0.030172859876737 -0.9536198 -0.2031946 0.2220841 107 107 107
-0.0312015381753092 0.0346324526087397 0.0265950925635937 -0.9581877 -0.1997975 0.2048348 104 104 104
-0.0310501914687997 0.0366490497435928 0.0281784032734943 -0.9591064 -0.1494931 0.2403469 102 102 102
-0.0303965493587852 0.0344782447910433 0.0302659817970282 -0.9537519 -0.1984273 0.2257963 109 109 109
-0.0293933938854158 0.0331760627755125 0.0311873210017906 -0.9521315 -0.2038723 0.2277756 116 116 116
-0.0318258705435477 0.0374953930944036 0.0291813588220138 -0.9509181 -0.07089444 0.3012123 111 111 111
-0.0316645412339096 0.0387098909110667 0.0280555616834406 -0.9623696 -0.01744658 0.2711832 108 108 108
-0.0310420028887584 0.0387979207327636 0.0302152600439297 -0.9038173 0.2129562 0.3711657 112 112 112
-0.0308054358086942 0.0381701872324921 0.0319131358560631 -0.93191 0.1213088 0.3418009 88 88 88
-0.0215468919587309 -0.00684008339252218 0.0328606876952809 -0.8757684 -0.2745773 0.3970353 120 120 120
-0.0214446586084327 -0.00737787477388319 0.0338409393005097 -0.8740377 -0.2894278 0.3902431 114 114 114
-0.0210668283643216 -0.00356967366000871 0.0353169643925179 -0.7004223 -0.3676104 0.611777 125 125 125
-0.0230899002728104 0.00152688010908875 0.0343347634749885 -0.9010939 -0.1581544 0.4037536 101 101 101
-0.0221903393484879 -0.00124881875391214 0.0355212951489827 -0.8716696 -0.1685637 0.4601938 101 101 101
-0.0219044990598793 0.00306081545698456 0.0373842626187231 -0.688195 -0.2180124 0.6919958 107 107 107
-0.0235324497144591 0.00414495646616697 0.0335235927964995 -0.9500253 -0.2026298 0.2374721 124 124 124
-0.0240628908096809 0.00630833024212085 0.0338524025386894 -0.9503854 -0.1800125 0.2536988 111 111 111
-0.0244798185587549 0.00874572776822724 0.0343515917489256 -0.9438989 -0.2055772 0.2584434 135 135 135
-0.0231877514075955 0.00407948167011574 0.0350839178941768 -0.8333976 -0.2504591 0.4926649 111 111 111
-0.0251955290135979 0.0126136070723991 0.0341400241655697 -0.9506004 -0.1902699 0.2452677 122 122 122
-0.02522461318642 0.0127289666388262 0.0326393087688199 -0.9585046 -0.1912424 0.2114128 116 116 116
-0.021871112066723 0.00718582757657349 0.0379035043835022 -0.5515091 -0.3006756 0.778095 103 103 103
-0.0221923252122258 0.00823369943632513 0.0385408568638109 -0.4692429 -0.3053238 0.8286064 99 99 99
-0.0240709017593377 0.0114178084752388 0.0385404279669178 -0.7362784 -0.2468249 0.6300568 102 102 102
-0.0232537442735836 0.0127426452251506 0.039084338957551 -0.5867113 -0.2409315 0.7731248 97 97 97
-0.0247218572900449 0.0153802843433476 0.0383091027684905 -0.7873986 -0.2235529 0.5744802 111 111 111
-0.0240285546918111 0.0130141266373751 0.0395410931539931 -0.6011389 -0.2492471 0.7592812 88 88 88
-0.0210232766960956 0.0142550680686384 0.0403547303609953 -0.2774878 -0.2843834 0.9176746 105 105 105
-0.0263329435194635 0.0179219177506484 0.0337061617155754 -0.9570113 -0.1885245 0.2204266 108 108 108
-0.0257795854273526 0.0166949278111808 0.0351649359818829 -0.958537 -0.1942065 0.2085441 114 114 114
-0.0271911419939628 0.0229555074452822 0.0341575393979741 -0.9572384 -0.1955266 0.213223 110 110 110
-0.0277176476118695 0.0234316586518499 0.0336110354528858 -0.9577215 -0.1946347 0.2118651 113 113 113
-0.0280416494713231 0.0253225541652693 0.0341790561207098 -0.9598749 -0.1949827 0.2015491 101 101 101
-0.0267554300733761 0.0232250486230989 0.0362224088480399 -0.9525902 -0.195861 0.232831 122 122 122
-0.0277219254644105 0.0262602586049128 0.036296519796157 -0.958296 -0.1918298 0.2118257 101 101 101
-0.0252074691322786 0.0177487821516454 0.0385350617060445 -0.8759673 -0.2380277 0.4195523 110 110 110
-0.025455410032392 0.0175670333232223 0.039720578942543 -0.8082479 -0.2325909 0.5409592 112 112 112
-0.022217943865922 0.017350258267211 0.0403987919902644 -0.5419263 -0.3002091 0.7849779 127 127 127
-0.020462827767181 0.0172648873841799 0.0405781288440597 -0.2375233 -0.1770678 0.9551072 112 112 112
-0.0256418140310963 0.0187967692497624 0.0395827584549199 -0.8612891 -0.2554308 0.439245 93 93 93
-0.0258504594856808 0.022807497790355 0.0404899170863369 -0.9138414 -0.2175322 0.3428902 95 95 95
-0.0264171306096124 0.0267935949570409 0.0407141413149692 -0.776939 -0.2889031 0.5593754 91 91 91
-0.0285259000130114 0.0283785375563337 0.0338345653169924 -0.9670724 -0.1612149 0.196928 114 114 114
-0.0288221522208889 0.0305605760851347 0.0338895172065106 -0.9674407 -0.1680756 0.1892326 109 109 109
-0.0280951315938569 0.0291000259587058 0.0365521206262807 -0.9609327 -0.1845889 0.2062405 112 112 112
-0.0281412695864491 0.0297236030903535 0.0373413974940496 -0.9578412 -0.1840696 0.220587 130 130 130
-0.0284915230170579 0.0316121016816748 0.0359042874084643 -0.9668111 -0.1779438 0.1833363 97 97 97
-0.0297354411824109 0.0347275456736571 0.0338520888184356 -0.969929 -0.06047249 0.2357557 126 126 126
-0.0300607396796628 0.0367774139405442 0.0339642116640769 -0.9585456 0.04845913 0.2807881 100 100 100
-0.0297935926539803 0.0387605730033759 0.0339386569436901 -0.8775716 0.3696352 0.3053489 133 133 133
-0.0284256698681802 0.0327752420120182 0.0366092006305674 -0.9699627 -0.07998618 0.2297274 92 92 92
-0.0285218305189268 0.0390027806026436 0.0363135185604859 -0.7519147 0.5613688 0.3456724 136 136 136
-0.0283266291695661 0.0383142883472181 0.038106479621359 -0.7948864 0.497529 0.3473048 122 122 122
-0.027590295072113 0.0294997455555652 0.0392547285906428 -0.939575 -0.1814726 0.2902869 85 85 85
-0.0279054699432921 0.0308104732671742 0.0386339784119621 -0.9545265 -0.1791838 0.2382693 99 99 99
-0.028559971145516 0.0329590678000826 0.0382726037604757 -0.9635864 -0.03186429 0.2654917 113 113 113
-0.0275641607104793 0.0313846719410289 0.0403006626160436 -0.9178811 -0.1386057 0.3718638 92 92 92
-0.0262613417603348 0.0291435026873642 0.0428530437460403 -0.734165 -0.2310622 0.638445 108 108 108
-0.0264939469840924 0.0309206965900994 0.0433982535729907 -0.6778513 -0.2165911 0.7025709 69 69 69
-0.0245971498662108 0.0294233341992451 0.0438524109077248 -0.3467495 -0.2644857 0.8998956 88 88 88
