ply
format ascii 1.0
comment File exported by Rhinoceros Version 7.0
element vertex 471
property float x
property float y
property float z
property float nx
property float ny
property float nz
property uchar red
property uchar green
property uchar blue
end_header
-0.0647266605660755 -0.00997094941265519 -0.00651154701584994 -0.4219293 -0.9015253 -0.09606122 93 93 93
-0.0199477328056981 0.0175991773137731 -0.00212560690513958 0.08671587 0.4717675 0.8774484 224 224 224
0.0683389251509099 0.0409684494176192 -0.00681503062792682 -0.07293074 0.6700041 0.7387663 80 80 80
0.0243597822235464 -0.0254391824293689 0.0236319289038962 -0.0721119 0.3678719 0.9270762 205 205 205
-0.0613935138802644 -0.0119091710318187 0.016678401296158 0.1122726 -0.5019094 0.8576024 96 96 96
0.0579348465091565 -0.0302577225454876 0.0139373596455861 0.9220684 -0.3576874 0.1478165 104 104 104
-0.0561736042014043 -0.0131258767929954 -0.0111159266095605 -0.5740274 -0.8067046 -0.1404287 79 79 79
0.0236988543223906 -0.0355101321022637 -0.00172820603018187 -0.1764606 -0.9665766 0.1859874 164 164 164
-0.0436819569166684 0.0106213454133739 0.00557694591394881 0.3269682 0.2570285 0.9094109 145 145 145
0.0374005185131678 -0.038106272291726 0.0132226498661629 0.07956123 -0.9948491 0.06281104 63 63 63
-0.0485845213054015 0.00563635066597068 0.00901647645777115 0.4308794 0.1921497 0.8817151 120 120 120
0.0346907164130239 -0.0157140735586758 0.021688973719846 -0.3234935 0.27047 0.9067513 136 136 136
-0.0623009797493079 -0.0128271714165211 0.00844896431796149 -0.3897014 -0.9204335 -0.03057677 92 92 92
0.0521239489823562 -0.0153175029800989 0.027435477115613 -0.3120038 0.3483464 0.8839166 166 166 166
0.0343849168155947 -0.0263172290030904 0.0248358161580699 -0.3217049 0.4170484 0.8500451 205 205 205
0.0161513318759181 0.00703164981531579 0.00819305029291056 -0.1921829 0.4632515 0.865138 118 118 118
0.0320860194156931 -0.0283148208449209 0.0256931610887891 -0.2461198 0.5482771 0.7992604 190 190 190
0.0174830811162736 0.0211732317762956 -0.000769867475113706 -0.2598755 0.5613135 0.7857429 97 97 97
-0.00225352063968209 -0.0322037323572391 0.000271530890412486 -0.09959649 -0.9947702 -0.02264371 117 117 117
0.0335041525976139 0.00757986081752482 0.00929619250369501 -0.2092233 0.5251008 0.8249211 104 104 104
-0.0141020358712298 0.00620037713666033 0.00345455442635906 -0.09590953 0.3870555 0.9170547 214 214 214
-0.000730230071282811 -0.0314531687609336 0.00505084041615378 -0.2084869 -0.9760023 -0.06287142 148 148 148
-0.0770640738864965 -0.00518990205842695 -0.00463186136708127 -0.3893381 -0.9107356 -0.1377551 93 93 93
-0.0259137615205725 0.0248272501396107 -0.00489358813500729 0.3672007 0.4892882 0.7910504 126 126 126
-0.0498210115448772 0.0586068038682681 -0.00171563410211906 -0.8241667 0.5542052 0.1166441 60 60 60
0.0695069159621422 0.00474560127753265 -0.00430115956203314 0.988352 -0.1004474 -0.114327 70 70 70
0.0384126982146524 0.0191807601799183 0.00588703394621548 -0.1849267 0.5407851 0.8205813 212 212 212
0.0336647969405983 0.00215729700828127 0.0147640364253013 -0.1974542 0.5198445 0.8311279 211 211 211
0.0698135546675798 0.0242032776597076 0.00815971668142146 0.3770438 0.4960079 0.7821854 125 125 125
0.0500786197687404 0.0362874153813122 -0.00725532823683739 -0.1335475 0.7372628 0.6622754 57 57 57
-0.0385865909719731 0.00461414809041583 0.00682833670185801 0.2181038 0.2584447 0.9410829 176 176 176
0.0206273980773601 -0.0345690296620023 0.00160437816567122 -0.2129459 -0.9661105 -0.1458921 135 135 135
0.0330978503125245 0.0167434875731096 0.00548948932101073 -0.2790051 0.5455579 0.7902675 188 188 188
-0.0593137062619569 0.00927632334144413 0.01503601681139 0.634353 0.1703535 0.7540398 202 202 202
-0.0642299735474223 0.00422498250213876 0.018373427672723 0.4434378 -0.05980495 0.8943077 95 95 95
-0.0428897314237151 -0.0200544623520216 -0.00711118786466081 -0.3310586 -0.9226823 0.1976299 107 107 107
0.0457851700272109 0.0164524719335799 0.00987851492184788 -0.1211523 0.5632892 0.8173294 206 206 206
-0.0377658639361313 -0.021341504882298 0.000705677977169417 -0.380808 -0.9199114 -0.0935326 110 110 110
-0.0172243573731397 -0.00140459247721769 0.00618700967703989 0.03352636 0.4401896 0.8972787 151 151 151
0.0580293921343595 -0.0270775120329556 0.0214326742057076 0.898263 -0.3802269 0.2203429 80 80 80
0.0142342053785582 -0.0310946831635135 0.0234756535617122 -0.2566804 0.1970948 0.9461865 102 102 102
0.0174959119093168 0.000205653747854528 0.012182418097026 -0.2240226 0.3807981 0.8971102 134 134 134
0.00484693404720415 0.0147368048910119 0.00146319761478803 -0.2798268 0.5521057 0.7854148 135 135 135
0.01410076676629 -0.0328351575528618 -0.00378031925847744 -0.2318946 -0.9717414 0.04408542 126 126 126
0.0150081705760727 -0.0262662950526988 0.0218903964463457 -0.2204197 0.3283933 0.9184623 123 123 123
0.00985256499168807 0.0176552831535637 -0.000421775638309363 -0.2069423 0.7063653 0.6769217 99 99 99
-0.0129835776448113 -0.0296189776752362 -0.00545610353930553 -0.215395 -0.9763025 -0.02093844 163 163 163
0.0122544416683947 0.0282056959089341 -0.0071358892377118 -0.1987094 0.5614592 0.8032921 92 92 92
-0.0434371193472276 0.0462721231700198 0.00228060809702541 0.7228522 -0.1489527 0.6747575 68 68 68
-0.0534791467012394 0.00691795309510157 0.0120554535200964 0.4266162 0.1694115 0.8884246 165 165 165
-0.0244151055246142 -0.019366591641349 0.0114607384157365 -0.10206 0.2201133 0.9701205 113 113 113
-0.0588426061247929 -0.00686985361676173 0.0139522178551289 0.464052 0.01937085 0.8855961 117 117 117
0.00478267403056032 0.00948832169491132 0.00383873552244907 -0.3141375 0.5016927 0.8059914 97 97 97
0.0362459935959922 -0.0227990926982853 0.0251788815258634 -0.4114808 0.2617834 0.8730138 211 211 211
0.0710252930226627 0.0292826636219781 0.00279542374539837 0.4055521 0.6270977 0.6650383 92 92 92
0.0588733476099197 -0.0202193003874886 0.02511947762591 0.9058827 -0.03009391 0.4224582 60 60 60
0.0189150755535148 -0.0186957441205156 0.0185463006570109 -0.130169 0.5226648 0.8425423 202 202 202
-0.030773529714029 -0.0234516206068418 -0.00533315593077965 -0.3131768 -0.9428886 0.1134958 105 105 105
0.0348169699855587 0.030338936044884 -0.00349500967021998 -0.05034838 0.7553705 0.6533609 65 65 65
-0.0365577742757317 -0.0158990663516745 0.010865910059296 0.01629608 0.2122946 0.9770699 113 113 113
0.0583907769525034 -0.00157005126429022 0.023645674554996 0.23114 0.1924135 0.953704 204 204 204
0.0269940131111666 -0.00881529694781924 0.0174839894134076 -0.2207829 0.1373694 0.9656006 178 178 178
-0.0362262291404822 -0.00646056540250184 0.00905517219231333 0.1059817 0.2115378 0.9716067 129 129 129
0.057621589971272 0.0338534696439232 -0.0032699106448949 -0.1176083 0.7192473 0.6847274 85 85 85
0.0264998925039857 -0.0364980974279265 0.00800157733700735 -0.1575101 -0.9777588 -0.1384857 136 136 136
-0.0247028864527254 -0.0249617909093156 -0.00838780043840165 -0.3719888 -0.9271125 -0.04568069 180 180 180
0.0287749842117111 -0.00331380584999219 0.0161123294579011 -0.2218606 0.4154963 0.8821228 177 177 177
-0.00840545023605843 0.0198368713155428 -0.00450738137208118 0.0110382 0.6736649 0.7389545 79 79 79
0.0290992197971494 -0.0362647565311287 -0.0030274840360428 -0.1825067 -0.9398286 0.2888142 178 178 178
0.0695636179639489 0.00774328676233771 -0.00517652626457521 0.9813508 -0.1288498 -0.1426475 52 52 52
0.0453083899585991 0.0364579573029506 -0.00806378041875516 -0.1503832 0.7524549 0.6412461 63 63 63
0.0717535827803473 0.0224437042546728 0.00767150255458771 0.7501512 0.1740644 0.6379457 68 68 68
0.0300526634410243 0.0314812430382678 -0.00529078522972692 -0.1525433 0.7963938 0.5852244 51 51 51
0.00887100394328888 -0.0344967523118545 0.0197296068464665 -0.2893327 -0.8591133 0.4221503 79 79 79
-0.0560128614449185 0.0210118764668632 0.0102456859636407 0.5419592 0.03613747 0.8396274 207 207 207
-0.0774120838959145 -0.00479688853457905 -0.00868120051425841 -0.4119601 -0.8944604 -0.1738664 75 75 75
0.0403819928443823 0.0328793889724213 -0.00543301868301238 -0.2047519 0.7196409 0.6634709 54 54 54
0.0610029322275856 -0.0234890585764427 0.011479931759007 0.9824576 -0.09284506 0.161731 49 49 49
0.0440369349996357 0.021546403187704 0.00501040661703639 -0.1542805 0.6156228 0.7727911 67 67 67
-0.00432191064619092 -0.00220619730800209 0.00784854304125931 -0.1820739 0.338012 0.9233618 199 199 199
0.0320920130065101 0.00661799175367861 0.0106540334790614 -0.1053716 0.5681837 0.8161275 127 127 127
0.026928329777224 -0.0145965879065948 0.018615897782807 -0.300665 0.26279 0.9168108 89 89 89
0.0588066773991778 0.0397037281469061 -0.00749867671076659 -0.1455154 0.6057212 0.7822577 74 74 74
0.0490254066766522 0.00216331931851976 0.0197786215417512 -0.3022241 0.4711442 0.8286638 205 205 205
-0.0605419402118588 -0.000329241447610373 0.0143975580153602 0.4437082 -0.154227 0.8828007 110 110 110
0.0562302272741593 -0.0325218818899859 0.0215548633500098 0.8499577 -0.438677 0.2917779 96 96 96
0.00814280953597857 0.00815084288345247 0.0067623411884169 -0.2221061 0.3837149 0.8963435 149 149 149
-0.0440399360188697 0.00112627354143879 0.00853227709673854 0.2518154 0.1769842 0.9514545 147 147 147
0.0557637277379595 -0.0175871162513108 0.0287970476656124 0.1566746 0.1377148 0.9780019 210 210 210
-0.0490031902621282 -0.0016980386808676 0.0104800901761427 0.2884911 0.06234974 0.9554504 209 209 209
-0.0380483039640516 -0.00869461986376452 0.00955135375660598 0.05604389 0.1209603 0.991074 131 131 131
-0.0669413284795835 0.0306869247656472 -0.00152957043439206 -0.8114877 0.5424103 0.217437 79 79 79
0.00599034777685103 0.00165491518345839 0.00738387857313338 -0.1708681 0.465386 0.8684584 116 116 116
0.0685476384075376 -0.00200563426043443 0.000541883422574885 0.9527047 -0.2538671 0.1670489 67 67 67
-0.0441160294236433 -0.0201359764396305 0.00997885736194082 -0.3849006 -0.620319 0.6834149 106 106 106
-0.0210179819234697 -0.0290157831882683 -0.00844305685898972 -0.3733301 -0.927165 -0.03146057 84 84 84
-0.0632280346693159 0.0245630506118255 0.0142037114977749 -0.2617819 0.373134 0.8900794 154 154 154
-0.0741381521773765 0.0185817038263514 -0.00156569293117398 -0.7904984 0.4993088 0.3546871 71 71 71
-0.0740970951763389 -0.00643336780284209 -0.0106028284741526 -0.4235528 -0.8982339 -0.1173835 89 89 89
-0.0271353865541677 0.000185632908427769 0.00543206646058614 0.05681103 0.4242419 0.9037651 124 124 124
0.00338923550054115 -0.0052541109211901 0.0113971172493074 -0.2033742 0.2873039 0.9359997 141 141 141
0.0259784273740058 -0.0370482982666465 0.0132499101753912 -0.09959298 -0.9907273 -0.09241555 76 76 76
0.0627892912519381 -0.0065880219903216 0.0170204750252009 0.9401109 -0.08334333 0.3305231 57 57 57
-0.0462150455433745 -0.00749714490875775 0.01036179644867 0.222692 0.1607625 0.9615424 130 130 130
0.0445156592348397 -0.00852873969479462 0.0221401148300416 -0.2122316 0.3988871 0.8921025 224 224 224
-0.0665826912766403 -0.0105880331855621 0.00900317672314221 -0.3764459 -0.925235 0.04720805 87 87 87
0.0426344223159618 0.0212891689421246 0.00549785140923076 -0.1782371 0.6019174 0.7784131 91 91 91
0.036575760170936 -0.0373985183602028 0.0268188219545954 0.06832282 -0.9656143 0.2508407 53 53 53
0.0134255881972716 -0.00813001611031505 0.0137336704447766 -0.1986862 0.2391441 0.9504388 134 134 134
0.0187508531292826 0.0181856163410534 0.00148912483385288 -0.1901232 0.5588374 0.8071889 109 109 109
-0.0411175527217966 -0.019741626314294 0.000575654564009431 -0.4217963 -0.9037936 -0.07242222 133 133 133
0.0271881461650656 -0.021038204834223 0.0206338389756221 -0.133884 0.3967374 0.9081159 131 131 131
-0.012817062563951 0.0197161512777757 -0.00341872799269871 0.04201661 0.6684721 0.7425495 190 190 190
0.0720987607619277 0.0160858443545013 -0.00134653505680249 0.9815918 -0.1765445 -0.07286695 71 71 71
-0.0259700509416891 -0.025009086347489 0.00824475293319032 -0.2456423 -0.9589477 0.1417006 137 137 137
-0.0379758957141858 0.0183375231251084 0.00243298382148327 0.384118 0.3446695 0.8565374 145 145 145
0.0317115554663925 -0.0367577336960168 -0.00297005637388104 -0.251677 -0.8935906 0.3716916 149 149 149
-0.0590506332201017 -0.0131672721745899 0.00275649499249087 -0.411862 -0.9106331 -0.03342044 93 93 93
-0.056186410444405 -0.014971354306504 -0.00785204671110956 -0.5998034 -0.7931204 -0.1058106 112 112 112
0.0209920978395357 -0.0171575397376993 0.0174945150188071 -0.1914751 0.4409054 0.8768921 117 117 117
0.0137122338205318 -0.0356584524767574 0.0106958867748792 -0.08657275 -0.9960227 0.02107112 135 135 135
-0.0520654414609667 0.00714208595612131 0.0105810340588456 0.4451627 0.1905355 0.8749436 121 121 121
0.0078209412300585 -0.0349172861927174 0.00953045705009825 -0.190734 -0.9645535 -0.1823651 93 93 93
-0.05550224486994 0.0497458397520716 -0.00374284056921409 -0.8542599 0.5100731 0.1003264 47 47 47
0.0582214492186375 -0.0336516266225424 -0.00146496454304212 0.9083552 -0.3908707 -0.1486972 37 37 37
-0.0841057259292106 0.00342830952738971 -0.00543183290660815 -0.9767155 0.1675606 0.1339786 81 81 81
0.0381486607273231 -0.0268380252816662 0.0270121605254432 -0.3211163 0.4057116 0.855735 80 80 80
0.0105595777809833 0.00946127894164062 0.00563324993849434 -0.1094659 0.470543 0.8755607 107 107 107
-0.0162868521299506 -0.0132183569122553 0.0110299164704249 -0.06383895 0.4159819 0.9071293 190 190 190
0.0320906086404209 -0.037767358126815 0.00848209500065999 -0.1801129 -0.9750661 -0.1296355 78 78 78
-0.073403832608971 -0.00753578931628374 -0.00129337718416106 -0.3043683 -0.9515758 -0.04316755 127 127 127
-0.00949727448140747 -0.0120444434818241 0.0116144289900892 -0.1618254 0.3951559 0.9042479 186 186 186
-0.00383264374067327 0.0250776250125044 -0.00856225201623972 -0.03552103 0.5659366 0.8236832 71 71 71
0.0398929311667486 -0.0220633819657969 0.0258663312481529 -0.3477423 0.2885495 0.8920844 212 212 212
-0.0040185227592211 -0.000995927983084455 0.0069361166445896 -0.202992 0.3196812 0.9255259 211 211 211
-0.0290178301253174 -0.0247703050003343 -0.00755771165672242 -0.2768576 -0.9606968 0.02028466 91 91 91
-0.0164604278331639 0.0252043851718953 -0.00819091860786469 0.142854 0.5630751 0.8139651 103 103 103
0.013803412584426 -0.000401742447164288 0.0118491992407042 -0.191272 0.3722775 0.9081985 124 124 124
0.00530818356490492 -0.0333870481101997 0.020271857101788 -0.4571867 -0.5670171 0.6851802 71 71 71
-0.0437368429191141 0.0400057251095693 0.00261497761675844 0.6790993 0.04157399 0.7328681 66 66 66
0.0140657026892756 0.0302246632853544 -0.0082776836222892 -0.1518101 0.6386767 0.7543512 100 100 100
-0.0811855131804742 0.00154758302195823 0.00363841948548105 -0.884669 0.2905879 0.3645811 69 69 69
-0.0438631763121764 -0.0186538382020942 0.00341083876251758 -0.4435985 -0.8875327 -0.1245237 120 120 120
-0.0383750723765042 -0.0200858914793434 0.0128038348998118 -0.05625854 -0.1381218 0.9888161 101 101 101
-0.0352856868485913 -0.022469090764125 -0.00176905606215516 -0.34066 -0.9398028 -0.02686021 105 105 105
-0.0606967281465938 -0.00237247988044165 0.0144290697811237 0.4867191 -0.0134237 0.8734554 129 129 129
-0.0197161220579409 -0.0270559801032668 0.00541402726508422 -0.3184173 -0.9477984 0.01698735 124 124 124
-0.0705177509340054 0.0266172399829963 -0.00334154240438833 -0.7943134 0.535621 0.2866644 111 111 111
-0.00409056705199928 0.00414001946603149 0.00569466804251595 -0.1703893 0.4229392 0.8899943 121 121 121
0.000639463145041042 -0.0125518153244093 0.0132863848116245 -0.1207645 0.4132049 0.9025949 88 88 88
0.0141343028933734 0.015058533117831 0.00337350841841166 -0.09793465 0.5455649 0.8323267 107 107 107
0.0182745989793975 -0.0339808791895115 -0.00416789031868914 -0.3387422 -0.9209087 0.1928234 168 168 168
-0.059245995441529 0.00505761841339014 0.0151620235103017 0.4903281 -0.01390959 0.8714269 200 200 200
0.0541513350684268 -0.0100873130650232 0.0264408722879066 -0.3035619 0.3509448 0.8858261 153 153 153
0.0353481809118814 -0.0196333247038443 0.0243072800555386 -0.3651783 0.3207344 0.8739418 146 146 146
-0.00223908670485251 -0.0128795194593327 0.0133279880897114 -0.1058201 0.3994301 0.9106359 87 87 87
-0.00610139752244709 -0.0122877570938213 0.0125478779960299 -0.1437805 0.3854042 0.9114773 183 183 183
0.0327136638068404 -0.0118802315922282 0.0202768725833501 -0.3402753 0.291719 0.8939311 148 148 148
0.00737620563545827 -0.0311121770412734 -0.00445496203607687 -0.1244229 -0.9918893 -0.02597195 138 138 138
0.0520996312876152 -0.0217683212514073 0.0297334886399356 -0.05933386 0.3003116 0.9519939 211 211 211
-0.0304924247676253 0.0584319995148446 -0.00981542145529446 0.6902593 0.1906928 0.6979816 95 95 95
-0.0737414681509834 0.00730173146141255 0.0140440291493417 -0.8238422 0.4168572 0.3840756 131 131 131
0.0505965862559261 0.0158326215490292 0.00967975768932189 -0.07878587 0.5952502 0.7996686 144 144 144
0.0664969973892955 -0.00444030428553832 0.00434934376007989 0.9240796 -0.2947896 0.2432612 68 68 68
0.062003025171089 -0.0259321698394082 -0.00130055448341954 0.8920487 -0.4490949 0.05062467 55 55 55
0.0661042512419612 -0.0134596721934443 -0.00688596393885249 0.9698458 -0.2244395 0.09500493 47 47 47
0.0058711729335319 -0.00286712456659344 0.0109740577638536 -0.1716405 0.3845384 0.9070114 143 143 143
-0.0596385398899795 -0.0131115350151159 -0.00108369948887965 -0.4614282 -0.8871092 -0.01101424 135 135 135
-0.0212997414262786 0.035361613902231 -0.0102639531816806 0.3495034 0.2782434 0.8946664 48 48 48
0.0386215554099723 -0.0131598677696843 0.0225315764680383 -0.360734 0.2558745 0.8968831 176 176 176
0.0313938050041096 0.0284618748112211 -0.0024254814852433 -0.1199653 0.6360081 0.7623004 68 68 68
-0.0244192442785107 -0.025484691424682 -0.00680474168862144 -0.3828361 -0.923211 -0.03343551 144 144 144
-0.0518065678797099 -0.0152603911047535 0.00458596283714902 -0.2079783 -0.9765727 -0.05523376 102 102 102
-4.88616785712104E-05 -0.0330450564112139 0.0110350881421212 -0.2886463 -0.9516211 -0.1053594 121 121 121
0.0134372554922391 0.0217463320285245 -0.00349250131129536 -0.2739156 0.5569464 0.7840797 116 116 116
-0.0148728697174443 -0.0132822245792337 0.0111000516336145 -0.07330395 0.4369226 0.8965072 193 193 193
-0.0302928299824439 -0.0157127144383788 0.0104590903595951 0.003699382 0.2070269 0.9783282 128 128 128
0.0547579977134194 0.0257762922189446 0.00321254359807988 -0.1365879 0.5482442 0.8250891 102 102 102
-0.00114313324992477 -0.0315323362750475 0.0188394435210907 -0.2883499 -0.484691 0.8257899 56 56 56
0.0484029861049557 0.0204203345832721 0.00609425545796771 -0.04388548 0.6123012 0.7894056 77 77 77
0.0567189252314688 0.00608635530833612 0.0193613669512788 -0.2558131 0.5481867 0.7962732 164 164 164
0.0306097518975688 -0.0371619225794415 0.0259797672068627 -0.1810554 -0.9444604 0.2742509 73 73 73
-0.0147089928102151 0.00576629996784317 0.00425026907813475 -0.1007581 0.3770234 0.9207069 219 219 219
0.0104526398549747 -0.0123005462163042 0.0146517412033615 -0.1345302 0.364253 0.921532 124 124 124
0.0482644413268645 -0.0123586441956796 0.0243931420193517 -0.2580647 0.3372531 0.9053524 131 131 131
-0.0404102223653267 0.0431892884920893 -0.00166193673023635 0.555261 -0.06034667 0.8294839 74 74 74
0.0246031002824911 -0.0361763096472956 0.00585825985009863 -0.09782005 -0.9843456 -0.146612 102 102 102
-0.0443494984802379 0.00370745588283472 0.00806033792392996 0.3038021 0.2626998 0.9158019 133 133 133
-0.0294453151473761 0.0127392139566103 0.00144393269926757 0.1607206 0.3912171 0.9061556 148 148 148
-0.000613337218028143 0.00166078679972448 0.00820567702372565 -0.1817704 0.366788 0.9123739 146 146 146
0.0465827746686052 -0.0123634217970146 0.0238796935510935 -0.2165468 0.3572798 0.9085475 171 171 171
-0.0326189861526265 -0.0201879196812207 0.0118035274148154 -0.03393476 -0.06759357 0.9971356 104 104 104
-0.038194439928227 0.0519049748317213 -0.00173881793186448 0.6663807 0.09596487 0.7394102 56 56 56
-0.0262739877868547 -0.0246928191786226 -0.00858875804132136 -0.3204821 -0.9469174 -0.02527462 136 136 136
0.017039983890951 -0.0134274556643275 0.015154206322116 -0.1811692 0.3124827 0.9324871 128 128 128
0.0250056875956415 -0.00532822192907112 0.0166320714540996 -0.2175251 0.3085127 0.9260144 166 166 166
0.0317253893358691 -0.0310431908877415 0.0275643652272413 -0.2217515 0.6853415 0.6936377 74 74 74
0.0206906104014188 0.0151518115498737 0.003920800979682 -0.02698289 0.5604941 0.8277187 96 96 96
0.0392189211185148 -0.0352340197874346 0.0328200492542606 0.1248772 -0.3891764 0.9126595 137 137 137
0.0385393430002035 -0.00892133630460035 0.0211902255727514 -0.2697222 0.3993318 0.8762329 176 176 176
0.044989200287767 0.00235441912288681 0.0175514913705079 -0.3355526 0.4707727 0.8159519 207 207 207
0.00648651444561832 -0.0349592779660663 0.00948671392408018 -0.2162093 -0.9634699 -0.1580487 134 134 134
0.0336085472589081 0.00184019824499115 0.0138733358457105 -0.1853001 0.5243046 0.8311248 203 203 203
-0.00440859088815415 -0.0306689184840467 -0.00308110480512364 -0.06394316 -0.9958442 -0.06485071 157 157 157
0.0496483961339327 -0.0219824820746244 0.0291613727058389 -0.1984697 0.4061179 0.8920079 190 190 190
0.0276056834773808 0.0282929443302633 -0.00320494083298595 -0.2734501 0.5737776 0.7720132 59 59 59
0.0261043482051 -0.0358873234784018 -0.00274803397703505 -0.1169337 -0.9576834 0.263 158 158 158
0.00464269080708268 -0.0159006720619985 0.0141918015845111 -0.0995863 0.4449001 0.8900262 111 111 111
-0.0657601392352078 0.0206965510846757 0.0130474511493169 -0.5921673 0.4655254 0.6577415 171 171 171
0.0566835182055616 -0.0378760188634453 -0.00277752093429307 0.7649917 -0.6028016 -0.2267554 48 48 48
-0.0502495254224433 0.0548453599181833 0.00546089009962858 -0.5165508 0.3357871 0.7876689 76 76 76
-0.053493775893914 0.025440012970968 0.00865402215106786 0.4924736 -0.03217385 0.8697325 179 179 179
0.047981468703262 -0.0397957193385865 -0.00207606385428255 -0.02306713 -0.9990447 -0.03711595 55 55 55
-0.0426728126688714 -0.0102239174276275 0.0101099930159095 0.1557262 0.1145887 0.9811314 107 107 107
0.0075425960735358 -0.00250669253156399 0.0112077720775322 -0.1553597 0.3684221 0.9165853 130 130 130
-0.0369161622543879 -0.0189784069089691 0.0114302266973058 0.0147753 0.02615799 0.9995486 105 105 105
-0.0108734421810071 -0.0300560876929237 -0.00189820467465424 -0.2416003 -0.9682955 0.06350763 169 169 169
-0.0447809203682534 0.0263672914832411 0.00389536324721207 0.5407996 0.05882419 0.8390921 106 106 106
-0.0418846198033025 -0.0195546235050994 0.00308369107090917 -0.4184199 -0.8998333 -0.1233886 119 119 119
0.0412464516984965 0.0281200401743686 -0.00121381313168756 -0.1370034 0.6559511 0.7422656 61 61 61
-0.0353415443217151 0.0291133755790294 -0.0024387084108512 0.5112986 0.2525732 0.8214502 121 121 121
-0.0337551217950476 0.016389899680475 0.0011657654369418 0.3537967 0.3677675 0.8599854 134 134 134
0.00763970070373876 -0.0317177027921207 -0.00598946320066052 -0.1449123 -0.9894438 0.001193817 137 137 137
-0.0516664526904358 0.0311756929850022 0.00841810772106377 0.5006452 -0.1221379 0.8569928 99 99 99
0.0331064095720799 -0.00737492058368061 0.0187986245594667 -0.2485309 0.26581 0.9314384 156 156 156
-0.0183266115981979 -0.016101279263931 0.0118402215127622 -0.1206403 0.3262863 0.937541 204 204 204
0.0645471648036922 0.0272877526453668 0.00539574199921472 -0.2059879 0.6844632 0.699342 154 154 154
0.0248940128637267 -0.00117036203750454 0.0145784651950715 -0.1847856 0.4525331 0.8723922 156 156 156
0.0665020115705901 0.0322510855641358 0.0013941276076197 -0.0336214 0.6299165 0.7759348 182 182 182
0.000944945422979071 -0.0241333104180053 0.0173719228311522 -0.173405 0.3936246 0.9027682 78 78 78
-0.0595810055448145 0.0413086237007276 0.0001559093716621 -0.8178052 0.5148682 0.2571097 88 88 88
0.0461337034926936 0.0349472621177664 -0.00611632013908969 -0.1472403 0.7457665 0.6497327 56 56 56
-0.0521655747041585 0.0354505525206501 0.00928390044020988 0.5294031 0.01017761 0.8483094 110 110 110
0.0254074927404844 -0.0371379192550754 -0.00682259229705329 -0.2213613 -0.9239573 0.3119328 140 140 140
-0.0567570354431517 -0.00823866891258573 0.0130403352618058 0.405911 0.02540759 0.9135594 138 138 138
-0.0430021752841037 0.0124107024520055 0.00434789468721813 0.27472 0.1954756 0.9414448 133 133 133
-0.00661980796992179 0.0137969915424827 0.000287669922665823 -0.1161004 0.5054277 0.8550225 144 144 144
-0.022324263406889 0.00550885673294887 0.00310298068159887 0.007355951 0.3737119 0.9275157 202 202 202
0.0264075736580782 -0.0232007093970645 0.0218597742929015 -0.02714939 0.461721 0.8866096 136 136 136
0.0457665146053756 0.0144542316492893 0.0106887861388792 -0.1558155 0.5284673 0.8345321 205 205 205
-0.0364166684995988 0.00580462798275905 0.00538143867001117 0.2664601 0.3062942 0.9138834 159 159 159
0.00792033259170077 -0.0331923266105787 0.0213899314799797 -0.3467497 -0.5422689 0.7653164 41 41 41
0.0651193598634374 -0.00845300193535548 0.00633121066286807 0.9379729 -0.2799849 0.2044878 49 49 49
0.0483556032476828 0.0223374882843992 0.00593125492163699 -0.036592 0.5993302 0.7996651 92 92 92
0.0278061708386557 -0.0378033518588279 0.0233809186706747 -0.1576146 -0.9717865 0.1754669 119 119 119
-0.067907044652451 -0.00899742491081956 -0.00661186471011771 -0.2800893 -0.9570533 -0.07482608 73 73 73
0.0115875593774968 -0.0335230600989158 -0.0097287155418162 -0.2847779 -0.9536737 0.0969947 134 134 134
-0.0547432352020327 0.0352226096620893 0.0109810257652639 0.392094 0.06672985 0.9175017 132 132 132
0.0324608679337 -0.0197034901034503 0.022054800449638 -0.3507934 0.2571569 0.9004523 141 141 141
-0.0573789984890252 0.0419232688030449 0.00779020598905816 -0.6525453 0.487823 0.5798391 68 68 68
-0.0486365927491708 -0.0180101139083502 -0.0113574951851779 -0.2918766 -0.9562135 -0.0215371 100 100 100
0.00906791645280247 -0.0327306505651761 0.000605314005272417 -0.1718095 -0.9465545 -0.2729762 154 154 154
0.0291301885438706 0.0277654349980536 -0.00266189509151843 -0.2325265 0.5898582 0.7733037 72 72 72
0.0270736995437284 0.00195231780929994 0.0130999377469339 -0.1262843 0.4418952 0.8881334 96 96 96
-0.034474560763408 0.0630511211684921 -0.0103031269808801 0.4476363 0.6246042 0.6399151 63 63 63
-0.0434177501129986 0.0630950140807893 -0.00904648957406545 -0.0643675 0.9644848 0.2561758 50 50 50
-0.0384811603863984 -0.021098832571018 -0.00503418548847467 -0.3749729 -0.9182814 0.1271006 114 114 114
-0.0163849225558632 -0.0282298548979054 0.000981771296850509 -0.269427 -0.9562879 0.1136771 86 86 86
0.0525237260170428 -0.0394350086078303 -0.00470811201607924 0.2538562 -0.9631324 -0.08906728 77 77 77
0.0621543249009564 -0.0099161798665095 0.0160657512145441 0.9469697 -0.194385 0.2558571 33 33 33
0.0437537972605182 0.0138122004483747 0.0106722970971085 -0.2528996 0.4879608 0.8354257 112 112 112
-0.00732588224608621 -0.0303218419915585 0.00818085076874187 -0.2747464 -0.9606752 0.04022018 117 117 117
-0.00624248816372264 -0.0149997983756411 0.0131800073798761 -0.1430504 0.3722463 0.9170437 147 147 147
0.0381804689368348 -0.0232797655752703 0.0262294014879008 -0.3598593 0.2139798 0.9081376 211 211 211
0.0589657755198454 -0.0326507511342355 0.00760810506566539 0.9271557 -0.3504543 0.1325292 80 80 80
-0.0325043507442153 -0.0243624169287642 -0.00947141357056591 -0.2351947 -0.9687117 0.07925394 92 92 92
0.0667214840772008 0.0260463756153217 0.00693348763244128 -0.1358933 0.713125 0.6877396 113 113 113
-0.0145171556803629 0.0210728473217194 -0.00550733886453386 0.07529905 0.6258544 0.7762966 123 123 123
0.0664234293736636 -0.0070354798408534 0.00234220866200757 0.9250311 -0.3146141 0.2129209 80 80 80
0.0662553639844812 0.0194365047673677 0.0100694383063119 0.1812785 0.3779601 0.907901 104 104 104
-0.0590079331927451 -0.00982818727845336 0.0140312720748526 0.3859209 -0.249359 0.8881921 129 129 129
0.0435083298768024 0.0356566341775417 -0.00763910214979879 -0.1750014 0.719938 0.6716129 73 73 73
-0.0413948030844411 -0.0213964957266111 0.00973180194658685 -0.2910742 -0.869054 0.4000262 144 144 144
-0.0468228932839487 0.00280586255760928 0.00928995921456111 0.3522502 0.1432935 0.9248712 130 130 130
-0.0366923972011883 0.0622690816894329 -0.00777959498965786 0.4169721 0.696105 0.5844417 81 81 81
0.00152941121193928 -0.0334498842210305 0.00998423429779682 -0.2758515 -0.9551735 -0.1074691 161 161 161
0.0158536067578021 0.0021772314740125 0.0106264901591673 -0.1857656 0.4009639 0.8970614 132 132 132
0.0659071042687329 -0.0148286962887463 -0.00581795114725869 0.9760914 -0.2033124 0.07687358 37 37 37
0.0469046845134993 -0.0393094391306694 0.00523696736444212 -0.07086413 -0.9812662 0.1791506 85 85 85
-0.0527860372432585 0.022335062119059 0.00858190947735948 0.4841011 0.02900505 0.8745311 203 203 203
-0.0513979328029484 -0.00577224271332843 0.0117300933568903 0.2288196 0.0514484 0.9721084 129 129 129
-0.0502898098084787 0.0099965751599751 0.0088681835584169 0.435339 0.2524776 0.8641383 131 131 131
-0.0513516572349135 0.0512237039219428 0.00578396761151412 -0.4895861 0.3422559 0.8019765 78 78 78
-0.01875302119609 -0.0277504358777771 -0.00801600292033533 -0.2920933 -0.9550509 -0.05059006 122 122 122
-0.0245200316798613 -0.0172940891444688 0.0115104285566883 -0.1296233 0.2552103 0.9581574 115 115 115
-0.0428773460718919 0.0436744859363738 0.000890935429981643 0.6799055 -0.09462833 0.7271685 78 78 78
0.0171518450414943 -0.0334977896293287 -0.00337064550015576 -0.2803504 -0.9497895 0.1389371 159 159 159
0.0142401549600746 -0.0353924564601498 0.00723408213608051 -0.129885 -0.9837716 -0.1237878 90 90 90
0.0154641300478238 0.000542050887295975 0.0105434733671993 -0.2100699 0.3419986 0.915919 131 131 131
-0.0147423702953442 0.0156987892582161 -0.00181420754934114 0.01301242 0.5037551 0.8637485 157 157 157
0.0160307802623687 -0.00892055747064036 0.0145825940997361 -0.2213353 0.16796 0.9606249 162 162 162
0.00553546323801246 0.0236700252211339 -0.00625416053889716 -0.2480487 0.5576262 0.7921647 136 136 136
-0.0107827350901193 -0.0249972690463496 0.0157282096893247 -0.161874 0.1321279 0.9779259 186 186 186
0.0152732039073546 0.0201829153228796 -0.000691501804949368 -0.1846889 0.606855 0.7730569 108 108 108
-0.0135408220460049 0.00250883523173906 0.0050134279354016 -0.1140785 0.2953465 0.948555 206 206 206
0.0576083692097655 0.0117360227884822 0.0158369290698956 -0.3257022 0.6357272 0.699835 106 106 106
0.00174761760086906 -0.0310168977587659 -0.00464201969918498 -0.02793164 -0.9971833 -0.0696076 115 115 115
0.0170032343858342 -0.0119875738338504 0.015092887077119 -0.1906548 0.2610265 0.946317 147 147 147
-0.00747990981271984 0.00155824446192532 0.0056055059258831 -0.1584976 0.3395935 0.9271218 220 220 220
0.0194115577688949 -0.0363539748417994 -0.0073421116695444 -0.3558074 -0.9219134 0.153221 170 170 170
-0.0159153407863086 -0.0295190670325207 -0.00711812491548258 -0.2029848 -0.9788249 -0.02643947 123 123 123
0.00902232242390832 0.019829667958021 -0.00166379105899733 -0.2276684 0.7018718 0.6749393 86 86 86
-0.0689154519594242 -0.00923154748864907 0.0127894517114441 -0.2447427 -0.9162579 0.3171315 79 79 79
-0.0270233667025326 -0.0245628818873125 -0.00313408945711702 -0.3332061 -0.937494 0.1003932 133 133 133
-0.0756470000147269 0.00607067226110791 0.0114396973391565 -0.8401803 0.3997652 0.366449 93 93 93
-0.00742391322600744 0.020414920940752 -0.00682095734197152 0.003283079 0.588345 0.8086034 108 108 108
0.0567016240625211 -0.0382135476539016 0.000224047117145187 0.6346041 -0.7718709 -0.03863785 49 49 49
0.0719995977276899 0.0373609909496853 -0.00408446410933117 0.1916639 0.5903921 0.7840294 103 103 103
0.0041680561428814 -0.0350317030687104 0.0125057905781977 -0.2736243 -0.9587058 0.07754333 140 140 140
-0.0807957460547279 0.00129369805386914 0.00514658551888503 -0.9048537 0.2503279 0.3443482 71 71 71
-0.0480859718448294 0.0422272308153109 0.00661923222429645 0.5413761 -0.06012538 0.838628 131 131 131
0.0577317975071567 0.0371500344568774 -0.00579891777723818 -0.1459044 0.6167592 0.7735115 71 71 71
-0.0717853215729143 0.00904983814214844 0.0158095988640318 -0.7106962 0.4684271 0.5248686 84 84 84
-0.0330868625265244 -0.0224852834086489 -0.00676678378615186 -0.294025 -0.9469948 0.1294224 82 82 82
0.00794722420798832 -0.0316408935781338 -0.00984345868941144 -0.1767101 -0.9842443 -0.0060502 143 143 143
0.0116791168893813 0.00837777766453973 0.00715466901816797 -0.1785035 0.4416586 0.8792464 129 129 129
0.023628193373344 0.0268086502596578 -0.00410464325302484 -0.1990259 0.6232354 0.7562845 80 80 80
-0.0780697086939095 0.003135581995793 0.00837053556921552 -0.8054041 0.481939 0.3450493 87 87 87
0.0161884052566048 0.0110054644514164 0.00555474103824549 -0.2015383 0.521192 0.8293017 118 118 118
0.0212223397962248 0.0244040130039807 -0.0021433157211731 -0.1624204 0.5979272 0.7849221 87 87 87
-0.00769489955338409 0.00555729310977449 0.00406559753226554 -0.09653821 0.3936485 0.9141779 151 151 151
-0.0447027435932892 -0.0190664709657207 0.00645426810631866 -0.4656964 -0.8849219 0.006332951 117 117 117
0.0163851240092847 0.0122452349354356 0.0048848797419207 -0.1650709 0.514711 0.8413229 115 115 115
-0.0236411577298457 0.0162016798006763 -0.00163717701348393 0.1170163 0.3978934 0.9099385 179 179 179
-0.0187218174822901 -0.026929166745018 0.0110279179531482 -0.3987638 -0.8491896 0.3462145 97 97 97
0.0156661615171401 -0.0333170234016131 -0.00115972567174732 -0.2123516 -0.9749296 -0.06647527 142 142 142
-0.075533800917289 0.0151302755305001 -0.000568179730401297 -0.8095224 0.4963544 0.3135375 79 79 79
-0.0663728658459428 -0.000925439208480983 0.018691149574144 0.4098006 -0.2263428 0.8836472 104 104 104
0.0588758281302155 0.0331573965727743 -0.00142988634114838 -0.1217789 0.7320918 0.6702324 85 85 85
0.0404639198846439 0.0333928486545465 -0.00733678505820312 -0.2175204 0.7121257 0.6675042 53 53 53
0.00634427034674578 0.00692663559888929 0.00603869987241412 -0.20496 0.3861547 0.8993753 147 147 147
-0.0802977246943914 -0.0014124026871829 0.0100360260494444 -0.9426483 0.2167827 0.2538099 64 64 64
-0.0105502532264445 -0.00492492127947153 0.00788521118522822 -0.0906891 0.4024609 0.910934 132 132 132
0.0397505463033854 -0.0252462069512558 0.0264267613006082 -0.3542994 0.2969105 0.8867447 117 117 117
0.0118438368880671 -0.0305224968229236 0.023037186479436 -0.2450884 0.2257228 0.9428579 105 105 105
-0.0237473746654113 -0.0255335175882299 0.0100854151779611 -0.2869498 -0.9170905 0.2767758 70 70 70
0.0257618110775004 0.00470843597211612 0.0118208306734794 -0.1084493 0.4861448 0.8671228 173 173 173
0.0379696181759228 -0.0375529126408425 0.0234389748297107 0.1456188 -0.981965 0.1205817 76 76 76
-0.0538643106250616 -0.0149496938462284 -0.00220330333279162 -0.3380903 -0.9352419 0.1049642 89 89 89
-0.0544997773737843 0.0452537909348163 0.00835758938998549 -0.4026541 0.4529358 0.7954363 154 154 154
0.0407770157265972 -0.00337396526568745 0.0195125337087958 -0.2608371 0.3974827 0.8797565 142 142 142
-0.0614655392147805 0.0108765332951073 0.0164134566453506 0.5910916 0.1256715 0.7967543 188 188 188
-0.0430651264613049 0.0425591730674115 0.000757988294585177 0.6657942 -0.05056269 0.7444202 87 87 87
-0.0746814463595284 -0.00641852884393335 -0.00855436047865998 -0.4104834 -0.9069737 -0.09435102 103 103 103
-0.0123593250205123 0.00121114086458007 0.0051423206724811 -0.124649 0.3232872 0.9380554 156 156 156
-0.0586320290464171 -0.0135067261708643 0.011721576513305 -0.1357526 -0.8947497 0.4254341 90 90 90
0.0411417770129856 -0.00463397818819322 0.019324183471681 -0.2310473 0.4265104 0.8744747 112 112 112
0.0212066077173323 -0.0135486922788035 0.0170138418536918 -0.3024682 0.2490902 0.9200364 128 128 128
0.0490710328160344 0.0358579175741938 -0.00601087411601131 -0.1136171 0.7460626 0.6561111 57 57 57
-0.0511399191071846 -0.0154308830974852 0.0127528449665623 -0.02142114 -0.3986528 0.9168518 117 117 117
-0.0540370253032942 0.0187511247533978 0.00973450296335054 0.5042061 0.0477021 0.8622649 127 127 127
-0.0796077477936956 0.0127039123593844 -0.00622876112992915 -0.784485 0.5095166 0.3535197 75 75 75
0.00272415543958271 -0.0255569265663231 0.0186639302300807 -0.2081225 0.3971505 0.8938437 85 85 85
-0.076813653122846 -0.00649500266877445 -0.00144016744607212 -0.3913368 -0.9157251 -0.09112116 155 155 155
-0.0482417863428584 -0.00019402095471599 0.00961940054459753 0.306299 0.07367756 0.9490799 165 165 165
0.0507398895008566 0.00195687910057041 0.0203859787449456 -0.3052915 0.497981 0.8116724 191 191 191
0.0309178268909762 -0.0117506361591393 0.0195418324587788 -0.3019959 0.2870118 0.9090779 130 130 130
0.0299018130717692 -0.0374398567782308 0.0219303277917651 -0.07046824 -0.9955416 0.06269954 70 70 70
0.0163902654292531 -0.0353334040645272 0.00490670726293063 -0.1209826 -0.9615012 -0.2467362 89 89 89
-0.0565138311261983 0.00730455116460882 0.0129825157198109 0.4835839 0.2196525 0.8472894 213 213 213
-0.0401549588699202 0.00227099308253087 0.00733524680958414 0.2202347 0.2597923 0.9402152 138 138 138
-0.0146878527464094 -0.0283440786661866 -0.0108049802112755 -0.1910545 -0.9758164 -0.1062102 127 127 127
-0.0599031441700855 0.0397362004165924 0.0015331566045711 -0.8193434 0.4854026 0.3050587 83 83 83
0.0628190079818616 0.0334442619389779 -0.000959918533340653 -0.1173408 0.637308 0.7616231 181 181 181
0.0429473202985662 -0.039928615124412 -0.00875401104041346 0.04197477 -0.9949301 0.09138975 58 58 58
0.0277129964739076 -0.014953488472619 0.0200073128871138 -0.3076476 0.2795008 0.9095231 123 123 123
-0.017441964001506 0.00123911288696443 0.00495736040900929 0.003891808 0.3327523 0.9430062 149 149 149
0.00166173024000127 -0.00650133173500889 0.0106524743893172 -0.1992185 0.3011124 0.9325467 111 111 111
-0.0176720687894107 0.00700950502260866 0.00292082696170676 -0.1159757 0.3482731 0.9301911 212 212 212
-0.0197829707380071 0.00670511397523454 0.00274273576556661 -0.06230312 0.3552177 0.932705 215 215 215
-0.0634067315393123 0.000490696115088562 0.0168302537315415 0.5302536 -0.1691987 0.8307845 97 97 97
0.0116169984289991 0.0180648841277946 0.000649325749583041 -0.1648023 0.7015088 0.6933438 105 105 105
0.0270106694276526 0.0234939595121995 -0.00109349682122645 -0.2330939 0.4845272 0.8431492 102 102 102
-0.0160063453027597 0.017782890432388 -0.00282773307851963 0.04555665 0.5505692 0.8335456 218 218 218
-0.0528841228532158 -5.96870121025717E-05 0.0114861377179317 0.3754993 -0.01534329 0.9266956 207 207 207
-0.0509305917975809 -0.0174360144341534 -0.00443043047372593 -0.2475913 -0.9463249 0.2077685 102 102 102
0.0444554953969938 -0.00341380742675046 0.0202668850154464 -0.3305615 0.3650185 0.8703393 216 216 216
-0.012350895164623 -0.0289163616157579 0.00894755234532152 -0.218455 -0.9717902 0.08888907 115 115 115
-0.00225434770480026 -0.0314668498827599 0.00186501522407606 -0.1569759 -0.9874383 -0.01800437 117 117 117
-0.00918534159894113 -0.0268852436412288 0.0168715137157987 -0.2685515 0.1953184 0.9432554 170 170 170
-0.0641623284358461 0.00677522168558187 0.0181251862395175 0.3753657 0.006685412 0.9268527 119 119 119
0.0724472613950913 0.021388341850854 0.0039254018777829 0.9642029 0.01788808 0.2645613 89 89 89
-0.0112800007423663 -0.0251748714650077 0.0165474213997199 -0.161874 0.1321279 0.9779259 182 182 182
-0.0220676325437688 0.00973282232260964 0.00146385068214638 0.03693994 0.3169345 0.9477278 219 219 219
-0.0394254144954251 -0.0201782475769221 4.70933277890717E-06 -0.4365993 -0.8963906 -0.07658366 120 120 120
0.0605596118347873 -0.0186414929131982 0.0158135620687576 0.9904382 -0.102532 0.0923005 31 31 31
0.0695547164373496 0.0215903977732561 0.0108168692525823 0.4759721 0.1954736 0.8574618 71 71 71
0.0391503525234698 0.0240471546186181 0.00140092775026612 -0.1639118 0.6300206 0.759083 51 51 51
0.0595938692315197 -0.0136540394574198 0.0268273099385508 0.6606431 0.02776851 0.7501864 143 143 143
0.0605238983407967 0.0298919672851587 0.002093756470602 -0.1124342 0.5865904 0.8020413 117 117 117
0.0566903838324135 -0.0338866611161501 0.0170625176867137 0.8571404 -0.4689908 0.2129741 128 128 128
-0.0259965612152153 0.000452994921070315 0.00547559103770034 0.0463953 0.4213698 0.9057014 130 130 130
-0.0283606223582962 0.0312698872768886 -0.00718639287371592 0.3707796 0.2802742 0.8854202 79 79 79
-0.0382593764986816 0.0615043584682289 -0.00505650422757886 0.5514429 0.6118265 0.5670795 76 76 76
-0.0788350758017167 -0.00333636544897775 -0.0109030955030493 -0.5081435 -0.8175531 -0.2709189 66 66 66
0.00553229827928181 -0.00468689043064341 0.0115084100870904 -0.1669434 0.2791054 0.9456374 159 159 159
-0.00845732089189477 0.0134146847356982 -4.18977791447617E-05 -0.1662703 0.5049365 0.8469908 136 136 136
0.0628304491213774 -0.010315847169085 0.0118861826699498 0.9253758 -0.3280105 0.1899706 40 40 40
0.0196744562907512 0.0254203296055233 -0.00343316084874867 -0.1832739 0.6120923 0.7692553 88 88 88
0.059479564909994 -0.021435901758424 0.0228033445467017 0.9671666 -0.1079195 0.2300915 61 61 61
-0.0772471678017395 0.00227895687445367 0.00968875747652981 -0.7945869 0.5052879 0.3366241 72 72 72
-0.0131043518677849 -0.0200462213952057 0.013964285845708 -0.1657218 0.3357114 0.9272724 91 91 91
0.00749822542796963 0.0202878125819277 -0.00392346184078418 -0.2127535 0.6384059 0.7397121 123 123 123
-0.0502561587347148 -0.00599225496501998 0.0107687111462531 0.21896 0.07846121 0.9725741 151 151 151
0.0559667517753999 -0.0150330152162323 0.0282130457144872 0.01721276 0.138546 0.9902064 196 196 196
0.0435025676723644 0.00398133039923065 0.0156068211538455 -0.2974793 0.5435798 0.7848739 210 210 210
0.0466234188914942 -0.0357620289442073 0.0239534445423475 0.233049 -0.9327859 0.2749522 67 67 67
-0.000950477326938426 -0.0158070803801265 0.0136241235891235 -0.1445368 0.4150767 0.8982319 92 92 92
0.0298670515536243 -0.0276145218006789 0.024677482254105 -0.2054681 0.4787021 0.8535966 201 201 201
0.0267506021756119 -0.0102514132869831 0.0178882530672076 -0.2201089 0.1637189 0.9616383 159 159 159
0.0141684549162093 -0.0295455317526228 0.02262699205864 -0.2507851 0.290745 0.9233494 76 76 76
0.00777749847657772 0.0207251256600591 -0.00328136662470946 -0.2172899 0.6378497 0.7388727 147 147 147
-0.0222872748248037 -0.00220609928280879 0.0067441497531609 0.05034697 0.4199205 0.9061633 127 127 127
0.0161505949199419 -0.0340291488396753 0.00307151499216257 -0.1345215 -0.9488403 -0.2856677 142 142 142
0.0487225689983339 0.0374186658603446 -0.00807186350194644 -0.1385059 0.739263 0.6590192 55 55 55
0.036924574353919 0.000602514022883582 0.0157030273248437 -0.2369706 0.4327335 0.8698199 160 160 160
-0.0413486905842779 -0.00602247998843319 0.00982681496518589 0.0865606 0.1671549 0.9821234 109 109 109
0.0156775647486902 0.00299521441222916 0.00966824268917321 -0.2043869 0.3938087 0.8961812 129 129 129
-0.05550286559262 -0.015336718642434 0.0062946764569965 -0.3691877 -0.9291616 0.01895159 87 87 87
0.0499476422556402 -0.0207373789046508 0.0281385643495282 -0.2223458 0.3705488 0.9018071 194 194 194
0.0147525473513848 -0.0228153311090931 0.0204742639849442 -0.2072117 0.454884 0.8661085 101 101 101
-0.0159655300606567 -0.0278585441288912 0.00248782343877019 -0.2820542 -0.9579816 0.05212041 91 91 91
0.00969000633035888 -0.0353051724641535 0.0123616778160647 -0.08383956 -0.9925997 0.08784554 131 131 131
0.00441631306349288 0.00318428024210649 0.0074175814759479 -0.1253762 0.416883 0.9002718 102 102 102
-0.00711578997896023 0.0207544840216467 -0.00518321574167724 -0.04871624 0.6777042 0.7337192 69 69 69
0.0347762351011203 -0.0379430842164952 0.0230497598106966 0.03149541 -0.9946513 0.09837156 77 77 77
0.0175749911574106 -0.0208694327246794 0.020673821778876 -0.1561726 0.5087313 0.846642 181 181 181
0.0241658315128799 -0.0360758466185052 0.0279707593753842 -0.4109185 -0.6317697 0.657277 105 105 105
0.0452122288881962 0.0216574849689948 0.00592948414804961 -0.1441835 0.611286 0.7781648 119 119 119
0.00869630862176951 -0.0281246453512791 0.0217085395691494 -0.179511 0.3395417 0.9233024 107 107 107
0.0347438896100103 -0.0370171740768601 0.000640080146765754 -0.2850282 -0.9556699 0.07385021 75 75 75
-0.0548035444946597 0.00718033407145335 0.0121543104217479 0.4547251 0.1968509 0.8686051 206 206 206
-0.00347723022389523 -0.0228395648289459 0.0158603368709734 -0.1289817 0.3163913 0.9398193 59 59 59
-0.00345493443648115 -0.0283109873235423 0.0183954774317918 -0.2849231 0.08432146 0.9548344 94 94 94
-0.0421619497787034 0.0326519929854232 0.00242439538480399 0.6456882 -0.0392458 0.762592 93 93 93
-0.0317322068197856 -0.0156040117903717 0.0112744224031037 -0.001199844 0.2066149 0.9784216 104 104 104
0.0523567162184633 0.0190183811060851 0.00818509428771136 -0.2076688 0.5829638 0.7855106 95 95 95
-0.0325020456805389 0.0523296974008645 -0.00837117242026758 0.6594929 0.1436355 0.7378604 66 66 66
0.0336812200006311 0.0185839737808071 0.00524179465960506 -0.2826236 0.5705208 0.7711225 212 212 212
0.0337049330258923 -0.0341965060835305 0.0314301224547402 -0.1105998 0.3271686 0.9384713 175 175 175
-0.00408587195149801 0.0219733105603199 -0.00734090246174696 -0.08358445 0.5949042 0.7994389 68 68 68
-0.029947212339565 -0.0240915359628173 0.0105211762478128 -0.2171988 -0.8948358 0.3899917 100 100 100
-0.0131090675752472 -0.0228215720681388 0.0148775930321491 -0.1567621 0.2847835 0.9456871 141 141 141
0.0692233141399012 0.0359261421908086 -0.00231321215333502 0.09117576 0.5960971 0.7977188 159 159 159
0.059602122388442 0.0221598789509914 0.00870783445693829 -0.133072 0.6922829 0.7092505 77 77 77
-0.0359733457242779 0.0542216121581571 -0.00467597530584801 0.6764302 0.09905329 0.7298155 75 75 75
0.041918349236489 -0.0180234443822109 0.0249803750142646 -0.3038396 0.3142468 0.8994056 224 224 224
-0.0542084584996267 -0.0165098698856339 -0.00916965268588255 -0.5300001 -0.8442469 -0.07966834 146 146 146
-0.0681476980069644 0.00328091229749949 0.0196402404027133 0.2046646 0.0172896 0.9786795 157 157 157
-0.052591615476028 0.0542525803508889 -0.00621236126209723 -0.8752987 0.4791256 0.06550524 65 65 65
0.0202549130703185 -0.0353601484869528 0.00685630923393599 -0.09882741 -0.9860839 -0.1336853 76 76 76
0.0612474347807042 -0.0200996164098892 0.00935045062630607 0.9835501 -0.04337687 0.1753502 53 53 53
0.023231496735022 -0.0104882893817555 0.0172613693041125 -0.3062451 0.1365734 0.9421049 158 158 158
-0.0480605569601011 0.0392679305160661 0.00681416412443131 0.615292 -0.006880691 0.7882692 137 137 137
-0.042013511262089 0.010017306767288 0.0058605149273705 0.234732 0.2408463 0.9417505 140 140 140
0.015489717158105 -0.0335978908648544 -0.010087864546496 -0.3330386 -0.9366059 0.1088788 135 135 135
0.0164488758917432 0.0147476238146822 0.00394552697820949 -0.1158267 0.5455917 0.8300084 80 80 80
0.0290181957123239 0.0187427247056573 0.00261324766293697 -0.2199173 0.5283312 0.8200625 138 138 138
-0.0279327213789746 0.0150489983801265 -9.71595070405895E-05 0.1904941 0.4018964 0.8956513 135 135 135
0.0153810994015013 0.0234221738859641 -0.00372787672015512 -0.2980429 0.5323756 0.7923046 81 81 81
-0.0323526139820882 -0.0230097788301284 0.0105573076344302 -0.2180861 -0.812632 0.5404328 114 114 114
0.0349094194357367 0.0233641962450624 0.00236559334799746 -0.1833156 0.5903102 0.7860848 96 96 96
-0.0214158867959662 0.00846531964109976 0.00172710536679449 0.01392525 0.3072966 0.9515119 217 217 217
-0.0336339173177902 -0.0230055367625641 -0.00116206239824901 -0.2930812 -0.9550922 -0.04361529 138 138 138
0.0105900378064745 0.0167009933910416 0.00157974613214829 -0.1832079 0.5962462 0.7816172 104 104 104
-0.0371842092510586 0.0197477153092722 0.000962108411709905 0.3562564 0.2949263 0.8866227 172 172 172
-0.0365400298416128 0.0403434607952384 -0.00314151789989869 0.5511755 -0.05454765 0.8326044 73 73 73
-0.0710202116935474 -0.00859105596897369 0.00716917406995254 -0.3262799 -0.9440455 -0.04816017 88 88 88
0.0154054101925523 -0.0350746286787038 0.0167479666171291 -0.1462367 -0.9892125 0.008579288 99 99 99
-0.0320809499642061 0.0229636418896089 -0.000812181569189108 0.3148829 0.3076278 0.8978941 190 190 190
0.00566793869473692 0.000217117834265812 0.0088298474248002 -0.1450782 0.4953068 0.8565183 138 138 138
