ply
format ascii 1.0
comment File exported by Rhinoceros Version 7.0
element vertex 469
property float x
property float y
property float z
property float nx
property float ny
property float nz
property uchar red
property uchar green
property uchar blue
end_header
0.0469591832088758 -0.00105157165467917 0.0175973542425462 0.05004191 -0.552802 0.8318087 232 232 232
0.0541527648121662 -0.00261501570697198 0.0163492011755253 0.04150807 -0.5433576 0.8384746 204 204 204
0.0557758976411908 -0.0029107776868974 0.0161852847631959 0.0462931 -0.541043 0.8397198 217 217 217
0.0541597525124895 -0.00166804573469981 0.0169741449813265 0.0474403 -0.5447239 0.8372726 211 211 211
0.0554111424856019 -0.00106797965041183 0.0173566206854149 0.0467571 -0.5480108 0.8351634 208 208 208
0.0335704575998803 0.000746617712251485 0.0199234721349487 0.04539567 -0.5409726 0.8398142 99 99 99
0.0333939782269601 0.0032597518735713 0.0212331178462826 0.04590992 -0.5486816 0.8347699 162 162 162
0.0374773649538191 0.00354735534094042 0.0211047931937037 0.04969161 -0.5477671 0.8351539 232 232 232
0.0367434286749364 0.00454261165767478 0.0218480758155043 0.05058059 -0.5486489 0.8345214 232 232 232
0.0363917816862038 0.00599417861933871 0.0228101248887208 0.04902202 -0.550214 0.8335835 165 165 165
0.0385753687751764 0.00316324110805133 0.0209448663730062 0.04530324 -0.5457106 0.8367482 220 220 220
0.0412494572386959 0.00229669121374299 0.0201287530388437 0.03765265 -0.5437114 0.8384272 117 117 117
0.0384382332828515 0.00537786775753668 0.0227676930284848 0.04156266 -0.5538234 0.8315962 219 219 219
0.0476502092106448 0.00426610473930422 0.021032244521045 0.04300966 -0.5359239 0.84317 226 226 226
0.04582649329175 0.00526813185526454 0.0219126238276296 0.04617509 -0.5348989 0.8436534 231 231 231
0.0438582816254542 0.00601609812965043 0.0227488936088223 0.06293994 -0.5355591 0.842149 212 212 212
0.0452678286707422 0.00618588712130808 0.0224498867088049 0.04809115 -0.5377461 0.8417342 231 231 231
0.0533353799678444 0.00284269756892563 0.0200438408534064 0.04061833 -0.5444748 0.8377932 230 230 230
0.0546751959947973 0.00483995091777101 0.0212857063477187 0.04583063 -0.5380946 0.8416376 234 234 234
0.0535250147464232 0.00578642849733857 0.0218371295744843 0.04337398 -0.5320334 0.8456117 239 239 239
0.0542326934485073 0.00563143641919406 0.0222190128536671 0.04428411 -0.5307022 0.8464007 224 224 224
0.053152172977772 0.0068738000808295 0.0225297569616337 0.04686669 -0.531644 0.8456702 172 172 172
0.0586503594062719 -0.008847846036938 0.0119433270499224 0.04270552 -0.5374812 0.8421937 241 241 241
0.0605886204614716 -0.0103069174070906 0.0115008569456265 0.04654491 -0.53904 0.8409932 226 226 226
0.0600718621953429 -0.00859830099232617 0.0121794090071203 0.04695895 -0.5343552 0.8439546 240 240 240
0.064838417900519 -0.0105103179396988 0.0104733779809211 0.04913395 -0.5452349 0.8368421 100 100 100
0.0617807492214215 -0.0105077737878378 0.0109616490586532 0.04575464 -0.5367929 0.8424725 229 229 229
0.0633367239639675 -0.0102437690818441 0.0110610130624535 0.04158163 -0.5399835 0.8406478 118 118 118
0.063178545277446 -0.0105176626758521 0.0110885265046671 0.04158163 -0.5399835 0.8406478 115 115 115
0.063827578298703 -0.00828687243893134 0.011993251769668 0.04302415 -0.5300536 0.846872 113 113 113
0.0563868263292364 -0.00685137333073282 0.0135399927475321 0.04811248 -0.5408569 0.8397375 203 203 203
0.0573120937146645 -0.00745243854608313 0.0130791661347834 0.05027878 -0.538606 0.8410563 215 215 215
0.0582047751335542 -0.00620850427705166 0.0139556475088201 0.0478745 -0.5370343 0.8422008 219 219 219
0.0638470161118794 -0.00648126183480136 0.013383360669798 0.05732498 -0.530382 0.8458185 120 120 120
0.06371471364533 -0.00645966165344225 0.0132539893687302 0.05538383 -0.52906 0.8467751 103 103 103
0.058242218449561 -0.00553830173875991 0.0141969524415854 0.048708 -0.5380129 0.8415282 232 232 232
0.0600741575315853 -0.00479030275358405 0.0145286731909422 0.0518579 -0.5439938 0.8374852 248 248 248
0.0610380109972088 -0.00342320813409036 0.0153221657671047 0.05818804 -0.5435748 0.8373414 222 222 222
0.0656740199821453 -0.00388630581067251 0.0149985798150295 0.04465444 -0.5449569 0.8372741 118 118 118
0.0642426241681284 -0.00333815625668976 0.0153410318553527 0.04881438 -0.5491975 0.8342657 145 145 145
0.066058329023146 -0.00291279567748259 0.0153257543910594 0.05191283 -0.5409465 0.8394533 129 129 129
0.070007107821858 -0.0117445144237268 0.00947733727371632 0.05000414 -0.5587624 0.8278189 125 125 125
0.0679856314586837 -0.0102008351242616 0.0107024730538897 0.04870562 -0.5437114 0.8378578 120 120 120
0.0695209804438304 -0.00995852606055714 0.0107787450069424 0.05421082 -0.5436251 0.8375757 113 113 113
0.0698777541500823 -0.00830955414459766 0.0119037862622947 0.04536016 -0.539807 0.8405657 95 95 95
0.0704459479195649 -0.00913970356322491 0.0113135590770807 0.05289194 -0.5435769 0.8376912 118 118 118
0.074286867837337 -0.0107447248342656 0.00978023767518683 0.04614982 -0.5401309 0.8403147 127 127 127
0.0746061163040812 -0.00997870463499806 0.0103847241629214 0.04672303 -0.5394771 0.840703 109 109 109
0.0981105045010282 -0.0228158975387542 -0.015028784842274 0.9711203 0.2188172 0.09510223 152 152 152
0.0783837924016009 -0.0091949519787905 0.0107151350839186 0.04632368 -0.5330803 0.8447956 115 115 115
0.0679190633382714 -0.00735920877922669 0.0128396113020395 0.0368981 -0.5320281 0.8459224 104 104 104
0.0681274312785223 -0.00648255220640204 0.0130230871976611 0.03559535 -0.5313343 0.8464141 91 91 91
0.0675276419640585 -0.00549088850932056 0.0136231573962419 0.04387075 -0.5308865 0.8463066 103 103 103
0.07235557086711 -0.00634768146529296 0.0128895306161976 0.0564963 -0.5320818 0.844806 125 125 125
0.0697418965411898 -0.00574869178522452 0.0133690587293721 0.04771788 -0.5247183 0.8499374 92 92 92
0.07397266918306 -0.00612663980430816 0.0127969030256718 0.05733706 -0.537144 0.8415395 91 91 91
0.0777437180026106 -0.00589847081410833 0.0128302646177874 0.04617051 -0.5390183 0.8410277 99 99 99
0.0774575541682538 -0.00480141942460921 0.0134504706394439 0.04569179 -0.5382941 0.8415175 90 90 90
0.088269449561718 0.0160619876107797 0.00603738337922167 0.9636787 0.2650759 -0.03252952 66 66 66
0.0736807012679481 -0.00446757655080654 0.0140042566742869 0.04920945 -0.5316125 0.845557 113 113 113
0.0676250469453223 -0.00424182989099819 0.0145281599709561 0.0487299 -0.539484 0.8405846 110 110 110
0.0720546383440457 -0.00383282360682835 0.0145271209180543 0.0454794 -0.5321754 0.8454118 117 117 117
0.0594200343823204 -0.00127006419205677 0.0167883754644686 0.05007204 -0.5423156 0.8386815 225 225 225
0.0646920200045455 -0.00177104199633726 0.0162862059527658 0.05408955 -0.5482127 0.834588 115 115 115
0.06371471128345 0.00156103641338301 0.0185571924221736 0.04150965 -0.5514301 0.8331878 117 117 117
0.0661384941885408 -0.000441667596077777 0.0171053152510965 0.0446622 -0.5493098 0.8344244 110 110 110
0.0658733688756468 0.000314362548109681 0.0177194057529927 0.04275541 -0.5528176 0.8322048 123 123 123
0.0675686517486533 -0.00167488330145515 0.0161537287291351 0.04398006 -0.5608646 0.8267386 120 120 120
0.0675475170662074 -0.000343758108743986 0.0171251349291269 0.04344584 -0.553067 0.8320032 93 93 93
0.0686863025062832 -0.000679373874092559 0.0167351309750633 0.04946241 -0.5536791 0.8312598 105 105 105
0.0684267243693784 0.000698572670253528 0.0175614852632202 0.04857756 -0.5543286 0.8308791 111 111 111
0.0734709769962616 -0.000183868185349767 0.0168075631016286 0.05212396 -0.5492182 0.8340518 105 105 105
0.0757088829862145 -0.00124005333773736 0.016093911864284 0.04920092 -0.5544085 0.8307891 119 119 119
0.0311433551558231 0.0440867744139106 0.0478640536547099 0.05102756 -0.5402283 0.83997 138 138 138
0.0720789174226639 0.000964824804593256 0.0175683391895857 0.05007826 -0.5428655 0.8383253 92 92 92
0.0735225736809575 0.00198716399214449 0.0182160442568585 0.05162783 -0.5461088 0.8361219 121 121 121
0.0778542724225262 0.00220800293480594 0.0183931186571668 0.04266603 -0.5362596 0.8429741 111 111 111
0.0754324653124887 0.00235725532332853 0.0183645947869927 0.04790986 -0.5422652 0.8388404 128 128 128
0.0776178090332538 0.00439733015425414 0.019450429919429 0.05256648 -0.5421752 0.8386196 107 107 107
0.0757004412589364 0.00456359534270101 0.0195890578601735 0.05385213 -0.5402913 0.8397531 105 105 105
0.0570605222374083 0.00468771751087838 0.0210018922907151 0.04798067 -0.5418054 0.8391333 225 225 225
0.0568717555934706 0.00722872865722324 0.0225854662166641 0.04406925 -0.5301703 0.8467451 218 218 218
0.0592638578502749 0.00550486594443456 0.0214343880212706 0.04780798 -0.5390443 0.8409196 226 226 226
0.0612274878047532 0.00482418764205228 0.0208059923495597 0.04664926 -0.5419879 0.8390906 150 150 150
0.0587817855789017 0.00694314707636168 0.0224833100986549 0.04533868 -0.5352222 0.8434936 213 213 213
0.060445552468912 0.00617266306389297 0.0217119552983292 0.03851824 -0.5402719 0.8406085 212 212 212
0.0630996553830427 0.00491632107731799 0.0209305664317034 0.04031048 -0.5523538 0.8326346 110 110 110
0.0646812351956907 0.00405302489904269 0.0205250041881407 0.04041466 -0.5477566 0.8356611 124 124 124
0.0659232144958382 0.00658369992814611 0.0216501515942338 0.04723032 -0.543133 0.8383173 91 91 91
0.0635367398190243 0.00703749678937582 0.0221057806572657 0.04039952 -0.5382282 0.8418303 111 111 111
0.0700597409742136 0.00466624515532099 0.0201554285671051 0.06374693 -0.5447158 0.8361944 101 101 101
0.0674123998198231 0.00651551238751114 0.0216277069341627 0.04909913 -0.5369816 0.8421639 111 111 111
0.0689821815521015 0.0065491936226505 0.021931475158335 0.05507727 -0.5351094 0.8429854 102 102 102
0.0687803940129448 0.0077033309204082 0.0221764272755064 0.04295506 -0.541447 0.8396369 120 120 120
0.0702647354149617 0.00771196252085526 0.0220858549176672 0.04648803 -0.544642 0.8373792 86 86 86
0.0775810720436136 0.00593021031659613 0.0205912821608989 0.04986993 -0.5546396 0.830595 116 116 116
0.0733837062812417 0.00600371046555792 0.0209265962609728 0.06120836 -0.5467631 0.8350471 112 112 112
0.0736021736500336 0.00812809870149334 0.0221899038989773 0.06231608 -0.5445076 0.8364378 109 109 109
0.00518582369827625 0.0300487842549033 0.0402612106312438 0.03453057 -0.5408862 0.8403867 138 138 138
0.0997444561923087 -0.0438125709338464 -0.0282570560080992 0.94849 0.313211 -0.04759862 163 163 163
0.0985514306811384 -0.0434269358655718 -0.0397926367059049 0.9512331 -0.3029205 -0.05826372 215 215 215
-0.0819894360910678 0.0109469351157272 0.0322960758976731 0.05609528 -0.5459698 0.8359248 141 141 141
0.0990960090027508 -0.0454523126674764 -0.0325360359583363 0.9963347 0.02131864 -0.08284196 146 146 146
0.0819592268598415 -0.00520857848025258 0.0131524424226673 0.03247517 -0.5401747 0.8409261 112 112 112
0.102674940325045 -0.0573441887476935 -0.0269097821649836 0.936726 -0.3493558 -0.02224852 195 195 195
0.0562369376309437 0.0429855483756392 0.0458270298603058 0.04663577 -0.5358893 0.8429992 134 134 134
-0.0333115974117666 0.0416944774771888 0.0497312622074888 0.05065645 -0.555445 0.8300089 108 108 108
-0.0771491866114009 0.0627724157674441 0.0631476454018787 -0.08777058 0.6005547 0.7947518 57 57 57
0.0985616020467126 -0.03992392097841 -0.0318875325322235 0.9776728 0.1701424 0.123319 173 173 173
0.0443647254722848 0.021168058245246 0.0322754342820547 0.05107753 -0.5415362 0.8391243 226 226 226
0.0946965063755667 -0.0626182367496535 -0.0248064912619079 0.1514 -0.7356235 0.6602545 185 185 185
0.0969518994227689 -0.0510382321029721 -0.0176052327441861 0.2926423 -0.4672872 0.834268 227 227 227
0.0956417263992835 -0.00922656643252351 -0.010314379797796 0.9842638 0.06587507 0.1639669 191 191 191
0.0821642450364726 0.0412624186046024 0.0103710685969442 0.9896758 0.1290619 -0.0623288 149 149 149
0.0474697694785569 0.0345443783796304 0.0407971779803057 0.05139355 -0.5495525 0.8338769 102 102 102
0.100555591696072 -0.0470987587518757 -0.0183369828595947 0.8591196 0.2417062 0.4511004 182 182 182
-0.0177325485446089 0.0238552886818324 0.0374337313406481 0.04028346 -0.5437685 0.8382679 173 173 173
0.0699481678344167 0.0177935814453885 0.0286789932446141 0.04140539 -0.5526584 0.8323787 99 99 99
0.0854401087077923 0.0314758120683591 0.0351004122995542 0.6984822 -0.4551765 0.552211 198 198 198
0.0886054794157389 -0.0141764244334723 0.00682896810422758 0.2221123 -0.4814276 0.847876 189 189 189
-0.0726618515964756 0.0363697786661719 0.0485045222734351 0.043455 -0.5434988 0.8382844 137 137 137
-0.0840717135251143 0.0351310958155178 0.0480654799249509 -0.3307065 -0.4587852 0.8247117 135 135 135
0.0339841629663939 0.0208233247250349 0.0325851004711049 0.03843274 -0.5517571 0.8331189 104 104 104
0.0948467842137903 -0.00752608791480869 -0.000601947651021166 0.9715626 0.2132212 -0.1029697 127 127 127
0.0290026286016398 0.0755673765272953 0.0376318322689908 -0.07719663 0.8687375 0.4892197 49 49 49
0.0693591494639563 0.00929355565855094 0.0232318574191663 0.03938538 -0.5343062 0.844373 103 103 103
0.0888962229675392 0.00588203896539308 0.0197882198967795 0.1420169 -0.5133966 0.8463185 210 210 210
0.0979655048507291 -0.025473223408193 -0.0139225830805965 0.9992225 -0.03353722 0.02072701 238 238 238
0.0971938009325712 -0.0290962524370909 -0.0148383713732887 0.9643326 -0.2644331 -0.01173566 203 203 203
0.062736647098832 0.0514866905612048 0.0509535823307514 0.03940697 -0.5160335 0.8556615 148 148 148
-0.0905390974308724 0.00594356364851456 0.0040876323317612 -0.9895798 0.1180908 0.08237926 67 67 67
-0.0548164440673351 0.0670243420796466 0.051578811735314 -0.007743445 0.9308646 0.3652824 55 55 55
-0.0238410050316546 0.0265887064488173 0.0396014515319432 0.04221671 -0.5390197 0.8412345 151 151 151
0.0858824324301288 -0.057667482890663 -0.0534097226199721 0.09923727 -0.9125795 -0.3966745 78 78 78
0.086955327314449 -0.0571032786713047 -0.054178968486587 0.1192269 -0.880732 -0.4583624 70 70 70
0.0862710487236038 -0.0574716782221214 -0.0536026681951067 0.09923727 -0.9125795 -0.3966745 72 72 72
0.0848550587282708 -0.0591541776311163 -0.0508010303493581 0.09070109 -0.9265508 -0.3650712 75 75 75
0.093008469399479 -0.0562181579411147 -0.0545047056766877 0.4933698 -0.5712234 -0.655965 124 124 124
0.0915448252203697 -0.063070913375335 -0.0324246411983737 0.2476303 -0.9063092 -0.3424659 216 216 216
0.0882769522505429 -0.0577872522054712 -0.0532337794780974 0.1414019 -0.8830235 -0.4475209 51 51 51
0.0924592238982589 -0.0583740779484057 -0.0512491289485726 0.4885649 -0.7603842 -0.4279254 131 131 131
0.0928869751247925 -0.0569413504040498 -0.0528012712147048 0.5115392 -0.7010366 -0.4968656 103 103 103
0.0950056724364026 -0.0528720867008051 -0.0506718834910667 0.9192026 -0.1218676 -0.3744527 181 181 181
0.0833603337058806 -0.0592160520034811 -0.0504909242623136 0.1203321 -0.9354445 -0.332361 43 43 43
0.0853232468936027 -0.0600946274190367 -0.0493589618385904 0.09343933 -0.9414227 -0.3240254 75 75 75
0.0829347707235426 -0.0600993677769383 -0.0448878407299474 0.04995975 -0.9821 -0.1816141 83 83 83
0.0874396492186738 -0.0600493230358266 -0.0470724872114326 0.06939629 -0.9601869 -0.2706017 78 78 78
0.0869694482038361 -0.0608363119893924 -0.0457505090603335 0.04302482 -0.9697955 -0.2400947 67 67 67
0.0893414321530606 -0.0591531114596421 -0.0492701047271416 0.1684851 -0.9201487 -0.3534673 68 68 68
0.0928497794385947 -0.0588023254786162 -0.0491317549186284 0.4217211 -0.843668 -0.3322282 139 139 139
0.0915509249516848 -0.0593107091107962 -0.0471765335081513 0.320703 -0.9055803 -0.2776218 94 94 94
0.0917698443334394 -0.0599263965978166 -0.0453888540828687 0.3236457 -0.9241116 -0.2031531 102 102 102
0.0884618529168875 -0.0587228047775852 -0.0506050292283322 0.1225829 -0.9151128 -0.3841119 62 62 62
0.0831750339184807 -0.0608555020319298 -0.0429980718828574 0.05004741 -0.9685597 -0.2436954 64 64 64
0.0832135982380313 -0.0616359703519473 -0.0413916689973076 0.002757468 -0.9458773 -0.3245126 60 60 60
0.0886355628976134 -0.0613532335923399 -0.0431220366845699 0.08716311 -0.9628324 -0.255649 91 91 91
0.0910188664534086 -0.0610779737555081 -0.0414737638965261 0.285643 -0.94251 -0.1734443 102 102 102
0.0929976208189105 -0.0602343374868105 -0.0409473936430742 0.4127544 -0.8996561 -0.1423118 91 91 91
0.0940232320969812 -0.05753756793014 -0.0504819489911921 0.7075558 -0.6099254 -0.3568695 154 154 154
0.0938209596942761 -0.0578153450856735 -0.0497121492165716 0.5776929 -0.7452716 -0.3329283 124 124 124
0.0951440555940741 -0.0575650360413368 -0.0488997302326136 0.7998799 -0.5216795 -0.2967197 178 178 178
0.0962634801154421 -0.0563637432150772 -0.048102097139302 0.8880807 -0.3729485 -0.2687416 248 248 248
0.0960695828608991 -0.054608108378322 -0.0483885227846931 0.9417718 -0.1855936 -0.2803941 132 132 132
0.0962281028431864 -0.0536433275169955 -0.0475445267666238 0.9477354 -0.1127225 -0.2984818 228 228 228
0.0957184162225597 -0.0546371152435515 -0.0453760851782034 0.945067 -0.224753 -0.2373486 241 241 241
0.0952607123840727 -0.0582435085282598 -0.0448068446790553 0.6466373 -0.7165886 -0.2614593 228 228 228
0.0957006085858487 -0.0579484189371559 -0.0441787255334907 0.6918561 -0.678586 -0.2466906 250 250 250
0.0989004819719543 -0.0574878518384028 -0.0408545383497074 0.7414872 -0.551127 -0.3826954 244 244 244
0.100470712017856 -0.0531992863524965 -0.0386850323572381 0.9231713 -0.01868118 -0.3839344 198 198 198
0.0497539768931103 0.0300849464007507 0.0379889211367976 0.04890737 -0.5303562 0.846363 139 139 139
0.09413173779356 -0.0524783913060439 -0.0522726211938079 0.8804742 -0.1432075 -0.4519478 155 155 155
0.0945605140349812 -0.0507147656339946 -0.0502601307529179 0.9233012 -0.013406 -0.3838425 132 132 132
0.0954517119382214 -0.0510927053086067 -0.0487203517410291 0.9561225 -0.003009783 -0.2929517 199 199 199
0.0967365867007972 -0.0527153974811845 -0.0451969925613665 0.9503238 -0.03567696 -0.3092118 230 230 230
0.096495040556706 -0.0514470527788889 -0.0448904408245294 0.9461218 0.02147458 -0.3230983 217 217 217
0.0967244481639162 -0.0491521228332737 -0.0445230260268254 0.9535575 0.02948347 -0.2997647 231 231 231
0.0970591447211677 -0.0477495800372095 -0.0445701062406558 0.9505427 0.0001680558 -0.3105938 237 237 237
0.0979820887855691 -0.0468980780725577 -0.0442152730949509 0.9501513 -0.04312638 -0.3087923 233 233 233
0.0986684473002901 -0.0451740478654863 -0.043911910026731 0.927906 -0.2011352 -0.3139029 185 185 185
0.096625211696201 -0.0495259988729727 -0.0414447304907454 0.9564973 0.1315491 -0.2603991 217 217 217
0.0990249208358711 -0.0523768671460909 -0.0403566679330394 0.893127 0.09452511 -0.4397604 226 226 226
0.0992941817822151 -0.0514330256404283 -0.0397762442574408 0.9050649 0.2012049 -0.3746652 204 204 204
0.0971348645548691 -0.0456984576259741 -0.0420007346637739 0.9471915 -0.2061056 -0.2456597 237 237 237
0.0970546891936137 -0.0454356116400757 -0.0404374410020328 0.9527773 -0.2994568 -0.05040961 238 238 238
0.0977202916786117 -0.0466814107487926 -0.0432407509103676 0.9580778 -0.09080717 -0.2717371 234 234 234
0.0987678389667939 -0.0394953274010804 -0.0440463693085186 0.9421879 -0.1188641 -0.3132942 192 192 192
0.0993736691380658 -0.0394136747439515 -0.0434606862285034 0.972814 -0.08969514 -0.2135127 223 223 223
0.0991066939434484 -0.0379087608366737 -0.0429323320743535 0.9648845 0.1005078 -0.2426854 156 156 156
0.0988265701679043 -0.0420092687272546 -0.0378807340123301 0.9642296 -0.2547678 -0.07317561 215 215 215
0.099790673323132 -0.0384610438680743 -0.0389060389372851 0.9993107 0.01698297 -0.03301033 146 146 146
0.0992308108294431 -0.0357060278832745 -0.0398080300521256 0.9329053 0.3508124 -0.08135295 140 140 140
0.0966309386651942 -0.0338837847368887 -0.0403682044316689 0.9154664 0.392896 -0.08691408 153 153 153
0.0982119659934972 -0.0347438169039791 -0.0404678621860713 0.9243582 0.3649585 -0.111208 114 114 114
0.097314115127789 -0.0332773684634512 -0.0399402370085343 0.9143537 0.3984489 -0.07208124 125 125 125
0.0864655220093828 -0.062007550247168 -0.0392038683313555 0.1462982 -0.9423866 -0.3008395 128 128 128
0.0946212621494107 -0.00953595117726624 -0.0015962875966337 0.9620739 0.1178014 -0.2460422 118 118 118
0.0956867723112298 -0.0200682842420566 -0.0279142100857225 0.9550514 0.230458 -0.1864565 138 138 138
0.0638184217449234 0.0183928768796977 0.0295823185289633 0.04769953 -0.5393798 0.8407105 111 111 111
0.0839248487738877 -0.0635945545600973 -0.0369933616256215 0.04036105 -0.9509782 -0.3066131 69 69 69
0.0871284543465958 -0.0628811189866195 -0.037839041315715 0.173458 -0.9385796 -0.2982963 75 75 75
0.0857292326118109 -0.0621125553181493 -0.0389354082652755 0.08532342 -0.9420408 -0.3244673 103 103 103
0.0819194495087583 -0.0634113034500072 -0.0372246799911999 -0.007486178 -0.9495109 -0.3136446 48 48 48
0.0891555577355039 -0.0624740907927093 -0.0370989935511693 0.2455367 -0.9226287 -0.2974358 82 82 82
0.0920041776406895 -0.060474216754467 -0.0379897486294525 0.3820086 -0.8932358 -0.2370639 59 59 59
0.0874893690332335 -0.0638733194025456 -0.0332314952553103 0.183956 -0.9372343 -0.2962297 80 80 80
0.0832102181381149 -0.0653516945995538 -0.0313404678141594 0.02869354 -0.9563059 -0.2909566 140 140 140
0.0831128838277611 -0.0655714671730471 -0.0299778683681731 0.02246516 -0.9834166 -0.1799642 104 104 104
0.0896970326059354 -0.0633047888959698 -0.0335549952844543 0.2491367 -0.9061126 -0.3418931 161 161 161
0.089661846960376 -0.0641502021633857 -0.0316728363031179 0.1964727 -0.937665 -0.2866753 198 198 198
0.0872450922730623 -0.0649312099291828 -0.0306046873488579 0.1701253 -0.9555265 -0.2408868 230 230 230
0.0877476060172495 -0.0653090970880285 -0.0296389225004912 0.1725667 -0.9695497 -0.1737643 210 210 210
0.0918214844672685 -0.0648072222192572 -0.02912395446067 0.277583 -0.9570624 -0.0835413 232 232 232
0.0932309535874984 -0.0602845681784491 -0.0386801249624617 0.4456485 -0.8755659 -0.1864984 78 78 78
0.0959839447206994 -0.0583850605012074 -0.0395767049532886 0.4665063 -0.8608138 -0.2033998 136 136 136
0.0965546866113804 -0.0584518450144011 -0.0386214225227026 0.478413 -0.8472607 -0.2308036 128 128 128
0.0969659051509426 -0.058025875386219 -0.0390989320332938 0.5530481 -0.7731439 -0.3104614 188 188 188
0.0978734509840216 -0.0582747535374283 -0.0366051871417854 0.5850106 -0.7400042 -0.3318981 166 166 166
0.100519684854568 -0.0554369389333563 -0.0386530106480899 0.8500885 -0.3242297 -0.4149996 206 206 206
0.100744155075689 -0.0555733780476048 -0.0367766918381805 0.9087315 -0.3092312 -0.2803267 138 138 138
0.0989309668227722 -0.0586648330149971 -0.0353125749617724 0.6940101 -0.636763 -0.3359804 143 143 143
0.100489820332084 -0.0578484029183917 -0.0366733764757665 0.7631077 -0.5678241 -0.3086137 147 147 147
0.10082716273357 -0.0552951277615082 -0.0350277965657593 0.943133 -0.2262641 -0.2435255 147 147 147
0.101122862326735 -0.053220078723758 -0.0351578634783264 0.9559579 -0.05202451 -0.2888564 196 196 196
0.0952218292505966 -0.061977343746053 -0.0328419840865479 0.3428218 -0.832177 -0.4358379 172 172 172
0.0933829805941464 -0.0626532551233934 -0.032651515664523 0.3106761 -0.8605729 -0.4036022 210 210 210
0.0931959626382119 -0.0629345196329991 -0.0322895623546514 0.3075333 -0.8673829 -0.3912419 251 251 251
0.0949827493584579 -0.0626472086719091 -0.0316216499232883 0.3294234 -0.8800105 -0.3421427 250 250 250
0.0972542497708218 -0.061824382272359 -0.031359303501916 0.4261185 -0.8436812 -0.326535 248 248 248
0.0985019911315139 -0.0611329093379052 -0.0328491488382929 0.5057907 -0.7796471 -0.3692239 201 201 201
0.100718933965981 -0.0602605441205178 -0.0320159481713876 0.7162285 -0.6286229 -0.3030678 227 227 227
0.0990655019251045 -0.0618510649022329 -0.029094604565318 0.5546986 -0.8318697 -0.01738637 242 242 242
0.101102325065264 -0.0599805145697243 -0.0290303596281587 0.8279804 -0.5531816 -0.09186192 209 209 209
0.101205427746217 -0.0575279623056264 -0.0304108567706394 0.9128509 -0.3048443 -0.2716124 113 113 113
0.101634019541953 -0.0581364056649328 -0.0289639049402582 0.8854178 -0.4200877 -0.1989011 135 135 135
-0.0634038103590582 0.0576143711101256 0.0617529787447228 0.06124729 -0.5031113 0.8620486 124 124 124
0.101958424512961 -0.0541450896651625 -0.0291601721281845 0.9870137 -0.05629919 -0.1504474 244 244 244
0.0856046077806516 -0.0656616634586207 -0.0274239502182608 0.05611263 -0.9537165 0.2954255 102 102 102
0.087744896511067 -0.0653107278623299 -0.0272079939981564 0.02333116 -0.8966075 0.4422112 136 136 136
0.0864884965077395 -0.0654946704500416 -0.0264007403654505 0.07724672 -0.877502 0.4733109 100 100 100
0.0833287454462788 -0.0624202413420616 -0.0240015170556331 0.07237943 -0.617855 0.7829537 164 164 164
0.0836569187734439 -0.061226609330184 -0.0232969662710637 0.05035963 -0.5622327 0.8254443 204 204 204
0.0893791167989439 -0.0652547187941865 -0.0272087430788268 0.1641916 -0.9387798 0.3028755 150 150 150
0.0894682448449897 -0.0647101703655392 -0.0259969338006606 0.1155942 -0.8511071 0.5121082 174 174 174
0.0900720182220902 -0.0630554282962806 -0.0247775449691698 0.054616 -0.7071299 0.7049712 187 187 187
0.090203248738149 -0.0619971964544624 -0.024058845798504 0.05525073 -0.6299586 0.7746609 196 196 196
0.0821438530219329 -0.0587948338108434 -0.0214866446694945 0.04585463 -0.5403683 0.8401782 186 186 186
0.0869179559787043 -0.0594818002707649 -0.0224282256901837 0.03942169 -0.5428052 0.8389329 199 199 199
0.0840924019492983 -0.0588728537551443 -0.0218456583390341 0.03506997 -0.5385496 0.8418637 205 205 205
0.0844071447337731 -0.058312035832236 -0.0213976794529257 0.03557086 -0.5402594 0.8407464 222 222 222
0.0847466501121685 -0.0572671772966705 -0.0207894926481608 0.03743522 -0.547135 0.8362069 216 216 216
0.0848464938077109 -0.0558755874444091 -0.020006892341917 0.04059925 -0.5420248 0.8393812 224 224 224
0.0882019502109159 -0.0585892634984616 -0.0216642287487086 0.03939785 -0.5425594 0.839093 236 236 236
0.0881462696633357 -0.0559181467554384 -0.0199523076952557 0.04639465 -0.5421296 0.8390131 191 191 191
0.0977573013147075 -0.0625088045909299 -0.0275006677433825 0.4033658 -0.9134547 0.05382054 244 244 244
0.0966142230151368 -0.0632327575632936 -0.0268136852789458 0.3593313 -0.9050447 0.2275415 248 248 248
0.0978620499740304 -0.062119986747505 -0.0253884978030443 0.4000533 -0.8044772 0.4390602 243 243 243
0.0933289404263857 -0.063812023921877 -0.0256175987452607 0.1654294 -0.8171594 0.5521627 146 146 146
0.0957410615740706 -0.0632568026338002 -0.0258521671489445 0.2676577 -0.8951662 0.3564223 194 194 194
0.0936245646556539 -0.0615244038233327 -0.0240825941490863 0.1407708 -0.6487188 0.7478954 192 192 192
0.096101864160095 -0.0613297271619252 -0.0240770942087625 0.1857022 -0.6803248 0.7089943 216 216 216
0.0987734769285158 -0.0617852424388718 -0.0254215200847624 0.4796052 -0.7567348 0.4442199 229 229 229
0.0987843451486614 -0.0602097195832448 -0.0234921273802141 0.3146349 -0.6561046 0.6859531 238 238 238
0.102542180702963 -0.0536986459870451 -0.0287197874560021 0.9950427 -0.01373122 -0.09849615 212 212 212
0.102434703669611 -0.0591617677718199 -0.0253158709964806 0.8527654 -0.4662798 0.2353176 248 248 248
0.102492698487768 -0.0565518091286533 -0.0242848331530356 0.8938017 -0.3449923 0.2865289 213 213 213
0.0933095873762055 -0.0589014008925756 -0.0221982369120343 0.05507493 -0.537549 0.841432 200 200 200
0.0936296906967304 -0.0580694146704825 -0.0218867284729405 0.05573647 -0.5369939 0.8417428 174 174 174
0.0976717257454225 -0.0588144594885222 -0.0224878798053573 0.2219143 -0.5896134 0.7766016 231 231 231
0.097732120810389 -0.0573160135794923 -0.0215240357914344 0.1678257 -0.5713719 0.8033484 230 230 230
0.0947539894122102 -0.0568277681635274 -0.0210284413608693 0.05738765 -0.5417387 0.8385856 221 221 221
0.0963457783650172 -0.0546671739196677 -0.0197009139021619 0.1237464 -0.5108012 0.8507462 221 221 221
0.100675501319195 -0.0575922930357752 -0.0219412218486219 0.5264927 -0.5020067 0.6861448 221 221 221
0.10139057043704 -0.0550254565650021 -0.020259387073753 0.5293255 -0.4400418 0.725381 187 187 187
0.0999400912013613 -0.0513089486157791 -0.0382855625634922 0.9095443 0.2050512 -0.3615011 210 210 210
0.101489940555454 -0.0520572947757277 -0.036107495943385 0.9497482 0.1159804 -0.290735 200 200 200
0.0982181551401404 -0.0475696920711163 -0.0367450476141067 0.958118 0.1320457 -0.2541136 218 218 218
0.0992941792161557 -0.0475798932851635 -0.0351325572998257 0.9565508 0.2044735 -0.2078486 222 222 222
0.100671460629157 -0.0497665810393958 -0.0344821413550172 0.9374381 0.255914 -0.2360464 179 179 179
0.0982867732243244 -0.0430604832512488 -0.0380448097082722 0.9617664 -0.2578091 -0.09241105 195 195 195
0.0995335404335833 -0.0428529912375762 -0.0381664353702581 0.9554635 -0.2878452 -0.06507432 194 194 194
0.0988334463034537 -0.0428632552649548 -0.0363922394523887 0.9788497 -0.1858766 -0.08545867 221 221 221
0.0991224042148855 -0.0418739326363237 -0.0364467133497024 0.9796346 -0.2000776 -0.01687863 239 239 239
0.101561041127139 -0.0518635721855303 -0.0324101290262101 0.953477 0.1526688 -0.2599498 164 164 164
0.102095218906805 -0.0518735249838299 -0.0311303384212296 0.980692 0.09071604 -0.1732448 156 156 156
0.102416624194284 -0.0504202774509552 -0.0299988390648179 0.961254 0.2300786 -0.1518373 126 126 126
0.0988996255901928 -0.0443974542901749 -0.031729367577268 0.9951506 -0.004446663 -0.09826293 137 137 137
0.0989752552971912 -0.0442275979041733 -0.030485583753367 0.9839962 0.1610424 -0.07626774 126 126 126
0.0993635852222372 -0.0415257353267052 -0.0367756455389875 0.9749333 -0.2223584 0.007854965 201 201 201
0.0996862592046175 -0.0411394893708408 -0.0339800023211004 0.9958785 -0.09065967 -0.002612303 187 187 187
0.0998391716204781 -0.0403583323984993 -0.0336842449055593 0.9973369 -0.01101076 0.07209685 245 245 245
0.0978431201740122 -0.0344898119723936 -0.0370889047150738 0.9130704 0.4063848 0.03396836 106 106 106
0.0988937716331515 -0.0345537044322121 -0.0356979507033226 0.9273904 0.3711956 0.04648493 146 146 146
0.0973345155530034 -0.0319063657684239 -0.035468475818211 0.9629467 0.2688423 -0.02138674 150 150 150
0.097729713092694 -0.0353074615686803 -0.0342994234366285 0.9439337 0.2897506 0.158221 164 164 164
0.0981521829176759 -0.0345875879218926 -0.0348028669482164 0.9307667 0.3574631 0.07676882 139 139 139
0.0990166490695166 -0.0362540248367645 -0.0335083110932135 0.9430739 0.2859145 0.1698955 223 223 223
0.0973980269561383 -0.0312637767386926 -0.0335912419856319 0.9696347 0.2440084 -0.01638407 153 153 153
0.0995819265815236 -0.0399951062490201 -0.0323929940372188 0.9881454 0.1087606 0.1083511 198 198 198
0.0994937315899431 -0.0416401495815261 -0.0298828652698137 0.9854304 0.1652112 0.04039929 181 181 181
0.0977203015207335 -0.0373635201113288 -0.0309445555600776 0.9778735 0.1748073 0.1149167 192 192 192
0.0981452113035406 -0.0393488561050661 -0.0295225953718129 0.97732 0.1870206 0.09934265 185 185 185
0.0979196013757653 -0.0397445820402675 -0.0275516330048094 0.9762117 0.1840297 0.114646 192 192 192
0.097872714770463 -0.0383066149488794 -0.0275024425034783 0.9866508 0.1096831 0.1203736 215 215 215
0.0967970603243158 -0.0353284551967868 -0.0322457943320431 0.9652959 0.2519734 0.06865325 192 192 192
0.0974680895100342 -0.0334522943468428 -0.0316646187095546 0.9737204 0.2277458 -0.0006255789 193 193 193
0.0983169534041681 -0.034383855908981 -0.0275306573361466 0.9926692 0.07439219 -0.09525559 227 227 227
0.0972088956254078 -0.0321207232884325 -0.0289304564473394 0.9777938 0.1622507 -0.1326425 156 156 156
0.082864411894239 -0.0534863849782754 -0.0181106132771375 0.04779211 -0.5445598 0.8373593 188 188 188
0.0865369989669902 -0.053783012608262 -0.0186618896909924 0.03959339 -0.5342233 0.8444157 204 204 204
0.0865595777950703 -0.0517876795246193 -0.0173913285286485 0.04670997 -0.5431539 0.8383328 201 201 201
0.0890165166210659 -0.0533857817796513 -0.0184476302581504 0.04708218 -0.5387231 0.8411663 220 220 220
0.0920119198620108 -0.0530924486185858 -0.0182846256840585 0.04972566 -0.5362411 0.8425989 191 191 191
0.0897830328173046 -0.0509402936994772 -0.0170571207425758 0.04415083 -0.5463701 0.8363793 184 184 184
0.103067661618608 -0.0501895121712566 -0.0261725996325445 0.9822838 0.1865621 0.01769706 146 146 146
0.101699336377849 -0.0478118615441453 -0.0256323766925889 0.9353005 0.338447 0.1032794 128 128 128
0.102342861028204 -0.0526574931183996 -0.0244420926628214 0.9875082 0.04158027 0.1519825 177 177 177
-0.0339021986496997 0.0126962403223951 0.0310500895531124 0.05459576 -0.5442625 0.8371366 136 136 136
0.102188106007488 -0.0501148132945934 -0.0246810422616442 0.9754776 0.1856323 0.1182544 170 170 170
0.100990699127977 -0.0491229643745794 -0.0234826111363899 0.941622 0.2388833 0.2372398 137 137 137
0.100573677311111 -0.0436613930895393 -0.0264267477504049 0.9174425 0.39281 0.06324162 204 204 204
0.0996582761588369 -0.0422701923634127 -0.025758058845338 0.9107101 0.3907187 0.1339628 173 173 173
0.0980306380991101 -0.0440571983654334 -0.021975235542036 0.8351859 0.4842115 0.2607753 199 199 199
0.0965586797484983 -0.0522203980374343 -0.0182288648179095 0.210564 -0.5206305 0.8274096 218 218 218
0.0931067441379825 -0.0507151316011525 -0.0169084313948904 0.047101 -0.5478882 0.8352245 188 188 188
0.101247005594935 -0.051596386184017 -0.0203137716487672 0.8366733 -0.1304762 0.531934 164 164 164
0.0985488748411352 -0.0542739318938228 -0.0196390444505441 0.1621189 -0.4862916 0.8586256 223 223 223
0.0979262035287434 -0.0533845323730885 -0.0190596568646274 0.2612511 -0.5004467 0.8254096 249 249 249
0.100010613456906 -0.0496364513912185 -0.017440895458144 0.7244408 -0.1529315 0.6721588 233 233 233
0.100761472547111 -0.0511694674841781 -0.0195443288555051 0.8325686 -0.0772616 0.5485072 144 144 144
0.100100285616375 -0.0478291976864841 -0.0202796759298584 0.8719918 0.2681381 0.4095512 184 184 184
0.0997034693872738 -0.0457422906682554 -0.02015980201767 0.8665578 0.4102368 0.2842241 210 210 210
0.0983683865461904 -0.0446670054910697 -0.0205972828253681 0.8167287 0.5141154 0.2619915 209 209 209
0.0998153140749016 -0.0464436162114036 -0.0168980340942409 0.8732808 0.2482257 0.4192429 234 234 234
0.0983442701205335 -0.0452269260872143 -0.0175195058761189 0.8558177 0.3919548 0.3375612 177 177 177
0.0965050321843197 -0.0400293473191399 -0.022834238567601 0.9410981 0.1357101 0.309705 123 123 123
0.0966534074294203 -0.0381971543586976 -0.0211517040632107 0.9550562 -0.121341 0.2704515 243 243 243
0.097457449459164 -0.037896783209816 -0.0242143903615892 0.9760641 -0.02800086 0.2156731 231 231 231
0.0972753165112472 -0.0379892686172987 -0.022330748081287 0.9560513 -0.09055513 0.2788647 216 216 216
0.0980261173277746 -0.035912799101591 -0.0256971761929774 0.9937293 -0.07524118 0.08270916 233 233 233
0.099009046947494 -0.0352073365031741 -0.0255187268355389 0.9967125 -0.04026878 0.07030334 226 226 226
0.0983373706024855 -0.0315865131919789 -0.0257785421583629 0.9937212 0.09271698 -0.06262262 230 230 230
0.0976261156058533 -0.0364149817620334 -0.0216032431816187 0.9491831 -0.1720021 0.2635655 212 212 212
0.0958665760495925 -0.0383310674011622 -0.0198549555048688 0.9575986 -0.1129797 0.2650295 245 245 245
0.0956355998620761 -0.0383935687890806 -0.0182132066093945 0.9843268 -0.1005321 0.144893 245 245 245
0.0961916414177399 -0.0371246033262829 -0.0183780987124761 0.9737503 -0.1226099 0.1917738 241 241 241
0.0962290381746618 -0.0346810634039839 -0.0176128553523386 0.9750248 -0.1418411 0.1709029 233 233 233
0.0959322757006054 -0.0357716305277295 -0.0164178036241029 0.9894453 -0.1043786 0.100514 205 205 205
0.0952570335426652 0.0055015474676734 0.0153274373221358 0.9639704 -0.05778053 0.2596586 165 165 165
0.0818922613594255 0.0369033774682705 0.0127176089769253 0.972547 0.1820561 -0.144941 97 97 97
0.0809261524049885 0.0246165073252826 0.0325573323351382 0.1320653 -0.5157313 0.8465105 132 132 132
0.0958874090195505 -0.0310425577250117 -0.0381857110473154 0.960324 0.2788667 -0.003333796 147 147 147
0.0956910744811865 -0.0285695298976033 -0.0365945822800762 0.9593787 0.266516 -0.09252991 156 156 156
0.0963509918965233 -0.0287204033212243 -0.0327186480306984 0.9802342 0.1748709 -0.09252591 152 152 152
0.0966104238802692 -0.0277740501739326 -0.0332734948625975 0.9756284 0.1970968 -0.09644759 119 119 119
0.096325073624822 -0.0275557306715407 -0.0339146421004205 0.9704579 0.2187432 -0.1017989 102 102 102
0.095265643249963 -0.0238084477990036 -0.0329212061623982 0.9611024 0.1769547 -0.2120593 149 149 149
0.0949443537963814 -0.0221286011214797 -0.0324476471902925 0.9602659 0.1898839 -0.2045325 190 190 190
0.0961858960522628 -0.0274694481854252 -0.0315071664821808 0.9715238 0.1714111 -0.163584 128 128 128
0.0965065313563715 -0.0305970362727395 -0.0304742418607305 0.9809833 0.1449014 -0.129133 206 206 206
0.0963201723258944 -0.0275581045122406 -0.0295476691626148 0.9766388 0.1155761 -0.1811597 151 151 151
0.0970610709015585 -0.0259142758461673 -0.0285954735143634 0.966315 0.1146824 -0.2303982 173 173 173
0.0951596594083788 -0.0218542964615589 -0.0317037597019892 0.9572488 0.1888694 -0.219096 142 142 142
0.0962821681384534 -0.0240560147013298 -0.0303403153535751 0.9509613 0.2002822 -0.2357109 119 119 119
0.0971546993305434 -0.0237172196682714 -0.0285533670713661 0.9535751 0.1871852 -0.2359159 129 129 129
0.0954319174334017 -0.0180520303507175 -0.0270274436394109 0.9595144 0.2350382 -0.1552067 174 174 174
0.0959180050987682 -0.0195719927763762 -0.0274480838261315 0.9556569 0.2367391 -0.1751415 141 141 141
0.0945429734398995 -0.0128116381248412 -0.0255948172129539 0.9853782 0.1276504 -0.11285 207 207 207
0.0979481603884942 -0.0301038960540919 -0.0253676820910843 0.9931084 0.07781104 -0.08764192 180 180 180
0.0976885904658484 -0.0278836366867545 -0.0249635123180652 0.9910909 0.01648747 -0.132163 220 220 220
0.0976445739990721 -0.0259095122568154 -0.025095179667848 0.9889215 0.01124833 -0.1480128 164 164 164
0.0978859438170558 -0.0265523143630759 -0.0231148603704019 0.9967756 0.003133996 -0.08017855 193 193 193
0.0979419562744215 -0.0287362842489108 -0.0229122043472124 0.996179 -0.08455943 0.0218396 179 179 179
0.0977391426575016 -0.0244366720769106 -0.0240347092648437 0.9824027 0.1181586 -0.1446495 97 97 97
0.098488333560347 -0.0260037543072822 -0.0226901848617648 0.9977352 -0.006631739 -0.06693638 131 131 131
0.097659184161754 -0.0224387785355337 -0.0224289233176843 0.9619282 0.2308172 -0.1463471 115 115 115
0.0978283234822674 -0.022732144710941 -0.0210277772634328 0.9804035 0.1806851 -0.07849715 99 99 99
0.0986847566539577 -0.0264003984021032 -0.0206402828473582 0.9918921 -0.1246715 -0.02463923 195 195 195
0.0967260291612817 -0.0310776124728065 -0.0156447743192124 0.9736863 -0.2233007 0.0455167 223 223 223
0.0986290089923525 -0.0260004291794292 -0.0185124775763718 0.9933602 -0.114418 -0.01199683 206 206 206
0.0984543295948614 -0.0240905497020939 -0.0185567147203072 0.9965736 0.08227625 -0.008469865 156 156 156
0.0979472813138678 -0.0236085606862472 -0.0208845337792394 0.9833264 0.1515185 -0.1005555 158 158 158
0.0985755913922497 -0.0245349431999561 -0.0169505854469451 0.9973647 0.0209009 0.06947529 164 164 164
0.0987270215581231 -0.0257519451772225 -0.0157755439217784 0.9933313 -0.08385506 0.07912763 216 216 216
0.0958380829645575 -0.0190440926692131 -0.0239659587911884 0.9563764 0.2616573 -0.1299214 193 193 193
0.0973174519563282 -0.0204298197891883 -0.0216297222826956 0.9453369 0.2838151 -0.1605837 112 112 112
0.0956828936546765 -0.0158261472704692 -0.0216311697589064 0.9700673 0.1671964 -0.1761105 209 209 209
0.0950139363651998 -0.0141793047513168 -0.0209622067544935 0.9794225 0.1200356 -0.1622441 235 235 235
0.0951930175222633 -0.011597676964592 -0.0223496509448036 0.9608333 0.2212768 -0.166841 200 200 200
0.0955541783783387 -0.0144311163614584 -0.0216775320535704 0.9804166 0.1116733 -0.162211 195 195 195
0.0959249553752533 -0.0139037385924455 -0.0206203215105245 0.9777936 0.1304082 -0.1640531 208 208 208
0.0954604830033414 -0.0107354769254724 -0.0221089701724779 0.9563918 0.2472201 -0.1555537 158 158 158
0.0951784038796744 -0.0111330751718315 -0.0216082377613702 0.9594597 0.2495527 -0.1309986 176 176 176
0.0976918461590981 -0.0201813837651135 -0.0184931724844051 0.9594307 0.2818606 -0.006882738 125 125 125
0.096364201936316 -0.0177183146812845 -0.0200440988043775 0.9595739 0.258525 -0.1112783 160 160 160
0.096572650613219 -0.0175681728193838 -0.0194241557582005 0.9618705 0.2466406 -0.11821 164 164 164
0.0962971807882003 -0.0161175340235079 -0.0181894063889444 0.9769015 0.213495 -0.009123085 156 156 156
0.0971902520369898 -0.0209087172540062 -0.0146491458368363 0.9569596 0.2528813 0.1424055 158 158 158
0.0971435311905613 -0.0191272941729537 -0.0155021081532342 0.9553534 0.268496 0.1233282 129 129 129
0.0950475137587645 -0.0105301160802697 -0.0158068810909825 0.9910273 0.1302027 -0.03020152 152 152 152
0.0960476532540442 -0.0142626132669343 -0.0165008525390239 0.9911954 0.1323315 0.004489847 124 124 124
0.0958145266117367 -0.0106048683636409 -0.0141611163640919 0.994891 0.100954 0.0005138068 137 137 137
0.0943090664233912 -0.00833015795882175 -0.0218078122953144 0.9418542 0.2945073 -0.1617904 180 180 180
0.0919473799652804 -0.00613462147730981 -0.0214289326044988 0.9152412 0.3640598 -0.1726096 127 127 127
0.0939631774351999 -0.00772084605734291 -0.0192153498271936 0.9359996 0.332945 -0.1142467 152 152 152
0.0948473260913314 -0.00831451060662614 -0.0161091557725676 0.9557912 0.28635 -0.06683528 142 142 142
0.0954084576981051 -0.00857085596423957 -0.0156456895890816 0.9758621 0.2097621 -0.06076978 139 139 139
0.0925295019869705 -0.00283605944707743 -0.018960122398006 0.9025506 0.4108568 -0.1288378 148 148 148
0.0921811925918243 -0.00107916412751496 -0.0179796218134856 0.9058686 0.4060682 -0.1204604 130 130 130
0.0933462376385683 -0.00339092315596179 -0.016200783767868 0.9083154 0.3994096 -0.1242386 190 190 190
0.0922635310943014 -0.00331726663755061 -0.0153783965960949 0.9044744 0.4175068 -0.08725856 200 200 200
0.0899887360018274 0.00255979818991481 -0.0134525117637308 0.9064262 0.4135277 -0.08594467 84 84 84
0.0921320512882322 0.00151644447666577 0.00086860903674401 0.9625442 0.2632822 -0.06473929 131 131 131
0.0563642582120316 0.0270042992462836 0.0355587516705788 0.04763575 -0.5259758 0.8491644 175 175 175
-0.0367468304878784 0.0713335170385936 0.0412688506423843 0.02866229 0.9371207 0.3478265 74 74 74
0.0437822746086733 0.0579935562243823 0.0546847518627989 0.1174694 -0.1493101 0.9817879 88 88 88
-0.0867266111629106 0.0527806691984554 0.0537681904869658 -0.9241372 -0.2249279 0.3088329 46 46 46
-0.0654178562524592 0.0454290394495522 0.0539540770557231 0.04647442 -0.5398976 0.8404468 110 110 110
0.0960087781737231 -0.0327796888690783 -0.0137304244435635 0.9811125 -0.1931331 -0.01085178 230 230 230
0.0728545777795095 0.0642979100491972 0.048645420267006 0.5515861 0.5021329 0.6660445 202 202 202
0.0155085804632127 0.0336882625992307 0.0422237698886205 0.04041027 -0.5431895 0.8386371 113 113 113
-0.042550135510103 0.0637205557001956 0.0606936813261965 -0.04805987 0.6594999 0.7501668 50 50 50
0.0790115073336879 0.0537391698301399 0.0395630782695296 0.8471758 0.2642307 0.4609504 192 192 192
0.0144284162191859 0.0176489691827686 0.0317454133963241 0.04279789 -0.5516244 0.8329939 175 175 175
-0.0843246208236113 0.0451529314279122 0.0405490958765911 -0.976087 -0.1521461 -0.1552602 66 66 66
0.0933911203054252 -0.0100552692502164 -0.00581698582819107 0.9884388 0.02413462 0.1496868 192 192 192
-0.0553600389224025 0.0129113575193494 0.0324784574448284 0.04027421 -0.5422822 0.8392307 133 133 133
-0.00978197877199216 0.0478908982320352 0.052404527331176 0.03321578 -0.5450476 0.8377469 128 128 128
0.094745112793102 -0.0140210677031136 0.00178610015533514 0.9236447 0.06011027 0.3785065 183 183 183
0.0154858455316087 0.0698186267958549 0.0452375475683727 -0.07631731 0.8986882 0.4318972 54 54 54
-0.0409309148545822 0.0681870427331945 0.0489063599366522 0.01053272 0.910004 0.4144658 50 50 50
-0.0548355289370788 0.061755742056754 0.0626912936750062 0.1586378 0.2086751 0.9650331 69 69 69
0.0831897737795235 -0.0177115586110985 0.00483846824453737 0.0457407 -0.5447531 0.8373481 140 140 140
0.0248661352936108 0.0504987426948396 0.0522124715245205 0.03504723 -0.5446398 0.8379374 102 102 102
0.0918910678384934 -0.0375475788297482 -0.00836591190141112 0.2414713 -0.5467679 0.8017085 223 223 223
0.0751596997393693 0.015795531809617 0.0271912338628187 0.05483452 -0.5401866 0.8397568 125 125 125
0.0141138750272329 0.0488590394074557 0.0518348635191116 0.04837851 -0.5468087 0.8358587 142 142 142
-0.0566905484035019 0.0368265386503115 0.0479094412916103 0.05133032 -0.5447257 0.8370419 121 121 121
-0.039607705627736 0.0239984707165117 0.038545832733316 0.04984955 -0.5407562 0.839701 135 135 135
-0.0871596208261813 0.0572271567921028 0.0427709375899458 -0.992143 0.07085221 -0.1031129 39 39 39
-0.0721512110041447 0.0335226837283102 0.0464241619213568 0.04607502 -0.5474548 0.8355659 111 111 111
0.0824659734050748 -0.0498592168332708 -0.0157941436591932 0.04785577 -0.5485537 0.8347446 193 193 193
0.0863421952390722 -0.0496823534643818 -0.0160116139144132 0.05584892 -0.5441658 0.8371167 190 190 190
0.0881976345501272 -0.0494942467810541 -0.0159831012417409 0.04944029 -0.5459857 0.8363344 174 174 174
0.0813950207405143 -0.0487857202789405 -0.0148531242422703 0.05052777 -0.5464215 0.8359847 188 188 188
-0.0764578644846026 0.0649795368005013 0.0570234344739514 -0.003700156 0.9212366 0.3889851 48 48 48
0.0830402422059806 -0.0478421533195555 -0.0145673378166109 0.05425273 -0.5415224 0.8389339 192 192 192
0.0823592045431742 -0.0460029180101239 -0.0135955733919915 0.04769908 -0.5336444 0.8443627 143 143 143
0.0887670383871204 -0.0486368093600816 -0.0152994827825294 0.04473462 -0.5519515 0.8326754 194 194 194
0.0907695272217328 -0.0485312566848319 -0.0153855112133003 0.04211288 -0.5425453 0.8389702 205 205 205
0.0966053944392886 -0.048970704445088 -0.0159727304412608 0.3601139 -0.4134805 0.8362726 236 236 236
0.0969909114685175 -0.0474293011368121 -0.0150289451481213 0.399725 -0.3134077 0.8613916 243 243 243
0.0939088124973311 -0.0452591035265272 -0.0135143272388276 0.3158242 -0.3689242 0.8741567 196 196 196
0.0929959636904831 -0.0442684265929136 -0.0127315622724744 0.2889615 -0.4160647 0.8622015 205 205 205
0.0803753498384854 -0.0435912866007221 -0.0113485682921618 0.04608822 -0.5402109 0.8402666 141 141 141
0.0828581351480384 -0.0420528498686122 -0.0111308403543202 0.03802749 -0.5386609 0.841664 192 192 192
0.0859856133641759 -0.0435551259320831 -0.0117099425466242 0.0455901 -0.5397916 0.8405632 202 202 202
0.0859021206851946 -0.0414927209353888 -0.0104496176419423 0.04814114 -0.5332296 0.8445997 176 176 176
0.0839561093771266 -0.0398946122738487 -0.00939606745203059 0.04587371 -0.5393337 0.8408417 173 173 173
0.0898081360055976 -0.0389690889070544 -0.0091715065631447 0.09611851 -0.5342631 0.8398358 206 206 206
0.0803533861608954 -0.0389834344161785 -0.00871174450155732 0.05069558 -0.5478372 0.8350475 183 183 183
0.0820519922888772 -0.037488790946738 -0.00783961747843057 0.05120362 -0.5526034 0.83187 155 155 155
0.0845301508232885 -0.0383688048495207 -0.0085104745956542 0.04690745 -0.5477772 0.8353083 182 182 182
0.0812379896676911 -0.0370390483742227 -0.00741732978574308 0.04313599 -0.5441294 0.8378917 186 186 186
0.0846231840278002 -0.0352829840250868 -0.00627164064479539 0.05676695 -0.5416311 0.8386974 196 196 196
0.0859948782688917 -0.0366215351351272 -0.00770982769367618 0.05455682 -0.5380538 0.8411431 191 191 191
0.0872004838169085 -0.0366953460768197 -0.00780468198162069 0.050817 -0.5363058 0.8424926 198 198 198
0.0859619758933516 -0.0339701844695044 -0.00564978582424824 0.05547722 -0.5478964 0.8347046 167 167 167
0.0968866975645315 -0.0435875778235466 -0.0142724060506999 0.7653624 0.07359648 0.6393778 137 137 137
0.0931555589351327 -0.0422552698554433 -0.0114966658375861 0.3902079 -0.4605967 0.797238 196 196 196
