ply
format ascii 1.0
comment File exported by Rhinoceros Version 7.0
element vertex 468
property float x
property float y
property float z
property float nx
property float ny
property float nz
property uchar red
property uchar green
property uchar blue
end_header
0.0289933420836406 -0.0730211196084576 0.00371006174818775 0.5278222 -0.8432195 -0.1019049 87 87 87
0.0293335147846798 -0.0741306718105255 0.00728659266834714 0.5125802 -0.855553 -0.07273635 72 72 72
0.0277843326850793 -0.0748256596881713 0.008855597581479 0.5100859 -0.8535566 -0.1060826 83 83 83
0.0301395545017007 -0.0729175534032525 0.00669653836929754 0.5137217 -0.8562097 -0.054726 69 69 69
0.0312156202249765 -0.0723343118660384 0.00360226595023103 0.5070601 -0.8583502 -0.07826291 44 44 44
0.033247267273893 -0.0709877376222801 0.00372833422556859 0.5500236 -0.8308502 -0.08462891 82 82 82
0.0337084087447925 -0.0707600234735333 0.00529880114879608 0.5359929 -0.8412411 -0.07088748 97 97 97
0.0333211525530184 -0.0699637125706163 0.00442982126158048 0.5561593 -0.8290466 -0.05803971 45 45 45
0.035256833876061 -0.0695431091550738 0.00367337650230448 0.5685412 -0.8198912 -0.06737524 74 74 74
0.0349394090637085 -0.0702016213817673 0.00561934057114077 0.5482844 -0.8316494 -0.08799748 71 71 71
0.0374350897548195 -0.0670403661526666 0.00384763016857417 0.5221339 -0.8475839 -0.09475073 89 89 89
0.0322441506275268 -0.0720503502021985 0.00818317344530792 0.4966544 -0.8621888 -0.09982467 96 96 96
0.0303002990097712 -0.0716441521362954 0.00996093666847966 0.4890021 -0.8654886 -0.1086573 21 21 21
0.0328633186575831 -0.0716398487987833 0.0095474098036242 0.5076965 -0.8522418 -0.1262072 77 77 77
0.0345178563814093 -0.0711487458623004 0.00835587091458642 0.490797 -0.8663935 -0.09209029 37 37 37
0.0349437354608055 -0.0704623187982807 0.00989983199195751 0.5073714 -0.8567202 -0.09276147 67 67 67
0.0334300677881814 -0.0716964042821897 0.0133058467857822 0.5112947 -0.8582289 -0.04495368 66 66 66
0.0369146155414315 -0.0683381128746787 0.00660423498907692 0.5501916 -0.8257981 -0.1238817 43 43 43
0.0380933520285369 -0.0669129803265776 0.00519508761864321 0.5129627 -0.850671 -0.1150137 35 35 35
0.0300588817454817 -0.0663744020344155 0.0173306194130801 0.5898271 -0.8061177 -0.04773189 94 94 94
0.0357266854237579 -0.0697685665295718 0.016830546048557 0.5232654 -0.8513952 -0.03632601 65 65 65
0.0362589842677761 -0.0687354208460649 0.0195922778943318 0.5457504 -0.8378482 -0.01291994 70 70 70
0.0373222424935549 -0.067973749287495 0.0184780692592856 0.5770985 -0.8145999 -0.05817606 79 79 79
0.0313778618559875 -0.053149409423652 0.0152161029463284 -0.5833993 0.6198611 0.5248023 110 110 110
0.0387552094551782 -0.068444722897506 0.00284769892186593 0.5528725 -0.8323431 -0.03920403 83 83 83
0.0409475769060401 -0.0669671247402057 0.00480607877349395 0.4331023 -0.8997551 -0.0535092 64 64 64
0.0397096638231353 -0.0657299170839805 0.00376230450988513 0.4293158 -0.9020827 -0.0439846 102 102 102
0.0409773498093065 -0.0660480032117654 0.00708226916471807 0.4561927 -0.8878049 -0.06075041 104 104 104
0.0551044813221879 -0.0580417177123498 0.0106276959465106 0.5335125 -0.8435352 0.06174812 74 74 74
0.04436329737093 -0.0645981163874971 0.00940607031856541 0.4857675 -0.8726772 0.04964219 62 62 62
0.0450628524770775 -0.0633143069380528 0.00987920162125572 0.5031652 -0.8601904 0.08304925 65 65 65
0.0462091828609883 -0.0645148014161721 0.0084078086064017 0.4414489 -0.8891622 0.1204716 57 57 57
0.0406018535189261 -0.0673287109840732 -0.000445086722167837 0.4461195 -0.8857176 0.1283815 57 57 57
0.0411670558890762 -0.0654283350050091 -0.00137753790838616 0.3263247 -0.9334395 0.1490062 46 46 46
0.0389681191140656 -0.0662806356935719 -0.00248233829140804 0.4065076 -0.9115812 0.06141062 64 64 64
0.0396797323151992 -0.0664078500517122 0.00142957856855161 0.3835155 -0.923051 0.02987915 84 84 84
0.0409333586519425 -0.065808202254511 0.00301256935022165 0.3797242 -0.9243585 -0.03702613 101 101 101
0.0432188295688727 -0.0649233117550931 0.00131642490226028 0.3406014 -0.9393553 -0.04002805 38 38 38
0.0441429398195374 -0.0638472129867296 0.000289916848078803 0.5352827 -0.8353555 0.1251144 94 94 94
0.0468301406997944 -0.0648357663717631 -0.00247797502828567 0.3989748 -0.9105918 0.1078964 56 56 56
0.049448512859867 -0.0634511700246949 -0.00241606450615126 0.3193084 -0.9431615 0.09213312 68 68 68
0.0501576510640769 -0.0635822749721058 0.00189150636173047 0.3912366 -0.9178369 0.06715156 89 89 89
0.0472401567290648 -0.0616872510161626 0.000739324695116422 0.141886 -0.9629993 0.2291303 42 42 42
0.0492499946989584 -0.0630449030743474 -0.000231795936711299 0.3976792 -0.9151283 0.06626776 68 68 68
0.0492329482900189 -0.0616545378910365 -0.000437606286236042 0.4582366 -0.8882188 0.03296337 89 89 89
0.0458722145209864 -0.0636882933035432 -0.00413042875407291 0.4431397 -0.8964421 0.004326635 48 48 48
0.0479934151880974 -0.0608800588858467 -0.00596669597768251 0.4400188 -0.8934265 0.09040146 49 49 49
0.0493159533249408 -0.0614289532480077 -0.00213392915369393 0.4008651 -0.9124885 -0.08168151 57 57 57
0.0461924283210435 -0.0638848268608028 0.00353202077939574 0.3788601 -0.9251934 -0.0219569 81 81 81
0.0477421244062906 -0.0640213215386225 0.00582892838577934 0.4043693 -0.9076066 0.1128526 39 39 39
0.04845498105095 -0.0626203138394257 0.00414301143040668 0.4382966 -0.8946759 0.08632056 73 73 73
0.0464149127992051 -0.061578337238938 0.00394073027026656 0.3514012 -0.9263925 -0.1353296 48 48 48
0.0473060553217686 -0.0623907193605588 0.00586338420955748 0.388793 -0.9174585 0.08432049 71 71 71
0.0475391779905943 -0.0619912290147429 0.00816797437805677 0.4375347 -0.8987612 0.02813627 99 99 99
0.0509427064788175 -0.0615532080327836 0.000702287219214309 0.4753962 -0.8788334 0.04062609 80 80 80
0.0518040136046629 -0.061104968401871 -0.00231796867346626 0.5965663 -0.7870697 0.1569389 36 36 36
0.051931533857517 -0.0596324466962781 -0.00360933600400731 0.5290044 -0.8340853 0.1563839 47 47 47
0.0575271962469714 -0.0593705567929679 -0.00361815025357609 0.5844029 -0.796484 0.1551982 56 56 56
0.058315428487256 -0.0577501125362907 -0.00274373481158971 0.5029264 -0.8403414 0.2022161 52 52 52
0.0593332319162361 -0.0571825513499375 -0.00388148819473452 0.5836008 -0.7925363 0.1769077 51 51 51
0.0516214813297471 -0.0608153203088615 0.00224024909893242 0.5557349 -0.8313284 0.007196289 60 60 60
0.0512956520209826 -0.061194877380055 0.00298047544329799 0.4914862 -0.8681448 0.06903601 48 48 48
0.0534046090792706 -0.0586651699892144 -0.000457372568521797 0.5375853 -0.8425663 -0.03292727 63 63 63
0.0543409029498882 -0.0578042934235214 0.00029472636894648 0.5191156 -0.8522539 0.06467015 85 85 85
0.0542752969498124 -0.057899143946736 0.00344815041695565 0.5788772 -0.8148721 0.02974362 65 65 65
0.0584428760124764 -0.0583831226448306 -0.000840185424353351 0.486414 -0.8733962 0.02409392 46 46 46
0.0573329116275931 -0.0568821370641357 -0.000383424282225708 0.5537328 -0.8319526 0.03514179 56 56 56
0.0592326174087687 -0.0549527409689337 0.000414482083542472 0.6344641 -0.7729145 0.007644928 69 69 69
0.0603761948650916 -0.057941854392455 -0.00124622704797589 0.4973697 -0.8665212 0.04200498 65 65 65
0.0606696782467033 -0.0571430845359986 0.00302494635629025 0.5860831 -0.8052455 0.08992438 66 66 66
0.0617311134229439 -0.0563306255166165 0.00218397322406613 0.6773673 -0.7341008 0.04764092 52 52 52
0.0578247660429525 -0.055931898866425 0.00153775097761583 0.4078816 -0.91113 0.05894614 55 55 55
0.040189648615945 -0.0670044799228648 0.0156608045180093 0.544579 -0.8385018 -0.01866378 77 77 77
0.0423636698478929 -0.0661704872996061 0.0134099696163047 0.5270709 -0.8494918 -0.02366226 64 64 64
0.0399047774551526 -0.0696957314117277 0.0179909253733928 0.571219 -0.8175934 -0.07245606 49 49 49
0.0407129967069915 -0.0662976999493561 0.0175281367551515 0.5530092 -0.8329793 -0.01806141 50 50 50
0.0431540929598448 -0.0649913018782764 0.0160603294956175 0.5248026 -0.8500017 -0.04560001 44 44 44
0.0451858244835799 -0.0649889301847844 0.0140647111665149 0.5376423 -0.8383962 -0.08962448 42 42 42
0.042090960384416 -0.0655115844571661 0.0126661058707123 0.5553508 -0.8313493 -0.02106587 30 30 30
0.0430694856777203 -0.0646618931846019 0.0140439460870931 0.5441539 -0.8367473 -0.06124169 81 81 81
0.0439285014467043 -0.064030549197462 0.0125422579813293 0.5160087 -0.8565257 0.009935892 40 40 40
0.045639999175205 -0.0615547062511963 0.010149427678669 0.4894332 -0.8692411 0.0698217 36 36 36
0.0477143983551132 -0.0628841839980101 0.00986075257435445 0.4014234 -0.9107251 0.09715532 80 80 80
0.0486961724612907 -0.0625168939170293 0.0121001847892238 0.3301854 -0.9438476 -0.01137474 84 84 84
0.0453929824315804 -0.0625579593881405 0.0132073484095779 0.5039557 -0.8632037 -0.03013412 47 47 47
0.045194491351267 -0.063696806902283 0.0159113694678449 0.5185999 -0.8456439 -0.1262557 55 55 55
0.0492239435502873 -0.0627587644305079 0.0160347610810629 0.3847058 -0.9213293 -0.05615954 48 48 48
0.0395623863376979 -0.0670404707350225 0.020340558722208 0.5126972 -0.8570098 -0.05172881 21 21 21
0.0411795765289922 -0.0659365065965152 0.018794651689545 0.5482708 -0.8344355 -0.05582525 48 48 48
0.0426090304584013 -0.0656808804933233 0.0181217024472516 0.5225244 -0.8515976 -0.04183146 24 24 24
0.0422070212565482 -0.0655093405191201 0.0234999651447628 0.5756573 -0.7973761 0.1811354 67 67 67
0.0446633171856581 -0.0639623873848805 0.0200226810956303 0.5548949 -0.8309661 -0.03983802 35 35 35
0.0471409693590603 -0.0646958396899948 0.0212288024163702 0.5340255 -0.8454364 0.007352266 43 43 43
0.054057266785553 -0.0599188175671908 0.0242271744796315 0.5559875 -0.8112521 0.1809641 60 60 60
0.0451937282974681 -0.0640748498393875 0.0234737439291715 0.503684 -0.8319562 0.2327042 51 51 51
0.048749794207128 -0.0628741141197151 0.0232224619820527 0.5155287 -0.8526812 0.08464595 65 65 65
0.0476268594374059 -0.062831428554188 0.0201244078858648 0.4951899 -0.8650159 0.0808366 43 43 43
0.0483779624090384 -0.0624475300917813 0.0212369559731049 0.4578424 -0.8878311 0.04622019 35 35 35
0.0488459591094657 -0.0616456212065688 0.0196970490293087 0.527894 -0.8492479 -0.01029369 58 58 58
0.0474829730060702 -0.0619174299007177 0.0170979280485234 0.5323071 -0.8436242 -0.07033768 35 35 35
0.0511007254359497 -0.0625119096068936 0.0124895872483709 0.4818048 -0.8762781 0.0009526002 104 104 104
0.0518113989141491 -0.0619645505115838 0.0163224278163986 0.4530273 -0.8894302 0.06066443 70 70 70
0.0531486754722974 -0.0610497792096656 0.0154681319327868 0.591305 -0.8020485 -0.08412262 70 70 70
0.0524075543866338 -0.0591163586032128 0.0180951889008696 0.5808004 -0.813652 -0.02532436 62 62 62
0.0546152409106362 -0.0608885969957176 0.0162649050522348 0.6659074 -0.7458727 -0.0155333 74 74 74
0.0506583633680453 -0.060663966476195 0.0200627784127613 0.5559648 -0.8311932 -0.004577269 33 33 33
0.0511960651504975 -0.0591176501201294 0.018142828348758 0.5323161 -0.8428161 0.07937642 74 74 74
0.0507906333408723 -0.060824803539238 0.0222534273821227 0.4752578 -0.8796759 -0.01733151 50 50 50
0.0565178197995275 -0.0579950424972322 0.0199248178744819 0.6673812 -0.7423908 -0.05880712 62 62 62
0.057809835617981 -0.0569558992497401 0.0189270305132344 0.5728428 -0.8148267 -0.08893006 28 28 28
0.0574125143261777 -0.0552898565182998 0.0181511051823278 0.5525451 -0.8319286 0.05087963 28 28 28
0.0532116683849051 -0.0585599346970112 0.0119187171942904 0.5883463 -0.8081323 -0.02776362 48 48 48
0.0541323274689514 -0.0571094266532897 0.011315082980859 0.5479407 -0.8359463 -0.03090073 54 54 54
0.0603384097464426 -0.0560028729195765 0.00778209830322113 0.5649284 -0.8251244 -0.005062516 62 62 62
-0.0755784127144163 0.0435741874384268 -0.0147306901413025 -0.9735591 -0.0814773 0.2134104 122 122 122
0.0609585627553177 -0.0547957281839018 0.00750360066921182 0.6042566 -0.7967318 0.009618131 46 46 46
0.0612131684676824 -0.0561373454748135 0.0113634459579716 0.5463619 -0.8375089 0.008226707 40 40 40
0.0610169008204282 -0.0538646338128084 0.00522452197129189 0.6328471 -0.7739139 -0.02370326 83 83 83
0.0617360828744842 -0.0523600613555366 0.00737705001727817 0.5713972 -0.8195478 0.04297223 79 79 79
0.0597525477233425 -0.0565985958831798 0.0133870821405386 0.4572365 -0.8883108 0.04288077 44 44 44
0.0620311337983168 -0.0556948962813517 0.0128004945962243 0.5974973 -0.8008612 0.04022748 30 30 30
0.0600141493789517 -0.0536341523111965 0.0110059819562136 0.5930378 -0.803015 0.05893245 51 51 51
0.0575453186519086 -0.0559462716443135 0.0167589210855481 0.5261934 -0.8490869 -0.04660339 39 39 39
0.0585614408608424 -0.0549021492005008 0.0157273932598005 0.5245928 -0.8490297 0.06285705 74 74 74
0.0598137918791422 -0.0541964103639436 0.0138118086295278 0.5990371 -0.7947234 0.09782289 66 66 66
0.0608236897513026 -0.0530224314530063 0.0137279428383389 0.6550456 -0.7487514 0.1014229 92 92 92
0.0610867182190009 -0.0534442165036706 0.015933827965164 0.5965782 -0.8024075 -0.01538109 57 57 57
0.0617001756657558 -0.0512568632746879 0.0127238668769985 0.627777 -0.7752917 0.0694174 38 38 38
0.0584820121623575 -0.0583707006034355 -0.00707985313818243 0.6185403 -0.7713514 0.1497497 78 78 78
0.0576213906442189 -0.0576097114931629 -0.005794572715312 0.5043325 -0.8164567 0.2811532 50 50 50
0.0589161692292737 -0.055764117496941 -0.0075250672171096 0.5372936 -0.8113284 0.2303517 62 62 62
0.0601001014531874 -0.055623876852136 -0.00932623127485391 0.5366784 -0.8417735 0.05825477 54 54 54
0.0582287939169031 -0.0546414029265689 -0.00463903629294807 0.6436891 -0.7598752 0.09085108 43 43 43
0.060302726158985 -0.0538417838354268 -0.00557545599340256 0.603411 -0.7759975 0.1836381 64 64 64
0.0609220851933363 -0.0532908646080501 -0.00185808428273179 0.6429334 -0.7656432 0.0206694 38 38 38
0.0618684052650065 -0.0527694560347862 0.00109648593966499 0.5542051 -0.8308273 -0.05082146 74 74 74
-0.0682821402146665 -0.0654792559384725 0.0249505402331882 -0.4063724 -0.08532061 0.9097152 66 66 66
-0.0652042521057536 -0.0682329868080682 0.0264803788513478 -0.0534876 0.05250077 0.9971874 29 29 29
0.0771574914222317 -0.0430867579956611 0.0143685080251852 0.5788607 -0.814884 -0.02973771 47 47 47
-0.0515874630861 -0.0675935067214557 0.0259140603830452 -0.03594371 -0.03854693 0.9986101 132 132 132
-0.0522306402771939 -0.0658501737512258 0.0251944185678712 -0.03575504 -0.04464127 0.998363 135 135 135
-0.0505358328909002 -0.0653531010793615 0.0261509612056831 -0.01060119 -0.0599471 0.9981453 136 136 136
-0.0498052260202362 -0.0645603919733324 0.0267246524605865 -0.01253651 -0.05946323 0.9981518 144 144 144
-0.0364789960881642 -0.0652118576452054 0.0252349666548954 0.01527677 -0.008140071 0.9998502 148 148 148
-0.078993296458254 -0.0435060912956435 0.0110915091532424 -0.9610213 -0.08555219 0.2629046 69 69 69
-0.0804192498374645 -0.0424763179786125 0.00892835838394421 -0.9650623 -0.07283551 0.2516938 82 82 82
-0.0800612196844472 -0.0424400555035152 0.0105056677260492 -0.9629493 -0.08075999 0.2573061 131 131 131
-0.0791767369416105 -0.0392384886424832 0.0129636900297527 -0.9585202 -0.0665822 0.2771387 106 106 106
-0.0811660591017267 -0.0367593045401597 0.00506241727771739 -0.9669685 -0.04315414 0.2512165 40 40 40
-0.0812369156893442 -0.0355443703971454 0.00705067050684013 -0.965251 -0.04169889 0.2579762 31 31 31
-0.0797495997193076 -0.0349503452307747 0.00961777691128982 -0.9605344 -0.04889212 0.2738306 35 35 35
0.0190796049746604 0.0737619941860193 0.00428885341111745 0.1520481 0.9849793 0.0818356 107 107 107
-0.0809270037544618 -0.0330065897787479 0.00895021861900394 -0.9612866 -0.06288835 0.268278 68 68 68
-0.0801069217281931 -0.0351096381640719 0.0116351547543708 -0.9630616 -0.03304756 0.2672455 49 49 49
-0.0802907804994086 -0.0307925224832857 0.0113729107213697 -0.9575972 -0.09148786 0.2731988 91 91 91
-0.0795967786831338 -0.0307172893320375 0.0131407535160315 -0.9550336 -0.09324037 0.2814553 55 55 55
-0.082044786675215 -0.0337298774130028 0.00481629253331595 -0.9682055 -0.03407506 0.2478248 58 58 58
-0.0811970562780169 -0.0339071098656172 0.00536792824297461 -0.9684332 -0.02550659 0.2479647 72 72 72
-0.0826040440567311 -0.0323307615592561 0.00184004443657451 -0.9745848 -0.01515123 0.223506 52 52 52
-0.0822248356110882 -0.0308700646085593 0.00320673076593783 -0.9788762 -0.04367594 0.1997343 72 72 72
-0.0815950573222599 -0.0331161892246516 0.00256593317917597 -0.9706053 -0.0119555 0.24038 40 40 40
-0.0805709033293001 -0.0332091691140131 0.00797197177675443 -0.9656357 -0.04878012 0.2552809 84 84 84
-0.0818029457504004 -0.0285992422756611 0.00484889271197503 -0.9822863 -0.03702873 0.1836912 71 71 71
-0.0827625224041852 -0.0291216175797759 -0.000874596828734225 -0.9824582 0.03586027 0.1830027 55 55 55
-0.0826588673249813 -0.0258984391400203 -0.000780769969147554 -0.9925976 0.03050275 0.1175563 73 73 73
-0.0817062580556427 -0.0286666238448317 0.00411090942850068 -0.9819916 -0.04458587 0.1835879 75 75 75
-0.0825838194018209 -0.025358565381786 0.00113427986993614 -0.9946027 0.01327084 0.1029049 69 69 69
-0.0820529686777722 -0.0258243767245088 0.00343854498151086 -0.9904855 -0.02466423 0.1353884 104 104 104
-0.0809821235000745 -0.0312508220211076 0.00870357496587157 -0.963439 -0.06881103 0.2589408 56 56 56
-0.0810971930135991 -0.029197474983955 0.00880964600552631 -0.9600564 -0.08919656 0.2652087 94 94 94
-0.0795072614028209 -0.029023985301331 0.0129670223051875 -0.9567906 -0.1002976 0.2729323 103 103 103
-0.0816403635703464 -0.0252683311929258 0.00712263997816864 -0.9777005 -0.06110983 0.200916 57 57 57
-0.0820929269595752 -0.0231174078556415 0.00522106132815844 -0.990996 -0.007323473 0.1336908 107 107 107
-0.081545232622773 -0.0236353853550697 0.00729056781692627 -0.9847915 -0.0369414 0.1697678 100 100 100
-0.082009515296213 -0.0237581172875956 0.00679277096164208 -0.9863914 -0.02221279 0.1629071 138 138 138
-0.0819782774790614 -0.0240598127221858 0.00924963361534767 -0.9782518 -0.04661085 0.2021159 142 142 142
-0.0813324332912948 -0.0240019377120086 0.00893342205709918 -0.9782518 -0.04661085 0.2021159 62 62 62
-0.0822220937654334 -0.0218896835908404 0.00705551158865367 -0.9890367 -0.006555621 0.1475242 123 123 123
-0.0787798853470347 -0.0309041928991038 0.014962062007612 -0.9518251 -0.06199111 0.3003101 88 88 88
-0.0801531958761594 -0.0284990453402008 0.0130999414267846 -0.9549067 -0.08741387 0.2837463 129 129 129
-0.0791793394976985 -0.0275220726037737 0.0133361067676144 -0.9416882 -0.08458204 0.3256825 134 134 134
0.0879049076580065 0.070704665820807 -0.0120117210278074 0.2639868 0.9628041 -0.05761291 88 88 88
-0.0807481186344203 -0.0251428619883456 0.0114765822322858 -0.950885 -0.07107362 0.3012743 96 96 96
-0.0815914965823001 -0.0212519422972819 0.00897188581986186 -0.9815547 -0.01590271 0.1905187 116 116 116
-0.081682380282706 -0.0195548413960041 0.00699778084862177 -0.9915077 0.02553471 0.1275163 136 136 136
-0.0810843385869988 -0.02160371182898 0.0125621797522514 -0.95421 -0.04950642 0.2950123 101 101 101
-0.0811862960945462 -0.0192743268246514 0.0109033869346419 -0.9696521 -0.007833447 0.2443632 88 88 88
-0.0812540713639476 -0.0176072268868099 0.0113736277069521 -0.9814268 0.001481113 0.1918311 126 126 126
-0.0792333247550057 -0.0214526459989759 0.0156052357350583 -0.9249326 -0.03888778 0.3781367 61 61 61
-0.0794151052305891 -0.0176030543212988 0.0149235178195241 -0.9358647 -0.04701856 0.3492084 53 53 53
-0.0805006209667409 -0.0175981238326619 0.0134548859380586 -0.9624553 -0.03647474 0.2689783 88 88 88
-0.0804088629959909 -0.0183789546715667 0.0137633211658899 -0.9559514 -0.03690334 0.2911959 88 88 88
-0.0799501190109304 -0.0167086454747198 0.0133840887066723 -0.9679376 -0.02273048 0.2501599 94 94 94
-0.0806214135360719 -0.0151747810274023 0.0135685597591931 -0.974561 0.01947894 0.2232742 85 85 85
-0.0795350629818157 -0.0177691818510968 0.0172449861096418 -0.9211876 -0.1275791 0.3676097 57 57 57
-0.0804314222447544 -0.0158926098346257 0.0165143130508488 -0.9450133 -0.03960446 0.3246248 86 86 86
-0.0688194822852082 -0.0635192404880069 0.0256239115716546 -0.4025839 -0.1841878 0.8966611 108 108 108
-0.0711922097559261 -0.059571532474969 0.0249201564058324 -0.53107 -0.1722022 0.8296452 72 72 72
-0.0718394790712955 -0.0582881153517076 0.0250274879694045 -0.5719676 -0.2031378 0.7947252 71 71 71
-0.0676505940114462 -0.0601405978889409 0.0251212672543815 -0.2079154 -0.07873056 0.9749731 156 156 156
-0.0710854872167235 -0.0580599640840072 0.0220667994492855 -0.7962846 -0.2523831 0.5497579 53 53 53
-0.072487770692492 -0.0570454487275285 0.0216267438785938 -0.8702238 -0.2220049 0.4398003 49 49 49
-0.0728012787019199 -0.0577096612526493 0.024166184999061 -0.7395878 -0.1847651 0.647203 40 40 40
-0.0803231532589899 -0.0133861501113135 0.0130771208658804 -0.9789788 0.02828318 0.2019918 54 54 54
-0.0727476090977719 -0.0571291417565303 0.0227498261717354 -0.8334539 -0.168369 0.5263141 51 51 51
-0.0733361672888484 -0.0540740926277248 0.0202145558811051 -0.8437051 -0.2043293 0.4963982 74 74 74
-0.0685362563591831 -0.0570867954765695 0.0259527796603137 -0.2170305 -0.08889028 0.9721092 114 114 114
-0.067616725298139 -0.0575143621529701 0.026146876125506 -0.1442448 -0.03338673 0.9889786 143 143 143
-0.0719831950408638 -0.055191086723495 0.0248802065820661 -0.5705861 -0.05907075 0.8191106 61 61 61
-0.0729049342790526 -0.0537932144923925 0.0247088276203649 -0.7431338 -0.1891898 0.6418406 105 105 105
-0.065336549355073 -0.0635681268035504 0.0240010058562126 -0.2090529 -0.07524243 0.9750053 129 129 129
-0.0621623821860209 -0.0642093393500818 0.0241375897857185 -0.04415114 0.03888346 0.9982679 119 119 119
-0.0643111588366618 -0.0636904693740936 0.0255542066818726 -0.04115294 -0.01412768 0.999053 139 139 139
-0.0621679345116384 -0.061213860876788 0.024006229296964 0.05604417 -0.02138507 0.9981992 129 129 129
-0.0587599258558209 -0.0632489512332652 0.0239971211972388 0.009855445 0.0008238609 0.9999511 147 147 147
-0.0595972778441629 -0.0627610348811733 0.0253333365551964 0.009374343 0.009913645 0.9999069 115 115 115
-0.059960615445203 -0.0605497012848966 0.023839315504495 -0.04497076 -0.004812144 0.9989767 119 119 119
-0.0600075102861828 -0.0603689749942975 0.0239370667686543 -0.06192202 0.01524169 0.9979646 148 148 148
-0.0570443699186078 -0.0593378107274949 0.0241366726646988 0.009071379 0.06371796 0.9979267 126 126 126
-0.0590030408259838 -0.0608155143106084 0.0252677372122102 0.03638986 0.007337037 0.9993107 120 120 120
-0.0662290585305843 -0.0562224320184663 0.0244676935459807 -0.07246137 -0.07909461 0.99423 122 122 122
0.079849267703566 -0.0399218324136335 0.0118940599784112 0.6800636 -0.7198476 -0.1390429 21 21 21
-0.0560737579354409 -0.0580927726980296 0.0266412261883883 -0.02230669 0.03945347 0.9989724 112 112 112
-0.0629967990769127 -0.0540642557754798 0.0253964606944418 0.07296672 -0.01010011 0.9972832 117 117 117
-0.0628967567113441 -0.0534024746594137 0.0238956655448749 0.08971044 -0.01811263 0.9958032 146 146 146
-0.0629296737237859 -0.0508536587938979 0.0246099577807384 -0.04470365 -0.01720947 0.9988521 146 146 146
-0.058411481715783 -0.0541371739071539 0.0240235382822843 -0.03413472 -0.1088206 0.9934751 190 190 190
-0.0762154477235315 -0.0544112922138302 0.0173967626826005 -0.8902685 -0.1725449 0.4214858 28 28 28
-0.0768626496699818 -0.0515800965089117 0.0169683897706866 -0.9106036 -0.1332144 0.3912225 84 84 84
-0.0771492342261939 -0.0511189354809058 0.0152353586397751 -0.9411792 -0.1140542 0.3180776 83 83 83
-0.0766823516103556 -0.0494636167596336 0.016831422055691 -0.9349816 -0.1198362 0.3338393 86 86 86
-0.0760049853487796 -0.0516568726380455 0.0195689931341894 -0.8953293 -0.1339979 0.4247705 122 122 122
-0.0758605697634518 -0.050552300817899 0.0181797207800684 -0.9111966 -0.1480417 0.3844533 106 106 106
0.00736487485104975 0.0700975043923373 0.0252875067555476 0.04427632 0.1433325 0.9886837 148 148 148
-0.0771769165265552 -0.0492244573827136 0.0149386871869654 -0.9377588 -0.1202363 0.3258093 92 92 92
-0.0781900865447787 -0.0475630865069308 0.0145822097465417 -0.9489536 -0.1255489 0.2893521 72 72 72
-0.0782801378141109 -0.0453383175710498 0.0153544892496743 -0.9457109 -0.09408524 0.311093 66 66 66
-0.0767839311640834 -0.0472497156540124 0.0176017681015383 -0.9393681 -0.08846212 0.3313035 134 134 134
-0.0779046806264576 -0.0434365677889885 0.0153458626740169 -0.9355398 -0.08695376 0.3423512 83 83 83
-0.0786612409690595 -0.0428070046039584 0.0147590795990703 -0.9505246 -0.09800068 0.2947863 60 60 60
-0.073257648073574 -0.0501258423230115 0.0246940749397347 -0.6244245 -0.1268999 0.7707078 98 98 98
-0.07530689350068 -0.0456193612675759 0.021113103042303 -0.9003473 -0.1009223 0.4233078 113 113 113
-0.0749826635782491 -0.0449305830952857 0.0229540158582604 -0.8693306 -0.1071085 0.4824852 120 120 120
-0.0735620948316651 -0.0450735056686606 0.023850890420081 -0.5871506 -0.1124598 0.8016277 130 130 130
-0.0688192095340854 -0.0475653888611143 0.0238350613721265 -0.1485585 -0.003517431 0.9888974 106 106 106
-0.0769270879266741 -0.0436828332626058 0.0190484154824937 -0.9185827 -0.06645478 0.3896019 99 99 99
-0.0757035102931432 -0.0434346037093611 0.020048995684069 -0.9206157 -0.08034226 0.382115 116 116 116
-0.0781238138392961 -0.0426216096574019 0.0169912733543336 -0.9151365 -0.1101909 0.3877926 56 56 56
-0.0754622851256077 -0.0419232783591035 0.0214072891116642 -0.9007152 -0.0827416 0.4264576 114 114 114
-0.0647295948458535 -0.049037595291443 0.024953194387728 0.0195023 0.02185954 0.9995708 137 137 137
-0.0637580309264141 -0.0487264436608055 0.0239570465142324 -0.03894319 -0.0240623 0.9989517 130 130 130
-0.065875261342224 -0.047547750188577 0.0237894769614397 -0.03754395 0.01464564 0.9991876 104 104 104
-0.0660179636392073 -0.0454041028420467 0.0238040548533273 0.02397857 -0.04411917 0.9987385 139 139 139
-0.0618769730140873 -0.0468949155010432 0.0240934760192988 -0.07739448 -0.04461249 0.9960019 116 116 116
-0.0613605191406905 -0.0511102229017535 0.0238473215593258 -0.1022264 -0.02214883 0.9945145 178 178 178
-0.0578724492786959 -0.0479489855225577 0.0239639538753549 -0.05745497 -0.0009190948 0.9983477 157 157 157
-0.0705359542604063 -0.0457680746496134 0.0255955313290021 -0.1662755 -0.1735435 0.9706879 136 136 136
-0.0674163983283651 -0.0439852805077834 0.0238482418835353 0.08628032 -0.0828841 0.9928172 123 123 123
-0.0737609735446918 -0.0407785634694302 0.0247736558670974 -0.5932266 -0.143315 0.7921761 115 115 115
-0.0759021734689238 -0.0401344182553918 0.0212748187072389 -0.9077554 -0.1204134 0.4018466 136 136 136
-0.076250747008618 -0.0367859988969719 0.0243743768537835 -0.747452 -0.2364528 0.6208104 96 96 96
-0.0688220077554207 -0.0391979592218183 0.0238930429464187 -0.01197442 0.05983542 0.9981365 165 165 165
-0.0687975299904344 -0.0408811167306016 0.025445338326865 -0.0008756021 -0.01807775 0.9998362 113 113 113
-0.0679722790066808 -0.0373751022126099 0.0246824933672799 -0.03950883 0.05043148 0.9979457 97 97 97
-0.0654343403003237 -0.0429331098732788 0.0252512755476723 0.09420554 -0.08563546 0.9918628 98 98 98
-0.0594071839037158 -0.0481449226494715 0.026727600890934 -0.06025214 0.006737333 0.9981604 162 162 162
-0.0615153184515607 -0.0437253268833144 0.0240115726119246 -0.04962439 0.04624658 0.9976967 131 131 131
-0.0564694119130493 -0.0438505049176596 0.0262154687743577 -0.02067072 0.06418349 0.997724 193 193 193
-0.0630337844179585 -0.0429598759716412 0.0238570986419506 0.01110665 -0.000753145 0.999938 89 89 89
-0.0630653379253221 -0.039263521838689 0.0239649288924559 0.05521492 -0.04846589 0.9972975 136 136 136
-0.0631920772043202 -0.0368600666567955 0.0250328209290823 0.05356554 0.0288987 0.9981461 103 103 103
-0.0562340546744762 -0.0405264074217218 0.024228047872103 0.01455997 -0.03013058 0.9994399 130 130 130
-0.0612142769394308 -0.038730462569214 0.025655311605375 0.02349511 0.01308465 0.9996383 159 159 159
-0.0574011096912197 -0.0366556831479075 0.0256645649363225 -0.04431283 0.05451614 0.9975291 108 108 108
-0.0644917523724378 -0.0363016618981433 0.0267090998615051 0.04040518 0.07308254 0.9965071 102 102 102
-0.0509414044656542 -0.0630287376852883 0.0240160557220939 -0.09783487 0.02127314 0.9949753 111 111 111
-0.0513206257589058 -0.0636855695442469 0.0260445486187278 -0.04854576 -0.009696906 0.9987739 116 116 116
-0.0515483136447852 -0.0603511091136608 0.0245516036138518 -0.03903376 0.06920404 0.9968386 134 134 134
-0.0516861975654372 -0.0595036065311461 0.0242381053294305 -0.02691484 0.07433555 0.99687 127 127 127
-0.0473544165173236 -0.0627912845115171 0.0240461558922793 -0.005574427 -0.04850291 0.9988075 89 89 89
-0.0470813795667131 -0.0625270327379239 0.0244247292800123 -0.00157715 -0.0377869 0.9992846 130 130 130
-0.0444119289033464 -0.0627435388295869 0.0242040760075284 0.007253889 -0.07218249 0.9973651 141 141 141
-0.0556009623895133 -0.0564409728064479 0.0240294753556191 -0.02734364 -0.08096289 0.996342 122 122 122
-0.0544058222205588 -0.056246230695048 0.0240708858295671 -0.03087952 -0.04283509 0.9986048 120 120 120
-0.0485677323956852 -0.0555518602222591 0.0243601395281763 -0.04353124 -0.009459288 0.9990073 133 133 133
-0.0535854475367108 -0.0530266859752135 0.0241821321817191 0.006844789 -0.07281838 0.9973217 136 136 136
-0.0548781523719657 -0.0520874489366454 0.0246376714543592 0.03703801 -0.04640893 0.9982356 126 126 126
-0.0446183146552785 -0.0527362977790871 0.0243854372561015 -0.008445013 -0.02374245 0.9996824 136 136 136
-0.0476722202095812 -0.049676023679023 0.0262621216750748 -0.03276359 0.001984343 0.9994612 105 105 105
-0.0462877742215251 -0.0528682737269555 0.0265980336983607 0.04669718 -0.01448632 0.998804 134 134 134
-0.0404304320075588 -0.0601695460177758 0.0265317950127979 -0.01466346 -0.03002979 0.9994414 137 137 137
-0.0380662647827108 -0.0636495601749594 0.0247750147616621 -0.01714748 0.007977913 0.9998211 155 155 155
-0.0376555079840775 -0.0607246681789941 0.0243033466004532 -0.03491038 -0.03899252 0.9986295 135 135 135
-0.0351042030420625 -0.0609679348488459 0.0246056707053728 -0.03507363 -0.04646764 0.9983039 150 150 150
-0.0374324363592546 -0.0595600154695877 0.0250057923658405 -0.06383184 -0.03380189 0.9973881 148 148 148
-0.0389130206824426 -0.0552261548260602 0.0249369882815269 -0.0315653 -0.03880483 0.9987481 149 149 149
0.0340154058578579 0.0734912882733056 0.0185912432181127 0.07588654 0.9971153 0.001559465 84 84 84
-0.0333142424456057 -0.0537901538557268 0.026445703636537 -0.02932117 0.02503715 0.9992564 155 155 155
-0.0365294344367539 -0.0509444191828869 0.0247661985674053 -0.01022049 -0.003964038 0.9999399 128 128 128
-0.0345794613092838 -0.0513408236079302 0.0244599780932228 -0.01547051 -0.003872398 0.9998728 147 147 147
-0.0328997797951343 -0.0504733262792876 0.0252506568555888 0.008401177 0.02512079 0.9996491 157 157 157
-0.0513471371862082 -0.0455085919547591 0.0241033296830127 0.02038876 0.05931995 0.9980308 179 179 179
-0.0469682155295403 -0.0502695499826262 0.0242128759163813 -0.01996761 -0.0372899 0.999105 169 169 169
-0.0449062211340112 -0.0484395907962505 0.024829012686996 -0.05239768 -0.02484972 0.9983171 142 142 142
-0.0350167330397448 -0.0474594573046458 0.0244164772083135 0.02225598 -0.01371343 0.9996582 162 162 162
-0.0328151795179474 -0.0473193341912319 0.0253459127644916 -0.007434953 -0.04091207 0.9991351 169 169 169
-0.0526943674506499 -0.0433488158158453 0.0255007065104243 0.03099142 -0.009181194 0.9994775 145 145 145
-0.0513086023072571 -0.0424300560477617 0.0242510752209686 0.03262812 0.01665288 0.9993288 128 128 128
-0.0552349675047097 -0.0413271586392203 0.0265364042554127 0.02315887 -0.03561795 0.9990971 150 150 150
-0.0480444666275865 -0.0422157947418362 0.024407213619873 0.03164349 -0.03971143 0.99871 131 131 131
-0.0497535004573506 -0.0381537193630843 0.0241899667558848 -0.04933784 -0.0865138 0.9950282 140 140 140
-0.0325884547716657 -0.0437617405124846 0.0246546864509443 -0.03007035 -0.02278449 0.9992881 158 158 158
-0.0411022922305806 -0.0409500859924812 0.0244736360454595 0.01474032 -0.006250542 0.9998718 124 124 124
-0.0413519248084182 -0.0378159933356992 0.0265450381987236 0.07975361 -0.03525633 0.9961909 165 165 165
-0.0410598907609991 -0.038809787684529 0.024323556938811 0.02000158 0.02222493 0.9995529 133 133 133
-0.0344910189873262 -0.0399698712807344 0.0260564638299106 -0.05012726 -0.00247566 0.9987398 185 185 185
-0.037334342179747 -0.0396384003784211 0.0245954809157561 -0.01569728 0.003439949 0.9998709 190 190 190
-0.0786925928311317 -0.0393329694446733 0.0149101877280322 -0.9534154 -0.06581936 0.2943924 116 116 116
-0.0770296693486183 -0.0377728119850416 0.0193515399718338 -0.9374924 -0.1496904 0.3141668 111 111 111
-0.0781842705146065 -0.0359788176930884 0.0170580106159049 -0.957077 -0.05664403 0.2842449 132 132 132
-0.0557541322591313 -0.0308582586290524 0.0104492563581076 0.9696009 0.1639672 0.1816283 118 118 118
-0.07723467302217 -0.0354820105040798 0.0194797489769533 -0.958285 -0.08237356 0.2736867 118 118 118
-0.0710949592564145 -0.0361832693850883 0.0234874528670788 -0.2137335 0.01307839 0.9768044 172 172 172
-0.0778433469270206 -0.031438935851416 0.017383150210962 -0.953366 0.005172157 0.3017721 116 116 116
-0.0777710529438036 -0.0293677254899931 0.0173751944261023 -0.9432321 -0.007665277 0.332046 162 162 162
-0.0788248424096341 -0.0287216107830175 0.0165032831356301 -0.9430844 -0.01784228 0.3320744 147 147 147
-0.0771419117539243 -0.0293084759848756 0.0190929668866807 -0.952549 0.05045583 0.3001744 137 137 137
-0.0768449179834116 -0.0297221574642055 0.0232160752526566 -0.9289145 0.01191505 0.3701025 138 138 138
-0.0757295188002138 -0.0297993961883409 0.0268996809184738 -0.4542262 0.0671637 0.888351 136 136 136
-0.0723478099124131 -0.0318415568564534 0.0237516706781629 -0.07592822 -0.2967855 0.9519208 159 159 159
-0.0729625529594577 -0.0323142242753962 0.0266038747539228 0.03517104 -0.175234 0.9838984 107 107 107
-0.076490840808374 -0.0274905922349189 0.0228362163885877 -0.9531009 -0.03090787 0.3010704 119 119 119
-0.0758525969219981 -0.0265096308618591 0.0234178502263454 -0.8965914 0.04828747 0.4402183 123 123 123
-0.0756729788597903 -0.0253035660174554 0.0236980163412769 -0.8948799 0.0795171 0.4391662 142 142 142
-0.0636005720326105 -0.036450008626171 0.0240129575378047 0.05788697 0.006245538 0.9983036 159 159 159
-0.05978590386931 -0.0351909577338312 0.0240597505115503 0.06633043 0.0222802 0.9975489 135 135 135
-0.0560156460370982 -0.0361287095199261 0.0245768602110078 -0.02013129 0.06326788 0.9977935 90 90 90
-0.0571182457004025 -0.0351098015172711 0.0240237302352621 -0.08456629 0.09060648 0.9922898 150 150 150
-0.0628834289881144 -0.0333552204139764 0.0259509908518497 0.08319949 0.05992233 0.9947297 186 186 186
-0.0619981019164748 -0.0329762386569405 0.0240085758971334 0.05655723 0.03947575 0.9976186 118 118 118
-0.0634347608671897 -0.0320037160322966 0.0253939278367807 0.05109753 0.04513937 0.997673 140 140 140
-0.0635797919180447 -0.031408834874654 0.0263238390867139 0.05109753 0.04513937 0.997673 147 147 147
-0.0607132404050161 -0.0316208480879547 0.0240244069727375 -0.00150803 0.03060492 0.9995304 168 168 168
-0.0561222656582328 -0.0312645827166411 0.0252703245614742 -0.1437389 0.02402685 0.9893239 95 95 95
-0.0650221928820403 -0.0274777085398104 0.0239547752786318 0.04303997 -0.04633396 0.9979984 127 127 127
-0.0632053698214627 -0.0276320546036086 0.0240207681233144 0.1019968 0.007271086 0.9947581 116 116 116
-0.0628038590999345 -0.0276503877788405 0.0260015321820056 0.06164877 0.03191525 0.9975875 95 95 95
-0.0591544719428532 -0.0291494148413398 0.0239912889137068 0.03988948 -0.04734994 0.9980816 135 135 135
-0.0591618596166701 -0.0258751435693148 0.0240577892911653 -0.04056737 -0.09995347 0.9941648 155 155 155
-0.0564531654000151 -0.025243934953932 0.0246476072027312 -0.02500987 -0.1032974 0.9943361 104 104 104
-0.0786649694197461 -0.0234773943723892 0.016109541438321 -0.9093335 -0.07045074 0.4100602 72 72 72
-0.0768864082328067 -0.0255465587336794 0.0192553701475615 -0.9351606 -0.00955701 0.3540951 73 73 73
-0.076987533221875 -0.0242733849292678 0.020272364652796 -0.9232006 -0.03964987 0.3822676 121 121 121
0.0529341122546934 -0.0367053061412368 0.0267526669095738 -0.0304068 -0.009327377 0.9994941 113 113 113
-0.0784335083787577 -0.022855793999218 0.0193253003019743 -0.9287978 -0.09493444 0.3582206 76 76 76
-0.0786269367795069 -0.0226448086497963 0.0170990817461423 -0.9047553 -0.07688287 0.4189355 52 52 52
-0.0771357462956828 -0.0208542829584919 0.0207323545929961 -0.9175044 -0.1200569 0.3791729 39 39 39
-0.0511973106384342 -0.0423338569608211 0.0137992289099733 0.8504573 0.476641 0.2225665 119 119 119
-0.0530243283668512 -0.0392173156157398 0.0107060249701948 0.8919237 0.4469258 0.06877041 117 117 117
-0.0556939397675078 -0.0343795792174346 0.0240290186567817 0.02175914 0.09834265 0.9949147 135 135 135
-0.0546478090975002 -0.032296420425074 0.0178639086336432 0.9855615 0.1642019 0.04130571 133 133 133
-0.0548677202640799 -0.0341819987801881 0.0242340066193609 0.02761712 0.1088624 0.9936731 173 173 173
-0.0523890088315226 -0.0355897855187812 0.0255190714900583 -0.1034365 0.01429357 0.9945334 104 104 104
-0.0474420248552365 -0.0281754209269471 0.0262636479082792 0.0224076 0.02697159 0.999385 204 204 204
-0.0528098524972711 -0.0288043775285305 0.0243043426304854 -0.06115758 0.05184495 0.9967808 117 117 117
-0.0462324363088049 -0.0286020400813198 0.0242137897876413 0.02158464 0.03268407 0.9992326 217 217 217
-0.0461434341730684 -0.0276033615227653 0.0243577360645506 0.006124667 -0.001309257 0.9999804 250 250 250
-0.0447245674738519 -0.0243975381837278 0.0243709820951303 -0.01755464 -0.01447484 0.9997411 232 232 232
-0.038860244655859 -0.035775642198576 0.024575310317367 0.0573602 -0.0233603 0.9980802 241 241 241
-0.0402904796347061 -0.035598002695191 0.0252257483108745 0.07893409 -0.01337304 0.9967901 233 233 233
-0.0386448167530011 -0.0348749833534681 0.0265851497737773 0.04975468 -0.03020249 0.9983047 234 234 234
-0.0410952874222961 -0.0295409551546342 0.026819434947616 0.02010841 -0.008885657 0.9997583 220 220 220
-0.0372081615344999 -0.0336696558327827 0.0244617159730271 -0.02807572 -0.04880986 0.9984134 127 127 127
-0.0348642642959829 -0.0328733701884361 0.0244840743477006 -0.01660967 -0.06379029 0.9978251 169 169 169
-0.0355646496528197 -0.0313810952545315 0.0256518285652051 -0.03719002 -0.05547187 0.9977674 140 140 140
-0.0336253433329892 -0.0317967663873846 0.0245824744228438 -0.01732199 -0.04444971 0.9988614 168 168 168
-0.0408081952938799 -0.0280478950395791 0.0245418523274071 0.03359557 0.02828572 0.9990352 175 175 175
-0.075878131058001 -0.0239367048591441 0.0266134563284618 -0.5661991 0.05442405 0.8224698 95 95 95
-0.0720575547876972 -0.0253077132143364 0.0265919886566283 -0.1493875 -0.03214419 0.9882561 87 87 87
-0.0655040478219655 -0.0251147477858418 0.0266482201335149 0.09444079 0.102033 0.990288 121 121 121
-0.060563526760798 -0.0246351784552516 0.0271088526894857 -0.05762533 -0.1529231 0.9865565 94 94 94
-0.0585719174535695 -0.0255160240874022 0.0252145479560884 -0.02933064 -0.128676 0.9912528 148 148 148
-0.0603432857637138 -0.0244158147947353 0.0249361237316479 -0.002596538 -0.008963775 0.9999564 137 137 137
-0.0612377837927738 -0.0238185981277714 0.0243428332372556 0.02102371 0.02354605 0.9995016 194 194 194
-0.0563856759814094 -0.020673667795982 0.0270077147392679 0.0003553694 0.0106226 0.9999435 154 154 154
-0.0758622247834628 -0.0214228246673707 0.0232265034893172 -0.8808585 -0.03855354 0.4718072 41 41 41
-0.073751091480788 -0.0218707399189384 0.0241176460969302 -0.4544787 0.01528462 0.8906265 93 93 93
-0.0772501845577034 -0.0197337731929967 0.021491102126278 -0.9084647 -0.09282605 0.4075234 51 51 51
-0.0785648782609338 -0.0180615228375991 0.0203200639268251 -0.9130344 -0.1103754 0.3926647 42 42 42
-0.077504172923204 -0.0182720131920131 0.0199423347623593 -0.9154053 -0.09758125 0.3905265 37 37 37
-0.0744116554633911 -0.0195588089820689 0.0259753383447171 -0.3750605 -0.0321126 0.926444 164 164 164
-0.0768380296489626 -0.0155901925468673 0.0228145199114894 -0.8190388 -0.1580228 0.5515471 49 49 49
-0.075464423997156 -0.0156854038592911 0.0238461423509063 -0.6999553 -0.1298515 0.7022828 113 113 113
-0.0725123175761277 -0.0202365201124508 0.0240503460901255 -0.2740525 0.05790793 0.9599698 95 95 95
-0.0690780151562846 -0.0189974668208226 0.0260729808587844 -0.02724307 -0.02362326 0.9993497 88 88 88
-0.0715564558718025 -0.0153681661752061 0.0239912971468125 -0.09826218 0.08412118 0.9915988 97 97 97
-0.0777936006577851 -0.0156076856694061 0.0211819531147109 -0.9149436 -0.1231585 0.3843307 46 46 46
-0.0774828442200801 -0.0131441086193571 0.0221363941218332 -0.9276034 -0.1295519 0.3503829 50 50 50
-0.0768994928018023 -0.0142435531366771 0.0248189554597448 -0.7715776 -0.192625 0.6062703 52 52 52
-0.0757568678139315 -0.0138607524834569 0.0258511035009685 -0.5015465 -0.01253469 0.8650399 147 147 147
-0.0776495694788764 -0.00942440374217646 0.0230127276694299 -0.9347662 -0.06446518 0.3493656 139 139 139
-0.0774342500549696 -0.00955741338350391 0.0253904472704009 -0.7894404 -0.1018699 0.6053151 164 164 164
-0.069203107664666 -0.011921272348012 0.0252746184671285 -0.07411828 0.01951931 0.9970584 150 150 150
-0.0727181201200942 -0.00919290797058392 0.0237872732730021 -0.1045353 -0.1536531 0.9825798 89 89 89
-0.0695566380589747 -0.0111354754886694 0.0239361421856984 -0.05553845 -0.02145251 0.998226 135 135 135
-0.0677933471878813 -0.0114997151550331 0.0240363014957717 -0.08610871 -0.004256739 0.9962767 129 129 129
-0.0683035314073066 -0.00902905091839057 0.0238752720356218 -0.06108051 -0.02286522 0.9978709 167 167 167
-0.0718979075928787 -0.00941752020855557 0.0250735404379668 0.005766736 -0.07153762 0.9974212 138 138 138
-0.0638626851040778 -0.0213936790296716 0.0240290945950871 0.03944565 -0.02691903 0.998859 171 171 171
-0.0642355909128205 -0.0204526030871253 0.0244903916744108 0.06547826 -0.04211612 0.9969648 126 126 126
-0.0621221316630103 -0.0192497884365219 0.0244510580786018 -0.04834808 -0.03436321 0.9982393 175 175 175
-0.0641648414845446 -0.0184897996253668 0.0272154823981697 0.0002420562 -0.1131733 0.9935752 189 189 189
-0.0670943215596949 -0.016317617112809 0.0242131650116195 -0.08899954 -0.1032661 0.990664 106 106 106
-0.0613916674727657 -0.0153031029681971 0.0239967199251092 0.02664137 -0.09515928 0.9951055 114 114 114
-0.0643362743711076 -0.0149892007274708 0.024034803190412 0.06446529 -0.07401394 0.9951714 98 98 98
-0.058898537489072 -0.0154715731852573 0.0262109604231993 0.09476783 0.008918505 0.9954594 134 134 134
-0.0670642368904353 -0.0126137991366673 0.0254951778259542 -0.1323971 0.03171338 0.9906893 103 103 103
-0.064156204880718 -0.0140505714868657 0.0243337524869634 -0.004816573 -0.0804965 0.9967433 169 169 169
-0.0664786223010276 -0.0124546572041029 0.0274092645992524 -0.1441859 0.0470467 0.9884316 193 193 193
-0.0667959326086749 -0.0110156635800744 0.0261753716499615 -0.133157 -0.008071479 0.9910621 162 162 162
-0.0618321882299018 -0.00865018621672942 0.0259620255466627 0.04914451 -0.01941634 0.9986029 148 148 148
-0.0599833571221065 -0.0128701662892992 0.0259540250715286 0.1527349 -0.08464426 0.9846357 170 170 170
-0.0757350058942401 -0.00678469442783491 0.0272994382425605 -0.2566367 -0.3166494 0.9131653 223 223 223
-0.0725576681305995 -0.00789314021927323 0.0270893348443659 -0.01737485 -0.1621176 0.9866185 193 193 193
-0.0510800769487763 -0.026596830669559 0.02642192717165 -0.05074538 0.04258307 0.9978034 115 115 115
-0.0535612561875218 -0.0236854391858257 0.0250390567078733 0.01984078 -0.08327592 0.996329 115 115 115
-0.0539712142873918 -0.0231436683297939 0.0242076583770828 -0.01420237 -0.05997537 0.9980988 110 110 110
0.0827234044843725 0.0246699584540855 0.0279453626029993 -0.01045327 0.01750066 0.9997922 97 97 97
-0.0330326619666697 -0.0213998276813787 0.0255639915507112 0.04590872 0.03225148 0.9984249 175 175 175
-0.0557716151072805 -0.0205023145083296 0.0243663981850721 -0.001226023 0.01182189 0.9999294 99 99 99
-0.0522264569226876 -0.0216854546069762 0.0242113818149393 -0.0047715 0.02024675 0.9997836 124 124 124
-0.0514455200183683 -0.0210093359754373 0.0241372423790042 0.006828072 0.05965034 0.998196 158 158 158
-0.0538020495308007 -0.0208488289290263 0.025803027247246 -0.0003914184 0.03144745 0.9995053 103 103 103
-0.0507214792147337 -0.016267647828266 0.0244176843728904 -0.07051224 -0.007237594 0.9974847 136 136 136
-0.0500795383711268 -0.0151321908704609 0.0243578909104822 -0.06615576 0.02283652 0.9975479 213 213 213
-0.0488781232425091 -0.0199489269199165 0.0250993071553421 -0.05219666 0.03677414 0.9979595 225 225 225
-0.0472471156704772 -0.0172229446664862 0.0244675487214449 -0.08203052 -0.01697136 0.9964853 237 237 237
-0.049165672052792 -0.0144821906287347 0.0250890493250218 -0.06265303 0.03519123 0.9974148 214 214 214
-0.0441029892916545 -0.0146672233729206 0.0246403377038168 -0.1046528 -0.006569605 0.9944871 143 143 143
-0.0824857760178621 -0.0101890379564946 -0.00253752175759001 -0.9912285 0.0214768 0.1304026 150 150 150
-0.0510680891499415 -0.0131415321813646 0.027279787139478 0.007045923 -0.0723192 0.9973567 129 129 129
-0.0550157487048026 -0.0103537034501819 0.0250738216149799 -0.03062603 0.01681239 0.9993895 93 93 93
-0.0537712213860266 -0.00949937273768087 0.0243733601447977 -0.003611727 0.01517992 0.9998782 140 140 140
-0.0476467715348536 -0.0125647889170861 0.0242643257112739 -0.07447613 0.04819092 0.9960577 200 200 200
-0.0487833204630668 -0.00950570402793072 0.0247814662056335 0.02279969 -0.03794152 0.9990198 117 117 117
-0.0477927459228025 -0.00911736479694891 0.0243770195134999 -0.002248079 0.02519372 0.99968 175 175 175
-0.0467018245399635 -0.011170924271636 0.0271417474935086 -0.05014108 -0.003394562 0.9987364 167 167 167
-0.0412892741193882 -0.0178942659215371 0.024450232416945 -0.06310186 -0.02263572 0.9977503 115 115 115
-0.041876153888319 -0.0153899458569706 0.0255001230968062 -0.03115603 -0.007801699 0.9994841 144 144 144
-0.0330082555973992 -0.0198472713275955 0.0248145857397453 0.02198376 -0.03303386 0.9992124 110 110 110
-0.0361410060792742 -0.0187462397799487 0.0252548051537793 -0.01923145 -0.01262396 0.9997354 124 124 124
-0.0344945545924975 -0.0193873764019004 0.0269512505712907 0.01101581 -0.00119634 0.9999386 132 132 132
-0.0325610119548545 -0.0195225932555871 0.02672407804455 0.0653412 -0.0006555126 0.9978628 138 138 138
-0.0384555083661307 -0.0171029646511689 0.0270341635504329 0.006575734 0.02452399 0.9996776 147 147 147
-0.0381758538762966 -0.0153934517961642 0.0258681835267978 0.01732121 0.0719073 0.9972609 95 95 95
-0.0435100631685736 -0.00844357358832015 0.0269983416966799 -0.02274352 -0.07625975 0.9968286 241 241 241
-0.0397448602988242 -0.0088440482418477 0.0244728278338689 -0.003626758 0.006032942 0.9999752 126 126 126
-0.0401161722452479 -0.00771813817882183 0.0246364814768357 0.0450059 -0.0378978 0.9982676 232 232 232
-0.0332068641834429 -0.0127865016860862 0.0247562077692586 -0.03688917 0.02382819 0.9990352 139 139 139
-0.032846415130982 -0.0104609684252017 0.0251526590403776 -0.06137663 0.0002593575 0.9981146 144 144 144
-0.0514974827613992 -0.00598328336717846 0.0273198321672183 -0.07953542 -0.005148981 0.9968187 78 78 78
0.0171637160347775 0.0128372786832829 0.0260792156596873 -0.02637301 -0.01259496 0.9995728 119 119 119
-0.031675306280522 -0.0647174535424675 0.0255157977931271 -0.005313558 -0.02918914 0.9995598 135 135 135
-0.00936335474127259 -0.0660188450561734 0.0252524443935896 -0.0338592 0.0006220136 0.9994264 139 139 139
-0.0152099635545859 0.0677108717775314 0.0283821512399743 -0.02291829 -0.04474415 0.9987355 92 92 92
-0.00494857324592668 -0.0661337957335428 0.025423286494962 -0.02021249 -0.0008656801 0.9997953 163 163 163
0.00319090419379209 -0.0651707056528381 0.0253552080022551 -0.01467943 -0.01359703 0.9997998 158 158 158
0.02326135158216 -0.0313989537239836 0.0258966906889084 -0.01041996 0.01663153 0.9998074 235 235 235
