ply
format ascii 1.0
comment File exported by Rhinoceros Version 7.0
element vertex 476
property float x
property float y
property float z
property float nx
property float ny
property float nz
property uchar red
property uchar green
property uchar blue
end_header
-0.0290018816925045 0.00508103927246639 0.0343115748936505 -0.2736391 0.1801971 0.9448019 154 154 154
-0.0285173555351254 0.00245497783295223 0.0345710637146802 -0.1429419 0.02869879 0.9893149 153 153 153
-0.0362245639301296 0.0273532684671075 -0.00361319164687685 -0.9200642 0.2841916 0.2696609 89 89 89
-0.0273438592887875 0.00341431459061214 0.0338687719876141 0.07012007 0.1783649 0.9814628 146 146 146
-0.0317728420234676 0.00313214620224544 0.0324728908116192 -0.7027614 0.05167311 0.7095466 186 186 186
-0.0319091280437466 0.00404359062782833 0.0326674403721661 -0.7055166 0.08090369 0.7040603 160 160 160
-0.0309188564754482 0.0068985041009576 0.0328677715832562 -0.5602224 0.2199236 0.7986141 139 139 139
-0.0277299781776424 0.00512568315140316 0.0334631325775952 -0.06342194 0.2835003 0.9568726 152 152 152
-0.031545718524551 0.00713063439003536 0.0308993877941937 -0.7062151 0.277944 0.6511585 109 109 109
-0.0305009385086056 0.0111574943887384 0.0288905026490063 -0.8000793 0.3833721 0.4614097 121 121 121
-0.0267306169010159 0.011487316690603 0.03190149088448 0.01659281 0.322593 0.9463923 91 91 91
-0.0344075163341518 0.00696472486130306 0.022648823457417 -0.8713692 0.3761964 0.3149476 105 105 105
-0.0333286722637173 0.00885782798401424 0.0227811755711407 -0.8663883 0.3647841 0.3410336 75 75 75
-0.0339532693363186 0.00736964901558468 0.0233079614216656 -0.8724707 0.3767321 0.3112359 108 108 108
-0.0330220361686703 0.011015873752752 0.0205953242356152 -0.8738092 0.3112175 0.3736325 90 90 90
-0.0316820045448299 0.0104358907567651 0.0234936596924634 -0.8745635 0.3586941 0.3263086 70 70 70
-0.032181670281982 0.00884864886871883 0.0252670468861432 -0.8796298 0.3829655 0.282115 90 90 90
-0.0331583221889492 0.0169199522363336 0.0171092571789593 -0.8408599 0.3654177 0.39928 115 115 115
-0.0329766174293514 0.0164889510499627 0.0181582393223614 -0.8496682 0.3447402 0.3990215 136 136 136
-0.0321589609123226 0.0171376880036981 0.0187302054936261 -0.8472182 0.3647721 0.3862157 98 98 98
-0.0307280620075222 0.0150242563115747 0.0235582413250775 -0.8985848 0.2856503 0.3330906 155 155 155
-0.0307053526378628 0.0174122567998559 0.0212256731564374 -0.8738481 0.3386477 0.3488657 125 125 125
-0.0300921102500912 0.0131919499265344 0.0265278043324322 -0.8697055 0.3141744 0.3806663 90 90 90
-0.0300466915107723 0.0137686546670587 0.024933797317204 -0.9073765 0.2865819 0.3074715 77 77 77
-0.0293198724723812 0.0149384554254205 0.0271642031246991 -0.8258201 0.3131275 0.4690121 100 100 100
-0.0289905270076748 0.017222237192312 0.026566606956181 -0.8088455 0.2901453 0.5114535 132 132 132
-0.0304555197692867 0.0178239460813195 0.0224895300442547 -0.8852856 0.3264501 0.3312094 149 149 149
-0.0299558242298122 0.0196039493905694 0.0214680554444165 -0.8741498 0.3638569 0.321668 94 94 94
-0.0294788380599972 0.0203764851915033 0.0228123488003583 -0.8997523 0.3421139 0.2709315 161 161 161
-0.0280479391551968 0.0195712264405877 0.0275302352482648 -0.6965092 0.347141 0.6279873 114 114 114
-0.0276391108966824 0.023223977886358 0.024535995917973 -0.8117542 0.4054193 0.4203455 149 149 149
-0.0339986880756374 0.0171768184529931 0.015295398431477 -0.8377365 0.3571154 0.4131176 98 98 98
-0.0332718988395687 0.0185323174821527 0.0162048162991376 -0.807726 0.4316486 0.4015696 117 117 117
-0.032953908059692 0.0199321623670251 0.013925177055058 -0.7789689 0.4346864 0.451946 86 86 86
-0.032181670281982 0.0195024128781945 0.0156104685837598 -0.7906053 0.4469315 0.4185637 86 86 86
-0.0324542423225399 0.0212693329679162 0.0128251137310834 -0.7796203 0.4044438 0.4781395 81 81 81
-0.0320227046943661 0.0216929133760125 0.0134711982781262 -0.7769243 0.4037098 0.4831222 90 90 90
-0.0312050183750149 0.021438967786947 0.0142580093914838 -0.7818843 0.4219432 0.4589345 92 92 92
-0.031159599635696 0.0224131759034784 0.014145565229115 -0.7927765 0.3855996 0.4720363 118 118 118
-0.0299255450702663 0.0210276659356744 0.0171862961823315 -0.8455418 0.4174232 0.3328918 65 65 65
-0.0304100712276455 0.020011794172445 0.0193548025662274 -0.8567758 0.4148175 0.3063685 75 75 75
-0.0298195382095333 0.0207088406907708 0.0183693589741559 -0.8520557 0.42076 0.3113874 54 54 54
-0.0318637093044277 0.0226723667012841 0.0128241302544446 -0.7851614 0.3803611 0.4887196 93 93 93
-0.0315002997852322 0.0266650434362085 0.0114670815045209 -0.831347 0.2711707 0.4851069 113 113 113
-0.0300921102500912 0.0236066993104608 0.0160131277615399 -0.8651819 0.3123531 0.3922957 117 117 117
-0.0292744537330624 0.0243763144838006 0.0166391851479382 -0.8815988 0.2862044 0.3753273 104 104 104
-0.0304100712276455 0.0281059559213311 0.0125385345990033 -0.8498082 0.2426963 0.4678937 142 142 142
-0.0300012429691311 0.027386438451925 0.0136504890496106 -0.8534636 0.2407132 0.4622306 78 78 78
-0.0296378334499355 0.020073902212301 0.0204749526554913 -0.8697549 0.3894722 0.3030477 85 85 85
-0.0286384721733089 0.0226671214925439 0.0226809205586285 -0.8962301 0.3639104 0.253655 120 120 120
-0.0282296439147945 0.0251323397981317 0.0195464016968579 -0.910607 0.2963266 0.2880718 130 130 130
-0.0277753969169613 0.0251942988263757 0.0206666709954114 -0.9115772 0.3096122 0.2704945 150 150 150
-0.0281160970664974 0.0228504057752282 0.0235779406601758 -0.8564917 0.382868 0.3461705 143 143 143
-0.0277905364967342 0.0265391584264428 0.0205031456524701 -0.906922 0.2898179 0.3057745 143 143 143
-0.028093387696838 0.0262501951085717 0.0182116748864026 -0.9102241 0.2613576 0.3212229 86 86 86
-0.0292063256240841 0.0286457057820947 0.0149180712277264 -0.8889847 0.2301105 0.3959233 110 110 110
-0.0280025204158779 0.0297687168943078 0.016585511165318 -0.9005263 0.2279627 0.3702503 168 168 168
-0.0267760356403347 0.0287405367719323 0.0209050001675458 -0.90738 0.2484807 0.3389969 96 96 96
-0.0281388064361568 0.0186986740457208 0.0291369380528302 -0.6912678 0.351047 0.631597 135 135 135
-0.0273665686584469 0.0210821743833215 0.0274723591381879 -0.6664101 0.3579257 0.654054 117 117 117
-0.0273665686584469 0.0208723362313897 0.0288378419453473 -0.5831324 0.3836274 0.7160912 131 131 131
-0.0271545847393032 0.0228753503190667 0.0268664481217236 -0.5348331 0.4057465 0.7411634 123 123 123
-0.01673700413475 0.0538951273786218 0.00583095570152709 0.101197 0.8727756 0.4775164 129 129 129
0.00808806219329872 0.0135362859594018 0.0162310423428387 0.4763455 0.2548691 0.8415086 65 65 65
0.0207390884422306 -0.0338178161753028 -0.00663106421882204 0.4375038 -0.8838061 -0.1657623 59 59 59
-0.043674339864349 0.0144996162282617 -0.0105936704104572 -0.8745061 0.3355867 0.3501723 121 121 121
-0.0429475208259579 0.0168743844854028 -0.0110331950610309 -0.8641021 0.333365 0.377088 133 133 133
-0.0414257546401974 0.0166924115049035 -0.00796954612189821 -0.8779086 0.3477483 0.3291618 78 78 78
-0.040857960794067 0.0189648087846429 -0.00923793296271852 -0.8820817 0.3204198 0.3453449 69 69 69
-0.043674339864349 0.0183863755094201 -0.0120891509478717 -0.8662018 0.3327086 0.3728262 119 119 119
-0.0418119033313747 0.0190006013738305 -0.012241068286243 -0.8750706 0.3299198 0.3541247 101 101 101
-0.0419178803897854 0.0230958875047357 -0.0138082979148059 -0.8946962 0.314471 0.3172172 109 109 109
-0.0404491325355526 0.0203223045694024 -0.00939643661433748 -0.8784872 0.3154008 0.3588627 82 82 82
-0.0409487982727047 0.0235317166673333 -0.0107512948935657 -0.8886815 0.3087749 0.3389736 143 143 143
-0.0397223134971615 0.0192457552777917 -0.00498777906352571 -0.8922263 0.35286 0.2818192 104 104 104
-0.0398131807781216 0.0207296427117974 -0.00746466497832826 -0.8851383 0.3140136 0.3434031 74 74 74
-0.0392377873397823 0.021045547329107 -0.0048964945500522 -0.8955786 0.3378202 0.2895107 103 103 103
-0.0386018355823513 0.0227827545034082 -0.00537094752246431 -0.8896131 0.3174296 0.3283703 124 124 124
-0.0399721463657375 0.0227093811856897 -0.0091519979661136 -0.8861156 0.2917652 0.3601004 79 79 79
-0.0394043227172848 0.0228990729676873 -0.00737293343001894 -0.8837448 0.2902503 0.367083 100 100 100
-0.0387532313800808 0.0247166272031457 -0.00762649158889345 -0.8841947 0.2728846 0.3791223 87 87 87
-0.0379961331821438 0.0213838334905297 -0.00343360285216859 -0.8968922 0.3409142 0.2817125 86 86 86
-0.0374813278652187 0.0235423858987481 -0.00346355418616823 -0.8999636 0.3237925 0.2919313 114 114 114
-0.0377917190528866 0.0253214951383264 -0.00549096147471956 -0.8937708 0.2885846 0.3433551 114 114 114
-0.0376327534652706 0.0254734869825036 -0.00662213842326692 -0.8919244 0.2730521 0.3604351 91 91 91
-0.0373147626853939 0.0273379500734002 -0.00664988438540987 -0.8865177 0.273556 0.3731668 110 110 110
-0.0395406087375637 0.0309104736673028 -0.0168463466590076 -0.921663 0.3122601 0.2302845 120 120 120
-0.0396541853881832 0.0268373604642541 -0.0117301372712283 -0.9089064 0.2930565 0.2966598 106 106 106
-0.0392680664993282 0.0298424180375726 -0.0117510436003833 -0.9144119 0.2896467 0.2827643 117 117 117
-0.0374207397438046 0.0289251621591241 -0.00725969950610689 -0.8853796 0.282566 0.3691333 94 94 94
-0.0374056001640316 0.0315569456445367 -0.00909768323356203 -0.8916332 0.2981724 0.3407101 113 113 113
-0.0370876391864773 0.0332627709733636 -0.00927318911010316 -0.8771877 0.3320682 0.3468032 122 122 122
-0.0382687052227016 0.0341764207708032 -0.0155812082713275 -0.9143624 0.3187848 0.249635 157 157 157
-0.0379280348754879 0.0351199324952752 -0.0156583515828281 -0.9168311 0.3326402 0.2208422 139 139 139
-0.0371557970977779 0.0369592424260766 -0.0148097006505161 -0.9028558 0.346483 0.2545604 155 155 155
-0.0376327534652706 0.0203310068475396 -0.000260400575938735 -0.906537 0.3583785 0.2230596 66 66 66
-0.0369240840412136 0.0228485580312402 -0.00132049898559145 -0.9115634 0.3377991 0.2344012 77 77 77
-0.0367242296672817 0.0224218483792932 0.000274014669117417 -0.9186084 0.3389792 0.2031049 78 78 78
-0.0368605156875607 0.0219204243051202 0.00272963662689635 -0.9214717 0.3457987 0.1769555 87 87 87
-0.0362699826694485 0.0226782675611169 0.00397340674942442 -0.9201569 0.3354161 0.2020082 111 111 111
-0.0362472732997891 0.0244160409795434 0.00070975442474791 -0.9301383 0.3144232 0.1896861 90 90 90
-0.035134335372543 0.0262110348569543 0.00125689526146361 -0.9274294 0.3151737 0.201346 81 81 81
-0.0353160401321407 0.0253491516935022 0.00160948653763243 -0.9267178 0.3225995 0.1926751 71 71 71
-0.0361791153884884 0.0264445956575067 -0.00308944563323549 -0.9136677 0.2906982 0.2840877 87 87 87
-0.0350889166332241 0.0295455273019464 -0.00169055442267946 -0.9127854 0.3129822 0.2624213 89 89 89
-0.0346195300556179 0.0308592434751184 -0.00173996667319826 -0.9090596 0.3157979 0.271813 107 107 107
-0.0357248683906551 0.0235661085473687 0.00540338178223082 -0.9132332 0.3327152 0.2351718 137 137 137
-0.0348163743949886 0.0247084911691339 0.0063647450978131 -0.897863 0.3392839 0.280586 110 110 110
-0.0340214272476193 0.0270166512357385 0.0047112228447766 -0.9066273 0.3258973 0.2679887 116 116 116
-0.0340895553565975 0.0252159353124292 0.00768641849106261 -0.8751569 0.3238041 0.3595155 125 125 125
-0.0342258413768765 0.0263781364785821 0.00665311236923644 -0.8956097 0.3328521 0.2951149 130 130 130
-0.0336655875183102 0.0289940055238397 0.00466005225723692 -0.9041287 0.3495808 0.2456512 106 106 106
-0.0339078505969997 0.0276662822591455 0.00619677920883605 -0.8983032 0.329269 0.2909181 108 108 108
-0.0334081550575253 0.028219562374273 0.00730634947365233 -0.886711 0.3264123 0.3274121 108 108 108
-0.0334990223384853 0.0297240730153711 0.00287584682053038 -0.9018899 0.3580817 0.2416034 90 90 90
-0.034362097594833 0.0297702070104272 0.00151385088509032 -0.9140691 0.3357437 0.2274949 117 117 117
-0.0339760085083004 0.0314662869798333 0.000689518647846665 -0.9081607 0.3295643 0.2581308 114 114 114
-0.0328630705810543 0.0329582508432061 0.00266723056381651 -0.8907378 0.3716097 0.2617106 97 97 97
-0.0366674562431332 0.0306468423234613 -0.00718771199637941 -0.870984 0.2938488 0.3937508 94 94 94
-0.0356188615299221 0.0312788303720147 -0.00544974486285738 -0.8864327 0.305112 0.3480571 84 84 84
-0.0365879436470028 0.0325494225846917 -0.00807319859916261 -0.8627576 0.3219982 0.3898287 106 106 106
-0.0355583032108303 0.0330219384061486 -0.00681484023982576 -0.8697971 0.3242469 0.37191 90 90 90
-0.0347255071140286 0.0327115472184808 -0.00543453077727846 -0.8768178 0.3336742 0.3461967 69 69 69
-0.0348845025039669 0.0341688509809167 -0.00690476874763063 -0.8621107 0.3363102 0.3790258 82 82 82
-0.0340895553565975 0.035003763042608 -0.0064628301089435 -0.8610749 0.3475924 0.3711194 71 71 71
-0.0337715645767208 0.0349984284269006 -0.00496311764174989 -0.8711157 0.3521185 0.3423011 67 67 67
-0.0367242296672817 0.0352007563935907 -0.00959235708171419 -0.879777 0.3240309 0.3478453 146 146 146
-0.0354977448917385 0.0387789722310693 -0.0113710043852954 -0.8488707 0.3875596 0.3594664 117 117 117
-0.0349072118736263 0.037411343656698 -0.00964018980914644 -0.836267 0.3724834 0.402385 89 89 89
-0.0334535737968441 0.0372223671304376 -0.00701493303233675 -0.8380663 0.3743435 0.3968776 84 84 84
-0.0340441366172787 0.0381907041894586 -0.00769120733195833 -0.8401316 0.3839905 0.3830537 108 108 108
-0.0344529648757931 0.0392966981755883 -0.00840816180163911 -0.8359888 0.3941806 0.3817649 113 113 113
-0.0335557957626339 0.0413611646520288 -0.00924046616012147 -0.8493285 0.3807602 0.3655992 120 120 120
-0.0330447753406521 0.0346105810033471 -0.000758367580714736 -0.9028214 0.3461745 0.2551014 106 106 106
-0.0315230091548916 0.0368320163118036 0.00115312357490965 -0.889915 0.3412706 0.3026313 76 76 76
-0.0317274232841488 0.037675630651632 -0.000627267164531264 -0.9031124 0.3361425 0.2672007 120 120 120
-0.0311550696826931 0.0391325171815545 0.000194800096210923 -0.8971338 0.3435705 0.2776873 125 125 125
-0.0313185950256344 0.0393278714048059 -0.00114395002776674 -0.9097008 0.3490171 0.2250147 130 130 130
-0.0325148006416317 0.038977425895849 -0.00569191853457979 -0.8866377 0.3618172 0.2880311 91 91 91
-0.0327267845607754 0.0403193946706445 -0.00773723701888612 -0.8458421 0.3876673 0.3664223 113 113 113
-0.031159599635696 0.0415019210206659 -0.00695629696303895 -0.8687689 0.3770576 0.3210424 88 88 88
-0.0312277575469967 0.0413718040811212 -0.00539714376384309 -0.8897756 0.3691854 0.2683308 98 98 98
-0.0312277277446743 0.0398824032174737 -0.00288869718963197 -0.9076328 0.3565429 0.2215397 114 114 114
-0.0302283664680477 0.0433742519246728 -0.00399758200103334 -0.9161919 0.3212428 0.2395737 90 90 90
-0.0300466915107723 0.0441901203023584 -0.00473355035239748 -0.9188505 0.2995546 0.2568671 85 85 85
0.0200576881431583 0.0453346486913354 0.00186390896385619 0.3523526 0.169469 0.9203955 79 79 79
-0.0295924147106167 0.0355278070794732 0.00785396714752623 -0.8644902 0.4055178 0.2970053 113 113 113
-0.0347709258533474 0.0402343984471948 -0.011667150062862 -0.8469323 0.3940353 0.35699 110 110 110
-0.034362097594833 0.0410802777635247 -0.0127565441554218 -0.8555095 0.3851187 0.3461027 102 102 102
-0.0339078505969997 0.0422590490209253 -0.0118621466582446 -0.8572534 0.3668641 0.3612856 108 108 108
-0.0330144961811062 0.044343602262655 -0.0123945353453784 -0.8747444 0.3287065 0.3560537 86 86 86
-0.032423963162994 0.044935118757406 -0.0110715506499439 -0.8792128 0.3091261 0.3625271 82 82 82
-0.0345438023544308 0.0436116870271356 -0.0169069049780994 -0.885626 0.3646161 0.2876137 119 119 119
-0.0325904985404964 0.0472379144059808 -0.0132615445082813 -0.9125316 0.302287 0.2755153 113 113 113
-0.0318637093044277 0.0471264239179284 -0.0117154000228076 -0.9175379 0.2670042 0.2946742 76 76 76
-0.0311217506862637 0.0467715080606134 -0.00928820948058656 -0.9136611 0.2312747 0.3342686 104 104 104
-0.0310006042457577 0.0454150553571374 -0.00869179050380281 -0.9094449 0.2562459 0.3274873 79 79 79
-0.0305690666175839 0.046573769651571 -0.00740941147262147 -0.9262701 0.2116819 0.3117924 99 99 99
-0.0321362515426632 0.0476448949205072 -0.0127977905696063 -0.92183 0.276339 0.2717834 91 91 91
-0.0311823090053555 0.0527505691873223 -0.0127065805619388 -0.9273818 0.293254 0.232304 140 140 140
-0.0306371947265621 0.052987914882818 -0.0119304535811572 -0.9226146 0.3000227 0.2424224 144 144 144
-0.0309778948760983 0.0504887219297082 -0.0167784420674472 -0.9287223 0.2842163 0.2381094 79 79 79
-0.0296832819915768 0.057157528005758 -0.0134572265570789 -0.8360658 0.5293501 0.1441614 156 156 156
-0.0293425818420406 0.0574978109227807 -0.0149138299649387 -0.8265457 0.5542189 0.098304 137 137 137
-0.0287974675632473 0.0584193285333307 -0.01367354671413 -0.7427137 0.6419081 0.1906052 139 139 139
-0.0323861142135616 0.0293051417695672 0.00826583524292418 -0.8744018 0.3314527 0.3543453 107 107 107
-0.0322725375629421 0.0300455804692895 0.00841359515732237 -0.8696936 0.3446355 0.3533545 133 133 133
-0.0321135421730038 0.0313378389703424 0.00756652374809691 -0.8708031 0.3605605 0.3342128 117 117 117
-0.0314548512435909 0.0310882743226678 0.00943071861809203 -0.8563881 0.3436857 0.3853304 119 119 119
-0.0309551855064388 0.0321168716775567 0.00979281683510252 -0.8578923 0.3544559 0.371997 163 163 163
-0.0318409701324459 0.0325700755941064 0.0071492316300244 -0.8725955 0.376911 0.3106689 116 116 116
-0.0314548512435909 0.0342796858178765 0.00404377003258177 -0.8755592 0.3931205 0.2808067 179 179 179
-0.0299558242298122 0.036873024307409 0.00450430532043883 -0.8712388 0.3792104 0.3116766 103 103 103
-0.0310308834053036 0.0330241139756829 0.008235764699635 -0.8607882 0.3853566 0.3324814 157 157 157
-0.0292630692459103 0.0362740572320611 0.00856558700149962 -0.8649731 0.4028483 0.2992235 155 155 155
-0.0290018816925045 0.0299460407125146 0.0143008055264325 -0.8812554 0.2357628 0.4096399 119 119 119
-0.028479506585693 0.0333484228479058 0.0134206833416791 -0.8793204 0.3012434 0.368847 154 154 154
-0.0277299781776424 0.035258125864187 0.0128626646572919 -0.8746634 0.3459399 0.339543 134 134 134
-0.0264429350830074 0.0326092656480462 0.0189603986317486 -0.8944533 0.2634494 0.3613138 122 122 122
-0.0267533262706753 0.0349030311929376 0.0168367447430463 -0.888092 0.3013588 0.3470958 160 160 160
-0.0276845594383236 0.0343749042379052 0.0139781655842633 -0.8814101 0.3086869 0.3575314 149 149 149
-0.0283204813934322 0.0354289825784356 0.0114413024956555 -0.8662438 0.3661898 0.339892 137 137 137
-0.0276164313293453 0.0390633161889703 0.0102190794522137 -0.8675582 0.3916321 0.3065405 172 172 172
-0.0275936921573635 0.0373761173116357 0.0123254181916089 -0.8658396 0.3805395 0.3248254 185 185 185
-0.0269577403999325 0.0382356460916192 0.0124454321438641 -0.8658758 0.3794818 0.3259642 178 178 178
-0.0304100712276455 0.0378144796716363 0.00287718792503783 -0.8786234 0.3388273 0.3364773 114 114 114
-0.0283432205654141 0.0393013771402032 0.00607739110535094 -0.8709012 0.3697439 0.32376 100 100 100
-0.0281388064361568 0.03960077127091 0.00622845907753417 -0.8709012 0.3697439 0.32376 95 95 95
-0.0304101010299679 0.0422584231721551 -0.00111286620551637 -0.903751 0.3589462 0.2332204 125 125 125
-0.0299785335994717 0.0416888113843591 0.000808638530430283 -0.8887264 0.3389771 0.3086422 112 112 112
-0.0294675131774899 0.0433840866910608 0.000677448707279649 -0.8918742 0.3314497 0.3077361 119 119 119
-0.0295697351432797 0.0454393740522058 -0.00203229765349916 -0.9122796 0.3022192 0.2764226 109 109 109
-0.0274119873977657 0.0447136278974206 0.00315640588348814 -0.8537316 0.355217 0.3807402 130 130 130
-0.0272757311798092 0.0410212691651971 0.00723103900497862 -0.8635294 0.3952203 0.3132377 131 131 131
-0.0269577403999325 0.0408941622602136 0.00892661233490416 -0.859275 0.4102604 0.3055044 149 149 149
-0.0271243055797573 0.0427677150594384 0.00621454139297911 -0.858761 0.3760006 0.3480707 128 128 128
-0.0272000034786221 0.0433925803529412 0.00539029856270262 -0.8587409 0.3544824 0.3700083 123 123 123
-0.0274574061370846 0.0461991842614801 0.00250677486008116 -0.8504754 0.3614143 0.3821927 132 132 132
-0.0297741194702145 0.0495913442002923 -0.00612314323836854 -0.9064882 0.2520242 0.3387667 161 161 161
-0.0296719273067471 0.0509012158738763 -0.00688557605201295 -0.8951235 0.2735131 0.3520575 141 141 141
-0.0276277562118526 0.051406693063894 -0.00288914422446779 -0.8502331 0.3594798 0.384549 125 125 125
-0.0270031591392513 0.0524678047525079 -0.0024805245822101 -0.8365219 0.3813334 0.3934666 129 129 129
-0.0294561584926601 0.0530364032613427 -0.00862144212180666 -0.8755696 0.3268829 0.3557042 103 103 103
-0.029115458343124 0.0545309599267633 -0.00904649774486116 -0.8502107 0.3852326 0.3588002 123 123 123
-0.0285022159553524 0.0520392473565728 -0.00539478938037447 -0.8588661 0.3554686 0.3687698 120 120 120
-0.0265034934020992 0.056878101431051 -0.0052096722548633 -0.6876047 0.5782331 0.4391426 145 145 145
-0.0289110442138668 0.0567306693421991 -0.0110536692565112 -0.8226334 0.4955572 0.2787424 134 134 134
-0.028865625474548 0.0579632337915094 -0.0117482570832401 -0.7645105 0.5816095 0.277946 120 120 120
-0.0275936921573635 0.0588854070531518 -0.0110625056450992 -0.5686579 0.7668126 0.2977023 120 120 120
-0.0271772941089626 0.0587254281865747 -0.00942711810523561 -0.5544347 0.7622054 0.3341333 123 123 123
0.0275074938797001 0.042227667175451 -0.0103996721928745 0.9931384 -0.1007234 0.05942139 47 47 47
0.0563526848815922 -0.0199773494375556 -0.0122799156134754 0.2518876 -0.8911004 -0.3774821 78 78 78
-0.0237325330711361 0.0239327069150598 0.0275870682770581 0.03013929 0.310381 0.9501343 65 65 65
0.0390455822013859 0.0245334025251062 1.83107430309914E-05 0.2636491 0.22445 0.9381425 87 87 87
0.0449509123825077 0.026621651254812 -0.00160627345496706 0.2205482 0.2280725 0.9483361 94 94 94
0.0528094867729191 0.0177760835515649 -0.00185592750960878 0.4043061 0.2303232 0.8851485 110 110 110
-0.0152493020034786 0.0475116189347894 0.0146800400788159 0.1292884 0.7840749 0.6070511 172 172 172
0.00440100827446022 0.0013869520055444 0.0197661342198224 0.2881377 0.1497159 0.9458128 74 74 74
-0.0235811074710842 0.000967573724904747 0.0324147166783185 0.4123131 0.1881441 0.8914032 75 75 75
0.0226242343448643 0.0345318730699212 0.00317503233498045 0.3523478 0.1908716 0.9161981 44 44 44
0.0354569653533939 0.0455189164506585 -0.00272502283507875 0.3225499 0.3204135 0.8906721 98 98 98
0.0289611319564823 -0.0111019794119208 0.0117737772042126 0.3326117 0.161767 0.929086 96 96 96
0.0245094100498203 -0.0337115112913459 0.00333250780647704 0.5161948 -0.8502952 -0.1026689 65 65 65
0.0161056617759708 0.014823418461004 0.0121370377117963 0.380201 0.3601522 0.8519024 103 103 103
-0.000406493756866078 0.0395988937245996 0.0113825621182294 0.6430768 0.3232174 0.6942497 41 41 41
0.0509016613029484 0.0208741541730554 -0.00180329660827211 0.3678451 0.2210015 0.9032432 166 166 166
-0.0054941674209591 0.00689939817062923 0.0228330018097729 0.4033694 0.1687272 0.8993466 180 180 180
0.0444966653846744 0.0265972729550988 -0.0100110797112613 0.6560986 0.5628203 -0.5027604 84 84 84
-0.0204051037765499 0.0601669963227899 -0.00555806140357545 -0.1079845 0.9251955 0.3638031 122 122 122
0.00842876234283485 0.0492646809446008 -0.0136519549315601 0.2683691 0.5913739 -0.7604308 33 33 33
0.0240551332496647 0.0280405398236901 0.00427318831032225 0.3541937 0.2258763 0.9074837 92 92 92
-0.0214460988975521 0.00150964816681454 0.0312604429299206 0.4272745 0.1987079 0.8820157 85 85 85
0.015424291279221 0.0475303645955713 0.00346092601364562 0.3054274 0.2493081 0.9189992 112 112 112
-0.0100140174365994 0.0391913767682702 0.0199227454239697 0.4448078 0.2434096 0.8619152 148 148 148
-0.021597524497604 0.0466927703248651 0.0148363532597394 -0.5313118 0.6933681 0.4867735 188 188 188
-0.0192051132656094 0.0149183686601312 0.027399879890141 0.3889576 0.1758214 0.9043223 95 95 95
-0.00883295140037499 -0.044643271364054 -0.0118974624102741 0.3311472 -0.8490468 -0.4116564 71 71 71
-0.00528975329170189 -0.0434192899835913 -0.0115333376353412 0.3833289 -0.8446395 -0.3736885 66 66 66
-0.00535031161079369 -0.0430052165163367 -0.0124873993819385 0.376229 -0.8359054 -0.3996422 67 67 67
-0.00542603931198082 -0.0442572716844886 -0.010948109430614 0.386224 -0.8451905 -0.3694376 71 71 71
-0.0034727354980465 -0.0442874018324225 -0.0105946389859348 0.4046863 -0.840414 -0.3604626 44 44 44
-0.00373013815650902 -0.0438371781481116 -0.0105581609433322 0.4046863 -0.840414 -0.3604626 70 70 70
0.000865409757995983 -0.0399250570906012 -0.0131148276751666 0.3368943 -0.8454167 -0.4144549 36 36 36
0.000691274788284679 -0.0424784306658118 -0.00871828476840547 0.3356445 -0.8819239 -0.330988 69 69 69
0.00480986633529701 -0.0416269187105506 -0.00916518549377016 0.3106263 -0.8662372 -0.3913367 66 66 66
0.00409061708679237 -0.0417024675978034 -0.00760720948630861 0.2982442 -0.8962553 -0.3282938 70 70 70
0.00697512426605262 -0.0406700257433265 -0.00910394172126344 0.2827576 -0.889841 -0.3580937 54 54 54
0.00647545852890052 -0.0387599352968543 -0.0116845695202976 0.264977 -0.8847766 -0.3833504 38 38 38
0.00188748040428199 -0.0394056920183509 -0.0132835982268482 0.3315033 -0.8434263 -0.4227737 34 34 34
0.00374991693725624 -0.0379792634619086 -0.0143351880734592 0.2730209 -0.8704097 -0.4096909 29 29 29
0.00792906680336036 -0.0415641252172797 -0.00645718256885103 0.4334179 -0.8599219 -0.2695984 92 92 92
0.00856504836311378 -0.0396224145067542 -0.00978568474704317 0.4142804 -0.8781378 -0.2392611 72 72 72
0.0112224320434574 -0.0381322089804023 -0.0106269596045642 0.422008 -0.8850227 -0.196581 77 77 77
0.0125170449279789 -0.0376705710066169 -0.0113279698317676 0.4190903 -0.8897443 -0.1808821 80 80 80
0.012607912208939 -0.0383701209200232 -0.00997598747664979 0.4408984 -0.8818837 -0.1670021 68 68 68
0.0125624636672977 -0.0368301455152839 -0.0132538853114276 0.4312932 -0.8770425 -0.2116193 66 66 66
0.0116993884109501 -0.0372356657160132 -0.0137463835900455 0.4274222 -0.8685006 -0.2510315 38 38 38
0.0123807887100224 -0.0360409204138129 -0.0138604817813068 0.4234878 -0.8720456 -0.2453456 54 54 54
0.0148532191776279 -0.036845761932215 -0.0105359731143146 0.48404 -0.8545088 -0.1884677 72 72 72
0.0161283711456303 -0.0350460592878669 -0.0133086321776538 0.4864692 -0.8354722 -0.2556051 54 54 54
0.0107000271343235 -0.03881679812797 -0.0073231188481479 0.4926583 -0.8574383 -0.1486179 63 63 63
0.0131757358573917 -0.0376330498827308 -0.00765115301066926 0.4313305 -0.8932004 -0.1270711 49 49 49
0.0125397542976383 -0.0382473055494635 -0.00575392226630739 0.4682392 -0.8748745 -0.1238813 59 59 59
0.0127441684268955 -0.0387092117441504 -0.00361214856559328 0.465178 -0.8742682 -0.1387964 50 50 50
0.0166871348880772 -0.036364245809397 -0.00539015511924318 0.4097567 -0.8982425 -0.1589334 53 53 53
0.0170898834728245 -0.0358656231535285 -0.00517323891574434 0.4261597 -0.8887631 -0.1687843 56 56 56
0.0173775950931553 -0.0358667854441016 -0.00639134923869661 0.4422984 -0.8787758 -0.1792349 70 70 70
0.0188993314765934 -0.0350639704836219 -0.00540066043788484 0.4615631 -0.8615243 -0.2115074 63 63 63
0.0161056617759708 -0.0361001674307196 -0.0107717243855625 0.4937791 -0.8353883 -0.2414717 66 66 66
0.0155151287578587 -0.0359363440645545 -0.0107753304665714 0.495526 -0.8416688 -0.2145871 74 74 74
0.0192400316261295 -0.0335724834574073 -0.00984977464133791 0.4544542 -0.8646131 -0.2142792 45 45 45
0.0175592998527531 -0.0337323133123725 -0.0117051033204227 0.4803707 -0.8387905 -0.2562705 63 63 63
0.0126987496875767 -0.0383797470701545 -0.00197683553153566 0.4890812 -0.866616 -0.09887581 35 35 35
0.013879815723801 -0.0383685413969367 -0.00204010586196474 0.439551 -0.8929841 -0.09682118 64 64 64
0.0169006387256626 -0.037019718087992 -0.00100128631049684 0.3914423 -0.9150118 -0.09760265 61 61 61
0.0180135468505863 -0.0374628488195746 -0.00328205804282716 0.4119661 -0.8991441 -0.1477292 53 53 53
0.0184526542686466 -0.0365395728720038 -0.00137816647941164 0.4065155 -0.9047659 -0.1270583 65 65 65
0.0194065968059544 -0.0352971438539832 -0.00316928605491212 0.4448694 -0.881501 -0.1582632 53 53 53
0.0194217363857273 -0.0358590368402808 -0.000985401672664199 0.4250079 -0.8948339 -0.1365304 67 67 67
0.0173775950931553 -0.0357952598703711 -0.00367099325114778 0.418402 -0.8944065 -0.1580404 47 47 47
0.0186494986080173 -0.0358634177816718 0.000753742652592149 0.4080763 -0.9074019 -0.100476 42 42 42
0.0205422441028599 -0.0345176045072882 -0.00480336229259065 0.4823243 -0.8522984 -0.2023629 53 53 53
0.0227226714157108 -0.0315247658861487 -0.0129605261510043 0.3908958 -0.893124 -0.2225532 49 49 49
0.0226242343448643 -0.0327636186254828 -0.0093065230076938 0.3907553 -0.9028949 -0.1791402 47 47 47
0.0209207932018284 -0.0344190482271521 -0.00646053533011964 0.4722518 -0.8634145 -0.1774647 61 61 61
0.0227378109954838 -0.033071267999491 -0.00706933717185548 0.4180523 -0.893846 -0.1620851 56 56 56
0.0210116306804661 -0.0318184975756018 -0.00916317383700899 0.4105603 -0.893614 -0.1813677 53 53 53
0.0250242153667454 -0.0316550020349829 -0.00898187140876344 0.4045223 -0.9024014 -0.1484364 60 60 60
0.0268306235336307 -0.0308283154142707 -0.0094668595021396 0.4218924 -0.8897366 -0.1742859 62 62 62
0.0284311274551395 -0.0298236493242591 -0.00937432329112581 0.4784365 -0.8656666 -0.1473767 58 58 58
-0.00669794282684288 0.00868849118820736 0.0231072129780621 0.4066749 0.1583192 0.8997502 245 245 245
0.0289781192802433 -0.028652447856745 -0.0130988089268833 0.45364 -0.8731795 -0.1782366 56 56 56
-0.0171761115528103 0.0327462371217401 0.0229648174816937 0.3361286 0.1259009 0.933363 85 85 85
0.0289156536125187 -0.030120212234339 -0.0104600516980319 0.4878748 -0.8576961 -0.1622826 63 63 63
0.0313989619277958 -0.0274438742769568 -0.0115996180003314 0.4369551 -0.8923134 -0.1133446 60 60 60
0.0325951079391483 -0.0271514538896888 -0.0109376190131336 0.4113571 -0.9032153 -0.122423 71 71 71
0.0343970159553532 -0.0265258435381263 -0.0111048994486957 0.3173251 -0.9392438 -0.1308657 89 89 89
0.033140252020264 -0.0261990908754676 -0.0126998005335956 0.3832493 -0.9122673 -0.1445284 60 60 60
0.036956022169495 -0.026174295343241 -0.0115535585110813 0.2357775 -0.9558811 -0.1752152 80 80 80
0.0371604064964298 -0.0255642418039649 -0.0113147226994663 0.2254054 -0.9579546 -0.1775257 104 104 104
0.0390455822013859 -0.0254274789465277 -0.0115949390357166 0.2316639 -0.9548341 -0.1860743 78 78 78
0.0392726758979801 -0.024325716890177 -0.014063510102573 0.2365807 -0.9438541 -0.230584 93 93 93
0.0403629044555668 -0.0238014046324103 -0.0137093840068012 0.2581277 -0.9339753 -0.2471036 97 97 97
0.0430884460472111 -0.0239468101633399 -0.0134416250413089 0.2782263 -0.9243693 -0.2610201 75 75 75
0.0522871116661076 -0.00912447611220768 0.00532303472107359 0.2181471 0.2399845 0.9459489 130 130 130
0.0210684041046146 -0.0353647057188361 -0.000951993269267593 0.4663398 -0.8719739 -0.1489584 68 68 68
0.0202999810241703 -0.0351681296003669 -0.00322245339805177 0.4656735 -0.8694945 -0.1647043 47 47 47
0.0216475824378971 -0.033629346288523 -0.00374304036552003 0.4630207 -0.8689584 -0.1747087 44 44 44
0.0247637728713993 -0.0324831191671698 -0.00306971649581483 0.4574639 -0.8752418 -0.1570947 34 34 34
0.0209117034935001 -0.0352799479139655 0.000811648564991441 0.4581358 -0.8818614 -0.1114991 64 64 64
0.0221926967166904 -0.0345533672941535 -0.00101997236663393 0.4571934 -0.8737337 -0.1660229 57 57 57
0.0222835341953281 -0.034511435426554 -0.00024585704261354 0.467514 -0.8700746 -0.1562077 68 68 68
0.0233586231731419 -0.0338639501703589 0.000945669608768906 0.4746612 -0.8688973 -0.1404074 61 61 61
0.0263718465827946 -0.0326453034056037 -0.00291581730300478 0.448391 -0.8836965 -0.1342608 58 58 58
0.0255314806961063 -0.0317073051107734 -0.0019825575774341 0.4541124 -0.8819612 -0.1261993 36 36 36
0.0272621611618046 -0.0315884832514136 -0.00109039525443605 0.4612721 -0.8847462 -0.06672541 51 51 51
0.0212841729187015 -0.0334265712869971 -0.00543603579455904 0.45023 -0.8745086 -0.1803542 43 43 43
0.0251756409667973 -0.0316564921511023 -0.00536093394214204 0.4381012 -0.8936095 -0.09761823 41 41 41
0.0246911148094181 -0.0319718305242865 -0.00343232135230592 0.4373305 -0.8878317 -0.143167 39 39 39
0.0289043287300114 -0.0306124273908942 -0.00525434593612245 0.4623715 -0.8790509 -0.116113 58 58 58
0.0281888941787724 -0.0302397195471137 -0.0066643236106067 0.4760866 -0.8726296 -0.1088994 80 80 80
0.0307478407882694 -0.0289251689089148 -0.00745310167724184 0.4930694 -0.8630466 -0.1096959 64 64 64
0.0308462480567936 -0.0290595177782386 -0.00541080812865785 0.502484 -0.8567973 -0.1157934 66 66 66
0.0269320706390385 -0.0315739695204108 -0.00251893977576784 0.4384885 -0.8931774 -0.09980934 56 56 56
0.0284432271980289 -0.0305013243330329 -0.00291343311721376 0.4817789 -0.8688724 -0.1137972 52 52 52
0.0286431411766056 -0.0300760451925605 -0.00317721347266725 0.4702696 -0.8751829 -0.1135845 47 47 47
0.0310563544296268 -0.0292208675516455 -0.00333120207244447 0.4834363 -0.867792 -0.1150066 62 62 62
0.02982420721283 -0.0305318717134803 -0.00152911524230531 0.5076855 -0.8584935 -0.07241766 56 56 56
0.0309371451400761 -0.0294741574896186 -0.00142284016067079 0.4583138 -0.8831096 -0.1003288 61 61 61
0.0313686827682499 -0.027982134021601 -0.00541523377353242 0.4806939 -0.8689523 -0.1177087 82 82 82
0.0234191814922337 -0.034052211440882 0.00176049490517088 0.4849339 -0.8648635 -0.1298085 53 53 53
0.0266534785293583 -0.0326793376577704 0.00417042990272948 0.4997575 -0.8516712 -0.1577929 63 63 63
0.0271440843605045 -0.0314946953428595 0.000953269200977769 0.5141861 -0.8554921 -0.06120418 50 50 50
0.0283781389259342 -0.0308930758608191 0.000413042503056016 0.4858788 -0.8718511 -0.06162304 54 54 54
0.0265081624053959 -0.0317416969908088 0.00225235243385741 0.5189379 -0.8487092 -0.1019611 51 51 51
0.0305055479072575 -0.0304029468668311 -0.000233965915980849 0.4713385 -0.878683 -0.07586955 43 43 43
0.030709991838837 -0.0294651571882575 0.000593227344212022 0.4238557 -0.9003347 -0.09871112 66 66 66
0.0272803405784611 -0.0319158915651648 0.0049781324440808 0.4742873 -0.8529729 -0.2179192 59 59 59
0.0295516351722721 -0.0298976186884253 0.00215576310699889 0.4400167 -0.8880057 -0.1335339 69 69 69
0.0307629803680424 -0.0294085923803656 0.00243292470520445 0.378459 -0.9136723 -0.1482284 63 63 63
0.0302330354713444 -0.0300726477278083 0.0039678933197827 0.3727301 -0.9071139 -0.1954909 84 84 84
0.029597053911591 -0.0299105528963416 -0.0013535497611194 0.5076855 -0.8584935 -0.07241766 64 64 64
0.0318229297660831 -0.0293753925932257 -0.00748956481868318 0.4912493 -0.8653762 -0.09898609 59 59 59
0.0327238539718632 -0.0273859385622351 -0.00727217177802614 0.4427633 -0.8884676 -0.1207727 55 55 55
0.0327768425010685 -0.0282647494448035 -0.0039158044284015 0.4582115 -0.8793574 -0.1295097 65 65 65
0.0333674053215031 -0.0299627367628424 0.00555331726616332 0.2622596 -0.9077395 -0.3274583 50 50 50
0.036956022169495 -0.0279368046892493 0.00250397344177672 0.225094 -0.9439081 -0.2415992 66 66 66
0.0372058848403934 -0.0284222249163001 0.00395108480995604 0.2560329 -0.9273891 -0.2727573 59 59 59
0.0371604064964298 -0.0283335034025519 0.0028087021881909 0.2269645 -0.9391168 -0.2579667 81 81 81
0.0326600173973087 -0.028407532371363 -0.00144548992568544 0.3987813 -0.9041021 -0.1535344 58 58 58
0.0330645541213993 -0.0284899059904425 0.000627798038181748 0.3442058 -0.9230999 -0.1714902 48 48 48
0.0345393518470768 -0.0274781469477027 -0.00145657638961366 0.2904998 -0.9290611 -0.2290316 56 56 56
0.036399553205872 -0.0275763455999701 0.000382256704029527 0.2259866 -0.9488843 -0.2203375 69 69 69
0.0354569653533939 -0.0270359996927588 -0.00284393410140565 0.2637669 -0.9412675 -0.2108137 57 57 57
0.0362064341567997 -0.0266911272180884 -0.00340800265723756 0.2017468 -0.9624751 -0.1814939 67 67 67
0.0391636590026859 -0.0272614840639441 0.000519734817203965 0.2273802 -0.958991 -0.1692173 64 64 64
0.0390260914825443 -0.0272453610075324 -0.000982749265971694 0.2197206 -0.9602343 -0.1722586 62 62 62
0.0383187631629948 -0.0281875018251746 0.00198645611351439 0.2561793 -0.941174 -0.2203719 66 66 66
0.0424979428314213 -0.0264125649107306 0.00102393050735899 0.2288154 -0.9637152 -0.1374648 73 73 73
0.0428612927459721 -0.0260558311117499 0.00265861769264647 0.1980243 -0.9597955 -0.1989446 70 70 70
0.0315276483558659 -0.0276543382776587 -0.00744489113742403 0.4962412 -0.8605967 -0.1145345 57 57 57
0.0353661278747562 -0.0260850969923346 -0.00801444332057527 0.2689563 -0.9561744 -0.1157285 70 70 70
0.035956631090546 -0.0262991670740454 -0.00625811795646242 0.2169809 -0.9691787 -0.1166705 55 55 55
0.0372739533447269 -0.0258147005213111 -0.00687349121028474 0.1655549 -0.9807656 -0.1033945 60 60 60
0.0355932215713505 -0.0260508839262336 -0.00526801030093721 0.2266782 -0.9645499 -0.1351315 59 59 59
0.0391818384193424 -0.0261962298525183 -0.00849087814742616 0.1599163 -0.9777374 -0.1358538 89 89 89
0.041044304754639 -0.0261513177526801 -0.00874387006217531 0.2352573 -0.9572294 -0.1684217 69 69 69
0.0408852795623783 -0.0252412740362494 -0.00890848318988374 0.2335614 -0.9551845 -0.1818563 71 71 71
0.0422707895301823 -0.0249548439157813 -0.00935782770568422 0.2613335 -0.9437733 -0.2024766 79 79 79
0.0381825069450382 -0.0262512747419684 -0.00579291860515169 0.1432373 -0.9796737 -0.1404364 71 71 71
0.0406960348152164 -0.0255615893972724 -0.00692098121100954 0.1964848 -0.9681066 -0.1554459 73 73 73
0.0314141015075687 -0.0309939269197791 0.00701223035400816 0.379513 -0.9046788 -0.1937165 68 68 68
0.021783868458176 -0.0255200151575415 0.016357672410664 0.402414 0.1129351 0.908465 92 92 92
0.0304147104286198 -0.0272590700758307 0.0140261771256299 0.2023245 0.1030913 0.9738773 95 95 95
0.0312626461051945 -0.0251223329676001 0.0133835198456616 0.1644258 0.09506095 0.9817981 33 33 33
0.0285068253540043 -0.0250724736822455 0.013745767074284 0.2644758 0.1196658 0.9569392 61 61 61
0.0291428069137577 -0.0236637477053016 0.0136207463318677 0.1955417 0.08880208 0.9766666 118 118 118
0.0288702348731998 -0.0215982977522223 0.0135634662682385 0.2420153 0.09480663 0.9656295 61 61 61
0.0305055479072575 -0.020712185300669 0.0131662609154553 0.2220473 0.125692 0.9669005 44 44 44
0.0324134329818729 -0.0302944366110175 0.00595117827003905 0.2678071 -0.9030823 -0.3357407 71 71 71
0.0355478028320316 -0.0294644717348426 0.00587020536011168 0.2909088 -0.9298958 -0.2250909 66 66 66
0.043118725206757 -0.026795405544123 0.00400621910637328 0.2288076 -0.9718243 -0.05660846 87 87 87
0.0366380313896183 -0.028411227859339 0.0126145603234143 0.5121337 -0.406269 0.7567461 81 81 81
0.036956022169495 -0.0272365991247504 0.0127361239964337 0.4403707 -0.3090638 0.8429432 105 105 105
0.0355932215713505 -0.0259218994749396 0.0129261138016553 0.283659 0.02842309 0.9585039 128 128 128
0.0369741419815067 -0.0249256972444861 0.0126071693474621 0.2425718 0.1565223 0.9574234 114 114 114
0.0369786719345097 -0.0230445448530524 0.0122464122349591 0.2459287 0.1794098 0.9525393 113 113 113
0.0351843933128361 -0.0225873176229804 0.0127027751976819 0.2402211 0.1725849 0.955253 122 122 122
0.0408020118736271 -0.0255963389051764 0.0112766446644635 0.2989509 -0.05339989 0.9527732 98 98 98
0.0431338647865299 -0.0252183858526557 0.0104955555970044 0.2504775 -0.1011343 0.9628255 76 76 76
0.0411805609725956 -0.0224406007898658 0.0113259675080151 0.2995155 0.2186447 0.9287007 52 52 52
0.0327087143920902 -0.0205070261133521 0.0127459289604993 0.2227829 0.1671511 0.9604313 75 75 75
0.0342758993171696 -0.0187495831621497 0.0118510248238415 0.25484 0.217456 0.9422152 88 88 88
0.0362292031311039 -0.0186913196218818 0.0113393785530896 0.2935329 0.2251902 0.9290467 53 53 53
0.0402493576072697 -0.0212731246126502 0.0105383517319531 0.2983817 0.2182486 0.9291587 109 109 109
0.0427855948471073 -0.0211501602304786 0.00981525798386046 0.2516187 0.2027372 0.9463539 83 83 83
0.0375465253852848 -0.0203935090673774 0.0110044600540967 0.2843301 0.2456804 0.9267133 13 13 13
0.039000163462067 -0.0192038301599829 0.0103675546223492 0.2927975 0.2398918 0.9255925 26 26 26
0.0392726758979801 -0.0180703286302893 0.0100468816334576 0.2810422 0.2254767 0.932832 30 30 30
0.0429521898292545 -0.0194711271894782 0.00917826314514586 0.2432139 0.2183566 0.9450753 235 235 235
0.0416348079704288 -0.0178426686895697 0.00950006862228819 0.2841806 0.2261545 0.9317164 237 237 237
0.0405446390174869 -0.0154359225405066 0.00902713556831786 0.2884882 0.2139557 0.9332725 238 238 238
0.0430127481483463 -0.0168111209047644 0.00883505960052916 0.2313929 0.2196492 0.9477403 241 241 241
0.0451144079231266 -0.0251953188551276 -0.00358273367339662 0.2049858 -0.9625335 -0.1775109 99 99 99
0.0448941091560368 -0.02578248421081 -0.00145231465751222 0.1741246 -0.9752316 -0.1363958 107 107 107
0.0470101932548527 -0.0251978222502082 -0.00156049708777956 0.1799515 -0.9688364 -0.1702159 103 103 103
0.0435426930450443 -0.0262891832960456 0.00250301976746031 0.199135 -0.9584112 -0.2044342 87 87 87
0.0448751548789982 -0.0259502116812079 0.00249249954765746 0.1660163 -0.9701543 -0.1767463 78 78 78
0.0461773971580509 -0.0261143032682746 0.00170214195793578 0.1249935 -0.9713323 -0.2022135 90 90 90
0.0473130444549564 -0.0256649140489905 0.0007788064057202 0.1346811 -0.9701355 -0.2017381 89 89 89
0.0450871686004642 -0.0256916467321723 0.000852894979176011 0.153768 -0.973371 -0.1700126 86 86 86
0.0510606268905643 -0.025072741903147 0.000337553220447984 0.1005774 -0.9511954 -0.2917388 70 70 70
0.0530063609146122 -0.0245444063318579 -0.00125961284095338 0.1045003 -0.9408603 -0.3222757 82 82 82
0.0552852252983097 -0.0240269486082404 -0.00141783337050966 0.09817126 -0.9246139 -0.3680374 72 72 72
0.0581242541336063 -0.0244070772302954 -0.000930714411082778 0.2330388 -0.9586417 -0.1633983 90 90 90
0.0442695120834354 -0.0235153619421332 -0.00980907957011751 0.2778125 -0.932398 -0.2312017 89 89 89
0.0451325873397831 -0.0241599563730567 -0.00911879817897371 0.2621484 -0.9391214 -0.222102 86 86 86
0.0481988290809635 -0.0230903510225623 -0.00967647413665346 0.245788 -0.9347234 -0.2566717 76 76 76
0.0446874002479557 -0.0248869542253821 -0.00517218093329957 0.2293426 -0.9544261 -0.1909785 87 87 87
0.0444360474609379 -0.0246045176161139 -0.00753397027904085 0.2739272 -0.9387783 -0.2089474 74 74 74
0.0459048251174931 -0.02443971077331 -0.00680874566489748 0.2613638 -0.9420958 -0.210106 93 93 93
0.047063181784058 -0.0245031599176734 -0.00493601242953828 0.2281951 -0.9494584 -0.215536 90 90 90
0.0468360880874638 -0.0236933414114325 -0.00871515552455476 0.251216 -0.9423154 -0.2212062 71 71 71
0.0474038819335941 -0.0239387337339728 -0.00724172870570711 0.2472801 -0.9430154 -0.2226533 78 78 78
0.0507540205978397 -0.0225661579740851 -0.00918375234061769 0.2474296 -0.9233541 -0.293591 85 85 85
0.0507426361106876 -0.0231385711801856 -0.00724646727496675 0.2375379 -0.9422219 -0.2362066 88 88 88
0.0533364514373783 -0.022335994638285 -0.00748560110980562 0.2097298 -0.9372136 -0.2786469 87 87 87
0.052764127638245 -0.0222976986540168 -0.00885875801497987 0.235035 -0.9268689 -0.2926987 91 91 91
0.0528246859573368 -0.0218324247969001 -0.00948839168006471 0.2257894 -0.9205206 -0.3188432 82 82 82
0.054581115629578 -0.0224147323740332 -0.00728102306777528 0.1825752 -0.9402446 -0.2874133 91 91 91
0.0442089537643436 -0.0236457769049018 -0.0119527159159808 0.2760412 -0.9284164 -0.2486849 85 85 85
0.0463136533760075 -0.0226998511923163 -0.0120130954211383 0.2738731 -0.917534 -0.2883139 71 71 71
0.051367233183289 -0.0216154042852729 -0.0116900084441333 0.2503909 -0.9155255 -0.3148292 80 80 80
0.0524914959930424 -0.0209535841120093 -0.0128447739308505 0.2428405 -0.9004014 -0.3609789 65 65 65
0.049493441965485 -0.0209425870550483 -0.0143761513655811 0.2666424 -0.9061882 -0.3282145 52 52 52
0.0505836705230717 -0.0209701542032569 -0.013027149242702 0.2570735 -0.9004758 -0.3507942 71 71 71
0.0509016613029484 -0.0196663324011176 -0.0142147270863681 0.2549843 -0.8987628 -0.3566631 87 87 87
0.054581115629578 -0.0206069234979956 -0.0116740194981723 0.246479 -0.897311 -0.3661708 69 69 69
0.0544448594116215 -0.0200146023405402 -0.0122539130871921 0.2510304 -0.8947515 -0.3693284 86 86 86
0.0542177061103825 -0.0219559852255194 -0.00995616893226198 0.2136486 -0.9177504 -0.334796 78 78 78
0.0468587378524784 -0.0251369957102149 -0.003800767463985 0.2158775 -0.955416 -0.2014375 100 100 100
0.0509621600173954 -0.0232995335234015 -0.00526869575435213 0.2134732 -0.9417235 -0.2599731 95 95 95
0.0513256291412357 -0.0235632244718879 -0.00347774009162477 0.1927835 -0.9486606 -0.2507543 87 87 87
0.0530138710998539 -0.0233603600633948 -0.00351785401755861 0.1343083 -0.9453833 -0.2970045 81 81 81
0.0549899438880924 -0.0225850526464789 -0.00525054614001802 0.1253048 -0.937609 -0.324327 91 91 91
0.0563526848815922 -0.0208762172830909 -0.0104332445090442 0.2504628 -0.8911075 -0.3784122 79 79 79
0.0572952727340702 -0.0205642465723365 -0.00984768847877077 0.2353224 -0.8943244 -0.3805355 83 83 83
0.0593507985137943 -0.0210799757612555 -0.00790846626216463 0.2256061 -0.8783869 -0.421353 67 67 67
0.0589419702552799 -0.0196558121813147 -0.0102328089898258 0.2450266 -0.8668381 -0.4342276 70 70 70
0.0588207940124515 -0.0193350199831336 -0.0109370229666858 0.2638185 -0.8655974 -0.4256067 70 70 70
0.061213264849091 -0.0189931277407019 -0.0104739842837482 0.2889017 -0.8253124 -0.4851755 72 72 72
0.0618491868041996 -0.0188566331041663 -0.00940576474124483 0.3306622 -0.8194844 -0.4680895 76 76 76
0.0579425791763309 -0.0239855233801215 -0.00183458904677919 0.08789855 -0.9250385 -0.3695641 79 79 79
0.0593356589340214 -0.0235705856455176 -0.00245683173591188 0.2621665 -0.9455024 -0.1931165 76 76 76
0.0603652695678715 -0.0234361473692267 -0.00284619907790712 0.2831301 -0.9526045 -0.1112745 87 87 87
0.0602820018791203 -0.0219906453264563 -0.00544402281695894 0.1950324 -0.8826061 -0.4277486 98 98 98
0.059055517103577 -0.0224585715902655 -0.0046463040536075 0.1451124 -0.9031668 -0.4040199 77 77 77
0.0599413017295841 -0.0225235704553931 -0.00473940650874666 0.1745471 -0.8939369 -0.4128076 90 90 90
0.0603501299880985 -0.0236060206068366 -0.00176720599586061 0.373357 -0.9194642 -0.1232487 66 66 66
0.0668119291328434 -0.0188426856172889 -0.0051215020840793 0.5403234 -0.835743 -0.09789968 59 59 59
0.0633482436203007 -0.0205860022676795 -0.0070160059159427 0.3131328 -0.8350836 -0.4523088 70 70 70
0.0648927191757206 -0.0191013399732917 -0.00848686973506502 0.4127572 -0.7798094 -0.4706684 74 74 74
0.0665167073272709 -0.0186100188864081 -0.00776343326026491 0.478841 -0.7679495 -0.4253998 57 57 57
0.0651349524520878 -0.0167940739763587 -0.0113448528474002 0.4159118 -0.7425719 -0.5249804 66 66 66
0.0507880548500065 -0.0246688310278266 0.00880972762649962 0.3168906 -0.3530319 0.8803118 150 150 150
0.0151630739234928 -0.00449143687613895 0.0173519374901623 0.2516361 0.08510748 0.9640726 245 245 245
0.0479943851493839 -0.0269656364096015 0.00429130812233397 0.05186729 -0.9950739 0.08448528 70 70 70
0.0489029387496952 -0.0255350951326697 0.00284899492805907 0.1303549 -0.9909944 -0.03062163 70 70 70
0.0529912213348392 -0.0226139907015174 0.00758705754822203 0.3801226 -0.07787168 0.9216523 87 87 87
0.046904216196442 -0.0258107070101111 0.00991190691536376 0.2646866 -0.3135659 0.9119306 77 77 77
0.0480398038887028 -0.0253454331529944 0.00986401458328673 0.3365128 -0.1908368 0.922139 88 88 88
0.0468587378524784 -0.0232031826151221 0.00928212423866698 0.269889 0.06995647 0.9603468 107 107 107
0.0449054936431889 -0.0227213386667579 0.00941659231728026 0.2009369 0.2052853 0.957853 66 66 66
0.0434064368270878 -0.0230719331873267 0.0101046683365674 0.2315478 0.2093216 0.9500369 102 102 102
0.0434972743057255 -0.0202912274969428 0.00932623167580077 0.2378076 0.213877 0.9474725 139 139 139
0.0469950536750797 -0.0212368849886267 0.00886468310898253 0.1606318 0.1946417 0.9676322 120 120 120
