ply
format ascii 1.0
comment File exported by Rhinoceros Version 7.0
element vertex 472
property float x
property float y
property float z
property float nx
property float ny
property float nz
property uchar red
property uchar green
property uchar blue
end_header
0.0439356587072652 0.0399777735207938 0.0345552213121617 0.008329542 -0.3988014 0.9169995 89 89 89
0.0411876761244765 0.0443132099106593 0.0360223417386283 0.0007340392 -0.398737 0.917065 94 94 94
0.041555295918888 0.0454271478234767 0.0365835115834546 0.001195717 -0.3948233 0.9187563 119 119 119
0.0442433105907386 0.0424564344942731 0.0354150917654178 -0.008777513 -0.4048948 0.9143212 102 102 102
0.0468673341308684 0.0437956222288407 0.0360325295794709 -0.008297132 -0.4071262 0.9133343 101 101 101
0.0469667817973947 0.0406686581772291 0.0348287917154055 -3.667672E-05 -0.414392 0.9100985 97 97 97
0.0478941559851503 0.0398263830766332 0.0345518727211069 0.00420957 -0.4129695 0.9107351 101 101 101
0.0499666780799661 0.0385650299897775 0.0336726746384318 0.008128718 -0.4196314 0.9076582 124 124 124
0.0503512022919741 0.0389351288593911 0.0342156023262346 -0.000121688 -0.4179819 0.9084553 103 103 103
0.0517625917182548 0.0386933100779814 0.0341857373936764 0.006254382 -0.4246176 0.9053512 107 107 107
0.0492341822870108 0.042811685644039 0.0359564227494541 -0.005672931 -0.4095857 0.912254 106 106 106
0.0500146346965883 0.0405210369252933 0.0349570507585235 -0.002312073 -0.4158645 0.9094236 127 127 127
0.0506568926176441 0.0307810271036881 0.0305791717294965 0.3153569 -0.4470126 0.837096 137 137 137
0.0513936470090305 0.0365786944232451 0.0332423665485296 0.1296273 -0.4528764 0.8820996 101 101 101
0.0539535682126414 0.0330253428531866 0.0305864584101384 0.669916 -0.5252457 0.5247185 82 82 82
0.0556085075593098 0.0356579974967106 0.0303680755075627 0.8620644 -0.4138589 0.2925163 54 54 54
0.0529097815375892 0.0388161681203785 0.0340376084560656 0.02224643 -0.4245953 0.9051099 126 126 126
0.054096004963209 0.0393052473179267 0.0344111519498697 0.1737961 -0.4574909 0.8720648 149 149 149
0.0551915647001714 0.0411744729818175 0.0353819175949268 0.3086476 -0.4051887 0.8605572 128 128 128
0.0576124482397546 0.0399835273058378 0.0342415725300219 0.6778669 -0.485047 0.5524725 53 53 53
0.0370866436385834 0.0499476032513364 0.0384934013120631 -0.009399895 -0.4186713 0.9080892 101 101 101
0.0400751770771383 0.0472087552679439 0.0374406269425246 -0.01685097 -0.4214752 0.9066834 108 108 108
0.0387447331606977 0.0493219013168842 0.038299166817516 -0.01392654 -0.4260589 0.9045882 117 117 117
0.0352818088033462 0.0613656405201555 0.0335501843133804 0.3188449 0.7882721 0.5262746 51 51 51
0.038754076474109 0.0601964244501678 0.0323874321949912 0.36856 0.8353472 0.4078709 40 40 40
0.0309251568587497 0.0516370274467683 0.039002223690042 -0.00588347 -0.4003502 0.9163433 120 120 120
0.0316627229221461 0.0533190930901575 0.0397893711697425 -0.001478262 -0.4035524 0.9149554 117 117 117
0.0333097314774871 0.0528749911186746 0.0396163343395477 0.0024826 -0.3933492 0.9193858 132 132 132
0.0326627441354613 0.0544990698597103 0.0399712939801229 0.003131763 -0.3920048 0.9199578 123 123 123
0.0331883772766105 0.0550736672614649 0.0404436575874166 0.003131763 -0.3920048 0.9199578 126 126 126
0.0362709813134241 0.0541084189134005 0.0402607275251804 -0.007420474 -0.3827169 0.9238359 151 151 151
0.0391258039143917 0.0512929562429858 0.0391220356005991 -0.01471428 -0.4156239 0.9094176 140 140 140
0.0379190463011918 0.052303023344856 0.0396576171004788 -0.02269914 -0.3992882 0.9165444 122 122 122
0.0380755413618306 0.0528917184206408 0.0398093570485599 -0.02269914 -0.3992882 0.9165444 134 134 134
0.0413138333641111 0.0506140251744063 0.0388923240237163 -0.01256072 -0.4112678 0.911428 116 116 116
0.0399869892133906 0.0516563001091415 0.0393569627538886 -0.006836701 -0.4124204 0.910968 103 103 103
0.0400509010373143 0.0521005738414915 0.0398374956858452 -0.01076066 -0.4075015 0.9131411 119 119 119
0.0436313310923868 0.0457972462645937 0.0371299760539124 -0.008956478 -0.4068985 0.9134294 160 160 160
0.0446549343843801 0.046855471089488 0.0374462462824187 -0.01833573 -0.4171471 0.908654 120 120 120
0.046155181702468 0.0463351587123031 0.0372845734734314 -0.01644998 -0.4166166 0.9089335 127 127 127
0.0484385814831972 0.0457533934310776 0.0372385442117259 -0.007525505 -0.4182293 0.9083103 132 132 132
0.0493132323209879 0.044136488404722 0.0364902514482061 -0.007705786 -0.4042522 0.9146151 102 102 102
0.0508624149543794 0.0434557222510168 0.0364079758261041 0.004331453 -0.4045832 0.9144909 123 123 123
0.0455504709026403 0.0488255312455996 0.03846433558767 -0.009067577 -0.4238112 0.9057052 134 134 134
0.046621641819501 0.0482441901363022 0.0379864148220261 -0.009020473 -0.422561 0.9062896 121 121 121
0.0450813038717323 0.0499068171085975 0.038910438691777 -0.01363756 -0.4207969 0.9070523 100 100 100
0.0442438042880454 0.0506058090241777 0.0391752298932221 -0.01549098 -0.4186858 0.907999 97 97 97
0.0456731376614932 0.0505470088505651 0.0391979781973576 -0.01363756 -0.4207969 0.9070523 108 108 108
0.0477728514847373 0.04922983445695 0.0388184308207397 -0.001498134 -0.4202892 0.907389 97 97 97
0.049474716293093 0.0476641318311053 0.0386278320240402 -0.000197894 -0.4093721 0.9123675 103 103 103
0.0586063490007532 0.0425627943819453 0.0346116510282094 0.7798201 -0.3671541 0.5070291 69 69 69
0.0565758527395472 0.0417315138304388 0.0358709267259919 0.4124906 -0.3464586 0.8425069 125 125 125
0.0575759975723564 0.0430417486736314 0.0360489834435108 0.5389586 -0.293865 0.7894093 103 103 103
0.0588602304239769 0.0443283590199837 0.0343864918255492 0.7904154 -0.1653067 0.589845 68 68 68
0.0590484944764414 0.0436601734522413 0.0351910024540869 0.7904154 -0.1653067 0.589845 63 63 63
0.060721374373724 0.0474532556280833 0.0297831101896381 0.9054455 0.3299537 0.2670186 66 66 66
0.0559439060412035 0.0450010487661605 0.0368748416704 0.3078062 -0.3072622 0.9004695 95 95 95
0.0109645966269986 -0.00097906049200791 -0.015398531736533 -0.06483265 -0.4214396 0.904536 161 161 161
-0.004738107371418 0.0489594834144746 0.0301643515110736 0.9674091 -0.2516219 -0.02838981 71 71 71
0.01129133619724 0.0319770923436311 -0.000445437543947214 -0.09233118 -0.3955801 0.9137786 123 123 123
0.00480865582392398 -0.0584927094302095 -0.0391269621319614 -0.360158 -0.5875282 0.7246356 74 74 74
0.0513530722374403 0.0278901526062263 0.021485373285584 -0.7991552 0.5978462 -0.0626974 30 30 30
0.0561920213003417 0.0525310548606825 0.0173971206643812 0.4484807 0.7279636 0.5185885 54 54 54
-0.0177178725484615 -0.0568177583723368 -0.0314172860579473 -0.3925673 -0.9192325 0.03004308 89 89 89
0.0350357670688543 0.0447283579241664 0.00562191981131849 -0.09606842 -0.4062516 0.9086971 122 122 122
-0.0469205091821713 -0.0406231474616039 -0.0181364709150514 -0.321808 -0.8190197 -0.4750226 51 51 51
-0.0284864013126233 -0.0185132497974252 -0.0244030919795004 -0.08918288 -0.4053654 0.9097941 118 118 118
-0.0410291143232163 -0.0417002135728395 -0.0249091511557068 -0.3715692 -0.8624676 -0.3436362 67 67 67
-0.00568754248319603 0.0330529657553083 -0.000832878354871391 -0.07944057 -0.4085073 0.9092915 94 94 94
0.0501765982579204 0.0243194662742072 0.00630783728796247 -0.8141387 0.5803719 -0.01862116 46 46 46
0.049100980468528 0.0239051011612881 0.0239084467833195 -0.8029892 0.5943734 -0.04391487 59 59 59
-0.0403722921853793 -0.0432967586205102 -0.0218821873004702 -0.4138351 -0.7306594 -0.5430261 77 77 77
-0.0226818952218008 -0.0536787528638429 -0.0295820679842327 -0.1707996 -0.9798487 -0.1035566 40 40 40
0.0563133843279695 0.036419118072849 0.0221727597184494 -0.841556 0.535768 -0.06882042 57 57 57
-0.0144042662923232 -0.0450007340810312 -0.0355711079704865 -0.112904 -0.51947 0.8469968 118 118 118
-0.00450037114585822 -0.072552694547849 -0.0267135843099636 -0.4454488 -0.8595929 -0.2503508 59 59 59
0.0179256979896408 0.0497957341919637 0.00727714553431619 -0.08179302 -0.4007846 0.9125139 81 81 81
-0.0222767062473505 -0.0465578580951231 -0.0341638907125589 -0.366629 -0.8625596 0.3486749 96 96 96
-0.0535389902675949 -0.00855137832467667 -0.001979653742607 0.8788969 -0.4765782 0.02033435 85 85 85
0.0385937602305902 0.0573672689897051 0.0355224699953984 0.4085254 0.8370199 0.364012 45 45 45
0.0233761399775758 0.0683790790303265 0.027698444228889 0.5148491 0.7586929 0.3991434 57 57 57
0.0020961114534489 0.0442726080172524 0.00432935018388531 -0.09061319 -0.4116369 0.906832 116 116 116
0.00174448862740451 -0.0528895335520294 -0.0385277168668901 -0.1473655 -0.4537476 0.8788609 140 140 140
-0.000706223144154916 -0.0101670110630705 -0.0197876795342329 -0.08910275 -0.4133521 0.9062012 118 118 118
0.0246731693424677 -0.0306588603285403 -0.0019192553383342 -0.8316199 0.5550964 0.01662049 77 77 77
0.0196150700235022 -0.00657196797413717 -0.0174475215969359 -0.07909922 -0.4124654 0.9075327 103 103 103
0.00403370844433848 0.0477010567634935 0.00593420794315597 -0.1026449 -0.4145283 0.9042292 95 95 95
0.015747354827134 0.0282661926775185 -0.00228216863741582 -0.08299713 -0.4089341 0.9087818 155 155 155
-0.00163547015394971 -0.0626442793150712 -0.0370762168384808 -0.459036 -0.879034 0.1287836 73 73 73
0.0435583451189138 0.0477680256172961 0.007196566963657 -0.08376467 -0.4172448 0.9049256 118 118 118
0.0427839544104049 0.0614848122362142 0.0133848713809241 -0.09285878 -0.4296068 0.8982289 109 109 109
-0.0459998526377414 -0.0400399116049002 -0.0200627096102042 -0.3153281 -0.8500354 -0.42191 58 58 58
0.0486969235717851 0.023820319735945 -0.00311859140682419 -0.5148928 -0.07913638 0.8535941 89 89 89
0.0143112798727522 0.0251929489384597 -0.0036938597273245 -0.08676136 -0.4171199 0.9047008 127 127 127
0.018440696524969 -0.0431670615254935 -0.0050640799797283 -0.7711672 0.6337634 0.06037555 51 51 51
0.0124375100586281 0.0505361752936824 0.00745489494064655 -0.07879885 -0.410233 0.9085701 107 107 107
-0.0238612920451454 -0.0559076216768057 -0.0262883740869876 -0.1751095 -0.9701768 -0.1676115 45 45 45
-0.0655874675639477 -0.0274320933962013 -0.0161079269461196 -0.07856363 -0.9273508 -0.3658527 37 37 37
-0.0361998472843714 -0.0143453934984903 -0.0226631567414476 -0.1141071 -0.4057624 0.9068277 134 134 134
0.00743588973544707 -0.0477126622904049 -0.0362968143845696 -0.1002966 -0.4159313 0.9038483 130 130 130
-0.0220374030812019 0.027381884982838 -0.00381775192926359 -0.08738354 -0.4071254 0.9091826 93 93 93
-0.0137413312866892 -0.0360295361809031 -0.0315691553955524 -0.0865013 -0.3958522 0.9142311 113 113 113
0.0356143066421534 0.0579477408167421 0.0113165615468432 -0.07915886 -0.4031943 0.9116843 81 81 81
-0.0451207203888757 -0.00836669374297161 -0.0205510378230731 -0.08869926 -0.4045027 0.9102252 113 113 113
-0.0113742933085186 -0.0693893428959893 -0.0244886397022097 -0.4046305 -0.8736961 -0.2700543 56 56 56
0.00459749894091699 -0.0557627524383359 -0.0396675783465197 -0.3328824 -0.5192101 0.7871532 98 98 98
-0.0577543442065075 -0.0137332995467014 -0.0233228535118854 0.279748 -0.4644958 0.840229 115 115 115
0.00318858307819569 -0.0327253672317382 -0.0297127298812233 -0.08799338 -0.3977932 0.9132457 121 121 121
-6.97359744582515E-05 -0.0551285567917665 -0.0400425703571887 -0.2687242 -0.6163856 0.740173 134 134 134
0.0123684798716026 -0.0242577250455984 -0.0256238868047632 -0.09001131 -0.3982655 0.9128431 130 130 130
0.0192562339214749 -0.042172267730165 -0.00663101204864319 -0.7592645 0.6487751 0.05107196 61 61 61
0.0463862744797436 0.0167189405480321 0.000563032760800941 -0.827641 0.5478902 0.1217656 67 67 67
0.0374454376310258 0.0286350117271661 -0.00136779197921777 -0.09065984 -0.4067007 0.9090519 133 133 133
-0.0373283070159791 -0.00150692572585043 -0.0171197881818521 -0.08538943 -0.4124059 0.9069895 125 125 125
0.0150610898193984 0.00919845066246205 -0.0105393041515024 -0.08584782 -0.3999991 0.9124861 132 132 132
-0.000409385720044009 -0.0721049618898839 -0.0302783260940263 -0.6828321 -0.7293783 -0.04180573 67 67 67
-0.0636111762228179 -0.0176029313586201 -0.0219570570506129 0.5773 -0.6693541 0.4676427 76 76 76
-0.0503175402507647 -0.00147329762532755 -0.0171231712971094 0.6040674 -0.5318322 0.5935125 80 80 80
-6.72735244336975E-05 -0.0323049216391453 -0.0295292884433282 -0.09090558 -0.4028903 0.9107226 140 140 140
0.0037945149360501 0.0247281469529255 -0.00412483385613394 -0.087801 -0.4031092 0.9109303 83 83 83
-0.0440835347743536 -0.02139762209895 -0.0260825764756048 -0.07770654 -0.3983982 0.913915 107 107 107
0.0303750113864867 0.0654395301236881 0.0146237064692974 0.07187893 -0.2662331 0.9612249 74 74 74
0.0311306072005978 -0.0167842401124851 -0.0107071975918805 -0.8084218 0.5884148 0.01490442 70 70 70
0.0300103357644002 0.0301513033200305 -0.00113926536318959 -0.09337445 -0.4038463 0.9100491 119 119 119
0.0329965017577166 -0.0127064107672044 -0.0140789178138031 -0.8308004 0.5183896 0.2025908 52 52 52
-0.048369160488871 -0.0237252121826439 -0.0272986772655375 -0.09430034 -0.4351771 0.8953928 116 116 116
0.0158404181154779 -0.0490916450884478 -0.023705968175796 -0.8525403 0.508717 0.1199249 57 57 57
-0.0207341388427226 -0.0117396538516976 -0.0210034038261904 -0.08010241 -0.4078585 0.9095246 141 141 141
0.0075255832848341 -0.0723530550714087 -0.0210009980018746 -0.8337635 0.5003039 0.2335263 77 77 77
0.0176331892001536 0.00064434572302785 -0.0144730394811856 -0.09152871 -0.4010451 0.9114742 125 125 125
0.0469609961648361 0.0181442419538773 0.00726048059312745 -0.8011357 0.5984796 -0.001951446 60 60 60
-0.0577341504244094 -0.0122064466174727 -0.0167090952697864 0.9213707 -0.376096 0.0981215 79 79 79
-0.0277316310085485 -0.0201074520386961 -0.0248341759272648 -0.09193978 -0.4052753 0.9095598 132 132 132
0.00597025319671307 -0.0150610213352353 -0.0218382482189098 -0.0859863 -0.4029811 0.9111601 121 121 121
0.0397679730763814 0.0410345614846603 0.00409000225418082 -0.07562411 -0.4079911 0.9098485 123 123 123
0.0293760955248001 0.00957346089531708 -0.0101543081987796 -0.08185773 -0.4079632 0.9093214 106 106 106
-0.0118302647454934 0.0292363585191613 -0.00258143346823309 -0.09374876 -0.4025541 0.910583 106 106 106
-0.00736287077430786 -0.0734425497851483 -0.0221977205520938 -0.4369178 -0.8424917 -0.3151357 70 70 70
0.0111586067951215 -0.0562111631498095 -0.0313624505024023 -0.8217251 0.5608503 0.1010677 44 44 44
0.0308318463006285 -0.0167819578327215 -0.00633738750359769 -0.8083025 0.5887666 0.0009826611 72 72 72
-0.0102320173027819 0.0345891061583103 -0.000141815816521174 -0.0866139 -0.4147758 0.9057919 82 82 82
0.0347873110046628 0.0319379774468258 -0.000241846488704622 -0.08390265 -0.3988153 0.9131849 107 107 107
-0.0542018614775301 -0.0322961943540603 -0.0234581574065859 -0.3618039 -0.8720873 -0.329487 49 49 49
0.0379013192968963 0.0610867004947602 0.0267785371639554 0.5093052 0.7657372 0.3927529 47 47 47
0.032793237247847 0.0251830926135035 -0.00324418752869116 -0.08877839 -0.4040967 0.9103978 103 103 103
0.0613508543317129 0.0448585685120839 0.0146700791327595 -0.7508436 0.6602481 -0.0175023 58 58 58
0.0348657209881341 0.0617086021518518 0.0132087261451724 -0.06457788 -0.3956317 0.916136 85 85 85
0.0137106281810931 0.0135538925487779 -0.00883715082221059 -0.09460253 -0.3992094 0.9119661 96 96 96
0.0186515878227691 0.0682846139782882 0.0157427173698548 0.06722286 -0.2606519 0.9630896 69 69 69
-0.0101366452591969 -0.0517054330891449 -0.0376977367201531 -0.2291214 -0.7820817 0.579527 92 92 92
-0.0436641656625036 0.00859987873851109 0.00285802880151043 0.8167691 -0.5765361 0.0222332 94 94 94
0.0635140243390588 0.0492171063372662 0.0212909973036655 -0.2728447 0.9022191 0.3340006 57 57 57
-0.0672386126880727 -0.0249570779635786 -0.00475028898643798 0.8600335 -0.5102195 -0.004285729 80 80 80
-0.0124161862874765 0.0470419781163112 0.00536706323823227 0.004947746 -0.4242676 0.9055234 71 71 71
0.013272966776303 0.065757883638673 0.0415679328118512 0.9844601 0.09002356 0.150778 53 53 53
0.00423369506338012 -0.0492535836802335 -0.0369344482164272 -0.08634191 -0.4080245 0.908879 155 155 155
0.0435639235180972 0.0562710476076476 0.0110338006615352 -0.08228691 -0.4085262 0.9090298 103 103 103
0.00425568141934451 0.0619140683872779 0.0255377655516128 0.9731051 -0.2262792 -0.04317551 79 79 79
-0.0112962139674604 0.00464057029701337 -0.0135700145848845 -0.09333514 -0.4076788 0.9083427 115 115 115
0.0415417167693888 0.0353619576566391 0.00156106659609939 -0.09169652 -0.4134426 0.9059012 103 103 103
-0.0665187447872858 -0.0225092433207839 -0.0232892340966107 0.1137817 -0.9571933 0.2661481 71 71 71
0.00977893356648019 -0.0239894637635598 -0.0255788380896036 -0.07822609 -0.4029538 0.9118711 132 132 132
-0.00156164234681022 0.0586424840382456 0.0110928486308981 0.259054 -0.4054768 0.8766297 54 54 54
0.0215124796334834 -0.0385854934280832 -0.0125102772363996 -0.7805154 0.6248331 0.01947686 63 63 63
0.0404320921827466 0.0607847196372873 0.0128294690810632 -0.08338697 -0.4156131 0.9057109 96 96 96
-0.0308359907070016 0.0282135031015784 0.00483403420790141 0.9398127 -0.3167681 0.128102 124 124 124
0.0123907627431722 0.00415288007284853 -0.0132027614543983 -0.08263127 -0.4130826 0.9069371 149 149 149
0.0107449707159684 -0.0589881679345758 -0.0318921781194235 -0.7957926 0.5945908 0.1147863 48 48 48
-0.0237769201417273 0.015306760373448 -0.00923504273617592 -0.07409324 -0.4083106 0.9098311 102 102 102
0.00936203621636456 0.0288445152214367 -0.00216905054973787 -0.08257574 -0.4075045 0.9094622 100 100 100
0.0450058036026419 0.0506014194957143 0.0085452950583631 -0.08458115 -0.4069877 0.9095092 108 108 108
0.0023114820543414 -0.0216895792832832 -0.0247657775772135 -0.08908302 -0.4078682 0.9086846 145 145 145
0.0122918477483055 -0.058625555865029 -0.0202619168230668 -0.8301719 0.525285 0.1867893 83 83 83
0.00890842128861391 0.0197049812628332 -0.00622465760195373 -0.0734733 -0.3939617 0.9161855 114 114 114
-0.0483415210560245 -0.0084914689780391 -0.020543551003683 -0.08662995 -0.4127007 0.9067377 120 120 120
0.0069356658268791 -0.0617419986699304 -0.0397235241161714 -0.5808323 -0.5036684 0.6394935 63 63 63
-0.0197267227394166 0.0218785847330667 -0.0060805291279869 -0.09523544 -0.4111097 0.9065975 88 88 88
0.0465764959528661 0.0490554355556303 0.00800694558383946 -0.1017522 -0.404752 0.9087476 122 122 122
0.00391653790476065 -0.00902688797972728 -0.0193493036731561 -0.09285365 -0.3939965 0.9144096 126 126 126
-0.0412836160800721 -0.0258172797361629 -0.0278600433257782 -0.09205537 -0.4036149 0.9102861 109 109 109
0.0459681326031879 0.056907074241914 0.0235066627087523 0.3617536 0.8452323 0.3933405 50 50 50
0.0388871339676602 0.0029284983336304 -0.012491225526247 -0.6153314 0.1117481 0.7803074 80 80 80
0.0202156516069546 0.00398324843277664 -0.0128751566833121 -0.08124388 -0.4044097 0.9109622 175 175 175
-0.0186645136112804 0.038169588323494 0.00117247121927622 0.09859464 -0.4962728 0.8625499 104 104 104
0.0276932654470021 0.0466407596690481 0.00633066261474724 -0.07765922 -0.4142443 0.9068466 119 119 119
-0.0382898482223669 0.0131719312586442 -0.0105971062628578 0.1072779 -0.4550858 0.8839617 97 97 97
0.0477255766248155 0.0587508690620664 0.0121601206362125 -0.09460896 -0.422154 0.9015737 89 89 89
-0.00917233594426681 0.0198600318603923 -0.00683274263528527 -0.08708172 -0.3987919 0.9128975 126 126 126
0.038374958025899 0.0618757311417066 0.0256353988481774 0.5039731 0.7643332 0.402251 52 52 52
0.0340731985799276 0.0252010127428568 -0.0031329524923504 -0.08433754 -0.3964933 0.9141555 108 108 108
-0.0101864358127542 0.0444968528985152 0.0259337673967045 0.9665718 -0.2545898 -0.03038065 74 74 74
0.0500629966606911 0.0252445042993159 -0.00128829565340965 -0.7231303 -0.006234291 0.6906835 24 24 24
-0.0173817489364861 0.0301692179083104 -0.00246315881426257 -0.08972681 -0.4092969 0.9079786 89 89 89
0.0537398096704961 0.031336900109775 0.0155934654881791 -0.8267379 0.5611845 -0.0397039 73 73 73
0.00602096735310254 0.0600313394393537 0.0357126016306266 0.9706239 -0.2368203 -0.04249153 80 80 80
0.00728953655450071 0.0672208414223445 0.0148204465053096 0.0947436 -0.4545792 0.8856531 65 65 65
0.0447425845050132 0.0588239753413498 0.0120702586991958 -0.1002556 -0.4248732 0.8996841 102 102 102
0.0371506521604063 0.0235132552920667 -0.00365233161471429 -0.07831733 -0.3984866 0.9138243 113 113 113
-0.0241684032685198 0.0302816665256405 -0.00260146819783408 -0.02189961 -0.4335449 0.9008659 103 103 103
0.0224826703231067 -0.0337839651728808 -0.0274768991514427 -0.7707216 0.117001 0.6263378 54 54 54
-0.00592065487674653 -0.0489010218658863 -0.0369766309472387 -0.1050543 -0.4201432 0.9013563 147 147 147
0.0340459077940037 -0.0100842685333742 0.00402286406589414 -0.7887197 0.6140746 -0.02887085 63 63 63
-0.0448090514688804 -0.0378217019420146 -0.0252699265249023 -0.3475849 -0.8837135 -0.3134248 65 65 65
0.052468348237655 0.0400913139048296 0.00408415230231557 -0.09232634 -0.3969293 0.9131938 90 90 90
0.00898208338955542 0.0428204374133252 0.00411653592964689 -0.08201942 -0.4028451 0.9115857 85 85 85
0.0188749636019713 -0.0120525549366948 -0.0201836628886433 -0.07571375 -0.412483 0.9078134 132 132 132
-0.0183163799704346 -0.0578195987939107 -0.0303041437353262 -0.3910849 -0.9172704 -0.07528369 74 74 74
0.0350440526113035 0.0244792104929459 -0.00326663762503132 -0.08766458 -0.4044339 0.910356 110 110 110
0.00385006414415068 -0.0101290367524136 -0.0195671062656922 -0.09813767 -0.4008068 0.9108913 124 124 124
-0.0463446465851305 -0.000951755735886017 -0.0171385573638516 0.05979414 -0.4283954 0.9016108 131 131 131
0.0519020030003605 0.0297873547606331 0.0259361489547765 -0.832087 0.5519157 -0.05495736 43 43 43
-0.0348535339279078 0.0237804578631258 0.00409007498032998 0.9081557 -0.4045316 0.1077375 92 92 92
-0.0340025458961413 -0.0494954172243371 -0.0137004143677568 -0.2338536 -0.9019942 -0.362931 50 50 50
0.0562445975515323 0.0454050195177216 0.00673518298224413 -0.1007673 -0.383278 0.9181198 79 79 79
-0.0056520093480158 0.048249985852618 0.029818850596747 0.9613708 -0.2749575 -0.01282888 79 79 79
-0.0412363548617868 -0.0418667348571566 -0.0224599858970108 -0.397911 -0.7738672 -0.4927438 54 54 54
-0.0271659597520092 -0.0479700516730344 -0.0272971467077501 -0.2131968 -0.9365711 -0.2781757 61 61 61
0.0204934419707227 -0.0403740910179942 -0.0155701336809051 -0.8083149 0.584353 0.07182437 33 33 33
-0.0451497094627892 -0.00619143123726973 -0.0194058332760528 -0.08986769 -0.4080983 0.9085041 104 104 104
0.0174396329468388 -0.0448894628904946 -0.025004801754236 -0.8406799 0.5367066 0.07213336 45 45 45
0.0340723162305271 0.0502122325462468 0.00793697481692307 -0.08803155 -0.4021863 0.9113159 93 93 93
0.0479081217182119 0.0211810925297113 0.0119417726671727 -0.8177509 0.575116 -0.02291527 55 55 55
0.00233951677305266 0.0356136881182048 0.000548987216354602 -0.08669595 -0.4037077 0.910771 80 80 80
-0.0626306891118087 -0.0198232153559044 -0.00624032370095229 0.9514199 -0.2997748 0.07025083 81 81 81
0.0349758252843916 -0.00837040534627076 -0.00805538777910514 -0.7895918 0.610493 0.06199159 95 95 95
0.00349908510841845 -0.0409734795463625 -0.0331273960945461 -0.09110766 -0.4090766 0.9079404 140 140 140
-0.0351129021987175 -0.00889668794080789 -0.0202738784144576 -0.09065962 -0.3961058 0.9137182 176 176 176
-0.00406628667394271 0.0504064397076289 0.0284648559933664 0.96608 -0.2579628 -0.01203209 74 74 74
0.0561525439738908 0.037228651347492 0.00291610590147351 -0.3099107 -0.222897 0.9242685 117 117 117
0.0287449553171186 -0.0213655951557088 -0.00854160123539893 -0.8107771 0.5852479 0.01119254 32 32 32
-0.00730287913215499 -0.0691034723598871 -0.028389331703111 -0.4080616 -0.8923556 -0.1928397 71 71 71
-0.0671927013960919 -0.0239773924603275 -0.00860693650874284 0.8518741 -0.523044 0.02711752 90 90 90
-0.0275174889393011 0.00215401507514956 -0.0151100612085138 -0.1034678 -0.408527 0.9068628 123 123 123
0.018429189438659 0.00386042294076638 -0.0132183663548461 -0.09225727 -0.3966676 0.9133145 169 169 169
0.0438092446039728 0.0106650947313767 0.0101525013170725 -0.785301 0.6182476 0.03274649 75 75 75
-0.0219310342872236 0.0375142973808353 0.000620049447013549 0.1436377 -0.4747385 0.8683269 131 131 131
0.0383249142533809 0.0525746991533305 0.0093464691651064 -0.08828145 -0.4022715 0.9112541 106 106 106
-0.0423528142854982 0.00816423270016098 -0.0129705772385049 0.2986944 -0.5452985 0.7832185 107 107 107
-0.0175320751708383 0.0115591341948464 -0.010685489513956 -0.08648254 -0.3986205 0.9130293 78 78 78
-0.0252030349648303 -0.0360808489839755 -0.0321804271600783 -0.09991824 -0.4242758 0.9000036 104 104 104
-0.0223742615183908 0.0333169031604048 -0.00111905757288261 0.006779099 -0.4059641 0.9138638 98 98 98
0.00860490757895649 0.0306193448195917 -0.00144453820946261 -0.08614393 -0.4073014 0.9092221 81 81 81
-0.0636954173039226 -0.0301583266084871 -0.00775313059810606 -0.3884955 -0.7592757 -0.5220839 33 33 33
-0.00455843423427071 -0.0477992534276226 -0.0362729737436493 -0.08513233 -0.4104941 0.9078805 139 139 139
-0.0625204929012164 -0.0183591552101985 -0.0104453958514207 0.9435651 -0.3166038 0.09719563 78 78 78
0.015170989239213 0.049925825450422 0.00744386497664001 -0.07631732 -0.404732 0.9112451 98 98 98
0.0143761802834058 -0.0509578514087548 -0.0266047310188789 -0.8588027 0.5028463 0.09799716 62 62 62
-0.0044385968415751 0.00136893770492108 -0.0148312005556444 -0.09044573 -0.4206487 0.9027039 196 196 196
-0.00559550210942483 -0.0176273435696808 -0.0232789797161121 -0.08424377 -0.409371 0.9084703 118 118 118
-0.0374197491893073 -0.0399627137087299 -0.0313612888182045 -0.376923 -0.9113324 0.1655366 70 70 70
0.051174445938269 0.0508770479944984 0.0303028564185065 0.5335511 0.710469 0.458865 44 44 44
0.000990837114753451 -0.0333730174476592 -0.0298907204748027 -0.0874863 -0.4054327 0.9099288 126 126 126
-0.0220047468652284 -0.0528967676923209 -0.031030481583396 -0.2564401 -0.9665197 0.008836596 75 75 75
-0.0362665025166314 -0.0458953933909056 -0.0182503460975584 -0.385928 -0.7521421 -0.534174 52 52 52
-0.0294090878674343 0.0255886762632878 0.01710468698864 0.967645 -0.2487393 -0.04232948 83 83 83
0.0207859795647548 0.00921022635177482 -0.0103489764388341 -0.08600301 -0.4030407 0.9111321 112 112 112
0.0176260271991898 -0.0442047268714194 -0.0296148675958267 -0.8573964 0.4293158 0.2838299 47 47 47
-0.0227672175489194 -0.0392005485678832 -0.0333320722318462 -0.1143855 -0.4767795 0.8715488 121 121 121
0.0523379620223461 0.0527287521770403 0.0096150314897262 -0.09975854 -0.4099903 0.906618 89 89 89
0.0527907622988831 0.0305451061891497 0.0113903840464004 -0.837145 0.5467203 -0.01688598 56 56 56
-0.0140358222445417 0.0300667288135985 -0.0023129202053081 -0.08247366 -0.4090692 0.9087687 94 94 94
0.0253627938042882 -0.0283938712318894 -0.0101500261190493 -0.8010975 0.5981195 -0.02226854 31 31 31
-0.0378896635027549 0.0161134252126085 0.0149451107101806 0.9653855 -0.2571129 -0.04386137 92 92 92
0.0245529151828268 -0.0304783543024056 -0.0162021072753839 -0.8157884 0.5776278 0.02890358 76 76 76
0.0579204885225392 0.0404461974376846 0.0283665228563071 -0.7682967 0.638073 -0.05082251 45 45 45
-0.00135258172931496 0.00917024771009789 -0.0112782379493452 -0.08769196 -0.4033175 0.9108486 105 105 105
0.0296035213349098 0.0628348472453779 0.0329281360785649 0.5131332 0.7764562 0.3658004 40 40 40
-0.0490989415755033 -0.0399916862866476 -0.00982612957750084 -0.3522627 -0.7338567 -0.5808316 30 30 30
-0.0128824587622215 -0.0106138063877781 -0.0203568476471692 -0.08096368 -0.4038783 0.9112229 131 131 131
-0.00313938122408575 0.0214749849584883 -0.00586115205924309 -0.08713406 -0.4159994 0.9051807 100 100 100
0.0327797058093374 0.0293268011035703 -0.00117027273245862 -0.08530901 -0.4050718 0.9102962 120 120 120
0.0274296023284774 -0.0197574482134319 -0.0232289781702587 -0.4811732 -0.18055 0.857831 108 108 108
0.0516965359719541 0.0274711912304662 0.0127949845265186 -0.8347795 0.5505844 7.068265E-05 59 59 59
0.0289138119845876 0.00750592522745719 -0.0111241972527 -0.08574198 -0.4077572 0.9090558 110 110 110
-0.0240400907566862 0.0300398929262147 0.0215254577474316 0.9681321 -0.2465107 -0.04418904 84 84 84
0.00884093743433012 -0.0652495105773652 -0.0230881440775624 -0.8459948 0.4936264 0.2015582 69 69 69
-0.0303316991072182 0.0136203497189471 -0.0102809118851543 -0.07782799 -0.4129027 0.9074438 106 106 106
-0.0112137429033952 -0.014686971635375 -0.0219528238432584 -0.08555907 -0.3981174 0.9133357 171 171 171
-0.0222941181678104 0.0378749378992249 0.00484494816388692 0.7889699 -0.4630159 0.4039092 43 43 43
0.0163284703691207 0.0724480832815888 0.0214147099847696 0.5803934 0.09678999 0.8085636 45 45 45
-0.00587292620735747 -0.0393757149091254 -0.0328208045614682 -0.08316791 -0.4164598 0.9053421 178 178 178
0.0221641300156276 -0.0230214713424213 -0.024744866725602 -0.1300009 -0.3593709 0.9240955 126 126 126
0.0168334563786862 0.0686980559248518 0.0158567640600558 0.1477838 -0.2397007 0.959533 101 101 101
0.0440509647462471 0.0117388721772556 0.0137214428113656 -0.7738711 0.6330543 -0.01912499 94 94 94
-0.0620507866044321 -0.0202596415349661 0.00117290727210895 0.9411478 -0.3281553 0.0809622 86 86 86
-0.0167102929949682 -0.0591093426621188 -0.0303979916009274 -0.4320362 -0.8962818 -0.1001182 84 84 84
0.0274936444666394 0.0668978665766153 0.0276103199381814 0.5079042 0.7831637 0.358731 50 50 50
-0.0424900101233381 0.010347198021285 -0.00395939958247254 0.8473349 -0.5307752 0.01735998 69 69 69
0.0253623690132301 0.00249524919577615 -0.0134825382728245 -0.07425588 -0.3966966 0.9149414 78 78 78
-0.0203530416816158 -0.044378536537113 -0.0353766846759652 -0.230863 -0.6966025 0.6792991 112 112 112
-0.00272354204639025 0.0506797222148538 0.032266659087479 0.971732 -0.234084 -0.03068461 67 67 67
0.0337044070609536 0.043379168426172 0.00502851462651971 -0.09387743 -0.4095585 0.9074408 97 97 97
-0.0517077178231992 -0.0290255522154768 -0.0273827137976759 -0.2841447 -0.8653241 0.4128875 95 95 95
-0.034703549584572 0.0243715397441109 0.00383606241888707 0.9151472 -0.3846254 0.1207015 93 93 93
-0.0269896364996158 0.0154016605377529 -0.00922991794392575 -0.08332486 -0.4019464 0.911864 86 86 86
-0.0413417758611802 -0.00643185629808851 -0.0197209360430653 -0.08186744 -0.408146 0.9092385 128 128 128
-0.0129159470581772 0.0284369003191811 -0.00313179208673314 -0.08657812 -0.3991329 0.9127963 91 91 91
-0.0240576058059376 -0.0490102209467229 -0.0316798683059799 -0.2917241 -0.9545764 -0.06067009 45 45 45
-0.0223471344520576 -0.0626483733051877 -0.0199777249455679 -0.2589763 -0.9342591 -0.2451352 69 69 69
-0.0137871503439392 -0.0639392238253944 -0.0273027484753045 -0.3822285 -0.9150475 -0.1287999 69 69 69
0.0178194479971476 0.0405808013261961 0.00323535248501167 -0.08905242 -0.4082338 0.9085234 121 121 121
0.0638289116562782 0.0490478481627969 0.00913747706275969 -0.6215398 0.4594352 0.6345136 70 70 70
-0.0604298692627324 -0.0331405031757677 -0.00806015172143953 -0.3557791 -0.7385663 -0.5726613 39 39 39
0.0184981806250571 0.0123464370547646 -0.00907865903184013 -0.085045 -0.4078628 0.9090739 93 93 93
-0.0228422167018529 0.0113030924845821 -0.0109948004457773 -0.07571888 -0.4118105 0.9081182 99 99 99
0.0102985980236411 -0.0213754920935436 -0.0244089976069095 -0.09255046 -0.4104622 0.9071688 122 122 122
0.0451141467952973 0.0139915385804954 0.0134827606096447 -0.7947055 0.6069851 -0.00350451 57 57 57
-0.0391684000597854 -0.00911840607477488 -0.0206395999120209 -0.07433927 -0.3992601 0.913819 121 121 121
0.00732602253753201 -0.0320971075859331 -0.0291843689760759 -0.08264753 -0.41084 0.9079537 126 126 126
-0.0243943707489821 0.0293523025907345 0.021352516780465 0.9699116 -0.2393997 -0.04426328 90 90 90
-0.0193147749814619 0.0358469483606174 0.0217123377070827 0.9704921 -0.2365972 -0.04654848 90 90 90
0.0263772956437534 0.0693031973490486 0.0177668524069411 0.32434 0.0293277 0.9454858 97 97 97
0.0550490655010707 0.0451057040354237 0.00635791102818478 -0.08674479 -0.414629 0.9058467 95 95 95
-0.0125132235530975 -0.0329143939115173 -0.0301260140475816 -0.07553952 -0.4042235 0.9115356 179 179 179
0.0214507720647233 0.02011619316647 -0.00566531073848814 -0.07569687 -0.4094469 0.9091882 121 121 121
0.0523987402256938 0.048987661027257 0.0356289789092535 0.5359098 0.7123045 0.4532361 37 37 37
-0.0301765256447564 -0.02164847452985 -0.0259348781940888 -0.08534038 -0.3948777 0.9147615 173 173 173
-0.0184289537233902 -0.0207081602842372 -0.0251266706944174 -0.08708204 -0.4137691 0.9062074 126 126 126
0.0231882113223481 0.0485250264464339 0.00711877354055818 -0.08903521 -0.3981734 0.912979 98 98 98
-0.0347485359314735 -0.0433464172850118 -0.029708340024184 -0.5258328 -0.838737 -0.1414927 69 69 69
0.00814253589251268 0.0678644178046053 0.0223311367658475 0.9285774 -0.3672076 0.0538757 68 68 68
-0.0552400346371926 -0.0343737411989522 -0.0173424702842747 -0.394623 -0.8086271 -0.4363425 47 47 47
0.0253085807154915 0.0145076341336758 -0.0080860928369399 -0.08954223 -0.4076304 0.9087462 119 119 119
-0.00471556048218147 0.0134037451199662 -0.00942703002683082 -0.08415572 -0.4062306 0.9098871 94 94 94
0.0137222286606726 -0.0512047527035693 -0.0303201110747716 -0.8505942 0.5218378 0.06461271 61 61 61
0.0167067744958905 0.0719301469411642 0.0209099742680746 0.4603488 0.1085582 0.8810756 45 45 45
-0.0233407400598709 0.0371986432432916 0.00268021792355916 0.6859667 -0.5797611 0.4396893 54 54 54
-0.00386068509065374 0.04997766618299 0.0306838868827588 0.9660647 -0.257426 -0.02123369 75 75 75
0.00640005712943648 -0.0481894594805008 -0.0363599908669102 -0.09717655 -0.4054048 0.9089575 149 149 149
0.0511682784023474 0.0323937686573328 0.000693299403687619 -0.2064944 -0.3579859 0.9106076 105 105 105
0.0471290405439213 0.0557316716374432 0.0108430679957415 -0.07105912 -0.4122908 0.9082769 106 106 106
0.014625146304213 -0.0454204101965907 -0.0348686343806388 -0.5300161 -0.1272336 0.8383881 126 126 126
0.0407776789656388 0.0367414254643703 0.00224489551759127 -0.08863534 -0.4147809 0.9055941 111 111 111
0.0228135249252597 0.0616698942707241 0.0423115678349049 0.4645608 0.8032887 0.372707 54 54 54
0.0495434174746132 0.0371978789853882 0.00283211705041497 -0.08461449 -0.4110797 0.907664 97 97 97
-0.0123583738729351 0.0463860203517112 0.0144292384920316 0.9620726 -0.2727124 -0.006657774 51 51 51
-0.0496911436361352 -0.0174546859071061 -0.0245625882865025 -0.09736665 -0.4059427 0.908697 113 113 113
9.40131197492144E-05 -0.0751003649534898 -0.026983684738707 -0.7542108 -0.6274988 -0.19342 82 82 82
-0.0479488309317028 -0.0307843572979958 -0.0288376986472026 -0.3277064 -0.8419336 0.4286681 79 79 79
-0.0170649202148572 0.0038649384934144 -0.0144339484209015 -0.0797657 -0.4082943 0.9093587 94 94 94
0.00447091560723323 0.0645345281698588 0.0145677573483241 0.02409081 -0.4557099 0.8898023 112 112 112
-0.0132188445084087 0.0176165213346939 -0.00788759314483611 -0.07160453 -0.4182302 0.9055144 98 98 98
0.0189497232475413 0.0689443159758751 0.0162159092347403 0.1460178 -0.2363541 0.9606329 76 76 76
-0.00556796107710344 0.0220613179299991 -0.0056787169170941 -0.07963878 -0.4090334 0.9090376 97 97 97
-0.00485189221617099 -0.043572111200274 -0.03463090612717 -0.08268044 -0.4161233 0.9055414 144 144 144
-0.0501171412753804 -0.0375759245013991 -0.0167600605068696 -0.3547041 -0.8306422 -0.4292068 52 52 52
-0.017437935531268 -0.0160842920541044 -0.0229351747175703 -0.09449188 -0.4032654 0.9101914 119 119 119
-0.0332698083502796 0.0227908632594707 0.0125543189857204 0.9651729 -0.2602808 -0.02636372 89 89 89
-0.059479294465171 -0.0327467489401789 -0.0122415762889499 -0.3447114 -0.7764918 -0.5274794 52 52 52
0.017226065444409 0.0574622654282957 0.0107760871708948 -0.09441489 -0.4064807 0.908768 90 90 90
-0.0439391606343594 0.00792345435888486 -0.00564228628385477 0.8553722 -0.5176185 0.02023578 50 50 50
0.0253925846592054 -0.0284664141035464 -0.0250695028134409 -0.7632198 0.2953538 0.5746839 57 57 57
0.0551698510076111 0.0345555002833196 0.00907845758470782 -0.8810664 0.4702455 0.05090408 53 53 53
-0.0579121683543065 -0.0347818833132993 -0.00506124914917644 -0.3544049 -0.723412 -0.5925136 64 64 64
0.0245863843791754 -0.016677496310991 -0.021842035143268 -0.09400272 -0.4061501 0.9089585 148 148 148
0.0286658889900898 -0.0223914254459587 -0.0052347303185582 -0.8128287 0.5824396 0.008574482 67 67 67
0.027193844964337 -0.0254675728613014 -0.0224949114651862 -0.8069505 0.3593439 0.4687247 119 119 119
0.00921298656988989 0.00435606774135855 -0.0130797275339772 -0.08764587 -0.422564 0.9020853 117 117 117
0.0253767235142461 0.0646976265398442 0.014124798546081 -0.05061186 -0.3763605 0.9250898 82 82 82
0.042269168951105 0.0370527736995199 0.00239948383695493 -0.09256493 -0.4066821 0.9088682 105 105 105
-0.0517503958824949 -0.00839654076270935 -0.0204722403209228 0.1242902 -0.4706855 0.8735028 102 102 102
-0.0103703852590556 -0.0424846833402328 -0.0343463537028212 -0.07823486 -0.4019679 0.9123054 133 133 133
0.0366209061950529 0.0121543639265909 -0.00866354622281068 -0.08429503 -0.4140776 0.90633 115 115 115
0.0126529704980751 -0.0540636564019803 -0.0280321771630621 -0.8443241 0.5213543 0.1237197 42 42 42
-0.0318948189694385 -0.0415377135123935 -0.0320606955038055 -0.374977 -0.870993 0.3174324 90 90 90
0.0529068939402874 0.0295095702595556 -0.000837438257350831 -0.4502313 -0.3160035 0.8351249 66 66 66
-0.0444712015414298 -0.0422583652105484 -0.0154226885356553 -0.4018722 -0.7329393 -0.5489068 38 38 38
-0.0234288375340399 0.035943561217239 0.00870736327046384 0.953413 -0.2836254 0.1027638 88 88 88
-0.0547370432462309 -0.0226296693742041 -0.0270052689630544 -0.2047898 -0.6459896 0.7353629 86 86 86
-0.0369401380167192 0.0189024376271465 -0.00803082637405683 0.4051033 -0.5682939 0.7161937 86 86 86
0.00848395293252246 0.062543633356859 0.0361683762294264 0.9717965 -0.2354037 -0.01402355 64 64 64
-0.0320742891789219 -0.0558088352453943 -0.015649737571126 0.1118501 -0.9673304 -0.2275115 64 64 64
0.00699701124867336 0.00109191585951884 -0.0144812497394659 -0.07650445 -0.4045858 0.9112943 168 168 168
-0.0518771203634227 -0.00409493393274341 -0.0184376311048392 0.5142667 -0.6086751 0.604189 100 100 100
-0.00686839510055626 -0.0573336321446603 -0.0372167807921815 -0.4124012 -0.8693866 0.2721988 72 72 72
-0.00409922193382928 -0.0300661289865292 -0.0287751716249181 -0.08325777 -0.4040205 0.9109531 188 188 188
0.0519216420082769 0.0539258804131715 0.0204394138835008 0.3598737 0.8347814 0.4166905 53 53 53
0.0418504607595203 0.0584536850585788 0.0284105658538192 0.4401356 0.8315877 0.3387368 26 26 26
0.00616318947807104 -0.0745533453905824 -0.0211854083074947 -0.917942 0.3642433 0.1571917 65 65 65
-0.0257099374106975 0.00977121851698581 -0.0117200003186483 -0.0740889 -0.4023311 0.9124914 102 102 102
0.0116352020600817 -0.0557485430207263 -0.0375180548674251 -0.8258578 0.2240617 0.5174507 50 50 50
-0.055561862445663 -0.0302907404783339 -0.0240260319298784 -0.3303677 -0.9181923 -0.2185867 59 59 59
0.0232653200551802 0.0326555235046802 -0.000140346322967722 -0.0874724 -0.4159741 0.9051598 149 149 149
0.00803717656578673 0.0639987024284374 0.0311362311294154 0.9745812 -0.2223582 -0.02735321 74 74 74
0.0195863259381542 -0.0133038675514017 -0.0205619565147642 -0.07295249 -0.409834 0.9092382 112 112 112
0.0153511513577665 -0.0183325162626695 -0.0228660965124121 -0.0863286 -0.4107809 0.9076378 123 123 123
0.00209666379960094 -0.0172380993662158 -0.0228043004031321 -0.08724493 -0.4097307 0.9080248 123 123 123
0.0171710799042406 0.0535617311917216 0.00908304346841526 -0.08170664 -0.4082503 0.9092061 99 99 99
0.00190368823136122 -0.0351670720694923 -0.0307637785643768 -0.08655033 -0.4111205 0.9074629 123 123 123
0.0109595236134072 -0.0554116900547572 -0.0328785924649102 -0.8318935 0.5248263 0.180307 45 45 45
0.0490058543360191 0.0230213661272662 0.0117500664966544 -0.831273 0.5554907 -0.02037605 55 55 55
0.00665222628111539 -0.06774414388209 -0.0275773436807895 -0.8141522 0.5514109 0.1819403 82 82 82
-0.0241724810532747 -0.0611567065885443 -0.0200947042504531 -0.2113311 -0.9430773 -0.2567964 52 52 52
-0.0232804473095936 0.0351543082515962 -8.72849773151385E-05 0.3008234 -0.5170056 0.8013804 95 95 95
0.00667807433026379 -0.0644541517081805 -0.0394328945813634 -0.8087404 -0.4413555 0.3887729 85 85 85
-0.0230089629587839 0.0333756157160494 0.0141064834577202 0.9709027 -0.2387905 -0.01808473 69 69 69
-0.0177891197979418 -0.0430464394428596 -0.0348669074834612 -0.1447608 -0.4635786 0.8741506 125 125 125
0.041410886571648 0.00690691919600095 -0.00535562909869464 -0.8151105 0.5450024 0.1963854 64 64 64
-0.0331418120384023 -0.0119159680858034 -0.0215236299243493 -0.09011894 -0.3981364 0.9128888 105 105 105
-0.0536857252178266 -0.0327457497652908 -0.022354001971377 -0.377583 -0.8312755 -0.4079366 41 41 41
0.0498384929380185 0.0238280083405007 0.0154373516032162 -0.8324993 0.5532759 -0.02882015 56 56 56
0.0571037852127136 0.0379721118698058 0.0157036545604367 -0.8332009 0.5528536 -0.0113699 66 66 66
-0.0263202034014294 -0.0280581893369447 -0.0284242181267019 -0.09255715 -0.4159852 0.9046488 134 134 134
-0.0315324607031925 -0.0538789842514313 -0.0146932116229819 0.1406469 -0.9654625 -0.2193184 49 49 49
0.0177029748027347 -0.0298561594342568 -0.0285497420460962 -0.08587155 -0.4008934 0.9120913 139 139 139
0.00796208732241765 -0.0571307078564134 -0.038813102143547 -0.5722607 -0.2840929 0.7692912 79 79 79
-0.0180715708291364 0.0343445498684167 0.0250865825830426 0.9680862 -0.247897 -0.0368251 79 79 79
0.0392963903404298 0.0561766825832226 0.0355940478801424 0.3788037 0.8438396 0.3800558 47 47 47
-0.0513755524041896 -0.0143682223981858 -0.0232474252934325 -0.07904579 -0.4058343 0.910522 119 119 119
-0.0133287075984255 0.0385744510285491 0.0291952125829481 0.9645768 -0.2612128 -0.03687104 74 74 74
-0.0217269555536724 0.0304807880459284 0.0257177041594668 0.9705479 -0.2365817 -0.04545199 86 86 86
-0.00999909399970356 -0.0159548546863741 -0.0225201805867173 -0.08005884 -0.3994737 0.9132422 159 159 159
-0.021643769196019 -0.00775965187879457 -0.0196730590415178 -0.09804267 -0.4066987 0.9082862 189 189 189
0.0616093473285422 0.0495076529944649 0.019069493529231 0.112286 0.6952896 0.7099044 64 64 64
-0.0236858274978449 0.0177318736123611 -0.00825444581759444 -0.08331715 -0.4065791 0.9098086 94 94 94
0.0190394244704591 0.067517173956279 0.0367268430764535 0.5380878 0.7433524 0.3973522 46 46 46
-0.0612332897821343 -0.0264365493555092 -0.0243182450114109 -0.4876115 -0.8694695 -0.07910666 61 61 61
-0.00941236568293546 -0.0703151304316731 -0.0243322583943655 -0.4100565 -0.8655243 -0.2876133 60 60 60
-0.00546655974992905 -0.0354204506119091 -0.0311252452757377 -0.08920461 -0.4050758 0.9099209 150 150 150
-0.0350478642222831 -0.0412533522906553 -0.0307413070139453 -0.4403272 -0.8857508 0.1468249 76 76 76
-0.0418663424580399 0.000386933269764134 -0.0163800846167375 -0.08379035 -0.4068154 0.9096595 123 123 123
-0.0211649883468282 0.0103911660081617 -0.0112946037620483 -0.09287863 -0.4076622 0.908397 89 89 89
-0.039454749648977 -0.0204543238130981 -0.0255081344814987 -0.08209832 -0.420433 0.9036016 151 151 151
0.0213131405102718 0.033601874449362 0.000295456580749254 -0.08176124 -0.4081777 0.9092337 174 174 174
-0.0260584562660057 0.0298049820422077 0.0156958547718451 0.9683798 -0.2472114 -0.03357179 81 81 81
0.0386629874174677 0.0010940843274283 0.000793743307201666 -0.8090758 0.5856127 0.04953899 64 64 64
0.0283886345217522 -0.0229245308913633 -0.0031073061428023 -0.8056646 0.5923718 0.0004031729 65 65 65
-0.00526473794515547 -0.0737340819488002 -0.0249098412216591 -0.4368987 -0.8471783 -0.3023383 71 71 71
0.0412878069255517 0.017036682857744 -0.0063688928398794 -0.1612092 -0.3787334 0.9113576 105 105 105
0.0206234979012621 0.0420123493765754 0.00377941949709426 -0.09079956 -0.414877 0.9053355 156 156 156
0.0499943511957341 0.031252049268534 9.44422257334598E-05 -0.1648663 -0.3749326 0.9122744 103 103 103
0.0320442777497082 -0.0147761815665972 -0.00376253190958492 -0.8175114 0.5757656 -0.01300018 59 59 59
0.041589955716564 0.0326348675043813 0.000438439880380503 -0.0910023 -0.4117033 0.9067629 119 119 119
0.0132503977879073 0.0638153996184783 0.0134186479732159 -0.07417538 -0.4177617 0.9055237 89 89 89
-0.0224516649221127 0.030418298801695 0.0242988257977546 0.9700972 -0.2385751 -0.04464768 91 91 91
-0.0340605346421888 -0.0327129779736739 -0.0305510726620346 -0.108222 -0.4138178 0.9039042 101 101 101
-0.026844112134669 -0.0130612634488909 -0.0220187603391092 -0.08110698 -0.4058549 0.9103315 122 122 122
0.00836518436928035 0.0454336469715524 0.00503555118786114 -0.09814446 -0.4068088 0.9082259 146 146 146
0.0501655287612395 0.0247041390053104 0.00260104772564551 -0.8647966 0.481731 0.1416408 59 59 59
0.0404727051045142 0.0609832350779183 0.0245927599231098 0.4883661 0.7904105 0.3697969 40 40 40
0.0468727337152524 0.0182999100933445 -0.00351588028609012 -0.8252161 0.3162537 0.4679766 58 58 58
0.0308370194312225 -0.0175380134858381 -0.021239421606619 -0.7083554 0.1918678 0.6792786 41 41 41
-0.0398366562676163 0.00758554064339001 -0.0131387510701563 -0.02480458 -0.440182 0.8975659 115 115 115
-0.0683192221538504 -0.0260735121936266 -0.0024502994442262 0.8453758 -0.5233906 -0.1067798 77 77 77
-0.0287533166193961 0.0291701439614176 -0.00286422519515933 0.4494324 -0.576875 0.6820746 102 102 102
0.00188076923282887 0.00456004027915768 -0.0131877307042831 -0.09446052 -0.4058579 0.9090416 117 117 117
-0.0172171348360212 -0.0601351164868995 -0.029170915883993 -0.4273399 -0.8922924 -0.1455847 78 78 78
0.0222657719136633 -0.034541011830397 -0.0266395358056608 -0.8733608 0.3572346 0.3310959 46 46 46
0.0362484073515822 0.0474561321327114 0.0066125840779655 -0.0933411 -0.4142579 0.9053606 105 105 105
-0.00882231912102427 0.0479148678151413 0.0210847897318746 0.9665862 -0.25348 -0.0381969 58 58 58
-0.01007631283156 0.0481665552761523 0.0164025465853861 0.9579885 -0.286271 -0.01751835 77 77 77
0.0432369341598529 0.0541555035805963 0.0327265977059981 0.4057088 0.8498526 0.336379 47 47 47
0.0133445644082931 0.0621653520801684 0.0127266538601824 -0.07166176 -0.4123408 0.9082069 99 99 99
0.0106629431103541 -0.0646423871833552 -0.0170900867198333 -0.8368934 0.5081887 0.2033562 62 62 62
0.056340153216762 0.0544321957441798 0.0104498087149852 -0.09734972 -0.4159726 0.9041514 103 103 103
-0.0340619373368397 -0.0257034651070862 -0.0276073617897221 -0.09984627 -0.4242813 0.900009 119 119 119
-0.0498000244375704 -0.00180742933254141 -0.00536778029116181 0.8855088 -0.4642465 0.01869422 66 66 66
0.0315169442948192 0.0663037191405809 0.0152441947949759 0.1376588 -0.1307209 0.9818157 70 70 70
0.045359441137693 0.0177479442814725 -0.0059668831693106 -0.5939487 -0.05087937 0.8028924 110 110 110
0.0396367020988698 0.0029694451057054 -0.00833960622649305 -0.8215782 0.4668009 0.3272708 33 33 33
-0.0433529074677519 -0.00542170709629786 -0.0191325715401482 -0.09345292 -0.4046602 0.9096795 115 115 115
-0.0631335682252721 -0.0185134335906183 -0.0137792977293901 0.9363284 -0.3375821 0.09657919 63 63 63
-0.00290736035826122 -0.0433034920938145 -0.0344692587522262 -0.08405773 -0.4184069 0.9043616 148 148 148
-0.000475658282568681 -0.0388298924746402 -0.0324825756069393 -0.1004409 -0.3998578 0.9110572 140 140 140
-0.0314232953277253 0.028023196912915 0.00396251997318714 0.9290652 -0.3412665 0.142741 109 109 109
-0.0438196697423434 0.00850699921316056 -0.0081545703669475 0.823529 -0.559418 0.09408253 67 67 67
-0.0532724692407434 -0.00548803658337538 -0.0146023725225057 0.8579565 -0.4906515 0.1522228 61 61 61
0.0500999879016002 0.0543431218237258 0.0236345764668109 0.351087 0.822482 0.4475056 44 44 44
-0.0192169555670794 0.0162617741660247 -0.00875923212942314 -0.07519017 -0.3962214 0.9150711 95 95 95
0.0263557729702421 0.0448354848284018 0.00570311086711395 -0.08815142 -0.4137246 0.9061243 149 149 149
0.016974378472885 0.022404311716385 -0.00487177456178434 -0.0932024 -0.4189141 0.9032299 87 87 87
0.0404784616713767 0.0603886976082828 0.0267852618474285 0.4906264 0.7816494 0.3851104 56 56 56
