ply
format ascii 1.0
comment File exported by Rhinoceros Version 7.0
element vertex 458
property float x
property float y
property float z
property float nx
property float ny
property float nz
property uchar red
property uchar green
property uchar blue
end_header
0.0500257305753058 -0.0130098661827036 -0.0211632069173032 -0.03097816 -0.5198072 0.8537217 164 164 164
0.04057956814821 -0.0142689788230612 -0.0221790027732689 -0.03309522 -0.5201908 0.8534086 180 180 180
0.0427460779665894 -0.0120219685096881 -0.020609877962648 -0.05596987 -0.5309468 0.8455548 178 178 178
0.040656765409016 -0.0114367940322058 -0.02052610069685 -0.03802052 -0.532003 0.8458884 241 241 241
0.0409487488362554 -0.00964338112471252 -0.0193305579938718 -0.0370101 -0.514436 0.8567297 235 235 235
0.0361657067955381 -0.0208183242845676 -0.0265857499825354 -0.0502505 -0.5165331 0.8547915 230 230 230
0.035352460359046 -0.019521582563963 -0.0252931495502727 -0.04514042 -0.5162466 0.8552495 216 216 216
0.0330535448187752 -0.0195346523578437 -0.0252288670786222 -0.03741848 -0.5085504 0.8602188 238 238 238
0.0281079757930471 -0.0203332785443882 -0.0260361541345765 -0.03271876 -0.5041974 0.8629684 245 245 245
0.0364836561395601 -0.0183805155595247 -0.0247825356260475 -0.03492488 -0.5139819 0.8570898 233 233 233
0.0385557081028178 -0.0180076510519218 -0.0241109743606138 -0.03685541 -0.5214431 0.8524898 226 226 226
0.0385261752568407 -0.0171408046274937 -0.0242275252045868 -0.03375426 -0.5203356 0.8532945 212 212 212
0.0393931559695702 -0.0159891317149956 -0.0233038594604676 -0.03365031 -0.5218203 0.8523915 233 233 233
-0.100357745772274 0.0434421494696287 0.0105064020319862 -0.03440024 -0.5191868 0.8539682 140 140 140
0.0320156937371823 -0.0173416342059238 -0.0239974363888721 -0.04160022 -0.5113484 0.858366 225 225 225
0.0292931220328336 -0.0177344164245392 -0.0243649287400087 -0.05354431 -0.5157797 0.8550464 245 245 245
0.0286142144746493 -0.0167250702025161 -0.0236948272124109 -0.05582086 -0.5185225 0.85324 136 136 136
0.0304941131861094 -0.0157959347024317 -0.023019841065429 -0.04711542 -0.5197835 0.8529978 149 149 149
0.0376043265897192 -0.0143935766779122 -0.0221829153332235 -0.03332999 -0.5287648 0.8481137 239 239 239
0.0388684233881795 -0.0129036973423486 -0.0212515088045325 -0.03190441 -0.52944 0.8477472 234 234 234
0.0363853712221949 -0.0130546537276581 -0.0215007260007702 -0.02222575 -0.5239725 0.8514452 237 237 237
0.0348931608147449 -0.0115202643482959 -0.0205446868404098 -0.03353201 -0.5367322 0.8430861 150 150 150
0.032524109282539 -0.0136212057213732 -0.0216632228216553 -0.0515382 -0.5249274 0.8495852 187 187 187
0.028311366448361 -0.0125562864480262 -0.0213443392438071 -0.03949999 -0.5195351 0.8535357 124 124 124
0.0348950202960276 -0.00909028037173276 -0.0190039846892676 -0.03093266 -0.5310514 0.8467748 118 118 118
0.0315321035012888 -0.00922575872678899 -0.0195225662320921 -0.02481494 -0.5249307 0.8507832 125 125 125
0.0210628426835293 -0.0472196305256523 -0.0421296685179811 -0.04615807 -0.5191374 0.8534434 88 88 88
0.0246823389928643 -0.0448742590588853 -0.0405882858848768 -0.04371886 -0.5196801 0.8532416 114 114 114
0.0217814496714817 -0.0464739247068053 -0.0417852954776509 -0.03743882 -0.522458 0.8518428 111 111 111
0.0227320642512643 -0.0457319216081573 -0.0413485340362078 -0.03961364 -0.5222264 0.8518863 134 134 134
0.0231139286661262 -0.0449587287886259 -0.0406903882414392 -0.02238218 -0.5204675 0.853588 121 121 121
0.0167356818095818 -0.0437465293493651 -0.0404845197491742 -0.05064808 -0.5247256 0.8497634 229 229 229
0.0110749894253095 -0.0463574858857527 -0.0416716187409947 -0.04387176 -0.5269069 0.8487899 238 238 238
0.00969866772890882 -0.0443499515300181 -0.0405825147471917 -0.03632917 -0.5125031 0.8579165 176 176 176
0.0117947881678404 -0.0434110719274408 -0.0402081722133991 -0.02606965 -0.5177765 0.8551186 125 125 125
0.00725870642974291 -0.0477374686067147 -0.0428300339697784 -0.02713528 -0.5166649 0.8557576 240 240 240
0.00715813344204541 -0.0461926955445779 -0.0417665318123078 -0.04027704 -0.5172274 0.8548998 236 236 236
0.00569840489546047 -0.0470367220257679 -0.0422853671229826 -0.03384467 -0.5226099 0.8518999 223 223 223
0.00538144841125154 -0.0456989441197497 -0.0416263433241681 -0.03887781 -0.5213904 0.8524321 238 238 238
0.00696767818445698 -0.0441903995234991 -0.0409288759057953 -0.04837615 -0.5205094 0.8524845 215 215 215
0.00343346440642867 -0.0450815728810616 -0.0412834867726459 -0.02856517 -0.5284268 0.8484982 230 230 230
0.00310029480798368 -0.0441228105809559 -0.0405198136905501 -0.0419825 -0.5282376 0.848058 232 232 232
0.00527271521557005 -0.0430811850510311 -0.0401950680756823 -0.0413604 -0.5252705 0.8499296 221 221 221
0.0255948621326336 -0.0423896355522202 -0.0393498807976472 -0.03553047 -0.5285646 0.8481492 113 113 113
0.0230797546110209 -0.0416241167816118 -0.03871801819879 -0.03436766 -0.544733 0.837905 173 173 173
0.0210061448124996 -0.0417955523394027 -0.0390047136915118 -0.03570562 -0.5324514 0.8457072 186 186 186
0.0230242810236096 -0.0400907369948256 -0.0376596499926091 -0.0423045 -0.5342333 0.8442779 193 193 193
-0.0717685223457916 -0.00187876689111488 -0.0165376564612477 -0.04110982 -0.514987 0.8562117 140 140 140
0.0216577837738985 -0.0397031300396564 -0.0377616231260752 -0.03230541 -0.5215794 0.8525909 198 198 198
0.0193646435963313 -0.0429178710265947 -0.0396948787536848 -0.05491623 -0.5271611 0.847989 215 215 215
0.0201697533544052 -0.0409885941391841 -0.0384264338537573 -0.04496676 -0.5347936 0.8437854 236 236 236
0.0213801921837016 -0.0386166489337594 -0.0373775067806988 -0.03267959 -0.5260422 0.8498304 232 232 232
0.0175094857036835 -0.0384089525466638 -0.0371275129009684 -0.04232708 -0.5262589 0.8492702 230 230 230
0.018227341025371 -0.0373905976472575 -0.0369516249457471 -0.0405333 -0.518675 0.8540101 229 229 229
0.0239574523416874 -0.0369202592496467 -0.0363252873231895 -0.03066476 -0.5343081 0.8447334 221 221 221
0.0230953987492963 -0.0373522229879308 -0.0364646861711425 -0.02737754 -0.5348302 0.8445159 232 232 232
0.0221320603672495 -0.0346225336546309 -0.0346408477173518 -0.01713439 -0.5142066 0.8574952 233 233 233
0.0270097433353302 -0.0341959893189976 -0.0343576816322945 -0.03887551 -0.5176301 0.8547209 238 238 238
0.0255633042798173 -0.0346908796265564 -0.0347674951804172 -0.03815208 -0.5227523 0.8516304 241 241 241
0.0237771551678807 -0.0325737149171847 -0.0333392025740095 -0.02842498 -0.5128889 0.8579842 239 239 239
0.0206772351002322 -0.037576932157499 -0.0362144225593751 -0.0172405 -0.5315589 0.8468458 226 226 226
0.019632129259636 -0.0360377594869203 -0.0354247000020438 -0.01483862 -0.5139555 0.8576885 241 241 241
0.0178168299858923 -0.0367336758749599 -0.0358622426565263 -0.04000766 -0.5211177 0.8525466 233 233 233
0.0111202506730881 -0.0423830061180719 -0.0392642898608137 -0.02664703 -0.5168713 0.8556483 129 129 129
0.0095101383868097 -0.0396346734178326 -0.0378275775876376 -0.03094267 -0.5129563 0.8578569 107 107 107
0.00762208471951098 -0.0423292809019271 -0.0394875889607588 -0.04594327 -0.512453 0.8574854 180 180 180
0.00729116014023212 -0.0411437693682029 -0.0382578125979599 -0.04756138 -0.5120343 0.8576472 188 188 188
0.00605867641499369 -0.042630546049248 -0.0395278487324766 -0.04651143 -0.5165617 0.8549858 236 236 236
0.00532639600546947 -0.0396085658882728 -0.0380244014362437 -0.04683073 -0.5061204 0.8611905 196 196 196
0.0085914403838161 -0.0375061599923452 -0.0366203886072118 -0.04076928 -0.5282859 0.8480872 102 102 102
0.0137673754394609 -0.034650245328359 -0.0347865996751328 -0.02796027 -0.5160704 0.8560897 124 124 124
0.00766691325399771 -0.0360943592998908 -0.0355023097986178 -0.03578535 -0.51841 0.8543831 118 118 118
0.00588313934609497 -0.0356086513193736 -0.0354349768576094 -0.03345464 -0.5079323 0.8607471 132 132 132
0.00346045539164708 -0.0355725101423765 -0.0354413781683621 -0.04472578 -0.5055082 0.8616619 100 100 100
0.0715465831341415 0.0666687207485057 0.027067583096224 -0.03517041 -0.520291 0.8532645 192 192 192
0.00663373499070552 -0.0341721847629461 -0.0345421413176535 -0.03216675 -0.5156168 0.8562153 129 129 129
0.00534762401728495 -0.0322245379479944 -0.0330911100782921 -0.03222642 -0.5226938 0.8519112 113 113 113
0.00435869898770136 -0.0315953591555913 -0.0330500564854892 -0.03317539 -0.5297006 0.8475356 114 114 114
0.000986174941124851 -0.0479498455608964 -0.0429165028777128 -0.03057229 -0.5216203 0.8526298 120 120 120
-0.00303341100957555 -0.0471020366861559 -0.0424946147524519 -0.04501598 -0.5195391 0.85326 113 113 113
-0.00270966868509337 -0.0473555000512031 -0.0425343908160289 -0.05188917 -0.5146497 0.8558289 118 118 118
0.00128447630132289 -0.0429833457762587 -0.0403197298750113 -0.02848836 -0.5316107 0.8465096 224 224 224
-0.00875430233428176 -0.0460877857613236 -0.0422211040236558 -0.04624517 -0.5166581 0.854942 102 102 102
-0.00439326749925995 -0.0433711243947652 -0.0402955999007426 -0.03222587 -0.5226874 0.8519151 115 115 115
-0.00764201381160889 -0.0430140276389122 -0.0400203766821299 -0.04077271 -0.516651 0.8552247 106 106 106
-0.0171156838126274 -0.0474280852824778 -0.0431251662555546 -0.01249674 -0.5187258 0.8548493 96 96 96
-0.0110618616515201 -0.0471489939778778 -0.0428464871002588 -0.04476432 -0.5169101 0.8548684 119 119 119
-0.0118712682957414 -0.0450487928284979 -0.0415616481629644 -0.04713442 -0.5131287 0.8570165 107 107 107
-0.00916712486602611 -0.0440774711422884 -0.0408766436594236 -0.04693217 -0.5133545 0.8568924 115 115 115
-0.0110426693524026 -0.0423162583128924 -0.0397448127532138 -0.04866669 -0.5119624 0.8576281 131 131 131
-0.0112609149200775 -0.0439844077848595 -0.0407072717436311 -0.04624001 -0.5077788 0.8602456 135 135 135
-0.0132182044510576 -0.0435815894233818 -0.0407333316136295 -0.03715028 -0.5072464 0.861 103 103 103
-0.0145699256405236 -0.0438243890326031 -0.0406610269553733 -0.02861656 -0.5073367 0.8612726 125 125 125
-0.0124657242374293 -0.0422575524274784 -0.0396974476791484 -0.043535 -0.5137721 0.8568214 131 131 131
-0.0992147926159865 0.0997458404225451 0.0532385694586672 0.02603691 0.7968853 0.6035693 102 102 102
-0.0146812172035573 -0.0451446525530104 -0.0414606237081725 -0.02325057 -0.5055718 0.8624712 133 133 133
-0.0185936321799587 -0.0463896452177652 -0.04233861951634 -0.01539747 -0.5165212 0.856136 119 119 119
-0.0194422269183692 -0.0444203960771044 -0.0403915015626485 -0.03058294 -0.5218214 0.8525064 171 171 171
0.001593721924666 -0.0416105283992252 -0.0389264751687409 -0.04380564 -0.5222346 0.851676 234 234 234
-0.000833570216380419 -0.0415359965232731 -0.0393355326610081 -0.02535882 -0.5159404 0.856249 223 223 223
-0.00225020769315298 -0.0401989831261356 -0.0384608629064041 -0.02574516 -0.5202752 0.8536105 222 222 222
-0.00454074061084508 -0.0396424857861808 -0.0378006498651538 -0.03691475 -0.5174518 0.8549157 236 236 236
-0.00807421104679396 -0.0414465223706431 -0.0392430094729628 -0.04190691 -0.5275849 0.848468 126 126 126
-0.00622429644549749 -0.0412272255748802 -0.0388657673424506 -0.02904068 -0.5294644 0.8478349 204 204 204
-0.00836881856064409 -0.0405086098717782 -0.038633935304009 -0.03868678 -0.532524 0.8455303 132 132 132
-0.00306974910879543 -0.0389756690188858 -0.0374562814093051 -0.03465297 -0.518212 0.8545499 232 232 232
0.00121896741348504 -0.0385534140211814 -0.0373707794125999 -0.02572356 -0.507052 0.8615316 218 218 218
0.00211858689349897 -0.0380214397133083 -0.0369416105313584 -0.03893394 -0.4993035 0.8655519 195 195 195
0.0029157463050038 -0.0369025361733935 -0.0365732192746502 -0.047381 -0.5089582 0.8594862 87 87 87
-0.000570894274753986 -0.0378343191370123 -0.036857600898982 -0.03414477 -0.5178552 0.8547866 211 211 211
-0.00204427951090347 -0.0378385218507697 -0.0371013426178026 -0.02630362 -0.5129903 0.8579913 234 234 234
-0.000125138993446239 -0.0332622907544575 -0.0341209718174614 -0.03587547 -0.5092487 0.8598713 139 139 139
0.00180769306928363 -0.0310495713303494 -0.0327807865130187 -0.03827464 -0.5240095 0.850852 112 112 112
-0.00029109380616843 -0.031639168249459 -0.0330622808084396 -0.03947205 -0.5199208 0.853302 137 137 137
-0.00443904261859007 -0.0335320255211864 -0.0342007097250548 -0.03904756 -0.5120652 0.8580586 112 112 112
-0.00750452740080121 -0.0329397944964216 -0.0338694554795567 -0.03883218 -0.5189546 0.8539193 175 175 175
-0.00870237055409939 -0.0387532097232068 -0.037521709352499 -0.04342011 -0.5254836 0.849695 138 138 138
-0.0106703144763163 -0.040003949562351 -0.0383847191199438 -0.04640785 -0.5266925 0.8487881 119 119 119
-0.012273939514055 -0.0413564259412404 -0.0391370321339951 -0.04037482 -0.523059 0.8513396 131 131 131
-0.0126662124690711 -0.0398496648755882 -0.0384591149976925 -0.04504542 -0.5274975 0.8483616 113 113 113
-0.0103959038611201 -0.0389270490101346 -0.0377376172967714 -0.0372646 -0.5149047 0.8564371 130 130 130
-0.0147714068108202 -0.0400133748075711 -0.0384127136483212 -0.053297 -0.5332546 0.8442742 135 135 135
-0.0188112316486859 -0.0398705627217733 -0.0383432283900357 -0.03873921 -0.5458388 0.8369942 134 134 134
-0.0194666957735579 -0.0385886117443932 -0.0378169189873337 -0.03524413 -0.5290045 0.8478868 116 116 116
-0.0139850219907629 -0.037929196353397 -0.0372242935842884 -0.05806874 -0.5136303 0.8560444 83 83 83
-0.0161687420482139 -0.0377424783859217 -0.037073264057514 -0.05487021 -0.5191343 0.8529296 134 134 134
-0.0170668244164154 -0.0356559269310037 -0.0360774746871534 -0.05466555 -0.5071933 0.8600969 128 128 128
-0.0182059178670988 -0.0357895833485158 -0.0359106881202403 -0.06298658 -0.5109401 0.8573056 120 120 120
-0.0141079284162746 -0.0347934398441263 -0.0350741712634091 -0.05338239 -0.5189005 0.8531662 116 116 116
-0.0160542401354262 -0.0345241388440383 -0.0351255308144522 -0.04018134 -0.5218351 0.8520995 122 122 122
-0.0367926895533905 -0.0391719516622331 -0.0382381758757546 -0.04594632 -0.500297 0.8646339 118 118 118
-0.0158765344123704 -0.0336275247180646 -0.0346755348573233 -0.04563477 -0.5213628 0.852114 120 120 120
-0.0147502370935899 -0.0332163650286756 -0.0342300710380957 -0.04697576 -0.5365829 0.8425391 124 124 124
-0.0178453478551335 -0.0310564325655613 -0.0329716277317814 -0.02830696 -0.5182644 0.8547519 123 123 123
0.0257000009907582 -0.0300616204910917 -0.0320113910615203 -0.03062878 -0.5072675 0.8612442 230 230 230
0.0246597681923388 -0.0300055535610364 -0.031777153487543 -0.0275651 -0.5055031 0.8623844 248 248 248
0.0199208474215711 -0.0299358737001292 -0.0317944351023742 -0.04074558 -0.5139011 0.8568812 185 185 185
0.0161188095911284 -0.0313874524518316 -0.0329418972749712 -0.03484365 -0.5210376 0.8528222 130 130 130
0.0261068757055454 -0.0282368729608129 -0.0310016715571078 -0.02971146 -0.5185652 0.8545217 228 228 228
0.0228592512048045 -0.0268786739982272 -0.0296507588701806 -0.03000904 -0.5252389 0.8504255 215 215 215
0.0180627043045205 -0.0260111574370439 -0.0296867290210409 -0.03726013 -0.5280147 0.8484175 198 198 198
0.0236460494972013 -0.0255584369678541 -0.029094710363247 -0.03244657 -0.5192727 0.8539924 230 230 230
0.0223992311288024 -0.0252520633212678 -0.0288425804581245 -0.03140191 -0.5208145 0.8530921 226 226 226
0.0238464760721984 -0.023766334837289 -0.0280825787009724 -0.02785113 -0.5248047 0.8507669 187 187 187
0.0231151820745539 -0.0239211429530566 -0.0285290805428416 -0.03400037 -0.5222558 0.8521108 186 186 186
0.0263098764316978 -0.022634569496788 -0.0275492722904147 -0.0224132 -0.525795 0.8503159 230 230 230
0.0246605075864306 -0.0220102784950671 -0.027136845138605 -0.03198632 -0.5273581 0.8490409 135 135 135
0.016115514822999 -0.026409199950024 -0.0299135143588188 -0.02166319 -0.5231072 0.8519915 132 132 132
0.0193565839880034 -0.0243234624260142 -0.0285250575295287 -0.04887333 -0.5196449 0.8529834 217 217 217
0.0190395423994736 -0.0231826846065042 -0.0280209017190426 -0.04464174 -0.5199128 0.8530521 216 216 216
0.0206085674509873 -0.0224929988700922 -0.0274255535624074 -0.03596615 -0.524107 0.8508926 218 218 218
0.0163328920438168 -0.022790552148066 -0.0273810309308132 -0.02806886 -0.5236508 0.8514705 227 227 227
0.0177319994583418 -0.0211834947947207 -0.0265699364428935 -0.04339875 -0.513142 0.8572058 217 217 217
0.0072441451162355 -0.0285898447597608 -0.0314075573472303 -0.04523223 -0.5281296 0.8479582 124 124 124
0.00797165209720596 -0.0255762202390941 -0.0294380677846056 -0.045294 -0.5192875 0.8533985 116 116 116
0.00614194952928893 -0.0238766144844345 -0.0288079129345701 -0.03933868 -0.512881 0.8575579 102 102 102
0.00666076312050823 -0.0240432559877073 -0.0283363255280399 -0.03882683 -0.5135184 0.8571997 111 111 111
0.0101695794022167 -0.0206729185281334 -0.0262157836243991 -0.03229526 -0.5262336 0.8497266 122 122 122
0.00977625900528789 -0.0196854432084939 -0.0258078612822796 -0.02551439 -0.5294914 0.8479316 122 122 122
0.00577954151454918 -0.0207131669641736 -0.0262119301883001 -0.02636821 -0.5190821 0.8543176 138 138 138
0.0268070658097863 -0.0202179249116079 -0.0258702255938685 -0.03764874 -0.5076594 0.8607349 173 173 173
0.0239555851801692 -0.0189195522634542 -0.0255675544715059 -0.0289824 -0.5169149 0.8555461 127 127 127
0.0267316928176613 -0.0165502591631832 -0.0236227917847532 -0.04047868 -0.523992 0.8507608 143 143 143
0.0244353855220054 -0.0174954680111339 -0.0242234148190155 -0.03872605 -0.521306 0.8524907 135 135 135
0.020960130019946 -0.0159160088531922 -0.0235175550940797 -0.04141216 -0.5230051 0.8513229 142 142 142
0.0241949460418431 -0.0105715738278138 -0.0203508977036683 -0.04110182 -0.5052056 0.8620197 121 121 121
0.01946598589047 -0.0137254126297279 -0.0222596856554759 -0.0390877 -0.5175185 0.8547788 146 146 146
0.0203092929507429 -0.0124421774353114 -0.0214294235761157 -0.04398036 -0.512422 0.8576068 127 127 127
0.0172325849927879 -0.0133572535776598 -0.0223039157173459 -0.03937934 -0.5146828 0.8564758 133 133 133
0.018128416863278 -0.0114961334207253 -0.0205661982828839 -0.04226195 -0.5192931 0.8535506 113 113 113
0.0123543761537643 -0.0188276781924845 -0.0253403388137668 -0.04877828 -0.5282091 0.8477121 119 119 119
0.0148166883190375 -0.0140965870632088 -0.0227907179355086 -0.03653788 -0.5177559 0.8547478 105 105 105
0.0133632859952564 -0.0142406280481875 -0.0224808285706842 -0.0341955 -0.5165949 0.8555468 143 143 143
0.00670927564723023 -0.0155730658232294 -0.0233793719209637 -0.02270352 -0.5196757 0.8540619 117 117 117
0.0093098438924093 -0.014281371169931 -0.0231659977516008 -0.03109643 -0.5051502 0.862471 137 137 137
0.00735870006252437 -0.0145732148214321 -0.0226481436713474 -0.03002299 -0.5054207 0.8623506 134 134 134
0.0140607244196924 -0.0110374340113084 -0.020789515873215 -0.03247103 -0.5215505 0.8526023 125 125 125
0.0124644983189373 -0.0134548110625938 -0.0220171067564429 -0.02855959 -0.5126855 0.8581014 131 131 131
0.0149364156076315 -0.0104380587117467 -0.0204286504600822 -0.02701821 -0.5189035 0.8544058 131 131 131
0.00877266325346504 -0.013576514147809 -0.0222153048995604 -0.02829533 -0.4903236 0.8710811 123 123 123
0.00811544585204782 -0.0120729025318012 -0.0213147052350391 -0.02659264 -0.5114534 0.8588994 116 116 116
0.00602893378970393 -0.0136546369238231 -0.0221786506595644 -0.02763327 -0.4981943 0.866625 129 129 129
0.00867114655344592 -0.00965283352399871 -0.0197217510632922 -0.02322534 -0.5199404 0.8538867 133 133 133
0.0024722485459634 -0.0293964573596668 -0.0318846539721311 -0.03723619 -0.5272955 0.8488657 94 94 94
-0.00336549139390874 -0.030437491345765 -0.0325677383354865 -0.04151668 -0.5291319 0.8475233 116 116 116
-0.00819895640219315 -0.0300468894445209 -0.0324810462552617 -0.05706158 -0.5265422 0.8482319 109 109 109
-0.000395270072269582 -0.0284685810517038 -0.0312066061285663 -0.03894164 -0.5243315 0.8506233 104 104 104
-0.00439841359717397 -0.0283736144898392 -0.0311398263411043 -0.04642251 -0.5246102 0.8500759 124 124 124
0.00245578051925843 -0.0231501960960885 -0.0280913349778685 -0.03904657 -0.5101526 0.8591971 110 110 110
0.00401953225782981 -0.020924982978153 -0.0266237476883967 -0.02992723 -0.5220643 0.8523809 100 100 100
0.00353586187424648 -0.0205818111038307 -0.02636391398417 -0.02291542 -0.522194 0.8525188 123 123 123
-0.0012244355889508 -0.0215756748243634 -0.027001755558819 -0.03730939 -0.5220894 0.8520744 117 117 117
-0.00598769500260987 -0.0226971297293024 -0.027908078736758 -0.03213669 -0.5274799 0.8489594 120 120 120
-0.00313262071570364 -0.0215362136635946 -0.0270982013519505 -0.04547818 -0.5300807 0.8467267 135 135 135
-0.00389932787618053 -0.0204626202117533 -0.0265600808348323 -0.05355129 -0.5239584 0.8500587 129 129 129
-0.00772176073587705 -0.0212151284860029 -0.0269628127835684 -0.0391631 -0.5329487 0.8452408 115 115 115
-0.00615667674827725 -0.0202056685590781 -0.0265706702308236 -0.03903565 -0.5194639 0.8536003 117 117 117
0.00207435743228723 -0.0193748210656095 -0.0259347883136682 -0.04182668 -0.5280697 0.8481703 118 118 118
-0.0103702865989392 -0.0286926101564617 -0.0316257262342828 -0.05468429 -0.5116746 0.8574373 127 127 127
-0.0137160864584751 -0.0274563955304916 -0.030902138763813 -0.04015405 -0.5054009 0.8619499 122 122 122
-0.00818459296160823 -0.0247041057685171 -0.029067986385807 -0.02829211 -0.5201943 0.8535792 126 126 126
-0.0139981268194207 -0.0261955665543994 -0.0300277697622856 -0.04521652 -0.4872256 0.8721048 119 119 119
-0.0196661989017222 -0.028200787699348 -0.0315277780459382 -0.0141635 -0.5230271 0.8521984 125 125 125
-0.0185008041391499 -0.0277125494517059 -0.0309184284799622 -0.02018583 -0.5174132 0.8554976 140 140 140
-0.0148870254507014 -0.0249652379719043 -0.0292000504714 -0.04358041 -0.5048259 0.8621203 150 150 150
-0.0146078616814429 -0.0244035950188513 -0.0294060667503476 -0.04214428 -0.5089365 0.8597718 124 124 124
-0.0118918255088869 -0.0230297233035124 -0.0279518584175635 -0.0402696 -0.5198142 0.8533297 127 127 127
-0.00915547617618317 -0.0202593588745554 -0.0266361205025007 -0.02614721 -0.5322027 0.8462131 136 136 136
-0.0161684546357073 -0.0234806706287154 -0.0286337460742798 -0.04000796 -0.514708 0.8564316 133 133 133
-0.0178498726532248 -0.0234069176864555 -0.0287950612788631 -0.02744477 -0.5128355 0.8580481 201 201 201
-0.107038782902371 0.0759788710184266 0.029905123338635 -0.0342052 -0.5173509 0.8550895 135 135 135
-0.0194375814133867 -0.0218316218150838 -0.027597098769253 -0.0485906 -0.5172579 0.8544491 216 216 216
-0.0195168994349855 -0.0202543833072819 -0.026766868395601 -0.04760421 -0.5141675 0.8563677 215 215 215
-0.0173417376830041 -0.0184334060580962 -0.0255685209618741 -0.04069876 -0.527099 0.8488288 222 222 222
0.00276382920692386 -0.0179539106328279 -0.0250390800492206 -0.01986117 -0.5286584 0.8486023 106 106 106
0.00290480431512519 -0.0166616627396541 -0.0240630601729487 -0.03592954 -0.5188242 0.8541256 120 120 120
0.00404188413568862 -0.014527768745684 -0.0232640582077789 -0.02406935 -0.5034889 0.8636664 124 124 124
-0.00338468106099032 -0.017247086882386 -0.024767132363496 -0.04279739 -0.5219033 0.8519303 123 123 123
-0.00120154949790097 -0.0164011185692059 -0.0240085580932778 -0.02670995 -0.5203828 0.8535153 128 128 128
-0.00661120879544308 -0.012778398404987 -0.0220983505218304 -0.02528159 -0.5307971 0.8471217 150 150 150
0.00472918135487577 -0.0130874545386388 -0.021888070924677 -0.03224284 -0.5061997 0.8618134 120 120 120
0.000175153806065698 -0.0115589703639671 -0.0212511181639586 -0.04105266 -0.5149162 0.856257 126 126 126
-0.00604135619444435 -0.0124857709124548 -0.0217666950107275 -0.03020259 -0.5227729 0.8519368 168 168 168
-0.00720024719970702 -0.0114653474723749 -0.0211019156249957 -0.05470685 -0.5211963 0.8516816 185 185 185
-0.00748731879921261 -0.0182262400901867 -0.0256500007085442 -0.04597082 -0.5199902 0.8529342 135 135 135
-0.00931740342872578 -0.0177598553078662 -0.0248647198312405 -0.02837183 -0.5220089 0.852468 140 140 140
-0.0111756694753082 -0.0161732302061874 -0.0239416555182795 -0.04686071 -0.5127311 0.8572694 121 121 121
-0.0148592205635958 -0.0179995989583097 -0.0249512354165623 -0.03643866 -0.5482294 0.8355338 141 141 141
-0.0134584440364964 -0.0160987832285695 -0.0239070795036481 -0.03828719 -0.517186 0.8550162 126 126 126
-0.0160592449312245 -0.0153690300177165 -0.0234752700343628 -0.03310421 -0.5541964 0.8317274 136 136 136
-0.0129876725402731 -0.0123236413544898 -0.0228637355950347 -0.05753827 -0.5221819 0.850891 143 143 143
-0.00986351266740071 -0.0120252310334297 -0.0215915886893982 -0.05307411 -0.5291813 0.8468472 118 118 118
-0.0165535725880002 -0.00987559204888488 -0.0204657762006411 -0.03358937 -0.5079797 0.8607139 164 164 164
0.0212074570381455 -0.00854837150024901 -0.0189921972954916 -0.03826737 -0.5150858 0.856284 148 148 148
0.0109505235203025 -0.00987429548761809 -0.0198599841783188 -0.03129151 -0.5124425 0.8581512 127 127 127
0.00935087414679803 -0.00830072892859879 -0.0191249117047322 -0.02572239 -0.524735 0.8508769 143 143 143
0.00686588158726753 -0.00928116657068978 -0.019481764843173 -0.03320452 -0.5263518 0.8496183 125 125 125
0.00306771975933851 -0.00784031409853414 -0.0187629798398272 -0.04258637 -0.520202 0.8529809 226 226 226
0.00314318481767906 -0.00702027497504476 -0.0185253937491313 -0.04606561 -0.5188844 0.8536023 222 222 222
0.000897164968508335 -0.00911364978572204 -0.0196289117286432 -0.047283 -0.5212659 0.8520834 236 236 236
-0.0796620840714768 -0.0365597776440834 -0.0374332549430694 -0.03524451 -0.5208265 0.8529347 87 87 87
-0.000879329747402124 -0.00896852709747042 -0.019555780441297 -0.04819322 -0.5143615 0.8562182 230 230 230
-0.000487657648081008 -0.00765216774559807 -0.0186147535025542 -0.04615945 -0.5250241 0.8498347 211 211 211
-0.00219766066697336 -0.00885377641672713 -0.019440305818973 -0.04503182 -0.5162278 0.8552666 225 225 225
-0.00521202360203432 -0.00853996264177304 -0.0195422922079918 -0.03547555 -0.5155209 0.8561423 187 187 187
-0.00668387586160657 -0.00848955633811688 -0.0194190745032845 -0.03807746 -0.5213942 0.8524659 196 196 196
-0.00283771325490001 -0.0069386914833125 -0.0183689546400357 -0.03856164 -0.5178655 0.8545925 161 161 161
-0.00690577961718564 -0.00732934572727451 -0.0192056365673141 -0.03980448 -0.521855 0.852105 178 178 178
0.0595413062206451 0.110225573655311 0.0540086154002981 0.1600676 0.4750785 0.8652623 80 80 80
-0.00905723144367565 -0.00774548614764936 -0.0190246127748206 -0.0274959 -0.5212216 0.8529783 211 211 211
-0.00937168135942779 -0.00650264252008359 -0.0181612803404843 -0.02644358 -0.5162087 0.8560545 159 159 159
-0.0145569550314786 -0.00762398436798395 -0.0188638723353863 -0.05175026 -0.5025082 0.8630223 226 226 226
-0.021638244947999 -0.0485143320522776 -0.0434953532206895 -0.04251888 -0.5055457 0.8617515 109 109 109
-0.0232459779385144 -0.0481266403546048 -0.0433520437659946 -0.04485778 -0.5139759 0.856631 123 123 123
-0.0265847112189093 -0.0477028744927799 -0.0430810396409824 -0.02349051 -0.5158557 0.8563534 114 114 114
-0.0305720455354712 -0.0469678463106229 -0.0426447436568676 -0.0322813 -0.5216091 0.8525737 104 104 104
-0.0266125741158154 -0.0457115436819193 -0.0419025405014252 -0.0243139 -0.5134174 0.8577945 121 121 121
-0.0209393059399234 -0.0434265005295638 -0.0404681440597627 -0.03802904 -0.5300844 0.8470917 134 134 134
-0.0222830745485707 -0.0438654723839025 -0.040852773690407 -0.04725223 -0.5207812 0.8523815 124 124 124
-0.0246176030185161 -0.0417372722522504 -0.0395402551783088 -0.02859379 -0.5376422 0.8426881 118 118 118
-0.0262595701030315 -0.0429104477581321 -0.0402914743847594 -0.02667064 -0.5247546 0.8508356 119 119 119
-0.0365557050492513 -0.0456627227833619 -0.0421694320179744 -0.04593373 -0.5204977 0.8526267 118 118 118
-0.0318926665581274 -0.0406110678375358 -0.0391215096502722 -0.03798532 -0.5084797 0.8602358 130 130 130
-0.034381791100659 -0.041603457376749 -0.0395750634299841 -0.04429015 -0.5098027 0.8591505 126 126 126
-0.034751773514718 -0.0403770442181826 -0.0389321770234731 -0.04813074 -0.5031775 0.8628417 128 128 128
-0.0397254268904748 -0.0451360497531188 -0.0417422540197041 -0.02734623 -0.5174195 0.8552948 131 131 131
-0.0411868929097734 -0.0457012616109589 -0.0421058263924444 -0.02335225 -0.5176583 0.8552687 122 122 122
-0.038715332556492 -0.0430956374303075 -0.0406463894429755 -0.04010537 -0.5190737 0.8537881 119 119 119
-0.043168436797246 -0.0441932597017463 -0.0415304759480343 -0.03422916 -0.5187455 0.8542432 123 123 123
-0.0403343366886149 -0.0419445185347844 -0.0401276618894239 -0.02538302 -0.5129036 0.8580709 150 150 150
-0.0404052560338761 -0.0405187948806676 -0.0393735186708399 -0.02971896 -0.5165083 0.8557662 147 147 147
-0.0429016497793788 -0.0424036682821549 -0.0400304937215162 -0.02884481 -0.5186527 0.8544983 138 138 138
-0.0420269502640709 -0.04068284047797 -0.0392502901123806 -0.04178574 -0.5194843 0.8534576 132 132 132
-0.02615314573629 -0.039200207411076 -0.0380932653161315 -0.02867972 -0.5241565 0.8511389 122 122 122
-0.028642363275543 -0.0394967905162404 -0.0383089147262783 -0.02116953 -0.5270554 0.8495672 119 119 119
-0.0312531335263659 -0.0395162898983621 -0.0383567026000238 -0.02987237 -0.5295359 0.8477613 135 135 135
-0.0204528674061204 -0.038226844895304 -0.037195350475602 -0.03045406 -0.5323173 0.8459969 116 116 116
-0.0221505326978986 -0.0360743744878007 -0.0362245289715027 -0.01946381 -0.5272085 0.849513 136 136 136
-0.0252781540063545 -0.0369603196279975 -0.0366988802225925 -0.03290307 -0.5415566 0.8400201 146 146 146
-0.0265823790065718 -0.0383759274480691 -0.0375377689568043 -0.02230885 -0.5215415 0.8529342 113 113 113
-0.0288122617905775 -0.0379963403235912 -0.0375108532525102 -0.03689057 -0.5317472 0.8460993 126 126 126
-0.0306928677381992 -0.0381878804304181 -0.0375396661584555 -0.03137974 -0.5265474 0.8495665 137 137 137
-0.0259057459725254 -0.0368390953379905 -0.0364697872296282 -0.03271453 -0.5402612 0.8408612 135 135 135
-0.028201748111746 -0.0360666768526501 -0.036283523754515 -0.03500492 -0.5323729 0.8457859 136 136 136
-0.0302551768533004 -0.035659538105663 -0.0362032532175715 -0.03819382 -0.533569 0.8448937 134 134 134
-0.0243598229309661 -0.0344663952373712 -0.0351472266342255 -0.03511009 -0.5285394 0.8481824 135 135 135
-0.0203169834822279 -0.0319099991689236 -0.0336276893963344 -0.0424311 -0.5092537 0.8595698 121 121 121
-0.0198947736414521 -0.0300876222428725 -0.0324681871694576 -0.02466013 -0.5117369 0.8587882 126 126 126
-0.023970627956369 -0.02982906363675 -0.0325552172075995 -0.04154821 -0.5069891 0.8609505 119 119 119
-0.0301952225727353 -0.0333047437857183 -0.0347813022177199 -0.0342837 -0.5296112 0.8475474 121 121 121
-0.0281479701938405 -0.03201734141666 -0.0338643745288786 -0.02542812 -0.5112275 0.8590692 112 112 112
-0.0261344744818306 -0.0310119598812244 -0.0333140678400871 -0.02826213 -0.5121951 0.858404 120 120 120
-0.0308276428138683 -0.0316441884353558 -0.0336546404230014 -0.03391235 -0.5119877 0.858323 123 123 123
-0.0321920264927864 -0.0394427083728233 -0.0382198966496602 -0.02528561 -0.5186628 0.8546049 129 129 129
-0.0323120898414744 -0.0376736475570438 -0.0372038512999934 -0.03088654 -0.5335814 0.8451845 112 112 112
-0.0353186022253094 -0.0383168107308904 -0.0376569770033809 -0.03658928 -0.5164046 0.8555627 111 111 111
-0.0342266663985087 -0.0367524300987625 -0.0367809694781992 -0.0293214 -0.5418409 0.8399695 137 137 137
-0.0431079308255833 -0.0382786710398835 -0.0377139836748667 -0.03285678 -0.523726 0.8512529 132 132 132
-0.0359987963525441 -0.034295955468242 -0.0354921961041377 -0.02386974 -0.5340621 0.8451082 143 143 143
-0.0346030497740757 -0.0317503620589878 -0.0336757443323385 -0.02371384 -0.5112363 0.859113 111 111 111
-0.0324382127156091 -0.0300751391679706 -0.0326327894295213 -0.03342106 -0.5108335 0.8590298 123 123 123
-0.033119821324207 -0.0298756055703486 -0.0326482049972908 -0.02396801 -0.5004209 0.8654504 137 137 137
-0.040183732311355 -0.0338863741752959 -0.0352189294066979 -0.0310436 -0.5221342 0.8522982 118 118 118
-0.0401659966427061 -0.0307254444341352 -0.0333648907617429 -0.02314809 -0.5164055 0.8560312 121 121 121
-0.039557923672406 -0.0287523867631778 -0.0320053615722055 -0.02560139 -0.5102336 0.8596547 130 130 130
-0.0417193563869804 -0.0287483152546515 -0.0323017537842917 -0.02779373 -0.5166036 0.8557735 125 125 125
-0.0452409597289787 -0.0467530343183689 -0.0429499941225278 -0.03336428 -0.5165559 0.8556032 129 129 129
-0.046602361323357 -0.0471279620086229 -0.0432122608583064 -0.0346953 -0.5190464 0.8540416 120 120 120
-0.0483314125661392 -0.0463919036822904 -0.0426253557054943 -0.03613046 -0.5210792 0.8527433 115 115 115
-0.054821068093756 -0.0488532755024476 -0.0441290554044134 -0.03615681 -0.5260342 0.8496944 124 124 124
-0.0505837577331727 -0.0459659453176346 -0.04251815535464 -0.0421458 -0.5189523 0.8537636 115 115 115
-0.0545589474179828 -0.0471262284999612 -0.0432410405794421 -0.03263509 -0.5300003 0.8473693 141 141 141
-0.0530350959391437 -0.0455039168941809 -0.0423674540356095 -0.04330281 -0.5227303 0.8513976 113 113 113
-0.0448877615714873 -0.0447317382183583 -0.0418769154876653 -0.02591257 -0.5112571 0.8590371 132 132 132
-0.0486495547270116 -0.0419717339545815 -0.0399669788731587 -0.04523878 -0.5187415 0.8537334 128 128 128
-0.0490378600768131 -0.0412955263958255 -0.0392674169508755 -0.04766754 -0.5235972 0.8506314 125 125 125
-0.0480391295038318 -0.0404525019836388 -0.0388344297524235 -0.04484167 -0.5242729 0.8503689 142 142 142
-0.0527926336080555 -0.0448699611893701 -0.0416803940093418 -0.0474795 -0.5183543 0.8538469 130 130 130
-0.0520557535709587 -0.0435908820323414 -0.0412032518213596 -0.05428984 -0.5142112 0.8559436 124 124 124
-0.0553656978597648 -0.0438962044225542 -0.041455234598849 -0.03714075 -0.5241186 0.850835 117 117 117
-0.0521683356458027 -0.0414549185183537 -0.0396830584520008 -0.03998536 -0.5198693 0.8533095 127 127 127
-0.0571613435726093 -0.0485130324136538 -0.0441614351146548 -0.04115165 -0.5321231 0.8456663 127 127 127
-0.0591541185903677 -0.0482361174991626 -0.0438702020909967 -0.04591951 -0.5371329 0.8422468 114 114 114
-0.0564231944423423 -0.0458150242224862 -0.0426637121236202 -0.03443908 -0.527494 0.8488604 124 124 124
-0.0608734308231083 -0.0480535681827878 -0.0439058660231718 -0.04592039 -0.5289578 0.8474048 113 113 113
-0.0609642528532981 -0.0453929187792024 -0.0421709611800347 -0.04329748 -0.5244018 0.8503694 110 110 110
-0.0643406268976618 -0.0472152063144609 -0.0434833469998371 -0.03943538 -0.5242605 0.8506444 124 124 124
-0.0561531312231662 -0.0424068425852153 -0.0403853967013172 -0.03499573 -0.5121856 0.8581615 125 125 125
-0.0587523383760447 -0.043207752624159 -0.041113736379189 -0.04558879 -0.516574 0.855028 122 122 122
-0.0547794286143772 -0.0394762689165498 -0.0387690416655871 -0.03584405 -0.5131964 0.8575224 135 135 135
-0.0589621223703611 -0.0394598297832955 -0.0387545016716966 -0.03257427 -0.5084805 0.8604571 105 105 105
-0.0602135233670897 -0.0390846138444878 -0.0384694443969706 -0.03448923 -0.5128624 0.8577778 101 101 101
-0.0625039334467643 -0.0416075731036352 -0.0400164243175191 -0.03145021 -0.5041159 0.8630632 106 106 106
-0.0614095324994306 -0.0412534792181589 -0.0399263474869844 -0.04085265 -0.5025561 0.8635788 110 110 110
-0.0625963948536059 -0.0411544479212116 -0.0399389052115405 -0.04404319 -0.5124625 0.8575794 96 96 96
-0.0620421271146245 -0.0399518302121706 -0.039050465746637 -0.05477775 -0.5064481 0.8605287 114 114 114
-0.0654245940577431 -0.0411264576545316 -0.0397983679972891 -0.03792099 -0.5117983 0.8582683 116 116 116
-0.0662818788390469 -0.0408186037616658 -0.0397060510444389 -0.03651433 -0.5107703 0.8589414 121 121 121
-0.065071498631724 -0.0396241880647543 -0.0387977301307006 -0.04333183 -0.5126715 0.8574907 107 107 107
-0.0435694348249478 -0.0376296443815456 -0.0374606330157649 -0.02982346 -0.5280482 0.8486906 129 129 129
-0.0482167954811406 -0.0382225275919745 -0.0378243065212334 -0.04322344 -0.5287363 0.8476849 129 129 129
-0.0431003134518795 -0.0351589195547923 -0.0358894339075053 -0.0313109 -0.5137047 0.8573956 141 141 141
-0.0465265494256175 -0.0349469515566754 -0.0359413926755323 -0.05230406 -0.509098 0.8591179 142 142 142
-0.0487443807383992 -0.0362855483759532 -0.0365383575655542 -0.04275613 -0.5289663 0.8475651 117 117 117
-0.0523730860441489 -0.0380737443110435 -0.0378030111205843 -0.03926621 -0.5246972 0.8503828 124 124 124
-0.050775661821322 -0.0361410177423884 -0.0368120705555758 -0.03818665 -0.52733 0.848802 141 141 141
-0.0438302307041361 -0.0336555423137013 -0.0350880384661868 -0.02050957 -0.51735 0.8555281 123 123 123
-0.0463998706713471 -0.0316190889772994 -0.033767954587562 -0.0475168 -0.5159281 0.855313 132 132 132
-0.0451018700178873 -0.0300442762646658 -0.032624896777931 -0.03506217 -0.5139336 0.8571131 124 124 124
-0.052127544343552 -0.0325028012234174 -0.0346424434027764 -0.03029279 -0.5211138 0.8529495 129 129 129
-0.0521627593685769 -0.030657822511724 -0.0338256842222723 -0.03096907 -0.5201538 0.8535109 128 128 128
-0.0581095762108816 -0.0374955697313155 -0.0375585551490084 -0.03275918 -0.5174026 0.8551148 101 101 101
-0.0569061740298391 -0.0374765116458688 -0.0372218331225626 -0.03010031 -0.5172557 0.8553014 109 109 109
-0.057503942124602 -0.0345734106162479 -0.035715153580376 -0.0257854 -0.5165776 0.855852 110 110 110
-0.0587546897151787 -0.0333387453060379 -0.0350025296313823 -0.03862051 -0.5139461 0.8569527 121 121 121
-0.0613317789396035 -0.0368241185307185 -0.0373719558482381 -0.03508487 -0.5160808 0.8558211 107 107 107
-0.0656821184236169 -0.0352844595276529 -0.0362532277596623 -0.04968183 -0.5187827 0.8534613 108 108 108
-0.0639765001196584 -0.0333839373228535 -0.0352084031440774 -0.04641863 -0.5177948 0.8542446 117 117 117
-0.0578921658586413 -0.0322495948237764 -0.034329585403362 -0.02982395 -0.5133054 0.8576877 111 111 111
-0.0622578598648116 -0.0307770584948912 -0.0335361617464921 -0.04353602 -0.5102816 0.8589047 108 108 108
-0.0445765733488721 -0.0288268696337408 -0.0320693913300411 -0.03192167 -0.5144798 0.8569081 128 128 128
-0.0506177560891805 -0.0293231053331806 -0.0326480026488555 -0.04399183 -0.5144419 0.8563961 125 125 125
-0.0515641952706267 -0.0290727765816592 -0.03246896845997 -0.03825841 -0.5159152 0.855785 137 137 137
-0.0532427493978131 -0.0277545265692063 -0.0318281970989491 -0.02517935 -0.518282 0.854839 139 139 139
-0.0580897778437133 -0.0281276241332871 -0.0316249705511241 -0.01951978 -0.5220757 0.8526758 112 112 112
-0.0591265298797841 -0.0285217220589615 -0.0321360005846018 -0.03409792 -0.5216189 0.8524969 131 131 131
-0.0635397718260657 -0.0281875498607309 -0.0318107489287526 -0.03855414 -0.5157698 0.8558593 127 127 127
-0.0194449226994351 -0.027279212210543 -0.0307836902503319 -0.03140159 -0.5177767 0.8549393 123 123 123
-0.0220414020637545 -0.0271036460340346 -0.030655633364056 -0.03161049 -0.5182813 0.8546258 143 143 143
-0.0244102132813455 -0.0282478616047812 -0.0314234772651365 -0.03274006 -0.513728 0.8573282 134 134 134
-0.0219853824554397 -0.0256298329610294 -0.0299076207246597 -0.02747725 -0.5219918 0.8525078 140 140 140
-0.0240183948332455 -0.0267697571133165 -0.0311089948562318 -0.04472738 -0.5121838 0.8577104 130 130 130
-0.0198382068162748 -0.0253079368691265 -0.0296778276369295 -0.0236576 -0.5195544 0.8541098 119 119 119
-0.0943261003143547 0.0477247355560217 0.0131162716490277 -0.03213511 -0.5245346 0.8507825 130 130 130
-0.0200099825814517 -0.0248779825124266 -0.0293001514818619 -0.03181133 -0.5201994 0.8534521 130 130 130
-0.0243147737161724 -0.0257315716980109 -0.0300621132856573 -0.03365218 -0.5174777 0.8550347 128 128 128
-0.0238376484723894 -0.0245713779046284 -0.0291729706433139 -0.03224605 -0.5206295 0.8531736 147 147 147
-0.0242613706300139 -0.0235521797843841 -0.0289606135616469 -0.03462292 -0.5213589 0.8526348 124 124 124
-0.0276977317640172 -0.027684649326811 -0.0310992048102993 -0.0411025 -0.517858 0.8544786 112 112 112
-0.0279432955607728 -0.0261804559789229 -0.0301957689983355 -0.03898143 -0.5188453 0.8539789 115 115 115
-0.0301275225134008 -0.0279277405026299 -0.0311138795865429 -0.02788202 -0.5195308 0.8539967 123 123 123
-0.0262021343368004 -0.026148352507966 -0.0301274701182351 -0.04563695 -0.5181742 0.8540567 131 131 131
-0.0214846012143948 -0.023262060073411 -0.0283360144700988 -0.03738653 -0.5198497 0.8534393 170 170 170
-0.0190560404694571 -0.0211124483951726 -0.027271938449826 -0.05099269 -0.5107022 0.8582442 224 224 224
-0.027654052854456 -0.0221829609167334 -0.0278009387988159 -0.05222541 -0.520034 0.8525475 141 141 141
-0.0263964616268777 -0.021499485543877 -0.0276471434675972 -0.04433227 -0.526603 0.8489546 137 137 137
-0.0216324158329746 -0.0197156020399181 -0.0262876230048018 -0.03321223 -0.5087213 0.8602904 226 226 226
-0.0191044126062221 -0.0188584692531844 -0.0253782978426075 -0.02675866 -0.52134 0.8529294 232 232 232
-0.0193786475726565 -0.0175549604166616 -0.0250390931094372 -0.03138797 -0.5234535 0.851476 230 230 230
-0.026612415199704 -0.0172942247252867 -0.0248819225925195 -0.04320335 -0.5039505 0.8626513 186 186 186
-0.0276475171500494 -0.0183646517826346 -0.0255033345057306 -0.03406927 -0.509663 0.8596993 148 148 148
-0.0322850848195801 -0.0255232225261812 -0.0299916198055545 -0.03377903 -0.5240887 0.8509935 137 137 137
-0.0318487356778325 -0.0231207436087613 -0.0285017193486858 -0.02645644 -0.5335983 0.8453241 131 131 131
-0.0403111316144185 -0.0263793131437204 -0.0306256756008435 -0.02696804 -0.5191916 0.8542323 135 135 135
-0.039243502899748 -0.0242339884457314 -0.0293126685967324 -0.02976112 -0.5118246 0.8585743 130 130 130
-0.0375338568720061 -0.0234435343494011 -0.0286161218079338 -0.005004709 -0.5168326 0.8560718 138 138 138
-0.0359573392029491 -0.0225236069800718 -0.0282636981229736 -0.009276192 -0.5186003 0.8549665 134 134 134
-0.0337684723226812 -0.0206300376271658 -0.0270989678705563 -0.02527938 -0.5173516 0.8553995 144 144 144
-0.0311640409137164 -0.0192046216794657 -0.0263674000885914 -0.03683697 -0.5056077 0.8619767 141 141 141
-0.0341659780747285 -0.0191955614261525 -0.0263621965427172 -0.01764797 -0.5141253 0.8575335 136 136 136
-0.0355706451022622 -0.0183994003246877 -0.0257986764712194 -0.02290301 -0.5142965 0.8573065 135 135 135
-0.0392272540486864 -0.0172326659961384 -0.0248151822545589 -0.02883744 -0.5243998 0.8509837 140 140 140
-0.0413897783217285 -0.0165367781463908 -0.0247253765796034 -0.02682554 -0.523734 0.8514594 137 137 137
-0.0186768158267636 -0.0144443330335378 -0.0231962700588241 -0.02177226 -0.5395038 0.8417016 141 141 141
-0.0204373016758317 -0.0118869789965981 -0.0219609207633462 -0.006222823 -0.5280513 0.8491897 120 120 120
-0.022688817715482 -0.0114152992197907 -0.0214135089664633 -0.01371747 -0.5258166 0.8504874 146 146 146
-0.0260334840436647 -0.0172436221724732 -0.0247336692144201 -0.03696568 -0.5055372 0.8620126 236 236 236
-0.0293353943282333 -0.0158475704246643 -0.0241477153622126 -0.04935079 -0.5127268 0.8571323 154 154 154
-0.0278487493789834 -0.014972023098311 -0.0235521552274214 -0.04769421 -0.5211822 0.8521117 195 195 195
-0.029443610778364 -0.0130526584217034 -0.0223533345750169 -0.04917747 -0.5338129 0.8441714 200 200 200
-0.0305148369185386 -0.0153006453564504 -0.0236983655840056 -0.04207 -0.5244581 0.8503963 172 172 172
-0.032583379206069 -0.0145703614429602 -0.0232961735051621 -0.03145512 -0.5247562 0.8506712 142 142 142
-0.0311617153630062 -0.0131055204307751 -0.022412036662846 -0.03405251 -0.5403102 0.8407766 197 197 197
-0.0310832362217961 -0.0118663798066727 -0.0218004169644407 -0.03885463 -0.5311223 0.8464038 209 209 209
-0.0348800634162405 -0.0108428220685497 -0.021353668378333 -0.02658939 -0.533087 0.8456425 151 151 151
-0.0376323307936737 -0.0139567504403124 -0.0230305316030172 -0.03478373 -0.5312623 0.8464931 132 132 132
-0.0464645763022231 -0.0232569766110133 -0.0287225090316079 -0.05285742 -0.5196515 0.8527417 111 111 111
-0.0524200630907479 -0.026015056214975 -0.0306678974129834 -0.02385437 -0.5227174 0.8521723 125 125 125
-0.053784784972331 -0.0256299850673642 -0.0303644025000243 -0.02430235 -0.5212148 0.8530794 131 131 131
-0.049764137124737 -0.0236993838314099 -0.0291871475251919 -0.04513592 -0.517544 0.8544653 122 122 122
-0.051717328268591 -0.0234160326508914 -0.0290476051534084 -0.03634119 -0.5209126 0.852836 114 114 114
-0.0487427426087219 -0.021987830514103 -0.0281779151454482 -0.05754954 -0.5206008 0.8518585 153 153 153
-0.053576333224032 -0.0227293615813267 -0.0285309087523171 -0.03575513 -0.5146313 0.8566658 122 122 122
-0.0430568391248562 -0.0214045972497923 -0.0270405928256254 -0.04304993 -0.5164571 0.8552303 121 121 121
-0.0480772778386558 -0.0216685915988621 -0.0277622491049271 -0.0653 -0.5193105 0.8520871 146 146 146
-0.0442304199143111 -0.017570323404418 -0.0256282859299728 -0.04280357 -0.5137761 0.8568559 121 121 121
-0.0454556689405505 -0.0175984712755095 -0.0253915564156493 -0.05096754 -0.5133966 0.8566366 120 120 120
-0.0496947576946285 -0.0192128966334311 -0.0263266469187523 -0.04080836 -0.5025541 0.8635821 108 108 108
-0.0535122883384451 -0.0171231470383235 -0.0253529754605998 -0.03869575 -0.5027435 0.8635691 121 121 121
-0.0599771686001542 -0.0259940361522815 -0.0306253724069361 -0.03216679 -0.5273449 0.8490422 123 123 123
-0.0554453191254831 -0.0216021054138005 -0.0279603852900939 -0.03572316 -0.5132427 0.8574998 116 116 116
-0.0641305676832746 -0.0241091464220233 -0.0297325759982907 -0.04663114 -0.5289643 0.847362 119 119 119
-0.0616779385374557 -0.0209185075348444 -0.0276149603521797 -0.03870298 -0.5202364 0.8531449 109 109 109
-0.0636528647432484 -0.02079583813351 -0.0275362995191568 -0.04260555 -0.5220821 0.8518304 109 109 109
-0.0657853064415796 -0.0207997935753741 -0.0275031623101588 -0.04346054 -0.5171741 0.8547761 117 117 117
-0.0575479981342681 -0.0206435710373356 -0.0274176645370423 -0.03826689 -0.5164461 0.8554643 133 133 133
-0.0589442354760181 -0.0193283028447639 -0.0265844612534432 -0.03385248 -0.5161772 0.8558125 120 120 120
-0.0570982828338775 -0.0181370680755022 -0.0257781821052834 -0.03903291 -0.5125553 0.8577666 132 132 132
-0.0592957611951874 -0.0181211635752914 -0.0258551839530752 -0.03670048 -0.5150739 0.8563597 123 123 123
-0.0596155503595712 -0.0173792532187367 -0.0255550293950192 -0.03620386 -0.5156198 0.8560523 112 112 112
-0.0607076353333857 -0.0191777726838911 -0.0267471029811187 -0.03728219 -0.5154141 0.8561298 106 106 106
-0.0635035141055118 -0.0157704686434974 -0.024532190635514 -0.03880518 -0.5181953 0.8543816 117 117 117
-0.04236192607179 -0.0143010167791175 -0.0233134193310878 -0.03114179 -0.5301457 0.8473345 130 130 130
-0.0431602337465722 -0.0105065650666019 -0.0211139417212556 -0.03258033 -0.537112 0.8428815 100 100 100
-0.0487068735808358 -0.0158779860113354 -0.0243331948531594 -0.0354955 -0.5151532 0.8563628 125 125 125
-0.047826693399557 -0.0150744468836663 -0.0234344546891738 -0.03276464 -0.5175374 0.855033 130 130 130
-0.0480784176252951 -0.0119254424467965 -0.0225398816350385 -0.03736823 -0.531365 0.8463184 109 109 109
-0.0489212898907492 -0.0109240866735365 -0.0214178802381162 -0.04189127 -0.5343038 0.8442538 128 128 128
-0.0594907907386184 -0.0135602442319229 -0.0229847730435091 -0.04435014 -0.5227857 0.8513097 127 127 127
-0.0544784796960442 -0.0113523671249487 -0.0217661692960713 -0.03448624 -0.5280947 0.8484849 118 118 118
-0.0563733631019612 -0.0126920305590719 -0.0225607959535802 -0.04968724 -0.5226285 0.8511114 113 113 113
-0.0594439611704227 -0.0117650020323889 -0.022180705136313 -0.03817596 -0.5222673 0.8519269 137 137 137
-0.0614309974501257 -0.0130322085701904 -0.02303418580553 -0.03884001 -0.5208778 0.8527471 114 114 114
-0.0648997733710002 -0.0129694581955082 -0.0229282790142563 -0.03506582 -0.5163682 0.8556485 118 118 118
-0.0635434925805876 -0.0115319202352722 -0.0219488150338196 -0.03697693 -0.5190212 0.8539612 145 145 145
-0.0208991453432814 -0.010422760628247 -0.0207408851348274 -0.01715121 -0.5249481 0.8509614 134 134 134
-0.103174391237574 0.0999053986544356 0.0465350402841745 0.1660807 0.2124373 0.9629577 103 103 103
-0.0186559158785147 -0.00873493229970879 -0.019476602376315 -0.03047316 -0.5039251 0.8632096 190 190 190
