ply
format ascii 1.0
comment File exported by Rhinoceros Version 7.0
element vertex 464
property float x
property float y
property float z
property float nx
property float ny
property float nz
property uchar red
property uchar green
property uchar blue
end_header
-0.0722826582225204 -0.0540624880677321 -0.00129705093330144 0.0169745 -0.5108118 0.859525 114 114 114
-0.0805638834993512 -0.0537425895959425 -0.000879542730769012 0.01828038 -0.5148623 0.857078 125 125 125
-0.0779260885243018 -0.0535006544319372 -0.000604163712222758 0.02518482 -0.5097826 0.8599346 128 128 128
-0.0767508454181312 -0.0543277880496285 -0.00143611398100639 0.02199152 -0.5119088 0.8587583 119 119 119
-0.0617406836892505 -0.0633364382266205 -0.0134273985254331 -0.5011173 -0.7733318 -0.3883806 77 77 77
-0.0786950022042077 -0.0519466582708838 0.000212165103143494 0.02649853 -0.5077673 0.8610867 125 125 125
-0.0803362598880502 -0.0514395489471411 0.000595029217135959 0.02873718 -0.5152239 0.8565737 124 124 124
-0.0783010597357641 -0.050420858617637 0.00112666831521006 0.03101164 -0.506302 0.8617984 123 123 123
-0.0801454545985685 -0.0488169051164523 0.00188814766123258 0.02579896 -0.4953777 0.8682945 141 141 141
-0.0767040200196729 -0.0512548838731401 0.000460531748809126 0.02598741 -0.5010898 0.865005 136 136 136
-0.076615980225414 -0.0503322393409976 0.00104892003238083 0.02983084 -0.4986277 0.8663028 133 133 133
-0.0722429012974173 -0.0505610591663617 0.000744996457042055 0.02095673 -0.5037178 0.863614 129 129 129
-0.0737382452487796 -0.0486916767226301 0.00173795407594386 0.01891751 -0.5065259 0.8620172 112 112 112
-0.105864758579458 -0.0452395182983982 -0.01159011864413 -0.9003701 -0.1778488 0.397119 188 188 188
-0.103850043099622 -0.046153789004855 -0.00867576593745585 -0.9361285 -0.2088919 0.2828916 217 217 217
-0.10516305563204 -0.0434520430815034 -0.00967389462446856 -0.8936286 -0.09480458 0.4386798 220 220 220
-0.104462080859853 -0.0438875457474837 -0.00860810787992093 -0.9244952 -0.04740129 0.378235 176 176 176
-0.106263556390915 -0.0414907577617653 -0.0126562168484768 -0.8893629 -0.103433 0.4453484 139 139 139
-0.10633693601254 -0.0401395498302102 -0.0125031809831409 -0.8872955 -0.1181475 0.4458114 199 199 199
-0.107010321701902 -0.0395731667340867 -0.0140267337122066 -0.8759578 -0.1446335 0.4601946 191 191 191
-0.107440104701102 -0.0382226202280419 -0.0115840557143021 -0.8949809 -0.183569 0.4065852 111 111 111
-0.105077246852552 -0.0417083563272304 -0.0096738363464864 -0.8962462 -0.1117466 0.4292499 155 155 155
-0.104181000859107 -0.0405308182823859 -0.00847757417965531 -0.902698 -0.1816444 0.3900533 175 175 175
-0.103630507732136 -0.0434948166072113 -0.0074117928873529 -0.9445001 -0.04240874 0.3257621 234 234 234
-0.103849369359845 -0.0391796040043217 -0.00653850637414845 -0.8986987 -0.3109784 0.3092459 225 225 225
-0.103138220323976 -0.0479412332318296 -0.0044062861117241 -0.9749063 -0.1650295 0.149409 62 62 62
-0.103477091560978 -0.0421870199366062 -0.00677993905635234 -0.946803 -0.05437427 0.317187 218 218 218
-0.102995488135971 -0.0385688708726133 -0.00508067284571424 -0.9320017 -0.2671297 0.2449787 216 216 216
-0.102427136455215 -0.0396150615965537 -0.0024743594101399 -0.9731439 -0.1991569 0.1154442 99 99 99
-0.108297487397909 -0.0337550236833373 -0.0128012046213255 -0.9397888 -0.1554621 0.3043495 178 178 178
-0.105605601282407 -0.0371316059765873 -0.0101509032494784 -0.8969721 -0.2180124 0.384593 102 102 102
-0.104903498139462 -0.0371748786449458 -0.00860554901463001 -0.910043 -0.265298 0.3184944 189 189 189
-0.107113110472871 -0.0346698449727565 -0.0106471858465056 -0.9218826 -0.2201527 0.3188499 53 53 53
0.0538918584407533 0.0525744967434709 0.0275676714408892 0.09160782 0.9181389 0.3855242 88 88 88
-0.107183477048097 -0.0320324619751565 -0.0115837031738085 -0.9514518 -0.2046885 0.2298743 165 165 165
-0.107836405152224 -0.0305945847954686 -0.0108404059469502 -0.954119 -0.2354362 0.1850047 100 100 100
-0.107134715679627 -0.0308558553269888 -0.00949124263944544 -0.9548723 -0.2348625 0.1818198 44 44 44
-0.106162798134152 -0.0359775123826778 -0.00669437479420376 -0.915238 -0.3119138 0.2550474 57 57 57
-0.10485852802314 -0.0369569597978116 -0.00810433847279224 -0.8997481 -0.3114866 0.3056621 97 97 97
-0.106337378276081 -0.0345174142555653 -0.00631215138408214 -0.9202315 -0.3586267 0.1567195 54 54 54
-0.104434247623824 -0.0369136571495664 -0.00474907130433307 -0.9153156 -0.3374636 0.219808 104 104 104
-0.103974162034348 -0.0371313933988113 -0.00396585319928373 -0.9147727 -0.3452848 0.2096887 56 56 56
-0.104320632300457 -0.0362600169942096 -0.00303469403723435 -0.9258745 -0.3127276 0.2120325 67 67 67
-0.105892722564437 -0.0353021641348147 -0.00369815045143961 -0.9157615 -0.3107792 0.254553 53 53 53
-0.106069557451629 -0.0344304367479975 -0.00422055474463166 -0.9138688 -0.3139201 0.2574838 41 41 41
-0.10693659568466 -0.0300280188104585 -0.0062804476804405 -0.9369916 -0.2183835 0.2726819 50 50 50
-0.106048264733597 -0.0288945800780965 -0.00291185333579876 -0.913482 -0.1648317 0.3719962 57 57 57
-0.102781382150591 -0.0456748358561438 -0.00113758764152225 -0.9344516 -0.1903805 0.3009243 42 42 42
-0.103251136859008 -0.0476373095029582 0.00152256646522106 -0.7661218 -0.2437802 0.5946668 103 103 103
-0.0999785237066253 -0.0488988831175089 0.00229705147169651 -0.2043584 -0.4361879 0.8763434 218 218 218
-0.102648073002895 -0.0434954194640731 0.000257340072969653 -0.9179649 -0.169309 0.3587129 75 75 75
-0.103209437782764 -0.0438885120753189 0.00191544463314879 -0.9152818 -0.1672813 0.3664372 50 50 50
-0.0971011702519733 -0.0488964934710741 0.00233191385840825 0.003684187 -0.5049588 0.8631356 199 199 199
-0.102263658567192 -0.0420125697362199 -0.00190134298501447 -0.9944391 -0.05700014 0.08855446 39 39 39
-0.102818156060118 -0.0413599480526822 0.00230704640295509 -0.9259201 -0.1797177 0.3322251 27 27 27
-0.102929640006771 -0.0398342636271029 0.0018935434581087 -0.9451206 -0.1692726 0.2794528 43 43 43
-0.103149620187803 -0.0378292025868519 0.00176380425463393 -0.9722061 -0.1658244 0.1652805 43 43 43
-0.101960443913613 -0.0479307272900401 0.0030551960539912 -0.4905931 -0.3885879 0.7799473 124 124 124
-0.100891154159556 -0.0470036988894087 0.00369509379153771 -0.4073888 -0.4233747 0.8091899 117 117 117
-0.102938688966363 -0.0449349763706121 0.00466069866708681 -0.6216021 -0.3486556 0.7014629 74 74 74
-0.048400846652612 -0.0701130335409904 -0.0221983256081483 -0.4497078 -0.8206105 -0.3526489 84 84 84
-0.098209501436413 -0.0453668840251896 0.00442831572865128 0.0008817449 -0.5046034 0.8633508 178 178 178
-0.0984268414883016 -0.0446261326391028 0.00482143023049837 -0.004246911 -0.5024402 0.8646016 146 146 146
-0.0968824440318321 -0.0479264634410018 0.00286542042355724 0.007116348 -0.5077657 0.8614658 159 159 159
-0.0964307474517812 -0.046222574509775 0.00376888812344034 0.008937033 -0.5104243 0.8598763 137 137 137
-0.0928282810430279 -0.04854427478907 0.00279851842860078 0.01586483 -0.5129948 0.8582451 132 132 132
-0.0941456061135728 -0.0459627831092205 0.00388187407216295 0.0123252 -0.5044614 0.8633463 148 148 148
-0.0926966189479899 -0.0464519563936905 0.00362674144444884 0.01215729 -0.5024326 0.8645309 167 167 167
0.047432638188813 -0.0314934111672818 0.00913268681022052 0.02022897 -0.5059754 0.8623106 236 236 236
-0.0973587887845051 -0.0451918718588354 0.00464371898768721 0.01304303 -0.5088874 0.8607343 130 130 130
-0.0973145911690487 -0.0440149307575664 0.00523228678919707 0.008173616 -0.4981755 0.8670377 140 140 140
-0.0948737402662712 -0.0443616073214704 0.00502865664818929 0.01709366 -0.5018119 0.8648078 175 175 175
-0.0928143459827422 -0.0439675753285589 0.00503337948565948 0.02050355 -0.4951081 0.8685894 142 142 142
-0.101454750796107 -0.042492873065564 0.00596438868241939 -0.6469409 -0.3498091 0.67757 132 132 132
-0.101891049735584 -0.0419265154877035 0.00596581617880911 -0.6604503 -0.3798831 0.6476837 181 181 181
-0.100613806839474 -0.041533286709235 0.00679025230015243 -0.4730318 -0.4859731 0.7348953 154 154 154
-0.0989827312664002 -0.0419242292680718 0.00669805155424941 -0.09329955 -0.4927692 0.8651438 148 148 148
-0.0993167118818428 -0.0403553328941263 0.00722245200852024 -0.1728606 -0.5261262 0.8326526 150 150 150
-0.0971384557580817 -0.0421405899448574 0.00627829530143602 0.005053455 -0.5000225 0.8659977 206 206 206
-0.094828750284619 -0.0427379851377606 0.00592244361815852 0.01288788 -0.5000973 0.8658733 206 206 206
-0.0971810731334006 -0.0415304261823706 0.00677983587101398 0.008598367 -0.5054348 0.8628219 147 147 147
-0.0926926855816097 -0.0419625214099861 0.00615585659292964 0.02421578 -0.4973266 0.8672254 160 160 160
-0.0932149587655777 -0.0413527452336975 0.00659346605467329 0.01888787 -0.4941521 0.8691702 219 219 219
-0.0944777307252633 -0.0402350956636753 0.00733856283627328 0.02323435 -0.5042166 0.8632646 171 171 171
-0.10475218704736 -0.0356939596921013 -0.00139132935409365 -0.9363655 -0.2681797 0.2264936 59 59 59
-0.104291876310191 -0.0298201099618879 0.00106036704017132 -0.9637606 -0.1184128 0.2390478 86 86 86
-0.103785705443368 -0.0319449570166542 0.00205015679751591 -0.9674019 -0.1523364 0.2023048 40 40 40
-0.104776471985097 -0.0281444641350511 0.00124305221232553 -0.9616599 -0.1493271 0.2300252 58 58 58
-0.104839967388083 -0.028588994997749 0.000310301948470107 -0.9534907 -0.1517012 0.2604654 74 74 74
-0.103650023555169 -0.0324246461666118 0.00357535708313972 -0.9728396 -0.1299079 0.1915907 28 28 28
-0.104042883418265 -0.0297224161627943 0.00410014333782585 -0.9788118 -0.1317528 0.1567438 64 64 64
-0.103184304021309 -0.0366079758194706 -0.00218090090605778 -0.9386041 -0.2817304 0.1991239 57 57 57
-0.103348753752251 -0.0355189715507676 0.0014378903193821 -0.967033 -0.1589075 0.1989865 33 33 33
-0.103395838176446 -0.0326419482293671 0.00108983296427909 -0.9532638 -0.1544071 0.259705 25 25 25
-0.103563498439285 -0.0320176883946431 0.0034443956944273 -0.9728396 -0.1299079 0.1915907 29 29 29
-0.103468930385172 -0.0358684405060757 0.00479474536214625 -0.9407655 -0.1969947 0.275959 80 80 80
-0.103112579879247 -0.034255798639065 0.00780177199264265 -0.9047584 -0.2187352 0.3654684 27 27 27
-0.103175580531344 -0.0298676099833185 0.00733778716816701 -0.9634291 -0.1522786 0.2204895 41 41 41
-0.103515655574474 -0.0280222122038558 0.00592970122258039 -0.9807907 -0.1153655 0.1572905 50 50 50
-0.0897338219486015 -0.0481275427484101 0.00268022401780217 0.02959079 -0.5109921 0.859076 139 139 139
-0.0901902963731489 -0.046417136815267 0.00357554858890377 0.02840368 -0.4993016 0.8659626 145 145 145
-0.0875980699568988 -0.047929600019071 0.00265198600503112 0.03145912 -0.5045002 0.8628383 98 98 98
-0.0863448715090116 -0.04762345963161 0.00275721170196647 0.02812721 -0.5055657 0.8623295 111 111 111
-0.0889697138484253 -0.0465251386441564 0.00358272512850137 0.03235669 -0.4976045 0.8668003 141 141 141
-0.0864633450647094 -0.0459236891162051 0.00370236653223953 0.02419349 -0.5027159 0.864113 129 129 129
-0.0903414916333092 -0.0452295468331332 0.0043608710669822 0.03170155 -0.4958208 0.8678461 160 160 160
-0.0902524641303377 -0.043856537681734 0.00531986519689723 0.03430114 -0.4952168 0.868092 133 133 133
-0.0890765815124772 -0.0447054789676063 0.00477124844077441 0.03289731 -0.4967996 0.8672416 140 140 140
-0.084646636300413 -0.0459584852468183 0.00375496944790089 0.02460154 -0.5075575 0.8612666 118 118 118
-0.0828450967007854 -0.0458988613831258 0.00370591985548271 0.01581917 -0.5068284 0.8619018 106 106 106
-0.0862138328179531 -0.0436715272283292 0.00514781281053941 0.01986948 -0.5043969 0.8632433 148 148 148
-0.0808256977262745 -0.0462240792246837 0.00353263742079474 0.01956675 -0.5086079 0.8607759 132 132 132
-0.0832805302430133 -0.0448313207408599 0.00420874350242177 0.02039349 -0.5118703 0.8588206 137 137 137
-0.0821896503176327 -0.0441504822374557 0.00474609222338991 0.01382866 -0.5133233 0.8580839 139 139 139
0.0199192309066403 -0.049510477841415 -0.00060974402177659 0.0221218 -0.5030407 0.8639795 134 134 134
-0.090805548376625 -0.0403482344099444 0.00716393208432164 0.0175937 -0.5057635 0.8624928 186 186 186
-0.088783405388297 -0.0398779980445176 0.00748481462887907 0.01884781 -0.5024937 0.8643754 216 216 216
-0.0871770790635313 -0.040759293501798 0.00688039193972553 0.01877202 -0.4986351 0.8666087 155 155 155
-0.0922538671801507 -0.0390418583322885 0.00794231226460332 0.02313779 -0.5079406 0.8610813 158 158 158
-0.0882435050453538 -0.0384936348505746 0.00806101583230709 0.02197934 -0.504315 0.86324 179 179 179
-0.086717784583545 -0.0385577517909909 0.00806727442257285 0.01931562 -0.5023228 0.8644644 217 217 217
-0.0842581576196308 -0.042696433417746 0.00578139361264791 0.0169622 -0.5030193 0.8641087 139 139 139
-0.0828999031820428 -0.042026973316479 0.00587911000790359 0.01695865 -0.5053796 0.8627304 130 130 130
-0.0834054235193524 -0.0399933754480571 0.00743578025434068 0.01540714 -0.4968804 0.8676822 135 135 135
-0.0837106051516239 -0.0385552034791442 0.00782929622951854 0.02406094 -0.4973079 0.8672404 153 153 153
-0.0801448033604095 -0.0480105342319976 0.00232420618910496 0.02370447 -0.4993995 0.8660475 129 129 129
-0.076745290550281 -0.0482910135025344 0.00205229239937003 0.02411897 -0.501349 0.8649089 130 130 130
-0.0736496575240948 -0.0477436007345678 0.00243532549056584 0.01841263 -0.5113633 0.8591673 134 134 134
-0.0729088248200851 -0.0476994043052852 0.00238949189307505 0.008488385 -0.5101235 0.8600593 131 131 131
-0.0785580736800284 -0.045800851923256 0.00388909563767696 0.021484 -0.5049355 0.8628896 119 119 119
-0.0499172769285985 0.0658194026781384 0.0684543054662014 0.03503565 -0.3027566 0.9524238 99 99 99
-0.0808387130832084 -0.0448293263381638 0.00441929423604309 0.02138505 -0.5167171 0.855889 128 128 128
-0.0802731725722263 -0.045003117942266 0.00398162570461086 0.02440865 -0.5125595 0.8583047 96 96 96
-0.078710900911529 -0.0438948129061341 0.00480532756540347 0.01900085 -0.5176065 0.8554078 141 141 141
-0.0762638301947836 -0.046089467454144 0.00331538701522692 0.02313104 -0.5100451 0.8598366 111 111 111
-0.0768063157815355 -0.0441721534177189 0.00467962429208453 0.02126875 -0.5160376 0.8563018 149 149 149
-0.0721225768800897 -0.0463039907696081 0.00330278078833668 0.01257204 -0.512566 0.8585558 148 148 148
-0.0737993882924708 -0.0454554951816869 0.00400549127286003 0.01588538 -0.5104581 0.8597559 98 98 98
-0.0747571963919738 -0.0437672506016197 0.0048369465403121 0.01831863 -0.5116074 0.859024 160 160 160
-0.0722078377430768 -0.0450836471146876 0.00421868981386998 0.01200699 -0.5106967 0.8596771 169 169 169
-0.0765067955079819 -0.0426754578992409 0.00558350846834631 0.02350279 -0.5054117 0.8625582 151 151 151
-0.0798338483809191 -0.0422133109118715 0.00589882912137053 0.02305583 -0.5040963 0.8633396 148 148 148
-0.0793099331004372 -0.0417769985052874 0.00628964602643571 0.02165888 -0.5039861 0.8634402 161 161 161
-0.0783943659663637 -0.0410352707502306 0.00650495605029736 0.02159029 -0.5027767 0.8641466 140 140 140
-0.0803544713835578 -0.0397729103340252 0.00738297604821359 0.01694809 -0.4934292 0.8696208 145 145 145
-0.0792857788098593 -0.0384861501083505 0.0079248614456305 0.008653351 -0.4923431 0.8703582 147 147 147
-0.0765622966025368 -0.0397696704833466 0.00726248133418567 0.01587387 -0.5019215 0.8647675 155 155 155
-0.073100042098488 -0.0425454600620507 0.00545332116905317 0.02173902 -0.5069447 0.8617044 143 143 143
-0.07041909180818 -0.0423070810718398 0.00549245113802721 0.01937233 -0.4987807 0.8665117 163 163 163
-0.0746226999315436 -0.0399642525649108 0.00714758718961826 0.02770923 -0.5059391 0.862124 166 166 166
-0.0728569776421661 -0.0389819914301326 0.00749114194300866 0.02951511 -0.5057611 0.8621685 173 173 173
-0.070866745870946 -0.0396923002737738 0.00710717424750557 0.02632337 -0.508118 0.8608851 148 148 148
-0.0542592851736869 -0.0608420023575746 -0.032455561084669 -0.4585463 -0.7669283 -0.4489502 72 72 72
-0.050690052026674 -0.0617104939765966 -0.0344717573546942 -0.3524748 -0.7182978 -0.5998415 100 100 100
-0.0482936316718896 -0.0619699615180617 -0.0349149900698336 -0.2889549 -0.7493833 -0.5957598 89 89 89
-0.0479950740740218 -0.0639171436921914 -0.0328383946129381 -0.2221635 -0.7670485 -0.6018969 90 90 90
-0.050507427819197 -0.0631492769159404 -0.0321186346332146 -0.4435925 -0.7278671 -0.5229104 81 81 81
-0.0531700237462229 -0.0601872314975653 -0.0324587468858512 -0.4204213 -0.7680101 -0.4831215 49 49 49
-0.0520555670546505 -0.0622569102218534 -0.0321355666214858 -0.4646709 -0.7441204 -0.4799645 99 99 99
-0.0482315194616199 -0.0663735129061928 -0.0300337368743131 -0.3194198 -0.8204801 -0.4741132 126 126 126
-0.0569402683311031 -0.0605288849129575 -0.0288183673020116 -0.4890194 -0.8088404 -0.3265536 58 58 58
-0.0547982550134547 -0.0607556092827748 -0.0305140825140971 -0.4955066 -0.787882 -0.3656708 68 68 68
-0.0540200752790976 -0.0634148396800931 -0.0262231628811284 -0.5399646 -0.7811249 -0.3134997 55 55 55
-0.0142177064260669 -0.0567510218286224 -0.0520181519122322 -0.1125122 -0.8131222 -0.5711159 47 47 47
-0.053753773275742 -0.0638072062439258 -0.0247637296130464 -0.5536709 -0.7679285 -0.3220782 43 43 43
-0.0571562356713593 -0.0613034825535239 -0.0247747399955883 -0.4798539 -0.8246638 -0.2994494 70 70 70
-0.0551804191909984 -0.0621295977012808 -0.0275053606223021 -0.5060641 -0.806107 -0.306742 60 60 60
-0.0512355125743733 -0.064523715132228 -0.0282370219272847 -0.560588 -0.746496 -0.3584478 83 83 83
-0.0524575998598662 -0.0635220749855091 -0.0284946841716883 -0.5340616 -0.7764238 -0.3345809 53 53 53
-0.0527256730462957 -0.0636097665336055 -0.0270553666591925 -0.5646058 -0.7696681 -0.2980458 69 69 69
-0.0511812101339113 -0.0659555355301737 -0.0251133906079334 -0.6082031 -0.7114431 -0.3520479 32 32 32
-0.0605484720168938 -0.0546423298700026 -0.0347311605312948 -0.470258 -0.7927305 -0.3878604 72 72 72
-0.0648303697746093 -0.0544867645468465 -0.0307985336287689 -0.4087138 -0.8351012 -0.3681835 70 70 70
-0.0589925011442323 -0.056922679700806 -0.0325930476537214 -0.5402931 -0.7359902 -0.4079237 70 70 70
-0.0678519891218432 -0.0515243347648597 -0.034504995893296 -0.3814115 -0.8623217 -0.3330564 77 77 77
-0.0670244352678848 -0.0517851338853705 -0.0348127022351324 -0.3762632 -0.8655347 -0.3305687 93 93 93
-0.0651246032898496 -0.05304792720955 -0.0339468645214868 -0.3913498 -0.8598282 -0.3279342 58 58 58
-0.0694912394146421 -0.0502177563527726 -0.0356767563028069 -0.334553 -0.883297 -0.3284214 65 65 65
-0.0685724573366686 -0.0516498100366277 -0.0328774957298204 -0.3699065 -0.8568344 -0.3591712 95 95 95
-0.0663419598291148 -0.0529619338632082 -0.0328969616128966 -0.3674027 -0.8590848 -0.3563544 116 116 116
-0.0663930070695131 -0.0536307842602209 -0.0307318770743212 -0.3705648 -0.8552135 -0.3623418 64 64 64
-0.0645577165621458 -0.0530910339048523 -0.033904999121928 -0.3774492 -0.8625042 -0.3370736 40 40 40
-0.0640498731158141 -0.0542461439054667 -0.0320977047445321 -0.4009542 -0.8435642 -0.3572608 73 73 73
-0.0646461380041097 -0.0557513095226381 -0.0278677899134977 -0.4577366 -0.8041784 -0.3791758 105 105 105
-0.067196260654339 -0.05494702383685 -0.0276419440458281 -0.3973072 -0.8386347 -0.3726109 63 63 63
-0.0664513158789983 -0.055186347064636 -0.0264890752325791 -0.4006247 -0.8398668 -0.3662289 44 44 44
-0.0626437662270747 -0.0560109923510794 -0.0289201142181103 -0.5172721 -0.7593517 -0.3947335 42 42 42
-0.0637992704481563 -0.0550093734517644 -0.0287638509839199 -0.448655 -0.811116 -0.3752326 48 48 48
-0.0614910891371663 -0.0567944778119911 -0.0299481552741875 -0.5202551 -0.7521892 -0.4044082 33 33 33
-0.0627134623240555 -0.0574607861879313 -0.0271438069468405 -0.5159476 -0.7913379 -0.3279975 55 55 55
-0.0626741081666196 -0.0583874309232441 -0.0251933756962287 -0.5085559 -0.8002425 -0.317778 58 58 58
-0.0607818344522237 -0.0596278952523179 -0.0268122314719619 -0.5264452 -0.7935187 -0.3052599 35 35 35
-0.0596947984344252 -0.0588422243827458 -0.0275128535707692 -0.5309723 -0.7811242 -0.3285016 63 63 63
-0.0679262038484199 -0.0527675150736699 -0.0306253583299991 -0.358927 -0.8654751 -0.3494629 45 45 45
-0.0695129818109002 -0.0528344902041228 -0.0291820278476508 -0.3531592 -0.8661095 -0.3537413 33 33 33
-0.0547458439292861 -0.0596214519578623 -0.0344590678851133 -0.3966993 -0.7559655 -0.5207165 80 80 80
-0.0578850209112107 -0.0570958460502686 -0.0339695735019173 -0.502392 -0.7494482 -0.4311956 73 73 73
-0.0559619190639098 -0.0592740038148832 -0.0329150782503046 -0.4566871 -0.7677233 -0.4494861 70 70 70
-0.0573553116466852 -0.0585342943667612 -0.0321841903097004 -0.5168481 -0.7507424 -0.4114047 59 59 59
-0.0514794815142263 -0.0594442087352736 -0.0354279609389094 -0.3299265 -0.7625888 -0.5564232 74 74 74
-0.0516546592227485 -0.0585289381985701 -0.035470855621225 -0.3289425 -0.7615207 -0.5584649 65 65 65
-0.0493891663530488 -0.0587448842286723 -0.0359136830707432 -0.3442936 -0.7365956 -0.5821416 42 42 42
-0.0588275100007252 -0.0591899497115814 -0.0291284357774505 -0.5057378 -0.7865754 -0.3542998 55 55 55
-0.0318838419862582 -0.0239539466779511 0.015463050416173 0.01738581 -0.5090652 0.8605524 89 89 89
-0.0588357524655541 -0.0615595598252145 -0.0229097856650622 -0.5131001 -0.8097107 -0.2847752 72 72 72
-0.0607111483905847 -0.0599337606872588 -0.0227730168270756 -0.5092258 -0.8117239 -0.2859954 92 92 92
-0.0644114810558691 -0.0603738988775478 -0.0164701591475765 -0.429152 -0.8226977 -0.3728231 52 52 52
-0.064507322100575 -0.0616167215984029 -0.0142959612763419 -0.4406773 -0.8132794 -0.3799737 74 74 74
-0.0586397630718585 -0.0632893139702768 -0.0186677798992855 -0.5209289 -0.7803215 -0.3460224 66 66 66
-0.0639993882098802 -0.0600157379998365 -0.0184591161599186 -0.440364 -0.8278432 -0.3474983 71 71 71
-0.0633076850192902 -0.0596968644472353 -0.0188273322980396 -0.4464021 -0.8283421 -0.3384887 58 58 58
-0.0634403519631297 -0.0603293786194909 -0.017228679764399 -0.4487873 -0.8181553 -0.3594607 57 57 57
-0.0626105573249647 -0.0613749085981825 -0.0170134360915719 -0.467338 -0.8065189 -0.3621085 57 57 57
-0.0609741271766517 -0.0608501421065318 -0.0187038438230559 -0.5062591 -0.7950221 -0.3341279 57 57 57
-0.064524898668691 -0.060345086697374 -0.0154962601918741 -0.4291521 -0.8216964 -0.3750247 61 61 61
0.0979222656222163 0.0139681653159773 -0.0156414426451368 0.9514367 -0.04285999 -0.3048463 97 97 97
-0.0532790570766348 -0.0666629575085685 -0.0198834381794526 -0.6169473 -0.7092411 -0.3411057 75 75 75
-0.0498201207271745 -0.0688609332614147 -0.0227059898372807 -0.5435017 -0.7565207 -0.3637064 40 40 40
-0.0487113668671988 -0.0688162727417647 -0.023602973058927 -0.4908758 -0.7867549 -0.3742428 53 53 53
-0.0525470134014299 -0.0661822908542179 -0.0227844049290851 -0.6147823 -0.7069392 -0.3496853 46 46 46
-0.0508579262618905 -0.0689058779257695 -0.0199565818368551 -0.5887883 -0.7361438 -0.3337973 78 78 78
-0.0543742104520457 -0.0636772292786588 -0.0232579089902654 -0.5604759 -0.7575622 -0.3346137 56 56 56
-0.0529194278080589 -0.0646786755169303 -0.023000960296897 -0.6043998 -0.7185791 -0.3440129 66 66 66
-0.0528412424501488 -0.0677306415513429 -0.0196016150073142 -0.6193296 -0.708703 -0.3378918 84 84 84
-0.0539458525413119 -0.0675576030115234 -0.0172006979309576 -0.6118876 -0.7063499 -0.3558979 85 85 85
-0.0509817443449259 -0.0692987109268247 -0.017733103776124 -0.5894724 -0.7255554 -0.355094 25 25 25
-0.0526899000203467 -0.0665534859744558 -0.0196890387818805 -0.6227109 -0.7055668 -0.3382407 63 63 63
-0.0529377936647717 -0.0691263365034888 -0.0158962968279802 -0.6179788 -0.7397738 -0.2661522 59 59 59
-0.0527592674233559 -0.0699327973169727 -0.0147200123140236 -0.5680022 -0.8082696 -0.1551574 78 78 78
-0.0587065442638051 -0.0629405661886889 -0.0189726608980741 -0.5162443 -0.7866632 -0.3386042 76 76 76
-0.0571659196402021 -0.0639854230597526 -0.019195479865139 -0.5640666 -0.7454352 -0.3551832 48 48 48
-0.0562799406586638 -0.0654017793787971 -0.017302193623261 -0.5757558 -0.7386208 -0.3506346 31 31 31
-0.0573062057086506 -0.0642910146871697 -0.0175822232141435 -0.5510201 -0.7554094 -0.3545891 21 21 21
-0.0645201197152745 -0.0579462419985329 -0.0228482820088992 -0.4271415 -0.8472176 -0.3158679 73 73 73
-0.0694956172593248 -0.0551021861151948 -0.0240822882244379 -0.3677348 -0.8478077 -0.3820907 51 51 51
-0.0683228374257285 -0.0562260493271635 -0.0229003616543799 -0.3562831 -0.8566751 -0.373055 75 75 75
-0.0647335401472127 -0.0567109594895865 -0.0246419264890348 -0.439453 -0.8281828 -0.3478422 50 50 50
-0.0652217796164791 -0.0571909949070859 -0.024052045783094 -0.4105979 -0.8371261 -0.3614266 24 24 24
-0.066349657648713 -0.0576717693000739 -0.0223486445614234 -0.389537 -0.8533034 -0.346604 69 69 69
-0.0664744304554268 -0.0581408203369307 -0.0205392976173589 -0.3677644 -0.8702362 -0.3277779 77 77 77
-0.0626207022211993 -0.0593250997857576 -0.022229481939767 -0.4694783 -0.8361174 -0.2837214 86 86 86
-0.063097802807587 -0.0588680344729905 -0.0212471441882851 -0.4534241 -0.8447706 -0.2841994 21 21 21
-0.0622022889244129 -0.0595430353626883 -0.0208794585349806 -0.4911781 -0.822729 -0.2861137 67 67 67
-0.0687726149422012 -0.0584013838501944 -0.0165437440318189 -0.3306978 -0.8767447 -0.3492245 35 35 35
-0.0655538239187394 -0.0588922527581797 -0.0189947284227906 -0.3647271 -0.8643932 -0.3461193 59 59 59
-0.0664523964486254 -0.0588495651508976 -0.0182654694463191 -0.3643655 -0.8647783 -0.3455377 74 74 74
-0.068616748957032 -0.0587647261243056 -0.0155634770127548 -0.32732 -0.8783358 -0.3484077 59 59 59
-0.0670054337738297 -0.0593298601506658 -0.0162441364566675 -0.3586814 -0.864287 -0.3526409 84 84 84
-0.0425237662560414 -0.0658891633968272 -0.0307702290900301 -0.02285528 -0.750023 -0.6610167 67 67 67
-0.0477656968906319 -0.0644543712411834 -0.0340016263679635 -0.1925409 -0.7423016 -0.641807 111 111 111
-0.0426536936454305 -0.0619826178086291 -0.0351936611435281 -0.07957926 -0.8426069 -0.5326169 102 102 102
-0.0446517564902011 -0.0624900505242858 -0.0344248444513768 -0.05050977 -0.798861 -0.5993912 75 75 75
-0.0467492106855425 -0.0639742106280166 -0.0328930436296837 -0.1188742 -0.7675392 -0.6298829 89 89 89
-0.0452786435069092 -0.0633627405218219 -0.0329627810499126 -0.05859618 -0.7706976 -0.6345012 74 74 74
-0.0475401344630866 -0.0645854162920868 -0.0315176217519846 -0.2550138 -0.781786 -0.5690155 75 75 75
-0.0454482528289781 -0.0644964472545132 -0.0316547266978579 -0.07812849 -0.7692086 -0.6342035 55 55 55
-0.0434685491476183 -0.0635573961155838 -0.0326195760387093 -0.002827226 -0.7731882 -0.6341704 57 57 57
-0.0430499805398679 -0.0647560263284969 -0.0314876851764226 0.02536765 -0.7539576 -0.6564331 45 45 45
-0.0407169212784626 -0.0622077482637077 -0.0348334116789666 -0.1101781 -0.8601737 -0.4979578 89 89 89
-0.041047426931673 -0.0641221724139017 -0.0322347067933889 -0.03579352 -0.7676417 -0.639879 71 71 71
-0.0417720425679442 -0.0627493495631334 -0.033605382982526 -0.06897176 -0.8374661 -0.5421193 75 75 75
-0.0407614651163515 -0.0649285104216943 -0.0315600480111321 -0.05068845 -0.7616954 -0.6459495 84 84 84
-0.0369079285574587 -0.0642624456058537 -0.0328052632336662 -0.1154781 -0.8102338 -0.5746181 62 62 62
-0.0386740315591427 -0.0639456662038035 -0.0329175433002984 -0.09567442 -0.8162894 -0.5696648 90 90 90
-0.0374709619793898 -0.0642719012098897 -0.0315917063994176 -0.1087743 -0.7905244 -0.6026934 43 43 43
-0.0463296159302446 -0.0660667282959798 -0.030489894144011 -0.1481691 -0.8140644 -0.561556 93 93 93
-0.0467212619045299 -0.0677674973557993 -0.02833850076802 -0.2607679 -0.805492 -0.5321492 115 115 115
-0.0447412028874123 -0.0669374790051265 -0.0292161914673629 -0.08633175 -0.8030748 -0.5895911 112 112 112
0.0676750010763563 0.0321490907920883 0.0461901944925211 0.01805014 -0.5059901 0.8623504 121 121 121
0.0890794740079541 0.0115178324228703 0.0336433886573215 0.02383567 -0.4970305 0.8674057 105 105 105
-0.0431286159132318 -0.0669070454541689 -0.0292356081508883 -0.0497813 -0.7708358 -0.6350859 86 86 86
-0.0460767706539942 -0.0701650767861693 -0.024897160843777 -0.218141 -0.8539673 -0.4723922 143 143 143
-0.0473480333163687 -0.0685093832867872 -0.0267238475679767 -0.3129235 -0.8035588 -0.5063321 116 116 116
-0.0427005685665653 -0.0703851413610495 -0.0248202668173513 -0.1058434 -0.8705392 -0.4805815 97 97 97
-0.0443400114915806 -0.068271518856107 -0.0266195934644999 -0.1291668 -0.8339112 -0.5365705 99 99 99
-0.0400141355590451 -0.0666500460558659 -0.0299497436880227 -0.08463971 -0.7524957 -0.6531358 72 72 72
-0.0406665402904864 -0.0668250656509204 -0.0295554688555471 -0.05738053 -0.745667 -0.6638435 94 94 94
-0.0384132919403717 -0.0665396345518738 -0.0302815144066868 -0.08518842 -0.761432 -0.6426229 52 52 52
-0.0385261079538757 -0.0682764627985132 -0.028494235942667 -0.1515532 -0.7489555 -0.6450561 71 71 71
-0.0383327722485598 -0.0697223615824583 -0.0269345108665827 -0.1550182 -0.8314419 -0.5335482 93 93 93
-0.0747478487509343 0.0663089438883456 0.0597533234613961 -0.4023221 0.2518157 0.8801851 62 62 62
-0.0392787097851599 -0.0702029132870559 -0.0256152640849456 -0.1558404 -0.852052 -0.4997212 91 91 91
-0.0269148467826801 -0.0657010759903357 -0.0344719838054586 -0.1604355 -0.8201985 -0.5491218 77 77 77
-0.0302752649692564 -0.0666635116487195 -0.0312434529660368 -0.2151407 -0.6859215 -0.6951447 71 71 71
-0.0294947922108331 -0.0658779518301909 -0.0324008509725301 -0.2092312 -0.7600281 -0.6152882 50 50 50
-0.0342100723547265 -0.0638763652143938 -0.0343042103854293 -0.1347777 -0.8665606 -0.4805286 53 53 53
-0.0309549515916769 -0.0646147094111574 -0.03435780939048 -0.193522 -0.8304992 -0.5223221 118 118 118
-0.0315454891494671 -0.0650949441214336 -0.032830405423639 -0.2092298 -0.7895373 -0.5769348 84 84 84
-0.0290881114031953 -0.0646348811898808 -0.034516051872939 -0.1954653 -0.8267189 -0.5275691 73 73 73
-0.0300207224622051 -0.0650064830400231 -0.0330965626938726 -0.2117225 -0.7991521 -0.5626096 71 71 71
-0.0292380750249861 -0.0650057097001188 -0.0337528109948322 -0.2013686 -0.8101456 -0.5505587 86 86 86
-0.0331711780219264 -0.0699938061894321 -0.0288014110764698 -0.2102871 -0.714798 -0.6669657 111 111 111
-0.0348451492034108 -0.0681497572513723 -0.0292464435226656 -0.1697001 -0.7143632 -0.6788867 96 96 96
-0.0338027445593521 -0.0667974297224394 -0.0301211859151851 -0.165217 -0.6815821 -0.7128459 86 86 86
-0.0341813069904142 -0.0709395203716108 -0.02676424735921 -0.2387892 -0.8483551 -0.4725181 175 175 175
-0.030704666473671 -0.0685821827758917 -0.0296514068193617 -0.2190184 -0.6653429 -0.7136874 152 152 152
-0.0246074311292861 -0.0683588153337638 -0.0313554063650856 -0.179486 -0.6722704 -0.7182181 67 67 67
-0.0429232270158142 -0.070677263458958 -0.0229277694583171 -0.1004144 -0.9173754 -0.3851483 81 81 81
-0.047417257991889 -0.0708207465934474 -0.0214930799672656 -0.3597374 -0.8713078 -0.3337839 110 110 110
-0.0456308022343328 -0.0709064110877654 -0.021760063180339 -0.2491926 -0.8969237 -0.365282 106 106 106
-0.0405796336194735 -0.0704223754598335 -0.0234317758501798 -0.1052126 -0.9063106 -0.4093059 64 64 64
-0.0590234238287488 -0.0674760652440614 -0.00977470669286327 -0.4896553 -0.8254671 0.280788 75 75 75
-0.0611153492076788 -0.0660829178196256 -0.00924500371010004 -0.3528961 -0.904275 0.2403146 69 69 69
-0.0692977230057878 -0.0617307948747828 -0.0085364473211164 -0.3264222 -0.943804 -0.0517933 39 39 39
-0.060680884545778 -0.0642619862723506 -0.0128096036099184 -0.4855358 -0.8279728 -0.2805637 64 64 64
-0.0642220095928727 -0.0627284560837823 -0.0121120107452771 -0.4487518 -0.8539416 -0.2634494 16 16 16
-0.0619482899751422 -0.0647539118002725 -0.0104192068425548 -0.3881884 -0.9214866 -0.01312728 94 94 94
-0.064043864745511 -0.0634259871855856 -0.0111100719096315 -0.4418995 -0.8683611 -0.2251086 57 57 57
-0.0625310172604299 -0.0652778231165049 -0.00860848766950729 -0.2598652 -0.8873665 0.3808553 86 86 86
0.0686112250144788 0.0385466174447415 0.047616149879152 0.2024952 0.4880423 0.8490056 37 37 37
-0.0660834371355024 -0.0635807804968427 -0.00805249664055771 -0.3406739 -0.9277821 0.15219 80 80 80
-0.0690307040077487 -0.0620359928719624 -0.00689536175433345 -0.2464348 -0.891733 0.3795816 74 74 74
-0.0644006985376384 -0.0622066563559459 -0.00627010585424677 -0.1112826 -0.7801124 0.6156629 125 125 125
-0.0695215425353028 -0.0607725184839137 -0.00542606390451579 -0.1505063 -0.7164829 0.6811755 123 123 123
-0.0690427234666555 -0.0609900291225912 -0.00577629016457321 -0.1684746 -0.7175719 0.675801 82 82 82
-0.0626797266998342 -0.0628444557325198 -0.00674042285000284 -0.08095893 -0.7734904 0.6286162 125 125 125
-0.062503620567874 -0.0611153768953691 -0.00566538339810317 -0.02477918 -0.5590197 0.828784 154 154 154
-0.0621975135816961 -0.060090805483727 -0.00507763823189246 0.00923827 -0.5096411 0.8603375 124 124 124
-0.0604986132802368 -0.0613316642101471 -0.00575868695516579 0.009528307 -0.5284696 0.8488988 169 169 169
-0.0566500594270769 -0.0682948448514242 -0.0107410718917267 -0.3167653 -0.8609177 0.398096 88 88 88
-0.0535834339557431 -0.0700863143490701 -0.0134097925092711 -0.5829788 -0.8124852 -0.001882455 104 104 104
-0.055197922401697 -0.0686491365142525 -0.0135354037320308 -0.4778993 -0.8733724 -0.09398305 103 103 103
-0.0541905117511097 -0.0700434511437503 -0.012318155882544 -0.3233335 -0.9331866 0.1569021 100 100 100
-0.0546104669968703 -0.0685075704404349 -0.0102786936711875 -0.2168575 -0.8346336 0.5063195 117 117 117
-0.0577140389360196 -0.0662981223497946 -0.0089066385987059 -0.2318785 -0.7378738 0.633857 156 156 156
-0.0564490868326497 -0.065745031017005 -0.00847445554847413 -0.1681933 -0.6695176 0.7235034 126 126 126
-0.0548671939293173 -0.0677341713194389 -0.00965659313775563 -0.217869 -0.7443985 0.6311926 136 136 136
-0.0559695954313697 -0.0676915804988123 -0.00899936658799119 -0.186738 -0.6957154 0.6936202 147 147 147
-0.0547283990567742 -0.0664917650725539 -0.00906830043620069 -0.1966898 -0.6584159 0.7264996 144 144 144
-0.0526320095666648 -0.0701150232066481 -0.0111749895772245 -0.1990897 -0.8248729 0.5291011 134 134 134
-0.0492173503795579 -0.0699414218206598 -0.0111235618053237 -0.1410001 -0.6849257 0.7148397 148 148 148
-0.0510327280095582 -0.0695906834377525 -0.010729297636309 -0.161665 -0.7913539 0.589596 153 153 153
-0.0506686263536347 -0.0683989443346985 -0.0100763113116436 -0.05786774 -0.7083178 0.7035178 157 157 157
-0.0488018500699567 -0.0684482574636865 -0.0102636163245969 -0.06116499 -0.6253907 0.7779108 130 130 130
-0.0498540152172073 -0.067352192133625 -0.0094973695448341 -0.02238384 -0.5454215 0.837863 150 150 150
-0.0487131945131112 -0.0668354630964699 -0.00928277674373462 0.0051423 -0.4980527 0.8671315 144 144 144
-0.0578277462887575 -0.0636976014252525 -0.00732198888650486 -0.06387404 -0.6026098 0.7954757 134 134 134
-0.057057820735321 -0.0640311362694922 -0.00746969559873888 -0.04681636 -0.6149914 0.7871428 146 146 146
-0.0579273855359368 -0.0626225886144571 -0.0063915415401104 0.01156553 -0.5225571 0.8525258 161 161 161
-0.0559249086428508 -0.0649890908820808 -0.00790922173384545 -0.07933254 -0.5771004 0.8128108 143 143 143
-0.0540514616258818 -0.0641156761424267 -0.00800192690714237 -0.0100702 -0.5226759 0.852472 152 152 152
-0.0582530127680707 -0.0603381217850513 -0.00527491293070864 0.01741879 -0.4942955 0.8691194 135 135 135
-0.0526150728497483 -0.060235384063155 -0.00523751666357715 0.02318017 -0.5018879 0.864622 146 146 146
-0.0502359788286486 -0.0642215266849868 -0.00762120510722623 0.01599272 -0.5018203 0.8648241 132 132 132
-0.0484934207724459 -0.06493928676408 -0.00814972446966661 0.0121174 -0.4988526 0.8666021 150 150 150
0.0671593502828576 -0.047625793289206 -0.000528982375334747 0.01966036 -0.5048182 0.8630018 205 205 205
-0.0524897534209012 -0.0617389811736075 -0.0062298784140664 0.01800772 -0.502924 0.864143 143 143 143
-0.0484688345500581 -0.0614523154033773 -0.00631830727512787 0.02665902 -0.5048154 0.8628156 124 124 124
-0.0508786805556531 -0.0599142934513865 -0.00515554012968561 0.01072856 -0.5067655 0.8620172 157 157 157
-0.0686036356063302 -0.0590283129590854 -0.0041643773093155 -0.07296644 -0.5982468 0.7979829 137 137 137
-0.0655529301928888 -0.0599411580527672 -0.00460971492373799 0.003673973 -0.5269181 0.8499081 125 125 125
-0.0617593424121106 -0.0575842155781492 -0.00361818925869706 0.01978005 -0.5012323 0.8650867 156 156 156
-0.0607577804104769 -0.0581500132719512 -0.00410083867834511 0.01908239 -0.5039176 0.8635409 162 162 162
-0.0601025796163568 -0.0572341203991714 -0.00344878613439158 0.0117113 -0.5081171 0.8612083 160 160 160
-0.0581988373046176 -0.057494079261733 -0.00345461072830112 0.0120677 -0.5048691 0.8631116 137 137 137
-0.0562790090090388 -0.0586475078387517 -0.00437607469125652 0.01632472 -0.502303 0.8645376 136 136 136
-0.0573563194203692 -0.0572754706068845 -0.00341354137733363 0.01971917 -0.5066534 0.8619244 108 108 108
-0.0540005176289773 -0.0574905242275434 -0.00377249021125134 0.02319933 -0.5054819 0.8625253 159 159 159
-0.0550979167731396 -0.056393115184093 -0.00306277529700617 0.01666737 -0.5056323 0.862588 134 134 134
-0.0515164214944148 -0.0585346141140836 -0.00421613983340656 0.02258938 -0.5069314 0.8616904 148 148 148
-0.0485747507471248 -0.0587500128323644 -0.00457383946157 0.01649716 -0.5023814 0.8644887 115 115 115
-0.0501639949931323 -0.057443796593548 -0.00356617111727547 0.01581697 -0.5099576 0.8600541 173 173 173
-0.0521982809311137 -0.0565736920476898 -0.00335640727479621 0.01771101 -0.507096 0.8617076 134 134 134
-0.0623926954109653 -0.0557416721839576 -0.0025199152772321 0.01650364 -0.4995555 0.8661246 157 157 157
-0.0640239893430476 -0.0558426378728216 -0.00247761858094922 0.01937576 -0.4970811 0.8674877 100 100 100
-0.0643281828820039 -0.0547968233653207 -0.00186622446933835 0.02058375 -0.497796 0.8670498 138 138 138
-0.0686935472786341 -0.0526821893168986 -0.000466381618344044 0.02733342 -0.507049 0.8614838 138 138 138
-0.0648288831433881 -0.0536421435621471 -0.00131960074114047 0.01467825 -0.5069017 0.8618789 146 146 146
-0.0686391672898741 -0.0497879613504036 0.00104224755679862 0.0142001 -0.5028775 0.8642411 125 125 125
-0.0628457071690178 -0.0540401065859399 -0.00150732269842527 0.01011062 -0.5071765 0.8617829 145 145 145
-0.0621685256512476 -0.0521689177957594 -0.000499164432449725 0.008701297 -0.5059512 0.8625182 155 155 155
-0.0586618003815857 -0.0546831300580586 -0.00195968570661115 0.01421652 -0.5113958 0.8592277 160 160 160
-0.0607166257234608 -0.0522047909010223 -0.000455624756544967 0.006387451 -0.5052968 0.862922 146 146 146
-0.0591240733493348 -0.0520174570403423 -0.000355801732903421 0.008277601 -0.499849 0.866073 123 123 123
-0.0624057975999399 -0.0501314783829904 0.000831467849564282 0.01020631 -0.5081201 0.8612258 158 158 158
-0.063988164451513 -0.0487380278668231 0.00169382937227799 0.01394321 -0.5198966 0.8541154 170 170 170
-0.0523416420023022 -0.054859422963464 -0.00228040107635029 0.02207513 -0.4986401 0.866528 163 163 163
-0.0485492616749092 -0.0550451472282422 -0.00230647950214598 0.01839853 -0.5001073 0.865768 103 103 103
-0.0582464934419122 -0.0535930995063678 -0.00127417260787797 0.0100363 -0.5079165 0.8613479 158 158 158
-0.0543308023875242 -0.0535825459114619 -0.00138776900669386 0.02413704 -0.5001998 0.8655735 159 159 159
-0.0546059511908896 -0.0525919553393899 -0.000805537975889753 0.02706879 -0.5051821 0.8625881 150 150 150
-0.0582508733046829 -0.0506219522003012 0.000455507518397028 0.0202054 -0.5039678 0.8634861 167 167 167
-0.0571098774390317 -0.0498655159411218 0.000793652441668 0.02370656 -0.5089743 0.8604552 139 139 139
-0.0524537355521453 -0.0503846470505424 0.000350779283954064 0.02165039 -0.504505 0.8631373 143 143 143
-0.0522820609299228 -0.0537116655305585 -0.00142307455138738 0.02214635 -0.4998751 0.8658143 160 160 160
-0.0505311245900084 -0.0535104217203525 -0.00137386480508221 0.01274117 -0.4983888 0.86686 157 157 157
-0.0502904229007952 -0.0527220416652876 -0.000876779872798744 0.01990532 -0.5014582 0.8649529 160 160 160
-0.0523818275076282 -0.0504717349071045 5.99339171417912E-05 0.02165039 -0.504505 0.8631373 118 118 118
-0.0500712386914546 -0.0503826320795754 0.000183711698185401 0.0153496 -0.5044272 0.8633178 124 124 124
-0.048834845241041 -0.0496697452183206 0.000833963457612802 0.01968875 -0.5024569 0.864378 155 155 155
-0.0424824243164781 -0.0697651172699862 -0.0110604161512389 0.01226722 -0.576357 0.8171059 141 141 141
-0.0470368182602949 -0.0688027743464859 -0.0104361396635507 0.02895684 -0.5332872 0.8454385 146 146 146
-0.0451182868077731 -0.0685105863504296 -0.0102094192359306 0.02529204 -0.5223882 0.8523326 146 146 146
-0.0463297015465365 -0.0664412101622452 -0.00901386253428206 0.02822557 -0.5026549 0.8640262 145 145 145
-0.0433009428581186 -0.0673177012378753 -0.00953177785244734 0.0215425 -0.5038238 0.8635378 125 125 125
-0.044186265049293 -0.0660398585778307 -0.00888952044790371 0.02178323 -0.502332 0.8644004 121 121 121
-0.0423811063563764 -0.0659257584202941 -0.0089095062176005 0.02187325 -0.5086827 0.8606762 134 134 134
-0.0504501799347361 0.0398355044078245 0.0532929422763001 0.02350966 -0.5069894 0.8616316 139 139 139
-0.0420265920825016 -0.0707308217146951 -0.0119628670230254 0.04665225 -0.6563308 0.7530295 115 115 115
-0.0396279041805645 -0.0695520145463304 -0.0111852840093406 0.02389492 -0.5578654 0.8295873 147 147 147
-0.0392787845300497 -0.0700094238008701 -0.0112082275403998 0.02437691 -0.6011249 0.7987832 135 135 135
-0.0408026128946903 -0.0678095366632375 -0.0100044271381544 0.02354043 -0.5046317 0.8630137 144 144 144
-0.0407642182800565 -0.0655793431229832 -0.00868186051443011 0.0287735 -0.5064179 0.861808 125 125 125
-0.0366014732646023 -0.0658446616923958 -0.00885437928730479 0.005545416 -0.5000682 0.8659683 148 148 148
-0.0468153083677421 -0.0642840373245886 -0.00808931050935048 0.02648199 -0.5023621 0.8642517 107 107 107
-0.0444172844788286 -0.0647615646134745 -0.00806398151063861 0.01758036 -0.5031374 0.8640276 135 135 135
0.0796809707888824 -0.0636552496120731 -0.0100205531404355 0.0263302 -0.5060844 0.8620819 103 103 103
-0.0425214977667561 -0.064542000484523 -0.00812418067354689 0.02067196 -0.5110114 0.8593253 154 154 154
-0.0436755767648189 -0.0635840362133913 -0.00751022356025093 0.0144982 -0.5134181 0.8580161 162 162 162
-0.0466813660978582 -0.0620392906272894 -0.00638922538746091 0.01162489 -0.5119194 0.8589548 131 131 131
-0.0473346433683806 -0.0609282928231083 -0.00592933373031636 0.01327934 -0.5097005 0.8602494 149 149 149
-0.0430057412552114 -0.0620580093494044 -0.00658202138001501 0.01267197 -0.5096177 0.8603076 119 119 119
-0.0446321095376443 -0.0610132424022394 -0.00593755034754863 0.01674058 -0.5116739 0.8590166 140 140 140
-0.0411924558044934 -0.0644101041954083 -0.00821536931717204 0.01969665 -0.5137922 0.8576885 95 95 95
-0.0407536417513392 -0.062230393809791 -0.00671239593681942 0.02218601 -0.5100331 0.8598686 125 125 125
-0.0385975221178572 -0.0632964440528706 -0.00752557338226846 0.0232198 -0.5098781 0.8599333 100 100 100
-0.0391991332109902 -0.0620547507428647 -0.00673887418734358 0.01996396 -0.5074641 0.8614416 107 107 107
-0.0349193519021767 -0.0697007030400549 -0.0110688265312776 -0.01709258 -0.5774989 0.8162125 162 162 162
-0.0349185409831398 -0.0683712778342112 -0.0104365056525587 0.01682802 -0.508397 0.8609583 160 160 160
-0.0328714664287895 -0.0698078973080054 -0.0113802005605673 0.004587331 -0.5853424 0.8107732 131 131 131
-0.0315636848483138 -0.0701991092705395 -0.0114714202898075 0.0001649074 -0.5979887 0.8015046 168 168 168
-0.0307605375906363 -0.068324155664974 -0.0105929713662479 0.02463484 -0.5077202 0.8611698 153 153 153
-0.0328939822888965 -0.066321029811607 -0.00919991441301135 0.01721308 -0.507917 0.861234 140 140 140
-0.0266887926974317 -0.069737364300576 -0.0113698847233493 0.01172763 -0.4982823 0.8669355 139 139 139
-0.0283529058209973 -0.0694263522049687 -0.0114229002240875 0.02171962 -0.5084193 0.8608357 142 142 142
-0.0288590028452478 -0.0674944595945276 -0.01008420710708 0.01823713 -0.5101004 0.8599215 141 141 141
-0.0284223560312551 -0.0667313044781108 -0.00960588599812376 0.01807517 -0.5125538 0.8584649 145 145 145
-0.0266785697700334 -0.0664138435894165 -0.00952393256527898 0.01433066 -0.512926 0.8583131 129 129 129
-0.0258929688914011 -0.0648767776026602 -0.00878498256179264 0.01866693 -0.5074479 0.8614802 151 151 151
-0.0346678896897368 -0.0646807587153667 -0.00822068948908918 0.01384888 -0.4985617 0.8667436 158 158 158
-0.0351539821065412 -0.0635769108640981 -0.00766685503006037 0.01263106 -0.5020047 0.8647727 153 153 153
-0.034847389975194 -0.0621818849146193 -0.00681749724263304 0.01218795 -0.5034942 0.8639126 170 170 170
-0.032189756683219 -0.0635526850481194 -0.00767583837164358 0.01308579 -0.5004088 0.8656904 163 163 163
-0.0333864358398528 -0.0606550840080337 -0.00618957123325867 0.0233539 -0.509576 0.8601086 109 109 109
-0.0288121463384945 -0.064617706268339 -0.00823117596709931 0.02146389 -0.5100547 0.8598741 147 147 147
-0.0284875424810398 -0.0620458085266439 -0.00685856497538347 0.01396591 -0.5039785 0.8636033 165 165 165
-0.02547818140583 -0.0646803376196733 -0.00843747933596106 0.01866693 -0.5074479 0.8614802 144 144 144
-0.0281247060814604 -0.0633204439628551 -0.0075355654605829 0.01888547 -0.5011232 0.8651698 130 130 130
-0.026304204784469 -0.0631119562691416 -0.00734489204704694 0.02090402 -0.501674 0.8648041 146 146 146
-0.0419704741975413 -0.0578182619954987 -0.00422317648583044 0.01709833 -0.4979694 0.867026 115 115 115
-0.0444703809626197 -0.056035520350209 -0.00305137409850825 0.02060217 -0.5029683 0.8640593 145 145 145
-0.0427542886192693 -0.057132473435898 -0.00376296641187994 0.01256905 -0.4997908 0.866055 150 150 150
-0.041927840376947 -0.0598777596772977 -0.00511730901818226 0.02191278 -0.5108559 0.859387 120 120 120
-0.0406898133888269 -0.0594059897622623 -0.00501636562169538 0.01861873 -0.506996 0.8617473 126 126 126
-0.0409134871264247 -0.0579481376783051 -0.00431359484495469 0.01595995 -0.5010346 0.8652801 121 121 121
-0.0418158854533246 -0.0559330557131611 -0.00304633485813011 0.01869733 -0.4966213 0.8677659 135 135 135
-0.0386554893347522 -0.0561701359348971 -0.00314314835087855 0.01498725 -0.4942248 0.8692049 125 125 125
-0.0344748746163939 -0.0599151069781155 -0.00553225960176121 0.01114738 -0.5115034 0.8592089 150 150 150
-0.0344432589692705 -0.0574451645226496 -0.00402072569720155 0.01880956 -0.5031727 0.8639812 132 132 132
-0.0328710898682769 -0.0582139261924999 -0.00445792922340614 0.02491396 -0.5078363 0.8610932 137 137 137
-0.0340061442129374 -0.0560791074605725 -0.00322262718537204 0.01894597 -0.4992344 0.8662598 164 164 164
-0.0330113080942014 -0.0566013084129837 -0.00355268198314479 0.02092913 -0.503428 0.8637837 171 171 171
-0.030460530071176 -0.0557622973216311 -0.00311127280858579 0.01647658 -0.5010632 0.8652538 161 161 161
-0.0292437464748954 -0.0594966509718047 -0.00535189023079549 0.01170838 -0.5031468 0.8641216 169 169 169
-0.0253425423258875 -0.0595805218900911 -0.00547273172484439 0.01493652 -0.5058514 0.8624913 160 160 160
-0.0265250448251129 -0.0578308141069079 -0.00442262307631136 0.01328373 -0.5014647 0.8650761 166 166 166
-0.0291978445655281 -0.0569031863221477 -0.00389124245334983 0.01918534 -0.502699 0.8642486 170 170 170
-0.0287546485069923 -0.0560248822286811 -0.00334441921973481 0.01907605 -0.5038498 0.8635806 149 149 149
-0.0465016680976378 -0.055675447456569 -0.00285770158840552 0.0204371 -0.5055271 0.8625686 151 151 151
-0.0366491099173984 -0.0546720052883857 -0.00231345858325395 0.01426816 -0.4951477 0.8686917 128 128 128
-0.0461504765332408 -0.0532996986263428 -0.00141981307927733 0.01999107 -0.5029087 0.8641083 115 115 115
-0.0446892112644419 -0.0520671101221245 -0.000770148734793544 0.02423847 -0.4998545 0.8657702 143 143 143
-0.0448425457625294 -0.0534729563990666 -0.00140201328237677 0.02737088 -0.5042363 0.8631319 156 156 156
-0.043021178538841 -0.0521202290885276 -0.000611746299938279 0.02600221 -0.5062808 0.8619766 148 148 148
