ply
format ascii 1.0
comment File exported by Rhinoceros Version 7.0
element vertex 477
property float x
property float y
property float z
property float nx
property float ny
property float nz
property uchar red
property uchar green
property uchar blue
end_header
-0.120751682151945 -0.116798583364216 -0.0267833012626466 -0.01075486 0.02583215 -0.9996085 240 240 240
-0.120272939962251 -0.112815594757749 -0.0267996458261062 0.03796661 0.03804564 -0.9985545 240 240 240
-0.130138285079615 -0.115868750120527 -0.0247638330366944 -0.2588961 0.0001914951 -0.9659051 48 48 48
-0.127577580728445 -0.141446780978054 -0.0196318719426647 -0.2674088 -0.0009982168 -0.9635826 71 71 71
-0.132258021332515 -0.13914818085479 -0.0180588699578137 -0.2253394 -0.1016888 -0.968959 70 70 70
-0.136755200760437 -0.138211089164917 -0.018539593207696 0.1150214 -0.2476009 -0.9620103 59 59 59
-0.131462021277659 -0.131772642498417 -0.0215539448471959 -0.3089909 -0.4885962 -0.8159647 49 49 49
-0.13129839018059 -0.130835107975433 -0.0224989123887138 -0.3259143 -0.4655044 -0.8228521 18 18 18
-0.135767442512367 -0.132402620097423 -0.0203488514068232 -0.04161989 -0.3955079 -0.9175191 53 53 53
-0.141532036893204 -0.139297294498006 -0.0189863156692282 0.0561692 -0.439593 -0.8964391 83 83 83
-0.145650456755137 -0.135363176638462 -0.0205374104029986 0.1504428 -0.1790989 -0.9722605 57 57 57
-0.148409357903034 -0.137339734809155 -0.0208961165528599 0.04785681 -0.5882288 -0.8072773 95 95 95
-0.134536060762001 -0.128990704577201 -0.0215313865509858 -0.2941333 -0.3033027 -0.9063625 61 61 61
-0.138830973808827 -0.127268826031041 -0.0221217582202455 -0.05322976 -0.2178786 -0.9745232 33 33 33
-0.144095218922193 -0.131887261612632 -0.0214059918125027 0.08466711 -0.171238 -0.981585 40 40 40
-0.148623785312713 -0.134047668729161 -0.0214765886061157 0.2269599 -0.1429427 -0.9633569 64 64 64
-0.13144434185536 -0.125735017629814 -0.0239352577758322 -0.4298952 -0.09096559 -0.8982847 20 20 20
-0.133041188283276 -0.126339833975373 -0.023217750983912 -0.3917812 -0.1857993 -0.9011027 32 32 32
-0.129893461820836 -0.125764961338518 -0.0253662800355098 -0.312694 -0.07296709 -0.9470471 123 123 123
-0.130266989440305 -0.122213933613727 -0.0246660861534682 -0.2850535 -0.06881205 -0.9560384 38 38 38
-0.13440644592005 -0.122233092256597 -0.0232827659708654 -0.260511 -0.1146111 -0.958644 67 67 67
-0.140974113083179 -0.122613131164284 -0.0223099574832973 -0.148396 -0.00277386 -0.9889241 30 30 30
-0.140407371623751 -0.120532437267787 -0.0222695125561768 -0.190129 0.02978488 -0.9813072 30 30 30
-0.132024949454047 -0.115005369971296 -0.0242890033200171 -0.2758357 -0.1006804 -0.9559174 43 43 43
-0.134026720590763 -0.116250336362637 -0.0238481412765918 -0.2924075 -0.0581197 -0.954526 66 66 66
-0.14535448268927 -0.122900610068397 -0.0216049539355668 -0.07312391 0.06374386 -0.9952837 55 55 55
-0.14247423048351 -0.120941952634399 -0.0216291496967175 -0.1322502 0.03047365 -0.9907478 61 61 61
-0.148552347367302 -0.125936297546477 -0.0221153964831605 -0.01780684 0.01671351 -0.9997017 77 77 77
-0.149884845698972 -0.121791670626758 -0.0210845494924786 -0.1365906 0.1400799 -0.9806736 66 66 66
-0.126933049769128 -0.110548065003004 -0.0255355381196248 -0.1280276 -0.0247326 -0.9914622 123 123 123
-0.130528236862211 -0.109501618927096 -0.0252945505398959 -0.1380757 0.003677616 -0.9904149 70 70 70
-0.154074841299687 -0.113091945214984 -0.00557706139229658 -0.9780911 0.2029857 -0.04620293 45 45 45
-0.153975497558973 -0.108475485876802 -0.00063483543966214 -0.9790103 0.1917395 -0.06909939 54 54 54
-0.152865110268074 -0.109542070559934 -0.0106644420111087 -0.9528664 0.2892552 -0.09152676 40 40 40
-0.152714849700014 -0.107585147239614 -0.00828448267394144 -0.9583794 0.260704 -0.1163713 28 28 28
-0.152316507293112 -0.105541512816381 -0.00830072254084491 -0.9567418 0.2267496 -0.1822902 44 44 44
-0.134095879512831 -0.112346500416806 -0.0247748671618064 -0.2397551 -0.181393 -0.9537369 26 26 26
-0.136768707344855 -0.111005916429388 -0.0243547359286765 -0.2710731 -0.1533504 -0.9502647 60 60 60
-0.137771971891921 -0.113203463498976 -0.0226693772354685 -0.2511779 -0.2013939 -0.9467577 45 45 45
-0.141719454530024 -0.105575988145523 -0.0221866182538785 -0.298858 -0.05750286 -0.9525635 68 68 68
-0.145760287247962 -0.116898981511946 -0.0217448545673652 -0.2118254 0.05487261 -0.9757659 49 49 49
-0.149053881832135 -0.1195662840771 -0.0209683449167433 -0.1501809 0.1275746 -0.980393 54 54 54
-0.152686321146271 -0.116303220673155 -0.0202688473678616 -0.5715393 0.275922 -0.7727936 152 152 152
-0.144428603838179 -0.112810876921769 -0.0215466320900415 -0.2787363 -0.02527078 -0.9600351 83 83 83
-0.146951176524087 -0.112087711149695 -0.0197748881261899 -0.3470107 0.07974683 -0.9344646 208 208 208
-0.145425639364409 -0.104050672834663 -0.0215948515136952 -0.387048 -0.1372807 -0.9117828 92 92 92
-0.151267845547136 -0.10411529860369 -0.0100220368910829 -0.9653324 0.2029325 -0.1641701 14 14 14
-0.151457780491548 -0.104347871906591 -0.0119636588316207 -0.9644854 0.2226455 -0.1421159 31 31 31
-0.15093368451612 -0.104672071102239 -0.0159730288395027 -0.9420267 0.1249821 -0.3113922 43 43 43
-0.146658373962603 -0.105812096868442 -0.0212260342472739 -0.4499374 -0.0602788 -0.8910235 196 196 196
-0.148795805417201 -0.104016127222486 -0.0189029229620666 -0.753437 -0.01435672 -0.6573634 178 178 178
-0.14988414129655 -0.098893492735901 -0.0160158049262766 -0.9418705 0.2888604 -0.1715798 67 67 67
-0.150139532833963 -0.138772911787753 0.00243224720989615 -0.3327248 -0.9299893 -0.15625 45 45 45
-0.154161635097244 -0.1376252022248 0.0020081384730089 -0.4656193 -0.8732469 -0.1436613 51 51 51
-0.153761041351411 -0.137256251878158 -0.00032915026797814 -0.4849619 -0.8694303 -0.094355 51 51 51
-0.154153328376698 -0.137247630655275 -0.00240990704303107 -0.5876831 -0.8008703 -0.1150447 66 66 66
-0.14989163390721 -0.139292200098931 -0.0124851766649999 -0.2747719 -0.9543287 0.1172913 95 95 95
-0.0877471937720333 0.0503940278730393 -0.0299970412835197 0.1301339 -0.09488092 -0.9869462 158 158 158
-0.153284822668411 -0.139044918094591 0.00779917712214817 -0.3690464 -0.9267123 -0.07077505 46 46 46
-0.157647702403502 -0.134673688211315 0.0057654154934062 -0.8751544 -0.4788736 -0.06917289 92 92 92
-0.158162736755892 -0.128022734556401 0.00737233979158708 -0.9955596 0.07253213 -0.06000057 75 75 75
-0.15823611654083 -0.12740079509429 0.0114270576226621 -0.988706 0.1491723 -0.01442664 83 83 83
-0.159126812434983 -0.126787506186416 0.0129745360955972 -0.982623 0.1833225 -0.0290683 65 65 65
-0.157679753685044 -0.123711718484311 0.0131331361798194 -0.9726712 0.2215229 -0.06955799 78 78 78
-0.157886616445622 -0.126623370277426 0.00708851824686851 -0.989607 0.1296972 -0.06210113 90 90 90
-0.157262574335465 -0.121798110729895 0.0134282834897533 -0.9730921 0.2166139 -0.07855076 99 99 99
-0.136754357304256 -0.0658734028879779 -0.00442566776914544 -0.9450137 0.3261311 0.02423919 50 50 50
-0.156190424413261 -0.129426580031112 -0.00186552055465167 -0.9820072 0.05646279 -0.1802048 72 72 72
-0.157515164709345 -0.126661159084189 0.00285603640463161 -0.9878277 0.1094734 -0.1105082 36 36 36
-0.0262202929996813 0.176793691032642 -0.0299830575926253 0.1655127 -0.01086193 -0.9861478 178 178 178
-0.156070940395618 -0.129763447017149 -0.00524878858835093 -0.9913315 0.02108733 -0.1296814 104 104 104
-0.156748496852019 -0.126808018582491 -0.00289270656726198 -0.9941648 -0.0158511 -0.1067015 53 53 53
-0.156220648647944 -0.120329521106398 -0.00304481539407847 -0.9752488 0.2062961 -0.07957222 69 69 69
-0.15714644676356 -0.122091306304134 0.00484101387112007 -0.9791108 0.1994523 -0.03950565 97 97 97
-0.156501714561202 -0.119970118212856 0.00260728895858847 -0.9778075 0.2071606 -0.03125641 122 122 122
-0.156624238531744 -0.120208100124018 0.000817978971063893 -0.9782261 0.1943535 -0.07280386 104 104 104
-0.155419165331244 -0.116420118653027 0.000759254525857511 -0.9662051 0.2514099 -0.05692723 34 34 34
-0.154642056356231 -0.134840178192799 -0.0234634448348873 -0.6568933 -0.2895452 -0.6961715 64 64 64
-0.15570370416759 -0.130011113261046 -0.010824730488254 -0.9899386 0.1004955 -0.09961045 56 56 56
-0.156574129181025 -0.1334802807917 -0.0146538441831063 -0.9999563 -0.004186725 -0.008357805 69 69 69
-0.153030118519824 -0.133632291227791 -0.0230029726451338 -0.1533211 -0.05567607 -0.9866067 70 70 70
-0.154834115754642 -0.130431827959849 -0.0206109426841531 -0.9542105 0.1577229 -0.2541767 100 100 100
-0.154276505408354 -0.126647535553522 -0.0156503357469459 -0.9777046 0.1743704 -0.1169984 105 105 105
-0.154622966979986 -0.128519755366793 -0.0203712720852002 -0.9682057 0.1684935 -0.184899 93 93 93
-0.153531083043716 -0.125056388372381 -0.0175874676463722 -0.9802205 0.1646556 -0.1098013 103 103 103
-0.153966014649034 -0.124527345860034 -0.0186802427699549 -0.9832757 0.1185176 -0.1382839 95 95 95
-0.153417487220392 -0.124817907049616 -0.0218543266396811 -0.6800623 0.3343963 -0.6524526 146 146 146
-0.154368846750276 -0.125991949554167 -0.0134512765847705 -0.9768268 0.09298049 -0.1927798 120 120 120
-0.156219420760525 -0.123373011633891 -0.0089178407551645 -0.9890456 -0.01841268 -0.1464571 62 62 62
-0.155757492979329 -0.119105441661651 -0.00726112709828791 -0.9781939 0.2043274 -0.03724349 98 98 98
-0.15458209158148 -0.122194583431375 -0.0151650647194015 -0.9670027 -0.07770665 -0.2426259 100 100 100
-0.15596459962321 -0.117599088137347 -0.014589540177647 -0.9777041 0.08094051 -0.1937608 112 112 112
-0.153613954132873 -0.120375122925215 -0.0191630402491742 -0.8801172 0.0149199 -0.4745219 68 68 68
-0.15502157071414 -0.114768584392729 -0.0153084098042645 -0.9281127 0.2295051 -0.2931455 48 48 48
-0.121669393875593 -0.108283254682733 -0.0265297176985606 0.005532372 0.1076849 -0.9941697 237 237 237
-0.121021066505762 -0.1066420252406 -0.0262138941875015 0.06995703 0.1454223 -0.9868933 223 223 223
-0.115590243501808 -0.0968286011600944 -0.0245755495690494 0.04899224 0.01304169 -0.998714 166 166 166
-0.11973227791858 -0.100305645396348 -0.024487604191027 0.1419154 0.08672109 -0.9860728 159 159 159
-0.119976358241765 -0.0979997235002165 -0.0249033371779224 0.1242721 0.01648864 -0.9921111 192 192 192
-0.128971049877308 -0.103997820047804 -0.0252729127429139 -0.1420137 0.03057932 -0.9893922 83 83 83
-0.117908405782999 -0.0878101087950102 -0.0246371325542034 0.1149824 -0.09170163 -0.9891258 151 151 151
-0.11979683229398 -0.0959694476272219 -0.0243354749791447 0.1090128 0.01972333 -0.9938446 136 136 136
-0.122810211528241 -0.0952704219170655 -0.0249152487132817 0.1429482 0.006946925 -0.9897058 167 167 167
-0.118444015838031 -0.0867734421066625 -0.0249585290279118 0.1238392 -0.1002854 -0.9872217 139 139 139
-0.123021842873076 -0.0895448064224401 -0.0253221013211792 0.1148938 -0.06110615 -0.9914966 140 140 140
-0.12293298459844 -0.0853272721547238 -0.0252510830565315 0.07288966 -0.09754212 -0.9925587 180 180 180
-0.134234263937744 -0.101097295641135 -0.0248958301664586 -0.1652663 -0.0360681 -0.9855892 72 72 72
-0.126885001557564 -0.0961197717590674 -0.0249359556794897 0.06403463 -0.003907606 -0.99794 84 84 84
-0.133030680777578 -0.0963433233110129 -0.0249465990514624 -0.04094177 -0.09911656 -0.9942332 68 68 68
-0.126472407848634 -0.0898634233037915 -0.0255505069095011 0.06422845 -0.04867974 -0.9967472 94 94 94
-0.133438956911951 -0.0899919787447429 -0.0258380499687496 0.08113003 -0.1098702 -0.9906293 59 59 59
-0.136709855353766 -0.106811059563687 -0.024024731540067 -0.2521473 0.05362973 -0.9662017 71 71 71
-0.1386516899846 -0.102588773456544 -0.0235099334931118 -0.2456018 -0.09278551 -0.96492 67 67 67
-0.13636796025733 -0.10088228752079 -0.0242406298554104 -0.1815983 -0.0774666 -0.9803168 59 59 59
-0.140294953422389 -0.101769802783618 -0.0233772533299471 -0.2220678 -0.1582226 -0.9621078 39 39 39
-0.141927114937079 -0.0991632029904895 -0.0236667745827125 -0.2311153 -0.174292 -0.9571876 55 55 55
-0.144271981819458 -0.0987796525773253 -0.0231559384879649 -0.4031816 -0.155079 -0.9018842 79 79 79
-0.137963796360587 -0.094491938835835 -0.0253350825056629 -0.09169299 -0.2285399 -0.9692069 73 73 73
-0.139276760873355 -0.0900330717959414 -0.0262770291361971 -0.1036546 -0.1650584 -0.9808218 66 66 66
-0.144270468565749 -0.0936621156923151 -0.0239364431858708 -0.5309973 -0.1509056 -0.8338282 95 95 95
-0.148122287035221 -0.0969521991360023 -0.0206000758587194 -0.8701906 0.1755718 -0.4603727 117 117 117
-0.155372064006889 -0.113554676494191 0.014692392476915 -0.9657228 0.2349105 -0.1104376 83 83 83
-0.154551705800942 -0.109339325644084 0.0166208809842979 -0.9417554 0.334286 -0.03673682 62 62 62
-0.151689803242137 -0.10522553918751 0.014543615457757 -0.9463449 0.3195226 -0.04833788 80 80 80
-0.154588168440396 -0.110312074959006 0.00614192330977326 -0.980616 0.1923675 -0.03724128 107 107 107
-0.15471209689703 -0.109375052987007 0.00709758757567874 -0.9765823 0.2150845 0.005051987 99 99 99
-0.151394821757889 -0.102741683121282 0.00930317489027321 -0.9388455 0.3290853 0.1013513 72 72 72
-0.149498849841545 -0.0943940254738008 0.011276682928528 -0.941314 0.3283924 -0.07801457 105 105 105
-0.148114113260205 -0.0905327382045389 0.0130709689452925 -0.963458 0.2647523 -0.0406805 81 81 81
-0.150520900119965 -0.0958820938827956 0.0171631582648132 -0.955145 0.2819901 -0.090441 106 106 106
-0.151044383579917 -0.0972769866336628 0.0146362690410953 -0.9664751 0.2324547 -0.1090448 133 133 133
-0.14811220159077 -0.0887609669235887 0.016683439340319 -0.9503534 0.3049661 -0.06183911 71 71 71
0.0482147656867564 0.182876370863303 -0.0229012562871003 -0.1363435 -0.1887722 -0.9725099 123 123 123
-0.152537544109979 -0.10289638252815 -0.000231636546732861 -0.9760205 0.2142434 0.03851981 49 49 49
-0.150016885277621 -0.0968594472259487 0.00505830762364401 -0.9414033 0.3365504 0.02222003 39 39 39
-0.151292039462622 -0.0984492831845872 0.00123396503106432 -0.9280078 0.3607454 0.09308145 19 19 19
-0.150225867731884 -0.0972415740467408 0.00133878710475482 -0.9232944 0.3717457 0.09660528 15 15 15
-0.150762127120738 -0.0972802793667679 -0.00496916795646418 -0.9111418 0.4029837 -0.08616728 98 98 98
-0.148876917520103 -0.0929120324487173 0.00915139585296676 -0.9619894 0.2712255 -0.03182939 58 58 58
-0.147743151319401 -0.0886702362788545 0.0126884173260234 -0.9694692 0.2433115 -0.03048 101 101 101
-0.147869791873017 -0.0887336902025921 0.00928076615322487 -0.9737463 0.2276249 0.002244988 63 63 63
-0.148085158717613 -0.0886566198658052 0.00413503564777767 -0.9582937 0.2812606 -0.05065234 73 73 73
-0.147144264105546 -0.084914501806677 0.0085130407959137 -0.9152299 0.4029244 0.002481276 85 85 85
-0.147127799841944 -0.0867023205783517 0.00395936046285189 -0.9417847 0.3301039 -0.06382008 114 114 114
-0.149497421466802 -0.0948962972281683 0.00318646229135772 -0.9546414 0.2942626 0.04548988 28 28 28
-0.147648194660997 -0.0895787135475987 -0.00753640739772088 -0.9365478 0.3382738 -0.09191915 130 130 130
-0.147586061341515 -0.0928278638856106 -0.0131448947134917 -0.9561155 0.2843613 -0.07058161 71 71 71
-0.147300927068608 -0.0904264421278026 -0.00968242586188273 -0.9497502 0.3013945 -0.0844736 68 68 68
-0.146165359418697 -0.0870539336737821 -0.00970579558207074 -0.9542419 0.2981828 -0.02257241 68 68 68
-0.149654378887267 -0.0979200858218098 -0.011047342468226 -0.9416221 0.3170077 -0.1133754 37 37 37
-0.150262509298293 -0.0974167583570023 -0.00861144777194967 -0.9186932 0.3667511 -0.1466168 73 73 73
-0.14917252988875 -0.0931820146783724 -0.00437006223777225 -0.9409083 0.3263407 -0.09051772 41 41 41
-0.148956066952567 -0.0966869409952352 -0.0126355131267959 -0.9384888 0.3347568 -0.08471558 23 23 23
-0.150075574751052 -0.0983247609731623 -0.0149933556735299 -0.9429272 0.315412 -0.1067875 85 85 85
-0.147587290885641 -0.0888543013415303 0.000326176365430697 -0.9252623 0.3755071 -0.05370364 58 58 58
-0.144194071891758 -0.0801599734202216 0.00183219391713718 -0.8776586 0.4731134 -0.07667517 69 69 69
-0.145923760988008 -0.0862739084251727 -0.0080895160763309 -0.9392076 0.3431525 0.01163786 64 64 64
-0.144112730344035 -0.0808712353010659 -0.00763008441546925 -0.9125869 0.3922459 0.1154486 53 53 53
-0.140995147451749 -0.0716517886957209 0.012043099163107 -0.9086078 0.2771422 -0.3124486 86 86 86
-0.139420703472689 -0.0680856989214462 0.0110978774614197 -0.922366 0.23602 -0.3058357 101 101 101
-0.140539460909086 -0.0655834143002805 0.0153520033771971 -0.9091339 0.3419589 -0.237781 60 60 60
-0.140217768931175 -0.074808128618167 0.00556130705591268 -0.8755063 0.477962 -0.07100005 112 112 112
-0.139607116383336 -0.0733246309720181 0.00189614909689501 -0.8949811 0.44598 0.0105166 141 141 141
-0.138916204565976 -0.0711466998947508 0.00585173636740627 -0.9387088 0.3024496 -0.1653783 58 58 58
-0.139840255988163 -0.070376939242488 0.00966103332862395 -0.9261831 0.2353506 -0.2946098 40 40 40
-0.138842200236273 -0.0687378765696434 0.00797408105270941 -0.9422801 0.2190969 -0.2531892 49 49 49
-0.140927821030774 -0.0754010489789863 -0.00221502167673376 -0.8461227 0.5323399 -0.02628038 51 51 51
-0.138581254235968 -0.0714003062808115 0.00172683047405242 -0.9247561 0.3796468 -0.02635476 105 105 105
-0.138005157301596 -0.0695857175338559 0.00211560768260771 -0.9446864 0.3189431 -0.07643873 99 99 99
-0.136629670724545 -0.0656315983319473 0.00142462994225057 -0.9599887 0.2589241 -0.1066773 99 99 99
-0.135272000950575 -0.0573818579938588 0.00723736506823758 -0.9602986 0.2174368 -0.1747795 54 54 54
-0.139477795334073 -0.0660721999441025 0.0120390400938665 -0.915745 0.3024068 -0.2645021 82 82 82
-0.138206163706533 -0.0665180800882825 0.00759102233106884 -0.9443895 0.2470886 -0.2169694 87 87 87
-0.139873668095526 -0.068643579580508 0.0109466641004767 -0.9260786 0.2361025 -0.2943368 100 100 100
-0.136707092550169 -0.0603869118905973 0.0114116064706997 -0.9373397 0.3078949 -0.1630802 80 80 80
-0.136318258922533 -0.0588190595023006 0.0109108445954675 -0.9530618 0.2465265 -0.1757778 90 90 90
-0.135946029703813 -0.0572608090221767 0.010704759876808 -0.9588744 0.1712403 -0.226355 58 58 58
-0.136328316019635 -0.0615797303615182 0.00304134726068084 -0.9536902 0.2805898 -0.1083719 56 56 56
-0.14646345660482 -0.084798910815072 0.0122091139770045 -0.9163892 0.3987307 -0.03528103 50 50 50
-0.144611137917616 -0.0787591643834875 0.0141909791934732 -0.8999398 0.3725319 -0.2265578 86 86 86
-0.144010412795477 -0.0798452001169634 0.00820109781224471 -0.867822 0.4931608 -0.06064128 92 92 92
-0.142465497563172 -0.0781171675113628 0.0083073266366594 -0.8579853 0.5044993 -0.09665252 95 95 95
0.0608282275493925 0.200758732411719 -0.0175758913765514 -0.1525531 0.9720092 -0.1786778 103 103 103
-0.0140650978958523 0.105290494155308 -0.0210030158780243 0.1055217 -0.0477976 -0.9932676 154 154 154
-0.136151668109342 -0.0545071549382803 0.0126771382590731 -0.9435274 0.2135585 -0.253276 51 51 51
-0.134786429572126 -0.0526171161965088 0.00916869048643848 -0.9324178 0.3006548 -0.2005089 66 66 66
-0.133759287104603 -0.0492834828565134 0.010723172171885 -0.9462931 0.2625192 -0.188714 51 51 51
-0.136861679965129 -0.0543366328550781 0.0148163917989707 -0.9474782 0.2176376 -0.2343479 42 42 42
-0.141516793680744 -0.0752832595727679 -0.0116969337740779 -0.8313211 0.5538979 0.04585087 21 21 21
-0.139821156610687 -0.0724527355380182 -0.0102611908511618 -0.9308366 0.3652124 -0.01276962 43 43 43
-0.140375269198064 -0.0737558962286573 -0.011845925166152 -0.8719677 0.4893239 -0.01530708 39 39 39
-0.138941950875538 -0.0703377025839715 -0.0142512319449852 -0.9347806 0.3500957 -0.06015184 28 28 28
-0.119010784076888 -0.0817104715853612 -0.0253829859359677 0.1326262 -0.08132178 -0.9878244 203 203 203
-0.121152489879766 -0.0831239772137076 -0.025669450310831 0.08562127 -0.09916511 -0.9913805 211 211 211
-0.120950847023474 -0.0787628846464328 -0.0258465119768572 0.07480455 -0.02942493 -0.996764 192 192 192
-0.124751495860205 -0.0840345418516304 -0.0255248694029004 0.04212909 -0.07110385 -0.9965788 164 164 164
-0.126721008273172 -0.0796070571201606 -0.0262521956492527 0.07414262 -0.07259526 -0.9946018 138 138 138
-0.128187637240101 -0.0769303925251204 -0.0262893544514103 0.09329811 -0.02197384 -0.9953957 168 168 168
-0.129803164210779 -0.0739121096583324 -0.0261565620219907 -0.01419498 0.04969122 -0.9986637 176 176 176
-0.134608788712913 -0.0851179725943849 -0.0267961557045692 0.02323285 -0.07232077 -0.9971108 115 115 115
-0.13644153711326 -0.0827214371388272 -0.0267078264517419 -0.03468262 0.00128193 -0.9993976 75 75 75
-0.13144395081206 -0.0764018476382651 -0.0268856964406745 0.009231644 0.07215064 -0.9973511 148 148 148
-0.134069636399074 -0.0753070775561364 -0.0262058565955758 -0.0934369 0.109411 -0.9895952 122 122 122
-0.125008079152321 -0.0667519457345194 -0.0266331165687277 -0.02920627 0.0675284 -0.9972898 212 212 212
-0.128163024217284 -0.0704533811382324 -0.0263987832060656 -0.06479685 0.001452535 -0.9978974 132 132 132
-0.140565100445909 -0.0742641973364389 -0.0205796093613707 -0.8452365 0.5047127 -0.1756142 107 107 107
-0.137170947035774 -0.0667673681185112 -0.0169937084004284 -0.915958 0.3807144 -0.1267966 147 147 147
-0.138733662479227 -0.0702281441258088 -0.0162100546258082 -0.9239271 0.3779092 -0.0595258 59 59 59
-0.138180798871274 -0.0706319406806886 -0.0204020132915337 -0.8907564 0.4405893 -0.1115087 118 118 118
-0.13688936142462 -0.0693621205924784 -0.0245017414248915 -0.6835946 0.3461145 -0.6425754 133 133 133
-0.139184876182453 -0.0730637977555413 -0.0240956626276651 -0.7697408 0.3738321 -0.5174444 124 124 124
-0.133655675632572 -0.0663649206407506 -0.0256194465418376 -0.4554238 0.3101711 -0.8344957 172 172 172
-0.13365703263442 -0.0626094525475633 -0.0228751782687124 -0.7221772 0.5307584 -0.4435713 135 135 135
-0.137347530391255 -0.0688627028765567 -0.0224614742843615 -0.8387915 0.4555667 -0.2981404 124 124 124
-0.147270105080435 -0.0905519586482367 -0.0172121315418086 -0.9767314 0.2060522 -0.05948298 131 131 131
-0.146961508209891 -0.0904081245576618 -0.0146625695372561 -0.9721344 0.2333567 -0.02234794 99 99 99
-0.145561733901298 -0.0854755527832853 -0.013228058212735 -0.9397598 0.3404084 -0.03120345 22 22 22
-0.146796024131727 -0.0911313082210711 -0.0210720254257798 -0.9395022 0.07781181 -0.333588 78 78 78
-0.14506517319897 -0.0893824541919001 -0.024820302523244 -0.7360758 0.03808262 -0.675827 213 213 213
-0.142963356695057 -0.0815027463432916 -0.0197244080709111 -0.9296899 0.324034 -0.175153 70 70 70
-0.144559367893042 -0.0821209852521652 -0.0145374535914014 -0.9397119 0.3231383 -0.1119069 38 38 38
-0.145693398387043 -0.0843016937808809 -0.0103938244914816 -0.9514855 0.3064453 0.02768777 55 55 55
-0.143832143968724 -0.0812992556372532 -0.0156572029902354 -0.944055 0.3088168 -0.1157252 84 84 84
-0.143008630628784 -0.0770370118607631 -0.0175361920049011 -0.9215707 0.3652308 -0.1315825 49 49 49
-0.14312430630403 -0.0840550305514225 -0.025697195877892 -0.6445499 0.2571656 -0.7200148 161 161 161
-0.141675380486634 -0.0760431710845084 -0.0202639026816426 -0.8600037 0.4579404 -0.2251315 124 124 124
-0.136547475774183 -0.065881824986773 -0.00679797079650674 -0.9335796 0.3526318 0.06387487 27 27 27
-0.138324471255911 -0.0696788795474041 -0.00652104866677544 -0.9250152 0.3708761 0.08244836 52 52 52
-0.135719936135607 -0.0619245864272517 -0.00086110632978964 -0.9606925 0.2675067 -0.07423081 79 79 79
-0.13884530129336 -0.0695623360387503 -0.0101410592663398 -0.9302579 0.366863 0.005640795 44 44 44
-0.138400230724527 -0.0685314747359271 -0.0118908031790844 -0.9278492 0.3711529 -0.03662392 83 83 83
-0.135543010775732 -0.0620452361776394 -0.00670964311538619 -0.9489077 0.3155105 0.005219379 57 57 57
-0.135868329915101 -0.0623253181803547 -0.0106622358365837 -0.9226322 0.384892 -0.02465591 31 31 31
-0.133950878391468 -0.056077788525162 0.00102125542971543 -0.9614171 0.2458661 -0.1233974 69 69 69
-0.134857618440377 -0.0578163554749009 0.00285216324502208 -0.9616241 0.2475498 -0.1183134 75 75 75
-0.133959073160147 -0.0529744454154386 0.00482742435266081 -0.9675313 0.212036 -0.1375644 76 76 76
-0.134437621632707 -0.0580995712909351 -0.00719749851622253 -0.9276747 0.3587927 -0.1033804 58 58 58
-0.132486726040756 -0.0528309756988847 -0.00520834597763381 -0.9694811 0.2206557 -0.1068523 53 53 53
-0.135386465927728 -0.060188306630675 -0.000662829781678698 -0.960016 0.2726098 -0.06366485 80 80 80
-0.133604440486713 -0.0592149904824968 -0.0147286088603584 -0.9001838 0.3945201 -0.1844533 91 91 91
-0.132503879548962 -0.059962692234852 -0.0191848319456181 -0.8824479 0.4107394 -0.2293008 126 126 126
-0.132021984571888 -0.060298513233193 -0.0229479705156188 -0.7253844 0.4511281 -0.5199048 131 131 131
-0.130446036778553 -0.0548334840261107 -0.0208718338912706 -0.8810959 0.1875314 -0.4341682 88 88 88
-0.136244714783129 -0.0647563704381429 -0.0167299003767238 -0.869295 0.4570935 -0.1881267 160 160 160
-0.134470416108403 -0.0611591644133378 -0.0149971034020677 -0.8459426 0.4919448 -0.2058435 92 92 92
-0.137622067859034 -0.0671571045668056 -0.0165292660788736 -0.9196195 0.3751473 -0.1164663 123 123 123
-0.133262542609493 -0.0610708184841084 -0.0176669240789843 -0.8671582 0.4486893 -0.2161355 90 90 90
-0.13207954196754 -0.0533388289323595 -0.0130630247207303 -0.9692441 0.2170614 -0.1159756 53 53 53
-0.131435540180239 -0.0469789938410052 -0.00577492428177712 -0.9523063 0.2636293 -0.1536627 33 33 33
-0.131957546358656 -0.0507514993139273 -0.00552758245123752 -0.9785157 0.1516279 -0.1397 57 57 57
-0.132730678377567 -0.0480420562322057 -0.00365656217156557 -0.9699528 0.1944233 -0.1462575 40 40 40
-0.129743382781159 -0.0457813250698691 -0.0137018250180804 -0.9484759 0.2915755 -0.1240047 34 34 34
-0.12490639207012 -0.058202390855008 -0.0251028555709386 -0.2374553 0.08019853 -0.9680822 160 160 160
-0.128520150936512 -0.063888125950768 -0.025927525488987 -0.1695836 0.230349 -0.9582175 96 96 96
-0.127663209880349 -0.0533394066654749 -0.0248051219493893 -0.5481775 -0.08405487 -0.8321275 191 191 191
-0.129147535591108 -0.0527120275460797 -0.02329512364495 -0.823595 0.09861918 -0.5585387 97 97 97
-0.129602526968554 -0.0523312262321265 -0.0211025383974651 -0.89862 0.1887335 -0.3960578 71 71 71
-0.128494000339716 -0.0469062713183661 -0.0203757116906276 -0.9438394 0.2097153 -0.2553167 99 99 99
-0.128224841809661 -0.0451748853417084 -0.0224178555284337 -0.9573302 0.1814991 -0.2248931 95 95 95
-0.133489178336255 -0.0493664735509345 0.00434082236664024 -0.9834692 0.1679886 -0.06758779 75 75 75
-0.132984787984884 -0.045867870935077 0.00591782165984811 -0.9663184 0.244578 -0.08006409 37 37 37
-0.131517378062785 -0.0445509896034872 -0.00201645142783025 -0.9067384 0.4055342 -0.1156177 36 36 36
-0.131049157729144 -0.0432877722041622 0.00329357027324106 -0.9025168 0.3918907 -0.1785641 33 33 33
-0.132853666772661 -0.0422319841949166 0.011948130538904 -0.9515097 0.2686591 -0.1498385 25 25 25
-0.131278540629549 -0.0398203082021573 0.00968922771023745 -0.9282949 0.3304505 -0.1705023 23 23 23
-0.130247392427355 -0.035514331005531 0.0136061527582214 -0.9472445 0.2985224 -0.116672 38 38 38
-0.130545103205411 -0.0441890403112213 -0.00226274341807858 -0.9128751 0.3943774 -0.1054778 55 55 55
-0.128744887627293 -0.0391293397889172 -0.00413625406446488 -0.958923 0.2725694 -0.0785661 65 65 65
-0.129030027763628 -0.0390352059152539 -0.000758666807843478 -0.9540693 0.2385702 -0.1812075 38 38 38
-0.1289524834344 -0.0356117384573407 0.000409539278275806 -0.9536664 0.2367152 -0.1857045 29 29 29
-0.127867058382191 -0.0377458870655618 -0.0122216944079273 -0.9701222 0.2214487 -0.0991134 52 52 52
-0.0573870698782781 0.174579413125315 0.00019857599144063 -0.9536074 0.2962736 0.05343094 41 41 41
-0.0773078669795177 0.124777105802297 0.00628632063849632 -0.9184809 0.3951997 0.01449064 108 108 108
0.0269943403081285 0.066393681524703 -0.0230413590027719 0.09177783 0.2981778 -0.9500878 116 116 116
-0.0466903924816524 0.203347281445428 -0.0152574548258336 -0.9515913 0.2845396 -0.1162377 82 82 82
0.0256330906534386 0.189929685321728 -0.014178606727052 -0.5662907 0.7159149 -0.4083878 44 44 44
0.0730817521298492 0.159391484225725 -0.026455018933196 -0.2324152 0.007787589 -0.9725855 193 193 193
-0.0455514174301088 0.0466231404169482 -0.0283350234354809 -0.170431 -0.08722389 -0.9815015 211 211 211
-0.0124889585569683 0.130484874364029 -0.023471920200447 0.174705 -0.1314435 -0.9758077 180 180 180
0.0815548003354332 0.189510300407163 -0.0285476523393996 0.9588845 0.0232363 -0.2828438 121 121 121
-0.100498189437616 0.0454569839160985 -0.0233040824178491 -0.94813 0.2791469 -0.1520744 68 68 68
-0.0636347530752106 0.161749551672762 -0.000232030540112504 -0.9354708 0.3410122 -0.09276371 30 30 30
-0.0958622426809104 0.0671374923683923 0.00514804129904017 -0.9343378 0.3203095 -0.1562521 38 38 38
0.0799525926963089 0.175949357039867 -0.00760039826662484 0.9487723 0.2694843 0.1649524 56 56 56
0.0937935957973051 0.080946872313068 -0.0211673172213228 0.1595561 -0.1152731 -0.9804356 111 111 111
-0.0407945204260431 0.20834812525068 -0.0254852764764404 0.0965794 0.9348923 -0.3415389 183 183 183
0.0788869208219913 0.132825148008802 -0.0262533866565276 -0.2521189 -0.1028935 -0.9622105 153 153 153
-0.072215081478511 0.131489505082697 -0.0231240337668564 -0.8833114 0.4203525 -0.2075206 47 47 47
-0.0550527561193239 0.184566129166081 0.00402605658136806 -0.9297837 0.3142627 -0.1916799 91 91 91
-0.0370769367207915 0.0845642741324437 -0.0245165108340594 0.09868994 0.03198794 -0.994604 180 180 180
0.029621202122573 0.188597404673621 -0.0206937256352506 -0.4194857 0.6741107 -0.6079528 37 37 37
-0.108668357702108 0.0232319629951776 -0.012179263385273 -0.9222487 0.3456143 -0.1732288 88 88 88
0.0483392897970347 0.200999337430497 -0.0167336554502028 -0.02626174 0.99788 -0.05954749 22 22 22
-0.101088176405379 0.0390209435753832 -0.0283370623117996 -0.8023828 -0.0191228 -0.5965033 75 75 75
-0.10279308531635 0.0334142967989453 -0.0261439176507002 -0.885478 0.2972998 -0.3571297 192 192 192
-0.0069629147192698 0.114793395629 -0.0211709393040667 0.1034943 -0.04431012 -0.9936426 170 170 170
-0.0166465035989973 0.198400826673324 -0.0133757121608615 0.283562 0.9557533 -0.07828361 37 37 37
0.0882522380869677 0.149835054980562 -0.0229034390315845 0.9594179 0.268342 0.08665925 96 96 96
0.0515202474469398 0.158081961256288 -0.0199187176376944 -0.1947275 -0.1073018 -0.9749705 162 162 162
-0.107916438397677 0.0332797175551527 0.00925456348377895 -0.9651947 0.2189721 -0.1430049 41 41 41
-0.0540868774419518 0.177717812338778 -0.0156757510023892 -0.9163165 0.3643341 -0.1662069 50 50 50
-0.0492470235866134 0.0540014297039917 -0.0270371519042414 -0.0584899 0.05562047 -0.9967373 126 126 126
0.0587895266759508 0.200584087886459 -0.0240830880374504 -0.2234255 0.8069043 -0.5467966 60 60 60
-0.0925872173511455 0.0648984181849142 -0.0290503869433326 -0.8678676 0.2919192 -0.4019813 44 44 44
-0.030656071368639 0.170233536604336 -0.0311733718928525 0.09974425 -0.02824213 -0.9946122 177 177 177
-0.00536807363137637 0.125920926888151 -0.0213889767963496 0.1370057 -0.1265119 -0.9824582 164 164 164
0.0439569113155742 0.0679737691162132 -0.0205809598219389 0.2477874 0.07274778 -0.9660793 130 130 130
-0.0269399667365553 0.191299552414886 -0.0320806828424944 0.2445088 -0.1227404 -0.9618473 194 194 194
-0.0415759284157344 0.122343321427238 -0.0278846179564896 0.2029137 -0.0719991 -0.976546 176 176 176
0.105148607919673 0.0585220885356252 0.0277633108351756 0.8660997 0.4336357 -0.2486594 60 60 60
0.102674043958213 0.06333906645114 0.027242010130362 0.8945858 0.3811904 -0.2332598 27 27 27
0.102732795379418 0.0598690821440204 0.0197073216979887 0.8823785 0.4156646 -0.2205245 88 88 88
0.102039135079954 0.0622246490665692 0.0215645189334029 0.8879001 0.4253086 -0.1753457 89 89 89
0.101755687520949 0.0658091427236289 0.0265084763270889 0.9196763 0.3140213 -0.2357671 46 46 46
0.100886884971484 0.0637654288006528 0.0215343551921853 0.9145037 0.3569427 -0.1904597 79 79 79
0.100592747419822 0.0643261952314356 0.0169318406184413 0.9365723 0.3192748 -0.1445546 83 83 83
0.099497166478788 0.0665625818919318 0.0171917412039453 0.9559409 0.2544559 -0.146387 98 98 98
0.100404897337332 0.0714390843753596 0.0263502888142395 0.9429529 0.2734332 -0.1899318 57 57 57
0.0991847484302695 0.0738679365307191 0.0228094340715895 0.9455904 0.2764719 -0.1715288 49 49 49
0.0980142349315134 0.0746844179215223 0.0204584156390203 0.936691 0.3159941 -0.1508564 61 61 61
0.0982125730707377 0.0761526700828936 0.0242808529109661 0.9324607 0.3251427 -0.157478 23 23 23
0.0978366750632436 0.076871473045258 0.0222621341072601 0.9241647 0.3481677 -0.1571592 46 46 46
0.0987282683523647 0.0715510064418943 0.0166671000550385 0.9691815 0.2088883 -0.1305863 92 92 92
0.0979179134141863 0.0743645917678155 0.0172470545617769 0.9654954 0.2468547 -0.08295417 81 81 81
0.097397923488606 0.0759130789525864 0.0160123149450104 0.9656705 0.2572669 -0.03597512 62 62 62
0.0965377321656797 0.0793191179485784 0.0215875888097587 0.9437863 0.319617 -0.08433463 46 46 46
0.0970349584021406 0.0772523392474378 0.0135884626246625 0.9846194 0.1723869 -0.02841599 69 69 69
0.100679851924078 0.0612882273303645 0.0153963429945811 0.9243765 0.349604 -0.1526599 68 68 68
0.0994735118379033 0.0661625808482622 0.0173699890798154 0.957642 0.2472904 -0.1475445 104 104 104
0.0997437761134052 0.0631933660739525 0.0113134226213081 0.9440191 0.3253999 -0.0542472 82 82 82
0.0986576039084843 0.0680647519561937 0.0162535463598246 0.9576496 0.2469776 -0.1480177 94 94 94
0.0973924646723683 0.0703612150477242 0.0140886651577034 0.9731851 0.2068472 -0.1006229 69 69 69
0.0988279353618875 0.0670877932131027 0.00499106654526249 0.9471238 0.3208672 0.0009394267 73 73 73
0.0978809366858671 0.0704422971898804 0.0103048285766067 0.9717032 0.2233435 -0.07688022 67 67 67
0.0974025076656826 0.0735208156737355 0.0101815538567075 0.9820132 0.1637568 -0.09398801 66 66 66
0.0970427898020683 0.0746725126183545 0.0103643650511719 0.9858972 0.1469212 -0.08012959 83 83 83
0.0959293570139828 0.0796145177131367 0.0194872367194909 0.9605762 0.2777691 -0.01172968 76 76 76
0.0955011021231487 0.0841778821691928 0.0256914812534204 0.9707492 0.2209573 -0.09393555 56 56 56
0.0954657236291641 0.0829464367615245 0.0240509657390688 0.9685106 0.2342224 -0.08442136 15 15 15
0.0953124105648095 0.0842453814085169 0.0196206312344749 0.9797282 0.1998164 -0.01435682 89 89 89
0.0945565560823609 0.0916009701038905 0.024111402404199 0.9797657 0.1556109 -0.1258745 54 54 54
0.0942595519839204 0.0879627339264157 0.01913797721564 0.9794434 0.1959678 -0.04782536 35 35 35
0.0942812095063865 0.0884635044196938 0.0210199439776806 0.9807532 0.1811232 -0.07292117 47 47 47
0.0934019224297824 0.0955676554239293 0.0214741834292887 0.975183 0.1014824 -0.1967724 86 86 86
0.0936251663257091 0.0898451826289712 0.018095117413272 0.9645994 0.2565758 -0.06096663 30 30 30
-0.00988165563256649 0.195315847494593 -0.00116702396261276 0.428898 0.8289904 -0.358917 18 18 18
-0.0183377123423867 0.130580484172967 -0.0246525356682604 0.1323707 -0.08593761 -0.9874678 193 193 193
0.095906752875301 0.0824482029223066 0.00981839272922641 0.9840058 0.1781327 -0.001156568 43 43 43
0.0947201138499558 0.0873221915493514 0.00918991754856435 0.9534007 0.2994509 0.03682846 68 68 68
0.0957066885706608 0.085846190271577 0.00268291549666144 0.9531236 0.3023062 -0.01290132 42 42 42
0.0953682696377003 0.0866302384786288 0.00732475559986751 0.9416925 0.3352817 0.02831 76 76 76
0.0971764605545027 0.0818023102405485 -0.0049252557696402 0.9832772 0.1580289 0.09051432 61 61 61
0.0973557282876483 0.0711697622087004 0.00205636303756102 0.9508736 0.3094642 -0.008441586 57 57 57
0.0969439881281438 0.0722374280921756 0.00499805752061494 0.953984 0.2823016 -0.1010955 59 59 59
0.0962743955163421 0.0732231789865567 0.00188265482651312 0.9637148 0.2666698 -0.01187774 39 39 39
0.0973613715863495 0.0707575236549434 -0.00138500737249109 0.9678419 0.2509988 -0.01678289 58 58 58
0.0967702442851444 0.0738215399493629 -0.00276866909545775 0.9769978 0.1871168 0.1022867 71 71 71
0.0973090439120505 0.0709174575509606 -0.00467203380542625 0.9800308 0.1939082 0.04403691 75 75 75
0.0966785845242852 0.0791844115981124 0.00832068447825862 0.9899457 0.1113992 -0.08716546 73 73 73
0.0958079796460614 0.0811045382702009 0.00494735364245813 0.9938779 0.08018917 -0.07600224 119 119 119
0.0945410502561814 0.0871442511310172 0.0016069499758618 0.9197145 0.3891321 -0.05197568 12 12 12
0.0976841652915996 0.0747205408331992 -0.0073363468170683 0.9920809 0.1011512 0.07445717 47 47 47
0.0970605585073363 0.0769860216932294 -0.00866704075981067 0.996155 0.08469206 0.02241364 16 16 16
0.0966101998004647 0.0797134680233926 -0.00853828067451462 0.9894125 0.141298 0.03313356 20 20 20
0.0968737791436456 0.0808451900055178 -0.0120825734850249 0.981549 0.1494593 0.119262 42 42 42
0.0952491771223665 0.0841900951850549 -0.0086958605242915 0.9664531 0.2532675 0.04270669 117 117 117
0.0956656021355871 0.0849951024829367 -0.00259451095287644 0.9218147 0.3874392 -0.01218984 24 24 24
0.0947683202676877 0.086601599824021 -0.00245841762300331 0.9217459 0.38775 -0.005875374 21 21 21
0.0935570983641147 0.0906407171184993 -0.00123758766768606 0.9666194 0.2559301 0.01211786 13 13 13
0.095191168205877 0.0875701084002407 -0.00701869434963753 0.9406302 0.3256518 0.09573788 19 19 19
0.0945530304084059 0.0893487339653016 -0.00837273366416225 0.953202 0.2700045 0.1360278 46 46 46
0.0929551751489708 0.0948177808912956 -0.00511688614324463 0.9789943 0.1690107 0.1140418 18 18 18
0.0938750957701693 0.0906916720751303 0.0126476671748394 0.9468806 0.3212917 0.0137406 35 35 35
0.0924325109458266 0.097062593234442 0.017362511434378 0.9739583 0.0909262 -0.2076963 59 59 59
0.0922471163613414 0.0982846763547118 0.0177719050095049 0.9736845 0.05690765 -0.2206808 36 36 36
0.0921707329889854 0.100021304879196 0.0171013148690474 0.9695788 -0.01660448 -0.2442157 69 69 69
0.0938206005339728 0.104320459331235 0.0206648299234382 0.9791682 0.01243159 -0.2026701 80 80 80
0.0907462836232105 0.103648690874114 0.0116525203395695 0.9723864 0.06207385 -0.2249703 71 71 71
0.0921544356766457 0.109365554462511 0.0175593630514608 0.960595 0.1458271 -0.2366256 65 65 65
0.0903043658784992 0.105784042135583 0.0118136735188194 0.957562 0.1060086 -0.2680248 30 30 30
0.0931460343968511 0.0924068026211577 0.0125025166375639 0.9428095 0.3333102 -0.003813087 40 40 40
0.0919043940862743 0.0947891845104203 0.0126514995399863 0.9499598 0.3035953 -0.07352713 60 60 60
0.0926544998238454 0.0934647752994222 0.00908415837666843 0.9401425 0.3407184 0.00656362 56 56 56
0.0928035949432049 0.0921423623279989 0.0045565550247299 0.9478295 0.3180696 -0.02123278 44 44 44
0.0908232451154976 0.0974016616103763 0.0123466600156557 0.9771128 0.1826423 -0.1090525 48 48 48
0.0908093856230816 0.101585640122558 0.012382418827801 0.9790655 0.0636936 -0.193323 87 87 87
0.0924490639420679 0.0943158876331078 0.000599938233998398 0.9696845 0.2388566 0.05157032 41 41 41
0.0907466003660407 0.099045875122419 0.0063726499608231 0.9660058 0.2582156 0.01255191 30 30 30
0.0904076620340195 0.101691809397994 0.00824586171383307 0.9824864 0.1750289 -0.063917 38 38 38
0.0912880354184509 0.0984464462978116 0.00305496003016675 0.9582665 0.2807518 0.05388625 21 21 21
0.0925343049533009 0.0955759596459012 -0.0022748340718276 0.9754389 0.1902052 0.1110899 60 60 60
0.0919580137098626 0.0967595548353992 -0.00286248881700568 0.9720104 0.1902555 0.1378352 19 19 19
0.0898059651640248 0.104707896395107 0.0108412657024911 0.9656593 0.1084726 -0.2360844 74 74 74
0.0892733212018566 0.109888142887827 0.00873871088327338 0.9703923 0.1301745 -0.2034536 49 49 49
0.0890475677496276 0.107604165203366 0.00587631017892359 0.978556 0.1633669 -0.1254569 48 48 48
0.0884194169133727 0.107716922913857 0.00187307238221213 0.976266 0.2160556 -0.01498783 18 18 18
0.0887318748769954 0.110103146286367 0.00416320607329296 0.980553 0.1644916 -0.1070431 49 49 49
0.0973307606059559 0.0830821226637639 -0.016782029190946 0.9738094 0.1420945 -0.1774951 50 50 50
0.0967865897524982 0.0847272494853046 -0.0162388186831453 0.961435 0.2617906 -0.08431123 44 44 44
0.0969927898344696 0.0840913521017053 -0.0185503186185406 0.9312764 0.1477037 -0.3330284 79 79 79
0.0876430870966756 0.0801503430501367 -0.0211251439184323 0.02602962 -0.1069089 -0.993928 122 122 122
0.094623531537529 0.0831540510038669 -0.0221217157738247 0.3430375 -0.05521453 -0.9376975 146 146 146
0.093494154147955 0.0837233071167587 -0.0215794058249817 0.2435615 -0.01959524 -0.9696875 123 123 123
0.0876812403997591 0.0815581499441909 -0.0209833321476693 0.01007424 -0.065276 -0.9978164 150 150 150
0.0957092401522885 0.0876808015549657 -0.0192031272875159 0.8963193 0.2818683 -0.3422891 56 56 56
0.0948440210222428 0.0900910178052288 -0.0194369616504361 0.891285 0.2384318 -0.3856959 55 55 55
0.0947413893150646 0.0901735321650878 -0.0204747748564349 0.8287379 0.1946249 -0.5247043 41 41 41
0.0891673752065634 0.0871585284936742 -0.0213597809328188 -0.07769414 -0.09479838 -0.99246 154 154 154
0.0861181203806192 0.0880759683508232 -0.0213997512708447 -0.02142385 -0.08667827 -0.996006 147 147 147
0.0834145654699383 0.0790173998788648 -0.0210917633726344 -0.02432545 -0.08807638 -0.9958166 155 155 155
0.0780506647196777 0.0780559054954382 -0.0204487536339206 -0.1142231 -0.1524674 -0.9816857 144 144 144
0.0747459254701961 0.0788186518578404 -0.0203340742471902 -0.06075623 -0.1913776 -0.9796343 165 165 165
0.0847877459129629 0.0842172560131629 -0.0212571473220026 -0.01441498 -0.05935758 -0.9981327 158 158 158
0.0796338868698996 0.082076232693431 -0.0210627097779861 -0.06097004 -0.04797291 -0.9969861 130 130 130
0.0780003596537657 0.0825046988962883 -0.0209730849618244 -0.05924559 -0.04418499 -0.9972651 141 141 141
0.0803681907377527 0.0843112530569803 -0.0212654636397454 -0.05961444 -0.02654035 -0.9978686 102 102 102
0.0821339016571003 0.0894370640989333 -0.0217476602860137 -0.09521554 -0.05406388 -0.9939875 154 154 154
0.0760249314297265 0.0831480697080205 -0.0211465205397365 -0.06057222 -0.04100481 -0.9973212 160 160 160
0.0746588407739677 0.0851828331665736 -0.0206576730786572 -0.081048 0.02115828 -0.9964856 152 152 152
0.0948397316300498 0.0905416947387003 -0.0135504569617989 0.9611192 0.2637343 0.08181765 28 28 28
0.0931577831499788 0.0958607651813428 -0.00792380504052798 0.9765244 0.1873826 0.1062448 14 14 14
0.0930956107173566 0.0978264550802581 -0.0117469688349545 0.9558299 0.2905801 0.04418633 42 42 42
0.093952227505778 0.0940649597289247 -0.0157571247509162 0.9710156 0.2389969 0.003036585 53 53 53
0.0931882754934001 0.096778220492064 -0.0182592733536264 0.953459 0.2463898 -0.1738044 19 19 19
0.0928513819459105 0.0990682121601283 -0.0135258749469602 0.9497229 0.3120356 0.0256933 25 25 25
0.0919487357727498 0.101328543641547 -0.0157552462547727 0.9250504 0.3795885 0.0139397 58 58 58
0.0741133031064005 0.0887448020155095 -0.0207605396512168 -0.05844285 -0.000944113 -0.9982903 148 148 148
0.0847464736088428 0.0905466881318273 -0.0219411855509805 -0.04754788 -0.07758949 -0.9958509 150 150 150
0.0897878680058737 0.0927148836930309 -0.022239897237016 0.09673981 0.01848463 -0.995138 169 169 169
0.0926278603885446 0.0980815384108944 -0.0215065360312648 0.7588236 0.2071051 -0.6174903 44 44 44
0.08485935379825 0.0923201250411281 -0.021855255907934 -0.06121389 -0.0709134 -0.9956024 159 159 159
0.0871040333660056 0.0981910744825016 -0.0224935410038721 0.03705967 -0.09428102 -0.9948556 146 146 146
0.0917584457136136 0.101239196338622 -0.0203888184220768 0.8450021 0.2333898 -0.4811452 39 39 39
0.0906087746366087 0.104022517072925 -0.0199304280871622 0.8955107 0.3395033 -0.2877465 63 63 63
0.0886291620245201 0.10218079483828 -0.0229574221026425 0.4449433 0.07615711 -0.8923147 183 183 183
0.0880613116148679 0.104019832320938 -0.0233240838505575 0.3724678 0.05763131 -0.926254 141 141 141
0.0831279812635883 0.0999082196545091 -0.0226520937524944 -0.1057756 -0.1558709 -0.9820976 178 178 178
0.0851715912144289 0.105616965495181 -0.0233395821155843 0.1297913 -0.04674588 -0.9904388 139 139 139
0.0775750892546716 0.0936789532834077 -0.0208588355619394 -0.09555788 -0.03265039 -0.9948882 120 120 120
0.0768700724590357 0.0932410910127826 -0.0212853100836325 -0.0914777 -0.02986257 -0.9953592 139 139 139
0.0748484725910714 0.0945851662302344 -0.0208327884233359 -0.1245543 -0.0002840805 -0.9922128 152 152 152
0.078641303498971 0.096873892565801 -0.0214737179599603 -0.1403701 -0.07350444 -0.9873669 117 117 117
0.0785927880656798 0.0989004796276785 -0.0215777593821684 -0.1652341 -0.1308894 -0.9775304 176 176 176
0.0766607408193396 0.0997450465831813 -0.0212113930961465 -0.1792669 -0.1133078 -0.9772537 156 156 156
0.0747561764261979 0.095448211631882 -0.020964271375926 -0.1523949 -0.008331848 -0.9882846 183 183 183
0.0745140912105593 0.0985181446224268 -0.0209303813041792 -0.1850519 -0.05231937 -0.981335 154 154 154
0.0731884431942218 0.100874440065367 -0.0205572495762266 -0.2393544 -0.08928804 -0.966818 157 157 157
0.0799828344385896 0.100866035771984 -0.0221808455846403 -0.1737843 -0.1414102 -0.974578 146 146 146
0.0761653082098706 0.10213696410185 -0.0219765162636852 -0.2348104 -0.1104213 -0.965749 174 174 174
0.087686767233178 0.121030480106144 -0.0058300993997959 0.9953448 0.093124 0.02483448 48 48 48
0.0879907617236442 0.119780102206591 -0.014192862308294 0.9983169 -0.04759298 0.03313968 86 86 86
0.087985847362527 0.121803336559558 -0.0172058271781658 0.9967099 -0.03072609 0.07500228 26 26 26
0.0876510500252934 0.124222410299889 -0.0125421682768735 0.9900982 0.07350179 0.1195957 18 18 18
0.0920903303940444 0.0988794973661233 -0.00504997610256958 0.9668736 0.2265322 0.1176375 27 27 27
0.0916586194812359 0.100902039244201 -0.00676318349129368 0.95857 0.2779594 0.06230698 28 28 28
0.0893425308229792 0.106109120639919 -0.000538040627214575 0.953294 0.2943945 0.06754627 50 50 50
0.0897657774306193 0.106606310553711 -0.00549297979724489 0.9277797 0.3729052 0.01290465 64 64 64
0.0917719402208457 0.101424268437209 -0.0121684585650735 0.9368743 0.3496398 0.004320561 26 26 26
0.0886403931146384 0.108744621773984 -0.00609408494286245 0.9526559 0.3035833 -0.01685084 23 23 23
0.0892173565868535 0.107216258233346 -0.0100617250522604 0.9316287 0.3610306 -0.04153065 57 57 57
0.0883630641725097 0.108839328017648 -0.0102565545313176 0.9536195 0.2983191 -0.04019246 35 35 35
0.0881365731948272 0.109392459945802 0.000681181874431169 0.9738937 0.226684 -0.01205838 8 8 8
0.0878958659701632 0.112331758024627 0.00187124161024216 0.9898814 0.1279258 -0.06139899 27 27 27
0.0888446264357272 0.111313805599005 -0.0056591464698022 0.9746107 0.2229476 -0.02069376 45 45 45
0.0876716463486025 0.115841854627523 -0.00326293600305821 0.996734 0.07173878 0.03707851 39 39 39
0.0906259136359933 0.104141202467292 -0.016262871263272 0.9175601 0.3975971 0.0002808752 74 74 74
0.0893233023748778 0.106651553439272 -0.0182772683597613 0.9440585 0.3184941 -0.08552741 57 57 57
0.0880371725806923 0.109885315807596 -0.0156907611925118 0.9674734 0.2517799 0.0245361 38 38 38
0.0891635595600064 0.106700376991532 -0.020986965508734 0.8468611 0.2852656 -0.4488316 56 56 56
0.0863673224603199 0.109135601446503 -0.0235678959626252 0.5129 0.1459258 -0.8459547 152 152 152
0.0812744215730388 0.106731342273181 -0.0233358818038054 -0.1174025 -0.0926192 -0.9887559 162 162 162
0.0875213802409105 0.114647980899402 -0.0161140766251452 0.9981051 0.06110351 -0.007249497 129 129 129
0.0714040874649786 0.101458533871536 -0.0201896571333154 -0.2352145 -0.07417289 -0.9691091 159 159 159
0.0766841923558612 0.103966425214578 -0.0219402185020373 -0.2381599 -0.1265036 -0.9629521 142 142 142
0.0746766724433829 0.106731878658289 -0.0213990637994403 -0.2149822 -0.1207511 -0.9691243 161 161 161
0.0759906549246687 0.106406999645644 -0.0218522232026152 -0.2199834 -0.1205983 -0.9680203 167 167 167
0.0723359117864057 0.10528662362063 -0.021067411664637 -0.2209155 -0.1630607 -0.9615651 160 160 160
