ply
format ascii 1.0
comment File exported by Rhinoceros Version 7.0
element vertex 472
property float x
property float y
property float z
property float nx
property float ny
property float nz
property uchar red
property uchar green
property uchar blue
end_header
0.143269709301328 0.0364920421511756 0.025766674740137 -0.2318749 -0.9164031 -0.3262504 114 114 114
0.139973573721811 0.0361508953729408 0.0185586855821115 -0.07272042 -0.99523 0.0650316 94 94 94
0.139784634544265 0.0366638429096029 0.0154218252169587 -0.1088302 -0.9935082 0.03312979 73 73 73
0.138302055672523 0.0364066207327636 0.0157428625992347 -0.1070932 -0.9942428 -0.00350505 88 88 88
0.141239432607927 0.0382669739965702 0.0205433362481812 -0.140569 -0.9894854 0.03404287 86 86 86
0.140381082108412 0.0391913093869893 0.0210027414752078 -0.2908943 -0.956456 0.02392595 85 85 85
0.140273334113628 0.0388482808744774 0.0191617428511663 -0.1341012 -0.9871341 0.08708145 89 89 89
0.141044184436442 0.0392166519215489 0.0233882032240749 -0.5109325 -0.8585882 -0.04212243 86 86 86
0.140410560842409 0.0403148947791838 0.0222358274472058 -0.4513434 -0.8923497 -0.001064769 97 97 97
0.138574135995469 0.0334174785081593 0.00720089881424971 -0.006417752 -0.9956823 -0.09260468 74 74 74
0.138542928533288 0.0377702209591755 0.0122865545826728 -0.07755511 -0.9890239 -0.1257655 82 82 82
0.13838857279198 0.0384573876191108 0.0150442391436395 -0.04504347 -0.9939312 -0.1003586 84 84 84
0.139273279274397 0.0402261765709049 0.0161019209346618 -0.07057425 -0.9962379 -0.05029331 71 71 71
0.137891030307074 0.0429405856758893 0.0217047629512238 -0.5133445 -0.8216643 -0.2476799 82 82 82
0.137712680061567 0.0345218803197116 0.00632961424112535 0.001231947 -0.9931425 -0.1169039 71 71 71
0.137437558911578 0.0334917613264212 0.00439843626354328 0.05854233 -0.9982629 -0.006634993 78 78 78
0.137268472249666 0.0367799644809415 0.00770403107517634 -0.04585193 -0.988593 -0.1434628 86 86 86
0.1366225111565 0.0381311016458292 0.00642937876868266 0.02517824 -0.9990706 -0.03498422 94 94 94
0.136742408782408 0.037722094454306 0.00785628419962581 -0.002112025 -0.9855343 -0.169463 97 97 97
0.137233967717598 0.0394026703256642 0.00931054409391038 -0.02023107 -0.9820059 -0.1877634 69 69 69
0.134188200271749 0.0382804954088969 0.00157140783994747 0.09455479 -0.7725351 0.6278924 190 190 190
0.136155657387016 0.0376471049882758 0.00378139129366778 0.07366408 -0.9818816 0.1745912 86 86 86
0.131888000673506 0.0357363279769658 0.000668581567045162 0.05397031 -0.5364625 0.8421966 99 99 99
0.129903134309254 0.0383530240288539 0.00161647837986051 0.0491268 -0.4583857 0.8873945 97 97 97
0.127861879715427 0.0373201519385593 0.00117749522084584 0.05526475 -0.4523317 0.8901359 82 82 82
0.127520957868572 0.0378150597870013 0.00109901733803833 0.05493058 -0.4508305 0.8909178 77 77 77
0.127516359131673 0.0395338015163451 0.00233000422957133 0.02654148 -0.4548551 0.8901699 103 103 103
0.129881646753231 0.0405337458582646 0.00263083680560394 0.01972855 -0.4656471 0.8847506 93 93 93
0.1314326379733 0.04220752749671 0.00356493304862041 0.01290843 -0.464205 0.8856337 114 114 114
0.136603647902383 0.0408045274233979 0.0086929204840239 0.01565228 -0.992667 -0.1198639 83 83 83
0.135099548901022 0.0425002194370787 0.00499177159672143 0.04892737 -0.9412683 0.3340959 114 114 114
0.13234062515146 0.0438677131283469 0.00453442137727514 -0.01919648 -0.533114 0.8458256 79 79 79
0.129653334526495 0.0436448401844907 0.00472503582162856 -0.006624684 -0.4630152 0.8863256 130 130 130
0.128278730769659 0.0434220199257369 0.00456125628322249 0.003789679 -0.4484724 0.8937886 147 147 147
0.128337563587749 0.0421056289891493 0.00330899187722755 0.0002063929 -0.4414286 0.8972963 173 173 173
-0.0958546210977564 0.115063845909077 0.0450963404606063 -0.01800765 -0.42436 0.9053144 127 127 127
0.125713174721592 0.0371429219229331 0.00131515407118943 0.04284554 -0.4351874 0.8993199 123 123 123
0.122009462511503 0.0374376336872686 0.00152517058586113 0.04504573 -0.4167222 0.9079171 129 129 129
0.121601096397399 0.038975055160366 0.00157850897637984 0.04808791 -0.4358679 0.898725 156 156 156
0.125371886796824 0.0414517864393231 0.00365145450101287 0.01175402 -0.4480113 0.8939506 150 150 150
0.123671390483785 0.0394587289095898 0.0021394421991873 0.02011561 -0.4319849 0.9016565 156 156 156
0.118318652668093 0.0383328347647642 0.00173658687157169 0.05312662 -0.4514832 0.8906966 138 138 138
0.115747910036883 0.03742057601296 0.00121701612893663 0.04497251 -0.4593697 0.8871059 106 106 106
0.115987655936101 0.0385218384571477 0.00177228870845147 0.03617128 -0.4576436 0.8883997 132 132 132
0.118490519358172 0.0405869840148725 0.00272509288013256 0.03743112 -0.4463585 0.894071 145 145 145
0.116097282248317 0.040109271833487 0.00267333639526582 0.02994621 -0.4497916 0.8926314 167 167 167
0.123775810490185 0.0440904136489766 0.00476019790493698 0.03889471 -0.4544132 0.8899415 134 134 134
0.125836687033395 0.0442879477636315 0.00506740978230016 0.02438735 -0.4649475 0.8850023 169 169 169
0.119917393956305 0.0436523861732601 0.00464384740377025 0.01384397 -0.4451759 0.8953361 133 133 133
0.118317013146499 0.0440067642087631 0.00484767457332955 0.02329361 -0.4444209 0.8955152 123 123 123
0.116530236146682 0.0439327170564132 0.0048383577803788 0.02408999 -0.4475924 0.8939131 118 118 118
0.138249824617576 0.039515330156545 0.0164540859406588 -0.07057425 -0.9962379 -0.05029331 91 91 91
0.137093871049568 0.0405626998336008 0.0154152574077096 -0.04539596 -0.9775198 -0.2058987 77 77 77
0.137104877450714 0.0401511491456199 0.0112214747435432 0.02384357 -0.9768451 -0.2126147 87 87 87
0.137750944694769 0.0429025907245499 0.0151676721839888 0.02947325 -0.9597035 -0.2794646 62 62 62
0.13797117868342 0.0426449631079819 0.0189358588550969 -0.1567058 -0.9692808 -0.1895733 95 95 95
0.136625675604917 0.0448548506036983 0.0180575960907579 -0.3007109 -0.869025 -0.3928976 78 78 78
0.136285707449011 0.0460662071004598 0.0194115807273802 -0.5683106 -0.7114297 -0.4133894 83 83 83
0.136652969541208 0.0425891356327117 0.0122152468079377 0.07917529 -0.9513581 -0.29774 80 80 80
-0.130735928096178 0.105658123124129 0.0703551936636156 -0.03095709 0.9484649 0.3153664 63 63 63
0.1364622017129 0.0456727015842102 0.0108236043761069 0.1235234 -0.9687925 -0.2149024 78 78 78
0.136633397428732 0.0478628780048 0.0108448765905692 0.005868236 -0.9915573 -0.1295365 80 80 80
0.136874102776444 0.0475333808919089 0.0126419750694759 -0.1023699 -0.9444736 -0.3122338 81 81 81
0.137864948145677 0.0454095228370077 0.015517805892143 -0.0901709 -0.9163873 -0.3900046 74 74 74
0.136799531005995 0.0459791017116296 0.0149867470991667 -0.1350825 -0.9077137 -0.3972512 66 66 66
0.137360944274556 0.0468205933896548 0.0164827310962951 -0.3000347 -0.8400985 -0.4519001 67 67 67
0.134310189709494 0.0477021565836477 0.0188044094347174 -0.7660644 -0.5091677 -0.3922927 59 59 59
0.135915153679 0.0490873951931186 0.0170301172544546 -0.6842906 -0.5909775 -0.4271909 69 69 69
0.135454970544873 0.0500089605992591 0.01618556097266 -0.7091224 -0.6023598 -0.3664808 75 75 75
0.133874242080934 0.0504149482926104 0.0162601762405158 -0.8056594 -0.4873016 -0.3368236 69 69 69
0.131391249408597 0.0509585409617548 0.0158999755089671 -0.885834 -0.3596505 -0.2931716 62 62 62
0.130700931121396 0.0507963822606858 0.0169783676814741 -0.8897743 -0.3609644 -0.2792963 69 69 69
0.128300288838757 0.0517531096609027 0.0166821562042855 -0.8662097 -0.4383386 -0.2398751 64 64 64
0.104255071128696 0.0129622007135923 -0.0111120620974897 0.03943101 -0.4442649 0.8950273 131 131 131
0.109119948556457 0.0137322018988444 -0.0114223536355673 0.01647979 -0.4577453 0.8889306 139 139 139
0.109458956472979 0.0150314344503302 -0.0106564241511964 0.03190087 -0.4585047 0.8881192 138 138 138
0.113642984181715 0.0165259929384289 -0.00973295884568637 0.02397863 -0.4572073 0.8890368 117 117 117
0.111980890919068 0.0181297990890739 -0.00870060436423301 0.02426316 -0.4640815 0.8854601 146 146 146
0.104969969981518 0.0135509773524118 -0.0112578396867145 0.040925 -0.4418331 0.8961633 131 131 131
0.105314445171401 0.0150711148177773 -0.0103200420475592 0.03844317 -0.449924 0.892239 128 128 128
0.106084004683765 0.0167128774563061 -0.0103344600164273 0.04110072 -0.4618068 0.8860278 142 142 142
0.105272695094542 0.0179636536458636 -0.00909880571585589 0.02458694 -0.4377168 0.8987767 150 150 150
0.103212153453497 0.0174572021631496 -0.00923679603387648 0.01654448 -0.4368921 0.8993618 135 135 135
0.114652302181665 0.0198631603511972 -0.00760580162995456 0.04123749 -0.445446 0.8943586 120 120 120
0.114166639813782 0.020571752451328 -0.00756995676135838 0.02775514 -0.4545853 0.8902707 143 143 143
0.111405920865389 0.0204595727457453 -0.00784622890641354 0.03311662 -0.4695991 0.8822585 146 146 146
0.109645957510101 0.0206745819345553 -0.00768113192349326 0.02780441 -0.4607291 0.8871052 138 138 138
0.0255405856412758 0.00722112996479396 -0.013983623417229 0.0194035 -0.4322773 0.9015319 134 134 134
0.109619182582395 0.0215919761694805 -0.00707821174245662 0.0550975 -0.4694905 0.8812168 135 135 135
0.111976640186399 0.0228950958316636 -0.00640147398148069 0.03166863 -0.4642599 0.8851327 143 143 143
0.107275508917253 0.0197973593833369 -0.00798355330990011 0.03556455 -0.4548699 0.8898475 139 139 139
0.105867186869972 0.0203754570693941 -0.00790477195525247 0.02363257 -0.4466715 0.8943859 123 123 123
0.108015675665195 0.0205721869474638 -0.0077366451285944 0.03323581 -0.4684923 0.8828422 128 128 128
0.1051768752003 0.019625427059029 -0.00793471844266838 0.02147961 -0.4412726 0.8971159 145 145 145
0.105880258242971 0.0216146427545278 -0.00705599680475361 0.04445648 -0.4415795 0.8961201 115 115 115
0.103357343701276 0.0205693447206183 -0.00772144485222639 0.0136916 -0.4298739 0.9027851 130 130 130
0.101251808144554 0.0155968477748865 -0.0104395586041275 0.02157864 -0.4454603 0.8950416 145 145 145
-0.098562322295773 0.106902959965285 0.0404360815060748 0.01858469 -0.4406822 0.8974708 167 167 167
0.0993967641950095 0.0140422284074042 -0.0110424423059397 0.03144898 -0.4476681 0.8936466 115 115 115
0.101780825427443 0.017947806994834 -0.00909848877233016 0.007846924 -0.434068 0.9008459 135 135 135
0.107457591344634 0.0517626910817337 0.00928602219518335 0.01911965 -0.4727281 0.8810009 92 92 92
0.10171889093405 0.0167978321724791 -0.00989721171419874 0.01409412 -0.4403761 0.8977028 144 144 144
0.0996162675720482 0.0161062923594857 -0.00987263857446471 0.0115596 -0.434564 0.9005668 147 147 147
0.0971721492766129 0.0168116075472822 -0.00956838730788537 0.005049332 -0.4448653 0.8955832 129 129 129
0.0992726036415297 0.0179052104194306 -0.00884281207734539 -0.0007810722 -0.442906 0.8965677 143 143 143
0.0969785807636248 0.0161023507577656 -0.0100095295193477 0.0160579 -0.4325853 0.90145 121 121 121
0.0955029272413874 0.0161764827772743 -0.0101226045934993 0.02052935 -0.451888 0.8918384 166 166 166
0.0925568069251144 0.0132057198678761 -0.0111580608227147 0.01943488 -0.4443749 0.8956301 119 119 119
0.0917494505609104 0.0145787975474403 -0.0107441150658509 0.02152875 -0.4470648 0.8942425 178 178 178
0.094209241093778 0.0153198744096468 -0.00982865572963412 0.02926057 -0.4416339 0.8967181 148 148 148
0.0913869946664594 0.0155725164934648 -0.0102933484578835 0.03978921 -0.4469801 0.8936585 167 167 167
0.0928892210281154 0.0161213516644114 -0.0101742729169297 0.03765561 -0.4331215 0.9005486 127 127 127
0.0917935965052519 0.0176344291465773 -0.00914191931578509 0.02906972 -0.4501534 0.8924779 151 151 151
0.0958698839426311 0.0185213701357942 -0.00909175429020551 0.02364364 -0.4607056 0.887238 150 150 150
0.101179505179194 0.019315114457537 -0.00789061391742615 -0.001075377 -0.442601 0.896718 131 131 131
0.101496897020316 0.0203398396171854 -0.00765523580524255 0.02248722 -0.424534 0.9051327 149 149 149
0.0996370573408987 0.0206960717855378 -0.00759935390933575 0.0291754 -0.449871 0.8926169 148 148 148
0.0994877555608236 0.0217157477755687 -0.00691816614505361 0.04328979 -0.4322098 0.9007334 142 142 142
0.0980649719805333 0.021766791841608 -0.00715051981236012 0.04154369 -0.4445449 0.8947927 146 146 146
0.0969548684644383 0.0194262459547327 -0.00813730665273668 0.02350688 -0.4554974 0.8899267 157 157 157
0.0957322494900894 0.0198485714881023 -0.0077114683456361 0.02984703 -0.4490552 0.8930054 128 128 128
0.0947745822124584 0.0206236800669068 -0.0075107505972121 0.01523555 -0.4393688 0.8981776 131 131 131
0.0960749359963278 0.0215411038267153 -0.00689767664156843 0.03043501 -0.4409687 0.8970063 133 133 133
0.0938009119788994 0.0192275095200762 -0.00802004622009525 0.01380676 -0.4533941 0.8912032 140 140 140
0.0937988620147947 0.0202529247073184 -0.00775872944697864 0.01534204 -0.4440159 0.8958876 135 135 135
0.0937125679917341 0.0220880704253059 -0.00678208681384468 0.02944853 -0.4474678 0.893815 135 135 135
0.110199674503606 0.0232741740000413 -0.00611836688863596 0.02996512 -0.4500625 0.8924942 137 137 137
0.108068675638783 0.0242340402172734 -0.00586239022569077 0.02362882 -0.4765331 0.878839 139 139 139
0.103715889115203 0.0247918944178116 -0.00550815242537622 0.01987236 -0.4396073 0.8979702 145 145 145
0.104609426319751 0.0241534553701377 -0.00674129966812004 0.04149625 -0.4413755 0.8963625 157 157 157
0.101401366980678 0.0243162828945909 -0.00553692696099042 0.04786744 -0.4382433 0.8975809 137 137 137
0.0971332794903073 0.0245450269700129 -0.00576513989332975 0.03589711 -0.4349852 0.8997217 132 132 132
0.0960779303905843 0.0245213575042804 -0.00569872706178576 0.03705243 -0.4343017 0.9000051 127 127 127
0.0939933113256939 0.0232120839947731 -0.00600305015181551 0.04379884 -0.4445348 0.8946902 114 114 114
0.0916771142439576 0.0224939824891446 -0.00651277281640852 0.03264241 -0.4624969 0.8860198 165 165 165
-0.0310564508417195 0.0957611139932031 0.0336847603941243 0.006074206 -0.4644101 0.8855994 195 195 195
0.0914925753893456 0.0232111335810521 -0.00601312981932392 0.03579134 -0.4544312 0.8900625 147 147 147
0.112861304242738 0.0245544097451518 -0.00531598873561945 0.02354674 -0.4627801 0.8861603 140 140 140
0.113489570886301 0.0271693823284205 -0.00400565890085672 0.01040434 -0.4591859 0.8882793 121 121 121
0.10942907450574 0.0261088958205606 -0.004733888293592 0.009199235 -0.4772014 0.8787458 134 134 134
0.10946271869742 0.0276548479969916 -0.0040162570888943 0.01436471 -0.4653795 0.8849947 132 132 132
0.114009818149817 0.0283415095135957 -0.0037292587770775 0.003894579 -0.4681752 0.8836271 129 129 129
0.111618510990662 0.0280628737550983 -0.00359488686499745 0.009234892 -0.4532838 0.8913184 119 119 119
0.114483117239246 0.0300785624196023 -0.0024346359691208 0.01124267 -0.4757195 0.8795252 130 130 130
0.111711565200811 0.0300754383297672 -0.00256850245393442 0.008127835 -0.4583419 0.8887388 122 122 122
0.109705093478126 0.0295716600870104 -0.00294127263911914 0.009519811 -0.4557246 0.89007 123 123 123
0.108695827317992 0.0268373086187474 -0.00459779878816671 0.0016091 -0.4752865 0.8798296 142 142 142
0.10772805833492 0.027901539561513 -0.00379525379787723 -0.000878592 -0.470824 0.8822268 139 139 139
0.105659745838355 0.0285723411754726 -0.00343753040584693 -0.01083804 -0.4563269 0.8897462 133 133 133
0.114269036028508 0.0309194395623213 -0.00227895203473744 0.01671322 -0.4699944 0.8825112 117 117 117
0.11345398912505 0.0314397226715344 -0.00195377476381658 0.01568781 -0.4637006 0.8858531 110 110 110
0.112543693278088 0.0316414281313027 -0.00179293270243222 0.0158045 -0.4617418 0.8868735 116 116 116
0.110582249494007 0.0317026060168999 -0.00167199372346119 0.01629362 -0.4549537 0.890366 132 132 132
0.107444097794129 0.0310743828028799 -0.00203098632417495 0.009748697 -0.4632438 0.8861772 132 132 132
-0.0644229596115351 -0.105986020466189 -0.0523799295642281 0.9857682 -0.1427875 -0.08872867 49 49 49
0.113501160326131 0.0344186820534578 -0.000454480407760222 0.0130043 -0.4587522 0.8884691 123 123 123
0.114095342358357 0.0359057248697421 0.000350016068192044 0.01883891 -0.4531887 0.8912155 143 143 143
0.106499871302123 0.0333922304129846 -0.00105261945424676 0.004299869 -0.4532421 0.8913771 157 157 157
0.108195829046755 0.0360885955260508 0.000610504747676904 0.01541744 -0.4575096 0.889071 141 141 141
0.104191991373503 0.0335225788318958 -0.000488958400942374 0.01598609 -0.4463294 0.8947259 128 128 128
0.105967157715098 0.0357914008499707 0.000589900824853024 0.02521313 -0.4624664 0.8862782 126 126 126
0.101937068593522 0.026263512224123 -0.00458863150039687 0.0102596 -0.4498644 0.893038 130 130 130
0.0977016837406595 0.0259926460699225 -0.0047780082679261 0.01836284 -0.4330312 0.9011919 156 156 156
0.10114825922157 0.0282043543439869 -0.00360934744413258 -0.005983998 -0.4500405 0.8929881 129 129 129
0.0978653367116906 0.0285883406545395 -0.00360177833085359 0.02842771 -0.4495047 0.8928255 132 132 132
0.0998116166643466 0.0295881203775721 -0.00275868327152631 0.01439126 -0.4615164 0.887015 116 116 116
0.0960788627897795 0.0282175902460575 -0.00360504413185267 0.02632332 -0.4400066 0.8976087 146 146 146
0.0962460861463241 0.0271178400935315 -0.0043285447573494 0.02854771 -0.4388251 0.8981189 175 175 175
0.0930479200607306 0.0247842322922327 -0.00486411669195905 0.01563482 -0.4478618 0.8939661 103 103 103
0.0922049864538859 0.0244977157899617 -0.00550588585665007 0.02079502 -0.4460837 0.8947496 147 147 147
0.00817953814313555 -0.0408866829067716 -0.0396366252588398 0.0341142 -0.467837 0.8831561 137 137 137
0.0937799180237535 0.0263214927286739 -0.00454507318488928 0.02200112 -0.4385379 0.8984433 133 133 133
0.0937332810870957 0.028273057742914 -0.00326760914445398 0.02047321 -0.4439701 0.8958077 122 122 122
0.101230920891048 0.0305628649999228 -0.00216799284309263 0.004699333 -0.4580701 0.8889036 143 143 143
0.050429407185594 -0.0349139210056022 -0.0367203038570906 0.01033641 -0.4426802 0.89662 128 128 128
-0.0229741276914082 0.0863228317331857 0.0287116040449797 0.01459445 -0.4445693 0.8956255 164 164 164
0.102103655196304 0.0321688374048323 -0.00157851881303625 0.002212523 -0.4583841 0.8887514 138 138 138
0.0995968028180574 0.0322296084025941 -0.00138913371271157 0.01500588 -0.4732177 0.8808177 134 134 134
0.0973925823768633 0.0308001052986253 -0.00216139195707785 0.02338815 -0.4461854 0.8946349 129 129 129
0.0958349581702769 0.0311120320199048 -0.00202699608745746 0.03146309 -0.4570136 0.8889031 122 122 122
0.102151994062404 0.0343727094483735 -0.000129716694937887 0.009845833 -0.4651616 0.8851711 141 141 141
0.102140198090412 0.0361528465878325 0.000775615088120879 0.01887684 -0.438326 0.8986178 131 131 131
-0.0398526487150415 0.0274866735516803 -0.00251067730362439 0.03771503 -0.4259933 0.9039398 117 117 117
0.0993870083160164 0.0343211126083967 3.26723798458606E-05 -0.00580085 -0.467699 0.8838688 138 138 138
0.0995497986436256 0.0350804219392202 9.77065478691419E-05 -0.005434574 -0.4675705 0.8839391 129 129 129
0.0998577643165399 0.0362059508336918 0.000921220219303104 -0.004229095 -0.4491062 0.8934684 140 140 140
0.0972974544489897 0.0335916106772007 -0.000807603837238657 0.0001492982 -0.4668893 0.8843157 147 147 147
0.0951983579988616 0.0334748621219834 -0.00127180127451432 0.01407541 -0.4644808 0.8854713 126 126 126
0.0968850769874994 0.0348312495056085 -0.000172865965992614 -0.01062164 -0.4630757 0.8862551 136 136 136
0.0965542804591339 0.0342248059223904 -0.0007825542462431 -0.004600781 -0.4563 0.8898141 144 144 144
0.0892104284496118 0.0130158143188321 -0.0109969498189983 0.01780266 -0.4726541 0.8810682 141 141 141
0.0889847811862485 0.0140990478753529 -0.0107666055967882 0.03314226 -0.4664343 0.8839347 152 152 152
0.0900954885112046 0.0158071344464339 -0.0102139955694202 0.04053861 -0.454349 0.8899009 186 186 186
0.0882912426333045 0.0169948554754782 -0.00941470216499898 0.03613101 -0.460721 0.8868093 136 136 136
0.0860413335475618 0.0163515086782968 -0.00997412778039494 0.02312035 -0.4662492 0.8843513 138 138 138
0.0834377018568868 0.0152475787515844 -0.0102547408868477 -0.002433451 -0.4561114 0.8899194 128 128 128
0.0839039582153669 0.0166980844407596 -0.00981949961180398 0.007553292 -0.450747 0.8926198 150 150 150
0.0840205562825629 0.0180086199493814 -0.0090192672147722 0.0133274 -0.4461927 0.8948377 119 119 119
0.0817021876557913 0.0182097164501855 -0.00860690907956907 0.01992017 -0.4481698 0.8937265 144 144 144
0.0852435152039495 0.0187504312343054 -0.00848584156098145 0.01276189 -0.4508003 0.8925336 133 133 133
0.0912394203069922 0.0192051133253395 -0.00807646568899323 0.01708516 -0.4593847 0.8880731 131 131 131
-0.00931097496801669 -0.0350697012088317 -0.0365118676522383 0.0289134 -0.447716 0.8937082 170 170 170
0.0893406662409659 0.0206866347286441 -0.00758261044590233 0.02061058 -0.4606231 0.8873565 173 173 173
0.0875775914745547 0.019529721329764 -0.0081839957488728 0.01778237 -0.4522158 0.8917313 154 154 154
0.0873798475577834 0.0209307939737624 -0.00748653675094951 0.0171277 -0.4524019 0.8916497 148 148 148
0.0869668336044236 0.0224271483833893 -0.00647260988420215 0.03674538 -0.448139 0.8932084 143 143 143
0.0834763762212543 0.0194788631266931 -0.00787908614251367 0.02483027 -0.4489213 0.8932263 126 126 126
0.0817534300989129 0.0207050552732035 -0.00743397887612038 0.02661318 -0.4419919 0.8966242 122 122 122
0.08079822788513 0.0195716093801068 -0.0078648103136621 0.01852658 -0.439367 0.8981166 127 127 127
0.0817643919479258 0.0222214176872686 -0.00643580794700963 0.0167599 -0.4385785 0.8985366 130 130 130
0.0793541586813973 0.0161915289121815 -0.0094748161295741 0.00302058 -0.4409972 0.8975034 147 147 147
0.0754624793239893 0.0142812388181475 -0.0108292050765469 0.01753475 -0.4077805 0.9129116 151 151 151
0.078642673220747 0.016928519754188 -0.00955699265335294 0.00614459 -0.4390816 0.8984262 136 136 136
0.0791645370023302 0.0187515939891068 -0.00848321706213492 0.01827273 -0.4379064 0.8988348 150 150 150
0.0751958413926945 0.0185064562895561 -0.00845894962736482 0.01609344 -0.4233756 0.9058113 132 132 132
0.0723823817783185 0.0134781962483368 -0.0108829250104742 0.02571156 -0.4189841 0.9076294 118 118 118
0.0746625712543367 0.0160401730324455 -0.00956653249933773 0.02086119 -0.4217362 0.9064785 124 124 124
0.0717750445675205 0.0164103881402837 -0.0090348113065386 0.03534514 -0.4219947 0.9059091 138 138 138
0.071269868403081 0.0183317003118226 -0.00858339061074759 0.03432009 -0.4437903 0.8954732 133 133 133
0.0700396422026999 0.0173015382627033 -0.00902876323119414 0.04147791 -0.4523868 0.8908567 120 120 120
0.0732768851964085 0.0186162445437428 -0.00844466758352194 0.02240766 -0.4272051 0.903877 135 135 135
0.0729252476874893 0.0193636583892167 -0.00841619645210992 0.009472749 -0.4388559 0.8985075 143 143 143
0.0794461507874082 0.0226268861437813 -0.00639366780131023 0.01121049 -0.43954 0.8981531 137 137 137
0.0772243125776382 0.0218173463964706 -0.00666146333683862 -0.01162996 -0.4283918 0.9035183 122 122 122
0.0754213038715776 0.0209123489034586 -0.00713161441759871 -7.779374E-05 -0.4309089 0.9023954 139 139 139
0.0716533851443115 0.0207465713301511 -0.0071821403003153 0.02955597 -0.4521153 0.8914697 128 128 128
0.0719727942229995 0.0200078165459758 -0.00731789054648765 0.01135237 -0.4475459 0.8941889 136 136 136
0.0697700792549552 0.0218553642567743 -0.00655984053490366 0.008497001 -0.4769039 0.8789144 125 125 125
0.0883582438560486 0.0232332882286752 -0.00639202952105886 0.02790862 -0.4651232 0.8848059 145 145 145
0.0854238507968224 0.0242124830969521 -0.0054895631614181 0.0306817 -0.4483541 0.8933293 132 132 132
0.0818618032722136 0.0241207592209727 -0.00566844443355893 0.01807936 -0.4413913 0.8971326 143 143 143
0.0758026376696606 0.0244519674013843 -0.00518350544096799 0.02350327 -0.4338402 0.9006832 132 132 132
0.0735659816306353 0.0243711474858364 -0.00533521913610013 0.03100189 -0.4365321 0.8991544 118 118 118
0.0732099620539235 0.0238128667809057 -0.00512595695985363 0.03173891 -0.4486248 0.8931565 129 129 129
0.0901045014361497 0.0256109902575306 -0.00494254977300965 0.02460262 -0.478503 0.8777412 167 167 167
0.0910963239169553 0.0270087496663647 -0.0042933378799605 0.02555671 -0.4567429 0.8892316 149 149 149
0.0899489142700105 0.0268643072812047 -0.00431049861611152 0.03927383 -0.47691 0.8780743 151 151 151
0.0890995077425956 0.0279317163036281 -0.00338060810339511 0.02528462 -0.4791368 0.877376 126 126 126
0.0914078834338334 0.03068129982464 -0.00218549727525294 0.02921302 -0.4399806 0.897532 141 141 141
0.0834558895183255 0.0265016042929116 -0.00452191239045707 0.03239811 -0.4214825 0.9062576 139 139 139
0.0808808740098041 0.0260846726264903 -0.00424942699656097 0.02316693 -0.4252703 0.9047698 121 121 121
0.086205251679202 0.0276319918470687 -0.00422263031358003 0.0342723 -0.4452168 0.8947667 134 134 134
0.0859534365457697 0.0320252194925281 -0.00142570460423883 0.01288166 -0.4475685 0.8941569 132 132 132
0.0837091333827384 0.0324457419719302 -0.00156760536261322 0.01160204 -0.4597388 0.8879784 159 159 159
0.0810372905118797 0.0324758095260056 -0.0012655153302516 0.02190033 -0.4368882 0.8992491 148 148 148
0.0840538531401243 0.0335561777665969 -0.000503696960909433 -0.003453091 -0.466021 0.8847669 124 124 124
0.0897440677087746 0.0347669867176925 -1.4324537644328E-05 0.01027054 -0.440842 0.897526 124 124 124
0.0918885739498405 0.0356678711229155 0.000740996688816026 -0.01380759 -0.4469329 0.8944609 120 120 120
0.0879755939878075 0.036784468005344 0.00112669982243255 0.006949697 -0.4443931 0.8958049 133 133 133
0.0859216401754139 0.0360169122854472 0.000866989378612987 0.002897678 -0.4441084 0.8959684 128 128 128
0.0821807668183694 0.0362680570435072 0.000742500865776763 0.02142932 -0.4658857 0.8845854 138 138 138
0.0813816261338185 0.0355650114763981 0.000181275074896042 0.006895662 -0.4530403 0.8914634 132 132 132
0.0798807249119444 0.0272415803002439 -0.00342601231731046 0.0202998 -0.4264819 0.9042683 115 115 115
0.0778731308121183 0.0264557392699352 -0.00408652982454219 0.01936708 -0.4248072 0.9050767 121 121 121
0.0761379063290688 0.0257083194838517 -0.00456693896310983 0.02970316 -0.4489649 0.8930556 135 135 135
0.0755662989985946 0.0286686745898717 -0.00310920897608158 0.04189368 -0.4485435 0.8927786 144 144 144
0.0794094397131606 0.0286254042652188 -0.0033466828973811 0.04070636 -0.4294895 0.902154 125 125 125
0.0761608228136605 0.0275452466425228 -0.00410237945356837 0.04705357 -0.4457326 0.8939286 146 146 146
0.0796580135241061 0.0301339333677715 -0.00230595733381034 0.05377096 -0.4355772 0.8985439 112 112 112
0.0786835436655826 0.0308939761738909 -0.00218353293189874 0.02295215 -0.4321312 0.9015186 127 127 127
0.058009998821372 0.049237382268623 0.00795534222563651 -0.009952968 -0.4714917 0.8818144 153 153 153
0.0761293788011468 0.029948044047704 -0.0023014111577207 0.02519836 -0.4435185 0.8959109 143 143 143
0.0737874362523492 0.0287071705601334 -0.00312924296204573 0.0407034 -0.4346527 0.8996779 135 135 135
0.0717144982989324 0.0274637235202959 -0.0039095523937798 0.04260481 -0.4426896 0.8956622 112 112 112
0.0698682924214338 0.0271079381999562 -0.0038336252491705 0.03426188 -0.4598885 0.8873154 129 129 129
0.0717418463369901 0.028947280362468 -0.00299705209091236 0.02371219 -0.4499955 0.8927159 123 123 123
0.0728969574861189 0.0302844083521838 -0.00218967548960378 0.02804193 -0.4440514 0.8955624 135 135 135
0.0717335020876066 0.0308924646387447 -0.00215006943898274 0.04970136 -0.453659 0.8897883 124 124 124
0.0778863643768632 0.0322346524401755 -0.00132445999860278 0.02535718 -0.435104 0.9000231 124 124 124
0.0761957036023246 0.0309021922450456 -0.00164246807648999 0.01954376 -0.4406464 0.897468 139 139 139
0.0754256172684977 0.0324117852941583 -0.00126423364762179 0.01680879 -0.4426354 0.8965441 126 126 126
0.0739477203179386 0.0325555483075162 -0.000855797899777744 0.01607834 -0.4596476 0.8879558 132 132 132
0.0717259647462321 0.0322269582565862 -0.00125579576399512 0.03063751 -0.4600957 0.8873405 120 120 120
0.0781682203347467 0.034842255279254 0.000313358775472811 0.02745979 -0.4389252 0.8981039 144 144 144
0.0793259356128155 0.0368832342375041 0.000691379696549282 0.02316196 -0.4432949 0.8960766 134 134 134
0.0762393089727924 0.0369191181017734 0.00139699754131034 0.01923542 -0.4263458 0.9043558 138 138 138
0.0737860842205871 0.0352597065605489 0.000383455147300288 0.03085277 -0.4469118 0.8940458 139 139 139
0.0732448747835392 0.036134231847333 0.000926340927903307 0.01333064 -0.4567353 0.8895027 124 124 124
0.0695972087265422 0.0341932297755456 -0.000231237636995146 0.03763958 -0.4591984 0.887536 113 113 113
0.071767619099707 0.0366083553930345 0.00134180234175155 0.02026932 -0.4706159 0.8821053 118 118 118
0.0695373374731223 0.0363925124835709 0.00104662860036148 0.01628282 -0.4508271 0.8924627 126 126 126
0.112009073013847 0.0371615100163019 0.00148212447783355 0.01509037 -0.4379102 0.898892 126 126 126
0.114016146136619 0.0374601396638756 0.00130128822483119 0.02957389 -0.4449327 0.8950756 144 144 144
0.109764881766639 0.0376422109483299 0.00180566747625396 0.01328103 -0.4490147 0.8934257 129 129 129
0.109440546522219 0.0384703858046977 0.00202569592948518 0.01753788 -0.4524834 0.8916003 133 133 133
0.112604329153463 0.0394444667888971 0.00242727184166996 0.01788817 -0.4311624 0.902097 141 141 141
0.112279834966651 0.0413264754179106 0.00329704971360034 0.03918691 -0.4333495 0.9003736 138 138 138
0.107972954627037 0.0386186615822366 0.00191777777146071 0.02802469 -0.461039 0.8869373 142 142 142
0.028982366697798 -0.0277816052991124 -0.0326437064493708 0.0170494 -0.459678 0.887922 139 139 139
0.106240696442201 0.0374680605665361 0.00136024007322763 0.02862825 -0.465481 0.8845947 144 144 144
0.107813661444772 0.0408235009180569 0.00339832747222826 0.01910874 -0.4495098 0.893071 109 109 109
0.110062694192717 0.0414239762543083 0.00393231106793837 0.04127021 -0.4393861 0.8973498 106 106 106
0.107705861563176 0.0423147244557476 0.00409733213780955 0.02308345 -0.4287918 0.9031084 112 112 112
0.105230347545194 0.0409114510490964 0.00365172680133302 -0.01372664 -0.4466366 0.8946102 120 120 120
0.104244804584769 0.0421043031198094 0.00381489910242463 -0.003122703 -0.4398803 0.898051 135 135 135
0.108040596048695 0.0435331216551598 0.00470300422351352 0.02220015 -0.4335454 0.9008582 104 104 104
0.105749418463048 0.042968389279656 0.00426655309789828 0.009740439 -0.4262342 0.9045604 119 119 119
0.106034905844198 0.0441059818677678 0.00508024509569358 0.03505157 -0.4265032 0.9038066 112 112 112
0.102609009551574 0.0375018612678437 0.0013502378073823 0.007356114 -0.443484 0.8962521 108 108 108
0.102251152625006 0.0383400187305327 0.0017239310145245 -0.00242723 -0.444861 0.8955963 128 128 128
0.0999071057401384 0.0374714067066737 0.00133815472890716 0.003431733 -0.4414042 0.8973019 112 112 112
0.102561823937592 0.0400095322177607 0.00244724221196377 -0.01025063 -0.4451079 0.8954183 139 139 139
0.100191022430256 0.0396684975653498 0.00236022101530056 -0.004446142 -0.4424916 0.8967617 136 136 136
0.098776990815824 0.039779553491079 0.00296477185357827 0.00629641 -0.4538763 0.8910425 119 119 119
0.0999544235678744 0.0419264601263418 0.00402093609671048 0.02293967 -0.4675825 0.8836517 128 128 128
-0.106278666624357 0.122946612864736 0.0496604523054063 -0.06761323 -0.4496513 0.8906415 185 185 185
0.0990255852729973 0.0413145108843767 0.00361707103389255 0.01871189 -0.4686972 0.8831607 123 123 123
0.0978206197558711 0.0425814754898819 0.00424279047520629 0.04050002 -0.48908 0.8712982 120 120 120
0.097226194852285 0.037885739842475 0.00210114183100452 -0.004105532 -0.4552662 0.8903459 134 134 134
0.0961365696761103 0.0386305356977943 0.0020773826166004 0.009931929 -0.4599293 0.8879 121 121 121
0.0940041654296064 0.0376522868364004 0.00186234170804897 -0.01402939 -0.4603657 0.8876185 112 112 112
0.0942606795947385 0.0383945080001407 0.00180311693886442 -0.002276032 -0.4553991 0.8902845 120 120 120
0.0963660693630697 0.0407143529480845 0.00335057546281842 0.02209167 -0.4584022 0.8884702 109 109 109
0.0939496283138008 0.0407849464348375 0.00310656269779699 0.04681446 -0.4589157 0.8872456 119 119 119
0.0946931697600433 0.0413457656449736 0.00355716603702616 0.05409999 -0.4621623 0.8851436 141 141 141
0.10323831695442 0.0416593314597076 0.00418161429740901 -0.004276629 -0.4489074 0.893568 126 126 126
0.102304295425703 0.0417378359086047 0.00431609675600012 -0.004980582 -0.4482943 0.8938721 127 127 127
0.0945638551515535 0.0427142665422773 0.0043269467880091 0.04238123 -0.447786 0.8931358 107 107 107
0.087080872723464 0.0374163721624383 0.00183333276872105 0.02354011 -0.4513438 0.8920396 124 124 124
0.0874287433811123 0.0387202222230996 0.00202109056098601 0.02269366 -0.4731931 0.8806664 129 129 129
0.0895586883558601 0.0391808700678298 0.00227686407927244 0.009138222 -0.4569287 0.8894564 116 116 116
0.0914471897207374 0.0415950243639411 0.00407045757528765 0.03279351 -0.4431793 0.895833 116 116 116
0.0917133166870023 0.0422290243085996 0.00381503781316037 0.02945089 -0.4391937 0.8979095 131 131 131
-0.0716565732864667 -0.0377613310240486 -0.0372030480113886 0.04127489 -0.4269487 0.9033334 170 170 170
0.0905069552130859 0.0415288035658501 0.00397962528706472 0.0354698 -0.4351991 0.8996353 124 124 124
0.0879649686190738 0.0424990022680409 0.00416065088773251 0.02366211 -0.4646644 0.8851706 144 144 144
0.0849263617466871 0.0375890344442245 0.00130423826475759 0.03491032 -0.4697794 0.8820933 121 121 121
0.0841692438922976 0.0383949225012883 0.0017981021891576 0.0118982 -0.4732197 0.8808641 124 124 124
0.0844038189296463 0.0376700571043482 0.00185035240070278 0.03163289 -0.4674498 0.8834535 115 115 115
0.0857383191250145 0.0386858548282727 0.00182447710124381 0.01988497 -0.4640819 0.8855691 129 129 129
0.0858594015965881 0.0406411943457154 0.003112465259619 0.02471352 -0.4663146 0.8842736 111 111 111
0.0858344898950429 0.0427360718012924 0.00432363717285517 0.01586376 -0.4643251 0.8855227 115 115 115
0.0821221050301717 0.0425037736543061 0.00412057541566418 0.02303181 -0.4573819 0.8889721 125 125 125
0.0841482640540763 0.0428106585852428 0.00475376524249957 0.01818953 -0.4575298 0.8890082 105 105 105
0.077626808290705 0.0389793686151401 0.00191262171044757 0.01253817 -0.4395185 0.898146 138 138 138
0.0797608332246686 0.040280462199626 0.00306124107787648 0.02139929 -0.4508422 0.8923472 127 127 127
0.0784236765087556 0.0429521807482383 0.00432200007634853 0.02368594 -0.4341668 0.9005211 129 129 129
0.0767200453362977 0.0399398431687148 0.00296592577481222 0.01184435 -0.4389134 0.8984513 133 133 133
0.0760292445945745 0.0429100365197872 0.00428768900308593 0.01071934 -0.4266049 0.9043746 136 136 136
0.0728815103270675 0.0376280744462163 0.0017704471413503 0.02698323 -0.4510536 0.8920889 98 98 98
0.0744953031934426 0.0426330631683545 0.00445474846717339 -0.008363567 -0.4216549 0.9067178 143 143 143
0.071667236386328 0.0407293177943664 0.00339406029526981 -0.003387424 -0.4545907 0.890694 129 129 129
0.0713627553991389 0.0413414516193744 0.00356651378940381 -0.007392867 -0.4536552 0.8911467 137 137 137
0.0721052405607416 0.0429384354931845 0.00455678585568495 -0.009772883 -0.436424 0.8996881 136 136 136
0.0699646717049993 0.0427222300223835 0.00449590324432111 -0.0195297 -0.4714483 0.8816774 121 121 121
0.0793427058790583 0.0440763494720757 0.00511890848015442 0.02739476 -0.4519319 0.8916317 120 120 120
0.078380944875907 0.043916361740707 0.00508889860340433 0.02743201 -0.4358408 0.8996056 107 107 107
0.134598114096627 0.0450333432397669 0.00574879098918676 0.06608693 -0.7456572 0.6630444 131 131 131
0.130352588822269 0.0464201649237155 0.0061602812000873 0.01193308 -0.4497079 0.893096 91 91 91
0.128407674251987 0.0459906335923828 0.00578942590195639 -0.001818092 -0.479967 0.8772846 106 106 106
0.121998486495216 0.0441461003427059 0.0049008450937475 0.03935312 -0.4542663 0.8899963 137 137 137
0.125699878448453 0.0471709247991325 0.00652288692072089 0.03376589 -0.4804862 0.876352 164 164 164
0.122214298434725 0.0451895383543257 0.00505245935812118 0.04219275 -0.4495482 0.8922591 140 140 140
0.118232752402929 0.0457748546207519 0.00552039985874167 0.03070572 -0.434937 0.8999372 131 131 131
0.115564372119896 0.0451717158567333 0.00519427310207043 0.02725744 -0.4537939 0.8906897 95 95 95
0.11615762512668 0.0462545563852386 0.00607432899998966 0.03014722 -0.4475233 0.893764 105 105 105
0.133917142290423 0.0496924307710842 0.00778120909432908 -0.02950929 -0.7039319 0.7096542 130 130 130
0.131877283221148 0.0479788917012427 0.00695684909165742 0.02570062 -0.4971549 0.8672811 118 118 118
0.129910702348358 0.0478530620350945 0.00691049776757113 0.02066823 -0.4398138 0.8978512 94 94 94
0.131245569505388 0.0494443612835849 0.00817337048330241 -0.02422233 -0.5193395 0.8542246 63 63 63
0.132132701629865 0.0500770209395962 0.00774253513164208 -0.07628941 -0.573768 0.815457 206 206 206
0.130226976381913 0.0495557572758474 0.00786446234679544 -0.002254764 -0.4459721 0.895044 105 105 105
0.130030489442751 0.0518085760916591 0.00901264529422241 -0.2421661 -0.526252 0.8151162 92 92 92
0.131507120612988 0.0520895603145923 0.00906737498656043 -0.3452964 -0.6322421 0.6935707 66 66 66
0.128543960978237 0.051582078955706 0.00899745181924899 -0.2110163 -0.5406786 0.8143333 108 108 108
0.12644121281824 0.053477010005718 0.0101997672267699 -0.362295 -0.5705893 0.7370008 123 123 123
0.128371378043544 0.0526224932106407 0.0161349493750871 -0.8814413 -0.4254146 -0.2051431 79 79 79
0.126661642570884 0.0529675048239608 0.0154828860872147 -0.8420737 -0.5345821 -0.07165033 69 69 69
0.130756913770874 0.0535489756094121 0.0123828519001556 -0.807923 -0.5092664 0.2964934 80 80 80
0.128370494717032 0.0546545920555983 0.0116986682092876 -0.7266737 -0.5460068 0.4169195 75 75 75
0.128110844963862 0.0541588135967905 0.0137225193371016 -0.8027492 -0.5813233 0.1328792 81 81 81
0.126565745054818 0.0489313033611911 0.00677457184240507 -0.003701662 -0.4893619 0.872073 174 174 174
0.125351732469075 0.0499168665198779 0.00804996262810792 -0.02848325 -0.4813291 0.8760771 144 144 144
0.123566000815143 0.0484979015576033 0.00655192545496222 0.01034741 -0.472362 0.8813439 173 173 173
0.123523448958778 0.0501591499308294 0.00808633139364531 -0.02495867 -0.4824742 0.8755545 148 148 148
0.122529058935648 0.0491640001278006 0.00785076601650186 -0.01928605 -0.4569292 0.889294 146 146 146
0.121414010300427 0.0498365732520742 0.00771480409488037 -0.01506243 -0.4624342 0.8865256 153 153 153
0.125958442638423 0.0519747491070128 0.00935775666208333 -0.09206363 -0.5039663 0.8588028 144 144 144
0.123772097789466 0.0520305696841141 0.00928326831919382 -0.06567866 -0.4856905 0.8716599 131 131 131
0.12038305162735 0.0500189611434434 0.00797102864695753 -0.001723997 -0.4514381 0.8923008 116 116 116
0.118520390860767 0.0501988876612915 0.00798646673392264 0.01210209 -0.4422546 0.8968079 136 136 136
0.120378235746563 0.0538236214892327 0.0100381657543127 -0.07453029 -0.559025 0.8257943 158 158 158
0.118270928425313 0.0529295688074845 0.00928196566093908 0.02266126 -0.4647933 0.8851292 142 142 142
0.115566441165658 0.051977464523854 0.00910133664500054 0.02401908 -0.4474954 0.8939636 91 91 91
0.122449421701747 0.053722630926849 0.0103246870863179 -0.1894627 -0.5743051 0.7964154 129 129 129
0.126110812670229 0.0541561162446234 0.0145045875691115 -0.7889983 -0.598062 0.140725 58 58 58
0.124191610561625 0.0559542944977631 0.0130752610893024 -0.6306839 -0.7082367 0.3172359 87 87 87
0.122444572632822 0.0562747541681954 0.013700461693608 -0.734574 -0.6722682 0.09195945 67 67 67
0.122723830834834 0.0554525669605515 0.0144198484962431 -0.7802481 -0.6191197 0.08890277 80 80 80
0.122041057711176 0.0552578519247959 0.0110479359431994 -0.4370937 -0.6806742 0.5879046 141 141 141
0.124302000700709 0.0555827950050853 0.0112146478109618 -0.5529115 -0.6850381 0.4743538 92 92 92
0.120291469404481 0.0561027219232655 0.0114158705002194 -0.3212293 -0.666041 0.6732022 141 141 141
0.12021586692169 0.0575109951339738 0.0123707794811542 -0.5265418 -0.7261478 0.4421122 110 110 110
0.119587829372271 0.0569333563857484 0.0116446365695677 -0.3272792 -0.6636141 0.6726847 125 125 125
0.118154154500611 0.0565861477038303 0.0115357401509297 -0.2371211 -0.6722131 0.7013581 138 138 138
0.116410041174835 0.0579793818548242 0.0123946764454856 -0.372192 -0.6003318 0.7078664 140 140 140
0.114500840195749 0.0446325032636281 0.00505691988816387 0.02481134 -0.4586502 0.8882704 108 108 108
0.110201543292361 0.0450261381373025 0.00503770743376195 0.03076353 -0.4375636 0.8986611 120 120 120
0.113640511067625 0.0460164111791768 0.00606683297988198 0.02480757 -0.4532851 0.8910203 119 119 119
0.109967059569587 0.0476191829824817 0.00701373528163435 0.01270712 -0.4440515 0.8959112 111 111 111
0.106356471270795 0.0461005572586168 0.00605080161175739 0.05136888 -0.4296811 0.9015184 154 154 154
0.103667865310466 0.0465189368564911 0.00629142807357494 0.06242366 -0.4413681 0.8951522 130 130 130
0.0985919063271474 0.044031767258238 0.00492981575422041 0.04420859 -0.4856138 0.8730549 129 129 129
0.100533608329589 0.0462699891231946 0.00624765694630205 0.06124 -0.473941 0.8784245 146 146 146
0.0962383823548851 0.0444909528439958 0.00510296283936021 0.03867157 -0.4787265 0.877112 136 136 136
0.0939363338006705 0.0454001748105295 0.00537861281638485 0.032148 -0.4486317 0.8931383 120 120 120
0.0917671594178993 0.0442738475733944 0.00490596507811544 0.03242245 -0.4378324 0.8984718 136 136 136
0.0942083952979971 0.0463555051666944 0.00624327951364204 0.03302012 -0.45643 0.8891464 105 105 105
0.0939386156073008 0.0476766001832418 0.00706495689629766 -0.01204054 -0.4512406 0.8923211 121 121 121
0.115063442702918 0.0488619941684889 0.00756071685701817 0.0202104 -0.4487014 0.8934532 101 101 101
0.114116366876604 0.0487262436937597 0.00719642889027247 0.0124012 -0.455862 0.889964 101 101 101
0.1097267063221 0.050252399751086 0.008088428614316 0.0246871 -0.4637623 0.8856156 133 133 133
0.114150540576505 0.0519224308386121 0.00903415003273886 0.006246047 -0.4443294 0.8958417 133 133 133
0.112691015460678 0.0540987216104853 0.0102945191389597 0.009090597 -0.4499202 0.8930225 140 140 140
0.109836767977596 0.0524845326020902 0.00930507834244892 0.01148343 -0.4535787 0.8911422 130 130 130
0.108488163692514 0.0483691061330203 0.00720957275472328 0.02989225 -0.4597838 0.8875276 119 119 119
0.107021918478059 0.0487971436407189 0.00739966045065082 0.02460196 -0.4437712 0.8958023 130 130 130
0.106056279590817 0.0506758576364443 0.00854121351524081 0.02928792 -0.4564789 0.8892521 117 117 117
0.104097847582894 0.0511524535718206 0.00771866094282134 0.03237235 -0.4380853 0.8983503 122 122 122
0.106540417438758 0.0513611605027815 0.00900319305075545 0.02734913 -0.4592444 0.8878888 87 87 87
0.106021349564351 0.052870430553039 0.00929506609905434 0.02411706 -0.4661368 0.8843839 116 116 116
0.11538377530903 0.0540890343244675 0.0102442046713359 0.007477179 -0.4401076 0.8979139 142 142 142
0.114234189266259 0.0565057008921153 0.0113240545973954 -0.01047177 -0.458152 0.8888122 119 119 119
0.110333680089188 0.0554671024837836 0.0112584646001501 0.01379177 -0.4623725 0.8865785 136 136 136
0.11380764033579 0.0581379752534723 0.0123570571053543 -0.1563106 -0.5643747 0.8105851 102 102 102
0.111732586130389 0.0568241879096787 0.0118252150044348 0.009833086 -0.4573618 0.8892263 131 131 131
0.111899861864242 0.058633860636947 0.0127412173847337 -0.1219896 -0.5514397 0.8252471 102 102 102
0.108579178691613 0.0552118323036255 0.0110904320755918 0.03057168 -0.4891521 0.8716626 177 177 177
0.104056181011885 0.0565080781626321 0.0111166552248079 0.009136072 -0.4481227 0.8939254 154 154 154
0.108186037051801 0.0573472653043765 0.0121354839059224 0.01865045 -0.4896971 0.8716931 125 125 125
0.105924257812914 0.0579150554792562 0.0123195318619748 0.005998358 -0.4589204 0.8884572 160 160 160
0.108844293659164 0.0594929293168063 0.0126319427818446 -0.06361751 -0.5080606 0.8589687 137 137 137
0.103586318723291 0.049192612066858 0.00739952927431745 0.0294901 -0.4497676 0.8926587 117 117 117
0.101858018816043 0.0504615927749652 0.00824175386993531 0.0239768 -0.4479368 0.8937437 137 137 137
0.099617961825218 0.0491167579998546 0.0076638272324179 0.02522316 -0.4422896 0.8965176 134 134 134
0.100514582402184 0.0507244042230834 0.00845621233474481 0.02058265 -0.4456645 0.8949634 133 133 133
0.102456691209715 0.0519843608575206 0.00922853276892219 0.0348383 -0.4353188 0.8996021 134 134 134
0.103631424596101 0.0525147875237302 0.00935074795582949 0.03631673 -0.4352796 0.8995625 131 131 131
0.100083789997425 0.0517530079488513 0.00918151868644826 0.001151952 -0.4320175 0.9018645 113 113 113
0.100767562952067 0.0528713787014945 0.00994357116743264 0.01405611 -0.4208758 0.9070094 125 125 125
0.0981389768696999 0.0546471686046825 0.0105128620256243 0.02736791 -0.4357735 0.8996401 136 136 136
0.0977334438108537 0.0490247471357028 0.00729729388500136 0.003457284 -0.4603077 0.8877527 151 151 151
0.0964781421416041 0.0485395128693726 0.00721899083181574 0.00493454 -0.457642 0.8891229 126 126 126
0.0956898981571097 0.0491185416026649 0.00771799303814086 0.0006974406 -0.4556506 0.8901584 142 142 142
0.0964750654034452 0.0499840540939616 0.00795402141016316 -0.006750547 -0.4445381 0.8957345 131 131 131
0.0980434043068792 0.05180604486219 0.00927018178098143 0.0118745 -0.4417629 0.8970532 113 113 113
0.0966874796120112 0.0532622866030383 0.00975198468216429 0.01738762 -0.4474806 0.8941246 120 120 120
0.0939564982021626 0.0514735184803299 0.00930976557269886 0.001568666 -0.459924 0.8879569 155 155 155
0.0923190113273682 0.0520530022144778 0.00929590497088978 0.01464115 -0.4610643 0.887246 139 139 139
0.0945613270668604 0.0541860523958277 0.0105437618315876 0.02900071 -0.4505505 0.8922798 150 150 150
0.101789123686572 0.0546882162210236 0.0106322970490434 0.008607588 -0.4236323 0.9057933 147 147 147
0.102493540843228 0.0567015205869152 0.0115485210079696 0.002605128 -0.4445395 0.8957555 186 186 186
0.0996273786367134 0.0544692289459472 0.0103814700340597 0.02642115 -0.4313219 0.9018112 142 142 142
0.100389914530432 0.0565005828936731 0.0114861664204144 0.02849682 -0.4311341 0.9018378 150 150 150
0.0226925404841887 -0.0125945841289441 -0.0242350842075209 0.03506318 -0.4299986 0.9021484 153 153 153
0.100573806392901 0.0585531978124769 0.012791287979585 -0.006808522 -0.4444519 0.8957769 121 121 121
0.0981155881192222 0.0587167591877973 0.0128027649640885 0.01575339 -0.456942 0.889357 120 120 120
0.0980905957558673 0.0554687262004394 0.0112146419311962 0.03150155 -0.4444579 0.8952457 129 129 129
0.0959374834672779 0.0585587289548346 0.0127917162506711 0.03343221 -0.4612028 0.8866647 165 165 165
0.0946483209248532 0.0570003357774271 0.0118824321942275 0.02909814 -0.4605564 0.8871534 124 124 124
0.0971727387557095 0.0596583550966128 0.0127943796261731 0.02297677 -0.4650966 0.8849617 138 138 138
0.0898306831138918 0.0442015440453065 0.00524276232423024 0.04452116 -0.4521522 0.890829 130 130 130
0.0901685046693466 0.0454579761684346 0.00558681957981269 0.04781565 -0.4476782 0.8929154 105 105 105
0.0904288010109262 0.0467177072439018 0.00634046873654356 0.02604086 -0.4500434 0.8926269 111 111 111
0.0915260139070684 0.0470591352119327 0.00638270897715856 0.01432138 -0.444553 0.895638 112 112 112
0.0859920719443088 0.0437960288557759 0.00503596421036348 0.01550408 -0.4671171 0.8840595 114 114 114
0.0851604494272786 0.0449591099041622 0.00542617093887901 0.01697126 -0.4673225 0.883924 114 114 114
0.0822794910736047 0.0452855983144744 0.00561434748611173 0.0191681 -0.4597825 0.8878247 113 113 113
0.082336932086196 0.0446506805221332 0.00506538868288028 0.02036997 -0.451212 0.8921843 118 118 118
0.0854321827223177 0.0465804760999751 0.00608879662200737 0.0387706 -0.4464127 0.8939869 103 103 103
0.0839955814182392 0.0465040151771636 0.00625702854916885 0.01573015 -0.4605557 0.8874914 98 98 98
0.0793858229223661 0.0446246439170783 0.00489818711588569 0.02357886 -0.4564861 0.8894181 112 112 112
