ply
format ascii 1.0
comment File exported by Rhinoceros Version 7.0
element vertex 474
property float x
property float y
property float z
property float nx
property float ny
property float nz
property uchar red
property uchar green
property uchar blue
end_header
-0.00227858649886548 -0.0802551781560435 0.0324308941857605 -0.3573204 -0.5734189 0.7372332 139 139 139
-0.00973975746361733 0.0891473952587098 0.0458170318504887 -0.1199344 -0.1462751 0.9819467 77 77 77
0.0594003829703835 0.104691725335218 0.0361215452775684 -0.07324042 0.9972762 -0.008716122 66 66 66
-0.0378970886163561 -0.0953393221331248 0.0136338270982876 -0.4636357 -0.04132878 0.8850615 121 121 121
-0.0233380239905134 0.0369741282779832 0.029213413201802 -0.2011984 -0.5781344 0.7907464 121 121 121
0.0710942699802528 0.0116827533268098 0.0294136338706822 0.9920642 -0.1195958 -0.0387993 44 44 44
-0.118978592227932 0.0266616600766143 -0.00115165793475264 -0.5491846 0.03177063 0.8350969 94 94 94
0.0305425281516722 0.100712298385497 0.0495643959902776 -0.3164627 0.9286902 0.1933542 130 130 130
-0.0995290092497574 -0.00971297559740698 -0.00685549172376665 -0.5778711 -0.8149025 0.04470789 52 52 52
-0.0117640200273748 0.0994805244053837 -0.00247857233714072 -0.06576699 0.9977654 -0.01178767 54 54 54
0.0657471824218669 -0.0248249488637606 0.0161070380817912 0.9991997 0.03661884 -0.01609057 43 43 43
-0.0165896418286748 -0.00549895041761532 0.020169382607759 -0.4802188 0.1376632 0.8662786 101 101 101
-0.0733550847558533 -0.0938393856231973 -0.0117240236033561 -0.6037274 -0.5717384 0.5555434 47 47 47
0.0526864752751655 -0.0326579386106646 0.0600643047254822 -0.191996 -0.009603523 0.9813487 137 137 137
-0.0690152280461014 -0.100709162884638 -0.0263919856327068 -0.4954141 -0.7988242 0.34124 113 113 113
-0.117952575391896 -0.00179772056551326 -0.0267239588689677 -0.440374 -0.8524505 0.2817779 40 40 40
-0.0712871759542999 0.0591615398280907 0.0282537923306863 -0.5643796 0.09526525 0.8200001 110 110 110
-0.0348815007665029 -0.0507736193183452 0.0170091412182597 -0.5190315 0.1172185 0.8466794 39 39 39
0.0282346498016959 -0.0527459609732351 0.051303096980529 -0.4507999 0.1153612 0.8851391 72 72 72
0.0699004734735946 0.00291931477179935 0.016529517932155 0.9821274 -0.1301009 0.1360128 75 75 75
-0.0616001064677834 -0.0438532834646382 0.000389151475726102 -0.7648387 -0.5519864 0.3321639 78 78 78
0.0727846469963596 -0.100394387784174 -0.0155045800929334 0.9616783 -0.2700411 0.04746245 39 39 39
-0.0870327310783985 -0.0207141188444664 0.00419057941953138 -0.6668257 -0.7408404 0.08061646 65 65 65
0.0665346358681429 -0.0407238018910997 0.0176257015608475 0.9967449 0.05541667 -0.05855326 81 81 81
0.0690418750699955 0.0274169497084927 0.0600343689451442 0.4758486 0.006542664 0.8795029 64 64 64
0.00436536950759114 -0.00283668784002716 0.0327191107082154 -0.6058932 -0.01088698 0.7954715 223 223 223
0.0711536073314369 0.000909272728203361 -0.0269712060787083 0.9985304 0.04448169 0.03095594 48 48 48
-0.0243073519551302 -0.117151518261655 0.000584468113892123 0.2757673 -0.9493653 0.1505254 71 71 71
0.0213531728158149 -0.108257988682508 0.000681849021411718 0.04649108 -0.9983886 -0.03253752 76 76 76
0.00499487632381879 -0.0991377960050436 0.0364288362983654 -0.495751 0.1161221 0.8606663 222 222 222
0.0662811930516969 -0.0314484832380067 0.0315391708156637 0.9965269 -0.06507732 0.0519524 41 41 41
-0.00929390238636829 0.0338697537288467 0.0313072925795991 -0.3528903 -0.5690715 0.7427153 101 101 101
0.0546062781559171 -0.111362757642277 0.019376379578034 0.009360426 -0.9986538 -0.05101965 90 90 90
0.0643837185206237 0.0832221442587054 0.0583469830523056 -0.2679155 -0.1162697 0.9564009 137 137 137
-0.136341908440971 0.0413775099114655 -0.0133211790679875 -0.5752589 0.1072758 0.8109064 124 124 124
-0.0660176545071418 -0.0258873069837711 0.00725451067407024 0.311078 -0.1019399 0.9449015 62 62 62
0.0689627538245889 -0.104439617715229 0.050392920754502 0.8061155 -0.3829531 0.4511371 137 137 137
0.0485586728239471 -0.11155975720789 0.029871812458808 -0.05054092 -0.997856 -0.04158292 114 114 114
0.0708085152715228 0.0792141996693133 0.0591076890026231 0.5996616 -0.2032023 0.774025 68 68 68
0.0326471279808871 0.102512452566834 0.0489914331214862 -0.2053505 0.9551427 0.2133863 157 157 157
-0.0496448267732745 -0.0305622775949771 0.00483886283495699 -0.4801327 0.1395698 0.8660213 94 94 94
-0.0315941603025784 0.00960650774180478 0.0136150059622911 -0.2704116 -0.2638253 0.9258908 186 186 186
0.0673897582436855 -0.00149438183269657 -0.000658173840526799 0.9965612 -0.08274684 0.004329884 99 99 99
-0.0132982704242033 0.0266024274328593 0.0252931803828095 -0.2815065 -0.2844078 0.9164422 150 150 150
-0.0435036300099334 0.0448561555089737 0.0303721552176314 0.03909348 -0.2348321 0.9712495 155 155 155
0.0157568610946432 0.0189133116595957 0.037758980080985 -0.5066563 0.1205684 0.853676 218 218 218
-0.0102160585389437 -0.0242812133022486 0.026078126630433 -0.4904026 0.1185779 0.8633913 105 105 105
-0.0253239908144955 0.0977782165215444 -0.019996164988076 -0.1000442 0.9949047 -0.01248166 54 54 54
-0.055095500469625 -0.0317870966109836 0.00169484087546778 -0.09443722 -0.05818781 0.9938288 215 215 215
-0.0888269184874808 -0.048909797271146 -0.0194377986078119 -0.487231 0.1646953 0.8576021 150 150 150
-0.0413097989146931 0.055318009925403 0.0340548214060311 -0.05316974 -0.2257684 0.972729 191 191 191
0.0551889882739527 0.0883983780677752 0.0575662748982081 -0.01585523 -0.1861674 0.9823901 68 68 68
-0.0611788040342316 -0.100144756441869 -0.00871514515442062 -0.606527 -0.7576362 0.2410651 89 89 89
-0.0696011436540953 0.0378500368185273 0.0235314314538331 -0.1056948 -0.7591898 0.6422301 38 38 38
-0.0319987649073039 -0.0143284516299354 0.012521671290229 -0.3212492 0.07159529 0.9442844 161 161 161
-0.0550812022805416 -0.0522908802652476 0.00104966176374227 -0.6019911 -0.2038004 0.7720571 139 139 139
0.0587939077564155 0.051280732183825 0.0568392274563886 -0.2457974 -0.2572298 0.9345675 104 104 104
-0.00552641365741691 -0.0866432541502303 0.0301226960317708 -0.4526034 -0.05220311 0.8901826 66 66 66
0.0273955315052206 -0.0046927666354824 0.045823494999352 -0.4353342 0.05406817 0.8986439 191 191 191
0.0654966154986902 -0.0314187808809826 0.0163539495397352 0.9967744 0.05221554 -0.0609444 60 60 60
0.0709034784894618 0.0445779678427015 0.0238538632651675 0.994512 -0.09586582 0.04190126 96 96 96
0.0121395123683339 -0.109946521153862 0.0190945531051459 0.0788251 -0.9874448 -0.1368918 78 78 78
-0.0174905211388467 0.0898570320511988 0.0437717016777467 -0.1301223 -0.1676418 0.9772228 58 58 58
-0.0527098634455712 0.0933337686647839 0.0097161328739262 0.01950129 0.987057 -0.1591794 146 146 146
0.0707164810057721 0.0213444183907645 0.000131771789540214 0.9985155 0.03670571 -0.04024188 70 70 70
0.0200475954053645 -0.109663118248297 0.022395444560783 0.03827077 -0.9936893 -0.1054368 145 145 145
0.0620802567777736 -0.00414484257915367 0.0615995558886126 0.09316787 -0.09623256 0.9909889 25 25 25
0.0679338914015255 -0.035010106872691 -0.0165292377047089 0.9822293 -0.1583828 0.1006998 107 107 107
0.0280816428834161 0.102998381406602 0.0205548264196364 -0.1284477 0.9851812 0.1136626 86 86 86
-0.0779615081619252 -0.0323532208964536 -0.0157970695260112 -0.5638496 0.0427905 0.8247682 76 76 76
0.0364585780507372 0.101243115190127 0.0513530794182676 -0.1303722 0.9781764 0.161784 42 42 42
0.0569217082310427 0.0497470809855464 0.0558061070424867 -0.1369605 -0.2345983 0.9623957 62 62 62
-0.149659695274235 0.0257125614045521 -0.0213518128893265 -0.6774588 0.1562663 0.7187701 92 92 92
-0.0219394883266291 -0.114301430095992 0.0158385639076504 0.01038982 -0.9853839 0.1700314 65 65 65
0.0195830859205905 -0.108079866167845 -0.0181106871660126 -0.08667462 -0.9954187 0.04036303 10 10 10
0.0594695869658093 -0.074574973282492 0.0578790992925729 -0.08037346 0.2004175 0.9764082 87 87 87
-0.0416129858130962 -0.0085585598643777 0.0111368181121638 -0.2415425 -0.1351404 0.9609341 115 115 115
0.0673350012584635 -0.0458973899326692 0.0232009048481052 0.9890558 0.1474062 0.00633831 67 67 67
-0.0603145102718341 -0.0284208125195685 0.00488136937566763 0.3098015 -0.2386582 0.9203615 64 64 64
-0.0157665258248589 0.00288030942197179 0.0193048536292891 -0.4924201 0.0725145 0.8673316 173 173 173
-0.091922149565983 0.0393114783876228 0.0159046655339393 -0.5675796 0.1029164 0.8168609 126 126 126
-0.0546398659920984 -0.109220551210932 -0.0230654812002156 -0.5680212 -0.8028817 0.1809225 99 99 99
0.0711840578229288 0.0439134672644635 0.0388148448417904 0.9962728 -0.07058968 0.04957409 104 104 104
0.0658984708651715 -0.0312082554691243 0.00626689122194279 0.9911925 -0.1061961 0.07911911 76 76 76
0.0697037866920498 0.0125694912699575 -0.0135866407557833 0.9972563 0.02871713 -0.06822865 56 56 56
-0.0215893959317275 -0.0708205345069407 0.0274326618360288 -0.4434628 0.07602056 0.8930631 60 60 60
-0.0533376001834367 -0.0121780974969998 0.00839576727958236 -0.05665053 -0.2306021 0.9713976 75 75 75
-0.0288283726077476 -0.0070632156543956 0.013110396201498 -0.4238274 0.1282142 0.8966222 81 81 81
0.0701572683598708 0.0408646998334555 0.036310605729877 0.9988191 -0.04683298 0.01292386 70 70 70
0.0269556983472587 0.0247860043035687 0.0434744915470313 -0.5463289 0.006087497 0.8375486 132 132 132
-0.0817765987278674 0.0740254549856298 0.0197856058059855 -0.5522906 0.05849817 0.8315967 136 136 136
0.0265005408340979 0.092825632985639 0.0555870571160476 -0.2379019 -0.2578579 0.9364358 97 97 97
0.0138402579883499 -0.0136584876776972 0.0377220753142197 -0.53029 -0.09104241 0.8429139 136 136 136
0.0685480604132671 0.00439650575576502 0.00243854303530439 0.991452 -0.09945727 -0.08444588 29 29 29
-0.0763236947518227 -0.00419445921787182 0.0110178491515981 0.07120491 -0.09429968 0.9929942 109 109 109
-0.00162435321784837 0.0809824928967904 0.0445485412508111 -0.117005 -0.2114212 0.9703664 240 240 240
0.0303880039693314 -0.0548428098242187 0.0526108062475963 -0.4351412 0.1040215 0.8943331 87 87 87
-0.0577030489264816 -0.0471043142680618 0.00352228363886403 -0.5358606 -0.4159706 0.7347258 150 150 150
-0.145588165078734 0.0632776726679917 -0.0238837100747607 -0.7920422 0.1067603 0.6010585 63 63 63
-0.0151472632757361 -0.114022751541062 0.00438203221569333 0.2193587 -0.9728048 0.0743805 78 78 78
0.0525948269483756 0.03123938745604 0.0582702585649137 -0.1224177 0.119002 0.9853184 81 81 81
-0.0875869234380682 -0.0692395775256094 -0.0177361120925325 -0.6606281 -0.402514 0.6336821 96 96 96
0.0709281466759646 -0.0721237581471018 -0.0161652101369212 0.9930753 0.1131298 -0.03167097 95 95 95
-0.0762278247210162 -0.0289350382153791 -0.00466905755343699 -0.6758251 -0.7246403 -0.1347479 34 34 34
-0.0563978094269229 -0.105179358880911 -0.014571657140743 -0.616792 -0.7763345 0.1298938 63 63 63
-0.0577625633008858 -0.104870883794563 -0.0170757176841326 -0.588182 -0.7894377 0.1755848 75 75 75
0.0323739503067628 -0.0610748788711687 0.0540612693208559 -0.4199175 0.0517136 0.9060878 107 107 107
-0.0820112916830249 -0.0909385342044672 -0.0168921463397784 -0.5929225 -0.6034387 0.5332023 39 39 39
-0.045342894439087 -0.0907814565394378 0.0104365966618013 -0.4412445 0.02258291 0.8971028 147 147 147
-0.0232884417142709 -0.115518466491942 0.00943632414673218 0.09754505 -0.9841944 0.1478052 80 80 80
-0.076077500011841 -0.0289556419601531 -0.00616367318351663 -0.6505654 -0.739898 -0.1712181 25 25 25
-0.0704068447591246 -0.0887081676109995 -0.00917429732188191 -0.6375813 -0.2662312 0.7229184 166 166 166
-0.026169058903347 -0.117450470943382 -0.00127934870068364 0.2675128 -0.9562403 0.1184966 104 104 104
0.0364332386139794 0.00847134064063695 0.0501473035310912 -0.5036098 0.02313873 0.8636213 90 90 90
0.0696067636329207 0.0871497545293124 -0.0350662329247947 0.9939377 0.05973339 -0.09230231 95 95 95
-0.0615614793732857 -0.0586631601398217 -0.00195467162032453 -0.5211491 0.116218 0.8455158 67 67 67
-0.00252268509232723 -0.0211965388781403 0.0300794531781685 -0.4420699 0.1474237 0.8847827 29 29 29
-0.0490400450181445 0.0591097698845052 0.0342809973263489 0.1402012 -0.2028653 0.9691178 85 85 85
-0.0502434343942837 0.0577015089010761 0.0345082888540256 0.1332194 -0.2467482 0.9598791 20 20 20
-0.0878302523191872 -0.0198068374694249 0.00773215527139037 -0.4411128 -0.6463283 0.6226389 80 80 80
0.00722233487206037 0.0621658241405914 0.0425198903973402 -0.217307 -0.2637024 0.9398078 97 97 97
-0.0622274266033056 -0.0162331903680588 0.00686066483723075 0.05544953 -0.2417902 0.9687429 132 132 132
-0.0854575043575281 -0.0223784131117173 0.00779653717074763 -0.5566782 -0.6588635 0.5059725 58 58 58
-0.100372065077921 -0.0104074968242369 -0.00178620031982901 -0.5770987 -0.8098643 -0.1052472 120 120 120
0.012214315595183 0.0332243949517108 0.0356207140360058 -0.2694499 -0.2625438 0.9265352 128 128 128
0.059589307004424 -0.0522500007029313 0.0594617699267472 -0.03514122 -0.313872 0.9488147 101 101 101
-0.0957586784828077 -0.0666855704104447 -0.026874938244563 -0.6053734 -0.3306956 0.7239913 143 143 143
0.000702452030384215 -0.110821040208779 0.0346791071747028 -0.5064719 -0.08433327 0.8581225 188 188 188
-0.033742477948957 0.0970585648614181 -0.0121960944985004 -0.06199091 0.9969351 -0.04772265 60 60 60
0.0184707799048094 -0.0564492361482116 0.0466897616202832 -0.490365 0.06710094 0.8689302 91 91 91
0.0662166241061679 -0.0280772844811444 0.0326541309029307 0.9977617 -0.01387954 0.06541316 63 63 63
-0.0127181598337418 -0.093466834562608 0.0261712771215116 -0.4563558 0.08017183 0.8861783 162 162 162
0.06557839657432 -0.0250897130510465 0.0284865480035749 0.9973229 0.0531709 -0.050199 65 65 65
0.0463692160333813 -0.111203036976643 0.0263810850557825 -0.1499363 -0.9816781 -0.1175894 65 65 65
-0.0998569584576421 -0.0467683815491448 -0.0262077647601971 -0.5277764 0.1342872 0.8387008 149 149 149
-0.0880555961649128 -0.0200079276997986 -0.000877500981385282 -0.6598468 -0.7513999 0.0005955056 28 28 28
-0.0895964839641477 -0.0608115971388099 -0.0180989586660474 -0.5545688 0.07058558 0.8291388 95 95 95
-0.126266589953409 0.029305087934527 -0.0058744147366932 -0.5240306 0.001747544 0.8516977 104 104 104
0.00918180858532569 -0.0986337476584991 0.0385975814468242 -0.480654 0.09718413 0.8715084 162 162 162
-0.0435613489352367 0.0254921699361884 0.0185300961356063 -0.2336244 -0.6747306 0.7001131 68 68 68
-0.0778602744102752 -0.0090250559190907 0.00985025186260546 -0.01933238 -0.1219265 0.9923508 124 124 124
-0.0939747325490261 -0.0181068800537894 -0.0247583699799285 -0.657592 -0.5645542 0.49885 145 145 145
-0.0299508252793785 -0.0801268607191781 0.016070054055601 -0.5347387 -0.03872816 0.8441295 223 223 223
0.0662399725317053 0.00147312146692691 0.0388232287745211 0.9429366 -0.3303719 0.04153204 45 45 45
0.0699109238840849 -0.0937003851480162 0.0436321597515323 0.9997012 -0.003230068 -0.02423073 60 60 60
-0.00705580240833203 0.0637246933496031 0.0404843040407475 -0.1506242 -0.231647 0.9610682 79 79 79
-0.0148230818172546 -0.111394902546862 0.0271437490931555 -0.3680764 -0.4332945 0.8226637 174 174 174
0.0667861437894999 0.00493038176181532 0.0452437107852693 0.982429 -0.1863325 -0.01065369 46 46 46
-0.0456945379017646 0.0129442272227951 0.0112964848074631 -0.1280306 -0.09436863 0.9872704 123 123 123
0.0593167467658264 -0.112577641580851 0.0413909055988738 0.001750276 -0.9992578 0.03848158 26 26 26
-0.0792884865618007 0.0108836000847824 0.0103435834433336 0.125884 -0.001458477 0.9920439 142 142 142
0.0327639582715125 -0.0963923940004778 0.0518066971254683 -0.4767894 0.08779198 0.8746224 160 160 160
0.0708434055407623 0.0331928650527131 0.00284459583296509 0.9991808 -0.007244741 -0.03981545 61 61 61
0.0649868650552468 -0.111583266725661 0.0264503565780977 0.25984 -0.9622056 -0.08150787 41 41 41
0.0654441926999922 -0.0317299448648738 0.0536669558048338 0.9873503 0.01121512 0.158157 131 131 131
-0.0130942677529049 0.0984618089946894 -0.0284019448878082 -0.07150903 0.9827797 -0.170383 109 109 109
-0.0557719345412573 -0.10542341206783 -0.0133301479322233 -0.6236504 -0.7640886 0.1650111 55 55 55
-0.0196023053207153 -0.113482137300467 0.0204085809830379 -0.122682 -0.9442333 0.3055694 28 28 28
0.0152394299896224 -0.104660555000959 0.0424336804020681 -0.5024819 0.0888668 0.8600085 219 219 219
-0.0547538593143404 0.0553269397222456 0.0341548378668701 0.1769888 -0.3380935 0.9243202 131 131 131
-0.0380653143227421 -0.119225023673134 -0.0194568324052503 -0.4602227 -0.880812 0.1111991 117 117 117
-0.0784001597378858 0.0489595878943634 0.0247928937055346 -0.58714 0.07688317 0.805826 116 116 116
-0.0378564146513654 -0.00515776503805057 0.0120978075386244 -0.06319869 -0.03440018 0.9974079 104 104 104
-0.0280767983922292 -0.118489156505157 -0.00263004337445338 0.2286411 -0.9675887 0.1072164 39 39 39
-0.0277036596683065 -0.0790632088529006 0.0218248443203103 -0.6953591 -0.6003836 0.3949877 126 126 126
0.00895144045416441 0.100872563650694 -0.00518853519860996 -0.06346107 0.9944218 -0.08424949 36 36 36
0.0106098478877019 -0.0467971604115604 0.0407925475619255 -0.466509 0.125138 0.8756197 86 86 86
-0.0774751730916496 -0.00713711054558008 0.0105411479745018 0.005435646 -0.120079 0.9927495 99 99 99
-0.111617889669076 -0.000884955872848564 0.00445032242310417 -0.654258 -0.5608633 0.5073252 158 158 158
-0.0337884152321144 -0.00700151984184778 0.0115140290798478 -0.08165871 0.0297234 0.996217 108 108 108
0.00534036855440423 0.0140408155816165 0.0324608580853701 -0.5491716 0.06773362 0.8329602 76 76 76
-0.0437633035691642 -0.114820291628756 -0.0208779722614773 -0.5544855 -0.8140455 0.1728461 64 64 64
-0.150171171009688 0.0235062647053679 -0.0214036298548306 -0.6512919 0.1768238 0.7379378 106 106 106
0.0707972418148 0.0416596410343975 0.0377178163438882 0.9987716 -0.04414224 0.02251211 52 52 52
0.016894498580752 -0.0461174359197586 0.0443861650773977 -0.4527494 0.129811 0.8821378 137 137 137
-0.0421732982884482 0.0856277746620504 0.0407350137832676 0.1087084 -0.06084966 0.9922096 70 70 70
0.0679274805061159 -0.0506946298448785 -0.013935643449716 0.9814302 0.1395729 0.131583 65 65 65
0.038774986460727 -0.0454974254443294 0.0548987786727904 -0.448375 0.1521013 0.8808093 128 128 128
0.0701763779728219 0.0298884979658118 0.0359447894800725 0.9992763 -0.03506765 -0.01473473 59 59 59
0.0724744894799443 -0.0506944287074519 -0.0314389782716086 0.9960116 0.04765183 0.07543383 80 80 80
-0.0662101176192702 -0.0393826031461904 -0.00149634792398146 -0.6859608 -0.727072 -0.02870776 18 18 18
-0.0382772457852254 -0.00220218253571208 0.0119846103013466 -0.0454916 -0.05538614 0.9974281 61 61 61
-0.114084764900249 0.051153475281639 0.000788305896326558 -0.5297457 0.1223839 0.8392804 135 135 135
-0.0207543343976466 0.067125314528518 0.0386411698386552 -0.2186866 -0.2803808 0.9346458 224 224 224
-0.113284577337551 0.0604147099020575 0.000140712759061357 -0.5621023 0.09728594 0.8213261 134 134 134
0.0271413920303059 -0.0861799136284263 0.0478141009201909 -0.4847706 0.04747967 0.8733517 167 167 167
-0.000551475632948772 -0.109168623665657 -0.0265618868339444 0.1731758 -0.9783343 0.1134552 122 122 122
-0.105542909996117 -0.00607869726427027 0.000166146190531902 -0.6445711 -0.7591963 0.09027201 150 150 150
-0.0962239482299667 -0.0622595924009322 -0.0222960778549386 -0.611653 -0.2024155 0.7647932 152 152 152
0.0734410334119264 0.0845527489698689 0.0344664559527958 0.9847028 -0.1674786 -0.04807607 44 44 44
-0.106884579768974 -0.00758029207080237 -0.0212701790350469 -0.5099074 -0.8317839 0.2193854 88 88 88
0.0178054637225729 -0.108077159269906 -0.0261908654143421 -0.03543871 -0.999371 -0.001313134 24 24 24
0.0503166781669901 -0.00531723339898554 0.0586394019413637 -0.4803974 0.04499418 0.875896 241 241 241
-0.00676264703297358 0.0931665922102879 0.0459327185425856 -0.098506 -0.1743264 0.9797484 81 81 81
-0.0755604921532447 -0.0282510630724404 0.00852796342678735 -0.1958599 -0.3705726 0.9079179 166 166 166
-0.0945703815680261 -0.0611571155438338 -0.0212773765891409 -0.6027982 -0.1290785 0.7873837 148 148 148
-0.0138048862720619 -0.0426048672793587 0.0267680611652223 -0.4513847 0.1047489 0.88616 86 86 86
-0.041507019833301 -0.0545551403172461 0.0135691725527354 -0.5959042 0.0456181 0.8017588 75 75 75
-0.00027398174231319 0.0890723846751607 0.04586964467225 -0.2140733 -0.2047037 0.9551278 56 56 56
-0.0264565868201583 -0.0483056172208509 0.0214173192084888 -0.4887845 0.1354111 0.8618315 83 83 83
-0.10934919715579 0.00342638465540671 0.00682833146580347 -0.6168232 -0.01650032 0.7869288 52 52 52
-0.0533175135515362 0.0926861719719251 -0.0024035970840241 -0.1362722 0.990522 0.01720393 57 57 57
0.046983235970008 -0.106817448759832 -0.0316351519862531 0.07914627 -0.9963191 -0.03292641 40 40 40
0.00792407777976489 0.101651039204879 0.0412251633959959 0.1596466 0.9853913 0.05930475 109 109 109
-0.0807539195472722 0.0893635696769756 -0.00453714160750368 -0.1822854 0.9687684 -0.1681064 118 118 118
0.0729617706725398 0.103411422430703 0.0192204536447835 0.9137 0.4036656 0.04697183 92 92 92
-0.0228048708712723 -0.116662568547727 -0.00130493099978429 0.3333616 -0.9394148 0.07981133 85 85 85
0.0344256284105851 -0.0984916370645445 0.0528623049213939 -0.4888016 0.01404989 0.8722818 107 107 107
0.00536327372428458 -0.0796765503422246 0.0377918990086444 -0.4120871 -0.6950343 0.5891618 178 178 178
0.0688362972690415 -0.0419987025707983 0.0513837087258278 0.9884288 0.1496218 -0.02493709 31 31 31
-0.0139327423694633 -0.113733996999492 -0.0147735524239287 0.3523976 -0.9330954 -0.07175566 54 54 54
-0.0271319853338228 -0.0403707862939797 0.0200448027377693 -0.4426875 0.1878936 0.8767689 71 71 71
0.0508790075355834 -0.111308597379614 0.0137327188033209 0.013682 -0.9999007 -0.003381209 37 37 37
-0.0736783579392797 -0.0567592892837585 -0.00952302971650054 -0.5027549 0.1279505 0.8549071 126 126 126
-0.0834811141805121 0.0501072765418094 0.02080323853498 -0.598766 0.09088178 0.795751 132 132 132
0.068594632332176 0.0326759088344304 -0.030565081176696 0.9875236 0.1543857 0.03101935 101 101 101
0.0635658963470895 -0.111502603639279 0.0203935859859571 0.1315484 -0.9876997 -0.08452336 77 77 77
-0.0499135001593927 0.027328715007005 0.0175215509271504 -0.3021188 -0.6679726 0.6801006 149 149 149
0.0306619339259293 -0.0720859467210964 0.0538172956857684 -0.3879328 -0.04500453 0.9205883 101 101 101
-0.0123598266869793 0.00116113495278114 0.0213342956160286 -0.4898353 0.08928095 0.8672314 48 48 48
-0.0285835735470101 0.0959178272646632 0.0440944558413683 -0.06122371 -0.001674132 0.9981227 138 138 138
0.0369876488535175 -0.0632897253034604 0.0563060377395524 -0.2463211 0.05424348 0.9676691 71 71 71
0.058365406343261 -0.0830173204918844 0.0582016828245055 -0.1624482 -0.1090848 0.9806687 101 101 101
-0.0606218890161965 -0.0432535366672459 0.00458976178705922 -0.2710681 -0.2023319 0.9410546 161 161 161
0.070355807869634 0.0119551309798701 0.00800692439926992 0.9868819 -0.1611842 -0.009154893 103 103 103
0.0627925554923849 -0.11184533590267 0.00220565092621011 0.0183566 -0.9840576 -0.1769002 60 60 60
-0.114695624873597 -0.00258320909796549 -0.0217199941913311 -0.5483682 -0.8111862 0.2031485 33 33 33
0.0686430274130467 0.03171417685573 -0.0177571787638413 0.9923534 0.1027923 -0.06832606 26 26 26
-0.119511107292389 0.00177541817173325 -0.007784582412172 -0.4562119 -0.8897662 -0.01366808 127 127 127
-0.0396497620063894 -0.0876224705030825 0.0125350628965626 -0.4315988 0.06882902 0.8994359 149 149 149
0.0708164978945525 0.0711067985288867 -0.00424865589630202 0.9866692 0.0135598 -0.1621727 43 43 43
0.0707640123579121 -0.0825689805866761 0.0230154483025931 0.9966285 0.07473549 -0.03385654 53 53 53
0.0674207238624756 -0.0113797516974875 -0.0025987941738318 0.998854 -0.04003799 -0.02622438 175 175 175
0.062604973864882 0.106824911124381 0.00033731095265771 -0.05585394 0.9961211 0.06799295 59 59 59
0.0273476907550774 -0.016340178164026 0.0464424249421737 -0.578059 -0.08066574 0.8119981 241 241 241
-0.0537544517513426 -0.0375888741421939 0.00305628378261635 -0.3263103 0.1601536 0.9315967 84 84 84
0.00940883511936752 0.093073330684997 0.0505306900915664 -0.3753761 -0.2025857 0.9044622 58 58 58
-0.096187438239383 -0.0452263526075968 -0.0243459293237527 -0.4867826 0.1528226 0.8600512 132 132 132
0.0568042216671998 -0.00279745084343408 0.0611368189537292 -0.1805826 0.07230531 0.9808985 113 113 113
-0.0675785185522746 -0.0388538921363075 0.00328065951651707 -0.4007705 -0.7552337 0.5186569 28 28 28
-0.0764774872240563 -0.0347754693135652 -0.0144602754946668 -0.5341116 0.1210923 0.8366967 64 64 64
-0.0120017298584978 -0.0811245541930402 0.0273469250253158 -0.4332465 -0.5365015 0.7241986 191 191 191
0.0678818952416655 -0.00311661375872758 0.0242123385326122 0.9631155 -0.262518 0.05910103 136 136 136
0.068958411782428 0.0203479415606315 -0.0259114254814257 0.9928873 0.08032003 0.08788355 92 92 92
-0.0858881148897339 0.00106243966812984 0.0110430017908522 0.02109835 -0.05654432 0.9981771 85 85 85
0.0709000867038423 -0.08516264494182 0.0185294167240968 0.9998298 -0.008617658 0.01631372 46 46 46
0.064430603923034 -0.00490187348275495 0.0373951726397896 0.9917763 -0.0839394 0.09661197 103 103 103
0.067395307280437 -0.018240463653102 0.00622155083230019 0.9811247 -0.04010011 0.1891726 64 64 64
-0.097559754667099 -0.0113045626982972 -0.00556617007874632 -0.6503325 -0.7592735 -0.02390372 15 15 15
0.066001747209337 -0.0127545759040094 0.013282636313072 0.9728206 -0.1364942 0.1870543 52 52 52
-0.0403747303583004 -0.0738830469214349 0.0110530615293455 -0.433761 0.07918292 0.8975419 209 209 209
0.0436894071660108 -0.0498345192536756 0.0585834162478912 -0.3751553 -0.00586261 0.9269434 127 127 127
-0.0430633971377028 -0.0485511162485103 0.0115129662455047 -0.5441577 0.1044991 0.8324496 52 52 52
0.0518885248290952 0.0493668037975517 0.0559294159605387 -0.03331257 -0.04982062 0.9982025 19 19 19
0.0706308700180904 0.0728210298609713 -0.0169842513412357 0.9998177 -0.01817593 -0.005840731 74 74 74
0.0327013446525828 -0.0491651111237121 0.0528722244876183 -0.4102455 0.1701252 0.8959665 100 100 100
-0.00226794622873827 -0.0531070306100439 0.0343000179149321 -0.4869289 0.05807492 0.8715088 36 36 36
-0.0238868862288188 -0.0285848620746008 0.0189766518575164 -0.4814316 0.1557404 0.8625361 104 104 104
-0.0383983335522586 -0.102730024925279 0.012494474035624 -0.4964851 -0.05907745 0.8660326 148 148 148
0.070076357052566 0.0506035889591814 0.00650947451537004 0.9960908 -0.08239696 -0.03184057 51 51 51
-0.099838733383824 -0.0524476361134913 -0.0253741017481169 -0.5498765 0.09354071 0.8299915 158 158 158
-0.0611513601872513 -0.0313364498655593 0.00400887249132542 0.3379177 -0.2422984 0.9094521 114 114 114
0.0704336666858678 -0.0791678068952778 0.0181311324931866 0.9968784 0.05573114 0.05592471 53 53 53
-0.0838924388086415 0.0614720607059949 0.0193749465395354 -0.573216 0.07067816 0.8163505 119 119 119
-0.0641327102204747 -0.0148453637028392 0.00714885813583388 0.1520884 -0.2716959 0.9502897 185 185 185
-0.0160038554092417 0.086851302793639 0.0436467755278112 -0.1460411 -0.2485061 0.9575577 40 40 40
-0.029770407227721 -0.0546179681504203 0.0202099037854657 -0.5073265 0.1308499 0.8517618 39 39 39
0.0276312027611483 0.102597030830812 0.0351790639971679 -0.2292853 0.9715651 0.0590717 43 43 43
0.0695092030673661 -0.108819021324779 0.000736177171837882 0.7773731 -0.6270784 -0.04963622 142 142 142
0.0682542977684153 -0.0455171600739591 0.0451770278289674 0.9884753 0.148883 -0.02739364 79 79 79
-0.0525690671063019 0.0516685485008682 0.0328705413371626 0.09715535 -0.2773911 0.9558321 77 77 77
-0.127827811629429 0.00759088966141107 -0.00578427306388413 -0.6196656 -0.3440617 0.7054332 130 130 130
-0.140071059202287 0.0312165753572209 -0.0150337655230368 -0.5709967 0.110449 0.8134887 116 116 116
0.0205159568467677 -0.00836409667599539 0.0430236220648929 -0.4634341 -0.04355383 0.8850604 141 141 141
-0.0480640444325409 -0.0529931152633931 0.00825514637205832 -0.6796238 -0.1123861 0.7249005 39 39 39
0.0370429664582961 -0.0185825183269351 0.0520031560052901 -0.5148956 0.08418068 0.8531097 231 231 231
-0.0659107096923695 -0.038898009037492 0.00374908523985895 -0.343244 -0.6950146 0.6317739 169 169 169
0.0552305990059652 -0.106111476101047 -0.0254394602463199 0.03348009 -0.997229 -0.06643321 52 52 52
0.0515600015334408 -0.0364838601292984 0.0595821026888756 -0.2798908 0.08405273 0.9563453 132 132 132
0.0443592604844234 -0.110393188201357 0.0110249449518878 -0.2537725 -0.9667129 -0.03264537 114 114 114
-0.0103282763182562 0.100789402302859 0.01821069929756 -0.01338704 0.9890506 -0.1469681 42 42 42
0.0708114302415424 0.0335246534389186 0.0330838270123003 0.9905441 -0.1338775 0.02998669 106 106 106
-0.0757558799606355 -0.0875013613516536 -0.0127369635033961 -0.5751655 -0.108308 0.8108354 159 159 159
0.0629192067101036 0.102913248929467 0.0481433706585933 0.1044435 0.9788502 0.1759087 146 146 146
0.0389736794201467 -0.0889505744119211 0.0544579687844519 -0.4693643 0.07906581 0.8794577 96 96 96
-0.0740872116988349 0.0182822279177542 0.0105943229023828 0.06140771 -0.2007397 0.9777181 141 141 141
-0.0974847661604916 -0.00843587041295539 0.0101906278071709 -0.2848657 -0.5330704 0.7966727 167 167 167
0.0337515370517085 0.104004064196453 -0.0213449530451075 -0.01933294 0.999446 0.02708987 59 59 59
-0.0243286225036967 0.0458674579727038 0.032448598799535 -0.2241744 -0.1990944 0.9539954 63 63 63
0.0559872159798389 0.0971890767808937 0.0595865873097626 -0.008914261 0.02677629 0.9996017 121 121 121
-0.0787865432430399 0.0132298943392732 0.0102547778683151 0.124646 -0.06900091 0.9897991 138 138 138
0.0704636267005037 0.00455776986128226 0.017742546273924 0.9897627 -0.09789371 0.103859 79 79 79
0.0705125678441778 -0.0876381601055705 0.0433311014903764 0.9983796 -0.03283641 -0.04647479 18 18 18
-0.0120477223451627 0.00338096783771542 0.0215450012639573 -0.4863212 0.09482051 0.86862 36 36 36
0.0705704714771609 0.103261715265342 0.044499755964572 0.3060697 0.92614 0.2204228 36 36 36
0.00529973953360807 -0.111958246780374 0.0371992214328525 -0.4443755 -0.1844629 0.8766435 102 102 102
0.0507838566144887 -0.107072618572076 0.0532130536289394 -0.142465 -0.6252967 0.7672729 149 149 149
0.0613138698601343 0.0982836262579194 0.0600147933813585 0.09129002 0.3237807 0.9417177 115 115 115
-0.0583480010605375 0.0132592599110723 0.0103970323578003 -0.08800175 -0.2336735 0.9683245 65 65 65
0.070871959882945 0.107646887285194 0.0155339308791412 0.4843527 0.8745243 0.02469274 95 95 95
-0.0900843312345141 -0.0191694742703009 -0.0205340010253605 -0.5094303 -0.847749 0.1476562 76 76 76
-0.13038291384873 0.0450009876873922 -0.00954755705072935 -0.5792992 0.110867 0.8075401 79 79 79
-0.0198368145389272 0.0334229071634764 0.026753408954766 -0.2678587 -0.6130217 0.7432739 75 75 75
0.0521465681928532 -0.111380336660906 0.0165963226133267 0.02202935 -0.9994927 -0.02300042 79 79 79
0.0356973904095184 -0.108434603044325 -0.00129509238643566 -0.1928367 -0.9800079 0.04897361 64 64 64
0.0699084153594596 -0.0320407321145345 -0.0277652926481062 0.969902 0.01525616 0.2430173 138 138 138
-0.10192642767419 0.0133612824347981 0.0112921293047879 -0.43998 0.03815983 0.8971964 58 58 58
-0.05228291796436 -0.105661147096781 -0.0047814270741276 -0.595988 -0.7576176 0.2661088 65 65 65
0.0691939203258358 0.0155230354062421 0.0518660117900723 0.9833014 -0.1776484 0.03948995 98 98 98
0.00244872992869327 0.0470735693550357 0.0368051860688984 -0.1644037 -0.1994059 0.9660273 142 142 142
-0.0102696982781065 -0.11264869888543 0.00654259067083052 0.2544919 -0.9630787 0.08782569 72 72 72
-0.0629267245357359 -0.0577449262885669 -0.00307916785028167 -0.5146945 0.1219905 0.8486507 94 94 94
0.0721091672372824 -0.0670623502512047 -0.0335246581832629 0.9970605 0.0163807 0.07484602 108 108 108
-0.0117206838281829 -0.0557540138398546 0.0300658878708618 -0.3937715 0.1656915 0.9041517 87 87 87
-0.0195815467165774 -0.0808524119639846 0.0254780786611342 -0.3298329 -0.667218 0.667855 156 156 156
-0.138678707443854 0.0176434158627713 -0.012854337922613 -0.5500478 0.02839211 0.8346504 64 64 64
-0.00933313197736219 -0.111153801097909 -0.0186207597941381 0.348835 -0.9314474 -0.1035369 70 70 70
0.0509131637769631 -0.0652977639086614 0.0564909105700371 0.02623972 0.02272213 0.9993974 98 98 98
-0.146314453666619 0.0616256931201674 -0.0260347142396916 -0.7824416 0.195409 0.5912702 90 90 90
-0.000527692473322627 -0.104307993739008 0.0337949539972712 -0.5085711 0.05311359 0.8593802 211 211 211
-0.0785072582091204 -0.0921466826429321 -0.0164891603036622 -0.4940256 -0.730216 0.4719357 100 100 100
0.0687754308925475 0.0213748210218538 -0.0238688308333501 0.9963117 0.05580547 0.065183 98 98 98
-0.0284094292870321 -0.0216087466780977 0.0155065906324466 -0.467752 0.1702964 0.8672988 53 53 53
0.0716921197917437 -0.0844473580623557 -0.0232374512243497 0.9851378 0.1687466 -0.03206373 115 115 115
0.0342729809457225 0.0710407873244479 0.0492129384560356 -0.2041227 -0.2428569 0.948343 103 103 103
0.0213363569476073 0.101521214598606 0.0129257740784632 -0.2450469 0.9544295 0.1703418 45 45 45
-0.0658654935900387 0.0218090180924283 0.0118389967087201 -0.1433267 -0.1998512 0.9692868 106 106 106
0.0714590751935869 0.0396437142282348 0.012812631552563 0.9962916 -0.08582614 -0.006081238 32 32 32
-0.0635095085713226 -0.0835782744651351 -3.98067666101953E-05 -0.5950503 -0.05423085 0.8018568 81 81 81
0.0189896180194542 -0.0415327670794889 0.0445624208183486 -0.3741901 0.1725986 0.9111484 46 46 46
-0.0458361825209588 -0.0669770313917068 0.00788887059853199 -0.4721645 -0.0004625042 0.8815103 186 186 186
0.0305926328784452 0.0945344016221964 0.0566577052551414 -0.1993707 -0.1100599 0.9737238 113 113 113
0.0630316959215893 -0.111673350728502 0.044163435270978 0.2320783 -0.9671071 0.1041321 38 38 38
-0.032971188809015 -0.113942309670882 0.0147433446342575 -0.4934885 -0.6615646 0.564625 32 32 32
0.0489604033677544 0.0390625030473757 0.0568301579925309 -0.2465144 0.0796468 0.9658608 128 128 128
-0.00965302479616303 -0.0294090717589106 0.0274446479418085 -0.4708658 0.159223 0.8677174 99 99 99
0.0693934551928441 0.0632755100951455 -0.0290763139653446 0.9960325 -0.084158 0.02892652 111 111 111
-0.013123892585059 -0.113276399428352 0.0089493624565028 0.2637238 -0.9632296 0.0513665 37 37 37
-0.0302292029059625 0.0436421425968337 0.0310345320826326 -0.06591372 -0.2673087 0.961354 234 234 234
0.0666192876809815 -0.0625591352563395 0.0578319298695921 0.08943137 -0.01015256 0.9959412 41 41 41
-0.140029216821783 0.0230306788456893 -0.0138385133919786 -0.5618877 0.0392159 0.8262835 113 113 113
-0.0431558563403365 0.095644177732527 0.0140624957084537 -0.1374925 0.979999 -0.1438672 50 50 50
0.0547901927402901 0.103018701408603 0.0401518275192648 -0.1598604 0.9839579 0.07919312 59 59 59
0.0508512752814854 0.0216486462746738 0.0572650966883336 -0.4954306 0.03628278 0.8678895 90 90 90
-0.0273952380648721 0.0556418805308817 0.0346404257509852 -0.04374539 -0.2854827 0.9573849 92 92 92
-0.0312910457327655 0.0851306864780778 0.0414006850991505 -0.1159138 -0.2056863 0.971729 103 103 103
0.0578583278777272 0.103722648675736 0.0435929711292731 -0.1523462 0.9823513 0.1085199 72 72 72
-0.0269077061149128 0.03955881157669 0.0305442425036319 -0.1756715 -0.4467361 0.8772493 232 232 232
0.0722650051447071 0.0539706748313624 0.0444675266756292 0.9896908 -0.1432181 -0.000788863 30 30 30
-0.0175203488810594 0.0969811743101456 -0.0147454423308026 -0.06552576 0.9969413 0.04259471 23 23 23
0.00782044692548478 -0.110265317166586 0.00942786495872727 0.2509256 -0.9603921 -0.1211746 111 111 111
0.0704519211495778 0.0177346436859747 0.000109391719547325 0.9956542 -0.07835431 -0.05033316 72 72 72
-0.0259915149895664 0.0989541630073322 0.017745123966797 -0.2972594 0.9547905 -0.00344364 130 130 130
-0.0175990113546605 -0.0823589104381944 0.0235204027904416 -0.3728617 -0.4735508 0.7979498 209 209 209
0.0606367294448722 0.0157218368442533 0.0610180291212884 -0.0717016 -0.1527347 0.9856627 159 159 159
0.0321875709423378 -0.10862282636781 0.0152022495768188 -0.1173825 -0.9843922 -0.1311234 32 32 32
0.0700331189134791 -0.0665555166431797 -0.0210668584385221 0.9765925 0.1586713 0.1452258 98 98 98
-0.0699414441981978 -0.0782468269720921 -0.00360709194034364 -0.5384784 0.01758505 0.8424558 33 33 33
0.0693976050671061 0.0291430891078321 -0.0334040249337658 0.9978453 0.06257112 -0.01973831 99 99 99
0.0447626530686165 -0.110888057225895 0.0182219102835987 -0.2309245 -0.972844 0.01576282 77 77 77
-0.0702699681538355 -0.033336945912968 -0.00659622713439667 -0.7315925 -0.6707466 -0.1219487 23 23 23
-0.0966520297403592 -0.0148572530794732 -0.0223552991397444 -0.6424699 -0.7371002 0.2095609 109 109 109
-0.0459704878738507 0.0858831164312145 0.0414691459451313 -0.09281141 0.009688963 0.9956366 192 192 192
0.0604727992399829 -0.104826916225712 0.0545975151330621 0.1392962 -0.4841294 0.8638375 182 182 182
-0.0706827225883067 -0.0283211685625468 0.00787378686808443 0.0930132 -0.2348118 0.9675805 155 155 155
-0.0966269741814623 -0.0132451445525888 -0.0137324313057457 -0.5776864 -0.807451 0.1195879 64 64 64
0.0234817729623602 -0.0892495404167337 0.0457089692186854 -0.4971372 0.08266197 0.8637254 172 172 172
-0.0420746123051914 0.0312148854774654 0.0247720721316785 0.03181982 -0.5749329 0.8175816 84 84 84
0.00644608014398251 -0.0547210222663047 0.0396094791244038 -0.5078065 0.08431107 0.8573355 103 103 103
0.0413836901509517 -0.106356714826559 0.0520222967617394 -0.09155886 -0.666161 0.7401665 139 139 139
0.038542716943724 0.0226289392238317 0.0507673704481256 -0.4668241 0.04726356 0.8830863 234 234 234
-0.0545949576673301 0.0944980358542617 0.00366631384962529 0.01278322 0.9932059 -0.1156662 32 32 32
-0.0153427377862698 -0.0186564048318291 0.0224594794072258 -0.5043026 0.121106 0.8549925 72 72 72
-0.117515736581817 0.00177036711786674 -0.0141234613318732 -0.4003153 -0.9152606 0.04522879 25 25 25
-0.0974022534571004 -0.0817093031506671 -0.0258500837821721 -0.5075516 0.01505794 0.8614898 158 158 158
0.0714753055314654 -0.0951345265140986 -0.00453621218822331 0.992641 -0.08031582 0.09062684 35 35 35
-0.0410691680279092 -0.0362808777964405 0.0109429231517771 -0.5156969 0.1223359 0.8479921 63 63 63
0.071286723736351 -0.0648603338803181 0.0104471651706697 0.9906051 0.1095769 -0.08181955 53 53 53
0.00549060079593566 -0.107682640331737 -0.0131834123015275 0.1571647 -0.9875693 -0.002484593 113 113 113
0.069869478635685 -0.0583598243786469 -0.0213665804916898 0.9790645 0.02292062 0.2022557 89 89 89
-0.0107445982661352 0.0504300323353124 0.0353170777927651 -0.1480429 -0.1585466 0.9761897 88 88 88
0.0104704854188764 -0.0712098565857071 0.043099182683122 -0.4709508 0.0879982 0.8777595 81 81 81
0.00614876468466719 -0.00872649882663552 0.0337063890312186 -0.5507037 -0.03767705 0.83385 160 160 160
-0.0665766588406829 -0.0384882690214141 -0.00759237517273365 -0.8310094 -0.3280465 0.4492313 40 40 40
0.0702630202664336 0.0269487736247334 0.0142357598214528 0.994481 -0.087067 -0.05853971 43 43 43
-0.0822514510988506 -0.00535018956735972 0.0107803426468777 -0.001640283 -0.08842526 0.9960815 90 90 90
-0.0726639095420896 -0.0943379401712338 -0.0123435320511404 -0.5681714 -0.7091414 0.4174922 77 77 77
-0.0195338540424199 0.0290899467243008 0.0241809245821952 -0.197127 -0.3461821 0.9172235 95 95 95
-0.036257676683904 -0.0870213290071125 0.0137766318808708 -0.4211088 0.07552949 0.9038599 130 130 130
0.0718041974930879 -0.0809713439061649 -0.000324439490068329 0.9864278 0.1546433 0.05518772 91 91 91
0.0344123977444037 -0.0196943435983078 0.0505270072207014 -0.4922051 0.04875441 0.8691128 181 181 181
0.00468608497762357 -0.0387646067831694 0.0366909033389802 -0.4388128 0.1339174 0.8885434 63 63 63
0.0379827209297896 -0.0589609216595428 0.0565785565535097 -0.2792611 0.04750486 0.9590394 118 118 118
0.0272103095883089 0.100610367834889 0.0489143200866772 -0.3773309 0.919467 0.1104623 78 78 78
0.0707025720705845 -0.0846493071195611 0.0420083110954811 0.9953107 -0.02629731 -0.09308679 65 65 65
0.0664955268249772 -0.0908478449807979 0.0593295075326472 0.1638074 -0.08818827 0.9825426 106 106 106
0.00847137261444209 -0.10267564052846 0.038585733905349 -0.4639197 0.04330212 0.8848183 195 195 195
-0.00512063634207749 -0.0492598777882564 0.0324176448545133 -0.510972 0.08314874 0.8555664 116 116 116
0.0704653266122373 -0.0648807666000983 0.0516960528832328 0.9700117 0.03952745 0.2398229 38 38 38
0.05462661207009 -0.106704636787833 -0.0217255092028304 0.04862804 -0.9799998 -0.1929657 75 75 75
-0.0898551421204266 -0.0771774344175181 -0.022341414076158 -0.5390477 0.08955401 0.8375009 112 112 112
-0.0842889623891128 -0.0667943178518355 -0.0139083404525152 -0.5898741 0.0497519 0.8059611 159 159 159
-0.0104689577784405 0.0677227505611067 0.0405264407496008 -0.1615895 -0.1547854 0.9746437 81 81 81
0.0685156472085078 -0.0247786893462172 -0.0221178310504208 0.9921023 -0.007557051 0.1252038 115 115 115
-0.0365090546995051 -0.0658980566873648 0.0121728929287075 -0.6651808 -0.4000908 0.6304458 208 208 208
-0.0913108603272481 0.0652487069621891 0.0135632069702891 -0.5629541 0.06333862 0.8240576 147 147 147
0.0219934825843162 -0.108137279081648 -0.0296405249196022 -0.06626418 -0.9975538 0.02226038 99 99 99
0.00933402462552557 -0.0476943103607156 0.0402152906070588 -0.4697816 0.1192225 0.8746949 34 34 34
0.0181205696831634 -0.107872586389892 0.00859690169219912 0.1066658 -0.9940848 -0.02043874 84 84 84
0.0651027361706014 -0.110861127491504 0.0368786540083559 0.3908507 -0.9142065 0.1070615 15 15 15
-0.0899436050495797 -0.0182414860777047 0.00717400316125755 -0.5664545 -0.7433951 0.3556585 51 51 51
0.0502230521690854 -0.106706456755445 0.053666159032245 -0.1679379 -0.5682477 0.8055379 146 146 146
0.00982858379304696 0.101258485726142 -0.0169419674321013 -0.2497529 0.9681937 -0.0149867 65 65 65
0.00615358529345489 0.0943380119764608 0.0486021013797771 -0.3302821 -0.2194458 0.9180181 76 76 76
0.0617231480258114 -0.0670550579050372 0.0569705765575569 -0.1294306 0.0637618 0.9895363 65 65 65
0.0692561355295469 -0.00802576353199198 -0.00818110415867968 0.9904937 -0.07784529 0.1134128 65 65 65
-0.0897645599081294 -0.0169973589874461 0.00968729465439244 -0.334868 -0.4521575 0.8266904 59 59 59
-0.0669738507954927 0.0938035921627795 0.0122193876384644 -0.2362586 0.9699941 -0.05738812 135 135 135
-0.084047820310551 0.0894439072779043 0.00933580403731998 -0.4134085 0.8929409 0.178185 138 138 138
0.0703753661090225 0.0266480843002169 0.0445015208287181 0.9990748 0.03399279 0.02634562 55 55 55
-0.0959359312666268 0.0487688285189116 0.0119742834101956 -0.5783965 0.07516024 0.8122859 111 111 111
0.00595650287643235 -0.101078181395645 0.0373404199773037 -0.4858496 0.08463914 0.8699347 191 191 191
0.070975779695158 0.0532172494024018 0.0588828185510793 0.3855402 -0.1324444 0.9131359 33 33 33
-0.0675464157032186 -0.00410398782623474 0.0098409530505652 0.1317088 0.022553 0.9910319 89 89 89
-0.137873557041675 0.0652719228240748 -0.0173946413212908 -0.5685406 0.1026897 0.8162208 107 107 107
0.058714451802854 -0.00624398034498042 0.0614768617401085 -0.05186165 -0.06166157 0.9967488 51 51 51
0.0102474299541742 -0.109641475407073 0.0151728292008948 0.1388507 -0.9872434 -0.07791641 104 104 104
0.00206492159758875 -0.0411133225295155 0.0356191569526482 -0.450535 0.1176315 0.8849751 85 85 85
-0.103475734013486 0.0134780194460687 0.0106849410843076 -0.5150661 0.04246801 0.8560978 81 81 81
-0.0758483628894711 -0.0755152106832895 -0.00734649459978781 -0.6094738 -0.1280996 0.7823887 156 156 156
-0.0814091157103993 -0.0244075571347152 -0.0130846130258858 -0.5841529 -0.8110054 0.03218202 56 56 56
-0.102341804886495 -0.00475951160159468 0.011672143237376 -0.3232246 -0.3948366 0.8600174 163 163 163
0.070013381299078 -0.0649038892491723 -0.00824523546734324 0.9864042 0.164332 -0.001314427 64 64 64
-0.085887359018372 0.0884865756063021 -0.0145060059648524 -0.1186857 0.9912061 -0.05851676 67 67 67
0.0395046413451254 0.00340450440672715 0.0522104718239465 -0.5210804 0.017771 0.8533226 126 126 126
-0.113691389345715 0.06247912544179 -0.000500915392325163 -0.5533634 0.1047915 0.8263218 110 110 110
0.0703413182805561 0.0252345448909307 -0.013542345366404 0.9892903 -0.05281672 -0.1360701 43 43 43
-0.00231493152875606 -0.109701678494839 -0.00411664586533272 0.1792616 -0.9781592 -0.1052127 102 102 102
-0.0932967149209114 -0.0728932624700683 -0.0246164848061232 -0.5449769 -0.08008724 0.8346174 152 152 152
0.0712154073267075 -0.0937793688912538 0.00307548459918189 0.9865357 -0.1621343 0.02144465 47 47 47
0.0701129555939635 -0.068101450133642 0.0343481338455539 0.9972991 0.05167527 -0.05219306 39 39 39
-0.0885725284486427 -0.0880532434964274 -0.0265959560753319 -0.5585806 -0.6679874 0.4917119 114 114 114
0.0245011774219535 -0.06493534091145 0.0503722365486916 -0.4931652 0.04059829 0.8689879 143 143 143
0.0717464952476066 0.0364077366863987 0.0344215515887494 0.9976369 -0.03300341 0.06026032 73 73 73
-0.119575253732584 0.00240977375057422 -0.00555491770927219 -0.5150191 -0.8529688 0.08484992 112 112 112
-0.104635081800798 0.0853807811211487 -0.0280114386249458 -0.2428449 0.9695736 0.0308762 94 94 94
-0.0460079198149264 0.00954385786194063 0.0119327193699401 -0.1333482 -0.01797292 0.9909062 107 107 107
0.0716263407159601 0.0489582903006784 -0.0115213828373896 0.9964649 -0.07478209 -0.03827985 75 75 75
-0.1192300036283 0.00198444761516349 -0.000481636387833828 -0.6236933 -0.6059455 0.4937983 119 119 119
0.0658707763074693 -0.0351950489120493 0.0104090791208571 0.9969501 0.07045026 -0.03357521 53 53 53
-0.0537689848423617 0.0158038289016563 0.0113951107705782 -0.09183988 -0.2921568 0.9519506 141 141 141
0.0704036136552832 -0.0834929645602971 0.0306786259803846 0.9994128 0.02204402 -0.02623325 58 58 58
0.0614012521590346 -0.106537035410845 -0.0236824200959104 0.05858351 -0.9913052 -0.1178216 77 77 77
-0.0897579960541637 -0.0180129705985405 -0.00998883091448977 -0.6139567 -0.7869408 0.06149252 71 71 71
0.0690590455354201 0.0964292262301367 -0.0165241519000709 0.9930094 0.1154958 -0.0243533 89 89 89
0.0118510492171797 -0.0680691969286783 0.0434554806477236 -0.4737474 0.07111751 0.8777846 129 129 129
0.0641619286639163 -0.00903528868426395 0.0412478898528262 0.9924815 0.1070998 0.05924712 107 107 107
-0.140446107204125 0.0100824133169662 -0.0238744389449492 -0.3885945 -0.9144034 0.1134052 60 60 60
0.0700512850211572 -0.0788647745711327 0.0124241031970626 0.9988968 0.04667513 -0.005154078 46 46 46
-0.110128864294247 -0.00142397601509449 0.00680228967191787 -0.6700548 -0.4421015 0.5962993 102 102 102
-0.00413849476253869 -0.099788544183029 0.0312999236522473 -0.4792416 0.1004539 0.8719154 225 225 225
-0.106733749560022 -0.00466696034553649 -0.00112387705908373 -0.6025092 -0.7933753 0.08682314 154 154 154
0.0367870754509521 -0.110261044755232 0.0444038190406999 -0.01625664 -0.9229848 0.3844929 77 77 77
0.0719998822959482 0.0504526153485654 0.0429515518850822 0.9858555 -0.1636753 0.03604595 33 33 33
-0.0120453364757145 -0.00241154907355888 0.0219861011482438 -0.4920996 0.1336433 0.8602194 98 98 98
0.0697563836817374 0.0224532949768722 0.0484865774325989 0.9916611 -0.02511643 0.1264014 117 117 117
-0.0498775148826471 -0.0892079045583978 0.00767998243931151 -0.4502217 0.05192546 0.8914058 157 157 157
-0.0434457753740176 0.00920676526485255 0.0120797241781805 -0.06261136 -0.03535481 0.9974115 61 61 61
-0.113014222402892 0.0223153517088645 0.00345586226152245 -0.5695707 0.06678189 0.8192249 174 174 174
0.0564459726245667 0.10581685316 0.00525523208211204 -0.2039888 0.9716555 0.1194742 68 68 68
0.0318491483992855 0.102974466504516 0.00531898804735764 -0.04989225 0.9954445 -0.08124643 55 55 55
-0.081922775259514 0.00404744712296165 0.0107709218809545 0.02552487 -0.03085268 0.999198 106 106 106
0.0284543304961349 0.0114134971022326 0.0458471391767685 -0.4370514 0.07502843 0.8963017 222 222 222
0.0471732897067292 0.0157180287251251 0.0560093530200406 -0.4532217 0.03672951 0.8906408 53 53 53
