ply
format ascii 1.0
comment File exported by Rhinoceros Version 7.0
element vertex 470
property float x
property float y
property float z
property float nx
property float ny
property float nz
property uchar red
property uchar green
property uchar blue
end_header
-0.00296009850149728 -0.0233064829485174 -0.0154441852717527 0.3337113 -0.3527705 0.8741795 53 53 53
-0.026311847499458 0.0338775364632234 -0.00196897865820711 0.325832 -0.5476727 0.7706413 106 106 106
-0.0430449840102647 0.00377950872398469 -0.00798509496378919 0.1829339 -0.3180837 0.9302462 89 89 89
-0.00480857195364723 -0.00449537254618337 -0.0105753152655362 0.03492994 -0.4382398 0.8981792 52 52 52
0.0189803058289031 0.0219768137768266 -0.00973995408643097 0.2292474 -0.2934778 0.9280714 119 119 119
0.015092895621662 0.0411799555047863 0.0172791425229794 0.5235224 -0.4163643 -0.7433472 37 37 37
-0.0178957231950772 -0.00791306062015074 -0.00973203052400778 0.2595532 -0.3115416 0.9140973 137 137 137
-0.0140744728217066 -0.0299653883472857 -0.0172394961811786 0.326838 -0.2580832 0.9091589 89 89 89
-0.0127881884420408 -0.0356512061825269 -0.018190381582132 0.324443 -0.2529833 0.9114473 85 85 85
-0.040321395926406 -0.0132858981227129 -0.0071193007454502 -0.8010641 -0.5312764 0.2757565 113 113 113
-0.0527439775472912 -0.00090613046269028 0.00230204299265968 -0.9393041 -0.3363288 0.06775544 163 163 163
0.0106826376829126 0.0347600120080024 -0.00599069116076478 0.2569307 -0.3171978 0.9128922 99 99 99
0.0499951424710911 0.00340668895895035 -0.0159048560823817 0.2920271 -0.2925138 0.91058 87 87 87
-0.0155605588292674 -0.0244456463116198 -0.014517693413723 0.4353426 -0.3065232 0.8464752 64 64 64
-0.0273484318856246 -0.0325246303386302 -0.00621722868546293 -0.7512163 -0.6598806 0.01521967 135 135 135
-0.00872876854381119 0.036027463232151 -0.00344265459854265 0.1854084 -0.315277 0.9307116 101 101 101
-0.0444992900702094 4.53093613552724E-05 -0.00716425899097656 0.2290829 -0.2735145 0.93419 93 93 93
-0.0355345203659893 0.0170491336342508 -0.00197753888695984 0.0994564 -0.1887505 0.9769758 127 127 127
-0.0315183925769518 -0.0251355675381542 -0.000218772517561083 -0.8369308 -0.5288318 0.1410099 111 111 111
0.012873230872657 -0.0203644316961282 -0.0169840671146102 0.1200905 -0.3924865 0.9118841 98 98 98
0.0377662542493223 0.00158052191967251 -0.0136099884153211 0.2921558 -0.2760173 0.9156743 160 160 160
-0.0450931187752996 0.0148174733423992 0.00243129806699649 -0.01420413 -0.8921276 -0.4515601 89 89 89
0.00281125760678766 0.0289332218195911 -0.00635845336765412 0.1650172 -0.2497548 0.9541446 124 124 124
0.0353941939328365 0.0369918325821026 -0.00699111261732172 0.3336131 -0.3170234 0.8878055 97 97 97
-0.0473182795380237 -0.00620346079895917 -0.00735145229254769 -0.7762108 -0.3821725 0.5014389 119 119 119
0.0242061682344877 0.0524683953298993 0.00826014757437521 0.5227307 -0.333132 -0.7847137 22 22 22
0.0010286642718044 0.0241157073080379 -0.00691895193988223 0.179535 -0.2321218 0.9559742 100 100 100
-0.0276880935705943 -0.0351648619953495 -0.00944286183814003 -0.8736464 -0.4794603 -0.08282392 215 215 215
0.0190428537767401 0.0126294719512886 -0.0122031304695575 0.1472308 -0.3515447 0.9245211 115 115 115
-0.0198303881759226 -0.0424340484302881 -0.0152701820589792 -0.8611704 -0.4833067 0.1574806 140 140 140
0.00738002440908661 0.0426008022783851 -0.00288370890788847 0.3641026 -0.2744057 0.8900173 91 91 91
0.00754707337552449 0.0498840693290087 -0.00123885395946766 0.733665 -0.6484728 0.2030234 92 92 92
0.0252190923954652 -0.0178249090286173 -0.0192939218063592 0.1944971 -0.2655947 0.9442618 84 84 84
-0.0496479566954048 -0.00514845554147358 0.0145621910938596 -0.9065976 -0.4178161 0.05925012 110 110 110
0.0382407534976699 -0.00841510625153208 -0.0184336465558085 0.2852769 -0.1737687 0.9425611 110 110 110
-0.0455340872971159 -0.00325310843891424 -0.00909549465326298 -0.1161839 -0.4139376 0.9028604 79 79 79
-0.00151304215084205 0.00927143966006816 -0.00885218031498258 0.1215599 -0.3061116 0.9442028 97 97 97
0.0244182395249361 0.0117485919690329 -0.0133033072859188 0.1718293 -0.3840609 0.907178 109 109 109
-0.0105450008754398 -0.0395409682916317 -0.0199455400174052 0.3084029 -0.2432815 0.9196205 80 80 80
0.0320933799695758 -0.0160339624235759 -0.019066054770117 0.1949053 -0.4049022 0.8933455 112 112 112
-0.0449459512520207 -0.00372748206021467 -0.00735607143119255 -0.1987515 -0.3872823 0.9002834 124 124 124
-0.0286433762907949 0.00498599920980247 -0.00641656488051268 0.1395241 -0.2374041 0.9613388 136 136 136
-0.0228772296078404 -0.0283543263844888 -0.0160916009711277 0.3273229 -0.3734477 0.8679842 68 68 68
-0.0263478120304066 -0.0336997161518025 -0.00734927769123328 -0.7839456 -0.6149269 0.08540556 140 140 140
0.0171288206362773 -0.00873893108922363 -0.0160661068364757 0.165925 -0.4704845 0.8666679 90 90 90
0.00794554435949721 0.0486541750475328 0.00427015158173949 0.626587 -0.5611393 -0.5408432 28 28 28
-0.0118445545016362 -0.00310027380648514 -0.00894552359891565 0.1573761 -0.3068083 0.93867 177 177 177
0.026918619020918 0.0443822551747126 -0.00349866041551428 0.2724391 -0.3408762 0.8997668 60 60 60
-0.0237639197837602 0.00470013185746798 -0.00606142227030648 0.06720296 -0.2091592 0.9755697 93 93 93
-0.00674106799324434 0.0045974645946647 -0.00747809162494317 0.0811974 -0.250811 0.9646247 151 151 151
0.0107567376272813 0.039861377599575 0.0174396089765353 0.505056 -0.4486434 -0.7373178 33 33 33
0.0171010109835764 -0.0120451108875772 -0.0163688876278701 0.1624919 -0.4404618 0.8829438 118 118 118
-0.0499167340082488 -0.00310961584884839 0.00701203962799862 -0.9076847 -0.4185246 0.0307516 86 86 86
-0.0378427803400902 -0.0168480379899068 0.00210785183934326 -0.8560157 -0.5102267 0.0831013 101 101 101
-0.00183829804641403 -0.0121943494951233 -0.0109669671367795 0.2362145 -0.3130055 0.9199077 156 156 156
-0.0165462116932438 -0.0201473431597636 -0.0130107380870538 0.4257781 -0.2572402 0.8674909 76 76 76
0.0277375100370907 -0.00325124547714273 -0.0170424894862127 0.1797993 -0.377851 0.9082405 109 109 109
-0.0183952918003406 0.0299371842292925 0.0112138809151034 0.2442517 -0.5642591 -0.7886398 40 40 40
-0.0233708336015876 -0.0381784904545321 -0.0134570105034443 -0.8356501 -0.5191481 0.1793714 139 139 139
-0.0407588916119182 -0.012722081493342 -0.00859273595167726 -0.6443591 -0.5752935 0.5038241 106 106 106
0.0203204689806407 -0.009685304693696 -0.016202772020468 0.2050932 -0.4126126 0.8875177 108 108 108
-0.0464366293779082 -0.00920310310331351 0.00869315963735101 -0.9183941 -0.3937469 0.03893223 121 121 121
-0.00251614229931416 -0.0059620805609788 -0.0114348878600662 0.09160787 -0.3674905 0.9255046 96 96 96
-0.0389343998834284 0.0181047849091565 0.00680171304258514 0.200524 -0.6713654 -0.7134835 45 45 45
-0.0169392524581246 -0.0170895925290644 -0.0102634646869449 0.3621487 -0.2632349 0.8941787 87 87 87
-0.0395764086541063 0.0165538047853347 -0.00343529419132915 0.2000957 -0.2190749 0.9549701 108 108 108
-0.00934679835902338 -0.0405944299814942 -0.0199059454616683 0.2637533 -0.194416 0.9447945 90 90 90
0.0300887587161601 -0.00325950390211172 -0.0162080725607027 0.259106 -0.2863662 0.9224199 150 150 150
-0.00511239447786663 -0.0157948317519336 -0.0128634880713893 0.2609686 -0.3824003 0.8863777 81 81 81
-0.00345481894007407 -0.0282193268343571 -0.0171624048690694 0.318636 -0.3433697 0.8834978 149 149 149
-0.01227143177492 0.0306554251065478 0.0146160635312479 0.2351446 -0.4598373 -0.856304 38 38 38
0.0293040525482938 -0.00851669992114656 -0.0183223479543513 0.1035611 -0.265273 0.9585955 127 127 127
0.0130586923629439 0.00079519585923582 -0.0124951240027932 0.1281414 -0.4273713 0.894949 108 108 108
0.0235117477283095 -0.0168873735154789 -0.0175620780550445 0.1676247 -0.2955814 0.9404965 102 102 102
-0.016249304405973 0.0338895705875758 0.00953164150529762 0.3092797 -0.6004986 -0.7373924 44 44 44
0.000297265377676631 0.0460824061776595 -0.00189326681925617 0.3806516 -0.2914094 0.8776018 75 75 75
0.0247172318118729 -0.019403401422887 -0.0189144364717474 0.224637 -0.2891944 0.9305401 107 107 107
0.0310936167630106 -0.000643556545303348 -0.01692531478111 0.3215362 -0.2440951 0.9148946 178 178 178
0.0147147203543598 0.0249074004804177 -0.0087690425064903 0.2538912 -0.2771618 0.9266718 71 71 71
-0.0120294339442702 -0.0335432097313355 -0.0161986669393467 0.2306107 -0.2706122 0.9346592 100 100 100
-0.0343280890089775 -0.0160259028786716 -0.0106592129922956 -0.09848475 -0.3226724 0.9413731 85 85 85
0.0513067373795985 0.0224646056522436 -0.0118661660338814 0.1705441 -0.1793688 0.9688868 91 91 91
-0.0444931087539235 -0.00889914872140962 -0.00268139311021448 -0.9260351 -0.3220108 0.1968959 119 119 119
-0.0220660807712005 0.0304310821375265 0.00829753357202939 0.2502309 -0.5544662 -0.793695 50 50 50
-0.00565075031835802 0.00164535299328872 -0.00938552964634909 0.09685396 -0.4419449 0.8917982 90 90 90
0.0552262376611878 0.0135792110812846 -0.0136011048391628 0.3500666 -0.295785 0.8887995 80 80 80
0.00923459836102306 -0.00666050896600079 -0.0115852832735942 0.2322369 -0.4090564 0.8824618 223 223 223
-0.0153776805181434 0.00625489428452775 -0.00773876013842512 0.1214969 -0.3683668 0.9217073 196 196 196
0.0234360140342678 -0.0130964539530236 -0.0181118080033726 0.2486378 -0.2622243 0.9324257 108 108 108
-0.024378562286473 -0.0356328085579962 -0.0180442836716453 -0.2187764 -0.5532506 0.8037728 162 162 162
-0.00110893095416295 -0.0455273320882552 -0.0214020947639826 0.2215154 -0.3855458 0.8957039 114 114 114
-0.0132422818458795 -0.0382654876065276 -0.0190772009443572 0.3679418 -0.2117237 0.9054236 82 82 82
-0.0449401828482061 0.0160413038840073 0.00282299361564842 -0.09444178 -0.8912345 -0.4436009 74 74 74
-0.0455691584969039 0.00401114767115573 -0.00774478302201909 0.2388196 -0.3612359 0.9013733 108 108 108
0.0136255559787464 0.0421041301731342 -0.00397871547196327 0.2870232 -0.4160763 0.8628431 105 105 105
-0.00468010092659091 -0.0089405514068468 -0.0110922981146362 0.1582524 -0.3950617 0.9049212 165 165 165
-0.00197279766015404 -0.0441729383079175 -0.0209365802537393 0.2247569 -0.3287354 0.9172881 59 59 59
-0.00853131479793476 0.00622102492761378 -0.00921536831931896 0.1151813 -0.2655086 0.9572034 108 108 108
0.0260743152424297 0.0033873838114642 -0.014953541508093 0.2255875 -0.4210079 0.8785571 90 90 90
-0.0238806066857437 -0.0305583522543547 -0.0160817247338418 0.1957315 -0.5152709 0.8343771 110 110 110
0.0313527040491067 -0.00824302420252532 -0.0184231819161953 0.1369752 -0.2496403 0.9586018 120 120 120
0.0393168442167955 -0.00201119372059266 -0.0159533204505242 0.2543994 -0.2830935 0.9247372 129 129 129
0.0119146998412213 0.00163287831058012 -0.0115686572830732 0.1209219 -0.3924857 0.9117746 138 138 138
0.0094830025697529 0.00198837193538615 -0.0104610103103647 0.0953401 -0.3103155 0.9458407 156 156 156
0.00970543154835354 0.0445259420025873 0.0125287614085076 0.5322505 -0.4629023 -0.7088236 28 28 28
-0.00265349797221268 0.0368802920143882 0.0144803699698742 0.3209305 -0.5133907 -0.7958854 27 27 27
-0.0363690892382625 0.0227100759307381 -0.00359407100700049 0.1360445 -0.3034244 0.9430936 123 123 123
0.000302019512066459 -0.0245318668107495 -0.0161322056071582 0.3815095 -0.3089751 0.8711974 159 159 159
-0.0454735085317982 -0.00739626657248849 -0.00456958163737758 -0.9074105 -0.3621523 0.2131943 114 114 114
-0.00413251788003191 -0.0199187386703186 -0.0139023955213966 0.3598239 -0.3348443 0.8708651 72 72 72
-0.0154425750469971 -0.00812054175197585 -0.00972143185938512 0.3539455 -0.1806003 0.9176634 159 159 159
-0.0405974925064962 -0.0133225855784822 -0.00498267174042094 -0.8792573 -0.4656855 0.1002183 121 121 121
-0.0415318573402375 0.00214900578309107 -0.00836805631771631 0.2764469 -0.211371 0.9374964 85 85 85
-0.0248204834845601 -0.00476515536390809 -0.00780575076538526 0.2232536 -0.3838548 0.8959985 161 161 161
-0.0380522124560636 -0.0181395356456777 0.00343885497151186 -0.8600932 -0.5027246 0.08664643 116 116 116
-0.00196058101480459 0.0164372064353544 -0.00824754329831018 0.2093884 -0.301137 0.930308 203 203 203
-0.00741104511520344 -0.0129199215959468 -0.0112846021899914 0.1876791 -0.3898376 0.901556 79 79 79
-0.0176007172203984 -0.0174662503806069 -0.012237799357976 0.415061 -0.2540893 0.873592 63 63 63
-0.009151654565031 0.0329789055280849 -0.0039441267674849 0.1550575 -0.2825378 0.9466412 143 143 143
-0.0115351435126795 0.000368012716301269 -0.00854513717510619 0.1223742 -0.2513262 0.9601353 125 125 125
0.0233521941394586 0.00174517857686585 -0.014927544518995 0.2175751 -0.4776082 0.8512059 86 86 86
0.0271989048136722 0.0114777908219581 -0.0135480928073238 0.2158304 -0.2868678 0.9333403 124 124 124
0.0112571270656395 -0.0222246335421166 -0.0162137680705316 0.1873251 -0.3749981 0.9079018 108 108 108
-0.0325504255481654 -0.0230540346712778 -0.00349293257420269 -0.8721453 -0.4785711 0.1016479 99 99 99
-0.0124289200940953 0.0370124380404367 -0.00341733268753397 0.1920135 -0.2709291 0.9432541 129 129 129
0.0547478740525111 0.012095710746024 -0.0140891356416512 0.3588475 -0.3062067 0.8817403 103 103 103
-0.035746120279215 0.0121479248764954 -0.00296045438422188 0.2559678 -0.2235758 0.9404756 92 92 92
0.0331294024705309 -0.0128460834550277 -0.0191071091657199 0.189827 -0.2981095 0.9354659 115 115 115
0.0220146112255311 -0.00609935834639552 -0.0155029909887303 0.1993653 -0.413699 0.8883168 160 160 160
-0.00836375255006169 -0.0454427017075454 -0.020560131318528 0.2129711 -0.2901595 0.9329795 96 96 96
-0.00736831204395758 -0.015645465250258 -0.0121363828173974 0.2655134 -0.3989572 0.8776878 80 80 80
0.00425576393638147 -0.00209248494216219 -0.00984842848409562 0.2096796 -0.1645718 0.9638208 182 182 182
-0.031403545513131 -0.00658381309175238 -0.0092040299434607 0.3907232 -0.1457349 0.9088987 63 63 63
-0.0116183737399852 -0.0203009230457742 -0.0132058866359214 0.3910137 -0.2976297 0.8709333 160 160 160
-0.0273577014656106 0.0172870016979051 0.0167470849356647 0.3253441 -0.5639938 -0.7589876 30 30 30
-0.0262902622706213 0.0277812653870378 0.00827498924443698 0.2461788 -0.565046 -0.7874764 40 40 40
0.0166826583308385 0.0134562342799758 -0.0114094835022401 0.1185363 -0.3451309 0.9310391 111 111 111
0.0180611326919425 -0.000603120271640334 -0.0127126353659345 0.2102246 -0.4287094 0.8786432 159 159 159
-0.0329875180891729 0.0221165860649662 0.00820907920711827 0.2368925 -0.6458187 -0.7258101 35 35 35
-0.0186704584918091 -0.0417475265247285 -0.0194707682858736 -0.3852297 -0.533154 0.753223 115 115 115
-0.00814828570408963 -0.0419909262653517 -0.0184068992998587 0.274924 -0.239502 0.9311582 95 95 95
-0.0200687581636126 -0.0228254031951864 -0.0141102149970124 0.4063135 -0.3080146 0.8602536 64 64 64
-0.0266702158134911 -0.0327876516175292 -0.00493279116642625 -0.7307095 -0.6796269 0.06458223 124 124 124
-0.0151977902557753 0.0151311386945984 -0.00563245149118408 0.1495945 -0.3373952 0.9294009 114 114 114
0.0142115850263037 -0.0222640160890368 -0.017159913358273 0.1261894 -0.3455068 0.9298931 84 84 84
0.0056025174581584 -0.0234661900940525 -0.0158863126779006 0.2981564 -0.3028528 0.9051977 122 122 122
-0.00138920105392679 0.0352347538194965 0.017192174631683 0.2498182 -0.4584811 -0.8528693 37 37 37
0.00975054329969918 -0.0231258850695391 -0.0165445076391549 0.1807154 -0.4128202 0.8927045 109 109 109
-0.00647338248422921 -0.0180087378826426 -0.0125138912828277 0.3190753 -0.3971769 0.8604891 84 84 84
0.0269095108027826 0.0123330891001621 -0.0134738280671604 0.2320186 -0.2960364 0.9265689 132 132 132
0.0273071643849329 -0.00920066929642127 -0.0179435121435236 0.1352823 -0.2821194 0.9497933 101 101 101
-0.0151001762368156 -0.0476578030476993 -0.019765047531561 -0.4353373 -0.4913009 0.7543904 114 114 114
0.0451733599006582 0.0339129066254014 -0.00827174051561974 0.6748732 -0.1859052 0.7141326 62 62 62
0.0118071753964447 -0.00798824506237539 -0.0136997846063311 0.1749804 -0.4820939 0.858468 191 191 191
-0.00332454630326709 -0.00836730406993236 -0.0098903559750263 0.1037969 -0.3442038 0.9331398 171 171 171
0.0245763126685802 -0.0262126685086397 -0.0206883976192344 0.2208847 -0.3968172 0.8909243 117 117 117
-0.0466990614436341 -0.00909842256787385 0.00819156036620827 -0.9151058 -0.3989519 0.05847078 127 127 127
-0.0398703496664116 0.00698064494002759 0.0151797466149666 0.1892385 -0.67735 -0.7109048 58 58 58
-0.0314966248926698 -0.011294365301336 -0.0101108530287622 0.265518 -0.1792013 0.9473051 112 112 112
-0.0238456152871526 -0.0399696843520265 -0.0118814545734513 -0.8823929 -0.452924 0.1274467 158 158 158
0.0236984496679787 0.00281622266603798 -0.0142585559002223 0.195903 -0.4787696 0.8558047 101 101 101
-0.0427245354528643 -0.00699210711050591 -0.00939740013357782 -0.07758029 -0.2373655 0.9683176 150 150 150
0.0357115501410654 0.0136240027789156 -0.014139635338526 0.2236443 -0.2065056 0.9525433 131 131 131
-0.0315550119409866 -0.0271231426514156 -0.0129390370642297 -0.5665044 -0.7117384 0.4153326 99 99 99
0.00300651150820583 -0.00681712857694117 -0.0121590924496279 0.1132547 -0.2046247 0.9722665 79 79 79
-0.0215195191757978 -0.0388028061039669 -0.017436644490347 -0.7085217 -0.4776216 0.5194946 126 126 126
0.00976368575975214 0.0488039337025383 0.00554093304610292 0.5392638 -0.5043445 -0.6744117 37 37 37
-0.0265896443109222 0.0316621997906638 -0.0024904306425495 0.3010696 -0.4282206 0.852047 112 112 112
0.0124109564466396 0.0324336796426116 -0.0069057070791434 0.1976032 -0.3334167 0.9218385 188 188 188
0.0456320565915049 0.0263256514543647 -0.0109091513334223 0.1770316 -0.3566454 0.9173134 58 58 58
-0.00233932052872007 -0.0399349283458394 -0.020851513886653 0.227362 -0.3713409 0.9002291 140 140 140
0.0262411671959414 -0.00442323384252474 -0.0169611542605047 0.1597283 -0.3844686 0.9092144 125 125 125
-0.00243201996507 0.0234153399009228 -0.00651325227759181 0.2341948 -0.2762499 0.9321152 128 128 128
-0.0114082674145114 -0.00711301132288411 -0.00925011890545963 0.2346965 -0.3072069 0.9222481 202 202 202
0.00282318366486298 0.00116258332326402 -0.0115149003688142 0.2017959 -0.2178349 0.954896 184 184 184
0.0192778761901078 0.0024872284433437 -0.0132509345043287 0.1808361 -0.4125699 0.8927959 113 113 113
0.018644341362139 0.0457730322729559 0.0131980732080738 0.5047634 -0.4149069 -0.7570114 16 16 16
0.019860283515231 0.0439765083443296 0.0163343460478086 0.5140618 -0.4388539 -0.7369855 38 38 38
-0.0299997111800693 -0.0313500624693792 -0.00641494902189182 -0.7957206 -0.6037961 0.04753029 157 157 157
0.0155149269135008 -0.0212412048243487 -0.016848409906874 0.07411898 -0.3905769 0.9175816 95 95 95
-0.0510948983103592 0.00194864965781383 -0.00775963254681256 0.1017855 -0.6012399 0.7925593 84 84 84
-0.0347277765629418 0.0140583784869147 0.0149261538745102 0.1817705 -0.6454238 -0.7418811 39 39 39
-0.0504692583513684 -0.00309293570914093 -7.43821241516729E-05 -0.9169555 -0.3857567 0.1019042 172 172 172
0.0537395158386536 0.00937409983466142 -0.0150813586462765 0.3252139 -0.3206636 0.8896127 82 82 82
-0.00541413752546524 -0.028306462344363 -0.0167282586818502 0.3364909 -0.3076205 0.8900244 122 122 122
-0.0147100084485951 -0.0397024391157945 -0.0193656845760956 0.2907495 -0.3176155 0.9025437 59 59 59
-0.0434414374840525 -0.0114957494975283 0.0121416925471877 -0.9442984 -0.3287911 0.01403322 93 93 93
-0.0124818618820994 -0.00811820904932281 -0.00953011557188199 0.3743471 -0.2187113 0.9011269 169 169 169
0.00382731859948807 0.00357520085891183 -0.00983246047622927 0.2430982 -0.2465907 0.9381345 156 156 156
-0.0315991468390362 -0.0258388133141056 -0.00893527928691712 -0.7832806 -0.6103963 0.1178469 116 116 116
0.000598821121344101 0.00767604208586414 -0.0100224459885156 0.1810299 -0.3293121 0.9267048 118 118 118
0.00693740998792283 0.0405658375087954 0.0154236429768093 0.4781052 -0.4338278 -0.7636811 31 31 31
-0.0240313522393687 0.0319714854342767 -0.00302482387857728 0.3101095 -0.3915672 0.8663182 101 101 101
0.0107661308289417 -0.00685538300225597 -0.0130080856650395 0.1685975 -0.4822413 0.8596617 184 184 184
-0.0318505768189978 -0.0277108295106037 -0.00434510554573253 -0.8222536 -0.5651953 0.06673361 137 137 137
-0.0440524398244236 0.00922966639631118 0.00751688877988271 0.006342876 -0.7374741 -0.6753455 79 79 79
-0.000183310804339393 -0.00121429096191639 -0.0114816834508993 0.1366294 -0.3059299 0.9421992 174 174 174
0.00183508318487588 0.0365194013709899 0.0185934305741041 0.3217101 -0.4905522 -0.8098525 23 23 23
0.0350801838053875 0.0133186538110218 -0.0135898699294847 0.2300001 -0.1834926 0.9557356 107 107 107
0.00155579569218042 -0.0123327951559538 -0.0121736476108282 0.2180469 -0.3203358 0.921868 149 149 149
-0.0298890145076368 0.0215078643914893 0.0105592374870625 0.275471 -0.5720937 -0.7725442 27 27 27
0.012768687544334 0.0223943017922951 -0.00995089005408556 0.2676144 -0.3306637 0.9050105 118 118 118
-0.00582660985796093 -0.0346632059162484 -0.0168573676684406 0.2468839 -0.2082594 0.9464018 114 114 114
-0.0456413817438293 0.0115895218446682 0.00350747837836729 -0.1354644 -0.8116909 -0.5681613 65 65 65
-0.00886715119812201 -0.0487352379576591 -0.021821593218516 0.2353204 -0.3563625 0.904229 80 80 80
-0.00668764689675458 -0.0419346353671175 -0.0202526569564469 0.1876935 -0.2694508 0.9445462 110 110 110
-0.021754063773004 -0.0125550296011117 -0.0102017345195968 0.2590318 -0.3561178 0.897821 59 59 59
-0.0351449392598485 -0.0076431807249242 -0.00954288563504813 0.2521724 -0.2999526 0.9200204 76 76 76
0.0351566262665735 0.0455760255371219 0.00102648108332737 0.9014376 0.4217154 0.09780744 22 22 22
-0.0274366049599171 -0.0292440341318234 -0.0157878091055086 -0.08699627 -0.6925815 0.7160743 122 122 122
0.0049939807277983 -0.0337137829163825 -0.0181587605302648 0.3003645 -0.3259119 0.8964165 151 151 151
-0.00704376432043299 -0.0370989184224708 -0.0183587291931102 0.3228841 -0.1858151 0.9280186 110 110 110
-0.0519682685884578 -0.0017088525572071 0.00402279475471728 -0.9384817 -0.3420531 0.04745289 125 125 125
0.0110212546538514 -0.0280948170642146 -0.0173442148416451 0.2521686 -0.4194095 0.8720703 121 121 121
0.024927106266716 0.00623383404997502 -0.0138157739141019 0.1775108 -0.4064301 0.8962726 113 113 113
-0.0223150016986841 0.00759847648430489 -0.00598447144963021 0.1224127 -0.2487957 0.9607892 178 178 178
-0.00507000544980665 -0.0244548097050723 -0.0149183668779404 0.351417 -0.3572716 0.8653688 121 121 121
-0.00793379561043342 -0.0495460689397194 -0.0214853592826748 0.233286 -0.3592956 0.9035952 77 77 77
0.0227035395309685 0.0466791166157519 0.0130295613650991 0.4666006 -0.4558155 -0.7579684 32 32 32
0.0293174226854343 0.0490245479463168 0.0117974395717628 0.7810491 0.1714926 -0.6004602 21 21 21
-0.00685582672468502 0.0143577539280615 -0.00748142884545833 0.09286394 -0.3667744 0.9256635 97 97 97
0.0459058290113521 -0.00451982040492016 -0.0174400598881959 0.2222556 -0.3238226 0.919642 73 73 73
0.0171433634032337 0.0350863416216346 -0.00699508787991704 0.2989375 -0.2859686 0.9104165 151 151 151
0.02429728833285 -0.0235354897364954 -0.0187075043372965 0.218986 -0.3601308 0.9068357 118 118 118
0.00800592071971848 -0.00335572879987489 -0.0102292770661574 0.1765126 -0.2221097 0.9589112 190 190 190
0.0178319355767854 -0.0269671057683427 -0.0189340823689236 0.2016488 -0.4881228 0.8491607 81 81 81
-0.05507165275401 0.00138681789226069 0.00757805106949561 -0.9575977 -0.2796884 0.06914438 129 129 129
-0.0323436063809888 0.0179921786620728 -0.00320617214376917 0.07323512 -0.2756981 0.9584504 106 106 106
0.0368846611497137 -0.0166190875559942 -0.0200104817999798 0.2406056 -0.3680828 0.8981225 115 115 115
-0.0168469250768208 0.000765174968133664 -0.00711194389440589 0.0947731 -0.3075547 0.9467989 131 131 131
-0.0035920737719968 -0.0416554541027181 -0.0203559421474221 0.2646451 -0.3012669 0.9160792 96 96 96
-0.0201740505517571 -0.0417780240337655 -0.0165700828056263 -0.8474942 -0.4764455 0.2339943 121 121 121
0.0179958894418076 0.00521437510843881 -0.012557855893272 0.1750044 -0.364744 0.9145137 113 113 113
-0.0161776305399082 0.0376285525105667 -0.00273569434421173 0.1756131 -0.4113459 0.8944018 199 199 199
0.0194246506010181 0.0475039083774883 0.0120904835173716 0.5175162 -0.4382023 -0.7349529 23 23 23
0.0143652334884312 -0.00111950761021773 -0.0133175080729886 0.1644153 -0.4167644 0.8940218 103 103 103
-0.0275285099711017 -0.00309901620390174 -0.00577664197354022 0.2425848 -0.2601217 0.9346065 196 196 196
-0.0228106957165536 -0.000695804995093807 -0.00582391065733867 0.2472965 -0.371497 0.8948935 124 124 124
-0.0167442456217277 -0.00965747864850353 -0.0103483967956021 0.2914362 -0.2030603 0.9347895 145 145 145
0.00727473262238601 -0.0228877786931461 -0.0158577390806763 0.181711 -0.3792655 0.90727 123 123 123
0.00916216380088899 -0.0152442824798749 -0.0147991126606604 0.1459956 -0.4382145 0.8869348 119 119 119
0.00558341736882859 0.0375217934968312 -0.00541072210022053 0.3530222 -0.2669103 0.8967353 96 96 96
-0.0396794846481139 -0.0152269350767527 -0.00143576861619099 -0.87041 -0.4824832 0.0979612 142 142 142
0.00277321043329568 -0.0442297274474115 -0.0219868835686046 0.2171126 -0.3624544 0.9063603 80 80 80
-0.0525080794884029 -0.00129831518901757 0.0181675692054761 -0.9266889 -0.2629018 -0.2685708 108 108 108
-0.0319145410700317 -0.0148795398917256 -0.00901609301109046 0.04056694 -0.2888549 0.956513 70 70 70
-0.0100225358427459 0.00525291981716847 -0.00878149818403734 0.08323778 -0.2675782 0.9599341 122 122 122
-0.0154634051038411 0.0306143126447549 -0.00359767888812657 0.2024497 -0.3062621 0.9301707 127 127 127
-0.0406545923341069 0.0238733649651033 -0.0031215036170954 0.1753922 -0.43594 0.8827196 114 114 114
-0.0491960624919142 0.00971894817646068 -0.00376418371913001 0.2333667 -0.6357169 0.7358016 136 136 136
-0.0256935009366101 -0.0349226029263341 -0.0155107656481683 -0.6687129 -0.5300978 0.5213631 181 181 181
-0.041034402300136 0.0129663493996198 0.0094511835263667 0.1028123 -0.6982324 -0.7084498 52 52 52
-0.0349894358320887 -0.0227651528847013 0.00188045438098433 -0.8520136 -0.5224271 0.03380595 132 132 132
0.0278071597532849 0.00885730228564308 -0.0141771489674361 0.2018664 -0.3126962 0.9281546 137 137 137
-0.00609912252403169 0.0404866992718499 0.00863210942865072 0.4384081 -0.5473693 -0.7128711 45 45 45
-0.0124098285273625 -0.0227322148597382 -0.0141801661398265 0.4160873 -0.3362392 0.8448755 123 123 123
0.0215734132078551 -0.0285122812744161 -0.0203898213202504 0.2297938 -0.4490801 0.8634361 92 92 92
0.0111007581967676 -0.0248626851875937 -0.016947320931116 0.1447925 -0.3931928 0.9079838 113 113 113
-0.000451126303161048 0.0436786046051756 0.00896551874244045 0.416355 -0.6248507 -0.660462 30 30 30
-0.0351445849281199 0.00891827345660534 -0.00361873383630029 0.3060895 -0.1357913 0.9422685 93 93 93
-0.00894927640433332 -0.00730367754288896 -0.00940948045152212 0.1173054 -0.4476804 0.8864658 143 143 143
0.00488719353680053 -0.00346799411993914 -0.0122316345704299 0.1859388 -0.1894097 0.9641321 109 109 109
0.010695895026489 -0.0346047323683327 -0.0203285763955975 0.3870374 -0.3610764 0.8484255 118 118 118
-0.0448671661439181 0.00195174511740581 0.015800381180495 0.2886033 -0.8554999 -0.4299163 50 50 50
0.0209557319445454 -0.00359363147555625 -0.0151954598336679 0.227289 -0.4675713 0.8542346 127 127 127
0.0121054035340889 -0.0194598693086001 -0.0153569438807621 0.1200922 -0.4134134 0.9025892 130 130 130
-0.0524305511510489 0.000608667578690048 0.00833086734617805 -0.9413413 -0.3305529 0.06790703 130 130 130
0.0193016282663591 0.000473645242062393 -0.013746433380013 0.2181262 -0.4337889 0.8742129 108 108 108
-0.0420058650484702 -0.0118035498904039 -0.00338114169804726 -0.89089 -0.4414432 0.1069713 111 111 111
-0.0171895536211203 -0.0165076686412173 -0.0121459172909514 0.3556556 -0.252183 0.8999516 76 76 76
-0.0271375468452247 -0.0326606813925414 -0.0160772466496303 -0.4710387 -0.6384102 0.6087323 173 173 173
0.013577348526452 -0.00348128673354098 -0.0137836316249257 0.1230503 -0.4877611 0.8642613 104 104 104
0.0268549648606331 -0.000738064131628802 -0.016680350991445 0.1963819 -0.3874531 0.9007298 113 113 113
-0.00702427331146746 -0.00223566786825757 -0.00917163248940411 0.1199071 -0.3984777 0.9093062 77 77 77
-0.0078745092693687 -0.0252773775388075 -0.0152865091421476 0.4114258 -0.3475462 0.8425797 153 153 153
-0.0350412354584837 -0.0204799268670242 -0.00166436302219364 -0.8484437 -0.5162677 0.116666 98 98 98
0.00978245111909223 -0.016926615307262 -0.0151390545408071 0.1240237 -0.4434669 0.8876684 127 127 127
0.0233796174263865 -0.00476168007131017 -0.0151749386268092 0.1809166 -0.4332234 0.882942 149 149 149
-0.0102750696115673 -0.0188123006752094 -0.0127484546343282 0.3758579 -0.3377209 0.8629459 87 87 87
-0.0245861378748836 -0.0360118961107521 -0.0167368770794134 -0.5649316 -0.5498526 0.6152353 180 180 180
-0.00532584139849093 0.0349571678832188 0.015288207915725 0.2237668 -0.4977714 -0.8379452 35 35 35
-0.0243133858894388 0.0193295999283511 0.0168078123655294 0.3270144 -0.5460261 -0.7713087 21 21 21
0.0133987951463543 0.0267969314037083 -0.00811109077158578 0.244986 -0.3508103 0.903833 77 77 77
-3.20064824757549E-06 0.0427051153903847 -0.00264929952891801 0.3688647 -0.3098727 0.8763091 68 68 68
-0.0291096240240697 -0.03297570469819 -0.010971848457123 -0.6851575 -0.7274634 0.03682785 174 174 174
0.0101598990757105 -0.0210932238000008 -0.0149081207359919 0.09914261 -0.4323817 0.8962236 107 107 107
-0.0394506090278996 -0.0021418904909607 -0.00886563120225492 0.1557507 -0.06858006 0.9854128 89 89 89
-0.0509082417529302 -0.00314497061353047 0.00956555233046452 -0.899995 -0.4199831 0.1167184 122 122 122
0.0340639497575349 0.0156355547860169 -0.0120399062135582 0.2085099 -0.1823399 0.9608724 83 83 83
-0.00876691254580156 -0.0224528661052543 -0.0147218487113213 0.3901639 -0.3603428 0.8473046 200 200 200
-0.0250487474515595 0.0211421381066665 0.0139681869672252 0.3209764 -0.5613037 -0.7628317 18 18 18
0.0369021269121098 0.0154549775071948 -0.0134154955785161 0.2419045 -0.2144457 0.9463061 148 148 148
-0.0502485517749932 -0.00252750340652819 -0.00684171741203449 -0.7259812 -0.3902785 0.5662455 87 87 87
0.00249528357360804 0.0127404889346202 -0.00949363335286407 0.1651019 -0.2782174 0.9462222 210 210 210
0.0314657856134845 0.0086364992742578 -0.0141863970060422 0.2429115 -0.1414371 0.959682 87 87 87
0.00348178518670036 0.0414221513544815 -0.00370187696626978 0.3933254 -0.270303 0.878767 91 91 91
0.0161309533139614 0.0160367180338271 -0.0112430608493176 0.1677497 -0.3081055 0.936446 101 101 101
-0.0205558290763778 0.0101585476550438 -0.00641773662010853 0.1972436 -0.2569374 0.9460857 69 69 69
-0.0190429866575635 -0.0441567242427989 -0.016247689702811 -0.8706073 -0.4718412 0.1393152 155 155 155
-0.0427221884530079 -0.012071320797389 0.00663852426217609 -0.9359041 -0.3420289 0.08425905 113 113 113
-0.0289040212961077 -0.0284509399947339 -0.00836666176218603 -0.7535834 -0.6550918 0.0544691 114 114 114
-0.00193845285264158 -0.0171265244786492 -0.0127717535785424 0.2929483 -0.3391641 0.8939514 96 96 96
-0.0337466143916305 -0.0232793526252926 -0.00766320064496367 -0.7984384 -0.5515604 0.2414068 113 113 113
0.0581615183705231 0.00879533052747994 -0.0150271804840172 0.3393254 -0.3119842 0.8874255 91 91 91
-0.00570081165454164 0.0343167020464636 -0.0047307793988639 0.1193645 -0.3324441 0.9355389 88 88 88
-0.0125967159949893 -0.0315282520303768 -0.0177271142160332 0.2772086 -0.2662707 0.9231768 58 58 58
-0.0271116617288781 -0.0359499563859005 -0.00928686678850088 -0.9129002 -0.405635 -0.04553612 179 179 179
-0.025258303870144 0.0201787472086866 -0.00505629911158045 -0.008111576 -0.31368 0.9494941 100 100 100
0.0147244344857128 -0.00592625270174429 -0.0142455398266833 0.1102049 -0.5360819 0.8369415 127 127 127
-0.0265006309800612 -0.0342422587616198 -0.00594844389986371 -0.7779957 -0.6261825 0.0511674 113 113 113
-0.0296008197515019 -0.0280806064578425 -0.00225028890477075 -0.797583 -0.5956591 0.09514006 101 101 101
-0.0403143214867128 -0.0148842848266817 0.00861924458320751 -0.9025625 -0.419472 0.09707852 113 113 113
-0.0262390357095126 -0.0339213383787282 -0.0164032029178638 -0.5656371 -0.6101016 0.5548249 153 153 153
-0.0247448514867472 -0.0175620208159617 -0.0120600981659968 0.3559112 -0.35587 0.8641086 59 59 59
-0.0316858604230105 -0.00860908872472876 -0.00975429495793367 0.3166165 -0.1481299 0.9369159 68 68 68
-0.0491802677777153 -0.00432212699640067 0.00611286540183492 -0.900326 -0.4340727 0.03153011 98 98 98
-0.0014517819430995 0.0056557160237658 -0.0102287367425817 0.2050215 -0.3736281 0.904637 146 146 146
0.0319451878940935 0.0381193878819663 -0.00572830383096595 0.3686994 -0.3236393 0.8713887 100 100 100
0.0210880573371097 -0.022020088572126 -0.0187134855094774 0.1599279 -0.3898515 0.9068841 100 100 100
0.00192667416779904 0.00866427928197755 -0.00989891614213029 0.1305698 -0.2779014 0.9516945 90 90 90
0.00924675743495959 -0.0145956540030845 -0.0139319187308732 0.176156 -0.4708405 0.8644526 135 135 135
-0.0194919268766595 -0.0162430935633253 -0.0112370680089683 0.3695521 -0.263565 0.891047 68 68 68
0.0333960319365143 0.0238920447487129 -0.0113853285604694 0.3603593 -0.1979987 0.9115579 166 166 166
0.00264939528716088 -0.0105963018131181 -0.0127333984593547 0.2010791 -0.2973921 0.9333408 92 92 92
-0.0040710368516623 -0.0100086129142833 -0.0116711330312368 0.1802943 -0.324278 0.9286214 150 150 150
-0.00479523103564536 -0.0332851894557127 -0.0172902657735441 0.2313512 -0.2223063 0.9471307 110 110 110
-0.0269425551752539 0.000937731129376562 -0.00543935347830193 0.1576529 -0.2139836 0.9640314 151 151 151
-0.0205666137890036 -0.0325177231045208 -0.0178230752401176 0.3014267 -0.2651475 0.9158814 93 93 93
0.0104502179358889 -0.00937959763135199 -0.0134467563394537 0.2078681 -0.4705203 0.8575555 173 173 173
0.0492373054312474 0.0106862932419112 -0.0140018815631736 0.3408183 -0.3023933 0.8901692 114 114 114
0.0104487096593042 -0.0391400690788102 -0.0222311907391013 0.2808339 -0.3392101 0.8978134 90 90 90
0.000639570272320117 -0.0168720476924453 -0.0139900227599344 0.2613953 -0.3284898 0.9076161 135 135 135
0.00328405686171521 -0.0412921591892232 -0.0216754537972417 0.2065904 -0.3520936 0.9128804 62 62 62
-0.0157439067249796 0.0282132832834583 0.0144934204255494 0.2309431 -0.4806111 -0.8459777 35 35 35
0.0242232906354747 0.0541990651805123 -0.00194361929885228 0.6483938 -0.2328667 0.7248162 89 89 89
-0.0330436932609479 -0.0212395522159485 -0.0095863036372833 -0.7091613 -0.6012824 0.3681707 96 96 96
0.0354084903904259 -0.0178252654669235 -0.0204299198572923 0.2044596 -0.3921905 0.896874 121 121 121
-0.0197077118781906 -0.0244473029348706 -0.0144959792952062 0.3914715 -0.2821895 0.8758534 50 50 50
0.000602797896239154 -0.0335953613550666 -0.0189517606196681 0.2642447 -0.4102366 0.8728577 64 64 64
-0.0115333084375582 -0.0311402503287148 -0.0178327614632059 0.2455533 -0.2986105 0.9222447 70 70 70
-0.0418142663218364 0.00434862449643592 0.0141371685129473 0.2105549 -0.6947582 -0.6877338 76 76 76
-0.0013854746645556 -0.0109147833792853 -0.0120842992719707 0.1877533 -0.2773758 0.9422374 162 162 162
0.00441516602455203 -0.00908886771215478 -0.0123742554270738 0.1272783 -0.2496089 0.9599456 63 63 63
-0.0115094141647677 0.0398904106935245 -0.00281796537699031 0.2814018 -0.2899663 0.9147308 75 75 75
-0.0201168868927023 -0.00887674762720425 -0.0097091904751741 0.2157348 -0.3816597 0.8987738 132 132 132
0.0431803710321869 0.0340318760896252 -0.00840776250102837 0.6019322 -0.1327212 0.7874406 62 62 62
-0.0133181441100634 -0.0513089874447323 -0.0203370112114048 0.0316389 -0.4731702 0.8804027 109 109 109
-0.0294100029751552 0.0127831623284286 -0.00424683127023945 0.1619581 -0.3196227 0.933601 127 127 127
0.0221599885952522 -0.0229670114784166 -0.0193694126060098 0.1686707 -0.3561096 0.9190953 88 88 88
-0.0197131634319393 -0.0234316183895467 -0.0141946149768943 0.4036582 -0.2946565 0.8661625 59 59 59
0.0270698664922261 0.0482560863231877 0.0144122411011711 0.566177 -0.2504441 -0.7853161 40 40 40
-0.039362022426695 -0.0149490098728799 0.00412351539562245 -0.8817137 -0.4639885 0.08541382 88 88 88
-0.0481471017411244 0.00843415187582086 -0.00480455931327695 0.2522508 -0.6079302 0.7528549 132 132 132
-0.0145001440417734 -0.0327621028012701 -0.0179366955260548 0.2850313 -0.2484983 0.925746 78 78 78
0.0473831032552019 0.0107106067184005 -0.0140651246510306 0.2950398 -0.2631805 0.9185247 104 104 104
-0.00813110083454868 -0.000901923916271308 -0.0079260611203521 0.07881291 -0.4045525 0.9111124 106 106 106
-0.0014161131785819 0.0030680208053242 -0.0105682637693445 0.1329273 -0.4114194 0.9017009 202 202 202
-0.0491704986264145 -0.0039038607786066 0.00133982463724391 -0.8913013 -0.4389699 0.1135229 137 137 137
0.00644730845564542 -0.0252043951005645 -0.0164878054885493 0.2694819 -0.3198574 0.9083341 118 118 118
-0.0231925070639708 -0.0345648044723375 -0.018064340081626 -0.06696376 -0.5056602 0.86013 114 114 114
-0.0116998762901781 -0.041795207475698 -0.0199690997174122 0.283321 -0.1764705 0.9426491 67 67 67
-0.0284845861029536 0.0124150440871338 -0.00497292946060873 0.09162275 -0.3270822 0.9405437 96 96 96
0.0348772639891123 0.0226246307960448 -0.0115496104099048 0.3339681 -0.1346852 0.9329122 194 194 194
-0.00700832560839418 -0.0334005891093483 -0.0180837095136425 0.2332619 -0.2839988 0.930018 52 52 52
-0.0473320004081768 0.00879603066735912 -0.00467823697742759 0.2426686 -0.6398659 0.7291663 126 126 126
-0.0340880678590915 -0.020135529517366 -0.0085724619184771 -0.798261 -0.5090814 0.3218936 98 98 98
-0.0321059439056448 0.00855741523042397 -0.00584603967109365 0.2654251 -0.2167326 0.9394554 67 67 67
-0.0104294875103559 0.043748359236805 -0.000430441204630538 0.7248862 -0.6826068 0.09267144 92 92 92
0.00658642286777958 -0.00445637407091826 -0.0123947064834961 0.2263567 -0.2351734 0.945228 156 156 156
0.0280459981585197 0.00289824603263322 -0.0158091408934147 0.2702361 -0.3453677 0.8987178 121 121 121
0.0383531414772113 0.0400759840265185 -0.00606592672582795 0.655554 -0.01079959 0.7550711 114 114 114
-0.051360671709573 -0.00133452546717372 -0.00593626304939832 -0.7691635 -0.5238158 0.3660662 158 158 158
-0.00961274210787369 -0.0378953658703387 -0.0191773706575562 0.2974243 -0.2612064 0.9183192 82 82 82
-0.045242771802176 -0.00910612576349101 0.0039320414782652 -0.926906 -0.3540383 0.1245077 126 126 126
0.00141546746305535 0.0440907002638337 -0.00225280180647147 0.3373565 -0.2727924 0.9009855 56 56 56
0.0414906507099797 0.0120194264604055 -0.0142137106665755 0.2250928 -0.1869384 0.956236 173 173 173
-0.0509859355142929 0.00431151166128441 -0.00573515750894277 0.2871495 -0.6663118 0.688167 93 93 93
-0.0335097573823238 0.0120069096170965 0.0174830721745652 0.181881 -0.6013387 -0.7780174 38 38 38
-0.000899193318652208 -0.0275110128597138 -0.0174076434017263 0.3328437 -0.3524397 0.8746436 122 122 122
-0.030750635961828 0.0209857940970523 -0.00397127768167177 0.02290735 -0.2161961 0.9760812 97 97 97
-0.00160159800496421 -0.000274583559526809 -0.0107822372082175 0.1093428 -0.4072945 0.9067278 171 171 171
0.0280524760250445 0.0104291109160484 -0.0141662332885308 0.2138646 -0.2968469 0.9306685 154 154 154
-0.0066190605528941 -0.0282618489742643 -0.0150440663956932 0.3324319 -0.2990462 0.8944609 101 101 101
-0.0204048994846221 -0.041077174439359 -0.0140304772682966 -0.8773307 -0.4439639 0.1821727 116 116 116
0.0170994398905407 -0.0201171072750623 -0.0168480881877743 0.1035765 -0.3751476 0.9211602 188 188 188
-0.0280082927591734 0.0140067594004685 0.0185738472903471 0.2733456 -0.5518649 -0.7878624 27 27 27
-0.0300082380004234 0.0188398294509432 0.0141196737779801 0.2983939 -0.5721387 -0.7639492 44 44 44
0.0221489133243178 -0.00860339063867022 -0.0160250271458455 0.2323569 -0.3256431 0.9164971 128 128 128
-0.0150233654599759 0.00499934206714681 -0.00742506198630899 0.08731537 -0.378155 0.9216154 170 170 170
0.01424430216321 -0.0318846021276233 -0.0195668045062485 0.3433998 -0.466426 0.815183 96 96 96
-0.0146204405782703 -0.0121940977689059 -0.0112002279994229 0.2937603 -0.2166111 0.9310126 86 86 86
-0.0429522684989525 0.00747800144089972 -0.00764565598770872 0.1996551 -0.4729203 0.8581865 90 90 90
0.0487834881724105 0.00972404345707645 -0.013981008057692 0.3256609 -0.2997907 0.8966997 103 103 103
0.0458471725684081 0.0344008768085848 0.00232457094700528 0.9665142 0.2382409 0.09534969 8 8 8
-0.0391733742636976 -0.00839515561179893 -0.00947654545080334 0.1844736 -0.3299124 0.9258117 87 87 87
0.0063986110948169 0.0170051893035164 -0.00919830319890602 0.2065447 -0.3554873 0.9115745 132 132 132
-0.000809658615669423 0.0166769734512073 -0.00819784636718113 0.2240178 -0.2983871 0.927783 203 203 203
0.0170793833642166 0.00125794867307283 -0.0134270912674818 0.2426211 -0.4004128 0.8836315 108 108 108
0.00486175126252761 -0.0336429016716291 -0.019910150170446 0.3024006 -0.3423393 0.8895828 68 68 68
-0.0141368280506106 0.00208962064220808 -0.00828565348511179 0.05953434 -0.3143347 0.9474436 201 201 201
-0.0290072090066334 -0.0125869697657488 -0.0103338745153912 0.3751501 -0.2242472 0.8994307 37 37 37
0.00195780768775142 -0.036321486796407 -0.0187664552888122 0.2206124 -0.400218 0.8894694 96 96 96
0.0159147236240557 -0.0280961570924698 -0.0185840010540285 0.2427322 -0.4695737 0.8488708 90 90 90
0.021946718575319 0.0495483395858233 -0.00262773200184974 0.2563453 -0.207327 0.9440882 69 69 69
-0.0400841470964703 0.0238523641565187 -0.00145628761712763 0.5705614 -0.4498386 0.6870989 122 122 122
0.00473354128351131 0.0312641037733946 -0.00615398500645881 0.1713213 -0.2314997 0.9576309 66 66 66
-0.0326805311767992 0.0233466804355977 -0.00383962314552799 0.1772051 -0.2468717 0.9527081 99 99 99
-0.0338751702834528 0.01086178778155 -0.00484995216981493 0.2250632 -0.2296587 0.9468915 79 79 79
-0.028044335499969 -0.00377781901971797 -0.00613610327343067 0.3441145 -0.1511407 0.9266832 151 151 151
0.00995705248882314 0.0111754678089009 -0.0101014665237072 0.152989 -0.3045327 0.9401352 153 153 153
-0.00554571027964465 -0.0372676975392947 -0.0175005798152275 0.2638011 -0.3036688 0.9155295 152 152 152
-0.00438141203594691 0.0406771550319418 0.00881021699308304 0.4536147 -0.5676384 -0.6870374 46 46 46
-0.0274244932526591 0.0112018878648703 -0.00382994881214638 0.0826012 -0.3170269 0.9448127 181 181 181
-0.0443735619037909 0.00638506994814025 -0.00563306972750588 0.1530973 -0.5060606 0.8488014 108 108 108
-0.0317924151822062 -0.0264316092628056 -0.0114513384444081 -0.6204446 -0.7359257 0.2710383 86 86 86
0.0459585102181254 0.0285836066540066 -0.0106283756447262 0.2479564 -0.360767 0.8990911 119 119 119
-0.00430223949212441 -0.0459062811041095 -0.0207797500841655 0.2529908 -0.32106 0.9126424 108 108 108
-0.040490840238745 -0.0144758496172606 0.00450705196135115 -0.8813716 -0.4659693 0.07782463 105 105 105
-0.042651083864385 0.00897818448747956 0.00947647888671516 0.06636246 -0.7347649 -0.6750678 56 56 56
-0.0513448985146357 0.00269171374261989 -0.00691270405249944 0.1718035 -0.6362699 0.7520932 70 70 70
0.0227811290315713 0.0390657323016645 -0.00558214567482912 0.4012568 -0.2251696 0.8878579 91 91 91
0.0014254989574167 -0.0424602422960612 -0.0213972522700747 0.2110325 -0.3635611 0.9073526 109 109 109
-0.00817533685482549 -0.0426990930514308 -0.0197912206554923 0.2325924 -0.2354277 0.9436496 93 93 93
-0.0154779456308007 -0.0319314895611027 -0.0174261744274723 0.2797404 -0.1962892 0.9397957 87 87 87
-0.0334990423766315 -0.0219425054212299 -0.00265699003552783 -0.8587368 -0.5081155 0.06625464 106 106 106
0.000795574636306834 0.0462097462827572 0.00550642805012075 0.5482629 -0.5656219 -0.6160192 33 33 33
-0.0448859739638595 0.0182633990468383 -0.00253486286492893 0.1155485 -0.641062 0.7587411 95 95 95
0.0348833473011041 0.0453762736295412 0.00325285786914009 0.8704073 0.4323541 -0.2355017 17 17 17
0.00105778876696552 -0.0131918106363442 -0.0131267316345606 0.2467799 -0.3170555 0.9157377 175 175 175
0.0321931033536248 0.0179128816544343 -0.0127530242360317 0.2818233 -0.2288822 0.9317663 98 98 98
0.00665488353726321 -0.0162243162638369 -0.0142766878324417 0.2096265 -0.3774821 0.9019778 109 109 109
0.0332221864785703 0.0457974417888553 0.00906950858495303 0.8400404 0.4591016 -0.2890638 20 20 20
-0.0484674501961461 -0.0066561743517195 0.0115966576035889 -0.8844697 -0.4639027 0.05007675 120 120 120
-0.03789498149684 0.00725366046525022 0.0162746981119664 0.1648015 -0.6561645 -0.7364025 46 46 46
0.00349029335787845 -0.0207816529455309 -0.0148763868654407 0.339186 -0.3332046 0.8797315 158 158 158
0.0289724433628638 0.0172918590909104 -0.0126411417179677 0.2540813 -0.278598 0.9261889 100 100 100
-0.0299998173648125 -0.0268362364565171 -0.00437565268905732 -0.7664217 -0.6359041 0.09068419 101 101 101
0.00624777785085237 -0.0140763193508531 -0.0137334515228452 0.2038748 -0.3963393 0.8951817 71 71 71
0.00778911363164045 -0.0270586617645192 -0.0170995110203926 0.3508669 -0.3197409 0.8801467 159 159 159
0.0226985426638986 0.0477515487833732 0.0132140382240909 0.4553231 -0.4896925 -0.7435604 37 37 37
0.0264334803672222 -0.0105205196877896 -0.0166449335444878 0.2466562 -0.3044799 0.9200286 106 106 106
0.0340308685683583 0.0188089467796123 -0.0125795723349831 0.3099826 -0.1937543 0.9307901 109 109 109
-0.0451495223284604 0.0135090712962156 0.00373731618307316 -0.0938412 -0.8225263 -0.5609317 76 76 76
-0.0356295108247827 -0.014138110208763 -0.0108037018318803 -0.05070084 -0.3068249 0.9504146 84 84 84
-0.0175053662904786 0.0259214146649756 -0.00436880791197031 0.2425192 -0.2146299 0.946107 114 114 114
0.0394584817902328 0.00656934274170662 -0.0140637473453027 0.1861516 -0.3208544 0.928655 112 112 112
0.0296197795875389 0.0466950802912098 -0.0037329464290552 0.4416545 -0.2690902 0.8558807 99 99 99
0.0163309408640903 0.0449099048477609 -0.00370203175141071 0.3274203 -0.3713903 0.8688298 118 118 118
-0.0149866579621561 -0.0221843354769651 -0.0137561313892255 0.4201397 -0.262287 0.8687279 73 73 73
-0.0284216327224534 0.015070736202392 0.0184694257825191 0.2816408 -0.5648637 -0.7756336 18 18 18
0.00748900086028612 -0.00544576618904258 -0.0112563287249096 0.2135307 -0.2478497 0.9449736 176 176 176
-0.028371687305267 0.0196774873693289 -0.00493230604659156 0.04168049 -0.3011912 0.9526524 75 75 75
0.0102939715875542 0.0469889050758181 0.00777935941079033 0.5392714 -0.50581 -0.6733072 29 29 29
-0.0192137312767954 -0.0134692905915443 -0.0100525885530076 0.2252676 -0.2579173 0.9395388 92 92 92
-0.00502785893409444 -0.0269104931901667 -0.0164439700574665 0.3532609 -0.3247626 0.877346 152 152 152
0.0519113444678416 0.0245885779209711 -0.0119830508734089 0.1644428 -0.2077893 0.9642521 84 84 84
0.0204160027907981 0.0117074296410066 -0.0121909565478784 0.1389954 -0.3476766 0.9272547 112 112 112
-0.00927821412011373 -0.043652678978644 -0.0185480181025844 0.2276042 -0.2415142 0.9433277 70 70 70
-0.0168256767500659 -0.00181418294007529 -0.00795521021067713 0.2476654 -0.2536748 0.935046 76 76 76
-0.000522587560125326 0.0401262717886788 -0.00400913225161992 0.3599903 -0.310207 0.8798742 126 126 126
-0.0442776899128561 0.00213983606280777 -0.00853558561941431 0.2672662 -0.2868052 0.9199519 102 102 102
-0.0164669401638525 -0.0482430935061335 -0.0171375942516159 -0.8476984 -0.5122983 0.1376877 156 156 156
0.0464435729577606 0.0117365754958993 -0.0137213202627869 0.2722803 -0.2440801 0.9307461 101 101 101
-0.000792905593065135 -0.0314865681995087 -0.0186153201031393 0.2286716 -0.3574562 0.9055023 68 68 68
0.0400148251709433 0.0398590136375379 0.00759227512176258 0.9001449 0.3425799 -0.2690321 15 15 15
0.0142101374390721 -0.0240986504175944 -0.0173001233082724 0.1571488 -0.3560758 0.9211484 83 83 83
0.0478399809121152 0.0294588494933347 -0.0101793470923196 0.4679733 -0.2882283 0.8354193 93 93 93
0.0184815466601138 -0.0204608251639598 -0.0186575158107447 0.08393765 -0.426383 0.9006398 166 166 166
-0.0328091687162579 0.0286138685925298 0.00133050081133923 0.3782237 -0.8706083 -0.3146235 92 92 92
-0.0219436192382911 -0.040225333318644 -0.0131830520890146 -0.8493422 -0.4967359 0.1785251 135 135 135
