ply
format ascii 1.0
comment File exported by Rhinoceros Version 7.0
element vertex 481
property float x
property float y
property float z
property float nx
property float ny
property float nz
property uchar red
property uchar green
property uchar blue
end_header
0.0844534658921127 -0.0637985486609309 0.0175197472307751 0.1315129 -0.4603572 0.8779383 146 146 146
0.0860151671898727 -0.0617322940451472 0.018504833194978 0.1305243 -0.4274603 0.8945619 161 161 161
0.0945924543869857 -0.0648556966406673 0.0128587236139843 0.4772573 -0.6328403 0.6097038 201 201 201
0.0974675887358551 -0.0627493877035945 0.0128426899645397 0.5649737 -0.6265761 0.5368492 172 172 172
0.0844294452202682 -0.0593216437918513 0.0195219268534252 0.05563517 -0.3791482 0.9236619 128 128 128
0.0859110527766113 -0.054644586525616 0.021339898321397 0.06424227 -0.3413985 0.9377207 140 140 140
0.0913489484322433 -0.060939433060345 0.0175677885744641 0.2379114 -0.5067024 0.828644 159 159 159
0.0887541347277526 -0.0580563563925593 0.0196340431902478 0.1766758 -0.4041624 0.8974622 162 162 162
0.0909645282757644 -0.0578640718085139 0.0195860018465588 0.227275 -0.37845 0.8972857 169 169 169
0.0837807380688552 -0.0515933055502742 0.0223729958269665 0.01689383 -0.4106272 0.9116468 161 161 161
0.0910125845206146 -0.0550290364844173 0.0204028835032055 0.2607287 -0.3465833 0.9010552 185 185 185
0.093943762136734 -0.0528346318823665 0.0200505008432934 0.2680767 -0.328206 0.905768 180 180 180
0.0882736169827346 -0.054644586525616 0.0213639189932415 0.1581942 -0.3384919 0.9275763 171 171 171
0.0895710163843994 -0.0510406512839168 0.0223729958269665 0.1708137 -0.3838724 0.9074495 174 174 174
0.098556759310997 -0.0599783677679866 0.0153574099276135 0.4997756 -0.5895318 0.634568 199 199 199
0.0998301380408172 -0.0574677009207576 0.0163184454176495 0.452685 -0.5507362 0.7012602 193 193 193
0.04531504447583 0.0841298084633977 0.0169911732409069 -0.1212697 0.9749801 0.1862994 124 124 124
0.102545084906853 -0.0568310041052669 0.0149249186251232 0.557532 -0.6179729 0.5543173 180 180 180
0.104611324621475 -0.0553654450995296 0.0130028476450512 0.7277355 -0.6120278 0.3095529 183 183 183
0.106269123507774 -0.0531309861761897 0.014732723448045 0.7829387 -0.4876679 0.3862474 150 150 150
0.0974996113312606 -0.0567108411413997 0.017856126043565 0.3056542 -0.4217123 0.8536593 185 185 185
0.0984126054776077 -0.0537797231299251 0.01886520287729 0.2314983 -0.3732836 0.8983696 180 180 180
0.0957216792834167 -0.04998362251347 0.020474945518739 0.2524018 -0.3636747 0.8966794 209 209 209
0.112139480663574 0.0249937754052312 0.0406328191492626 0.3896892 -0.1795611 0.9032719 174 174 174
0.100206556273735 -0.0539559144598811 0.0184167077276776 0.3314618 -0.4183523 0.8456444 183 183 183
0.0941599928868179 -0.0492627639395564 0.0216282059881756 0.2733462 -0.3861548 0.881003 182 182 182
0.098556759310997 -0.0461393613440364 0.0214119603369305 0.2447691 -0.4094231 0.8788975 177 177 177
0.105235996199882 -0.0485180635077327 0.0186009158823559 0.4860762 -0.4151056 0.7690366 177 177 177
0.104899632288254 -0.0450822133643001 0.0208833863470623 0.3583328 -0.4203162 0.8336257 209 209 209
0.103746386719978 -0.0406935233694881 0.0231098284456799 0.2775567 -0.3593865 0.8909566 175 175 175
-0.0642437389957543 0.0343959312813908 0.0854173650477001 0.09517531 -0.3958658 0.913363 182 182 182
0.107158082081116 -0.0386432427985042 -0.0387973139550617 0.6266541 -0.5570562 -0.5449706 36 36 36
0.106389256669319 -0.0324445981604427 -0.0442272076871326 0.5260577 -0.4439483 -0.725378 34 34 34
0.110425623608864 -0.0256692189795344 -0.0472544679906299 0.6391264 -0.4560044 -0.6193364 18 18 18
0.109873028947151 -0.0275431890112727 -0.0457007835175922 0.6249753 -0.518173 -0.5838687 26 26 26
0.10898407037381 -0.0363367814642757 -0.0386050889756611 0.633964 -0.5240623 -0.5687251 63 63 63
0.113957452131546 -0.0295133609396785 -0.0393258581426075 0.7336932 -0.3840342 -0.5605462 26 26 26
0.107662635399139 -0.043232323609051 -0.0323583135869434 0.659436 -0.6725589 -0.3358701 85 85 85
0.110569792343414 -0.0394121427161067 -0.0334154615666797 0.6331441 -0.6203492 -0.4629205 129 129 129
0.1133407824767 -0.037345888100323 -0.0329990039136341 0.6880807 -0.576398 -0.4408063 141 141 141
0.10605289275769 -0.0471965093237727 -0.0266401121880939 0.7360847 -0.6242255 -0.2617668 131 131 131
0.110121297193802 -0.0416705627066463 -0.0310448954369953 0.6366259 -0.702102 -0.3189988 217 217 217
0.115919592334068 -0.036761285744366 -0.029339040305846 0.716589 -0.6003096 -0.3551459 159 159 159
0.117140906406677 -0.0367091912848323 -0.027372921493285 0.7425446 -0.6018476 -0.2939506 202 202 202
0.112515898896492 -0.0338380355460017 -0.037692094829314 0.6751963 -0.4728982 -0.566107 19 19 19
0.116624342752731 -0.031771780930218 -0.03384795286917 0.71574 -0.485279 -0.5022157 87 87 87
0.117585393143928 -0.0250445623022884 -0.0362985978391102 0.8284179 -0.1213181 -0.5468141 39 39 39
0.118210064722336 -0.0331653375250667 -0.0291868994500568 0.7633482 -0.5317515 -0.3667969 82 82 82
0.119219156457222 -0.0297536868674129 -0.0326466510560444 0.8127612 -0.2944087 -0.5027353 61 61 61
0.119267212702072 -0.0272549409491389 -0.0333674202229908 0.8207259 -0.2176471 -0.5282412 31 31 31
0.119171115113533 -0.0348471421820491 -0.0253266940381458 0.7796396 -0.5649974 -0.2700741 92 92 92
0.121429564906395 -0.0309549588782161 -0.0272327611710956 0.8160965 -0.4922835 -0.3027267 97 97 97
0.0683800452483062 0.0237764101403386 0.057883506033189 0.2039461 -0.4640346 0.8620197 144 144 144
0.10624510283593 -0.0498874206168025 -0.0220751712586811 0.7477658 -0.5966527 -0.2912936 76 76 76
0.107830809904373 -0.0506563205344051 -0.0163569698598316 0.7824122 -0.5552863 -0.2819366 84 84 84
0.109512644363678 -0.0502878446204036 -0.0112314174439838 0.7997047 -0.5845593 -0.1369772 118 118 118
0.106629508091248 -0.0551731605154842 -0.00367122390531804 0.8653041 -0.5011969 -0.007103267 62 62 62
0.1073743128312 -0.0551972407919734 -0.00143679478430059 0.8891202 -0.4498055 0.08450075 106 106 106
0.0935593419802551 0.0469855051415593 0.0561055888865063 0.7206269 -0.1918904 0.6662394 140 140 140
0.108247267557419 -0.0467000026327937 -0.0231002817418506 0.7017327 -0.65176 -0.2877152 80 80 80
0.111370655251778 -0.0434004087073177 -0.0239812383916309 0.6447308 -0.7152486 -0.2697065 188 188 188
0.109656798197067 -0.0466679353339046 -0.0211141357686451 0.6803483 -0.6730338 -0.2900889 78 78 78
0.109752895785606 -0.0458030719382136 -0.020201141622298 0.6858416 -0.6752294 -0.2714527 106 106 106
0.113861354543007 -0.0428237933737605 -0.0198887834813526 0.6580625 -0.7022699 -0.2716079 201 201 201
0.11372921104554 -0.0411419887167781 -0.0234686980512073 0.6595597 -0.7115565 -0.2422155 213 213 213
0.114798369361198 -0.0409498233420222 -0.0197686801221302 0.6891648 -0.6734246 -0.2674904 167 167 167
0.118210064722336 -0.0382107514960139 -0.020201141622298 0.7100363 -0.6494521 -0.2721406 137 137 137
0.111074330760277 -0.047220589600262 -0.0147952685620716 0.7138443 -0.6632754 -0.2247044 92 92 92
0.114798369361198 -0.043640734635052 -0.0153478632237842 0.70684 -0.6890808 -0.1598274 172 172 172
0.116432147575653 -0.0411419887167781 -0.0167894611623218 0.7139663 -0.672714 -0.1941855 208 208 208
0.115651296926773 -0.0432322043997615 -0.0155280778672626 0.7131406 -0.679663 -0.1717226 149 149 149
0.118210064722336 -0.0401809234244197 -0.0163089285161426 0.7040154 -0.6804718 -0.2032745 147 147 147
0.119912477685249 -0.0387599486929744 -0.0134395311143329 0.7166501 -0.6860797 -0.1253289 145 145 145
0.122006180239952 -0.0309549588782161 -0.0236320743825367 0.8109601 -0.5310695 -0.2455787 80 80 80
0.122294487906731 -0.0328769702536433 -0.0200089464452198 0.7611567 -0.5408146 -0.3579945 120 120 120
0.124264630032814 -0.0259094256979793 -0.024333621051543 0.7882396 -0.3873201 -0.4781857 76 76 76
0.123784097386635 -0.03033030220097 -0.0218349049355915 0.7620056 -0.5626007 -0.320668 47 47 47
0.123976322366035 -0.0290808696371883 -0.0195764551427295 0.7344723 -0.5478517 -0.400511 66 66 66
0.126763346148766 -0.0260056275946468 -0.0214504847791126 0.8232835 -0.43013 -0.370395 74 74 74
0.12400034303788 -0.033814074478802 -0.0150355348851612 0.6790597 -0.6633396 -0.3144176 131 131 131
0.126715275002754 -0.0275913495642512 -0.0174621889855793 0.8052635 -0.4448607 -0.3919817 111 111 111
0.127532186461723 -0.0265342015845149 -0.0193842599656513 0.8277943 -0.4175424 -0.3747198 140 140 140
0.127724381638802 -0.03033030220097 -0.0140985200669697 0.7873792 -0.4924336 -0.370868 220 220 220
0.127484115315712 -0.0280237216574519 -0.0161647746827533 0.8495595 -0.3693701 -0.3765825 167 167 167
0.110089259697235 -0.048349739990887 -0.0120162914063862 0.7729107 -0.6120098 -0.1674907 117 117 117
0.112972395969665 -0.0469563026053279 -0.00905304649137761 0.7729506 -0.6290635 -0.0826228 86 86 86
0.113909410787857 -0.0451422948462337 -0.00721504786276128 0.7499465 -0.6612186 0.0192402 74 74 74
0.118146004630363 -0.0395241994482844 -0.011023188617461 0.6960175 -0.7148058 -0.06791334 108 108 108
0.116624342752731 -0.0418627280814021 -0.00876473882459905 0.6971694 -0.7120205 -0.08355592 49 49 49
0.110954197598732 -0.0486381072623103 -0.00650628903173711 0.8023615 -0.5943251 0.0547143 86 86 86
0.11426979537133 -0.0439770240408748 -0.00679459669851568 0.713713 -0.7003012 -0.01385313 68 68 68
0.114846425606049 -0.0442173499686092 -0.00645824768804815 0.7004154 -0.7135648 -0.0156096 84 84 84
0.115603240681923 -0.043688775978741 -0.00571342804693487 0.6563635 -0.7531819 -0.04363452 94 94 94
0.117321106148994 -0.042871953926739 -0.00453617670797613 0.5893857 -0.8041082 -0.07768198 95 95 95
0.119955959273613 -0.0382908601385921 -0.0109431097772053 0.6816067 -0.7248806 -0.09980179 171 171 171
0.120164188100136 -0.0393641013724177 -0.00698682167791631 0.6694773 -0.7117923 -0.2124897 63 63 63
0.121525677396095 -0.0346069354636043 -0.0126089105870655 0.6259398 -0.7643203 -0.1549642 168 168 168
0.125786277009285 -0.034446718178448 -0.0116638789441517 0.6338469 -0.7470002 -0.2005713 201 201 201
0.125610085679329 -0.0344146508795589 -0.00974979498647954 0.62388 -0.7671851 -0.1489995 212 212 212
0.127980651809013 -0.0317237395865291 -0.00937339165472295 0.7816883 -0.611091 -0.1246246 212 212 212
0.128060760451591 -0.0319160241705745 -0.00740327933096196 0.7503554 -0.6500421 -0.1200503 224 224 224
0.123880209876335 -0.0366131085974544 -0.00369524457716253 0.6359494 -0.7438694 -0.205491 175 175 175
0.125546010686195 -0.0352156180960506 -0.00310262539648321 0.614618 -0.7547495 -0.2293424 179 179 179
0.0598363899720077 -0.000855090103802025 0.0483884265158245 0.3703496 -0.4673888 0.8027384 97 97 97
0.127832504464424 -0.0337419528586238 -0.00146081545614507 0.6464924 -0.7120097 -0.2740249 215 215 215
0.130607517911232 -0.0287206191641658 -0.0055452535417011 0.854184 -0.4575702 -0.2469802 214 214 214
0.131289842082298 -0.0265533942801326 -0.0072847554948261 0.8682505 -0.4265569 -0.2533581 199 199 199
0.13070360059861 -0.0276154298407405 -0.00698682167791631 0.8768349 -0.4231749 -0.2282181 220 220 220
0.131328287078178 -0.026662351570782 -0.00546517470144536 0.8552717 -0.4317864 -0.28648 182 182 182
0.132337393714226 -0.0258133430106013 -0.0032387624051502 0.8587764 -0.4191103 -0.2947026 239 239 239
0.10825127596978 -0.0511728543860286 0.000293081018693186 0.8696668 -0.4902546 0.05770727 71 71 71
0.109704854441917 -0.0499354619604915 0.00690022608972285 0.7945869 -0.6063452 0.03126119 107 107 107
0.107782768560684 -0.0517134685141414 0.00906259319520686 0.8352809 -0.545449 0.06921934 116 116 116
0.106821718169487 -0.051521183930096 0.0151171436045239 0.777007 -0.4625254 0.4270015 137 137 137
0.113709183884895 -0.0448499936682552 0.00239134332872126 0.6018834 -0.7970518 -0.04944405 45 45 45
0.118210064722336 -0.0425355453116267 -0.000595892455809377 0.551076 -0.8259568 -0.1187887 60 60 60
0.10893601412896 -0.0489745158774226 0.0109366228315899 0.7866009 -0.5856443 0.1956523 142 142 142
0.111290561510361 -0.0465959329230159 0.0105762233469555 0.6577867 -0.7355348 0.1621886 76 76 76
0.117857682062424 -0.0434805173498958 0.00674006840921137 0.4421942 -0.8923711 -0.09021147 46 46 46
0.112611996485031 -0.0454666633231013 0.00930282971597407 0.5537364 -0.8318036 0.03845441 64 64 64
0.118930848790443 -0.0418146867377132 0.000461255523926951 0.5609351 -0.8169137 -0.1341781 53 53 53
0.124312671376503 -0.0383069533926814 0.000893717024094798 0.5782393 -0.7870918 -0.2147692 118 118 118
0.125994505835808 -0.0372257251364558 0.00279179713464472 0.5701918 -0.7894059 -0.2274197 178 178 178
0.123736056042946 -0.0387634057623714 0.00529048344827387 0.534205 -0.8176801 -0.2145329 69 69 69
0.121717872573173 -0.0411900300604671 0.0104080488417218 0.5488068 -0.8255982 0.1311439 76 76 76
0.12645098800782 -0.0384510774237483 0.00906256339288447 0.5858961 -0.8093446 -0.04107192 162 162 162
0.126811387492454 -0.0365289468390315 0.00123009583688471 0.5685176 -0.7863917 -0.2416109 224 224 224
0.126619192315376 -0.0355680007559627 0.001374249670274 0.5740976 -0.7773831 -0.2570744 245 245 245
0.10883991654042 -0.0493108052832454 0.0127145399782727 0.8062774 -0.5367588 0.2486096 150 150 150
0.111707019163406 -0.04463374801701 0.0159981002543041 0.5014332 -0.7223803 0.4761633 175 175 175
0.116656380249298 -0.04373681732243 0.0130028476450512 0.4042275 -0.8534653 0.3289332 170 170 170
0.114558103038109 -0.0433523673636287 0.0149729897711346 0.4366233 -0.738588 0.5136612 207 207 207
0.108551593972481 -0.0454666633231013 0.0180963625643322 0.5593686 -0.5222875 0.643679 197 197 197
0.10869574780587 -0.0433523673636287 0.0191054692003796 0.4723957 -0.4746673 0.7426528 189 189 189
0.110048072887695 -0.0393022317511409 0.0208627929422924 0.4043291 -0.3822666 0.8308973 168 168 168
0.116095783664024 -0.0372978467566341 0.0192496230337689 0.3121222 -0.4583508 0.8321624 167 167 167
0.12165779109124 -0.0414422769171565 0.0125583758089611 0.4936298 -0.801447 0.3376572 120 120 120
0.123712035371101 -0.0388594884497493 0.0146606316301892 0.5100197 -0.700925 0.4985821 172 172 172
0.120052071763313 -0.0388034600836604 0.0167669405672619 0.382242 -0.5710821 0.7264684 195 195 195
0.107942941142357 -0.0369614381415218 0.0226773371431896 0.3565752 -0.3206514 0.8775174 123 123 123
0.114846425606049 -0.0369133967978328 0.019826238367326 0.3094736 -0.4546416 0.8351809 198 198 198
0.117993833972252 -0.0352796334845393 0.019513910028703 0.3085068 -0.4524744 0.8367141 174 174 174
0.045795562220848 0.034972546614948 0.0661965360376904 0.3394159 -0.4560448 0.8226907 57 57 57
0.113885375214851 -0.0304263848883479 0.0234301438067028 0.250257 -0.4133355 0.8755142 157 157 157
0.117152916742599 -0.0294172782523006 0.0230457534525463 0.2585319 -0.4373756 0.8613152 154 154 154
0.130126985265053 -0.0323965568167537 0.0112729718420574 0.8698807 -0.439899 0.2231511 153 153 153
0.127532186461723 -0.0358082074744075 0.0144444157812664 0.6187824 -0.584312 0.5250598 194 194 194
0.128733488274849 -0.0316756982428401 0.0158859839174816 0.7612397 -0.3893199 0.5185982 166 166 166
0.121237339926994 -0.0343666095358699 0.018817161533601 0.3146915 -0.5034645 0.8046694 155 155 155
0.0279522114527588 -0.0330692548376887 0.0421704699728558 0.2401775 -0.4440492 0.8632121 56 56 56
0.119459422780312 -0.0325406808478206 0.0203067710135052 0.2957829 -0.4806162 0.8255426 178 178 178
0.119963976098335 -0.0313153285605281 0.021027569982774 0.2904598 -0.4657903 0.8358663 180 180 180
0.119219156457222 -0.0297536868674129 0.0222288419935772 0.2789956 -0.4475055 0.8496472 132 132 132
0.123399707032478 -0.0253168363196223 0.0225331833098004 0.3717702 -0.3722432 0.8504245 146 146 146
0.127195807648933 -0.0272389669043391 0.0201786508295605 0.5811822 -0.3354287 0.7414275 148 148 148
0.128973724795616 -0.0266302842718928 0.0194418480131695 0.7310308 -0.2532441 0.6336098 221 221 221
0.12625077600602 -0.0276874322516292 0.0206591536734173 0.5090225 -0.3427976 0.7895479 167 167 167
0.131856861068047 -0.0310270804983943 0.000917767498261668 0.7950279 -0.5743968 -0.1949333 213 213 213
0.13070360059861 -0.0320601482016414 0.00358462831712458 0.773376 -0.6224281 -0.1203033 247 247 247
0.134523751689232 -0.0248283166510432 0.000605409357316233 0.9313256 -0.3430802 -0.122183 212 212 212
0.130943866921699 -0.0326848048788875 0.00507426759935115 0.7869455 -0.6094837 -0.09615792 205 205 205
0.130991938067711 -0.0328129548651546 0.00680414340234492 0.82844 -0.5586509 -0.03995482 176 176 176
0.133202316714561 -0.0282160062414973 0.00786129138208125 0.929246 -0.3491778 0.1207342 166 166 166
0.134163352204597 -0.0251886863333552 0.0075729539129803 0.9695925 -0.1989113 0.142565 132 132 132
0.133634778214729 -0.026486160240826 0.0110567559931347 0.9136178 -0.2514328 0.3195059 143 143 143
0.131064000083244 -0.0259815473181575 0.0161022295687268 0.8500069 -0.1983326 0.4880086 186 186 186
0.0415349477064972 0.0160239916222722 0.0590527703497479 0.1722783 -0.2602195 0.9500558 101 101 101
-0.0597268394100304 -0.0133678931814998 0.0684309353563854 0.2023069 -0.3222895 0.924771 58 58 58
0.034527348829544 0.013228891410175 0.0600458433363507 0.3247128 -0.3145107 0.8919891 68 68 68
0.0116305225623016 0.0697622280495793 0.0479367127153942 -0.1289751 0.9487536 0.2884996 9 9 9
-0.100090594487154 0.0144542436974675 -0.036683017995589 -0.7692921 0.0509166 -0.6368651 10 10 10
-0.067895696954691 -0.0189418811423152 -0.0520116338994434 -0.7555567 -0.4140887 -0.5076068 12 12 12
-0.020432238923275 0.0071743708031804 0.0674819102022717 0.1508774 -0.4581971 0.8759517 97 97 97
0.0834363722336654 -0.0386272687537044 0.0282353808615277 0.1305843 -0.4108771 0.9022903 33 33 33
0.130463364077843 0.0387686472314031 -0.0261115381982258 0.9838558 0.1779902 -0.01863394 174 174 174
-0.0926425247358914 -0.0230263490301936 0.0571627368662426 -0.6727052 -0.6197517 0.4041975 147 147 147
0.132962050391472 0.0169529896157414 0.00574699542260859 0.9800555 0.06148394 0.1889738 187 187 187
-0.133030312126392 0.0531603079217107 0.00505021712518428 -0.9930866 -0.0988395 -0.06332254 51 51 51
-0.10138800878998 0.0506855230706365 0.0415457834932873 -0.2987021 0.9348173 0.1920774 119 119 119
0.0378669672739868 -0.057047249756512 0.0282353510592053 0.1662257 -0.4406471 0.882156 77 77 77
0.0919255637658004 0.0927431564705998 -0.00564136603140142 -0.08789317 0.9539218 0.2868936 81 81 81
-0.0202087960111733 0.0642938595193059 0.0466585507128308 -0.1788235 0.9533603 0.2431591 56 56 56
0.127724381638802 0.0494842510598332 0.0170872857306072 0.9579673 0.2863519 -0.01735896 134 134 134
-0.114073754744494 -0.0135600585562556 0.041689967128999 -0.4106197 -0.5874954 0.6973096 177 177 177
-0.0880455425846215 0.0686249714272649 0.0144123782846997 0.3999808 0.805563 0.4371311 129 129 129
-0.0220539993512268 0.058470008887592 0.0650673260424206 -0.1557179 0.941363 0.2993121 60 60 60
0.0942801260483627 0.0500128250497014 0.0545679082605908 0.7142618 -0.1526576 0.6830269 120 120 120
-0.0252254358398552 0.0680804233925969 0.0283795346949169 -0.1406665 0.9646887 0.2226849 47 47 47
0.119363325191772 0.000567195929828346 -0.0473986218240192 0.7657642 -0.5098306 -0.3920179 14 14 14
-0.0177293098437424 0.0746635179894597 0.01372364661432 -0.201517 0.8790432 0.4320579 66 66 66
-0.12245884723019 0.0614732485192448 0.0170632650587628 -0.3065487 0.9160656 0.2585571 88 88 88
-0.0867561451065178 0.0474420767205388 0.0612711658213207 -0.1884666 0.9229676 0.3355761 126 126 126
-0.11268025775429 -0.00370943733280593 -0.0128491769101551 -0.7603279 -0.3550154 -0.5439352 62 62 62
-0.121041314201319 0.00647759250575608 0.0595653404924938 -0.7397056 -0.2804683 0.6116969 191 191 191
-0.100042553143465 -0.013488056145367 -0.0307725916173389 -0.7344121 -0.2886448 -0.6142663 54 54 54
0.105428206278122 -0.00164318271702224 0.0354431917402813 0.3168032 -0.265412 0.9105999 107 107 107
0.111194463921822 0.00311398319179124 0.034386043760545 0.3935588 -0.1901224 0.8994248 95 95 95
0.038179310513771 0.0677440147774846 0.0647068967554638 -0.06485377 0.9543173 0.2916717 78 78 78
0.0922138863337402 -0.003613354645428 0.0377977242205212 0.2722065 -0.3599954 0.8923603 48 48 48
0.0798885249626999 -0.0134159345251887 0.038926934215791 0.2745433 -0.3414671 0.8989028 45 45 45
-0.0707788257765408 0.0516465883629948 0.0585081925127575 -0.1912806 0.9351761 0.2980896 90 90 90
-0.128489391868823 0.059238789595905 0.0170872857306072 -0.2632449 0.8257618 0.4988182 87 87 87
-0.0122994235622521 0.0488115530388982 0.0853212525579998 -0.00786501 -0.01308135 0.9998835 218 218 218
0.111915247989929 -0.0116860885245174 -0.0510986397530964 0.8377885 -0.4189729 -0.3501031 6 6 6
0.00086684758786007 0.0710116606133611 0.0358756532404492 -0.1907375 0.9492808 0.2499703 103 103 103
0.129694523764885 0.032842157401386 0.0263613512251446 0.9672064 -0.01758158 0.2533824 196 196 196
-0.0654210126864548 0.0155594330208928 0.0799634506437847 0.07447299 -0.3465811 0.935059 120 120 120
0.103698330475128 0.0605683308022649 0.0506756951544354 0.5028573 -0.3048444 0.8088291 104 104 104
-0.0912490128445263 0.0724050979989201 0.0067080309126446 -0.1304759 0.933648 0.3335826 87 87 87
0.123976322366035 0.0734622459786565 -0.00102835395597722 0.9748392 0.1759351 0.1368774 65 65 65
0.120852919770515 0.0786038618462712 0.0143963744375775 0.9861453 0.1577542 0.05129319 81 81 81
-0.0793320997523899 0.0585660915749699 0.0307821383211682 -0.1675148 0.9394681 0.2988953 90 90 90
0.11377726729039 -0.0147733707053035 0.029004191372163 0.2418376 -0.2722066 0.9313529 72 72 72
-0.135264741247409 0.0478024464028508 0.0230937947962353 -0.882679 0.4699686 0.002684526 68 68 68
0.0652326368821029 0.0910493116753728 -0.00415172674917486 -0.07305828 0.9656307 0.2494391 50 50 50
0.0298182391655807 -0.0508245248419612 0.0333529164526531 0.247317 -0.4733009 0.8454706 60 60 60
-0.133919270699733 0.061641452826801 -0.00818812349104192 -0.9658033 0.1369405 -0.220162 54 54 54
-0.0875490060913201 0.00258540920192307 0.0805160751078198 0.1842061 -0.2574701 0.9485659 129 129 129
0.128509225798881 0.00626945308620042 -0.037515903499358 0.8658245 -0.3460028 -0.3614276 29 29 29
0.0280643426907425 0.0358375292199284 0.0737406959269116 0.100463 -0.3963487 0.9125869 18 18 18
0.0654008113873367 -0.0424873847586482 0.0295808365080426 0.1532844 -0.4532188 0.8781211 32 32 32
-0.0143015957343216 -0.017244102440533 0.0572588195536206 0.09058163 -0.3612759 0.9280488 81 81 81
0.0799537324440841 -0.0149742383581966 0.038388078424699 0.2797301 -0.3067568 0.9097534 72 72 72
0.122823061896599 0.0909051876443059 -0.0166692981984546 0.9096928 0.4151097 0.01195607 52 52 52
-0.0782909667956467 0.0455760937112004 0.0745415737364361 -0.1852738 0.9433958 0.2750964 84 84 84
0.00800258154991909 -0.02675044723576 0.0494023313257763 0.1601935 -0.3785985 0.9115927 99 99 99
0.123111369563377 0.091890214003864 -0.0115517626073292 0.8770009 0.445305 0.1804795 80 80 80
-0.0994178666638966 -0.0204795617682307 0.0478406300280163 -0.606659 -0.7100815 0.3574201 115 115 115
0.104082750631607 0.0833129864113957 0.0347704639170239 -0.06567273 0.9660851 0.249733 12 12 12
0.117609413815773 0.00481974891597337 0.0318392863009045 0.3480277 -0.2515897 0.9030943 118 118 118
0.126571121169365 0.0605362635033757 -0.0130413720872333 0.9871724 0.1141728 0.1116031 78 78 78
-0.019491223143303 0.044887302436176 0.0848087122175762 0.01073647 -0.2495203 0.9683101 176 176 176
-0.108932183580362 0.0382881145852239 -0.0323102722432544 -0.7789049 -0.2984866 -0.551555 26 26 26
0.079287874056137 -0.0414303559882014 0.0278509607050488 0.1255255 -0.3749897 0.9184912 10 10 10
-0.0598710006940003 0.041940091170612 0.0890693118307659 -0.09503677 0.08021691 0.9922365 198 198 198
0.0276799225342636 0.0260348301308782 0.0676861455175946 0.1207536 -0.4428993 0.8884023 79 79 79
0.0503124618065719 -0.00937950798099929 0.0492341270182202 0.2810505 -0.4237565 0.8610697 62 62 62
-0.11541922529217 -0.0157704372031062 0.00538659593797419 -0.6358885 -0.7073613 -0.3086839 40 40 40
0.087769063664711 0.0928993206399114 -0.00701084234976079 -0.0445342 0.953168 0.2991444 76 76 76
-0.0165119892823334 0.0596392135995061 0.065235470745332 -0.168979 0.9383739 0.3014971 80 80 80
0.12243864174012 0.00152826122218674 0.0288119961950848 0.373874 -0.2312161 0.8981967 125 125 125
0.121982159568108 0.0486192684548528 0.0354191412661145 0.7961311 -0.03966624 0.6038226 78 78 78
-0.0642437389957543 -0.020143272362408 -0.0529246280457905 -0.7469122 -0.3753023 -0.5488809 34 34 34
0.0705263787043457 -0.0248203296286433 0.0374293377134869 0.211824 -0.3588678 0.9090349 59 59 59
0.00572011108521267 0.0859558563607365 -0.00818812349104192 -0.1634258 0.9325521 0.3219294 76 76 76
-0.0520673370825882 0.0483983736413152 0.0823131849501202 -0.1937581 0.9238854 0.3299902 103 103 103
0.115519153429306 0.0776908378976018 0.047792558882005 0.8144818 0.3887591 0.4306806 104 104 104
-0.129450434780336 0.0574128609078557 0.0205710580084393 -0.3643175 0.4810563 0.7974068 139 139 139
-0.0943243480193253 -0.0227140206915706 -0.0303641805913379 -0.7324236 -0.5333408 -0.4232059 65 65 65
-0.115851694242918 0.00349831394130296 -0.0110472092893055 -0.712905 -0.2114087 -0.668635 65 65 65
-0.118254290418589 0.044390795745197 0.0465432157251904 -0.196744 0.9045553 0.3782481 34 34 34
0.131344320727623 0.0129326563256413 -0.0353215286996296 0.8958029 -0.3984414 -0.1969307 27 27 27
0.0796402567160492 -0.0377303380591243 0.0291163375113079 0.1515479 -0.4085575 0.9000633 14 14 14
0.112179534984863 0.0585421305077702 0.0466633488867352 0.4134232 -0.3215606 0.8518686 132 132 132
-0.0622736043202515 0.0580855589287907 0.0413055469725201 -0.1942825 0.9387924 0.2844699 48 48 48
0.0903718941939239 0.0805258732216985 0.040953164312608 -0.04936992 0.9608334 0.2726934 53 53 53
-0.00987279181357578 0.0448712091820866 0.0844803502295086 0.107844 -0.3287191 0.9382502 106 106 106
-0.102829576926195 -0.00702500530308181 -0.0263998756673267 -0.8727827 -0.2321804 -0.4293514 54 54 54
-0.0465365401374932 -0.0188698787314265 0.0631451954577038 0.2901881 -0.3001538 0.9086796 60 60 60
-0.0147020271885033 0.0793246012108952 0.00103787085748408 -0.1837794 0.933175 0.3088844 18 18 18
-0.0695775239634152 0.00849580577785081 0.0774887551996777 0.1214624 -0.2840368 0.9510888 132 132 132
-0.125317947929614 0.0704349260705144 -0.0127050230767658 -0.205154 0.9086527 0.3636785 36 36 36
0.126715275002754 0.0485231857674748 0.0112249304983685 0.9756745 0.2184873 -0.0179631 69 69 69
0.0331578576100235 -0.0306665916067927 0.0417380084726879 0.2224665 -0.4875095 0.8443003 129 129 129
0.137527021123207 -0.0076496619803279 -0.00690271952413823 0.9828688 -0.09623193 -0.1571889 162 162 162
0.0695332908165817 -0.0188938397986262 0.0398159076902935 0.2701252 -0.3474911 0.8979322 75 75 75
0.049495565248764 0.0666388254540593 0.0698484828207562 -0.06509485 0.9008763 0.4291673 67 67 67
0.136758180810249 0.00465166381770676 -0.0115517626073292 0.9735393 0.220888 0.05856391 161 161 161
-0.0924022695886727 -0.0170319099051326 0.0666770388815472 -0.6698363 -0.6838079 0.2893546 94 94 94
0.0879612737429504 0.0829765777962834 0.0325600554678509 -0.05402105 0.9665404 0.2507616 98 98 98
-0.0506690195667382 0.0743511896508366 7.68353674480693E-05 -0.04140702 0.8451982 0.5328466 55 55 55
0.0646079504025344 -0.00363731571262771 0.0453659643862316 0.2074753 -0.3364826 0.9185497 73 73 73
-0.108547763423883 0.0343478899377019 0.0809965779516766 -0.3173918 0.9179888 0.2378214 74 74 74
0.0547332489025955 0.0697141867058904 0.0636497487757275 -0.1371423 0.9053184 0.4019833 106 106 106
0.109644772959984 0.0351647119897038 0.0442727555964062 0.4485528 -0.09927112 0.8882261 184 184 184
0.127580227805412 0.0487633924859197 0.0206671704981396 0.9410229 0.3337044 0.05583191 140 140 140
-0.106001011552178 -0.0166834611517757 -0.00954958298467901 -0.835825 -0.3777181 -0.3984037 51 51 51
-0.0584774888026352 -0.0224016923529475 -0.0586428145434787 -0.5975451 -0.3758428 -0.7082952 23 23 23
0.129149916125572 0.0251378994362981 0.0266656627390454 0.9344894 0.04758858 0.3527957 173 173 173
0.123423727704323 0.0836973171609074 -0.00355109074377324 0.9865754 0.08175829 0.141367 59 59 59
-0.106097118453943 0.0100334864037663 0.0796991636488507 -0.6593015 -0.3739257 0.6523045 154 154 154
-0.0701060905027028 0.0477063637154729 0.071530317280061 -0.2037982 0.9417107 0.2676703 45 45 45
-0.00710979615327076 0.0242569427865178 0.0733082344267437 0.1564616 -0.4251388 0.8915025 130 130 130
-0.130267323887563 0.00474774650508469 0.00944698354936335 -0.9207989 -0.2997678 -0.2495369 66 66 66
0.127724381638802 0.0620259027856023 -0.0222673962380817 0.9706553 0.2213531 0.09397421 138 138 138
0.0454351627362136 0.046949503936115 0.0725994457933972 0.2083473 -0.3878091 0.897884 70 70 70
-0.123443918293231 0.0300232153313786 -0.0133777509000232 -0.6952808 -0.2977591 -0.654159 23 23 23
-0.130795890397747 0.0632752161400945 0.00238332650399897 -0.4038364 0.8891181 0.2153723 53 53 53
0.0749631845486526 0.0580855589287907 0.0697523703310559 0.2238698 -0.3363695 0.9147338 100 100 100
-0.0865399106311436 -0.0149536151511043 0.0761432995531628 0.1175928 -0.323094 0.9390326 71 71 71
-0.0836247480380173 0.000326989211383522 -0.0516752699878147 -0.6060904 -0.6240951 -0.4931123 31 31 31
0.0816184007656936 0.0410151462929875 0.0601899971697399 0.4634596 -0.441135 0.7685084 117 117 117
0.0515521937144165 -0.0491089839560359 0.0284756173822949 0.2147316 -0.4484576 0.8676267 46 46 46
-0.106529579954111 -0.0131757278067439 -0.0153959343697956 -0.8208712 -0.4554002 -0.3446462 49 49 49
-0.0871645896601315 0.065485594786945 0.0189132740233013 0.4629506 0.7275352 0.5063291 129 129 129
0.125177624179161 0.0651011448281438 0.00255153081155512 0.996711 0.03116067 0.07480778 138 138 138
0.0110538923275833 -0.0806409139258235 0.0247035374376843 0.04029208 -0.5488003 0.8349819 132 132 132
0.12062868709687 -0.0214886684042781 0.0255604734156201 0.3083523 -0.2765216 0.9101948 167 167 167
0.0135526084435348 -0.0801602620703548 0.0251119782660076 0.06159949 -0.548628 0.8337942 156 156 156
0.0119668864739303 -0.0756914634329646 0.0266015877459118 0.05742375 -0.3896332 0.9191781 125 125 125
0.0198834710848693 -0.0792833585364192 0.0246795167658398 0.1500265 -0.4948064 0.8559548 163 163 163
0.0202318453324203 -0.0777096767050593 0.0251600196096966 0.1498374 -0.4215466 0.8943418 160 160 160
0.0256617390644912 -0.0775173921210139 0.0242950966093609 0.2070802 -0.3810386 0.9010701 74 74 74
0.0140451365244751 -0.0729404706580012 0.027550642702348 0.06153806 -0.4661962 0.8825384 104 104 104
0.0120149427187805 -0.0704296846014827 0.0292444576952526 0.06803815 -0.4675042 0.8813686 132 132 132
0.0181656056177978 -0.0730966348273128 0.0274345030520031 0.1613487 -0.4090757 0.8981223 143 143 143
0.0177331292164688 -0.0717512387854427 0.0283194532129833 0.1708684 -0.4026708 0.8992554 135 135 135
0.0101408981812362 -0.0697330255133479 0.0296769191954205 0.0657476 -0.4528696 0.8891492 93 93 93
0.011822732640541 -0.0650719422919124 0.0319834103319714 0.06357151 -0.3170941 0.946261 104 104 104
0.0162435197365646 -0.0659849662405818 0.0308782210085461 0.2138178 -0.2901637 0.9327845 15 15 15
0.0240279608500366 -0.0715205688101619 0.0266977002356121 0.2554286 -0.2898828 0.9223471 82 82 82
0.0235794806015854 -0.0693485755545467 0.0271782328817913 0.293387 -0.2844027 0.9127098 67 67 67
0.0290253781807785 -0.0693966168982356 0.0257366647455761 0.2925765 -0.2509596 0.9227233 41 41 41
0.0234273099434738 -0.0653362292868465 0.0285717298719952 0.2925439 -0.3057898 0.9060412 58 58 58
0.0243322872650985 -0.0629897136313289 0.0292924990389416 0.2877434 -0.3293757 0.899286 34 34 34
0.0292976670992736 -0.0668498296362727 0.0262011637423107 0.270442 -0.2747608 0.9226959 39 39 39
0.0319084995520477 -0.0639667529684871 0.0262652387354443 0.2552524 -0.3222327 0.9115987 102 102 102
0.0295539521706466 -0.0637744683844417 0.0267938127253124 0.2680362 -0.3107644 0.9119112 70 70 70
0.0227305614483718 -0.0637264270407527 0.0298210730288098 0.2788076 -0.3170877 0.9064887 85 85 85
0.0115023874771957 -0.0613719243628352 0.0325600554678509 0.1251599 -0.3945144 0.910326 133 133 133
0.0114863687289123 -0.0599304456335872 0.0334730496141979 0.1517635 -0.4637675 0.8728617 147 147 147
0.0131201320422058 -0.0596420783621638 0.0338574697706768 0.1560982 -0.4706701 0.868391 145 145 145
0.0160513096583252 -0.0616121310812801 0.0320314814779827 0.2090512 -0.3525761 0.9121336 92 92 92
0.0193428867590789 -0.0605551023108333 0.0314308156702587 0.2637313 -0.354151 0.8972307 47 47 47
0.0171565138829116 -0.0580563563925593 0.0332808246347973 0.2601318 -0.4298082 0.8646365 53 53 53
0.0181656056177978 -0.0557497758490413 0.034386043760545 0.2968721 -0.4286339 0.8533112 25 25 25
0.0164837860596542 -0.0547888297659724 0.0356834282610485 0.2687527 -0.4258352 0.8639655 67 67 67
0.0283286296856765 -0.0589212197882503 0.0294366826746533 0.2818986 -0.4004305 0.8718879 57 57 57
0.0297621809971695 -0.0588731784445613 0.0289881875250408 0.2559345 -0.4177918 0.8717497 68 68 68
0.0303227924836044 -0.0572394151312678 0.0295808365080426 0.244316 -0.4397726 0.8642394 45 45 45
0.0250851088297729 -0.0562303084952205 0.0316951324675152 0.2695806 -0.4284002 0.8624381 26 26 26
0.0297701829207306 -0.0550650376898616 0.0312266101572582 0.2394324 -0.4680231 0.8506624 65 65 65
0.0233792536986236 -0.0546927470785945 0.0332808246347973 0.2480815 -0.4458059 0.8600655 63 63 63
0.0234513306153183 -0.053467394791302 0.0335451116297314 0.2373359 -0.4651063 0.8528469 53 53 53
0.0225623720419769 -0.0511128921133845 0.035034750911958 0.2254393 -0.4712834 0.8526835 32 32 32
0.0273115211260681 -0.0535714645010799 0.0324799766275952 0.2330837 -0.4822883 0.8444347 48 48 48
0.0271994047892456 -0.0506563205344051 0.0348185052607128 0.2376867 -0.4670018 0.8517126 12 12 12
0.012303250385559 -0.0532830972296565 0.0370769550535748 0.1789644 -0.4237935 0.8879025 153 153 153
0.00943213935021206 -0.0495871324164241 0.0391552200052807 0.1483665 -0.3939596 0.907074 133 133 133
0.016003253413475 -0.0516654271704524 0.0371249963972637 0.2501935 -0.430542 0.8672006 99 99 99
0.0156028294098739 -0.0491505879980891 0.0383102943632672 0.229766 -0.4204768 0.8777282 85 85 85
0.0323409759533767 -0.0681473035437434 0.0250158657763073 0.2950336 -0.2799999 0.9135399 12 12 12
0.0340227955115203 -0.0649758596045344 0.0256885935995648 0.2516003 -0.330464 0.9096652 17 17 17
0.0332059138548736 -0.0647596139532893 0.0261931469175885 0.2607384 -0.3176161 0.9116663 23 23 23
0.0436332100165252 -0.0631338376623958 0.0239747514460156 0.184394 -0.4308963 0.8833613 65 65 65
0.0423358106148605 -0.0622849483115047 0.0244392504427502 0.1927831 -0.4372911 0.878414 37 37 37
0.0393325560820465 -0.0608433503729671 0.026169126245744 0.193018 -0.4469279 0.8734984 53 53 53
0.0417591803801422 -0.0604108590704768 0.0259769310686657 0.2151659 -0.436085 0.873804 33 33 33
0.0375306033623581 -0.0536354798895686 0.0295327653620312 0.1836671 -0.4598849 0.8687763 73 73 73
0.0399332069886093 -0.053923847160992 0.0296288778517315 0.1891484 -0.4460277 0.8748041 36 36 36
0.0371942394507293 -0.0533472318274348 0.0300453355047772 0.1828685 -0.4553519 0.8713287 76 76 76
0.0381827377808456 -0.0513427276236385 0.0308370341990063 0.19439 -0.4435107 0.8749347 55 55 55
0.0454912358057861 -0.0608754176718562 0.0242950966093609 0.1802843 -0.4235187 0.8877665 57 57 57
0.0478618019354705 -0.0599783677679866 0.024695520612962 0.168094 -0.4068166 0.8979113 15 15 15
0.0467085563671951 -0.0549329537970393 0.0269860079023907 0.2409348 -0.4079162 0.8806559 65 65 65
0.0470449202788238 -0.0527706164938777 0.0278509607050488 0.2509127 -0.4221905 0.8710902 61 61 61
0.0454351627362136 -0.0509446878058284 0.0292924990389416 0.2535022 -0.4352683 0.8638739 72 72 72
0.0502884262335662 -0.0500797052008479 0.0282113303873608 0.2323258 -0.4339578 0.8704627 35 35 35
0.0106694721711044 -0.0473407525641292 0.0402483989927838 0.1525235 -0.3816485 0.9116364 140 140 140
0.0117506557238464 -0.0447218436819881 0.0408130039904187 0.1492597 -0.354714 0.9229841 161 161 161
0.0198474251759414 -0.0464757699591487 0.0386626770231793 0.2283443 -0.3997904 0.8877086 65 65 65
0.0152824842465286 -0.044457556687054 0.0405367066595623 0.1738972 -0.3727721 0.9114828 134 134 134
0.0180695080292587 -0.043192269287762 0.0403765191767285 0.1939047 -0.3887052 0.900727 68 68 68
0.0121430778038864 -0.0415264386755794 0.041962241146333 0.1511231 -0.3701243 0.9166078 146 146 146
0.0155707919133072 -0.0410939473730891 0.0419061829779217 0.1608826 -0.3725042 0.9139789 86 86 86
0.00807465846661373 -0.0417187232596248 0.0426749934885571 0.2014701 -0.4061135 0.891337 62 62 62
0.00927596027973934 -0.0385712403876155 0.0439003457758496 0.218913 -0.4206543 0.880413 42 42 42
0.0156188481581573 -0.0374579448325008 0.0427791228029797 0.1651957 -0.3908165 0.9055235 86 86 86
0.0205201529991989 -0.0494550485236018 0.0366925348970959 0.2349506 -0.4545588 0.8591708 51 51 51
0.0244604223502044 -0.0485900659186214 0.0362120022509167 0.2250074 -0.4621539 0.8577794 104 104 104
0.0234993868601684 -0.0479654092413753 0.0368366887304852 0.2108596 -0.4501129 0.8677192 110 110 110
0.0263344668877487 -0.0429679174048274 0.0383142878744671 0.2315394 -0.3899231 0.8912628 90 90 90
0.031572135640419 -0.0430159587485164 0.0370769550535748 0.2616663 -0.3780085 0.8880543 60 60 60
0.022826659036911 -0.0385952014548152 0.0414977421495983 0.243311 -0.3669698 0.8978491 70 70 70
0.0279682302010421 -0.0428718347174495 0.0380379905436108 0.2395541 -0.3767853 0.8947886 85 85 85
0.00821882720116421 -0.0339822787863582 0.0463750412199566 0.2129082 -0.4065253 0.8884859 109 109 109
0.0172526114714508 -0.0370335597617 0.0431795766089031 0.168743 -0.3915999 0.9045305 95 95 95
0.0145136439335708 -0.0329251308066218 0.0454860677454541 0.1905245 -0.421385 0.8866426 76 76 76
0.0121350609791641 -0.0298978108984798 0.0476484050486157 0.1911132 -0.4194302 0.8874424 83 83 83
0.0172526114714508 -0.03033030220097 0.0461107542250225 0.1929419 -0.4223907 0.8856407 217 217 217
0.0200556540024643 -0.030826808891949 0.0451817562315533 0.1776424 -0.4216933 0.889167 206 206 206
0.0240760170948867 -0.034670950852093 0.0422986199591229 0.2590163 -0.3821814 0.8870445 236 236 236
0.0257578366530304 -0.03345370479649 0.0424347569677899 0.2518765 -0.4162573 0.8736636 148 148 148
0.0204721116555099 -0.0270627755743831 0.0469276358816693 0.1705826 -0.4607972 0.8709579 139 139 139
0.025181206418312 -0.0277354735953181 0.0460146417353222 0.1677956 -0.4524935 0.8758392 123 123 123
0.0277920388710861 -0.0309549588782161 0.0434358467791149 0.2344404 -0.4934272 0.8375961 65 65 65
0.0277279787791137 -0.0288766641241878 0.0443688382837841 0.2164887 -0.4998929 0.8385939 89 89 89
0.0311877303851013 -0.0256211776358455 0.0459185292456219 0.2477932 -0.463415 0.8507909 156 156 156
0.0343591594231491 -0.0478212852103084 0.0338093986246655 0.2347836 -0.4349373 0.8693137 25 25 25
0.035656573725975 -0.0447459239584773 0.0349626590941021 0.2378259 -0.4125415 0.8793454 34 34 34
0.0411585294735794 -0.0470764655691951 0.0323918809626171 0.2177803 -0.4250059 0.8786021 42 42 42
0.0397650175822143 -0.0429319161993831 0.0346503307554791 0.2011107 -0.3638031 0.9095063 50 50 50
0.0418552928698425 -0.0445055980307429 0.0337613572809765 0.1869308 -0.4186506 0.8887005 111 111 111
0.0403416478169326 -0.0387634057623714 0.0354672124121258 0.1643143 -0.4214526 0.89184 117 117 117
0.053147526932991 -0.0465238113028377 0.0292924990389416 0.1834754 -0.4866093 0.8541359 38 38 38
0.0565231912863617 -0.0455267448050349 0.0293766011927197 0.1382717 -0.493796 0.8585141 59 59 59
0.0502043389809494 -0.0447338838202327 0.0312986721727917 0.210853 -0.4918612 0.8447565 38 38 38
0.0535319470894699 -0.0455868262869685 0.0299892773363659 0.1889573 -0.496461 0.8472435 71 71 71
0.0481741451752548 -0.0391478557211726 0.0348185052607128 0.1578788 -0.3837532 0.9098395 108 108 108
0.053628044678009 -0.0372978467566341 0.0348185052607128 0.1416385 -0.450446 0.881497 32 32 32
0.0559826069605713 -0.0353276748282283 0.0353710999224255 0.1072473 -0.4825514 0.8692768 67 67 67
0.0340468161833648 -0.0372136849982112 0.0382782568667004 0.2423436 -0.3837813 0.8910564 214 214 214
0.0371461832058792 -0.0382589120489925 0.0365964224073956 0.2148584 -0.4008874 0.8905757 84 84 84
0.0435371124279861 -0.0377303380591243 0.0358756532404492 0.1710663 -0.418122 0.8921381 111 111 111
0.0346154444945221 -0.0339661855322688 0.0395115961763928 0.1820846 -0.4596431 0.8692372 218 218 218
0.0331098013651733 -0.0326848048788875 0.0407289018366406 0.2228193 -0.4742609 0.8517207 156 156 156
0.0372903370392685 -0.033501746140179 0.0393354048464367 0.1819088 -0.4589524 0.8696389 197 197 197
0.0392604791653518 -0.0332014579398006 0.0392513026926586 0.1992582 -0.4337219 0.8787386 232 232 232
0.0443780296576385 -0.0306186694723933 0.0386146058771679 0.2606281 -0.3356564 0.9052114 111 111 111
0.0390202128422622 -0.0288887042624324 0.0417860498163769 0.279921 -0.3917848 0.8764411 228 228 228
0.0435210936797027 -0.0287605542761653 0.0398960163328717 0.2894392 -0.3565874 0.8882964 214 214 214
0.0339507185948257 -0.0254770536047786 0.0446691860888073 0.2913252 -0.4582843 0.8397054 105 105 105
0.0498799854052429 -0.0333335418326228 0.0365483810637066 0.03418497 -0.3668652 0.9296458 131 131 131
0.0477656894457702 -0.027110816918072 0.0393113841745922 0.1224901 -0.4476952 0.8857569 73 73 73
0.0450987988245849 -0.0250204820257991 0.0407048811647961 0.1935588 -0.4677662 0.8623977 171 171 171
0.0530514293444519 -0.0250445623022884 0.0398639788363049 0.09273825 -0.4218737 0.9018992 135 135 135
0.011822732640541 -0.0266903657538264 0.0489578296873638 0.1570143 -0.413641 0.8967986 142 142 142
0.0592020922434692 -0.0545245427710384 0.023958717796571 0.1631518 -0.4234595 0.8911024 128 128 128
0.0581209235918884 -0.0513050574881404 0.0260129620764324 0.1526522 -0.4551689 0.8772221 44 44 44
0.0619891160261993 -0.049262883148846 0.0263132800791332 0.1024774 -0.4907736 0.8652397 109 109 109
0.0678706937563781 -0.0512425918204158 0.0251023819181988 0.1134767 -0.4764953 0.871823 119 119 119
0.069677444649971 -0.0499354619604915 0.025208090755708 0.1572595 -0.4642691 0.8716213 103 103 103
-0.103454248504602 0.0122438650506169 0.0846004833910534 -0.3338702 -0.3198619 0.88669 218 218 218
0.0759242200386886 -0.0504159946066707 0.0237184812758038 0.1726815 -0.4496887 0.8763339 57 57 57
0.0636709355843429 -0.0478212852103084 0.0272262742254803 0.09067063 -0.4782532 0.8735288 56 56 56
0.0651845806372528 -0.0489745158774226 0.0266256084177563 0.08983565 -0.4780416 0.873731 18 18 18
0.0644397758973007 -0.043640734635052 0.0293886115286419 0.1329551 -0.4493141 0.8834251 50 50 50
0.0344552719128494 -0.0178366918188899 0.0493302395079205 0.1963845 -0.4133052 0.8891636 94 94 94
0.0573921376002197 -0.043416501961407 0.0304297556612561 0.1487933 -0.4809554 0.8640269 87 87 87
0.0589618259203796 -0.0377783794028133 0.0333769371244976 0.1485075 -0.4916018 0.8580636 93 93 93
0.0660615288746719 -0.0410698670965999 0.0304938306543896 0.1760656 -0.4445725 0.8782689 52 52 52
0.0677914046776657 -0.0396163482291072 0.0307581176493237 0.1982899 -0.4374503 0.8771079 36 36 36
0.0735216164124374 -0.0470523852927058 0.0260249724123547 0.1805966 -0.4314821 0.8838598 47 47 47
0.0730891549122696 -0.0451784152609676 0.0270100583765576 0.1751631 -0.3942379 0.9021609 81 81 81
0.0812580012810592 -0.0454186219794124 0.0258808185789654 0.1100406 -0.397258 0.9110857 72 72 72
0.0745307081473236 -0.0422952193838924 0.0278028895590374 0.1567746 -0.4016577 0.9022709 59 59 59
0.0750112258923416 -0.0408056993109553 0.0283074726793835 0.1600448 -0.4159327 0.8952014 56 56 56
0.0797683918011551 -0.0415023583990901 0.0274905612204144 0.1255255 -0.3749897 0.9184912 17 17 17
0.0586494975817566 -0.0353037137610286 0.0347944845888684 0.1508304 -0.5010626 0.8521658 61 61 61
0.0620531910193328 -0.0328450221640437 0.0355553080771038 0.1825739 -0.4555133 0.8713061 28 28 28
0.0638631456625824 -0.0369133967978328 0.0328483631346295 0.1749226 -0.4755177 0.8621398 87 87 87
0.0630943202507858 -0.0350394267660945 0.0343379726145336 0.1775599 -0.4853927 0.8560762 77 77 77
0.0713913166058426 -0.0367852468115657 0.0313747575018475 0.216798 -0.455245 0.8635685 87 87 87
0.0728969448340301 -0.0332614202124446 0.0325120141241619 0.223605 -0.4459807 0.8666614 32 32 32
0.0712872021925811 -0.0312432069403499 0.0343619932863781 0.226308 -0.4567387 0.8603339 86 86 86
-0.0542168668377037 -0.0154662150961726 0.0664528062079022 0.2433138 -0.2623663 0.9337892 66 66 66
0.0778302871716385 -0.0353837031943172 0.0306299676630566 0.1687528 -0.4281423 0.8878157 41 41 41
0.0799285643828277 -0.0330051202399104 0.0312466373179028 0.159116 -0.4298169 0.8887854 54 54 54
0.074722918225563 -0.0292731542212337 0.0342418899271557 0.2231126 -0.4516795 0.8638324 92 92 92
0.0728008323443298 -0.0277354735953181 0.0355873455736706 0.2272712 -0.4142347 0.8813384 139 139 139
0.079739558054245 -0.0291385669333308 0.033069406959779 0.177783 -0.3992412 0.8994441 104 104 104
0.0588657283318405 -0.0322042722327083 0.0368847300741741 0.1544092 -0.4457142 0.8817577 122 122 122
0.0595144354832534 -0.0291049499136775 0.0379659285280773 0.1373996 -0.3949415 0.9083736 148 148 148
0.0618609809410934 -0.0270627755743831 0.0384224107000897 0.1556129 -0.4049289 0.901009 132 132 132
0.0615566545260315 -0.0255731362921565 0.0394314875338146 0.1528282 -0.384448 0.9104083 157 157 157
0.0646800273192291 -0.0272549409491389 0.0378457953665325 0.1915237 -0.4048282 0.8941101 66 66 66
0.0686683529150848 -0.027110816918072 0.0367886473867962 0.2127727 -0.3806411 0.8999112 108 108 108
0.0719358944428329 -0.0269666928870052 0.0362840940687725 0.2117548 -0.3821394 0.8995162 92 92 92
0.0828437232506637 -0.0495030898672908 0.0237184812758038 0.02674321 -0.4740512 0.8800911 130 130 130
0.0856307470333938 -0.0488302726370662 0.0235743274424145 0.07357454 -0.4143391 0.9071438 131 131 131
0.0868801050913696 -0.0482056159598201 0.023958717796571 0.1060003 -0.395486 0.9123348 126 126 126
0.0878219180834655 -0.0473887939078181 0.0241701652739117 0.1266276 -0.3806498 0.9160083 138 138 138
0.0860632085335617 -0.0441212672812312 0.0251600196096966 0.1227095 -0.3473703 0.9296646 80 80 80
0.0900395237934951 -0.045430662117657 0.0245713939402172 0.1517098 -0.3763762 0.9139612 150 150 150
0.0925021940005188 -0.0433043260199397 0.0250398864481518 0.1912219 -0.3542617 0.9153867 138 138 138
0.0831800871622924 -0.0398926753622859 0.0274665405485699 0.1437584 -0.381239 0.9132307 24 24 24
0.0821709954274063 -0.0370895881277888 0.0288600375387738 0.1346683 -0.4074047 0.903264 28 28 28
0.0881775044930343 -0.0421510953528255 0.0259048392508099 0.117738 -0.3722431 0.9206372 132 132 132
0.0980522208941345 -0.040877701721844 0.0244152297709057 0.2434963 -0.3506518 0.9042969 171 171 171
0.0951690846217041 -0.0391718167883723 0.0254483570787976 0.2332633 -0.3203363 0.9181355 147 147 147
-0.114650384979212 -0.0119262952429622 -0.00131666162275579 -0.6838346 -0.4672811 -0.5603736 44 44 44
0.0982444160712127 -0.0375741738898128 0.0254002859327862 0.2250234 -0.3173156 0.9212357 154 154 154
0.101295726848877 -0.0390757341009944 0.0248236705992291 0.2418179 -0.3414424 0.9082627 170 170 170
0.0894749187958603 -0.0355680007559627 0.0287639548513958 0.1962762 -0.3633851 0.9107288 145 145 145
0.0859991484415893 -0.0295454282385677 0.032399867985017 0.240723 -0.3021362 0.9223698 150 150 150
0.082026841594017 -0.0249484796149104 0.0341697981092999 0.2763034 -0.2863896 0.917408 99 99 99
0.0876008891594772 -0.0285042543036311 0.0319353689882824 0.2907512 -0.2400251 0.9262028 144 144 144
0.0879852944147949 -0.024708153687176 0.0324799766275952 0.322604 -0.175534 0.9301153 60 60 60
0.0996042960417633 -0.0350297708136409 0.026053821060426 0.234474 -0.3128532 0.9204047 167 167 167
0.0950649702084427 -0.0333575028998225 0.0279470731947491 0.2539472 -0.3440064 0.9039748 88 88 88
0.0968268835080032 -0.0331172961813777 0.0275626232359478 0.2724639 -0.3265193 0.9050683 79 79 79
