ply
format ascii 1.0
comment File exported by Rhinoceros Version 7.0
element vertex 469
property float x
property float y
property float z
property float nx
property float ny
property float nz
property uchar red
property uchar green
property uchar blue
end_header
0.0344444287941339 -0.0344783792478927 -0.00659876566112771 0.4037296 -0.5515915 -0.7298968 78 78 78
0.033741690032232 -0.0368001589758284 -0.0050407151478602 0.4287045 -0.6538405 -0.6234621 27 27 27
0.0345482600853326 -0.0359478125555404 -0.00534316401661172 0.463626 -0.6213549 -0.63164 64 64 64
0.0375727189705255 -0.0334457883818038 -0.00568226974190011 0.5821698 -0.5324282 -0.6144904 79 79 79
0.034419990889776 -0.0375425348265059 -0.00345517199219003 0.4940594 -0.6840224 -0.5366736 101 101 101
0.0356205476448419 -0.0373042354566939 -0.00197045009315744 0.5697948 -0.6988461 -0.4323749 77 77 77
0.0341999305412652 -0.0363877544386275 -0.0041242192286326 0.4857415 -0.6725665 -0.5583094 112 112 112
0.0356205476448419 -0.0368001589758284 -0.00339102249325052 0.5207289 -0.6913369 -0.5008939 88 88 88
-0.00520934928203798 -0.0246565470678695 -0.0029786030548884 -0.8726012 -0.4572437 0.1717419 86 86 86
-0.00213911402965761 -0.000552667139280594 0.0447250803214239 -0.6814601 -0.4269526 0.5944104 203 203 203
0.0218273175880792 0.0353739728944413 -0.00577391188324228 0.8557346 0.3489239 0.3820608 171 171 171
-0.0341936575248358 0.00950585508514568 0.000297879169576021 -0.5583271 -0.8064599 0.194662 197 197 197
-0.0108916984870551 0.0614483227746598 0.00581977267085776 -0.3963399 0.7965845 0.4564733 27 27 27
0.000530101172673936 0.0509430041329972 0.0340707947713064 0.5914134 0.6581571 0.4658964 87 87 87
-0.0171238409354804 -0.0105425248129256 -0.0134266639846636 -0.6926535 -0.7187989 0.05965941 191 191 191
0.0195971501991632 -0.0476911792738326 0.0104939093094991 -0.6923625 -0.6656937 0.278363 137 137 137
-0.00823380816723085 -0.0185160169584639 -0.00316190223873392 -0.8480346 -0.4814318 0.2214964 104 104 104
-0.0167687164619086 -0.0100842843038924 -0.0195442835587336 -0.7921044 -0.609067 -0.0401017 58 58 58
0.0267305148765924 -0.0178286561949141 -0.0285030404824091 0.5875791 -0.5725767 -0.5717576 53 53 53
-0.00555314887310243 -0.0153769979460128 0.0183070500594305 -0.7948096 -0.5341097 0.2881051 156 156 156
-0.0340790973975775 0.0387650599496476 0.00485745568095908 -0.4526121 0.7131281 0.5353415 42 42 42
0.0137163175270441 -0.0329050550444014 -0.0277698437470271 0.5818508 -0.5766917 -0.5734774 44 44 44
0.0201775802299859 0.0166087021844499 0.0205410172444509 0.8437335 0.403872 0.353555 227 227 227
-0.007936023361933 -0.0298118720037825 -0.0360412324565722 -0.9107774 -0.40453 0.08270442 76 76 76
-0.0129537807777045 0.0592487325685136 0.00856927532970175 -0.5763224 0.6660588 0.4735167 33 33 33
0.00411591660236144 -0.0198793539984115 -0.0474058042067362 0.369309 -0.6365618 -0.6770524 26 26 26
-0.0164823757484076 0.00609187984634563 0.0224083711606191 -0.7113133 -0.6436335 0.2824346 192 192 192
0.00230584274982237 0.0322731604592912 0.0524236609440969 0.5935055 0.4234962 0.6843991 32 32 32
0.00688836704944396 0.0250633826272599 0.0439918835860418 0.916109 0.3564468 0.1835485 34 34 34
-0.0177196489646552 0.00925384664703532 0.0265326102477239 -0.750626 -0.6173115 0.235557 78 78 78
-0.0455352293326972 0.0230929126756303 -0.00696536402881875 -0.9111722 -0.3558635 0.207669 104 104 104
0.0259057058021905 0.00691674852539226 0.0133808751803564 0.9591891 0.2615694 0.1074143 43 43 43
-0.0200337396934149 -0.00538719987701253 -0.00391801696003213 -0.5233032 -0.7570482 0.3911927 165 165 165
-0.0103875624015448 -0.0258022079450972 -0.0509572277563883 -0.7421893 -0.4428968 -0.5029886 90 90 90
-0.00690498221660829 -0.0280476341230758 -0.0512779976028277 -0.1312245 -0.5600596 -0.8179935 55 55 55
-0.00406374800945497 -0.024198366163481 -0.0505677114027812 0.1152263 -0.2548392 -0.9600937 28 28 28
-0.0016350971534369 -0.0229151973707564 -0.0491242284673525 0.5739728 -0.5098295 -0.6408035 29 29 29
0.0399921907112482 0.000152992250215256 -0.0351476470726801 0.6226561 -0.6649948 -0.4124092 42 42 42
-0.0133203493430731 -0.0191576013548262 -0.0338187317150904 -0.9052579 -0.4177119 0.07762016 81 81 81
-0.00846292842174745 -0.030247224329222 -0.0462372625964953 -0.6209928 -0.6765909 -0.3957179 51 51 51
-0.00418593753124452 -0.029269588945616 -0.0471079374450518 0.2164117 -0.6811574 -0.6994216 70 70 70
-0.00385751593853212 -0.0301097164137252 -0.0459164927500559 0.313892 -0.672852 -0.6698821 69 69 69
-0.0082644449546454 -0.0290557274801619 -0.0438238258260562 -0.7944129 -0.5762507 -0.1919465 53 53 53
-0.0105709062888739 -0.0244503746015914 -0.0478869627016856 -0.8396854 -0.4556899 -0.2954236 109 109 109
-0.0110979305579779 -0.0232818255407699 -0.0476578349965884 -0.8899582 -0.3803571 -0.2516007 112 112 112
-0.00980713237072206 -0.0258480439169295 -0.0435641507405116 -0.9156249 -0.4014055 0.0224636 90 90 90
-0.0115332828834174 -0.0225027928335555 -0.0445417488712145 -0.9312246 -0.3632113 -0.02996944 163 163 163
-0.00919618476177431 -0.026901973245848 -0.0441751505035235 -0.8997993 -0.4362983 -0.002226892 70 70 70
-0.00882961619640565 -0.0281392464620955 -0.0433502967256381 -0.8775951 -0.4734444 -0.07534802 51 51 51
-0.00665285456920839 -0.0323551425917037 -0.0379658738869502 -0.7838817 -0.6192908 -0.04481518 76 76 76
-0.00791313517833925 -0.0300027856809981 -0.0373930658000781 -0.9227722 -0.3817263 0.05269161 61 61 61
-0.00937940943981386 -0.025893820284117 -0.0408757577437235 -0.8949522 -0.4460222 -0.01116739 50 50 50
-0.0117393957450507 -0.0233505496961959 -0.0399592618244959 -0.8709856 -0.4883822 -0.05354387 55 55 55
-0.0108000265433905 -0.0227777490599044 -0.0427087495821787 -0.9251623 -0.3777877 -0.03675855 86 86 86
-0.010647319443476 -0.0243969092352279 -0.0398065100210978 -0.8708917 -0.4902528 -0.03463871 56 56 56
-0.0123237596824286 -0.0218841562254317 -0.0415631334084345 -0.9128869 -0.3970821 -0.09467511 73 73 73
-0.00942530501629091 -0.026489568708647 -0.0388594592708422 -0.8954366 -0.4449096 -0.01576685 47 47 47
-0.0110750423743842 -0.0238317379934676 -0.0370722959536387 -0.8647651 -0.5021564 0.004503198 58 58 58
-0.00887539256359315 -0.0273144373876937 -0.0417006040710284 -0.9284891 -0.3704039 0.02662815 47 47 47
-0.00887539256359315 -0.0272686014158614 -0.0383553902405573 -0.9114031 -0.4115146 -0.000379777 46 46 46
-0.011762403137934 -0.0209447870237716 -0.0474745358127429 -0.9470186 -0.270867 -0.1725889 90 90 90
-0.0123580919578192 -0.0203490385992415 -0.0439460227984263 -0.9659673 -0.2106777 -0.1500738 118 118 118
-0.0111208187415717 -0.0223195085508712 -0.0456873650449587 -0.9494302 -0.3139257 -0.005732897 155 155 155
0.0259057058021905 -0.00818247890304402 0.0304735501509832 0.9438513 -0.02862781 0.3291279 72 72 72
-0.0116890894248602 -0.0158948430998214 -0.0442851285237147 -0.9732887 -0.1134423 -0.1995993 62 62 62
-0.0124497639014838 -0.0144147405607589 -0.0429837058085276 -0.9698955 -0.06307296 -0.2352117 57 57 57
-0.0131829010322211 -0.0184702405912764 -0.0423421512144877 -0.9639083 -0.1820813 -0.1942352 66 66 66
-0.0123580919578192 -0.0175536999685653 -0.0424796293276621 -0.9730742 -0.1376594 -0.184869 66 66 66
-0.0133937822654364 -0.0195425281507857 -0.0396568129557444 -0.9550304 -0.2412942 -0.1723196 97 97 97
-0.0132057892158148 -0.020188642500151 -0.0375305439132525 -0.9290301 -0.3661233 -0.05345034 54 54 54
-0.0139161573722479 -0.0138877162916549 -0.0375992755192591 -0.9724822 -0.08375872 -0.2174002 128 128 128
-0.0129996763541815 -0.0115965137464888 -0.0391344154971911 -0.9510848 -0.1727373 -0.256124 121 121 121
-0.00649251807476259 -0.0323551425917037 -0.0349185268181635 -0.8344111 -0.5448417 0.08309969 87 87 87
-0.00806202758098817 -0.0297889838201888 -0.033520864953406 -0.8827751 -0.4622547 0.08383765 144 144 144
-0.00658419001842714 -0.0316219458563216 -0.0335896040099932 -0.8621412 -0.4928504 0.1175204 80 80 80
-0.00452198851848817 -0.0340964922888167 -0.0318482617634608 -0.7913872 -0.6109938 -0.01982222 75 75 75
-0.00717987883831239 -0.0311178693754561 -0.0315733129876925 -0.8716616 -0.4854467 0.06743491 112 112 112
-0.0076533781364081 -0.0297278294546492 -0.031069236506827 -0.8854678 -0.4590567 0.07220559 121 121 121
-0.00967278350139833 -0.0256830582601912 -0.035871679593928 -0.8756479 -0.4824004 0.02303345 63 63 63
-0.0124038683250067 -0.0225486288053878 -0.0361099715131594 -0.8741471 -0.4818745 0.06052988 111 111 111
-0.0106166826560614 -0.0241983065588363 -0.0347810487049891 -0.8700111 -0.4857809 0.08424693 80 80 80
-0.0113041626289008 -0.023602617738951 -0.0345519284504725 -0.8720761 -0.4815501 0.08713687 130 130 130
-0.00953986514354921 -0.0253897438032515 -0.0322606812018229 -0.8849688 -0.4417565 0.1472463 77 77 77
-0.00915028918529726 -0.0270394811613448 -0.0362932706970049 -0.8848633 -0.4648531 0.03047016 72 72 72
-0.0087837206199286 -0.0282538661939986 -0.0341395015615298 -0.8881686 -0.4569214 0.04877938 185 185 185
-0.00433876384044862 -0.0339132080061324 -0.0302443901795222 -0.8874993 -0.4608056 0.00175184 55 55 55
-0.00754644740368104 -0.0301250348074324 -0.028060066213019 -0.9031698 -0.4241017 0.06649835 56 56 56
-0.00621750224376894 -0.0327675471289046 -0.0272657747167422 -0.8996237 -0.4366575 0.002723661 88 88 88
-0.00580515731121278 -0.0329966673834212 -0.0272657747167422 -0.8996237 -0.4366575 0.002723661 84 84 84
-0.00614883769298769 -0.0319656858427413 -0.025638992597468 -0.919441 -0.3877136 0.06562307 75 75 75
-0.0105480181052802 -0.0238546857817061 -0.0303360323208643 -0.8670942 -0.4660586 0.1758892 73 73 73
-0.00917329657818056 -0.024748219011534 -0.0278614933389498 -0.9036757 -0.3873497 0.1825661 100 100 100
-0.0087379442527411 -0.0263978967649825 -0.0309775869149043 -0.9061231 -0.3977549 0.1439858 81 81 81
-0.00745477546001649 -0.0278948674185164 -0.0256771768230273 -0.9271829 -0.3399846 0.1572967 76 76 76
-0.00841715205455995 -0.0245649347288497 -0.0257535527247263 -0.9064696 -0.3904544 0.1608046 78 78 78
-0.0151075350120184 -0.0140481123907454 -0.0340020308989359 -0.9766883 -0.1253082 -0.1742922 73 73 73
-0.0151534305884955 -0.0152624974233992 -0.0330855275291277 -0.9708074 -0.2355042 -0.04550627 88 88 88
-0.0156116710975287 -0.0142543444616683 -0.0316649625796153 -0.9756966 -0.2000864 -0.08933984 85 85 85
-0.0151534305884955 -0.0125588307363875 -0.0331313560503794 -0.9747465 -0.1683975 -0.1466684 62 62 62
-0.0157948957755683 -0.0125129947645553 -0.0311608860987498 -0.9773594 -0.1766784 -0.1164194 82 82 82
-0.0161615835502265 -0.01132155752014 -0.0288696463006808 -0.9527334 -0.28749 -0.09822723 36 36 36
-0.0164135919883368 -0.0119630823118575 -0.0254098648923708 -0.9215259 -0.3870528 0.03130642 69 69 69
-0.0123886095359442 -0.0214335451109298 -0.0336201513904406 -0.8752958 -0.4693339 0.1165461 79 79 79
-0.0139161573722479 -0.0182640085203536 -0.0360183219212367 -0.9472778 -0.3179185 -0.03990645 52 52 52
-0.0140307174995062 -0.0176912078840621 -0.033681253601916 -0.9294295 -0.3669524 0.03881695 62 62 62
-0.0148784147575018 -0.0143001804335006 -0.0350559974807574 -0.9778791 -0.1053712 -0.1806915 75 75 75
-0.0150159822776434 -0.0148500332815535 -0.0348268772262408 -0.9817634 -0.1321008 -0.1367113 69 69 69
-0.0139161573722479 -0.01191730594467 -0.0364765698808505 -0.9436716 -0.2084377 -0.2569776 139 139 139
-0.0129537807777045 -0.0198449621183761 -0.0291445950764491 -0.8515534 -0.497368 0.1657765 54 54 54
-0.0105021225288031 -0.0223195085508712 -0.0293278942602946 -0.8592038 -0.472842 0.1954208 70 70 70
-0.0125872122123358 -0.0190659294111617 -0.0289612958926035 -0.8446396 -0.5100394 0.1626154 73 73 73
-0.0132974611594794 -0.0179432163221724 -0.0279760609167887 -0.8373357 -0.5297043 0.135212 82 82 82
-0.0110979305579779 -0.0214259157163985 -0.028090621044047 -0.8535544 -0.4835113 0.1940662 59 59 59
-0.0100209938361762 -0.0224111804945357 -0.0271741251248194 -0.8568769 -0.4721741 0.2069146 70 70 70
-0.011853955872309 -0.0195700058920272 -0.0281364421147181 -0.8405548 -0.5088995 0.1857119 79 79 79
-0.0124038683250067 -0.0183785686476119 -0.027403245379336 -0.8355608 -0.5239394 0.1653046 80 80 80
-0.0146492945029852 -0.0153082737905867 -0.0273574243086649 -0.8818951 -0.463759 0.08478595 86 86 86
0.0354602111503961 -0.0217925438864119 -0.0150076250332667 0.6024743 -0.4655135 -0.6483223 50 50 50
-0.0272511469199774 0.000547098161470139 -0.0258452023166491 -0.5858883 -0.8102718 -0.01394658 55 55 55
-0.028625868447077 0.00187604332138225 -0.0316649625796153 -0.6271229 -0.7755857 -0.07199829 92 92 92
-0.0309629665687201 0.00384651327301189 -0.0288238177794291 -0.7272407 -0.681488 -0.08182348 37 37 37
-0.0297165142371771 0.00282918119598552 -0.0254694397348239 -0.6652606 -0.7402893 -0.09695373 72 72 72
-0.0279385076835272 0.00114278698135539 -0.0274261633652522 -0.5959761 -0.8017163 -0.04542534 40 40 40
-0.028534315712702 0.00221972370315715 -0.0255702535408808 -0.5995894 -0.7999229 -0.024817 58 58 58
-0.0356217848136542 0.00983427667785808 -0.0274796212810351 -0.7180754 -0.6524119 -0.2423355 37 37 37
-0.0367827640845892 0.0107202401177995 -0.0260285015004946 -0.6888071 -0.6691945 -0.2787894 50 50 50
-0.0369659887626288 0.011361764909517 -0.0262118006843401 -0.681168 -0.6782848 -0.2755718 43 43 43
-0.0165739284827826 -0.00637246465514973 -0.037713843097098 -0.7928016 -0.6059505 -0.0654958 140 140 140
-0.0154742227866767 -0.00809092616866902 -0.0376221935051753 -0.8809466 -0.4306554 -0.1961349 125 125 125
-0.0140078293159125 -0.0104966888410933 -0.0386303390163256 -0.9366238 -0.2641589 -0.2301216 141 141 141
-0.0133662449195502 -0.0106570253355391 -0.0391115049618556 -0.9469303 -0.1957566 -0.2549555 110 110 110
-0.0161156879737494 -0.00758679008315877 -0.035972493399985 -0.8257452 -0.5567476 -0.09042648 140 140 140
-0.0157720075919745 -0.00836582279037312 -0.0340707699555232 -0.8786479 -0.4510736 -0.1565581 117 117 117
-0.015726231224787 -0.00804503059219197 -0.031917000820048 -0.8623906 -0.4784497 -0.1654334 51 51 51
-0.0221646057441351 -0.00167543983291463 -0.0336354325312449 -0.6053774 -0.784523 -0.1343202 48 48 48
-0.026529453881037 0.000501262189637863 -0.031756612171538 -0.5698214 -0.8186217 -0.07184791 63 63 63
-0.0194151626899359 -0.00293560123275594 -0.0364307488101794 -0.6977202 -0.7121601 -0.07755302 57 57 57
-0.0192775951697943 -0.00421871042083577 -0.0339103813070132 -0.7134608 -0.6931754 -0.1023788 47 47 47
-0.0181778894736884 -0.00444783067535237 -0.0327189291614367 -0.7353911 -0.6693786 -0.105509 39 39 39
-0.0205607639625189 -0.00231696462463216 -0.0334979544180705 -0.6444837 -0.755766 -0.1160102 35 35 35
-0.0179181324317572 -0.00614334440063313 -0.0296792114871813 -0.7750959 -0.6134077 -0.151517 53 53 53
-0.0183611141517279 -0.00618918037246541 -0.0275865445631815 -0.7768921 -0.6023431 -0.1833616 56 56 56
-0.0186361299827216 -0.00637246465514973 -0.0263492787975146 -0.7801065 -0.6060183 -0.1554853 20 20 20
-0.0238601194694159 -0.00201906061004475 -0.0289154673713519 -0.5842915 -0.8065431 -0.0899546 24 24 24
-0.00233390200878358 -0.0222851762754805 0.0109407057267354 -0.8102543 -0.5452046 0.2150348 114 114 114
-0.0227374063804267 -0.00236280059646443 -0.0274261633652522 -0.630816 -0.7677644 -0.1122895 37 37 37
-0.0150617586448309 -0.00912196731399373 -0.0362932706970049 -0.9096177 -0.3530431 -0.2189891 127 127 127
-0.00591971743847108 -0.0319427380545028 -0.0237372617024256 -0.9240158 -0.3646179 0.1151027 80 80 80
-0.00658419001842714 -0.0302930006964095 -0.0248828778761698 -0.9301088 -0.3453839 0.1249298 133 133 133
-0.00699653495098329 -0.0299264321310408 -0.0239205608862711 -0.9367124 -0.3155983 0.151551 199 199 199
-0.00507190097118593 -0.0331800112707503 -0.0207128177183939 -0.913713 -0.3578457 0.1925485 91 91 91
-0.00546910632396913 -0.0313011536581405 -0.0198726977008654 -0.9208729 -0.3266738 0.2127848 74 74 74
-0.00600375998760438 -0.0294681916220076 -0.0198879713910891 -0.9224902 -0.3302904 0.1997998 58 58 58
-0.00640084613109804 -0.0283454785330184 -0.0199108819264247 -0.9228422 -0.3328732 0.193798 58 58 58
-0.0078672396018622 -0.0256800184233077 -0.0239205608862711 -0.9184079 -0.3632084 0.1568651 76 76 76
-0.00910451281810976 -0.0232970843298324 -0.0238289112943484 -0.8915096 -0.4233447 0.161214 63 63 63
-0.00887539256359315 -0.0227319130880721 -0.0207128177183939 -0.8920299 -0.4269935 0.1481861 68 68 68
-0.00452198851848817 -0.0319427380545028 -0.0180091510313822 -0.917214 -0.3351114 0.2154502 85 85 85
-0.00397207606579042 -0.0319427380545028 -0.0163594583767726 -0.9011 -0.3647644 0.2344476 98 98 98
-0.00459077227855897 -0.0298118720037825 -0.0144118989604785 -0.9077423 -0.3674776 0.2023961 80 80 80
-0.00502612460399843 -0.0291015634519942 -0.0141140396493746 -0.905678 -0.3763369 0.1952382 74 74 74
-0.00630917418743349 -0.0277955660803206 -0.0182382712858988 -0.9102718 -0.3600228 0.2044232 72 72 72
-0.00800468791271425 -0.0238928327543624 -0.0181924502152278 -0.9019314 -0.3955117 0.1734654 61 61 61
-0.00623288024212099 -0.025756371973265 -0.0152443821328951 -0.9044298 -0.3876467 0.1781482 78 78 78
-0.00546910632396913 -0.0273755321485885 -0.0136710653799845 -0.9027478 -0.3903539 0.1807492 76 76 76
-0.00800468791271425 -0.023602617738951 -0.0164511079686953 -0.8940009 -0.4271564 0.1352762 75 75 75
-0.00665285456920839 -0.0245878229124434 -0.0141827712553813 -0.8941846 -0.4105957 0.1784515 97 97 97
-0.0154130684211371 -0.013689173219908 -0.0239205534356906 -0.8841955 -0.4558177 0.1021203 60 60 60
-0.0154742227866767 -0.013062907217253 -0.0226374591487719 -0.876362 -0.4786255 0.05391858 53 53 53
-0.0160240160300849 -0.0108174810392745 -0.020025442053683 -0.7992005 -0.6010339 -0.006074456 51 51 51
-0.0161156879737494 -0.0116226801855452 -0.0131451661485507 -0.6888412 -0.7190596 0.09192973 178 178 178
-0.0115790592506049 -0.0199366340620406 -0.0246995786923243 -0.8348656 -0.5206339 0.1787166 53 53 53
-0.0103417860343573 -0.0207614431364425 -0.0239663819569422 -0.8494309 -0.4922558 0.1901353 73 73 73
0.0337784064934137 -0.0333174595816024 -0.00753359000862375 0.3531717 -0.5194546 -0.7780981 78 78 78
-0.00974609721447206 -0.0213571915609725 -0.0231415356296374 -0.8675743 -0.4689096 0.1656458 67 67 67
-0.0115790592506049 -0.0176636705381759 -0.0195580298799349 -0.8260527 -0.5438278 0.1479471 96 96 96
-0.00887539256359315 -0.0221362242681868 -0.0216751421588732 -0.8803754 -0.4517117 0.1445536 77 77 77
-0.0139047132804511 -0.0139564404470809 -0.0197046722072436 -0.8043414 -0.5835618 0.1117614 59 59 59
-0.0110062586143134 -0.0179890522940047 -0.0156720827120616 -0.822028 -0.5614645 0.09501359 72 72 72
-0.00936415065075136 -0.0194630751593001 -0.0159623051780535 -0.8441385 -0.5226592 0.1194046 93 93 93
-0.0102501140906928 -0.0183785686476119 -0.0164052794474436 -0.8333997 -0.5393211 0.1207382 69 69 69
-0.00841715205455995 -0.0220598111135848 -0.0175356293815447 -0.8752207 -0.4597582 0.1503699 88 88 88
-0.0143743978812811 -0.0128337869627364 -0.0183757493990733 -0.7875993 -0.6134099 0.05844454 43 43 43
-0.0126177297904608 -0.0155679712278731 -0.0156720827120616 -0.7961879 -0.601261 0.06760256 113 113 113
-0.0129996763541815 -0.0149417052252181 -0.0149847070473506 -0.782286 -0.6210029 0.04882607 95 95 95
-0.00349857676769472 -0.0301555523855574 -0.00968429695547357 -0.8854665 -0.4266436 0.1841855 167 167 167
-0.00493445266033388 -0.0281392464620955 -0.0114103729623629 -0.9062127 -0.3816525 0.1819887 84 84 84
-0.00479700434948183 -0.0263291726095565 -0.00966903071583047 -0.9001279 -0.3975557 0.1780986 172 172 172
-0.00637032855297304 -0.0232359895689376 -0.00969957064569726 -0.8659866 -0.4712174 0.1673958 132 132 132
-0.00516357291485048 -0.0251148471815474 -0.00774438183487192 -0.8888846 -0.4306732 0.1562202 170 170 170
-0.00564470160747743 -0.0239577422125228 -0.00793914001167551 -0.8752381 -0.4590894 0.1523 178 178 178
-0.00557603705669618 -0.0232359895689376 -0.00499489407718912 -0.8718338 -0.4706812 0.1355177 197 197 197
-0.00359787810589052 -0.027535928247679 -0.00413184862316385 -0.8689271 -0.4597756 0.1832268 118 118 118
-0.00438454020763612 -0.025825096128691 -0.00406693916500345 -0.8768862 -0.4518884 0.1639131 111 111 111
-0.0158636795356391 -0.0105883607847579 -0.00994397204101816 -0.671504 -0.7152075 0.1938054 137 137 137
-0.00979187358165956 -0.0186076889021285 -0.0134724925059153 -0.8250313 -0.5536308 0.1132093 80 80 80
-0.0114873873069403 -0.0168205032331832 -0.0116853217381312 -0.7982734 -0.5909993 0.1161009 88 88 88
-0.0087837206199286 -0.0205552110655196 -0.0131746331948115 -0.8561905 -0.4976368 0.138908 63 63 63
-0.00892116893078065 -0.0192950496656783 -0.00948572408140436 -0.8267257 -0.5438232 0.1441558 109 109 109
-0.00892116893078065 -0.0189284811003096 -0.00861505668342843 -0.8304958 -0.5334271 0.1604125 127 127 127
-0.012908004410517 -0.0148041973097213 -0.0135641420978381 -0.7880466 -0.6115496 0.07063726 86 86 86
-0.0123123155906317 -0.015354109762419 -0.0110437745946719 -0.7849209 -0.5998986 0.1549863 205 205 205
-0.0136870371177313 -0.0123296508772262 -0.00845466803491846 -0.6986345 -0.6765333 0.2328359 188 188 188
-0.0124955402686713 -0.0134065875990279 -0.00843175749958291 -0.7667066 -0.5930789 0.2458017 134 134 134
-0.0080505834891913 -0.0196158418638595 -0.00560588638962045 -0.8379502 -0.517341 0.1737752 78 78 78
-0.0075923429801581 -0.0204253921491988 -0.00358959536731973 -0.8440059 -0.5003924 0.1930321 119 119 119
-0.00626339782024599 -0.0220445523245223 -0.0033222834366633 -0.8631418 -0.4747712 0.1719842 105 105 105
-0.00593116153026796 -0.0217924842817672 -0.00194754700840249 -0.8617715 -0.4615548 0.210516 101 101 101
-0.0100668894126532 -0.0148041973097213 -0.00444499652565256 -0.8356231 -0.5038906 0.2186969 193 193 193
-0.0136870371177313 -0.0110466012937911 -0.00444499652565256 -0.6855229 -0.6599072 0.3075402 128 128 128
-0.0120258556678412 -0.0117568502409346 -0.00321918230236307 -0.7693877 -0.5904565 0.2437288 119 119 119
-0.0399217830970404 0.0120949616448991 -0.023210267235644 -0.6927949 -0.6899594 -0.2097408 34 34 34
-0.0392801987006781 0.0105368962304704 -0.0205066005486323 -0.6968715 -0.6924288 -0.186849 33 33 33
-0.0414797293021796 0.0124615898149125 -0.0195901046294047 -0.7101297 -0.6947645 -0.1140967 140 140 140
-0.0388448463752387 0.00984953546692058 -0.0169551769989802 -0.6922542 -0.7215185 0.01396755 173 173 173
-0.0403570162131903 0.0114534368531816 -0.0160386810797526 -0.7148334 -0.6986212 0.03068602 98 98 98
-0.032360695488703 0.00430475378204509 -0.0232102746862246 -0.6704916 -0.731199 -0.1256547 44 44 44
-0.0354080425574896 0.00687091255355998 -0.0208961169022395 -0.6761498 -0.7262508 -0.124021 40 40 40
-0.0288092123344061 0.0015552511232011 -0.0226832876700236 -0.582383 -0.8128127 -0.01286681 90 90 90
-0.0299548136069892 0.00205932760406657 -0.0220417405265643 -0.6255934 -0.7797182 -0.02593179 102 102 102
-0.0313295351340888 0.00329660082031413 -0.0210335950154139 -0.613858 -0.7892237 -0.01744492 97 97 97
-0.0365077482535956 0.0090017786042802 -0.0227749298113658 -0.6875389 -0.6824664 -0.2480519 33 33 33
-0.0356600509956 0.00675635242630168 -0.0181695322293116 -0.6324824 -0.7738817 0.03275975 120 120 120
-0.0342929588630316 0.00680987739730998 -0.0135335872668101 -0.602953 -0.7896489 0.1135885 105 105 105
-0.030161045677912 0.00350277328659221 -0.0156262616413905 -0.6200207 -0.7822973 0.05987734 193 193 193
-0.0302183853461859 0.00414435768295451 -0.0135297725695445 -0.6446641 -0.76434 0.01387593 156 156 156
-0.0355912672355292 0.00714586877990886 -0.0157179112333132 -0.6121162 -0.7868903 0.07821422 134 134 134
-0.0348581301047919 0.00700842046905681 -0.0153971339362933 -0.5937187 -0.7971323 0.1099015 125 125 125
-0.0271136986091254 0.000867890359651291 -0.0131058941382243 -0.7168495 -0.6942453 -0.06442259 117 117 117
-0.0380200373008368 0.0099870433824174 -0.0133121038574053 -0.6590797 -0.7424436 0.1199643 77 77 77
-0.0377778040244696 0.0102619996087663 -0.00990469258011117 -0.6461447 -0.753666 0.120352 95 95 95
-0.0396926628425238 0.0121407976167314 -0.00781312089145914 -0.711357 -0.6935354 0.1139288 82 82 82
-0.0398529993369696 0.0126448740975968 -0.00533857445896402 -0.725498 -0.6799559 0.1063604 182 182 182
-0.0338728653266547 0.00687091255355998 -0.0118686209219767 -0.6376943 -0.7657412 0.08358426 130 130 130
-0.0298326240851996 0.00351046228576823 -0.0120671937960459 -0.6787957 -0.7338338 -0.0269138 153 153 153
-0.0294507967307684 0.00283836031128093 -0.0131058941382243 -0.6813164 -0.7308058 -0.04160269 153 153 153
-0.0288549887015936 0.0027008523957841 -0.0111812452572657 -0.7135683 -0.6967493 -0.07321604 105 105 105
-0.0323376880958197 0.00558786297012492 -0.0119602705138995 -0.6426493 -0.7646198 0.04856436 171 171 171
-0.0298631416633246 0.00283836031128093 -0.0093940744894816 -0.713567 -0.699931 -0.0303115 149 149 149
-0.0317191110923407 0.00512962246109172 -0.00980649392784372 -0.6823058 -0.7307684 0.0208895 195 195 195
-0.0347664581611273 0.00746666097809001 -0.0108146468895747 -0.6301185 -0.7712559 0.09008319 149 149 149
-0.0374013410880683 0.0099182596223466 -0.00824845831573739 -0.6539224 -0.748228 0.1119834 109 109 109
-0.0361411796882269 0.00893305444885417 -0.00852340709150567 -0.6508389 -0.7524318 0.101268 141 141 141
-0.0343998895957587 0.00737498903442546 -0.0106313477057292 -0.6370711 -0.766835 0.07813106 124 124 124
-0.0310546385123847 0.00430475378204509 -0.0075610826510264 -0.7306232 -0.6802339 0.05892034 196 196 196
-0.0281218515708563 0.00123445892501994 -0.002520347644694 -0.7303568 -0.6395142 0.2400012 233 233 233
-0.0300617443397162 0.00555728578735515 -0.00125252704799905 -0.7616306 -0.6006899 0.2430854 126 126 126
-0.0311004148795722 0.0060919394509904 -0.00307024519623056 -0.7297081 -0.6387296 0.2440299 144 144 144
-0.0359808431937811 0.00950585508514568 -0.00719448428333536 -0.645975 -0.7503443 0.1403561 105 105 105
-0.0359578358008978 0.00893305444885417 -0.00449081759632364 -0.6300918 -0.7609048 0.1549455 52 52 52
-0.0335749613120673 0.00863062048126384 -0.00164050858200326 -0.6254662 -0.743307 0.2372483 185 185 185
-0.0373784529044745 0.0108806362168901 -0.00410130124271646 -0.6210936 -0.7731355 0.1284689 135 135 135
-0.0167877899482367 -0.00932051038574055 -0.0242871592539622 -0.86052 -0.4953626 -0.1188327 57 57 57
-0.0167572723701117 -0.00857205486129597 -0.0250661770600153 -0.8638924 -0.4859009 -0.1326282 70 70 70
-0.0177196489646552 -0.00758679008315877 -0.0251578266519381 -0.8018966 -0.5844172 -0.1241706 51 51 51
-0.0177997576072333 -0.00797630643676595 -0.0233477453488184 -0.8331982 -0.5442818 -0.0976631 43 43 43
-0.0175363050773261 -0.00843460655044392 -0.0221792111891581 -0.8213699 -0.5638402 -0.08623058 55 55 55
-0.0201139675452826 -0.00559343194793538 -0.0234164844054057 -0.7187967 -0.6839475 -0.1246877 38 38 38
-0.0190026985480902 -0.00820542669128255 -0.0198421428698374 -0.7519715 -0.6463526 -0.129488 32 32 32
-0.0204843508079169 -0.00542540645431355 -0.0212932701009585 -0.7297477 -0.6734225 -0.1181973 50 50 50
-0.0202399717643378 -0.00591416454147176 -0.0193609843748881 -0.7462713 -0.6519081 -0.1345177 48 48 48
-0.0213855730369208 -0.00414992666076497 -0.023897642900355 -0.695787 -0.7103953 -0.1059202 32 32 32
0.0279311908409479 -0.00786633586715535 -0.0379063064950778 0.5668778 -0.6803265 -0.4645486 53 53 53
-0.0256930815055487 0.000272141935121262 -0.0238747323650195 -0.6116873 -0.7910455 -0.009251227 65 65 65
-0.0232185350730536 -0.00284392928909138 -0.0217209632295443 -0.6922473 -0.717817 -0.07438035 53 53 53
-0.0258764253928778 4.30812852494356E-05 -0.0219500909346415 -0.6009648 -0.7991663 -0.01320901 55 55 55
-0.0213855730369208 -0.00504351949523762 -0.0170926551121546 -0.7517805 -0.6486998 -0.1183843 21 21 21
-0.017352961189997 -0.0102217326147445 -0.0167718778151347 -0.7276607 -0.6796904 -0.09236321 49 49 49
-0.0163907038047431 -0.0105883607847579 -0.017413424958594 -0.7545409 -0.6553207 -0.03496826 81 81 81
-0.01969005931164 -0.00655574893783406 -0.0182382787364794 -0.7481487 -0.6498007 -0.1342859 109 109 109
-0.0196671711280463 -0.00728894567321614 -0.0170697371262385 -0.7547095 -0.6471157 -0.1079579 70 70 70
-0.0194838272407172 -0.00758679008315877 -0.0165198395747019 -0.7477517 -0.6544749 -0.1119376 107 107 107
-0.0215689169242499 -0.00398953056167439 -0.0193380738395525 -0.7326241 -0.6728712 -0.1025003 24 24 24
-0.0267929064109442 0.000409649850618088 -0.0183757493990733 -0.6305776 -0.7760233 0.01263823 130 130 130
-0.0254639612510321 -0.00156082010101155 -0.017046826590903 -0.7062601 -0.7052208 -0.06213187 92 92 92
-0.0233561025931952 -0.00334806537460164 -0.0139536510008647 -0.7493252 -0.655418 -0.09454654 91 91 91
-0.0210190044715521 -0.00678486919235066 -0.0134266639846636 -0.743191 -0.668155 -0.03515762 162 162 162
-0.0225999580695746 -0.00506646728347615 -0.0103793094652964 -0.7111434 -0.7030392 -0.003317264 189 189 189
-0.0185902344062445 -0.00820542669128255 -0.0111354241865946 -0.6646405 -0.7377659 0.1181292 196 196 196
-0.0180633293464301 -0.00835437869857625 -0.00792768101871744 -0.632461 -0.7431712 0.2183796 127 127 127
-0.0159782396628974 -0.00996966457198933 -0.007790202905543 -0.6539953 -0.7179385 0.2384417 110 110 110
-0.0193692671134589 -0.00738061761688069 -0.00953155260265603 -0.6423712 -0.7401012 0.1990214 135 135 135
-0.0239517914130805 -0.00353129005264119 -0.00948572408140436 -0.7100264 -0.7030241 -0.04024481 161 161 161
-0.0265637861564276 -0.000117374418485916 -0.0103793094652964 -0.7414849 -0.6641467 -0.09544241 122 122 122
-0.0179143177344916 -0.00787325000594929 -0.00626652937114969 -0.6249224 -0.7386632 0.252683 132 132 132
-0.0166656004264472 -0.00783885812591389 -0.00499489407718912 -0.6115315 -0.7206068 0.326734 137 137 137
-0.020698212273371 -0.00579960441421346 -0.00691952805698648 -0.5861241 -0.7858902 0.1970666 162 162 162
-0.026334665901911 -0.000781846998441971 -0.00352850060642496 -0.6385152 -0.7262673 0.2546256 221 221 221
-0.0254410730674384 -0.00110257959197835 -0.00181006889522806 -0.5755064 -0.7577338 0.3076231 181 181 181
-0.0199191795661566 -0.00453944301437215 -0.00215374927700296 -0.5026661 -0.7427065 0.4423955 172 172 172
-0.00244154799724794 -0.0299264321310408 -0.0452107886570765 0.4430563 -0.6404085 -0.6273581 49 49 49
-0.00136008132244325 -0.0282859334928878 -0.0458065147298647 0.586235 -0.5144853 -0.6258062 36 36 36
-0.00307860244060731 -0.0329508314115889 -0.0430066088932826 0.2492572 -0.8113772 -0.5287135 57 57 57
-0.00183369982982851 -0.0260313281996138 -0.0476425613063647 0.6067291 -0.477746 -0.6353256 32 32 32
-0.000329040177118545 -0.0273831615431197 -0.0458935747641398 0.589029 -0.4903919 -0.6423088 36 36 36
-0.00131430495525575 -0.024610770700682 -0.0470621163743807 0.5921 -0.4901126 -0.6396931 22 22 22
0.00242040287708067 -0.021929992197264 -0.0462258110541178 0.4507961 -0.5547141 -0.6993391 42 42 42
0.00230584274982237 -0.0256952772123702 -0.0436634371775462 0.5050547 -0.5208516 -0.6882102 76 76 76
0.00533030163501524 -0.0251606235487349 -0.0431669975417925 0.3556755 -0.5717313 -0.7393363 32 32 32
0.00342855583881163 -0.0232359895689376 -0.0437627236145808 0.4321445 -0.5472702 -0.7167611 75 75 75
0.00614366661762022 -0.0223997364027388 -0.0440720419186427 0.2884424 -0.6272909 -0.7233997 40 40 40
0.0066133512184503 -0.0231534967405684 -0.0432678113478495 0.3386676 -0.6095127 -0.7167974 34 34 34
0.00824020039294981 -0.0223996767980941 -0.0437054435509516 0.3718589 -0.636287 -0.675914 48 48 48
-0.00200166571880556 -0.0329966673834212 -0.0407382796305491 0.3361745 -0.7937293 -0.5069325 88 88 88
-0.000214480049860244 -0.0311484465582259 -0.0414714763659312 0.5377669 -0.6551301 -0.5306706 38 38 38
0.00255022179340147 -0.0273602137548812 -0.0423879797357394 0.5039085 -0.5757341 -0.6438994 53 53 53
-0.000810168869745498 -0.0330730805380233 -0.0396690319079234 0.4967455 -0.6697499 -0.5519774 37 37 37
0.00166437756274962 -0.0333174595816024 -0.0373930658000781 0.4678585 -0.6310381 -0.6187885 41 41 41
0.00106856953357481 -0.0310262570364364 -0.0395468349355532 0.4979805 -0.6490898 -0.5750633 42 42 42
0.00434503685687804 -0.0310491452200301 -0.0374847153920008 0.3990568 -0.6668245 -0.6293637 59 59 59
0.00643012654041075 -0.0290557870848067 -0.0391344154971911 0.4730083 -0.6387162 -0.6068812 113 113 113
0.00425348412250304 -0.0261687765104659 -0.0421817700165583 0.4044537 -0.5706608 -0.7146772 47 47 47
0.00390968453143858 -0.0279330739958175 -0.0410590569275691 0.4112139 -0.5955804 -0.6900631 51 51 51
0.00979361664508605 -0.025398922918547 -0.0397759626406504 0.5885198 -0.5752442 -0.5681009 77 77 77
0.00980589520190978 -0.0238317379934676 -0.041670056690581 0.5224591 -0.6032099 -0.6026394 78 78 78
0.0101419461891534 -0.0240838060362227 -0.0403945992487742 0.5968314 -0.5971979 -0.5358609 79 79 79
0.00986693035815978 -0.0273258814794906 -0.0371639455455615 0.6321743 -0.5958431 -0.4953046 56 56 56
0.0104397309944513 -0.0261000523550399 -0.0372097666162325 0.6875446 -0.558728 -0.4637946 58 58 58
0.012524820677984 -0.0224569568617232 -0.0378054926890208 0.6927698 -0.5469204 -0.4700513 25 25 25
0.00033543240283751 -0.0217008719427474 -0.0480702618855311 0.5330719 -0.5054494 -0.6784948 48 48 48
0.00163374077533507 -0.0214030275328048 -0.0481924588579012 0.4665555 -0.5643663 -0.6810408 40 40 40
0.00322232376788878 -0.0208989510519393 -0.0471995870369746 0.3936145 -0.6220975 -0.676803 29 29 29
0.00470409523700499 -0.0203032026274093 -0.0463441858786418 0.3143277 -0.6362314 -0.7045621 40 40 40
0.00743827950214171 -0.0221820006353743 -0.0448625187176539 0.31775 -0.6482913 -0.69192 42 42 42
0.00972948204730772 -0.0216779837591536 -0.0439001942771746 0.4609663 -0.6095353 -0.6449627 66 66 66
0.0126164926216485 -0.0176453719122298 -0.0441659788388087 0.6908312 -0.5124537 -0.5100425 49 49 49
0.0139224303886774 -0.0162477025968917 -0.0438200036782099 0.662727 -0.5667973 -0.4894219 35 35 35
0.0121276153252008 -0.0157359967214949 -0.0462678174275233 0.6280499 -0.5510256 -0.5494763 54 54 54
0.0145869029686334 -0.0145293006880172 -0.0441751505035235 0.6394796 -0.5958521 -0.4858252 23 23 23
0.0158149970695856 -0.0136311182958968 -0.0436619098085238 0.6006631 -0.6260577 -0.497248 28 28 28
0.013532973639715 -0.0198972949964888 -0.0399003426331355 0.6826111 -0.5302477 -0.5028712 43 43 43
0.012662268988836 -0.0186535248739608 -0.0422963301438166 0.6991876 -0.501976 -0.5090744 26 26 26
0.0142814887688043 -0.0170648822767623 -0.0419144580859019 0.6650517 -0.5474558 -0.5079355 38 38 38
0.0135100854561212 -0.0214946398718245 -0.0393177146810366 0.6828855 -0.53014 -0.5026121 34 34 34
0.0141286624596002 -0.0202115306837447 -0.0386303390163256 0.6638618 -0.5381792 -0.519279 16 16 16
0.0139338744804742 -0.0219643840772994 -0.0372097666162325 0.6546341 -0.5621631 -0.5053977 33 33 33
0.0160532964393976 -0.0166372189504989 -0.0397301341193987 0.581586 -0.586842 -0.5633597 41 41 41
0.0164505017921808 -0.0190965065939315 -0.0374847153920008 0.5529808 -0.5869482 -0.5913578 27 27 27
0.0160991920158746 -0.0184793601019271 -0.0381079341071917 0.5619301 -0.5819966 -0.5878049 27 27 27
0.0175930036232355 -0.015335811136473 -0.0399317691820933 0.5494395 -0.6029106 -0.5784591 44 44 44
0.0183789504692438 -0.0136471519453414 -0.0415516744154765 0.5394668 -0.6246251 -0.5646406 39 39 39
0.0192610992119195 -0.0134753117544539 -0.0414867575067355 0.523429 -0.6290712 -0.5747098 33 33 33
0.0174510253593805 -0.0130857954008468 -0.0428004066246821 0.5685402 -0.6266551 -0.5329779 25 25 25
0.0201134456322076 -0.0118989477140792 -0.0419755528467967 0.5193169 -0.638306 -0.5682213 38 38 38
0.0199255717918756 -0.0145293006880172 -0.0390885869759394 0.5118082 -0.6135453 -0.6013439 23 23 23
0.00413880478595519 -0.0321948060972579 -0.0360870609778239 0.429442 -0.6554777 -0.6212314 45 45 45
0.0054677499458673 -0.0318510661108382 -0.0360183219212367 0.4495331 -0.6722206 -0.5882511 58 58 58
0.00734660755847716 -0.0314386615736373 -0.0353538642424418 0.5272068 -0.6537783 -0.5427955 59 59 59
0.00813708435748839 -0.0302357206327803 -0.035972493399985 0.5485362 -0.6329941 -0.5462843 70 70 70
0.0065675748512628 -0.0340048203451522 -0.0321232105392291 0.5207343 -0.6024017 -0.6049364 29 29 29
0.00940868984912657 -0.0288724431974776 -0.0369348178404643 0.6107579 -0.5966654 -0.5205432 60 60 60
0.00995860230182433 -0.0282767543775924 -0.035411144306071 0.6386682 -0.5728563 -0.5137495 69 69 69
0.00942394863818907 -0.0318205485327132 -0.0322454075115992 0.5754054 -0.5911334 -0.5652167 90 90 90
0.00895044934009337 -0.0319427380545028 -0.0326731080907656 0.5591061 -0.614626 -0.5564488 70 70 70
0.0124178899452569 -0.0275817046148665 -0.0334063048261477 0.6296937 -0.5557336 -0.5428129 101 101 101
0.012524820677984 -0.028574598787535 -0.032283599187739 0.6192881 -0.5570806 -0.5533022 109 109 109
0.0121713651344659 -0.0299788246137984 -0.0314423764842822 0.6084834 -0.5470198 -0.5749062 100 100 100
0.011809922568548 -0.0256097445471175 -0.0355325813192202 0.6618652 -0.5533659 -0.5056882 39 39 39
0.0126470101997735 -0.0261687765104659 -0.0341395015615298 0.6318024 -0.5476128 -0.5485855 72 72 72
0.0140255464241388 -0.0236827859861739 -0.0352163861292674 0.606586 -0.5709362 -0.5532497 38 38 38
0.0144036782905939 -0.0244183073027022 -0.0342036585110499 0.6032131 -0.5665437 -0.5613931 35 35 35
0.014009572379339 -0.0273693928701766 -0.0316282982724978 0.5855404 -0.5561418 -0.5897871 44 44 44
0.0160609258339288 -0.023671341894377 -0.033757629503615 0.571383 -0.5829683 -0.5776412 42 42 42
0.0162915958092096 -0.0252339372618087 -0.031637462486632 0.5689748 -0.5662379 -0.5963576 40 40 40
0.0156867278740289 -0.0252522954923995 -0.0330397064584567 0.5876591 -0.5634187 -0.5807033 49 49 49
0.0178175939247491 -0.0234651098234542 -0.0318253437775446 0.5550544 -0.5913935 -0.5849516 36 36 36
0.0180433763191583 -0.0215011963827498 -0.033681253601916 0.5611253 -0.6027738 -0.5672761 45 45 45
0.0100960506126764 -0.0330425033552535 -0.0305193389552905 0.5614316 -0.588627 -0.5816467 71 71 71
0.0120284331962945 -0.0318969020826705 -0.0295799325007273 0.5742679 -0.573864 -0.5838633 98 98 98
0.0111958755180719 -0.0338673720343001 -0.0289612958926035 0.5546949 -0.5864994 -0.5901966 83 83 83
0.012662268988836 -0.0323093066198714 -0.0279073218602015 0.5749639 -0.5741013 -0.5829445 85 85 85
0.015824176184881 -0.0291932353956588 -0.0288696463006808 0.5909616 -0.5498543 -0.590275 44 44 44
0.0163893474266412 -0.0297431478483565 -0.0276629204648806 0.5992967 -0.5468838 -0.5846037 57 57 57
0.0188486350700738 -0.0289641151411422 -0.0255244250196291 0.6078015 -0.5653654 -0.5576193 96 96 96
0.0181269420311334 -0.0256876478178389 -0.0295169154900385 0.5652069 -0.5763427 -0.590229 55 55 55
0.0199301017448785 -0.0276443490965255 -0.0254419396418406 0.60299 -0.5706538 -0.5574561 105 105 105
0.0161984933540704 -0.0215175876600631 -0.0354989717501475 0.566642 -0.5857263 -0.5795183 31 31 31
0.0179124845192316 -0.0194848904592879 -0.035893934478171 0.5123395 -0.6109414 -0.6035387 40 40 40
0.021460629813421 -0.0154916176779158 -0.0370417411226107 0.5613343 -0.5888016 -0.5815638 35 35 35
0.0237060559913995 -0.0120241770727523 -0.0385692368048502 0.6054911 -0.5998237 -0.5230603 35 35 35
0.0244450343773248 -0.00983793830703572 -0.0394895548719241 0.6105675 -0.6097458 -0.5053884 43 43 43
0.025814033858526 -0.0109549293501265 -0.037713843097098 0.6451523 -0.5916563 -0.4834473 28 28 28
0.0222345365211847 -0.0218459496481307 -0.0293329830068423 0.5908824 -0.5697415 -0.5711853 62 62 62
0.0219036115333917 -0.0233734974844344 -0.0281517232555224 0.588444 -0.5686028 -0.5748257 50 50 50
0.0205441487953546 -0.0262146124822982 -0.0264409283894373 0.5905495 -0.5866576 -0.5541517 67 67 67
0.0204983724281671 -0.024748219011534 -0.0278615007895304 0.5782139 -0.5804494 -0.5733647 24 24 24
0.0233394874260309 -0.0233734974844344 -0.027036647011645 0.6214494 -0.5675299 -0.5401024 49 49 49
0.0244850886986139 -0.0226403007490523 -0.0253869543570353 0.6264696 -0.5801485 -0.5205417 101 101 101
0.0223444474861505 -0.0180054435713179 -0.033923471977122 0.5944575 -0.6010177 -0.5342267 48 48 48
0.0224001182243707 -0.0153769979460128 -0.0357892016667201 0.5933819 -0.5830845 -0.5548968 44 44 44
0.0251266730949762 -0.013062907217253 -0.0360641429919077 0.6351513 -0.5762061 -0.5143631 68 68 68
0.0249892247841241 -0.0147125849707015 -0.0338187317150904 0.6491703 -0.5590988 -0.5157387 65 65 65
0.0263180507347467 -0.0147125849707015 -0.0322148601311518 0.6326969 -0.572215 -0.5217898 54 54 54
0.0278684867546442 -0.0132843980772384 -0.0317337016362025 0.6114532 -0.5790075 -0.5393285 53 53 53
0.0285177005455377 -0.0117454061491378 -0.0321461210745646 0.5955738 -0.5932479 -0.5416168 47 47 47
0.0223313344642999 -0.0197991261465438 -0.030542249490626 0.5843219 -0.5922024 -0.5548551 59 59 59
0.0246225370094659 -0.0184129009230025 -0.0304391409057452 0.6228588 -0.5734393 -0.5321788 87 87 87
0.0252641214058282 -0.0181341896040328 -0.0295264671343638 0.6259359 -0.5703354 -0.531904 65 65 65
0.0254015697166803 -0.0190659294111617 -0.0290071169632746 0.6172242 -0.5685271 -0.5438852 44 44 44
0.025875069014776 -0.0198449621183761 -0.0272352198857142 0.6027483 -0.5662687 -0.5621692 35 35 35
0.025814033858526 -0.0204406509382613 -0.0263492787975146 0.6033811 -0.580506 -0.5467577 24 24 24
0.027884460799444 -0.0174037346823104 -0.0275573829907252 0.5980475 -0.5697995 -0.5636202 56 56 56
0.028044201247442 -0.0186076889021285 -0.0263340051072909 0.5957388 -0.5886853 -0.5463926 59 59 59
0.029965735785711 -0.0174895653707869 -0.0260285015004946 0.6102185 -0.5671396 -0.5531601 43 43 43
0.0305454505607965 -0.0119974741918929 -0.0297517726916148 0.5922478 -0.5956723 -0.5426021 67 67 67
0.031736828200567 -0.0114361176473983 -0.0297059441703631 0.5994202 -0.607118 -0.5216352 56 56 56
0.0303277743980768 -0.0151021013243087 -0.0280447925227953 0.6096509 -0.5571771 -0.563808 30 30 30
0.0318782104179742 -0.0134753117544539 -0.027326869477637 0.6012978 -0.5716125 -0.558301 43 43 43
0.0324929727241876 -0.0121005306227095 -0.0276552836197688 0.6047339 -0.5841901 -0.5413122 61 61 61
0.0341999305412652 -0.0104279646856673 -0.0279760609167887 0.6129659 -0.5852585 -0.5307969 73 73 73
0.0343283189461114 -0.0117523202879317 -0.0263126144903971 0.6107763 -0.5611274 -0.5586486 67 67 67
0.0215065253898981 -0.00985516404937581 -0.0428462276953532 0.534773 -0.6310956 -0.5619041 12 12 12
0.0219762099907281 -0.0103248486502059 -0.0419526423114611 0.534773 -0.6310956 -0.5619041 32 32 32
0.0248287690803888 -0.00994677638839558 -0.0386761675375773 0.6200246 -0.6075833 -0.4963991 43 43 43
0.026008821837652 -0.0100613365156539 -0.0377482126253916 0.6462204 -0.5959522 -0.4766971 36 36 36
0.0285634769127252 -0.00600583648513631 -0.0398676122325732 0.5355747 -0.7139548 -0.4510302 30 30 30
0.0279023421928766 -0.00767518377136067 -0.0391082267063929 0.5635121 -0.6987588 -0.4406702 39 39 39
0.0275324357674005 -0.00896157121490315 -0.0376221935051753 0.6019775 -0.6351263 -0.4839811 52 52 52
0.0296175254509332 -0.00705982541869954 -0.0370722959536387 0.5072058 -0.7088134 -0.4902304 42 42 42
0.030167437903631 -0.00472272729705647 -0.0405549804467036 0.5232796 -0.7413877 -0.4201462 55 55 55
0.0328711045906427 -0.00421871042083577 -0.0377596641677691 0.5670324 -0.704213 -0.4272684 87 87 87
0.036903597228277 -0.00101096725295857 -0.0370722959536387 0.6395878 -0.675904 -0.3661711 58 58 58
0.0377132667229059 0.000211047174226486 -0.0378054926890208 0.6468797 -0.666896 -0.3698598 36 36 36
-0.0105251299216864 0.00508378648925945 0.0395468821030782 -0.7066121 -0.5839522 0.3996238 197 197 197
0.0267534030601861 -0.0101988444311507 -0.0363620023030116 0.6284047 -0.6015572 -0.4931901 45 45 45
0.0280135644600275 -0.00834293460677937 -0.0362016211050822 0.5514626 -0.6598593 -0.5103673 63 63 63
0.0314962638542535 -0.00715143775771931 -0.0359266723293139 0.5292428 -0.7072783 -0.4686785 81 81 81
0.0319487823173883 -0.00944842195342854 -0.0320143724578692 0.5817768 -0.6398755 -0.5020908 55 55 55
0.0323211921379449 -0.00586838817428426 -0.0357368240851237 0.5482074 -0.7114872 -0.4396073 80 80 80
0.0323211921379449 -0.00653286075424031 -0.0345290104645564 0.5841404 -0.6838565 -0.437173 74 74 74
0.0332834495231988 -0.00713617896865681 -0.0337270746725871 0.6294407 -0.6417735 -0.4380996 67 67 67
0.0322295201942804 -0.00884701108764485 -0.0335896040099932 0.5627187 -0.6602587 -0.4973992 65 65 65
0.0325503123924615 -0.00797630643676595 -0.0322606812018229 0.6174895 -0.6195383 -0.4846432 47 47 47
0.0338562501594903 -0.00764407014678792 -0.0315618539947344 0.6338106 -0.5967838 -0.4920704 49 49 49
0.035757995955694 -0.00571562146972493 -0.031466389705546 0.6161535 -0.6096256 -0.4987099 51 51 51
0.0362713111564996 -0.00208325481246785 -0.0361008072990252 0.6406012 -0.6749361 -0.3661849 50 50 50
0.0353685392067316 -0.00330216979812459 -0.0351705650585963 0.6591442 -0.658599 -0.36301 53 53 53
0.0378751529381158 -0.000351084230650223 -0.035770865787871 0.6391083 -0.665786 -0.385058 62 62 62
0.0356205476448419 -0.00403536653350667 -0.0338645527857615 0.651425 -0.646461 -0.3971569 39 39 39
0.0380034221336725 -0.00177688693832234 -0.0337336237329318 0.6087573 -0.67421 -0.4181572 53 53 53
0.0367661489174249 -0.00398953056167439 -0.0319628218907191 0.6082799 -0.6220978 -0.49294 62 62 62
0.0379652751610162 -0.00359238481353596 -0.031519847621329 0.6081731 -0.6308475 -0.4818266 38 38 38
0.0394240392372491 -0.00128586387466267 -0.0328564072746111 0.6312265 -0.6660712 -0.3973692 57 57 57
0.0403634084389093 -0.000461054800260818 -0.0334292153614832 0.6420895 -0.6634564 -0.3841179 48 48 48
0.0325594915077569 -0.00989182090591267 -0.029914448668368 0.6066834 -0.6059926 -0.5144981 78 78 78
0.0356755031273248 -0.00753642415832356 -0.0294103796380831 0.6152799 -0.5954168 -0.5166328 41 41 41
0.0362391246483209 -0.00585694408248738 -0.0303016702431513 0.6028576 -0.6194188 -0.5028747 44 44 44
0.0377055181190851 -0.00920213556121663 -0.0252036551731898 0.6766057 -0.5617383 -0.4760828 58 58 58
0.0379932893440607 -0.00783379173110799 -0.025779011358626 0.6720902 -0.5622309 -0.4818623 47 47 47
0.0399509442970636 -0.00583787059615926 -0.0256313483017756 0.7319939 -0.5326512 -0.4248148 47 47 47
0.0406384242699029 -0.00362296199630574 -0.0278271238106562 0.7535609 -0.5277385 -0.3919669 47 47 47
0.0405696405098321 -0.00385208225082234 -0.0263492787975146 0.7640373 -0.4995345 -0.4083043 62 62 62
-0.00869204867626405 -0.010244680402983 0.0139536907178091 -0.8805603 -0.4545262 0.1342368 175 175 175
0.0418526900932672 -0.00177468156646565 -0.0273421506184413 0.7753278 -0.5491529 -0.311926 48 48 48
0.0426776183769586 -0.00159521198104695 -0.0252838457721545 0.7705328 -0.4938771 -0.402945 61 61 61
0.0428455842659357 -0.00069017505477742 -0.0257841001051737 0.7552441 -0.5585418 -0.3429831 58 58 58
0.042402602545965 0.00395344400573894 -0.0358044679063632 0.6755444 -0.6275616 -0.387048 73 73 73
0.0429525149986627 0.00169269943405315 -0.0326731080907656 0.7130665 -0.6310708 -0.3054275 82 82 82
0.0429982913658502 0.00334243679214641 -0.0340936804908587 0.7060515 -0.6151426 -0.350843 47 47 47
0.0429982913658502 0.00146357917953654 -0.0294195438522173 0.7347456 -0.6316045 -0.247436 48 48 48
0.0434107555076959 0.00107412243057414 -0.0288009072440936 0.7458544 -0.6236426 -0.2340322 45 45 45
-0.00321605075145937 -0.0338215360624678 -0.0152825663584544 -0.8459352 -0.4593465 0.2709141 85 85 85
-0.00328471530224062 -0.033134175298918 -0.0147097582715823 -0.8607966 -0.4366154 0.2615264 94 94 94
0.0185553802177789 -0.0313378105146773 -0.0232790062922312 0.6198001 -0.5610749 -0.5486736 46 46 46
0.0191236509010675 -0.0291932353956588 -0.0249974380034281 0.6093643 -0.5736791 -0.5473275 148 148 148
0.019306875579107 -0.0309804210646041 -0.0229582364457919 0.6168612 -0.5560613 -0.5570262 59 59 59
0.0186652911827447 -0.0325384864790328 -0.0214231039184405 0.6093959 -0.5431623 -0.577591 56 56 56
0.0205441487953546 -0.0321412811262496 -0.0201476464766337 0.6020071 -0.5464541 -0.5822159 26 26 26
-0.00236823428417421 -0.0324926505072005 -0.0102189208167864 -0.8441283 -0.4943158 0.2076036 140 140 140
