ply
format ascii 1.0
comment File exported by Rhinoceros Version 7.0
element vertex 474
property float x
property float y
property float z
property float nx
property float ny
property float nz
property uchar red
property uchar green
property uchar blue
end_header
0.0604201156984927 0.0242481966973497 0.0138259862837432 0.3545924 0.6931406 0.6275511 174 174 174
-0.0248873054861933 -0.026433880356909 -0.0337568607926543 -0.139446 0.6092731 -0.7806031 99 99 99
0.00347378620399441 0.0325464104818404 0.00157347734320575 0.03583489 0.3590246 -0.9326399 79 79 79
-0.0494860736817491 0.00478888296689683 -0.0161971736401653 -0.1703871 0.7773983 -0.6054916 132 132 132
-0.019910993854666 -0.0293590605094231 -0.0373524550658004 -0.1160537 0.6197742 -0.7761517 87 87 87
0.0273656141593439 0.0393386997342956 0.012298559753633 0.1575332 0.7077168 0.6887091 62 62 62
0.0743601886079484 0.00266083672332773 -0.00579009964839165 0.1458853 0.6212797 -0.769889 85 85 85
0.0156917979742519 -0.00373183222346063 -0.0189350831268499 0.06931253 0.5446206 -0.8358135 177 177 177
-0.0301751320574004 0.0194659315236495 -0.0044859062409101 -0.162636 0.6975437 -0.6978412 54 54 54
0.045483342421671 0.0276901235240804 0.00522714908630813 0.2640415 0.4590833 -0.8482479 105 105 105
0.0381241576997398 0.0135362296724763 -0.00463111271943155 0.2478233 0.5826434 -0.7740221 69 69 69
0.0234084054574804 0.0347192138409192 0.00238760172017256 0.05608708 0.340766 -0.9384736 106 106 106
0.0580844241532477 0.0195769544592684 0.00399180040555731 0.1665103 0.5447515 -0.8219003 89 89 89
0.0106889720531447 0.0369215608065007 0.00307589202442256 0.02524105 0.3340339 -0.942223 122 122 122
-0.0504353974031178 0.00973943927344434 -0.00962944871632836 -0.1967866 0.7652987 -0.6128564 96 96 96
0.0225245454527427 -0.0238702620172212 -0.0325515281877381 0.008335148 0.6468278 -0.7625905 56 56 56
-0.0375728285617618 0.00213410069120379 0.021784034911896 -0.3724088 0.3517132 0.858842 146 146 146
0.04390298368034 0.00654337716042519 0.0238395118137159 0.1983185 0.1159863 0.9732507 84 84 84
-0.0621209914721996 -0.0157565933955718 -0.0160000657004441 -0.809464 -0.4891506 0.324807 42 42 42
-0.0571333048532754 -0.00311827993699343 0.0029927245986064 -0.9206938 -0.2922413 0.2586851 27 27 27
-0.0264263845660584 -0.0147190788368118 -0.0260735350172007 -0.1025956 0.5045527 -0.8572635 193 193 193
0.0437824024319156 0.0285035177736285 0.00546604809281244 0.305645 0.4571547 -0.835219 64 64 64
0.039216167791174 0.0123568938867239 0.0228460612591148 0.08683511 0.3981887 0.9131842 80 80 80
0.0478030330221206 0.0208205531407505 0.0171867400789028 0.2053909 0.4100482 0.8886366 118 118 118
0.0693448353169313 0.0135992681309113 0.00958398777745691 0.7651439 0.6438177 -0.007325831 32 32 32
-0.00543181659647196 0.00624804601413353 -0.0134987168790467 -0.06378207 0.5074637 -0.8593093 205 205 205
-0.0233906980046936 0.0204136908733649 -0.00555831877572126 -0.2412315 0.6728688 -0.6993246 84 84 84
0.0185158158322727 0.0189051083527453 -0.00511956613180724 0.09574592 0.4977947 -0.8619937 101 101 101
0.0422967827797791 0.0300962937029873 0.0147279149344862 0.1754591 0.3869498 0.9052535 100 100 100
0.0283506049133648 0.0298425514367325 0.0017789098629611 0.1657148 0.2612126 -0.9509504 167 167 167
0.0236056820484709 -0.00330343998810811 -0.0173229402263654 0.05959417 0.5533476 -0.8308158 128 128 128
0.0181468276094443 -0.0122868923870428 -0.0242433345879659 0.08075726 0.5457357 -0.8340569 122 122 122
0.0608286289441122 0.0226284554747286 0.0140810747722751 0.2833372 0.4531969 0.845182 126 126 126
-0.0341297267876266 -0.0308790942159544 -0.0349886203685021 -0.1511898 0.5817387 -0.7992007 91 91 91
-0.0147837068353223 -0.00193651061174271 -0.0176048671884842 0.08705539 0.5351158 -0.8402812 98 98 98
-0.0294278587181274 -0.00516014648359497 -0.0204725937006893 0.07816137 0.5156742 -0.8532121 169 169 169
-0.021431873216637 0.0298080006250806 0.0114301874324424 -0.4851722 0.6917039 0.5349333 82 82 82
0.0249541592051328 0.0314434402531144 0.00142846397571213 0.1645241 0.2595004 -0.9516256 177 177 177
0.0539171212096559 -0.0106256779980619 -0.0203514353012639 0.1875195 0.6651564 -0.7227748 73 73 73
0.00902828484224338 -0.0132653657762177 -0.0256234286965066 -0.0221688 0.5323508 -0.8462335 175 175 175
-0.044948699378172 0.00805276422012968 -0.0132568185208681 -0.1369002 0.7750236 -0.6169252 115 115 115
-0.00308184776741349 -0.00178401993356558 -0.0179379538999111 -0.02468617 0.553404 -0.8325471 173 173 173
0.0478776876656832 0.0162455292117366 -0.000396230583007126 0.1375886 0.5211163 -0.8423225 183 183 183
-0.0384257223646953 -0.0322438518587883 -0.0358397277459898 -0.05259627 0.5641189 -0.8240167 107 107 107
0.029965466966269 0.0183611469128825 0.0211847666168117 0.1113136 0.3735081 0.920924 93 93 93
-0.0526736455499273 0.0125371076464859 0.00972224418387187 -0.3849897 0.7673613 0.5127763 110 110 110
0.0390932949926595 0.0106660183642434 -0.0067214010288507 0.2465675 0.6041473 -0.7577668 71 71 71
-0.0442604491663259 -0.016085133915034 0.0161350443784953 -0.8055388 -0.3882797 0.4476003 35 35 35
0.00401498284031199 0.0269383618552287 0.0217415039554129 0.01321814 0.4074457 0.9131338 206 206 206
0.0363475102563915 0.0197723023396493 0.0199499905264456 0.09363532 0.3961158 0.9134138 81 81 81
-0.0359209779330776 0.00476455539133036 -0.0152905345068103 0.1247221 0.4334132 -0.8925231 65 65 65
-0.0277354660504532 0.0184783429273289 -0.00612473129991369 -0.179799 0.6842714 -0.7067142 36 36 36
0.0519499323552837 0.0235138048663365 0.0050829418221366 0.200761 0.4213226 -0.8844107 89 89 89
-0.0360040787381819 0.0130343578488622 0.0151215074000777 -0.2993272 0.604375 0.7383319 50 50 50
0.0375409000258817 0.00281057231747239 -0.0127950839722219 0.1200938 0.5201672 -0.8455788 191 191 191
-0.0463258778793492 -0.00253118579908229 0.020566036563066 -0.4459216 0.1954131 0.8734802 121 121 121
-0.0582750282576843 0.0128168673951387 -0.0032620566068801 -0.5860146 0.7657663 -0.2649318 148 148 148
0.00983518004756023 0.037508162957452 0.00300165908579093 0.004293574 0.3579302 -0.9337385 97 97 97
-0.0558254532885116 0.00172787774670524 -0.017253882560936 -0.2128237 0.7147354 -0.6662277 60 60 60
0.0367812584133969 -0.0146736766928276 -0.0247887203075154 0.01554199 0.6004366 -0.7995213 114 114 114
0.0360322757434921 -0.0229409912048363 -0.0307857924432317 0.05949899 0.6286954 -0.7753721 60 60 60
0.0349579800369741 0.0110762532282506 0.023573837706341 -0.01244377 0.3182274 0.9479328 133 133 133
-0.02334064956995 0.0159602609823916 -0.00944223779205881 -0.06880262 0.4818026 -0.8735746 80 80 80
-0.0211641239874996 0.00596648173422876 0.0272077932779102 -0.3162705 0.4119368 0.8545648 89 89 89
-0.000314052776538176 0.0405390153407134 0.00754965912222756 -0.3285279 0.7430291 -0.5830757 108 108 108
0.00932349284520395 0.0331241276232698 0.0182234848715052 0.09306818 0.3461141 0.9335648 116 116 116
-0.0208605011613257 -0.00959150384554686 -0.0232859638733022 0.09014771 0.4816113 -0.8717362 169 169 169
0.0370430335169587 -0.00937190859982306 -0.0206134798785843 0.01742176 0.5856611 -0.8103688 99 99 99
-0.0443751210120475 0.0159628946031644 -0.00364931567997499 -0.2787296 0.7729334 -0.5699857 132 132 132
-0.0341313755417239 0.0184176342027275 -0.00465592971722255 -0.1791193 0.6625554 -0.7272803 53 53 53
0.0201645979425682 0.0264418288818028 0.0188474995150849 0.1070795 0.3242306 0.9398981 117 117 117
0.0711515224495693 0.0100562558060825 0.000223041858518139 0.2962492 0.6384209 -0.7103908 73 73 73
0.0102604980701826 0.0114425091059923 -0.00912145746539698 0.06123833 0.4912936 -0.8688386 105 105 105
0.0322046479023954 0.00444614693277934 -0.0123143812389723 0.05860126 0.4710115 -0.8801784 204 204 204
0.0347512532855991 0.0124951415056677 -0.00652020947542302 0.2028991 0.6096973 -0.7662253 107 107 107
-0.0145759245660484 -0.0074278531051325 -0.0207591709402741 0.04561433 0.5181069 -0.8540987 90 90 90
-0.0333315930685978 -0.018794176079865 -0.0283159167827486 0.04658478 0.4749104 -0.8788003 75 75 75
0.0157665848801272 0.0138225668245516 -0.007446754077073 0.04846326 0.4007896 -0.9148874 88 88 88
-0.00666670879369446 -0.00157103632356892 -0.0175910092534219 -0.04659076 0.5366142 -0.8425405 60 60 60
-0.0295162161145885 -0.00890289745648321 -0.0229350958673366 0.02101949 0.4546226 -0.8904361 181 181 181
0.0136394778779292 0.0457235616047801 0.00810615402650113 0.2019961 0.9352046 -0.2908434 167 167 167
0.0422919354901152 0.0312578185877813 0.0139487364586116 0.2466796 0.6021474 0.7593206 85 85 85
-0.0215951523657854 0.0323473579826988 0.00825600958423574 -0.4402533 0.8936185 -0.08731028 172 172 172
0.0482233460458783 0.0182159293754743 0.0183611995000448 0.2430164 0.4165383 0.8760359 152 152 152
0.035890259447132 0.028148152819499 0.00253927289844798 0.2114712 0.3689608 -0.9050679 191 191 191
0.0282463534700521 -0.00975404934573676 -0.0214724053226098 0.1049607 0.5815129 -0.8067379 99 99 99
0.0184870449393397 0.0209902716724631 -0.00404221096181116 0.1287851 0.5208946 -0.8438503 107 107 107
0.0317926842309748 -0.0215569268666341 -0.0298672087851665 0.07938324 0.6278069 -0.7743105 92 92 92
-0.0574954204380633 -0.0199013560684579 -0.0300064325597475 -0.152449 0.2730347 -0.9498481 84 84 84
-0.0608246409949289 0.00597623307396333 -0.00213642093737569 -0.9649826 0.1035773 0.2409987 18 18 18
-0.0283253966896968 -0.0221096707118656 -0.0304474000782883 -0.0934742 0.5415879 -0.8354311 77 77 77
0.0123093543502715 0.0308720986859682 0.0187145058093167 0.1376434 0.3138731 0.9394349 109 109 109
0.0263743782306856 0.041624718589072 0.00558098220191157 0.1862544 0.568251 -0.8014987 201 201 201
0.0331926394330337 -0.0177716217554801 -0.0269415221855382 0.06575209 0.5913219 -0.8037506 105 105 105
-0.0592060346157672 -0.0155591881813976 -0.0100714365433769 -0.8532165 -0.3909665 0.3452054 41 41 41
0.00928755230276979 0.0129044070561014 0.0263316005460829 0.2901734 0.3674366 0.8836231 120 120 120
-0.0145785349505312 0.0265896785504122 -0.00253682250864833 -0.1049454 0.6546371 -0.7486233 116 116 116
0.0646158543063917 0.017642818548865 0.00358279630802046 0.292603 0.6291277 -0.7201262 80 80 80
0.0521936049265368 0.0169366003461192 0.0177496807263718 0.2609212 0.3629614 0.8945274 74 74 74
0.0206231521706948 -0.0226348933067665 -0.0313463149271542 0.02822907 0.6460128 -0.7628044 87 87 87
-0.0188608639480643 0.027988130036308 0.0135738675386046 -0.385853 0.4689597 0.7944773 54 54 54
0.063080077388785 0.0217032692844289 0.0144213063116845 0.3407176 0.4014782 0.8501334 145 145 145
0.0326035671561651 0.0396385440595034 0.00737268417384425 0.4007871 0.6407539 -0.6548314 60 60 60
0.0266827165954995 0.007784893565986 0.0245199881460727 0.2230294 0.1897139 0.9561728 123 123 123
0.00223060217582871 0.0409177094483043 0.0137079117045692 -0.328057 0.7012622 0.6329375 63 63 63
-0.0271511046841058 -0.0136940476613666 -0.0249818726594044 -0.07966775 0.4769177 -0.87533 198 198 198
-0.0248139753536543 0.0280855900354692 0.00383394391550669 -0.3458347 0.8078866 -0.4771976 83 83 83
-0.0604000562926035 0.00949473153828462 0.00263130259683882 -0.9249098 0.1341382 0.3557371 74 74 74
0.0689297085130907 0.0164867249857582 0.0139153685353571 0.70207 0.65038 0.2900063 81 81 81
-0.0081896039997873 -0.00109893819735951 -0.0170517493611987 -0.0487739 0.541763 -0.839115 89 89 89
-0.0366374173369013 0.0178856837482945 -0.00463799014057013 -0.2204476 0.6524105 -0.7250955 64 64 64
0.0392682513381799 0.0321305132299857 0.00571703555097443 0.3213274 0.5025184 -0.8026356 100 100 100
-0.0151235306028585 -0.0379107222649863 -0.0420438361532886 0.05968087 0.6260214 -0.7775187 38 38 38
-0.0432386976941346 0.00824848311970261 0.0163507941769396 -0.2781972 0.4834813 0.8299712 50 50 50
0.0115784499487201 -0.00432585648671624 -0.0192873746211645 -0.04586294 0.5314782 -0.8458295 163 163 163
0.0374249336753687 -0.0233278179936659 -0.030739684319408 0.04882044 0.6334289 -0.7722593 44 44 44
0.0117030560173008 0.0021178199240689 -0.0156541786254404 0.0400322 0.5651106 -0.8240433 142 142 142
-0.0304504761260871 0.0115271472322355 0.0176316409239896 -0.3515374 0.5567945 0.7525964 44 44 44
0.0483503225481057 -0.0162636985560275 -0.0255395638228501 0.08003279 0.4797857 -0.8737279 71 71 71
-0.00832679390315061 0.0253441994442895 -0.00353170728116174 0.02024352 0.46007 -0.8876519 69 69 69
-0.0131962844504954 0.0193653418552729 0.0211089413981791 -0.2135993 0.4732745 0.8546266 30 30 30
-0.042875225964651 0.0126085072664989 0.0123178065821231 -0.2038377 0.7341151 0.6477076 90 90 90
0.00832366592231537 0.0283059142003917 0.0202119345633228 0.1405535 0.3783855 0.9149148 119 119 119
0.0137332697715618 0.00567074834620096 0.0287393737129216 0.2681066 0.171552 0.947992 140 140 140
0.0163636468220103 0.0286856376585437 0.0186541716533036 0.1523469 0.2999111 0.9417238 96 96 96
-0.0323594551851127 0.0123025978791248 -0.0112898934630249 -0.04798783 0.5791844 -0.8137829 85 85 85
0.0296690646646494 0.0196333409946884 0.0204825849058922 0.1325973 0.3876179 0.9122337 117 117 117
0.0262270797363127 0.0144225669382884 -0.00711160248063851 0.09439567 0.5368954 -0.8383512 76 76 76
0.0284284656146658 0.025077060250115 0.018282360971564 0.1021444 0.3085144 0.9457195 99 99 99
-0.0211110795073499 0.0284230963051516 0.0128728787704465 -0.4559257 0.5442501 0.7042184 98 98 98
0.00516854109821985 0.0408933397597525 0.0145406861561313 -0.1403441 0.6751475 0.7242095 40 40 40
0.074359478289665 0.00410138770817736 -0.0045428998815135 0.1313011 0.629482 -0.765841 66 66 66
0.0673801102398777 0.0105337854140281 -0.000468028051245836 0.2049885 0.5742872 -0.7925742 79 79 79
0.0137964081563462 0.0317731485576608 0.0180774774004018 0.1583655 0.3039667 0.9394278 105 105 105
0.0257076007597479 -0.0224095028027279 -0.0310856781451011 0.02064408 0.6222966 -0.7825093 83 83 83
0.00865537322921339 0.0251418108940685 0.0210510507345995 0.1517118 0.3764351 0.9139366 136 136 136
-0.00143556714090742 0.0368600582192918 0.00369847257253537 -0.1601289 0.6477463 -0.7448379 133 133 133
-0.0273817447179208 0.0214078708049398 -0.00321340271441588 -0.1699444 0.7110209 -0.6823256 114 114 114
0.0763356474988703 0.0040656561074558 0.00536521200718328 0.7101515 0.6765122 -0.1949774 24 24 24
-0.042189577384415 -0.00549811541086986 -0.021851225488249 0.1201759 0.4666061 -0.8762628 87 87 87
-0.0625890175116339 0.00185530802397904 -0.0161347501153252 -0.3271671 0.6548974 -0.6812276 89 89 89
-0.0206647894008567 -0.0155230910908596 -0.0270166727487115 0.04209923 0.5513688 -0.8331987 193 193 193
-0.014098692823779 0.0302522040050858 0.0154704310723145 -0.2883487 0.4711422 0.8335946 93 93 93
-0.0103318124639933 0.0225176150305334 0.0200025030734347 -0.2439745 0.469888 0.8483406 62 62 62
0.0464260787066748 0.0104238551411174 -0.00484542395521619 0.191773 0.5652698 -0.8023049 192 192 192
-0.0512211114772194 -0.00713278221885616 0.0137011928270892 -0.7730685 -0.5210704 0.361733 72 72 72
0.00217766817874709 0.0223073812194864 -0.00420992418683801 0.07120024 0.4625414 -0.8837341 85 85 85
0.0328021951225201 0.0207056206820971 -0.00124811162586373 0.2381342 0.4279239 -0.8718792 59 59 59
-0.0503988330584768 -0.00215468556073761 -0.021390574781537 0.07197192 0.4725778 -0.8783452 128 128 128
0.00670234828384508 0.00818037704441921 -0.0115581034575287 0.07478907 0.5357536 -0.8410557 175 175 175
0.0155802250177537 0.0440386678395041 0.00653689261231334 0.1730818 0.6725388 -0.7195375 136 136 136
-0.00780171134914776 0.0227518580961507 0.0210534913814418 -0.2419199 0.4587488 0.8549996 74 74 74
0.00460673670518119 -0.00598445798814884 -0.0205079118897342 0.09211719 0.5591074 -0.823962 210 210 210
0.0245938369593071 0.027837459351462 0.0182467193730148 0.101098 0.3258108 0.9400141 86 86 86
-0.0524831207753689 0.00635343097599639 -0.0125999653339032 -0.1670458 0.7745615 -0.6100411 151 151 151
-0.059608647761678 0.0113857730118115 -0.00181337891122794 -0.8523837 0.5197802 -0.05718964 119 119 119
-0.0123149149010269 -0.000837358854339665 0.0332506891409686 -0.3353226 0.444996 0.8303838 48 48 48
0.00888212133279165 0.0404915611956177 0.00417214333071143 -0.115305 0.4781626 -0.8706694 139 139 139
-0.0174347286940013 0.0154220687776473 -0.00907249033517792 0.1320409 0.4021838 -0.9059875 84 84 84
0.0499159321461295 -0.00296196075004806 -0.0145047501866113 0.1444822 0.6660891 -0.7317447 79 79 79
0.057155326567508 0.024514734273629 0.0143872900612976 0.1579608 0.6047466 0.7805959 184 184 184
0.0437592010496402 0.0101161335837668 0.0231452753849583 0.2072311 0.3095206 0.9280367 83 83 83
-0.0423602078770102 0.0209336521125648 0.00144282058621588 -0.6133942 0.7781028 -0.135291 188 188 188
-0.060200383799152 0.0100245269915508 -0.00124959566389309 -0.9473436 0.3188831 0.02921804 121 121 121
0.00556721107679303 -0.0179758667131485 -0.0283129954731473 0.06509204 0.5722493 -0.8174924 162 162 162
-0.00609555760351022 0.0344837026174499 0.00322658439827957 -0.2927926 0.6189488 -0.7288174 163 163 163
-0.0133408863309232 0.0304374165819957 0.00223798704176777 -0.2003166 0.751924 -0.6280792 112 112 112
-0.00252099198009104 0.0355163407117879 0.0153369186918271 -0.308762 0.4511573 0.8373309 79 79 79
0.0566806497320878 -0.00140691822451078 -0.0116038322158191 0.09868658 0.6853262 -0.7215185 97 97 97
0.0682964923441638 0.00770395678898217 -0.00245543833361432 0.1029824 0.589881 -0.8008964 85 85 85
-0.038106896602951 0.0147872322736305 -0.00697893559264344 -0.1717588 0.6785761 -0.7141662 79 79 79
0.0481258332273655 0.0322907857181883 0.0101900464598153 0.3400851 0.5963745 -0.7271036 61 61 61
-0.00387520617030734 0.0367077352521833 0.00451945231760516 -0.2442214 0.6622626 -0.7083532 217 217 217
-0.0581689433800232 -0.0231504712115741 -0.0223101284934057 -0.8425747 -0.5147827 0.1583245 48 48 48
0.0207479001939537 0.00540968696519173 -0.0121939249328048 0.02196295 0.5309392 -0.8471252 99 99 99
0.0235023860954322 0.0335441746030239 0.0157128230618944 0.1397129 0.437696 0.8882018 208 208 208
-0.0113429498366568 -0.0191909687366684 -0.0289179019007841 -0.006679932 0.5693946 -0.8220372 132 132 132
0.0596380651997843 0.0120658547892004 0.016949666685249 0.08087576 0.3195873 0.9440991 66 66 66
0.000730007440378433 0.00349023674155335 -0.0147986254995373 0.03189259 0.4928446 -0.8695327 123 123 123
0.0355799241961074 0.0126966446348807 -0.00602420414940889 0.2106908 0.6015365 -0.7705604 75 75 75
-0.0484028097452485 -0.0353398599076505 -0.0272398072324155 -0.6719937 -0.7336796 -0.1006916 18 18 18
0.0511449901847163 0.00139451531369883 -0.0096736123197733 0.1624282 0.6386555 -0.7521544 104 104 104
-0.0455680948339703 -0.0353937227418485 -0.0371334472827329 -0.1653434 0.4751515 -0.8642295 48 48 48
-0.0138296062623771 0.0227358549567999 -0.00502830842625783 0.0351076 0.5098946 -0.8595202 107 107 107
0.057183999726905 0.00821043777281549 0.0191095694560702 0.07099523 0.4137746 0.9076069 70 70 70
-0.0147770593731571 0.0123628011045577 0.0252637453642636 -0.1521271 0.4711524 0.8688341 77 77 77
-0.0332197180719551 0.00382913069626156 -0.0152402501406505 0.05718911 0.4727211 -0.8793544 102 102 102
0.0120835189884265 0.0351301516803978 0.0175759028395919 0.111335 0.3618692 0.9255567 156 156 156
-0.0489501622227455 0.00918082483133376 -0.0102118102848165 -0.2034344 0.7620952 -0.614675 105 105 105
-0.00276952926871488 0.0329248293685153 0.0012899226090249 -0.07519974 0.5005528 -0.8624337 115 115 115
-0.0581103056983499 -0.00853917912226809 -0.00566779916420994 -0.799733 -0.03675534 0.5992297 27 27 27
0.0168724901128425 -0.0297478603650377 -0.0380940792301424 0.04872424 0.6377894 -0.7686681 103 103 103
0.0223507824662494 0.0271279561760397 0.0183872680611336 0.09565988 0.337134 0.9365841 134 134 134
-0.0214473188008735 0.0103414389111883 -0.011439944607922 0.07179037 0.4188263 -0.9052241 89 89 89
0.0186381655480758 0.0169650594451179 -0.00643352334770257 0.06649648 0.4680478 -0.8811978 47 47 47
-0.0418204422277264 0.00335985964174623 0.0190472167077702 -0.355956 0.4247811 0.8323799 38 38 38
0.0591437658075198 0.0269920504332509 0.00860687526195399 0.6397163 0.6618295 -0.3908257 157 157 157
0.0126210068054502 -0.0297711322278084 -0.0387046706785503 -0.01417441 0.5558264 -0.8311775 69 69 69
-0.0257948665622707 -0.00164256265009344 0.0278436821382833 -0.4372196 0.328274 0.8373023 23 23 23
-0.0319529810557846 -0.0399757684083729 -0.0438199926388491 -0.2120671 0.5942107 -0.7758487 66 66 66
0.0538656448099126 0.010338514651837 -0.00316142003758217 0.1451701 0.5985662 -0.7878097 71 71 71
0.0486084616036471 -0.00798319731486108 -0.0188597750700791 0.1298728 0.673528 -0.7276627 209 209 209
0.00122516252273819 0.0352036269386914 0.0170251796833257 -0.2704525 0.4564922 0.8476263 72 72 72
-0.00717048978881785 0.0274743280626203 -0.00212437537293313 -0.01983804 0.5539787 -0.8322945 132 132 132
-0.0475655049052506 -0.0335723249028027 -0.0353556607364662 -0.2018601 0.4498765 -0.8699791 99 99 99
0.0393177449991011 0.0102425525103308 0.0233886876557742 0.08240869 0.3304636 0.9402142 73 73 73
-0.0154243364733646 0.00433873127625806 -0.0140046278106078 0.1431541 0.4876279 -0.8612351 125 125 125
-0.0342003151969106 -0.0419371632488351 -0.0435759739754846 -0.2569678 0.5585058 -0.7886944 91 91 91
0.00708017858839316 -0.000120865705581674 -0.0163433865753705 -0.007567393 0.5272356 -0.8496854 145 145 145
-0.061624343529799 -0.00766989550927011 -0.00997856871423834 -0.7870622 -0.03378063 0.615948 50 50 50
0.00188302184206179 -0.0188876778108907 -0.0297410930107488 0.01951419 0.5867369 -0.8095425 189 189 189
-0.0479808373194359 0.00988482930739554 -0.00942857206395746 -0.1769965 0.7625544 -0.6222404 117 117 117
0.00805140648110569 -0.0189898764666158 -0.0290372808861993 0.03283593 0.6135174 -0.7889982 109 109 109
0.00826985819186898 0.0290883618569092 0.0196943955346702 0.1228878 0.3704359 0.9206932 98 98 98
0.00318960484597497 0.00166592863141324 0.0329928714812545 0.2600625 0.365357 0.8938019 133 133 133
-0.0352503499441514 -0.0142551136906214 -0.0257686037077209 0.1067446 0.5012797 -0.8586758 72 72 72
-0.0115234579047971 0.000859326906054059 -0.0155809772282191 0.004536 0.5412681 -0.8408379 137 137 137
-0.0465909108194458 -0.0336508000623156 -0.0359757934417337 -0.1793642 0.4777489 -0.859991 72 72 72
0.0313037153645399 -0.00753877579334505 -0.0194074297765109 0.05944181 0.5169862 -0.8539274 88 88 88
-0.0457712727165696 -0.0135730804728161 0.0157303113806089 -0.8064767 -0.4019054 0.4336673 43 43 43
0.0681477247576905 0.0160160742957561 0.0127015368111164 0.7254674 0.6625715 0.1862684 48 48 48
-0.0520209719098395 0.0123769542913729 0.0102223794261208 -0.3502966 0.7410101 0.5728841 72 72 72
-0.0458638865576906 -0.0165338430488687 0.0142991924905157 -0.8406574 -0.306474 0.4465074 27 27 27
-0.0119499055010257 0.0328273544856356 0.00459172386659652 -0.2260289 0.7303781 -0.6445609 172 172 172
0.059944284065665 0.0182153517183462 0.0157613782949731 0.1365236 0.3016163 0.9436042 66 66 66
-0.00184762670972383 0.0284289139439168 0.0197138742602599 -0.268893 0.4790037 0.8356147 66 66 66
0.0169009937365492 0.0223403254056712 0.0211276824439069 0.1990619 0.4068497 0.8915423 143 143 143
-0.0434112544027832 -0.0397225912944575 -0.0393595722920525 -0.1885275 0.375645 -0.9073854 81 81 81
0.0412713608920008 0.0192278787463934 0.0194466876853206 0.09582604 0.4137448 0.9053357 97 97 97
0.0625434023750335 0.0147708823730409 0.00116543520042318 0.1273278 0.5775692 -0.8063507 71 71 71
-0.0342371213472163 -0.0344606312375996 -0.0378487882650948 -0.1646428 0.6174241 -0.7692075 115 115 115
-0.0626820503796224 0.00406574446667818 -0.00788116990096881 -0.9783912 0.1403723 0.1518102 45 45 45
-0.0113123185396451 -0.00211465997685079 -0.0179177223748036 -0.003432889 0.5574946 -0.8301734 93 93 93
-0.0580936548645354 0.00443431241278669 -0.0141614214728058 -0.1329517 0.7475532 -0.6507596 67 67 67
-0.0188310746516622 0.0148240112439887 -0.00978999813624896 0.1120598 0.3801707 -0.9181029 94 94 94
0.0168930770366154 0.0420212156042518 0.0049859911489772 0.1297132 0.4550566 -0.8809642 118 118 118
0.0106593396272587 0.0209894246262271 -0.0046551425823677 0.0152024 0.5045184 -0.8632671 144 144 144
0.0578321231903853 0.00979014894005814 -0.00315246906168591 0.1040652 0.5409951 -0.8345626 101 101 101
0.00816216458800056 0.016393365150479 0.0257233535136505 0.2067344 0.3778362 0.9024969 155 155 155
0.0227410458093589 0.0363619832576353 0.00241986704132742 0.02260982 0.3971362 -0.9174811 85 85 85
-0.0368025965121102 -0.0410523229963725 -0.0422429130462389 -0.2896733 0.5216879 -0.8024532 77 77 77
-0.0546687267011667 -0.0262345141681356 -0.0150366857178205 -0.6619627 -0.670962 0.3340888 33 33 33
-0.0569658451220478 -0.0287327751160164 -0.0261172142375178 -0.7835503 -0.616962 0.07353105 48 48 48
-0.0112128421814712 0.00402923157840129 0.0318014771208892 -0.3314399 0.5369031 0.775811 78 78 78
0.0456989137357233 0.0254272999345558 0.00436274852025627 0.2349384 0.421085 -0.8760659 93 93 93
-0.0062971714090736 -0.0349241490750362 -0.040706222079734 -0.02465916 0.5101751 -0.859717 47 47 47
-0.00601935851405511 0.0288566439402002 -0.00124482722784107 -0.04410924 0.5673366 -0.8223038 138 138 138
0.0440385963494991 -0.019522219747632 -0.0270640185703907 0.01364036 0.5252115 -0.8508624 52 52 52
-0.048600052507604 -0.0156434034295744 0.00737301543416809 -0.8696408 -0.2334625 0.4349944 46 46 46
-0.0255820909528306 -0.0227198352820505 -0.0309843327353342 -0.08996806 0.5608844 -0.8229911 94 94 94
-0.061313158595373 -0.00468684487868753 -0.0220085968032881 -0.1633275 0.6185256 -0.7686028 183 183 183
0.0150390455351053 -0.0216182260423915 -0.031190088972351 0.07800268 0.6262304 -0.7757262 151 151 151
0.00896568907244388 0.0227555121320705 -0.00340105419245711 0.005004944 0.4960169 -0.8682984 100 100 100
0.0191483406953008 0.0353225496000039 0.0160582415993684 0.2043762 0.4282809 0.8802306 217 217 217
-0.0414462550012331 0.0207373663893712 0.000374715963974717 -0.4838864 0.7238234 -0.4918675 123 123 123
0.000948521177912109 0.0305980494005832 0.000443383998157534 0.07947138 0.4094668 -0.9088571 66 66 66
-0.0578591408564604 -0.024387042886984 -0.0232620315219959 -0.8055219 -0.5573325 0.201283 14 14 14
0.0136934841041301 0.00707497885153685 -0.011950722663996 0.05468065 0.5422542 -0.8384333 172 172 172
0.000543483580929482 -0.0145341110015601 -0.0266538136283347 -0.003446403 0.5725836 -0.8198391 166 166 166
0.0311688085507611 0.0228054439623812 0.0187966707399149 0.112124 0.3302979 0.9371935 86 86 86
-0.000517608112111656 0.0288038394106077 0.0196907352633813 -0.2599298 0.4671095 0.8451303 63 63 63
-0.0670662676898761 -0.00155882797074847 -0.0138995644522177 -0.9372236 0.3415962 0.07017143 76 76 76
0.0620720381190134 0.0164277991727878 0.0162725805632627 0.1020148 0.3072843 0.9461339 113 113 113
0.0145971966070508 -0.0225522097914245 -0.0316040934360037 0.08776257 0.6313151 -0.7705446 112 112 112
0.0580274311212774 0.021521763757039 0.00500956050464325 0.1982732 0.5054351 -0.8397756 84 84 84
0.0333037216977439 0.0278592218470767 0.00200150529121752 0.1716945 0.3632512 -0.9157345 186 186 186
-0.039167118673952 -0.00243107729405312 -0.0193548674669638 0.1235966 0.5344469 -0.8361163 72 72 72
0.0162359061115254 0.0247957036177994 0.020090514336118 0.1752836 0.3796168 0.9083869 106 106 106
-0.0576083394560181 -0.0185109580027408 -0.0295666120456463 -0.1267109 0.3588271 -0.9247634 80 80 80
-0.0589768627432687 -0.0163027750074155 -0.00539862073376145 -0.8004184 -0.3505819 0.4862331 81 81 81
-0.0200548418335753 -0.0362034740934437 -0.0425851603315938 -0.05731732 0.6334435 -0.7716632 76 76 76
-0.0318031804257193 -0.00764974282148156 -0.0227488811433993 0.07537177 0.4564063 -0.8865734 165 165 165
0.0393561124982127 0.033712405012383 0.00639540468527973 0.3510328 0.5798599 -0.7352132 96 96 96
0.0597912929285043 0.0176888578336173 0.00287016992039753 0.1226703 0.5636931 -0.8168244 91 91 91
0.0587789799769149 -0.0102025302393697 -0.0178855389660745 0.1698003 0.5552638 -0.814156 59 59 59
-0.0318183389481721 0.0100287646027714 -0.0121174001197534 0.04512069 0.4720257 -0.8804293 105 105 105
-0.0663992856682274 -0.0091174392898673 -0.02392842851588 -0.5252225 0.4396974 -0.7285653 105 105 105
-0.00776904453222471 0.0160742655222402 -0.00806318531866472 0.01828608 0.4558872 -0.8898497 89 89 89
0.0563924081030325 0.0043071499470787 -0.00654194522494371 0.1852446 0.5765895 -0.7957569 102 102 102
0.0151131579671029 0.0268275087461324 -0.000506994466825603 0.09039587 0.4558277 -0.8854658 149 149 149
-0.0300903115825495 0.02488537887999 0.00172586410353677 -0.1820603 0.7880201 -0.5881143 115 115 115
-0.00564441059486231 0.0392521380630547 0.00766957359272176 -0.3475305 0.8450773 -0.4062843 227 227 227
0.00487247835281002 -0.0188553256201357 -0.0288729910539633 0.06196617 0.5823205 -0.8105943 182 182 182
0.000440688886276686 0.0104083309096649 -0.0116241420068332 0.06511418 0.4967186 -0.8654656 127 127 127
0.0746406466951073 0.00698401754207667 0.00317493066844017 0.7017713 0.6676623 -0.2484836 69 69 69
0.0489437557551957 0.0037306983336679 -0.0084304428663015 0.2153052 0.5665578 -0.7953967 108 108 108
-0.039211754167173 -0.0017636188089093 -0.0193558398730422 0.125933 0.5290373 -0.8392023 84 84 84
-0.0291930988137512 0.00581203409779751 -0.014145814626772 0.01403601 0.5074571 -0.8615627 104 104 104
-0.0238082405109528 -0.0102438260581027 -0.0240912455172674 -0.006569272 0.4905551 -0.8713854 170 170 170
0.0495394961186748 -0.0100696501646002 -0.0208136439875037 0.1731362 0.6997585 -0.6930814 117 117 117
-0.0151248929876537 -0.0265966766536782 -0.0352722523141231 0.02303344 0.6606475 -0.7503428 138 138 138
0.0217520542492222 0.0181833804881456 0.0217314903456866 0.1543443 0.3928899 0.9065403 120 120 120
-0.0452857416363082 0.0131593629491987 0.0121192483864508 -0.2111216 0.75113 0.6254849 206 206 206
0.0196035980650642 0.0397406737417453 0.00474404582123851 0.04188111 0.4588554 -0.8875234 93 93 93
-0.0216691864980323 -0.0385201575965449 -0.0438712010937167 -0.1364074 0.6563195 -0.7420497 124 124 124
0.00332584240646838 -0.0319772665772741 -0.0385463781291099 -0.01234033 0.5707012 -0.8210651 79 79 79
0.0314937488579843 0.0246196835516542 0.0182699377409019 0.09423462 0.2771012 0.9562085 87 87 87
-0.0381648281431359 0.0206019109548007 0.00691314827630903 -0.46613 0.6285405 0.6226233 48 48 48
0.0549356382141317 -0.00860539165772167 -0.0180851858694508 0.1870915 0.5983952 -0.7790507 60 60 60
-0.0552717875406343 0.00317199369188959 -0.0162134543932752 -0.1656507 0.732856 -0.6599105 88 88 88
-0.0468907952862705 -0.0360727338608836 -0.0264007344368313 -0.7066021 -0.7032658 -0.07829884 14 14 14
0.0246031414733361 0.00791053097858618 0.0257071637603258 0.2780478 0.1939601 0.940781 124 124 124
0.0344033896010236 0.0319546007701957 0.00349670282806754 0.2398486 0.3710648 -0.8970973 165 165 165
-0.0326237295978067 0.0195988514062632 -0.00420398411554516 -0.1493865 0.6968468 -0.70149 52 52 52
0.0229170008583037 0.0264693736288485 0.0187983892080035 0.09359017 0.3253438 0.9409528 151 151 151
0.00426557410581552 -0.0052911804687007 -0.0200790666189773 0.08982968 0.5595177 -0.823936 197 197 197
-0.0598105460637921 0.0093809785463651 -0.00424846445862552 -0.8660731 0.4793785 -0.1418227 68 68 68
-0.0129466241034439 -1.08857546466945E-05 -0.0160494825996279 0.05363494 0.5463752 -0.8358214 135 135 135
-0.0464226133896499 -0.0299190072083634 -0.0342007208436127 -0.1455654 0.3198332 -0.9362251 54 54 54
0.00429402796476941 0.0304852179459337 0.0198445929035509 -0.03634997 0.4103556 0.9112008 133 133 133
-0.0406979097639053 -0.0211991161719095 -0.0294347780239161 0.1232335 0.4243102 -0.8970922 45 45 45
-0.0491117636539111 -0.0220177607521032 -0.0313482960507054 -0.03684824 0.4018324 -0.9149715 75 75 75
-0.0572665847587706 -0.00595574425973477 -0.00369585727810333 -0.9178251 -0.2756696 0.285663 43 43 43
0.0453945751139742 0.0206474481918538 0.0180066385222546 0.190466 0.4199808 0.8873212 119 119 119
-0.0231911521904773 0.0235729716272773 0.0144550313966117 -0.401719 0.4453363 0.8001859 43 43 43
-0.0482718432345735 0.0127771811606771 0.0112649240524614 -0.2452299 0.7360293 0.6309699 94 94 94
-0.0521094516099128 -0.00552924547029698 0.0116853860440543 -0.80488 -0.4982688 0.3223296 98 98 98
-0.0375574298233299 0.0102256171533314 0.0164208640004218 -0.2596324 0.5620686 0.7852833 61 61 61
1.39119843556301E-06 -0.0189155208920676 -0.0296523411116335 -0.0187109 0.5791823 -0.8149833 170 170 170
-0.0509181325492172 0.00661144088242793 0.0149983985915936 -0.2690743 0.4318691 0.8608647 116 116 116
0.0125198146642163 -0.00686625362127746 -0.0209985819497244 -0.008324656 0.5858549 -0.8103732 211 211 211
0.0628416366238023 0.0103119876131771 0.0177644078249225 0.07423974 0.3870752 0.9190546 96 96 96
0.0612871841081701 0.00808611977704443 -0.00340239052630646 0.1697057 0.4804695 -0.8604354 98 98 98
0.0581398491710807 0.0276229322189344 0.00851798685730538 0.4663934 0.6849598 -0.5597386 135 135 135
0.00881853387790787 0.0377775704332858 0.0162729841203543 0.04608652 0.4255404 0.9037651 118 118 118
0.00454141492231441 0.00222909787817505 0.0322415601049033 0.2590696 0.3463388 0.9016277 134 134 134
0.0409259158698694 0.0301712852228536 0.0151109071993754 0.1736506 0.3901806 0.9042149 126 126 126
0.071946770601337 0.00216045603470738 -0.00634507228209473 0.06930558 0.6329241 -0.7711056 94 94 94
0.0256464647059849 0.0268050094297979 0.000836655987656545 0.1343352 0.2880696 -0.9481403 136 136 136
0.033919605090361 -0.0133966976724095 -0.023647556922913 0.03154165 0.6308104 -0.7752956 108 108 108
0.02665961192585 -0.0168019583524114 -0.0267090367072821 0.02899366 0.5948948 -0.8032805 162 162 162
-0.0233116713614905 0.0229079539949489 -0.00268547515261568 -0.2441256 0.7250364 -0.6439914 120 120 120
-0.0215353361105373 -0.0208267229136098 -0.0299055572192714 -0.07906246 0.5464047 -0.8337812 138 138 138
0.00186077617848168 -0.0284229047144261 -0.0362383953990168 -0.02607251 0.5747762 -0.8178952 102 102 102
0.000298065121345115 0.0305010190460614 0.0190984642356517 -0.2518315 0.435281 0.864356 60 60 60
0.0116194064934869 0.0443557146856347 0.00629908320395429 -0.06344701 0.5930282 -0.802678 166 166 166
0.0238194956150077 0.0175952438530379 0.0220349467467928 0.1113283 0.3855028 0.9159659 123 123 123
0.0406572815491799 0.0327615953016324 0.00635764330791717 0.307452 0.5724962 -0.7600799 102 102 102
-0.0611541132348781 0.0074913561710569 -0.00325804784442656 -0.9430016 0.2974492 0.1492381 76 76 76
-0.029368945890198 0.0150913146950084 -0.00914643523954621 -0.1493573 0.632131 -0.7603307 73 73 73
-0.0328201192344721 0.0131861630461819 0.015979965644284 -0.320435 0.5767061 0.7514862 26 26 26
0.00705295335024347 -0.00336968614084177 -0.0186213732214783 0.03368564 0.5365267 -0.8432108 148 148 148
0.00811478510135544 0.0254723007643435 -0.0013916401957718 0.009453847 0.4711266 -0.8820149 39 39 39
0.0158278129783125 0.00438682825238856 -0.0127097574273708 0.07117541 0.5441712 -0.8359497 178 178 178
0.0645675818588938 0.000773127318436262 -0.0082422662602563 0.07159664 0.7113667 -0.6991648 109 109 109
0.00516350132110865 0.00661309417135392 0.030000564017388 0.2215437 0.2989487 0.9281961 80 80 80
-0.0609001066277322 0.00775252322820952 -0.00618667032730184 -0.8115391 0.5553409 -0.1816612 79 79 79
-0.0117553533886654 -0.0312428085577386 -0.03836273094642 -0.007873542 0.5205344 -0.8538044 109 109 109
0.0442397550655635 -0.0149136804334954 -0.0247668190626786 -0.04789982 0.5107671 -0.8583837 177 177 177
0.00981635239684309 -0.0319827510844407 -0.0389614753123092 -0.06412674 0.5088751 -0.8584486 87 87 87
-0.0209818286704624 0.0155019980062531 0.0207645822930534 -0.3634011 0.5845068 0.7254596 26 26 26
0.0262936362391417 0.00347266154474635 -0.0133530299473694 0.0494618 0.4897441 -0.8704621 102 102 102
-0.00930328068256037 -0.000124389068273278 0.0344651951139979 -0.2357715 0.4622959 0.8548066 82 82 82
-0.0427704708675596 0.0207490742226993 0.00321198645745631 -0.615044 0.7716342 0.1621778 54 54 54
0.0423067197413145 0.0090016838157535 0.0227846009024235 0.1593561 0.2458399 0.9561215 95 95 95
-0.0416507775972672 0.0195764392172831 -0.000917519384371943 -0.4214773 0.7119113 -0.5617288 87 87 87
-0.0167397689519451 0.0142833960356538 0.0230456368176856 -0.141885 0.4833201 0.8638694 71 71 71
-0.0339720294253545 -0.00258038662201276 -0.0196598972490493 0.04628563 0.5422587 -0.8389357 64 64 64
0.016380451697013 -0.0139311940974366 -0.0256524700046076 0.06914226 0.5270894 -0.8469924 181 181 181
0.0454219494050343 -0.0103566875626392 -0.0213763652266618 -0.001790636 0.6856295 -0.7279484 166 166 166
0.0247842899842019 -0.016939376758608 -0.0268340344289883 0.007039635 0.5825065 -0.8127955 99 99 99
0.0213953010706751 -0.0192718275869418 -0.0287679344524731 0.01731382 0.6169475 -0.7868138 146 146 146
0.068297048476667 0.0126107399109973 0.00156371220518932 0.3420221 0.6431833 -0.6850811 83 83 83
0.0350628228922689 -0.000153384098401044 -0.0148707900106126 0.08349948 0.5253232 -0.8467959 105 105 105
-0.044410131196436 0.0191335362745221 0.00238778945257596 -0.5687999 0.8105044 0.1398184 167 167 167
-0.033564966373445 0.0252273837904681 0.00307683736744575 -0.2847366 0.8996816 -0.3309049 159 159 159
0.0513496836915777 0.0280438226193355 0.00727391186710109 0.1968846 0.6045241 -0.7718725 83 83 83
-0.0518206979998759 -0.0103655733683291 -0.02505955075578 0.1415916 0.4090913 -0.9014412 77 77 77
0.0249383978773952 0.0345758742721344 0.00235961721418272 0.1303028 0.3252333 -0.9366133 100 100 100
-0.0526260711781816 -0.0336515741548341 -0.0340508145657309 -0.2405685 0.3020769 -0.9224296 52 52 52
0.00853474010375965 0.0211051001184787 -0.0042732213941649 0.008126231 0.5051512 -0.8629926 138 138 138
-0.0572139453508416 -0.00631978300199576 0.00158269957656272 -0.8881416 -0.3374498 0.3119811 39 39 39
0.0655084517161755 0.00604527319314163 -0.00353973469772943 0.09732675 0.5353456 -0.8390069 90 90 90
-0.00328096446443293 0.0306333053924021 -6.12666559415831E-07 -0.05132429 0.5193462 -0.8530213 120 120 120
-0.0453098316154907 -0.010534197467761 0.0162412526769645 -0.7791306 -0.4178236 0.4673105 67 67 67
-0.0338932272493064 -0.00791110256581951 -0.0225598886908559 0.06473081 0.4357011 -0.8977608 206 206 206
0.0258972506056856 0.0313150922380804 0.0006942290072421 0.184568 0.2496075 -0.950595 220 220 220
-0.0401322410836729 -0.0241573312343791 -0.0312449119263451 0.1123941 0.4517787 -0.8850218 60 60 60
-0.00576706349310196 0.0245212249831984 0.0207865391495248 -0.2578041 0.483398 0.8365784 67 67 67
-0.0289447686747182 -0.0295028921376311 -0.0357398636829424 -0.1796268 0.6184639 -0.7650076 74 74 74
-0.000621538241730502 0.0158459627920776 -0.00749502094874115 0.05857394 0.5130568 -0.8563538 83 83 83
0.0562339613001188 -0.0116379576737798 -0.0195602933235654 0.2128482 0.6242944 -0.751633 60 60 60
-0.0600634544590419 -0.0121401987799271 -0.00702777484431232 -0.8280402 -0.05959732 0.5574921 45 45 45
-0.0237712828277687 -0.0389836450517936 -0.0434558786386296 -0.155421 0.6334926 -0.7579785 64 64 64
-0.0484784038154613 -0.0221637329565644 0.00304157690925096 -0.6669827 -0.5500755 0.5025446 50 50 50
-0.0142328367119231 -0.0319453453773756 -0.0390186309632525 0.03486634 0.5503403 -0.8342122 126 126 126
-0.0477766295923683 0.0140689911481905 -0.00461544986173472 -0.251362 0.772018 -0.5837854 133 133 133
0.0660968079239934 0.0114965594982578 -0.000364086822464069 0.229486 0.5316314 -0.8152939 71 71 71
-0.0590157588247502 -0.00189588560778364 -0.0199364476102927 -0.2348518 0.663605 -0.7102627 144 144 144
-0.0426727976823353 0.00297571730531832 -0.0169476687743656 0.1889207 0.5005123 -0.8448647 164 164 164
-0.0506600692134254 -0.00440948404829278 0.0171865798947084 -0.7357705 -0.240171 0.6332138 44 44 44
-0.0346598475245616 0.00821482680971208 -0.0132479978703423 0.05515017 0.4752257 -0.8781338 116 116 116
0.0216011725708953 0.00390087474153178 0.0268895259280538 0.2568543 0.009817452 0.9664003 107 107 107
0.0124276468432245 0.026710647986759 0.0201419055529072 0.1709415 0.3684261 0.9138059 88 88 88
-0.0650872112164285 -0.00201689450512299 -0.018436201241613 -0.5871217 0.6236399 -0.5161021 74 74 74
-0.0381258138505451 0.0184795263704037 0.00901329905927202 -0.4092303 0.5700454 0.7124457 42 42 42
-0.00484665231316272 0.0192675324543133 -0.00573280324865048 0.06178445 0.4778638 -0.8762584 88 88 88
0.026669473699918 0.00502161910050158 -0.0123140344311851 0.05408646 0.491907 -0.8689661 165 165 165
0.00617968858594597 -0.013325817844786 -0.0255310450049763 -0.005201126 0.5364229 -0.8439333 117 117 117
-0.00791958870377973 0.0163875208512202 0.024590994574184 -0.2410459 0.5065395 0.8278373 61 61 61
0.00883915993502793 0.026577740382156 0.0209799867278954 0.1613388 0.371533 0.9142937 123 123 123
0.0212127135884002 -0.0133060450989856 -0.0249984319806399 0.07472187 0.5370758 -0.840218 96 96 96
0.00793498848013563 0.00720281571941139 -0.0119939213748187 0.0666386 0.5385256 -0.8399699 206 206 206
0.0145016912479714 0.0158088337935148 -0.0065978272848554 0.04903446 0.431637 -0.9007137 80 80 80
-0.0382316445193114 -0.0121783802467227 -0.0249911663382318 0.108954 0.4724866 -0.8745773 70 70 70
-0.0180730266130844 0.00597652952686289 -0.0138699882913606 0.1194075 0.5106064 -0.8514828 105 105 105
0.0317081053146069 0.0331472178195636 0.0150112651272375 0.1263667 0.4511749 0.8834437 100 100 100
-0.0506385862521106 0.00594849867908198 0.0157524617125485 -0.2668703 0.4286903 0.8631366 156 156 156
-0.0320623696587536 -0.0245919877069755 -0.0316765122064077 -0.08041541 0.5200583 -0.8503368 61 61 61
0.0389945752982728 0.025142477572727 0.0167195551931067 0.1483123 0.3332368 0.9311051 98 98 98
-0.0243698290246019 0.00449859550379339 -0.0149277856657681 0.005310203 0.5258629 -0.8505527 106 106 106
-0.0514971250564855 -0.0334481845227524 -0.0255712196144217 -0.6240639 -0.7813501 0.006018274 20 20 20
-0.0467848517074319 -0.00668777362620931 -0.0230856733459692 0.1271611 0.3939384 -0.910298 110 110 110
0.0593496673576048 0.0142474965552003 0.00039578463910124 0.09257805 0.553003 -0.8280199 87 87 87
0.00837523003351581 0.0462363380632435 0.00926257253624414 -0.2000055 0.9248441 -0.3235138 77 77 77
-0.0510630245789279 -0.0297891490974914 -0.0324224551437064 -0.2288624 0.2114262 -0.9502215 72 72 72
0.0349781994155696 0.0356807558029434 0.00572357354149895 0.3417394 0.5019373 -0.794527 99 99 99
0.00687107333280945 -0.0157624525564058 -0.0270950890882726 0.03011835 0.5366624 -0.8432594 136 136 136
-0.03992279742948 0.00414201213449827 0.0205445710349797 -0.3973759 0.4268463 0.8123389 18 18 18
-0.0463627912822417 -0.0269445263971998 -0.0339226838654231 -0.0601867 0.2820022 -0.9575241 55 55 55
0.00740809454847913 0.0285420681446368 -0.000399497945628255 0.01165878 0.4243146 -0.9054397 86 86 86
-0.009559663959676 0.010852223395558 -0.00999727392638487 0.003986421 0.3872658 -0.9219595 179 179 179
-0.0628194373713598 0.00398229005796835 -0.00542753262869515 -0.9653751 0.07314474 0.2504012 114 114 114
0.00510443704929209 0.0424396083904303 0.00682943193868975 -0.2880499 0.6341006 -0.7175958 89 89 89
-0.0154978915320996 0.0140081575219356 0.0238918820154793 -0.1551701 0.4707601 0.8685086 74 74 74
-0.0207435724772291 -0.00662072922739954 -0.0217177726303363 0.07873552 0.5171458 -0.8522681 124 124 124
-0.0579936251267528 0.00358372728602452 0.00680843555119155 -0.9482638 -0.08724105 0.3052619 89 89 89
-0.0473255579646223 -0.0358857344474056 -0.0377122593436533 -0.1803358 0.4737034 -0.8620233 103 103 103
0.016937295549595 0.0274888014564177 -0.000386239042128908 0.03556373 0.3977196 -0.9168175 208 208 208
-0.00477264213784379 0.0214305301821068 -0.00465193953046399 0.06232264 0.4273474 -0.9019369 96 96 96
0.0451819839677556 0.0156359950573858 -0.00101075833139046 0.1661663 0.5337343 -0.8291662 194 194 194
-0.0365679001285111 -0.0307498501162012 -0.0345419026666588 -0.06100883 0.5538331 -0.8303896 78 78 78
0.0523632100519391 0.0275574924941188 0.00714773964860511 0.1919795 0.5551299 -0.8093051 78 78 78
0.0486124573301092 0.0257713314243432 0.00478779271103565 0.2097946 0.4444728 -0.8708789 89 89 89
-0.00873987313109659 -0.000227983959371847 -0.0167969076401104 -0.04972633 0.5378293 -0.841586 73 73 73
0.0206294806520684 0.0311891277638575 0.000870234611335466 0.01327553 0.2845012 -0.9585838 180 180 180
-0.0614273379979231 -0.0167181984291945 -0.013009347732493 -0.867855 -0.4236141 0.2595744 36 36 36
-0.0281744108083282 0.0284994479296131 0.00630112570451898 -0.4637076 0.8857587 -0.02016943 113 113 113
-0.00732833960725499 -0.0169264414008449 -0.0271651529232574 -0.02016294 0.5396006 -0.8416797 173 173 173
-0.0172681689553937 -0.0142963308712726 -0.0255928437602221 0.03447596 0.5738583 -0.8182287 171 171 171
-0.0515216933131319 -0.0248197873917982 -0.0325095998897293 -0.1672342 0.1851178 -0.9683822 91 91 91
-0.00970149057046665 0.000234269940467047 -0.0162333525948934 -0.04912173 0.5457184 -0.8365276 122 122 122
0.0403513241378639 0.00330005131014055 -0.0124308802153394 0.2176389 0.5826752 -0.7830217 195 195 195
0.000744758560273784 -0.0215777969653014 -0.0309910305695366 -0.03360204 0.5873333 -0.8086473 168 168 168
-0.0270348167550156 -0.027249820884922 -0.0339621223540309 -0.1214444 0.6079873 -0.7846035 78 78 78
0.00593215204254705 0.00911705890944525 -0.0112427867971516 0.1143036 0.5287503 -0.8410457 163 163 163
0.0280350873530213 0.010818621899456 -0.00883878154600375 0.02632734 0.5520775 -0.8333771 95 95 95
-0.00201658223101076 0.0247662112796377 0.0212830373985952 -0.2278833 0.4520962 0.8623678 60 60 60
0.0585586159685909 0.0135951599854179 -0.000132409185117519 0.1112485 0.5585997 -0.8219429 91 91 91
0.0418469156066963 0.0206901713182363 0.0186295003727925 0.1036226 0.4039058 0.9089128 108 108 108
-0.0141673580390176 -0.0234902636404039 -0.0322294358046932 0.02183226 0.6562943 -0.754189 193 193 193
0.0522385978192839 0.0290188925649074 0.00817196139917072 0.1996776 0.6577646 -0.7262745 94 94 94
0.0302399289243129 0.0129132911556481 -0.00749076434427358 0.1377777 0.5926872 -0.7935611 81 81 81
-0.0270912844771183 0.00422246948799965 0.0247625357829262 -0.4397748 0.393583 0.8072736 33 33 33
0.0237322099485278 0.00949607735258817 -0.00977026158343779 0.02688467 0.5346696 -0.8446335 74 74 74
0.0264779653790397 0.0227220109731995 -0.00133213965951666 0.1030185 0.4765248 -0.8731044 50 50 50
0.0424317069100022 0.0137490299735107 0.0217123737959025 0.1189196 0.3967204 0.9102039 69 69 69
0.0296511046057248 0.0423516364587176 0.00779029776224445 0.2444397 0.9695334 -0.01594094 112 112 112
0.0443610205793292 -0.00300334385901302 -0.0154729528107393 0.1776321 0.5855553 -0.790931 77 77 77
-0.0326950734123264 -0.00135351470584888 -0.0188399161332548 0.03184539 0.5242123 -0.850992 111 111 111
0.0669503927443578 0.00880446890137632 0.018231815587885 0.117354 0.4051888 0.9066698 101 101 101
-0.0103247304294185 0.0172348770932839 0.022955112536575 -0.2388736 0.4930297 0.8365771 56 56 56
0.019992927188023 -0.0234358707671335 -0.0319459622714266 0.02685867 0.6459008 -0.7629488 120 120 120
-0.0589448367878429 -0.0257449233012869 -0.0286983338784158 -0.9103761 -0.3230231 -0.258595 30 30 30
0.0206322715923801 -0.0289084311109878 -0.0371340892046856 0.05450012 0.6664105 -0.7435905 87 87 87
0.0179117200303414 0.000626620368800457 0.0265773609295498 0.2653309 0.007232772 0.9641303 119 119 119
-0.06247325780115 -0.0145504252858358 -0.0157114935846373 -0.7949295 -0.4176383 0.4400742 37 37 37
-0.0551913515106195 -0.0193363904057721 -0.0040927853453218 -0.7235868 -0.5253038 0.4477477 99 99 99
0.0473181944434566 -0.00602004951513579 -0.0172480798622451 0.1483221 0.6189767 -0.7712771 107 107 107
0.0246791399980242 -0.021399787045944 -0.0303657535894643 -0.003383595 0.6333716 -0.7738404 62 62 62
0.00912951098770964 0.0225801982733879 0.0225128254514835 0.1380611 0.4164839 0.8985991 138 138 138
0.0583180011482978 0.0122878890525889 -0.000750153921809923 0.07642595 0.5780508 -0.8124139 100 100 100
-0.0521384303948689 0.00480546055187736 -0.0150415159179819 -0.2045724 0.7797232 -0.5917617 128 128 128
-0.0226331614395971 0.0175338911345367 0.0186512653492941 -0.5076416 0.540566 0.6708863 78 78 78
