ply
format ascii 1.0
comment File exported by Rhinoceros Version 7.0
element vertex 472
property float x
property float y
property float z
property float nx
property float ny
property float nz
property uchar red
property uchar green
property uchar blue
end_header
0.0142729146513302 0.0424532005453704 0.0484894048049682 0.2270904 -0.06074754 0.9719772 167 167 167
0.0181243879827816 0.0442022392416594 0.0475572477653259 0.1298476 -0.123812 0.9837734 112 112 112
0.0249010784658749 0.0434102127218841 0.0476355980708831 0.09667205 -0.1818693 0.9785592 119 119 119
0.0233409864935238 0.0469558546209929 0.0485305320098632 0.06396478 -0.2205047 0.9732863 105 105 105
-0.0703041093316715 0.0978622743750213 -0.0356281865761048 -0.01133555 0.9884346 -0.1512239 54 54 54
-0.0617698566880863 0.0966912815237639 -0.0378861446306473 -0.03564324 0.959721 -0.2786846 97 97 97
0.0659999711546261 0.0888020107412932 0.00895030606534419 -0.2452209 0.964879 -0.0942079 91 91 91
-0.071398629423682 0.0981107065344451 -0.031674983017183 -0.03408083 0.9992131 0.02029088 83 83 83
-0.0695756213632267 0.0977759668493865 -0.0316991527006394 0.045629 0.9986861 0.02332645 88 88 88
-0.0658719079461735 0.0978216240072844 -0.031411396376825 -0.1145691 0.9923691 -0.04557873 117 117 117
-0.061838938471381 0.0990981170797942 -0.0291917194053894 -0.1700454 0.9805276 -0.09823538 71 71 71
-0.0696963207688969 0.0979898283148406 -0.0335098673031098 0.04659062 0.9986017 -0.02497722 83 83 83
-0.0659260885682743 0.0976462671423552 -0.0345462877676255 -0.01698729 0.9920351 -0.124811 84 84 84
-0.0601731674638432 0.0969702312613128 -0.0373334009573227 0.006041443 0.9572033 -0.2893533 59 59 59
-0.0559560792413395 0.0971089908743499 -0.0374889094755417 0.05851665 0.9663862 -0.2503469 91 91 91
-0.0504063503709477 0.096227676596701 -0.0394767392799622 -0.05059155 0.9682595 -0.2447737 69 69 69
-0.0543797152009647 0.0971006462240813 -0.0352673549577958 0.089454 0.9698952 -0.2264976 99 99 99
-0.0580158965554874 0.0988309690619109 -0.0299240518734223 0.04147663 0.989539 -0.1381744 78 78 78
-0.0536959903207462 0.0986619302893279 -0.0295672435686356 0.04143364 0.9801776 -0.19374 91 91 91
-0.0492037074533146 0.0976344654226897 -0.0313415397331482 -0.1249478 0.9684683 -0.2155393 75 75 75
-0.0599050657716435 0.0985554763937591 -0.033131139390207 -0.02192244 0.9720921 -0.233573 61 61 61
-0.0516414182153385 0.0972479889059661 -0.0336676407978302 0.01452467 0.97453 -0.2237863 105 105 105
-0.0655945675340336 0.0992920705938933 -0.0177230257913834 0.02898194 0.9989766 0.03472289 118 118 118
-0.0597134964433353 0.0994663545752166 -0.0153084714338547 -0.1148897 0.992228 0.04779176 85 85 85
-0.0579630272355717 0.099738509383261 -0.0171487499401337 -0.04620061 0.9986253 -0.0247564 92 92 92
-0.0582230823007267 0.0995667287970183 -0.0167271513864762 -0.06343327 0.9979836 0.002207863 64 64 64
-0.0500325100389164 0.0991163561010955 -0.0194574017450577 -0.05258457 0.9985743 0.009185035 123 123 123
-0.0532990233865421 0.099709064688742 -0.0176333357021576 0.05863617 0.9914356 -0.1166931 110 110 110
-0.0516657965150517 0.0993597814703582 -0.0158371199295289 0.09552675 0.9903058 -0.1008415 114 114 114
-0.0719297068086308 0.0973774501944182 -0.0254448969290024 -0.1060686 0.9914717 -0.07571833 102 102 102
-0.0682174699273747 0.0980176040793059 -0.0250217784569031 -0.1653536 0.9678074 -0.1897551 95 95 95
-0.0666573779550236 0.0975249120855926 -0.0267654825374848 -0.1663487 0.9782535 -0.1238875 119 119 119
-0.0675105588403385 0.0985591718817351 -0.0239638407156235 -0.1760304 0.9523603 -0.2490444 117 117 117
-0.0637443797555607 0.0991698810721038 -0.0233141202852494 -0.05239082 0.9829268 -0.1763806 155 155 155
-0.0633421676126164 0.0997517416144011 -0.0230670590326554 -0.02652905 0.9944086 -0.1022141 148 148 148
-0.0677542822328251 0.0994564602041839 -0.0210151542351014 -0.1623137 0.9719184 -0.1703787 147 147 147
-0.0677177445855778 0.0997948953772185 -0.0193748046085602 -0.101919 0.9921002 -0.07314096 114 114 114
-0.0648535029855412 0.0996773550177215 -0.0213910807296998 0.0003474659 0.9963043 -0.08589326 229 229 229
-0.0584668652978581 0.0996611425543426 -0.0256239045784241 0.0168521 0.9993093 -0.03311994 211 211 211
-0.0558829443422001 0.0991443702841399 -0.0215778667852646 0.03387914 0.9964254 -0.07738631 146 146 146
-0.0521776812043827 0.0992384264135955 -0.025558711998201 -0.05368495 0.9961924 -0.06869239 129 129 129
-0.0520801680055302 0.0991390058661101 -0.0236863512918717 -0.07677262 0.9961757 -0.04171281 144 144 144
-0.0593565838304203 0.0994843551779387 -0.0196963418648011 -0.02903305 0.9979059 -0.05780134 85 85 85
-0.0561375157800358 0.099436790671408 -0.0195233840868241 0.02935255 0.9948871 -0.09663367 194 194 194
-0.0518933074441593 0.0989643642569182 -0.0194750149175889 -0.014485 0.9994641 -0.02935433 89 89 89
-0.0435320870843571 0.0958625385428069 -0.0409641582891709 0.1223916 0.9058481 -0.4055361 103 103 103
-0.0456935303178471 0.0973561117315886 -0.0384849030897385 0.001811869 0.9476005 -0.3194527 107 107 107
-0.0397943990197819 0.0955479452276824 -0.0399267096445328 0.06604477 0.9207659 -0.3844844 120 120 120
-0.0380636589494389 0.0959399053717254 -0.0387861002609498 0.01836911 0.9435899 -0.3306065 120 120 120
-0.0421466963258427 0.0977619001532195 -0.0357112009451157 0.1642384 0.9388798 -0.3025401 89 89 89
-0.0483554141488712 0.0983817884588836 -0.0314082224294907 -0.1302142 0.9683332 -0.213014 67 67 67
-0.0457178490129154 0.0993105480337737 -0.0296105910465485 -0.07970707 0.9846351 -0.1553725 102 102 102
-0.0419952409234684 0.0990125248098968 -0.0294876713678605 0.1820082 0.9752278 -0.1257133 115 115 115
-0.0374542014566105 0.0976025173330901 -0.0287050325796372 0.2715886 0.953084 -0.1336806 102 102 102
-0.025460912462775 0.0954487630987761 -0.0356480200216538 0.1571007 0.9875554 -0.007330624 99 99 99
-0.0364791290727299 0.0957588264608977 -0.0405867714807755 -0.04093149 0.9365687 -0.3480858 155 155 155
-0.0301456587281864 0.0961513826513885 -0.0398112256452805 0.09109022 0.9819251 -0.1659089 142 142 142
-0.0339656608071964 0.0970906326437591 -0.0354319978878266 0.03469429 0.9922886 -0.1189945 127 127 127
-0.0279960768190067 0.0954897710943816 -0.0401505399868256 0.1663899 0.9668908 -0.1934857 122 122 122
-0.0297024385896366 0.0960973808432219 -0.0411844570562607 0.1249528 0.9706503 -0.205487 85 85 85
-0.0248271362748783 0.0957075664663909 -0.036368312351442 0.1678355 0.9849488 -0.0413188 82 82 82
-0.0340066688028019 0.0970586845541594 -0.0337246675417191 0.09898976 0.9923228 -0.07413865 121 121 121
-0.0341796414819401 0.0970125505591033 -0.0295911450311905 0.1847394 0.9816619 -0.04702369 84 84 84
-0.0275085704293888 0.0954901287222503 -0.0307049323246247 0.223499 0.973438 0.04966489 85 85 85
-0.0263141529527348 0.0956919500494597 -0.031737016551233 0.1946089 0.9794218 0.05348186 112 112 112
-0.0239251987901371 0.0951941320562957 -0.03342886459086 0.2332604 0.9693367 0.07730418 58 58 58
-0.0285567777124088 0.0958961555624602 -0.0273937005922562 0.29947 0.9494043 0.09459998 65 65 65
-0.0267772810426395 0.0957830259466765 -0.0297615845129258 0.2641861 0.959288 0.09986117 125 125 125
-0.0478727953401249 0.0990461418295501 -0.0150579829141861 0.00737182 0.9999301 -0.009243622 109 109 109
-0.0438652770486515 0.0999119588995574 -0.0174599010870224 0.00978273 0.9991721 0.03948977 127 127 127
-0.0442065136399906 0.0998788187170623 -0.0157091338560349 -0.02708266 0.9990487 0.0341791 111 111 111
-0.0414032475915592 0.0995667287970183 -0.0167271513864762 0.06777482 0.9977005 -0.0004643146 75 75 75
-0.0419273512330692 0.0997978756094573 -0.0132151861116654 0.02861473 0.9993967 -0.01968022 112 112 112
-0.0400478975740116 0.0993880340719817 -0.0136001427099472 0.1076879 0.9938029 -0.02755255 131 131 131
-0.031950010534827 0.0963934967184661 -0.0196716357395417 0.4249515 0.9051593 -0.01014263 111 111 111
-0.0291661756005924 0.0954493591452239 -0.0228893477842576 0.3993745 0.9070455 0.133298 100 100 100
-0.0277252333131474 0.0952948639059661 -0.0252561886236435 0.3504134 0.9255849 0.143189 179 179 179
-0.0260042087999027 0.0931158373022674 -0.0193978865072495 0.2411567 0.9704518 -0.008177149 126 126 126
-0.0238618390527409 0.0931532690191863 -0.0195500422641999 0.1197932 0.9923165 -0.030945 118 118 118
-0.0339033739534061 0.0972217628622649 -0.0173843969032532 0.3876936 0.9206169 -0.04645634 112 112 112
-0.0337350504365604 0.0974810430670379 -0.0132886935398346 0.3640697 0.9303432 -0.04375872 101 101 101
-0.0342852609124821 0.0980670759344695 -0.0138739962503678 0.3638414 0.930451 -0.0433626 104 104 104
-0.0277767317262333 0.0958687374258635 -0.0134251434728867 0.2936477 0.9412148 -0.1669901 117 117 117
-0.0276548402276676 0.0959260770941375 -0.0117475856468445 0.2676446 0.9596503 -0.08624117 109 109 109
-0.0263872282472294 0.095871002402365 -0.0119443554804093 0.1927312 0.9744382 -0.1154337 133 133 133
-0.0442030565705936 0.0993715831900237 -0.0275534261390931 0.05309503 0.9937566 -0.09812596 137 137 137
-0.0437921421495121 0.0993402311468718 -0.0255511571094758 0.05444473 0.9965705 -0.0623134 122 122 122
-0.0474290983644169 0.100154549803793 -0.0217125583812958 -0.07189754 0.9973401 -0.01197861 110 110 110
-0.0378956930604618 0.0984021732473968 -0.0254491139576203 0.287808 0.9507272 -0.1152579 163 163 163
-0.041354490992133 0.0997370788717864 -0.0263126511499649 0.1672007 0.9793282 -0.1138426 200 200 200
-0.0402331488099735 0.099706680502951 -0.0226889420673615 0.1599236 0.9840404 -0.07803082 128 128 128
-0.0476111309495609 0.0997957298422454 -0.0190750379488236 -0.09194314 0.9928841 0.07568117 115 115 115
-0.0399832861390751 0.0993944713736175 -0.0196670163795716 0.1830519 0.9831022 0.001434222 120 120 120
-0.0351790921655338 0.097490818228781 -0.0235947985574967 0.3313609 0.9409533 -0.06933214 165 165 165
-0.0300924913850468 0.0961400577688811 -0.0235755164549118 0.3691293 0.9251741 0.08829797 167 167 167
-0.0347240107026737 0.0977683374548552 -0.0211978871748215 0.3616096 0.9313523 -0.04267944 70 70 70
-0.0290199058023136 0.0955488989019988 -0.0255115200207001 0.3467661 0.9304634 0.1182842 154 154 154
-0.0720120804277103 0.0999907562399505 0.00608403790738521 0.04786985 0.9966796 -0.06586574 132 132 132
-0.0656774179902714 0.0994223663473723 0.00430433262135921 0.1427129 0.9858176 -0.08829954 116 116 116
-0.0656962530580204 0.0998598644400237 0.00862566936757503 0.06950863 0.9877441 -0.1397503 122 122 122
-0.061903967138831 0.0987990209723113 0.00641946304585872 0.07840784 0.9770702 -0.1979545 119 119 119
-0.0719877021279972 0.100193650450766 0.0103506873920196 -0.05330074 0.9956035 -0.07702384 78 78 78
-0.0680529015031498 0.100267321791708 0.0106395016982788 0.0182561 0.987866 -0.1542319 95 95 95
-0.0692510144677799 0.101314694609701 0.0143989752605194 0.01063087 0.9934112 -0.1141105 82 82 82
-0.0662898557153385 0.100196153845846 0.0122367571666473 0.0353551 0.9878797 -0.1511415 115 115 115
-0.0636509196725529 0.100500733580649 0.0140167902782196 0.05155327 0.9910411 -0.1232068 78 78 78
-0.0612945096460026 0.0976231405401824 0.00301949489858089 0.1095923 0.9802337 -0.1647165 145 145 145
-0.059909953352515 0.0984014579916594 0.00463001240041194 -0.1097104 0.9839839 -0.140497 87 87 87
-0.059478475328986 0.0993289062643645 0.00829879749562679 -0.009096378 0.9940168 -0.108848 114 114 114
-0.0557732121911686 0.0993812391424773 0.0063538681342834 0.01280064 0.9996963 0.02105839 118 118 118
-0.049720539328162 0.0988662550116179 0.00466541755940852 0.1276497 0.9871243 0.09639134 197 197 197
-0.0501679317918461 0.09880998822695 0.00649867761876521 0.1421968 0.9814608 0.1285101 147 147 147
-0.0539376871553104 0.0982672283316253 0.014575673229956 0.3093458 0.9493498 0.05513825 188 188 188
-0.0518452661004704 0.0979470321798919 0.0147254597022766 0.2733916 0.9507397 0.14612 220 220 220
-0.0558297173944157 0.0988518306875823 0.0108775626495117 0.1563045 0.9875284 0.01888156 196 196 196
-0.0580183403459232 0.0998766729498504 0.0127750467136138 0.2324751 0.9681454 -0.09300433 127 127 127
-0.0517920987573307 0.0984044382238982 0.0123940538242095 0.1884599 0.9710677 0.146664 216 216 216
-0.0500255362954777 0.0980044910574553 0.0121886264159912 0.1486693 0.9720643 0.1816271 173 173 173
-0.0378869311776798 0.0972204515600799 0.00263427007939754 0.1424096 0.9750817 0.1701034 138 138 138
-0.0319694416490238 0.0969766685629485 0.00224761474873958 0.07322416 0.9838175 0.1635276 177 177 177
-0.0242421166864079 0.0961236068869231 0.000889046080374101 0.2284436 0.9735401 0.00576412 152 152 152
-0.0262348787751835 0.0927094528341887 0.0206982325389617 0.1302996 0.9580328 0.2553332 170 170 170
-0.0457248227563541 0.0986737320089934 0.00472064126279292 0.1144851 0.9777197 0.1759471 152 152 152
-0.046092404600684 0.0982609102392791 0.00628863085057674 0.1341096 0.980269 0.1452145 185 185 185
-0.0233158009019535 0.0604200670385955 0.0497284065559143 0.05156637 0.1666342 0.9846694 171 171 171
-0.0447915928331059 0.0979259321356414 0.00648496855046687 0.1514139 0.9749015 0.1632202 184 184 184
-0.0395831005540531 0.0973303625250457 0.00486628521230159 0.2454499 0.9511985 0.1870184 135 135 135
-0.0377954976525944 0.0969572374487517 0.00462601888921199 0.167821 0.9654564 0.1993239 152 152 152
-0.0437921421495121 0.0970996925497649 0.0127237569167846 0.1039937 0.9903543 0.0915622 139 139 139
-0.0416307585206669 0.0967034408712981 0.0125102530791992 0.1998939 0.9796924 0.01566032 105 105 105
-0.0379688279596012 0.0960650751257537 0.0146556328609222 0.2021796 0.9788678 -0.03068072 163 163 163
-0.048277451273505 0.0974124977255462 0.0114686023071044 0.14582 0.9748983 0.1682549 114 114 114
-0.043702735182349 0.0972215244436858 0.0104881357028717 0.1376375 0.9846139 0.1076632 128 128 128
-0.0356990830865543 0.0952451536322234 0.0103430877998107 0.03284413 0.9961041 0.0818407 138 138 138
-0.0359149711099308 0.0973496744299529 0.0023168455436462 0.08134543 0.9797043 0.1832002 150 150 150
-0.0317403213945072 0.0961262294912932 0.00869975794103084 -0.04046019 0.9877487 0.1507168 71 71 71
-0.0331639187303227 0.0958459684515593 0.0105480681731933 -0.05991316 0.9954168 0.07453743 128 128 128
-0.0300924913850468 0.0961344549322722 0.0104466210677856 0.03539313 0.9904464 0.1332783 131 131 131
-0.0248027579751652 0.0959480116034148 0.00650490630414424 0.2239836 0.9656479 0.1317399 211 211 211
-0.0243883864846867 0.0960091659689544 0.00407902706410823 0.2295207 0.9687163 0.09438775 230 230 230
-0.0282154815164249 0.0958422729635833 0.0104826818778747 0.1174606 0.9765194 0.1805903 156 156 156
-0.0267285244432133 0.0958375045920012 0.00975920069959102 0.166772 0.9680366 0.1873294 196 196 196
-0.0361256735292118 0.0952569553518889 0.0141469966247314 0.08932883 0.9959745 -0.007422434 116 116 116
-0.0360403792825382 0.095664293494284 0.0128943454101318 0.08792245 0.9957191 -0.02851702 132 132 132
-0.0318371789422672 0.0954101392889617 0.0147283803298706 0.08520408 0.9911125 0.1021581 176 176 176
-0.0341267721620243 0.0952968904638885 0.0169838498904937 0.1281715 0.9880438 0.08568209 128 128 128
-0.0301168696847599 0.0943496534491179 0.018330259211325 0.2318237 0.9267911 0.2954929 186 186 186
-0.0280123488870304 0.0944834062719939 0.0163478087260955 0.2216654 0.9447243 0.2415792 165 165 165
-0.0699969665971439 0.0982280084753631 -0.00522540699694218 0.0781493 0.9956393 -0.0509415 90 90 90
-0.0659098165002506 0.0978163787985442 -0.00584458004686894 0.0832689 0.996481 -0.0095876 116 116 116
-0.0643984811273258 0.0977038452292083 -0.00697283636782231 0.006408202 0.9936869 0.1120053 127 127 127
-0.0618673698869389 0.0980012724066375 -0.006962435357309 -0.1428454 0.9795995 0.141351 129 129 129
-0.0718885796037357 0.0984380552435515 -0.0095305163786179 0.03400021 0.9847736 0.1704842 93 93 93
-0.0695012943711918 0.0995068857336638 -0.0118055511638886 -0.02571248 0.9839754 0.1764404 105 105 105
-0.0660102503266972 0.0987739870215056 -0.0114776362106568 0.08323316 0.9734254 0.2133431 149 149 149
0.0440952045950253 0.0879624197149871 -0.00955891799185338 -0.05864088 0.9972221 0.04592836 64 64 64
-0.064094318625037 0.0981653043890593 -0.00137655626986088 0.1177611 0.9793041 -0.1646077 112 112 112
-0.0640896694627445 0.0987532446051238 0.000651700384878495 0.1712853 0.9656457 -0.1954219 98 98 98
-0.0618064539399784 0.097935588088095 0.000535113699697831 0.02702022 0.989288 -0.1434545 143 143 143
-0.0583692924943607 0.0988109419012664 -0.00571529757235112 -0.2709734 0.9553524 0.1177934 111 111 111
-0.0599782006707829 0.0990913221502898 -0.0117294956371552 -0.2125532 0.9732034 0.08772869 89 89 89
-0.0580768125024479 0.0999460527563689 -0.0112187583372361 -0.1835041 0.9810636 0.06197168 109 109 109
-0.057264222380225 0.0997516224051116 -0.00930991958830418 -0.1472975 0.98395 0.1007267 96 96 96
-0.0565654771295231 0.0996665069723723 -0.00824712406847539 -0.1217313 0.9866507 0.1081751 105 105 105
-0.0501909987893742 0.099902779784262 -0.0135012735054261 0.1132996 0.9913559 -0.0661562 123 123 123
-0.0532258884874027 0.0995472976828216 -0.00677465092394414 -0.02964489 0.9979459 0.05679042 227 227 227
-0.0496912734475773 0.0995431253576873 -0.00743462335321965 0.01551875 0.9994522 0.02923194 113 113 113
-0.0580036776033085 0.0986688444281218 -0.00347225558016362 -0.2984133 0.9540209 0.02817056 86 86 86
-0.0571504967179935 0.0997399398947356 0.000191910155081132 -0.3101842 0.9496244 -0.0447138 143 143 143
-0.0519046323266666 0.0993961403036712 -0.00535120259974065 -0.00905492 0.9990062 0.04364245 185 185 185
-0.050390078302924 0.0995397874975799 -0.00521962534639897 0.01290035 0.998525 0.05273985 172 172 172
-0.0500812666383427 0.0997984716559051 -0.003791527859903 0.0002615977 0.9989774 0.04521285 204 204 204
-0.0537085072961491 0.0998529503012298 -0.00176482092592778 0.01021909 0.9998983 -0.009947638 90 90 90
-0.0525189774003666 0.0996840307379363 -0.00634025227282109 -0.01382786 0.9995315 0.0273045 227 227 227
-0.0718008415666264 0.0996327707434295 0.00401077974584041 0.05580377 0.9934705 -0.09951004 106 106 106
0.0813377959760982 0.0321812936926482 0.0340117942168945 0.9665832 0.2117389 0.1445116 217 217 217
-0.0648535029855412 0.0996887991095183 0.00441027987744746 0.1496761 0.9835799 -0.1008342 154 154 154
-0.0555172698465031 0.0998086044455169 0.00206558216359554 -0.0515934 0.9986554 -0.005045816 59 59 59
-0.0499289171662968 0.0991221973562835 0.00235141623761592 0.1110529 0.991936 0.06107615 190 190 190
-0.0398065583673161 0.0990487644339202 -0.00543858300898137 0.2141521 0.9742453 0.07060414 219 219 219
-0.0379051701989811 0.0985346147680877 -0.00522338043901982 0.1948575 0.9791917 0.05669321 241 241 241
-0.0438896553483646 0.0998745271826385 -0.0131195951626069 -0.06169846 0.9975558 -0.03279926 73 73 73
-0.0419395105806034 0.1002457449103 -0.0108466465399033 0.04286648 0.9988217 0.0227524 116 116 116
-0.0394774811235111 0.0994129488134978 -0.0118608195707566 0.1425945 0.989327 0.02998115 113 113 113
-0.0397943990197819 0.0998347112799285 -0.0131809134409195 0.1401064 0.9897738 -0.02679743 120 120 120
-0.0473673479524296 0.0993286678457854 -0.00361974727366032 -0.02115159 0.9949496 0.09812224 170 170 170
-0.0474242107835453 0.0998137304449676 -0.00421564470980229 -0.01400013 0.996396 0.08366008 124 124 124
-0.0459447638955753 0.0990943023825286 0.000857038386129716 0.01100035 0.9945735 0.103453 113 113 113
-0.0417648093667667 0.0993551323080657 -0.00338502418253483 0.1677842 0.9824882 0.08102675 185 185 185
-0.0398880975213688 0.0980910370016692 0.00046206820752559 0.2370708 0.9550071 0.1782105 139 139 139
-0.0430120961633366 0.0995756694937346 -0.00632803332064213 0.07331619 0.9961448 0.04816887 92 92 92
-0.0298132436242741 0.0962119409704802 -0.00964504670355382 0.2753184 0.9592966 -0.06284779 121 121 121
-0.0347240107026737 0.0975641319418548 -0.0054869521782166 0.1742169 0.9845949 -0.01487965 212 212 212
-0.026167883154456 0.095769912924826 -0.00732533823702397 0.2209512 0.9711108 -0.09013485 128 128 128
-0.0241933004823368 0.0956635782385467 -0.00599689971659245 0.1846064 0.9791755 -0.08447345 135 135 135
-0.0237336890664738 0.0954373190069793 -0.00374908935282292 0.2085887 0.9743201 -0.08480009 131 131 131
-0.0320507423844975 0.0978452274466155 -0.00153272043917241 0.1134994 0.9925924 0.04333847 202 202 202
-0.0308725373712223 0.0976935932303069 -0.00278087150309148 0.1602302 0.9870658 -0.005237339 158 158 158
-0.0357722179856937 0.097778231825888 0.000274015553259233 0.0640289 0.9840387 0.1660366 219 219 219
-0.0339537398782414 0.0978465387488006 0.000212175734304765 0.06581967 0.9877271 0.1416438 215 215 215
-0.030628754374091 0.097827584471762 -0.00100784193728032 0.148227 0.9879627 0.04425525 169 169 169
-0.0276193754640263 0.0969628402853606 -0.00131826292727055 0.2134075 0.9769627 -0.0009945843 170 170 170
-0.024254276033942 0.0958081791067718 -0.0028646160290009 0.2158855 0.9737076 -0.07271228 135 135 135
-0.0241446034875553 0.0959910461569426 -0.00136308562014165 0.2318536 0.9716144 -0.04700469 141 141 141
0.0223781330618221 0.0891788313055633 -0.00761379491541447 0.4329862 0.8972096 0.08682123 94 94 94
0.0200878245863277 0.0906433174276946 -0.00744573961947026 0.4700421 0.8798124 0.07064423 90 90 90
0.0242225987943966 0.0888266870642302 -0.00952139686796727 0.3337302 0.9340272 0.1273474 109 109 109
-0.0218044655290287 0.0933299371863006 -0.0257316399738556 0.1759237 0.9789555 0.1034263 119 119 119
-0.0178839104142826 0.0930271455908416 -0.0272020567581421 0.07489554 0.9931433 0.08976055 123 123 123
-0.015826119658057 0.0930425235891936 -0.0258242357895142 0.09935723 0.9945901 0.03030907 125 125 125
-0.0096730129686039 0.0921769449377654 -0.0277205873653656 0.1357412 0.9865653 0.09090214 66 66 66
-0.00747103857666664 0.0915466854239104 -0.028900193087793 0.102715 0.9942467 0.03038158 81 81 81
-0.00790978836685829 0.0917504140997527 -0.0256319959089524 0.04690734 0.9977049 0.04883345 70 70 70
-0.00586213040024453 0.0914863655233977 -0.0258819926903016 0.03867063 0.9991161 -0.01648321 50 50 50
-0.00823159384400063 0.091563255515158 -0.0235748011991745 0.01712486 0.9998533 -0.0003090351 70 70 70
-0.00178517269760781 0.0908115217352508 -0.0316998679563767 0.08366101 0.9940095 -0.07032715 52 52 52
-0.000304295298163226 0.0908080646658538 -0.0254270751402146 0.1207698 0.9924526 -0.02127152 43 43 43
-0.00342453884751015 0.0913617918158172 -0.0270362962410218 0.1020444 0.9936061 -0.04831037 70 70 70
-0.0197625296083134 0.0940501997137664 -0.037241177670694 0.2444821 0.9694178 -0.02139123 86 86 86
-0.0177822844949406 0.0933757135534881 -0.0358715076372391 0.1777018 0.983973 -0.01480888 49 49 49
-0.017172886606757 0.0934677431250213 -0.0367741156742341 0.2098258 0.9776872 -0.01003907 33 33 33
-0.0122000710931461 0.0922373840475676 -0.0356740672514206 0.2295783 0.9658123 -0.1204178 56 56 56
-0.012162162539069 0.0927461692953704 -0.0311709959432847 0.1920713 0.9812743 -0.01447059 140 140 140
-0.0182698504892033 0.0938624450827239 -0.0392102022096878 0.2007766 0.9766736 -0.07614096 61 61 61
0.057789967778619 0.0884540388250945 -0.00895391594622197 -0.07687296 0.9943057 0.07380226 100 100 100
-0.0180574195352238 0.0931895086432097 -0.0315113980695969 0.1060921 0.9934088 0.04339819 71 71 71
-0.0223244564500492 0.0939156124258635 -0.0278031546995408 0.2394349 0.960336 0.1429182 140 140 140
-0.0157590644326847 0.0934666702414153 -0.0311100799963242 0.1236231 0.9917196 0.0347792 98 98 98
-0.00900675224930458 0.0913771698141692 -0.0372187216207749 0.1223748 0.9905493 -0.06193984 63 63 63
-0.01044495272309 0.0915911504889129 -0.0359044392034775 0.1511773 0.9852627 -0.08001797 48 48 48
-0.0108837621179264 0.0915733883047698 -0.0333352852985627 0.1778585 0.9750201 -0.13305 58 58 58
-0.00688595938355141 0.0918245622778533 -0.0328589398786789 0.1591048 0.9826371 -0.09544609 62 62 62
-3.96506753604919E-05 0.0906273433828948 -0.0336926151439911 -0.05251727 0.9978801 0.03843483 46 46 46
-0.0179041759935062 0.0928122112417815 -0.0217583794519669 0.03947591 0.9975892 -0.05707316 121 121 121
-0.0222641365495365 0.0931768724585174 -0.0217211265489823 0.08016393 0.9966063 0.01869764 88 88 88
-0.0217410461869877 0.0929348776007293 -0.019385011903978 0.01165395 0.9959791 -0.08882397 151 151 151
-0.0200168030229252 0.0929810115957854 -0.0193199832365281 0.0192656 0.9945035 -0.1029155 125 125 125
-0.0138942735162418 0.0927388975287078 -0.0217034835741288 0.1840089 0.9809307 -0.06257415 161 161 161
-0.0135285990205448 0.0928783723974822 -0.0191274304315812 0.2040325 0.9689755 -0.139489 142 142 142
-0.0235108272996586 0.0949701378012298 -0.0129289050028092 0.1558075 0.973712 -0.1661592 116 116 116
-0.0181723372903507 0.09405985566622 -0.0114659984037644 0.1636106 0.9801363 -0.1120904 113 113 113
-0.0172703998056095 0.0934523651266692 -0.0143266786262757 0.09402973 0.9905266 -0.1000769 135 135 135
-0.0117674009767216 0.0933373281622527 -0.0132056642696625 0.2614238 0.9652025 -0.006467017 143 143 143
-0.0218166248765629 0.0938710281515716 -0.0167928804085022 0.0476668 0.9820783 -0.1823465 106 106 106
-0.0165228383508366 0.0935049364233611 -0.01717029701922 0.05261152 0.9929896 -0.1058474 124 124 124
-0.00938053297669106 0.0920067140722869 -0.0172245372459656 0.1911018 0.9746876 -0.1160356 107 107 107
-0.00227881836563759 0.0914495298529265 -0.0178364385292298 0.09959903 0.9949301 0.01393278 89 89 89
-0.000145866152350238 0.0910940477514861 -0.0159779955074555 0.03503117 0.9974225 -0.0626193 69 69 69
-0.0102499263253849 0.0916158268118499 -0.0201096255705124 0.1191095 0.9914274 -0.053708 122 122 122
-0.00403393673569374 0.0919587919378875 -0.0234421659633881 0.106663 0.9923311 -0.0624649 58 58 58
-0.0031807558503788 0.0915617057943938 -0.0223415214941269 0.1203925 0.991883 -0.04091151 55 55 55
-0.00120623278290444 0.0914432117605803 -0.0203754324838883 0.1495962 0.9886947 -0.01019002 37 37 37
-0.00217081474930458 0.0918337413931487 -0.0191217530891663 0.125241 0.9919727 0.01746253 67 67 67
-0.00997365879685097 0.0923435995245574 -0.0155767072365052 0.2557663 0.9654401 -0.05008993 166 166 166
-0.00599624085098915 0.091956526961386 -0.0154553670809037 0.0797315 0.9968125 0.002792327 82 82 82
-0.00977869200379067 0.0921483347082732 -0.0112517793104416 0.2668481 0.9630796 0.03563458 179 179 179
-0.00756849217087441 0.0915366718435882 -0.00913013707850041 0.1179815 0.992268 -0.03852979 204 204 204
-0.00568665432602578 0.0918497154379485 -0.00907765518877568 0.04188694 0.9988002 -0.02537171 195 195 195
-0.00201065706879311 0.0913079092169402 -0.0151099581644303 0.03467342 0.9990887 -0.02489074 94 94 94
-0.00130374598175698 0.0917759248877166 -0.0154761542007691 0.0527912 0.9974325 -0.04838858 81 81 81
-0.00380475687653237 0.0915417978430388 -0.00955197405073704 -0.02402771 0.9993522 -0.02679146 198 198 198
-4.8352953497699E-05 0.0922286817694304 -0.0115558375046021 -0.03071752 0.9986677 -0.04146537 115 115 115
0.00159095359175987 0.0909946272040008 -0.0295154322311646 -0.05682704 0.9983792 0.003092266 47 47 47
0.00982241463988609 0.0922992536688445 -0.0273958463594681 -0.1854506 0.9822354 0.02866451 68 68 68
0.0120789868864376 0.0924502918387053 -0.0273070950433976 -0.1760603 0.9841206 0.02256918 39 39 39
0.0124690396818478 0.0926487753058074 -0.0257959235832459 -0.1809585 0.9831399 0.02626723 80 80 80
0.0164058668646175 0.0933740446234343 -0.0251457561180359 0.05649803 0.9960713 0.06819014 64 64 64
0.0174174768957455 0.0937394210959075 -0.0262839962169892 0.126915 0.9915326 0.02748886 131 131 131
0.0203345282110531 0.0926063367987273 -0.0276958514377839 0.3398115 0.9395856 0.04131683 57 57 57
0.0225182635816891 0.0911634275580047 -0.027263538949228 0.4312206 0.8949372 0.1146132 77 77 77
0.0243567092451412 0.0912350723410247 -0.0310811270401246 0.383613 0.9233658 0.01538248 62 62 62
0.0220002992185909 0.0912000248098968 -0.0234581400081879 0.4540088 0.8891029 0.05806924 101 101 101
0.0538767440351803 0.0884614298010467 0.0344184469058746 0.2885859 0.8340308 0.4702242 173 173 173
0.0241291983160336 0.0899902889395354 -0.0234040934965378 0.3715193 0.9277227 0.03611202 99 99 99
0.0221082432302792 0.0912492582464812 -0.0255598444864518 0.4501253 0.886174 0.1099219 87 87 87
0.00385187697737999 0.0918234893942473 -0.0377846379205948 -0.1224021 0.9831905 0.1354778 41 41 41
0.00591169429152794 0.091469318594992 -0.0336746294424302 -0.2269285 0.973596 0.02478486 69 69 69
0.00822751355498619 0.0923123666906951 -0.0373899508640534 -0.1776578 0.9834924 0.03435803 53 53 53
0.00815437865584678 0.0922875711584685 -0.0354919750616318 -0.1893542 0.98179 0.01527517 61 61 61
0.00816415381758995 0.0925321886206267 -0.0312141646072632 -0.1919689 0.9792908 0.0643229 116 116 116
0.0102612240347225 0.0922988960409759 -0.0297622997686631 -0.1643896 0.9850739 0.05104315 58 58 58
0.0140778882536251 0.0923531362677215 -0.0379040409252411 0.09579873 0.992583 -0.074844 83 83 83
0.0162778956922848 0.0924898693228362 -0.035448940508104 0.1068705 0.9885724 -0.1063171 59 59 59
0.018303142312463 0.0926070520544646 -0.0334444959089524 0.1515922 0.9825025 -0.1082068 67 67 67
0.018197522881921 0.0926961013937591 -0.0315502155945069 0.1396456 0.9859245 -0.09193482 69 69 69
0.0207083089384396 0.0914373705053924 -0.0360516775772339 0.2512883 0.9608268 -0.116902 83 83 83
0.020098911050256 0.0925786802435515 -0.0313663948700196 0.2326526 0.9702038 -0.06765719 97 97 97
0.0138341052564938 0.0929664680624602 -0.0288919974491364 -0.100967 0.9944878 -0.02827851 65 65 65
0.00438819957106895 0.0914562055731414 -0.01670722853396 -0.08880703 0.9926665 -0.082016 51 51 51
0.0121155841383297 0.0924281189108489 -0.0235362220928437 -0.1759813 0.9840782 0.02491584 112 112 112
0.0117559893163998 0.0926143238211272 -0.0176989157125718 -0.1255283 0.9920895 0.001068763 174 174 174
0.00390063357680626 0.0919388839865325 -0.0113531370088822 0.00277631 0.9998853 0.01489047 98 98 98
0.00400762391417808 0.0920627424383758 -0.00976234864447179 -0.0002906082 0.9986176 0.05256121 89 89 89
0.00585077834456749 0.0919742891455291 -0.0095305312797791 -0.0611634 0.99721 0.04279386 105 105 105
0.00814627242415733 0.0918088266516326 -0.0157687534019715 -0.0983614 0.9950908 -0.01092384 91 91 91
0.00778870416014976 0.0914895841742156 -0.0130523015186554 -0.07745656 0.9969938 -0.001953853 108 108 108
0.0112989409002621 0.0924243042135833 -0.0117022116110093 -0.1192738 0.9924758 -0.02766926 96 96 96
0.0243160588774044 0.0901803085470794 -0.0194914657995469 0.3761298 0.923648 0.0734896 88 88 88
0.025502370122369 0.0897577116156218 -0.0196588803455597 0.3910377 0.9158846 0.09080195 89 89 89
0.0221221311125118 0.0903430292273162 -0.0156986434385544 0.3199574 0.9402891 0.116119 103 103 103
0.0182323319944698 0.0927213737631438 -0.021591426841951 0.1988034 0.9703323 0.137595 82 82 82
0.0220808846983273 0.0909152338171599 -0.0216087270900971 0.4215533 0.9058536 0.04149806 69 69 69
0.016255543950494 0.0926413843298552 -0.0150983054563767 0.2161397 0.9763609 -0.001770184 203 203 203
0.0183486802610714 0.0911355325842498 -0.015298651568628 0.3116934 0.9482492 0.0605859 102 102 102
0.0150204761061031 0.0931130954886077 -0.0116262752935654 0.1139141 0.9934694 -0.00649098 180 180 180
0.0238284928831417 0.0895239421988128 -0.0115435738489396 0.3479375 0.9307502 0.1124434 77 77 77
-0.0136626498666447 0.0933749982977508 -0.00305776488039555 0.2910204 0.9548668 0.05946775 197 197 197
-0.0122140185800236 0.0930786440039275 -0.00359611403200688 0.3246701 0.9446084 0.04800255 167 167 167
-0.0178229348626774 0.0937867471838592 0.00454155910756526 0.2001029 0.9784521 0.05089602 146 146 146
-0.0236083404985111 0.0955349514151214 0.00293667424466548 0.2410415 0.9692726 0.04908905 211 211 211
-0.0158356564012211 0.0943178245688079 -0.00350381623957219 0.2355499 0.9706534 0.04845899 164 164 164
-0.015752090689246 0.0938833067083953 0.000456942208074906 0.255338 0.963703 0.07796812 163 163 163
-0.0137912170854252 0.0932795116568206 0.000724477656149247 0.2488425 0.9669262 0.05595646 144 144 144
-0.0138576762643497 0.0931632825995086 0.00240109670903621 0.1910059 0.9815536 -0.008330779 127 127 127
-0.0121269361940067 0.0930264303351043 0.00460894215848384 0.1950219 0.9762414 -0.09444217 106 106 106
-0.00992329287201577 0.0921680042410491 -0.00555248748514714 0.2428956 0.9700376 0.005359394 169 169 169
-0.0117752091851872 0.092960149970114 -0.00528787266466679 0.326386 0.9450547 0.01854352 179 179 179
-0.00570125746399575 0.091881425108969 -0.00377370607111516 0.1066019 0.9910899 0.07985487 214 214 214
-0.00609619784027748 0.0918786832953093 -0.00165604244921269 0.1613284 0.980286 0.1140721 210 210 210
0.000305102590020367 0.091573865141928 -0.00717790614817204 0.02007977 0.9913596 0.1296261 203 203 203
-0.00394858288437538 0.0915001938009856 -0.00473232757303776 0.08836051 0.9935228 0.07144857 217 217 217
0.000426994088586041 0.0907857725287078 -0.00366153012964787 0.1312001 0.9646301 0.228638 208 208 208
0.00057326388686485 0.0893291542196868 0.00228662598874507 0.1961956 0.9677856 0.157792 223 223 223
5.08887800533264E-05 0.0898342439795135 0.00285349596288142 0.2021504 0.9670156 0.1549711 212 212 212
-0.00220568346649819 0.0895424196386931 0.00588287223126827 0.2930603 0.954507 0.0550641 182 182 182
-0.0077269213166874 0.0915417978430388 0.00186721790578304 0.2686774 0.9632002 -0.007605458 140 140 140
-0.00849480795532875 0.0915899583960174 -0.00125931393358769 0.2020909 0.9769832 0.06828585 164 164 164
-0.00404365229279213 0.0907516786718963 0.000395161993765214 0.1860941 0.9718163 0.1447136 185 185 185
-0.0200249688592594 0.0928793260717986 0.0182628463580841 0.05896942 0.989525 0.131768 174 174 174
-0.0178879635301273 0.0924604246283172 0.0204837452247375 0.09686476 0.993524 0.05939103 130 130 130
-0.0120781795945805 0.0919009754324553 0.0180503856017822 0.1730733 0.9604989 0.2179165 178 178 178
-0.011651589151923 0.0913751432562468 0.0192249845340484 0.184944 0.9633874 0.1941144 146 146 146
-0.00262816118866616 0.0898752519751189 0.0144828389957183 0.3676309 0.923847 0.1065566 217 217 217
-0.00814659762055092 0.0902710268164275 0.0224164556339019 0.2282612 0.9719939 0.05589904 166 166 166
-0.0100914971795719 0.0909650633001922 0.0206973682716125 0.2272318 0.9619104 0.1519676 116 116 116
-0.00330753492981606 0.0893947193289397 0.0189413260295623 0.3520047 0.9277905 0.1236825 130 130 130
-0.00022627281815224 0.0878181764746306 0.0204880963638061 0.4008019 0.915562 0.03322802 197 197 197
-0.0200803415742558 0.0940645048285125 0.00816778648641048 0.2013901 0.9755384 0.08812969 119 119 119
-0.0205856101480167 0.0937494346762298 0.0124519001319641 0.0939572 0.9809393 0.1700884 176 176 176
-0.0177457468476933 0.0934125492239593 0.0126269887759918 -0.0008704768 0.9920835 0.1255769 195 195 195
-0.0123254196611088 0.093774587836325 0.00878174412991939 0.137571 0.9892213 -0.0501534 148 148 148
-0.0220792429414433 0.0948037216330169 0.00640894282605586 0.2736125 0.9525746 0.1331831 147 147 147
-0.0135651366677921 0.0938262054587005 0.00612415183331905 0.08894245 0.9926638 -0.08190141 144 144 144
-0.0214144127336185 0.0934138605261443 0.0133673380687469 0.1417165 0.9703318 0.195889 176 176 176
-0.0177579061952274 0.0928255626822112 0.016597522385382 0.05885893 0.9793829 0.1932479 171 171 171
-0.0119996206727665 0.0928801605368255 0.0146244894340271 0.1716809 0.9435181 0.2833712 183 183 183
-0.00963784622818642 0.0930055687094329 0.00652138698842464 0.3260965 0.9416085 -0.0838711 107 107 107
-0.00796230005890541 0.0921007702017425 0.0102984141185516 0.4290006 0.9026521 0.03431701 155 155 155
-0.00236005949646645 0.090012700285971 0.010397298224234 0.3357703 0.9412377 0.03646707 173 173 173
-0.00123061108261757 0.0893346378470061 0.00851727832105098 0.3231716 0.9455536 0.03858104 199 199 199
-0.00269318985611611 0.0898771593237517 0.0128443669154876 0.3607336 0.9301826 0.06805555 207 207 207
-0.0102986829248112 0.093820483412802 0.0132776330783599 0.3317488 0.9260082 0.1801433 146 146 146
0.0060173733267147 0.0918486425543426 -0.00772451054308476 -0.1143908 0.9883984 0.09991618 101 101 101
0.00171081853240318 0.0899517843390105 -0.000240938775277755 0.1233274 0.9720375 0.1998336 212 212 212
0.00631640982955284 0.0905504533911345 -0.00107853304598393 -0.2293344 0.9438069 0.2379796 228 228 228
0.00602750611632652 0.0909560033941863 -0.00376866947863164 -0.2226316 0.9489348 0.2235128 153 153 153
0.00764243436187095 0.0912772724295257 -0.00313730727884831 -0.2544841 0.9402338 0.2262704 150 150 150
0.0120410783323605 0.0926782200003264 -0.00538252484057011 -0.02835638 0.9902227 0.136583 93 93 93
0.00561110806792564 0.0892764637137053 0.00105656493451534 -0.1835125 0.9621092 0.2016655 227 227 227
0.00676493478148765 0.0895048687124846 0.00340778935697017 -0.2073766 0.9576069 0.1999597 136 136 136
0.00426630807250328 0.088159353461325 0.00675184834744869 -0.02098516 0.9714093 0.2364818 218 218 218
0.00774000716536827 0.0894455024862884 0.00468154061582027 -0.1972639 0.9519321 0.2343334 203 203 203
0.0121061069998104 0.0900007793570159 0.00439043153073726 -0.0297024 0.9654511 0.2588858 133 133 133
0.0123715264829952 0.0895442077780364 0.00628860104825435 -0.01359723 0.9681965 0.2498215 86 86 86
0.0117238028082211 0.0919010946417449 -0.00127868544313969 -0.03431023 0.9722319 0.2314906 124 124 124
0.0101776583227474 0.0917513677740691 -0.00118975531313481 -0.1639044 0.9536818 0.2522429 111 111 111
0.0189044339689571 0.0914029190207122 -0.00535215627405705 0.3990855 0.906198 0.1397713 71 71 71
0.016466782811578 0.0913912365103362 -0.00327523242685857 0.2247031 0.9554052 0.1915968 125 125 125
0.0158573253187496 0.0919204065466521 -0.00397335182879033 0.1868218 0.9644555 0.1868775 98 98 98
0.0184981687101681 0.0911295721197722 -0.00362460505220952 0.3365752 0.9252349 0.1750927 100 100 100
0.0222413404020626 0.0892544099951385 -0.00344376455996098 0.380626 0.9227082 0.06110295 76 76 76
0.0260077579054195 0.0881649562979339 -0.00363354574892583 0.2613411 0.9652462 -0.0007708539 69 69 69
0.0242795212301571 0.0883335182333587 -0.00119398724291386 0.2941985 0.9555388 -0.01982024 85 85 85
0.0200826389822323 0.0898982593680022 0.00219325531270442 0.2080577 0.9777972 0.02499451 73 73 73
0.0158735973867733 0.0893408367300628 0.00633345354344783 -0.02400487 0.9764519 0.2143954 133 133 133
0.0166618092092831 0.0895365783835051 0.0052472482993835 0.006969116 0.9895662 0.1439102 168 168 168
0.0220782620939571 0.0892738411093352 0.00472612489011226 0.1819199 0.9831999 -0.01493578 81 81 81
0.024306343320306 0.088689834799826 0.00637827623631892 0.181411 0.9824156 0.04415619 85 85 85
0.00210087132781334 0.0881139347220061 0.0104272197559112 0.2766704 0.9516587 0.133414 218 218 218
0.00620423388808555 0.0873021194601653 0.0113628040626281 -0.04407471 0.9818399 0.1845207 200 200 200
0.00376050305693931 0.0866079637671111 0.0166163872554534 0.2489513 0.956993 0.148955 204 204 204
0.00143133235305137 0.0878217527533172 0.0144056211784118 0.3519215 0.9233668 0.153444 217 217 217
0.00837372374862022 0.0878728935385344 0.0114136766269439 -0.1429988 0.9592447 0.2437233 77 77 77
0.0103421671423275 0.0885870763922332 0.0104994307830566 -0.1291701 0.961723 0.2416689 106 106 106
0.010421381715234 0.0878871986532805 0.0124652515723938 -0.1417552 0.9677165 0.2083994 154 154 154
0.00836764407485313 0.0871948310995696 0.0143534075095886 -0.1466457 0.9635032 0.2239567 198 198 198
0.0108967883619625 0.0870973179007171 0.0162623058631652 -0.1611668 0.9610658 0.2244502 83 83 83
0.0126640660795528 0.0881157228613494 0.0142496358230346 -0.08720365 0.9789066 0.1847633 127 127 127
0.00387720895140953 0.0860481569433806 0.0203898679092163 0.2362275 0.970308 0.05195177 204 204 204
0.00588737559645958 0.085472733702719 0.0208774935081237 0.1088767 0.9904027 0.08513742 170 170 170
0.00391285252898521 0.0860504219198821 0.0242516230418914 0.3281117 0.9444609 0.0183393 220 220 220
0.00836561751693077 0.086071402754843 0.0203821789100402 -0.04759781 0.9858879 0.1604978 186 186 186
0.0124983055624325 0.0863551208639739 0.0207056235149139 -0.07861334 0.9631629 0.2571715 87 87 87
0.007810400250848 0.085411698546469 0.0226189326122039 0.04798183 0.9889427 0.1403212 222 222 222
0.0116036398443539 0.0850656339789031 0.0246150027587646 -0.08129925 0.993109 0.08440983 152 152 152
0.014140532735284 0.086995155539572 0.0185478459670776 -0.05267956 0.9574434 0.2837729 88 88 88
0.0162369473013241 0.0872639724875091 0.0166212450340026 -0.03973879 0.9735482 0.2249996 114 114 114
0.0138937099012691 0.0882509061957 0.014129592068457 -0.05009425 0.9809929 0.1874661 108 108 108
0.0181585414442379 0.0880577871466277 0.0142232607677215 -0.07705574 0.9711984 0.2254687 105 105 105
0.0184169275793392 0.0878432104254363 0.0155309866740936 -0.0441879 0.9748606 0.21839 113 113 113
0.0205539329084713 0.0882377931738494 0.0145869385078186 -0.06956512 0.9700819 0.2325979 105 105 105
0.0261808497938473 0.0879661152029632 0.0144557486846679 0.1645389 0.9757091 0.1446331 105 105 105
0.0140778882536251 0.086342365469992 0.020611776001715 -0.08793328 0.9667917 0.2399614 102 102 102
0.0145897729429562 0.0856596538687346 0.0249703954532379 -0.1031074 0.9939993 0.03652717 107 107 107
0.0157598717245419 0.085605413641989 0.0233199428394073 -0.1202094 0.9881579 0.09536033 130 130 130
0.0244677526983578 0.0871373722220061 0.0244113634898895 0.007889532 0.9984241 -0.05556258 98 98 98
0.0183518989118893 0.0870036193991301 0.0182268451526397 -0.06628 0.9743983 0.2148369 91 91 91
0.024228320840295 0.0869677374029754 0.0192499290778869 0.0484536 0.9883906 0.1440006 84 84 84
0.0239504439863522 0.087734491553366 0.0183626841380828 0.03292553 0.9793022 0.1997078 96 96 96
0.0208545787367184 0.089739353385031 0.00860334742810664 0.05926469 0.9929993 0.1021773 129 129 129
0.0206595523390133 0.0894565889502166 0.00998826134946285 -0.009361961 0.986061 0.1661208 153 153 153
0.0207083089384396 0.0896590063238738 0.00964362729337154 0.01433731 0.9908515 0.1341932 157 157 157
-0.0217905180421513 0.0950728962088225 -0.00937508236620488 0.1360542 0.989343 -0.05186102 169 169 169
-0.0418907539811771 0.0570535967016814 0.0460431705787414 -0.5663573 -0.04450567 0.8229573 183 183 183
-0.0199651257959049 0.0948990890646575 -0.00347127210352483 0.1776788 0.9839703 -0.01525308 138 138 138
-0.0135976808038395 0.0935217449331878 -0.00945988487455907 0.2585961 0.9658996 -0.01288167 190 190 190
-0.0138967173066776 0.0939290830755828 -0.00581236373636784 0.2976483 0.9546747 0.001306969 189 189 189
-0.00524057316452675 0.0919021675253509 -0.00749285709116521 0.04667892 0.9988676 0.009192002 218 218 218
-0.00155563521057778 0.091828615393698 -0.00718833696100774 0.03922436 0.9950652 0.09114162 166 166 166
0.00576542449324913 0.0914854118490813 -0.00880618583414616 -0.06842522 0.9949366 0.07361541 116 116 116
0.010588572743829 0.0928234169149993 -0.00563921224329533 -0.1209758 0.985346 0.1202418 135 135 135
0.0956175787481625 -0.00909408834928294 -0.0276569892093903 0.9010906 0.409279 0.1432705 115 115 115
0.0935455424818356 -0.00191280153745432 -0.0352405626699692 0.9277948 0.3401184 0.1533502 93 93 93
0.0934724671873409 -0.0059293201302888 -0.0235212017223603 0.8980014 0.397501 0.1886437 147 147 147
0.0927585227522213 -0.00536462572568674 -0.0214236397669083 0.8932622 0.395431 0.2138153 145 145 145
0.0917091829809505 -0.00223705080503245 -0.0233851094171769 0.8922361 0.4351684 0.1205951 160 160 160
0.0906203849348385 0.00129678937441091 -0.0289541203901535 0.9543507 0.2370988 0.1816557 184 184 184
0.0918391807112057 0.00418320390230398 -0.0339089651033646 0.9871531 0.06096461 0.1476891 106 106 106
0.091400430921014 0.00805214139467458 -0.029561819545961 0.9704262 -0.04851884 0.2364719 172 172 172
0.0918879373106319 0.0129673788214324 -0.0334507841989762 0.9876398 -0.06045457 0.144613 137 137 137
0.090717898133691 -0.00160393026822825 -0.0216938425228363 0.9029926 0.4035677 0.1474363 142 142 142
0.0894502861532528 0.00290265771394949 -0.0236608256027466 0.9671654 0.2271101 0.1140712 148 148 148
0.0888652665647823 0.00428310128694753 -0.0231910664961106 0.9822969 0.1224689 0.1417535 151 151 151
0.0890115363630611 0.000165612425863548 -0.0148502011224991 0.9373197 0.2899599 0.1932747 146 146 146
0.0883614881071407 0.00407257768160085 -0.0158755798265702 0.9783657 0.1338626 0.157738 148 148 148
0.0896940691503841 0.00538089963442068 -0.0256186146662003 0.9674793 -0.00306211 0.2529316 166 166 166
0.089304016354974 0.00937774869447927 -0.0240284819528824 0.9707416 -0.08741633 0.2236498 102 102 102
0.0914491875204403 0.0169223854208587 -0.0295083094761139 0.9641637 -0.03528413 0.2629512 154 154 154
0.0889627797636349 0.0107206413412688 -0.0182447303459412 0.9925604 -0.08410251 0.08803689 115 115 115
0.090352223637994 0.0170467207098601 -0.0269441921636826 0.9581861 0.002943988 0.2861306 153 153 153
0.0894259078535397 0.0179266044760344 -0.0208889115974671 0.9850149 0.09138786 0.146267 169 169 169
0.0700831277403194 0.0727618047857879 0.0537186096980804 0.7476502 0.2463067 0.616727 178 178 178
0.0924242599043209 0.0149574587011931 -0.0338593740389115 0.9855974 -0.06766351 0.1549818 124 124 124
0.0915223224195797 0.0204940149450896 -0.0296475161239869 0.9589012 -0.04699692 0.2798209 140 140 140
0.0922292335066158 0.0227065393591521 -0.0351627041027314 0.9977084 0.06592993 -0.01520662 141 141 141
0.090337620500024 0.0225715944433806 -0.0256777126714951 0.9501127 -0.02683997 0.3107499 154 154 154
0.0912054045233089 0.0246427366400359 -0.0271968264505631 0.9467855 -0.008748843 0.3217462 153 153 153
0.0878414375814754 0.0284051010275481 -0.0385914165899521 0.9414666 0.1922905 -0.2768846 69 69 69
0.0907666547331173 0.0347786256933806 -0.0333709437772995 0.9617183 0.1551902 0.2258626 130 130 130
0.0866713387998898 0.00457337590700369 -0.00922532569620671 0.9872509 0.06888951 0.1434918 181 181 181
0.0864519937071163 0.00499752255922536 -0.00740815889093938 0.9976572 0.03672208 0.0577202 153 153 153
0.0875245196852047 0.00823000165468435 -0.00968130122873845 0.9933757 -0.03436249 0.1096536 96 96 96
0.0872726900610287 0.00686302873140554 -0.00363971482966008 0.9987454 0.01672901 0.04719812 140 140 140
0.0870613915952999 0.0111877033377288 -0.00602133762095036 0.9960928 0.04216732 0.07759537 143 143 143
0.087768302682336 0.0139651605749724 -0.00980104696009221 0.9783247 0.01640362 0.2064261 145 145 145
0.086573885205682 0.0147179672384856 -0.00720907937738957 0.9807378 0.05653577 0.1869682 147 147 147
0.0881826741728146 0.0151565382147429 -0.0115918387100464 0.973372 0.07169075 0.2177325 159 159 159
0.0886052711042721 0.0172043153906463 -0.0133767892048127 0.9708743 0.1527126 0.1846129 133 133 133
0.0400633080038387 0.0399306127691863 0.0474242996051544 -0.1516523 -0.2734768 0.9498484 85 85 85
0.086720095399316 0.0202676365042327 -0.00736822377893986 0.9747797 0.127326 0.1832832 146 146 146
0.086573885205682 0.0211807796621917 -0.0115795899555451 0.971548 0.2024487 0.1229186 166 166 166
0.0867688519987423 0.0244182655478118 -0.0137107093260056 0.9704528 0.08863767 0.2244209 173 173 173
0.086573885205682 0.0226931879187224 -0.0113990027830368 0.9743969 0.1745883 0.1416668 179 179 179
0.086720095399316 0.0263222763205169 -0.0140459258482224 0.9644626 0.09570619 0.2462768 208 208 208
0.0888652665647823 0.0170694896841643 -0.0173969138786561 0.9703193 0.183942 0.15699 179 179 179
0.088304625276025 0.016042859282553 -0.0121963788196808 0.9691389 0.1164487 0.2172774 153 153 153
0.0890602929624874 0.0200569936895965 -0.0203829873726136 0.9781989 0.05759421 0.1995241 128 128 128
0.0869638783964474 0.0115924188757537 0.00185380686070857 0.9979799 0.06248195 0.01149037 191 191 191
0.0864763124021847 0.012469918456137 0.00253380645062862 0.9975068 0.06957038 -0.01184004 144 144 144
0.085891352418359 0.016582877364218 -0.00097949992868962 0.9916121 0.1289535 0.008747121 146 146 146
0.0863301022085506 0.0184423038626311 -0.00544198047373357 0.9755624 0.1069576 0.1919326 138 138 138
0.0852575166258175 0.0183790037298797 -0.000227497927880904 0.9896325 0.1436089 0.001968719 162 162 162
