ply
format ascii 1.0
comment File exported by Rhinoceros Version 7.0
element vertex 469
property float x
property float y
property float z
property float nx
property float ny
property float nz
property uchar red
property uchar green
property uchar blue
end_header
-0.014291080063814 -0.0391978274961886 0.0101755814810623 0.1056259 -0.03034112 0.9939429 121 121 121
-0.0461070224204169 -0.0399114420798088 0.00489492902759064 -0.3595056 -0.2119672 0.9087495 96 96 96
-0.0076814075050487 -0.0321171396446739 0.0106908470203954 0.1311478 0.06555174 0.9891932 80 80 80
0.0464117640553082 -0.0287708911621876 0.00292614465572755 0.1976874 -0.08472942 0.9765964 70 70 70
-0.0485025803480717 -0.0321979584913028 0.00637168269522514 -0.4342074 -0.2608399 0.8622218 47 47 47
-0.0227701697159576 0.0220133722009354 0.0171592566212829 -0.4703908 0.3841526 0.7944553 106 106 106
-0.0417557263341785 -0.00583045706257312 0.0166294849000386 -0.07771072 -0.06309807 0.9949772 223 223 223
-0.00151306107401455 -0.0623046604548825 0.00382787405179158 0.2279152 -0.2755683 0.9338719 117 117 117
-0.000420977147013557 0.0469769812618811 -0.00310892827831744 -0.3874725 0.9120117 0.1345354 113 113 113
0.0411070998299163 0.0601863578898646 0.014442415779846 0.1164978 0.5759071 0.809172 80 80 80
0.0537812628769161 -0.0303407898135852 0.00103432174714702 0.2182533 -0.05455267 0.9743662 80 80 80
0.0590532875688224 0.00275630939706539 0.00134374120343644 0.9392543 0.1732517 0.2962857 120 120 120
-0.0298090761135393 -0.0357577774700336 0.0115776924703087 -0.09992696 -0.1420324 0.9848053 93 93 93
-0.00477527447734621 -0.00885130195386974 0.0126055969615103 0.04214577 -0.1183348 0.992079 107 107 107
-0.0214110595434527 0.0316859612818033 0.00897295146221883 -0.5306802 0.8214391 0.208845 145 145 145
0.00119420294996425 -0.0213474916367493 0.00965541966552952 0.1123751 0.103983 0.9882102 98 98 98
-0.0636341713655599 -0.0337706040800926 0.000817515656660051 -0.2945542 -0.2755759 0.9150386 92 92 92
-0.0205336484273251 -0.0154533677037746 0.0139590233145631 0.1248192 0.0004621702 0.9921794 80 80 80
-0.0438766337875011 -0.0259005966721552 0.0101441665194787 -0.209467 -0.2074452 0.9555575 100 100 100
0.0311160776845207 -0.00423323202946591 0.0094760027527232 0.1696382 -0.007448185 0.9854783 65 65 65
-0.0837601652449494 -0.0273560903361265 -0.00984009326588425 -0.7319155 -0.1566838 0.6631364 77 77 77
0.0308663378594157 -0.0272086789844511 0.00612684980234957 0.2489218 -0.08131456 0.9651041 76 76 76
0.0455976607230101 -0.0403755035563694 0.00063707490903897 0.1662524 -0.2022444 0.9651204 92 92 92
0.0556420750524202 0.00518324937229597 0.00784195727412834 0.5943158 -0.0007041184 0.8042314 83 83 83
-0.0344808800309758 -0.050524891664104 0.00623993455949862 -0.2232464 -0.09929787 0.9696912 75 75 75
-0.0071403177985519 -0.0614212591698339 0.00101938161655907 -0.06466417 -0.9332715 -0.3533027 43 43 43
0.0302761317376565 -0.0441034733985002 0.00226795758810516 0.2701173 -0.254829 0.9284927 77 77 77
-0.0712673822863233 -0.00345871026584743 -0.00570410568250151 -0.6305692 0.7326865 0.2560331 42 42 42
-0.0385954161091067 -0.0462253585468629 0.00578367279323383 -0.428878 -0.1555374 0.8898718 166 166 166
-0.0382507768961433 -0.0455182345958399 -0.0105098638715467 -0.2547865 -0.8378126 -0.4828601 26 26 26
-0.058781214042302 -0.0410589817921483 -0.00133794908952739 -0.3130273 -0.1725978 0.9339293 51 51 51
-0.0113420306373909 0.017657949155774 0.0177314108804339 -0.03079472 -0.01189971 0.9994549 74 74 74
-0.00754057783398071 0.0399281457122576 0.0098267945314649 -0.4545483 0.8861044 0.09058034 117 117 117
-0.0142110113962099 -0.0300410162144235 0.0114930803567281 0.1018696 0.09442546 0.9903062 210 210 210
0.0557224534637701 -0.0459699139360554 -0.00459333400830664 0.5710422 -0.3013948 0.7635915 45 45 45
-0.0752257863209098 -0.0105209906434717 -0.00309590718836372 -0.6013628 0.4603371 0.6530333 99 99 99
-0.0433135494802371 -0.016364602328252 0.0130392747290606 -0.07055419 -0.1498816 0.9861833 135 135 135
0.0387457227098102 0.0173799273158525 0.0108368927167962 -0.04325601 -0.154195 0.9870931 221 221 221
0.0447749622221644 -0.0317622376778585 0.0024233427136432 0.2070563 -0.03882333 0.9775584 79 79 79
-0.0565825312919688 -0.0448951116664815 -0.00689201211877322 -0.1436822 -0.9717856 -0.1870514 43 43 43
-0.0418525874786811 -0.0173044529699502 0.0129196741018927 -0.07449972 -0.1437955 0.9867992 217 217 217
0.051366454384032 0.0648449797633076 -0.000158578910239515 0.6154419 0.7881662 0.005019298 94 94 94
0.00512210642715044 -0.0271951127376767 0.010355562646763 0.04898901 0.1396524 0.988988 234 234 234
0.014916432160303 0.0535319536900468 0.00931098277402803 -0.441195 0.8769943 0.1903363 108 108 108
0.0311407610530454 -0.0529154119072334 -0.00154064439234797 0.2259641 -0.1201082 0.9667028 94 94 94
0.0604286009244524 0.0137576987056165 -0.00540282462578973 0.9333899 -0.02152107 0.358218 13 13 13
0.014405999252697 0.0130025869041142 0.0150045428043254 0.1402864 0.05530178 0.9885653 121 121 121
0.0590894572027066 0.023203564716561 0.00403304253280057 0.8822197 -0.02682725 0.4700731 49 49 49
0.0419708426189517 -0.0436440026765667 -0.000779092860976771 0.09094171 -0.2867528 0.9536784 83 83 83
0.0309224323017812 0.0199287973275122 0.0125070109535712 0.1336886 -0.1612328 0.9778197 133 133 133
0.0398628240745767 -0.0418896551807851 0.000280589147104993 0.09116149 -0.3023353 0.9488324 90 90 90
-0.0520464985867327 0.0171432204931393 -0.00349915915246973 -0.5570185 0.8160322 0.1543431 124 124 124
0.0529727616403253 -0.0182907902825249 0.00364665558437216 0.2382587 -0.0335246 0.970623 201 201 201
-0.0191504761738027 0.0339511749613397 0.00725681280288548 -0.5234163 0.8346286 0.1715533 129 129 129
-0.0358559777071156 0.0053902033307438 0.0196276254106317 -0.00963034 -0.03459451 0.999355 129 129 129
-0.0250615327911956 -0.0529363668279682 -0.00695724384976226 -0.1136432 -0.8695687 -0.4805575 35 35 35
-0.0539516838304082 0.0129531535525029 0.00135754208291611 -0.4503047 0.73247 0.510601 146 146 146
0.0391897129639939 0.0364502586350112 0.0154013831225457 0.05923665 0.0304779 0.9977786 108 108 108
0.0495924226616372 0.0665498486039967 -0.00152872802844661 0.5388594 0.8423956 0.0004600108 84 84 84
0.0337686410585813 -0.0411725065612716 0.00190042595131207 0.2656208 -0.2356001 0.9348466 194 194 194
-0.0730500560507687 -0.0265668411246508 -0.000148624060303804 -0.4641944 -0.1975415 0.8634239 94 94 94
-0.039765809030798 0.0143838486640131 0.0184639144692257 -0.4450681 0.6807352 0.5818195 99 99 99
0.00920835726961861 -0.0582686018180217 0.00217759028996839 0.2983333 -0.2408956 0.9235619 71 71 71
0.0105543945655736 -0.0509380759876255 -0.00548591720924385 0.1783509 -0.8848293 -0.4304278 30 30 30
0.0303408978712617 -0.0550932377355897 -0.00186461134543259 0.2166889 -0.1131839 0.9696573 101 101 101
0.0519872983070368 -0.0365449794008148 0.000482036793847784 0.1114461 -0.04635949 0.9926885 104 104 104
0.00293300459480866 -0.0324559127436636 0.00979525998943792 0.02540544 0.0166866 0.9995379 246 246 246
0.0384321550818353 -0.0440977864342869 -0.000390094084185555 0.1259833 -0.2798421 0.951744 111 111 111
-0.010246158034866 0.0384675849162025 0.0103555287186545 -0.4923342 0.8651806 0.09523446 89 89 89
0.0589438736601164 0.0208461169237559 0.00390627671633326 0.8881965 -0.01105662 0.4593307 80 80 80
0.0242327861772531 0.0382348440285213 0.0154883098576474 -0.05264115 0.06440744 0.9965343 131 131 131
0.0102376231733429 0.00314062381378577 0.0134391981960236 0.1007973 -0.1374404 0.985368 234 234 234
-0.0647889510128272 -0.04284814649671 -0.00825277658932855 -0.4226348 -0.7904826 0.4433025 53 53 53
-0.0340482827218924 0.00484277872809813 0.0193641435909813 0.06325758 -0.03851795 0.9972537 94 94 94
0.0291409895753245 0.0274823928962351 0.0149006304338004 0.03527207 -0.04470921 0.9983771 102 102 102
0.0499948073382292 -0.0299148307486246 0.00216409196226897 0.1839864 -0.06161795 0.9809955 235 235 235
-0.0749589288074898 -0.0254783663241402 -0.000652277998830664 -0.4920879 -0.1724605 0.8532917 37 37 37
0.0562810728881044 0.0330992858302958 0.00648783954986076 0.7687669 0.1373774 0.6245998 89 89 89
-0.0385278157235714 -0.0479080481162354 -0.00695415182565579 -0.2769211 -0.7971354 -0.5365537 42 42 42
0.0428850263876387 -0.00547355560227281 0.00748395808697261 0.1795382 -0.07242427 0.9810814 15 15 15
0.0153082507044048 -0.0137162241731668 0.0107223565886164 0.1206474 -0.036127 0.9920378 127 127 127
0.00864081635047248 -0.0249738234273007 0.00995623974608995 0.08517215 0.1494826 0.9850892 136 136 136
-0.02419906207274 -0.0377603073173982 0.0111803137315257 -0.03342682 -0.1308819 0.9908343 111 111 111
0.0502313801480084 5.23079050438469E-05 0.007944311799994 0.09477804 -0.02444068 0.9951984 122 122 122
-0.000603255375126011 -0.0560457107960941 0.00623446416710832 0.2174533 -0.1665628 0.9617541 101 101 101
0.003838219815055 0.045907892581053 0.0137257718633453 -0.5223743 0.7776098 0.3499258 9 9 9
-0.0292939880960033 0.0165636422581019 0.0180623108866226 -0.008225631 0.4152736 0.9096594 84 84 84
0.0616752222972385 0.0153740648952576 -0.00686757572740609 0.9396614 -0.03600515 0.340206 90 90 90
-0.0407610521599779 -0.0296619375464281 0.00969996224239728 -0.2574004 -0.1551947 0.9537608 145 145 145
0.0230904637963984 0.0223137829281164 0.0144595509966276 0.1553177 0.02387575 0.987576 140 140 140
0.0522533921038366 0.00733794906328811 0.00846099962294494 0.2395695 -0.0471269 0.9697348 99 99 99
0.0354994494376671 0.0612423270066446 0.0134651354409901 -0.1470802 0.8979233 0.4148508 57 57 57
-0.00426454360939749 -0.0321220501698484 0.00980787063767996 0.1058629 0.05308798 0.9929626 51 51 51
-0.00958846014333031 -0.0514048125682934 0.00841283649520042 0.03830253 -0.0008065114 0.9992658 234 234 234
-0.0701071941726922 -0.0380067097996046 -0.00469259351440088 -0.4259341 -0.4157135 0.8035934 87 87 87
-0.0340913757420633 -0.0411371268627222 0.00865332549955861 -0.1951527 -0.1891036 0.9623696 175 175 175
0.0271203106253042 -0.0527429739037786 -0.000676909400809167 0.1554045 -0.1273367 0.9796095 82 82 82
-0.0285794275084468 -0.0525310638989299 -0.00728814267581707 -0.1937708 -0.8639374 -0.464828 32 32 32
-0.0444370762557992 0.0116216900551377 0.0153726630045207 -0.6098037 0.64337 0.462833 28 28 28
-0.0776268477228297 -0.0393110888738613 -0.00883368187990879 -0.4507248 -0.4571021 0.7667495 99 99 99
0.0329879569463913 0.0660978041320029 -0.00273888176613296 -0.461604 0.878033 0.126411 58 58 58
-0.0276207068158502 -0.0287606438170053 0.0130549673463408 -0.0128705 -0.00742227 0.9998896 130 130 130
0.0533312396669525 -0.0519169882883291 -0.00467232226859904 0.3252774 -0.2112372 0.9217231 94 94 94
0.02473201954442 0.0601470922327093 0.00639992761137242 -0.3889373 0.9069889 0.1615514 130 130 130
-0.0273316697965514 -0.0234490745416644 0.0136890544095988 0.005695487 0.04181381 0.9991092 90 90 90
2.06100403149501E-06 0.0472256349974304 -0.00480342762531555 -0.391562 0.9083924 0.1466367 114 114 114
0.045132125027612 0.0699889130941634 0.00110181260882947 0.2329469 0.934068 0.2706523 132 132 132
0.0120969684640972 -0.0304019762495803 0.00960009298335468 0.1129442 0.04475652 0.9925928 103 103 103
-0.032006132047044 -0.0175807984482962 0.0138265978582219 -0.05221708 -0.04588523 0.9975811 137 137 137
-0.0125794956345431 -0.0540724811635284 0.00807291163839235 -0.04244075 -0.05517655 0.9975742 242 242 242
0.000812184194828924 -0.0525932243436034 0.00692994191887775 0.1950097 -0.1612137 0.9674613 116 116 116
-0.0332517889435582 -0.0356984696191766 0.0108928749037742 -0.2225371 -0.1315262 0.9660115 137 137 137
-0.075760880920058 -0.0258674415666938 -0.00173608106625345 -0.5167686 -0.2048761 0.8312496 79 79 79
-0.0692219037117676 -0.0248907381896765 0.00229099031341568 -0.4130034 -0.1465261 0.898865 142 142 142
-0.021007952101681 -0.0493357436070175 0.00836974670864243 -0.02058148 -0.05175265 0.9984478 95 95 95
-0.085095252919723 -0.0249515832903312 -0.00943403935636433 -0.7831646 -0.07012478 0.6178477 97 97 97
-0.0822863364911856 -0.0310342526175899 -0.0103310586478045 -0.6621658 -0.2743039 0.6973478 85 85 85
-0.0815030729215354 -0.0292658643490349 -0.00880057904258208 -0.6445553 -0.2629652 0.7179121 57 57 57
-0.0841032834895297 -0.0280455470628272 -0.0103349271286439 -0.7208314 -0.1706882 0.6717646 68 68 68
-0.0807141207253607 -0.0305210457018115 -0.00795668375270436 -0.6363588 -0.268188 0.7232722 53 53 53
-0.0799355689594766 -0.0294639134186211 -0.00628411078630903 -0.6095194 -0.2653592 0.7470412 61 61 61
-0.083986702691017 -0.0252497181101624 -0.00805143778304868 -0.7662784 -0.07722524 0.6378508 103 103 103
-0.0819181626605247 -0.0267530869798971 -0.00635337387865165 -0.6258336 -0.2233059 0.7473063 96 96 96
-0.0792859768832928 -0.0276260067160522 -0.00470725039219838 -0.558973 -0.2422484 0.79301 95 95 95
-0.0831362302443662 -0.0253626265794493 -0.00630330510855426 -0.7100229 -0.1022324 0.6967181 107 107 107
-0.0802568079226954 -0.0257078948049286 -0.00498428134205542 -0.5870101 -0.1701331 0.791501 60 60 60
-0.0797656229251807 -0.02401998305676 -0.00392825537086811 -0.6134119 -0.04695152 0.7883663 78 78 78
-0.0796753187860809 -0.0221626191481453 -0.00365031957732648 -0.6442795 0.08388177 0.7601761 135 135 135
-0.0774374649288894 -0.0382124525778822 -0.00821623409678707 -0.4718283 -0.4111797 0.7799419 100 100 100
-0.0746859748791122 -0.0402901317234077 -0.00804256921615287 -0.3744703 -0.5027568 0.7791069 81 81 81
-0.0758935678363693 -0.0374093247326207 -0.0072661095243699 -0.4291282 -0.4128066 0.8033926 105 105 105
-0.069354793110321 -0.0410563278193804 -0.00982495369402309 -0.3637838 -0.6688372 0.6483195 53 53 53
-0.0719591634996865 -0.0409907710870421 -0.00751613227973597 -0.3558483 -0.6636455 0.6579868 75 75 75
-0.0716472347786329 -0.0401722907428331 -0.00657750629195764 -0.3855958 -0.5368424 0.7504107 94 94 94
-0.062231395597916 -0.0454774838614659 -0.00486089362579378 -0.3627205 -0.8792013 0.308932 52 52 52
-0.0604535632237072 -0.044699680693864 -0.0070100482766971 -0.1626638 -0.9838443 -0.07477172 56 56 56
-0.0582549518453619 -0.046315281588916 -0.00468410723803092 -0.3386799 -0.8940312 0.2932645 56 56 56
-0.0582424660336496 -0.044918077541392 -0.00692241889724188 -0.2084492 -0.9672981 -0.1445106 37 37 37
-0.0665126722448497 -0.0434583064253059 -0.00620410970250562 -0.486705 -0.6357903 0.5990734 73 73 73
-0.0658963149687579 -0.0430564240731204 -0.00762340906672826 -0.4605827 -0.7581119 0.46166 76 76 76
-0.0678129825414813 -0.0429514383115871 -0.00572706935415124 -0.4623321 -0.6216922 0.6322562 59 59 59
-0.058127400743359 -0.0438710603245369 -0.0082502705450625 -0.1412121 -0.9777349 -0.155221 17 17 17
-0.0564548216301066 -0.0433583897363662 -0.0099751345413463 -0.07459343 -0.9423538 -0.3261979 42 42 42
0.023904258909604 -0.039125851274019 0.00423945296757083 0.1410734 -0.1268829 0.9818345 108 108 108
-0.0623587223055348 -0.0444264691757207 -0.00659079608116458 -0.3430231 -0.9283772 0.1430071 63 63 63
-0.0781714545006758 -0.038823734115025 -0.00984871738510851 -0.5248654 -0.4285342 0.7354419 72 72 72
0.00251777963301775 -0.00347286008991277 0.0132603869525207 0.1159739 -0.04393991 0.9922799 63 63 63
-0.069923986563847 -0.0360498953780261 -0.00293954173986549 -0.3365609 -0.3519885 0.8734019 119 119 119
-0.0700588654753248 -0.0344078907204594 -0.00195446185797887 -0.33291 -0.3024228 0.8931469 90 90 90
-0.0622790991884972 -0.042959007846911 -0.00323912948081223 -0.44885 -0.4165402 0.7905871 62 62 62
-0.0585791148547241 -0.0453697492084816 -0.0023378479915056 -0.3533362 -0.5151036 0.7809109 82 82 82
-0.0579906814761684 -0.0440386889645135 -0.00153277417862924 -0.3503734 -0.3361772 0.8741987 82 82 82
-0.0584403176723109 -0.0424907567340268 -0.00137549464959552 -0.3162615 -0.2236167 0.9219404 77 77 77
-0.0639356796300298 -0.0400909909769417 -0.00273890018598211 -0.3647117 -0.3279623 0.8714506 60 60 60
-0.0624753910408398 -0.0384857775939937 -0.00128467235303031 -0.3152651 -0.2627998 0.9118904 50 50 50
-0.0654686911329157 -0.0387837178810614 -0.0031920009894531 -0.359995 -0.302532 0.8825406 79 79 79
-0.0662675694127556 -0.0368853772488354 -0.00251717090087672 -0.3367438 -0.316819 0.8866957 83 83 83
-0.0610446486689709 -0.0397458875138104 -0.00170877174250661 -0.3261783 -0.2364483 0.9152595 95 95 95
-0.0562924481474176 -0.0412534799129213 -0.000693523002930463 -0.3202105 -0.1695507 0.9320503 91 91 91
-0.0660966252175217 -0.0347308457563015 -0.00116309221853067 -0.314689 -0.2953838 0.9020639 95 95 95
-0.0622246516232428 -0.0362715782823502 -0.00028583157834039 -0.3012952 -0.2910029 0.9080411 56 56 56
-0.0646127655482531 -0.0361226815390543 -0.000998705166276925 -0.3092451 -0.3053543 0.9006255 85 85 85
-0.0643704818103045 -0.0343944733119297 -5.25327958583177E-05 -0.2964021 -0.2839753 0.9118683 87 87 87
-0.0621793579418085 -0.0348538075666791 0.000305947690630082 -0.2726489 -0.2716185 0.9229767 85 85 85
-0.0601477547351424 -0.0356297610792354 0.000392172625205911 -0.2366953 -0.2615789 0.9357092 84 84 84
-0.0786225947329286 -0.0349052765035701 -0.00815131323052926 -0.6054004 -0.2454404 0.7571323 90 90 90
-0.0780310930026051 -0.0344184661906702 -0.00678585242038254 -0.6089479 -0.2398367 0.7560825 80 80 80
-0.0767165047641293 -0.0355405412567357 -0.00668799128917774 -0.5388606 -0.2764189 0.7957524 113 113 113
-0.0795232205148481 -0.0332552712471077 -0.00826301069627899 -0.6228276 -0.2575633 0.7387468 80 80 80
-0.0756243702159569 -0.0333535811276798 -0.00481255565354199 -0.5157928 -0.2572019 0.8171934 96 96 96
-0.0785809742298095 -0.0297404047623333 -0.00556096160363062 -0.5785238 -0.2329408 0.7816961 62 62 62
-0.0773001726349996 -0.0296555375302425 -0.00477117251663545 -0.5649998 -0.2218415 0.7947085 54 54 54
-0.0755305811745771 -0.0298177225934683 -0.0033717101369114 -0.5211264 -0.2105665 0.8270967 91 91 91
-0.0723559962036456 -0.0306319461107791 -0.00138619920981259 -0.4205486 -0.2230515 0.8794242 97 97 97
-0.0683200944559744 -0.0335202488312312 -0.00121836477133414 -0.3087326 -0.2973554 0.9034733 126 126 126
-0.0708079093601127 -0.0321138935112865 -0.00129393647877546 -0.3677707 -0.2498768 0.8957155 107 107 107
-0.0732151573607888 -0.0281241946218276 -0.00125516148338051 -0.4788247 -0.2247373 0.8486578 100 100 100
-0.0716287334276291 -0.0288870556710294 -0.000518464029599042 -0.4089555 -0.2327339 0.8823777 72 72 72
-0.0694637694711282 -0.0288345798327843 0.000282740868502385 -0.3656807 -0.2463694 0.897541 76 76 76
-0.068171353360252 -0.029460533467819 0.000723892191594522 -0.3243149 -0.275986 0.9047937 89 89 89
-0.0468235978837525 -0.0164385682933451 0.0130283606613875 -0.284047 -0.1779294 0.9421563 108 108 108
-0.0776887707383202 -0.0253917605405904 -0.00306748781161686 -0.5380389 -0.2060142 0.8173569 71 71 71
-0.0770444697589513 -0.0238337681750057 -0.00185937270832082 -0.5702771 -0.09090929 0.8164065 83 83 83
-0.076021081238146 -0.0273708170262208 -0.00268478626701568 -0.5380818 -0.2102026 0.8162615 93 93 93
-0.0758981198935977 -0.0246445941042995 -0.00138453386776016 -0.5268113 -0.1581204 0.8351454 73 73 73
-0.0773388336776434 -0.0247674626607097 -0.00296879679493073 -0.5387003 -0.186516 0.8215922 91 91 91
-0.067637763768103 -0.0326136750296375 -0.000659539405491016 -0.3036137 -0.2750031 0.9122456 106 106 106
-0.0674852234147756 -0.0303826206348033 0.000389341551237488 -0.3155171 -0.2620963 0.9120058 72 72 72
-0.0638466081046832 -0.032042202929574 0.000941343094668923 -0.2857859 -0.2596577 0.9224448 139 139 139
-0.0635924478262759 -0.0304494550997176 0.00178972061960131 -0.2456492 -0.2534311 0.9356437 84 84 84
-0.0200695344270741 -0.0579281915015183 -0.000539650161515859 -0.2240385 -0.9148375 -0.3359749 33 33 33
0.0247057183899733 -0.0587454139735357 -0.00170263274886379 0.1389169 -0.1368422 0.9808039 78 78 78
0.00772173067820542 -0.00868335667599107 0.0119343566279397 0.08265298 0.001458191 0.9965773 112 112 112
-0.0572476611711869 0.0118046608290285 0.000481617351982877 -0.6753705 0.6805335 0.2841636 116 116 116
-0.00269380524600021 -0.0647115584874017 0.00273816071165517 0.1696208 -0.3388205 0.9254348 28 28 28
0.00767227022030742 -0.0505644069594673 0.00535426500456992 0.26903 -0.195553 0.9430705 89 89 89
-0.0386054655519383 -0.0152780152312196 0.0140200643226033 -0.09747388 -0.1760242 0.979548 210 210 210
0.00799832162668895 0.0106728642432797 0.0159371152372346 0.1623052 -0.006072909 0.9867219 236 236 236
-0.035147607149305 -0.0315050990227919 0.0112744871720981 -0.3099989 -0.0955838 0.9459199 132 132 132
-0.0477687038279637 -0.0510852258221023 -0.000292500772508641 -0.5281842 -0.6740134 0.5164565 91 91 91
-0.0395790969506007 -0.0548805580490659 0.000935896779359346 -0.4418286 -0.8703033 0.2176229 31 31 31
0.0032778419616612 -0.0216709565958002 0.0100027647172301 0.08290907 0.123887 0.9888266 183 183 183
-0.0418121393160083 -0.0543083503244367 0.00139922430490108 -0.5031594 -0.7952702 0.338195 91 91 91
-0.0428740605893289 -0.0510037871336984 -0.00269628650599218 -0.4460496 -0.8384266 -0.3131782 44 44 44
-0.0406121787374413 -0.0532852955525714 -0.00241568720470164 -0.388531 -0.9081212 -0.1560751 33 33 33
-0.0366011489753681 -0.0540826576082565 -0.00149554816444097 -0.25823 -0.9288858 -0.2654966 48 48 48
-0.035252528085301 -0.0533202097254271 -0.00295139399023725 -0.1394635 -0.8742742 -0.4649673 41 41 41
-0.0375540374410915 -0.0515273171185221 -0.00438334142068247 -0.2166364 -0.8164532 -0.5352316 52 52 52
-0.0340995909538035 -0.0527495314514855 -0.00378014125242376 -0.1757625 -0.8723136 -0.4562637 40 40 40
-0.0486022834467675 -0.0478794622953934 0.000273198511711314 -0.4780568 -0.3968369 0.7835701 86 86 86
-0.0471285089436502 -0.0510449875522065 0.000143448460448115 -0.5587806 -0.5676659 0.6045823 75 75 75
-0.0466495899397129 -0.0487027313078048 0.000601397732385434 -0.3334972 -0.4121113 0.8479056 66 66 66
-0.0390583413901528 -0.0548967461887193 0.00252085408386493 -0.4563272 -0.8127661 0.3621833 62 62 62
-0.0380242859137199 -0.0548541066286098 0.00384548837465531 -0.4153107 -0.5740681 0.7056649 64 64 64
-0.038897565323343 -0.00302552441664061 0.0181457429115458 -0.1053948 -0.07618429 0.9915079 178 178 178
-0.0348763833067869 -0.0561167126281608 0.00453369651800833 -0.2935945 -0.74646 0.5971597 45 45 45
-0.0362249300121887 -0.0537984217471976 0.00497510617774455 -0.3132053 -0.3035477 0.8998674 90 90 90
-0.0352323213669146 -0.0524687557750586 0.00536408546980782 -0.2884454 -0.1610564 0.9438539 107 107 107
-0.0435293089694698 -0.0511332723703994 0.00168878728750904 -0.5594291 -0.3938864 0.7293096 67 67 67
-0.0418223821660972 -0.0535734467565043 0.00165414264231772 -0.5273856 -0.7285407 0.4371418 71 71 71
-0.0415845798385514 -0.0524218465827135 0.00218606615855782 -0.5805597 -0.4742697 0.6618298 23 23 23
-0.0449019040561424 -0.0502800048533035 0.00122148953603235 -0.4850821 -0.3921211 0.7816242 66 66 66
-0.0433774523759498 -0.0498854607768301 0.00192781886972265 -0.5315706 -0.2500866 0.8092524 68 68 68
-0.0425955104898776 -0.050716227775194 0.00157648982733355 -0.5224348 -0.3784888 0.7640734 67 67 67
-0.0440137041964209 -0.0479696701194956 0.00170504753468359 -0.4020698 -0.2667177 0.8759004 82 82 82
-0.0411732686980151 -0.0461297623230921 0.00365044917863006 -0.4522341 -0.1725962 0.8750399 101 101 101
-0.0393434658142757 -0.0520573283117823 0.00332807927563405 -0.4990037 -0.2347386 0.8342021 42 42 42
-0.0390826995749742 -0.0501817739942624 0.00434565316226498 -0.466342 -0.1241347 0.8758514 85 85 85
-0.0365967747285779 -0.0501744853581555 0.00559940397847875 -0.3247672 -0.1118316 0.9391592 226 226 226
-0.0361144301977029 -0.0491563295512646 0.00615065060606707 -0.304417 -0.1171596 0.9453062 148 148 148
-0.0371953818829671 -0.0446284558235077 0.00676324300592845 -0.3451711 -0.152682 0.9260373 229 229 229
-0.0339455303567522 -0.0444075667129034 0.00794991354965136 -0.2008057 -0.1343286 0.9703777 236 236 236
-0.0145499649224815 -0.0624188672297405 0.00551483780520012 -0.1599621 -0.8648755 0.4758177 122 122 122
-0.0157097553570686 -0.0618815802105809 0.00506952609108269 -0.1917632 -0.8461739 0.4972087 140 140 140
-0.0269056788456096 -0.0532729287910312 -0.00633838815447807 -0.1573214 -0.8942578 -0.4189905 54 54 54
-0.0262545365964421 -0.0582177679372894 0.0026572586195871 -0.2558588 -0.9628454 0.08640078 47 47 47
-0.0276163605004436 -0.0565118994342952 0.000719187209680949 -0.2410388 -0.9226286 -0.3010926 41 41 41
-0.0272705681751187 -0.0575733459996678 0.00150910924731568 -0.2546661 -0.9651249 -0.06065542 41 41 41
-0.0255772831327568 -0.0579510591248701 0.00168697374318416 -0.2022858 -0.9789953 -0.02547006 49 49 49
-0.0235178542251842 -0.0574375051214737 0.000534024583247916 -0.1487892 -0.9753818 -0.1627639 39 39 39
-0.0291910669784517 -0.0528285713878759 -0.00569221207624238 -0.2221733 -0.8819789 -0.4156348 42 42 42
-0.0288335664282467 -0.0534221114943242 -0.00500680932530334 -0.1897109 -0.916312 -0.3526784 38 38 38
-0.028852127648096 -0.0537119646122876 -0.00303387899980984 -0.1842268 -0.92305 -0.337697 44 44 44
-0.0325343286978398 -0.0551202557017776 -0.000170132499889175 -0.1706179 -0.9534199 -0.2487569 55 55 55
-0.0307997438280997 -0.0548689529552112 -0.00130079127878979 -0.1581096 -0.9141595 -0.3732475 47 47 47
-0.0289950631767718 -0.0555884128872224 -0.000570846430684391 -0.1838505 -0.916429 -0.3554671 33 33 33
-0.0269017560632057 -0.0543758890140128 -0.00363151387155863 -0.1640798 -0.9212919 -0.3525607 36 36 36
-0.0234159211107557 -0.0555029617985637 -0.00273043562559433 -0.1966438 -0.904537 -0.3783438 31 31 31
-0.0277177041091051 -0.0530418473891268 -0.00565854967063267 -0.1784531 -0.8958586 -0.4069298 85 85 85
-0.0163502155205725 -0.054052398643362 -0.00684848945151278 -0.1430281 -0.8356916 -0.5302476 42 42 42
-0.0183933235027944 -0.0581978536732369 -0.000584063997937478 -0.2098755 -0.9223337 -0.3244269 37 37 37
-0.0169551666290784 -0.0578004795968839 -0.00207564324987464 -0.1784077 -0.8749999 -0.450051 61 61 61
-0.0170087457683153 -0.0583836652977896 -0.00109402182709734 -0.1784592 -0.9257384 -0.3334077 52 52 52
-0.0168914059518189 -0.0609536148624508 0.00250454742436251 -0.1734274 -0.9775017 -0.1200551 36 36 36
-0.0148716992721307 -0.0585902708066673 -0.00166479732125308 -0.1275226 -0.8945871 -0.4283129 41 41 41
-0.0148546943518489 -0.0590855149627164 0.000322568383095634 -0.1943729 -0.9365774 -0.2916196 46 46 46
-0.0181739368850342 -0.0566333998919952 -0.00320925084448476 -0.2171411 -0.8500456 -0.4798668 25 25 25
-0.0210811358927102 -0.0538498799140701 -0.00509355854344384 -0.1463091 -0.8780597 -0.4556367 34 34 34
-0.013995491645364 -0.0579991787298614 -0.0028319586741673 -0.1010159 -0.8689967 -0.4843971 52 52 52
-0.0136903550774828 -0.0578435759056629 -0.00317039900138238 -0.1010159 -0.8689967 -0.4843971 51 51 51
-0.0113622117050586 -0.057402839541012 -0.00357234110155913 -0.04728758 -0.8527518 -0.5201714 26 26 26
-0.0184804272306262 -0.0606434882519207 0.00531282285074169 -0.3097372 -0.8081805 0.5009064 63 63 63
-0.0174470210790682 -0.0609907010393929 0.00517247388909792 -0.2547699 -0.8969519 0.3613443 92 92 92
-0.0170185873514743 -0.0606149116207948 0.00557479006845651 -0.198586 -0.8089517 0.5533179 136 136 136
-0.0151957998140862 -0.0597242888892657 0.00621855937540616 -0.1113501 -0.4783458 0.8710835 96 96 96
0.0664025032571235 -0.0396701139250357 -0.00796368737625264 0.5940514 -0.4115497 0.69118 91 91 91
0.0452501171840126 -0.0197573105890694 0.00512075693287906 0.2451469 0.004100323 0.9694773 138 138 138
-0.013175070554601 -0.0613567996711216 0.00605165373339595 -0.1141015 -0.5480774 0.8286085 98 98 98
-0.0309390728019106 -0.0577961524344122 0.00377824155735179 -0.2908727 -0.9095502 0.2968357 87 87 87
0.0623578463352495 -0.0403442565219448 -0.00389040660544526 0.5064948 -0.4723667 0.721341 68 68 68
-0.0308539343058 -0.0569487105597795 0.00467931429949892 -0.2669812 -0.7926222 0.5481524 76 76 76
-0.0289258228008702 -0.0546461877913154 0.00616393826338257 -0.1632942 -0.2957074 0.9412184 101 101 101
-0.0307916232486482 -0.053756884597132 0.00586508759382276 -0.2110174 -0.2008527 0.9566242 88 88 88
-0.0253835049629862 -0.0567408563344564 0.00621174022617677 -0.1994623 -0.6779313 0.7075478 70 70 70
-0.0231449659355424 -0.0598666408534073 0.00524337849152812 -0.331887 -0.8032508 0.4946102 103 103 103
-0.0228671072073243 -0.0569426336872925 0.00626375845909605 -0.2768847 -0.3998613 0.8737538 64 64 64
-0.0269324757538422 -0.0532183007833303 0.0069591051083091 -0.1339651 -0.14033 0.9809999 62 62 62
-0.0228971412551359 -0.053559201446749 0.00698122780157334 -0.0757708 -0.1222432 0.9896036 102 102 102
-0.0247979432975043 -0.0528302877430979 0.0069236705797579 -0.07901128 -0.136559 0.987476 81 81 81
-0.0305090014452739 -0.0465833438452029 0.00793537936859878 -0.1962507 -0.09681581 0.9757624 208 208 208
-0.0285378907419689 -0.0472432623306333 0.00836789593011195 -0.1452351 -0.09045107 0.985254 218 218 218
-0.0286046345259308 -0.0443990216386445 0.00859695117213982 -0.1838636 -0.1011667 0.9777318 115 115 115
-0.0248720706627651 -0.0502547430272015 0.00798263383169839 -0.05195742 -0.1014003 0.993488 119 119 119
-0.0225957332327983 -0.0503893718018259 0.00794843265972944 -0.03601643 -0.07378913 0.9966233 122 122 122
-0.0225911492981103 -0.049345469137378 0.00833829781528395 -0.02027636 -0.07127164 0.9972509 113 113 113
-0.02636275240419 -0.0485191676431964 0.00818931567979625 -0.07506873 -0.0977798 0.9923728 137 137 137
-0.0255253948187309 -0.0477068292929842 0.00882616663383501 -0.06155924 -0.08945074 0.994087 156 156 156
-0.0268877060203938 -0.0447447221585637 0.0090996318153661 -0.106217 -0.0916934 0.9901062 97 97 97
-0.0241543364910965 -0.0453467194912444 0.00885243631049321 -0.03101035 -0.09971213 0.994533 179 179 179
-0.0226508440059585 -0.0459091643898638 0.0081644336384975 -0.002308521 -0.08972322 0.9959641 99 99 99
-0.0193464789310904 -0.059353257366128 0.00568640558148353 -0.2267966 -0.4586791 0.8591722 67 67 67
-0.0214378004020839 -0.0575986898379645 0.00608331968310449 -0.3303512 -0.4576506 0.8254841 76 76 76
-0.0169242722678141 -0.0577127804741049 0.00652022339505653 -0.1023932 -0.2539385 0.9617853 127 127 127
-0.0170846503605196 -0.0554916069182267 0.0072730178496731 -0.09931625 -0.1142226 0.9884784 119 119 119
-0.0211761139910795 -0.0552582606056362 0.00665413861986985 -0.07695206 -0.1306204 0.9884415 44 44 44
-0.018996572560699 -0.0547877988817133 0.00700672931050544 -0.08849388 -0.1018394 0.990857 108 108 108
-0.0147523900705269 -0.0559007496207508 0.00733887957542412 -0.09172622 -0.1051993 0.9902118 198 198 198
-0.0130994208792849 -0.0583792513605027 0.00677202402414007 -0.08721189 -0.2816026 0.9555596 97 97 97
-0.0115010556258958 -0.057888332632783 0.00715460093528625 -0.005649605 -0.2187177 0.9757718 92 92 92
-0.0128389461963386 -0.0555947547407587 0.00739843672969159 -0.05000294 -0.0953835 0.994184 243 243 243
-0.0140932430288086 -0.0539000993141389 0.0082057414923809 -0.06676628 -0.04225975 0.9968733 233 233 233
-0.0110962230535194 -0.0542392098132013 0.00809644260331971 -0.01317873 -0.06513908 0.9977891 235 235 235
-0.0170384309497254 -0.0493309485979588 0.00830863373532398 -0.06753854 -0.03623907 0.9970583 123 123 123
-0.0201716993889881 -0.0472431319287837 0.00860801175687936 -0.01786274 -0.0737737 0.997115 100 100 100
-0.016422343160288 -0.0511293440977906 0.0078498426300605 -0.05795677 -0.02863121 0.9979085 43 43 43
-0.012715297553806 -0.0512428112742811 0.00824172310834093 -0.04847867 -0.01189321 0.9987534 159 159 159
-0.0127630923417376 -0.0490900512963869 0.00869323664482191 -0.03589879 -0.01825328 0.9991887 104 104 104
-0.0105826207189215 -0.0493281708124013 0.00843130671809966 0.009175379 -0.001127997 0.9999573 114 114 114
-0.0142315538943926 -0.0452413670883249 0.00949215602976933 -0.01253052 -0.03821172 0.9991911 151 151 151
-0.056699600792774 -0.047107436854635 -0.00293330809736903 -0.3544631 -0.7245812 0.5910481 60 60 60
-0.0527634327036893 -0.0483204049160639 -0.00316959720485965 -0.3974371 -0.8475435 0.3517296 60 60 60
-0.0521255852202498 -0.0479194319477141 -0.00400620533838009 -0.2928451 -0.9560485 -0.01459078 54 54 54
-0.00654269993674955 -0.0560870349922652 0.0071238080165989 0.1376847 -0.1648961 0.9766536 91 91 91
-0.0527454352693278 -0.0466512573758656 -0.00532145012186142 -0.154541 -0.9773732 -0.1444255 45 45 45
-0.056817584406555 -0.0432851554194357 -0.00947892650241661 -0.06319261 -0.9584488 -0.2781772 58 58 58
-0.0510530968896907 -0.0421614406748672 -0.010526117126587 -0.103786 -0.871886 -0.4785847 30 30 30
-0.0476645906789772 -0.0429026692697299 -0.0107438582762062 -0.1356716 -0.8651778 -0.4827635 31 31 31
-0.0362126477628381 -0.0485871279609559 -0.00906947661227731 -0.2541401 -0.8203036 -0.5123621 36 36 36
-0.0422542212592109 -0.0448234992515764 -0.0104954474346813 -0.2562437 -0.8402739 -0.4777854 45 45 45
-0.0363558533791101 -0.0469215166819584 -0.0106586644366179 -0.2596644 -0.8281206 -0.4967802 32 32 32
-0.0366592365846787 -0.0474701042307115 -0.00950540415804962 -0.2453914 -0.8260183 -0.5074217 47 47 47
-0.0399810545523743 -0.0476043846999791 -0.00719185506461234 -0.2603851 -0.8201308 -0.509495 55 55 55
-0.0408784150898405 -0.048615150763474 -0.00574973746791824 -0.2719908 -0.7902242 -0.5491509 46 46 46
-0.0447122228369878 -0.0494239457266415 -0.00363333351446898 -0.2850618 -0.9144082 -0.2873977 47 47 47
-0.0448607119256634 -0.0472438714391646 -0.00523492195660719 -0.2728846 -0.8634424 -0.4242655 40 40 40
-0.035220730281824 -0.0505734962100851 -0.00606851078410447 -0.242957 -0.8188654 -0.5200301 35 35 35
-0.0379914827033188 -0.0476155557542214 -0.00901308816605756 -0.2688241 -0.8265033 -0.4945967 46 46 46
-0.0350425983766842 -0.0489068875692487 -0.00843506169643493 -0.2696016 -0.8212612 -0.5028369 39 39 39
-0.00845037858086645 -0.0396650680831888 0.00964928683237337 0.07509846 0.01308924 0.9970902 119 119 119
-0.0497820534931396 0.0124423876945068 0.00398485383408337 -0.4246643 0.7468696 0.511709 158 158 158
-0.05464813430747 -0.0447569508085521 -0.00111829026162125 -0.3317416 -0.3926638 0.8577661 54 54 54
0.0658917290717759 -0.0312895938577917 -0.00442362869861257 0.5763283 0.1961178 0.793337 38 38 38
-0.051363272541196 -0.0480560353436145 -0.000767262610855912 -0.4467204 -0.4277394 0.7857988 66 66 66
-0.0566953130605617 -0.045102707376948 -0.00178653192592815 -0.2966341 -0.5047728 0.8106865 54 54 54
-0.0563090405603718 -0.0427700952534728 -0.000949547952347196 -0.3407155 -0.2117929 0.9160004 89 89 89
0.0416111199032468 0.0319421992586766 0.0146971627165365 0.151284 0.08426134 0.9848925 65 65 65
-0.0506839696210806 -0.0431062329763958 0.00120024304154492 -0.3825909 -0.2285295 0.8952086 72 72 72
-0.0520468001688256 -0.0420390469788258 0.0010654197356687 -0.3960747 -0.2174388 0.8921015 76 76 76
-0.0526510562670651 -0.042597741698095 0.000413800397804254 -0.3559736 -0.1940987 0.9141163 66 66 66
-0.0508108593412863 -0.0456047228295312 -0.000163740752986363 -0.4487269 -0.4392792 0.7782531 58 58 58
-0.0479830835525065 -0.0455998500483328 0.00129423076109353 -0.355706 -0.2013507 0.9126506 81 81 81
-0.0461391122854759 -0.0454263767543046 0.00228153975379936 -0.3264136 -0.2240351 0.9182932 56 56 56
-0.0450015982561607 -0.0442945260824807 0.00330437842191939 -0.3478763 -0.2626109 0.9000098 52 52 52
-0.0578512608089772 -4.29334748490717E-05 0.0111508836216201 -0.670293 0.4264893 0.6073007 58 58 58
-0.0503252380576359 -0.0406965425379101 0.00243391265170723 -0.4055754 -0.2093163 0.8897726 46 46 46
-0.0477680609450493 -0.0415862580854487 0.00320900432144205 -0.3606208 -0.2641879 0.8945152 109 109 109
-0.0473042024790003 -0.0404706415073334 0.00396807158019225 -0.3649059 -0.2275018 0.9028215 74 74 74
-0.0462113963294098 -0.040048778993314 0.00432544875935154 -0.3573725 -0.225368 0.9063632 98 98 98
-0.0556249569239401 -0.0399302463054229 0.000321547332211458 -0.3399839 -0.1674535 0.9254028 129 129 129
-0.0556428003189578 -0.038419550731724 0.000542265480760085 -0.3204156 -0.2005375 0.925807 59 59 59
-0.0557924916209497 -0.036788703103502 0.00109816733038831 -0.3109935 -0.2175887 0.9251693 76 76 76
-0.0505628398706596 -0.0377270416596536 0.00354709692807881 -0.4348647 -0.146732 0.8884607 16 16 16
-0.0525569510087373 -0.0368387513458004 0.00275779881803889 -0.3854465 -0.146939 0.9109555 102 102 102
-0.0555486714130931 -0.0335923436840733 0.00288035360584687 -0.2727375 -0.2089166 0.9391316 66 66 66
-0.0521142832959896 -0.0352451630637728 0.00302321205734329 -0.3793548 -0.1761897 0.908321 17 17 17
-0.0443216207318709 -0.0453571218212091 0.00264241620508154 -0.3721166 -0.2021221 0.9059116 71 71 71
-0.0426740616608252 -0.0466579877201692 0.00304892081291369 -0.4303489 -0.1706422 0.8863865 83 83 83
-0.0415260893277178 -0.044607327647564 0.00419104412095983 -0.4356525 -0.1963195 0.878445 87 87 87
-0.0444287785743901 -0.0423642278717933 0.0037912749529132 -0.3258587 -0.277001 0.9039285 65 65 65
-0.0424214719919787 -0.0413990376489101 0.00523368373487687 -0.370113 -0.2488455 0.8950376 44 44 44
-0.0440554056248214 -0.039955503575693 0.00526351566391403 -0.323629 -0.2495052 0.9126946 79 79 79
-0.0447061978187568 -0.0383697525862159 0.00603512177840554 -0.3462711 -0.1976342 0.9170807 64 64 64
-0.0408734238864188 -0.0414351760789815 0.00637922958328746 -0.4051231 -0.2203789 0.887304 36 36 36
-0.0378140649397484 -0.0426275612370857 0.00737269007148067 -0.3408095 -0.2069942 0.9170618 242 242 242
-0.0347470625610684 -0.0430640774588297 0.00786646324296469 -0.2251077 -0.1825782 0.9570746 237 237 237
-0.0333332140512966 -0.0489870655523362 -0.00896307709404737 -0.2644653 -0.8262148 -0.4974205 24 24 24
-0.0193486474803339 -0.0258497260531582 0.0119094946935075 0.1735124 0.06768576 0.982503 217 217 217
-0.03267095777946 -0.0481104125909106 -0.0102932418901589 -0.239513 -0.8176926 -0.5234619 25 25 25
-0.030235692384278 -0.0487029765196975 -0.00974337183247981 -0.2155174 -0.8340507 -0.5078502 28 28 28
-0.0254011455973414 -0.0533359795627144 -0.00676512973510984 -0.118075 -0.8751876 -0.4691535 33 33 33
-0.0227456691724207 -0.052585827801818 -0.00724377720086095 -0.1145956 -0.8634829 -0.4911875 37 37 37
-0.0243887164197729 -0.0496039227219315 -0.0103208864310105 -0.115746 -0.8304526 -0.5449324 23 23 23
-0.0338711379002913 -0.051895494205553 -0.0055885950711877 -0.2131396 -0.8490421 -0.4834244 34 34 34
-0.032734441908696 -0.0515519678453678 -0.00616621775950227 -0.2268253 -0.8489977 -0.477235 38 38 38
-0.0210130517969485 -0.0521297398004882 -0.00709676543282584 -0.1190869 -0.8561942 -0.5027422 29 29 29
0.0200570299277795 0.0594450098751004 -0.00100716999895739 -0.4903882 0.8681531 -0.07635206 120 120 120
-0.0325672719703901 -0.0442392475115936 0.00781370410278814 -0.1878031 -0.1373314 0.9725586 142 142 142
-0.0330834083708245 -0.0435742132431391 0.00817636827868545 -0.1807674 -0.1647684 0.9696259 106 106 106
-0.0703406790214497 -0.026679640296723 0.000622650218793097 -0.4098969 -0.1865827 0.8928446 137 137 137
-0.0685996461331034 -0.0264920464964808 0.00202819124399101 -0.375601 -0.209952 0.9026871 123 123 123
-0.0733010835262872 -0.0242112171393208 0.000329756760146571 -0.4697086 -0.1223392 0.8743037 93 93 93
-0.0763274254563675 -0.0226688183761655 -0.000950753839853102 -0.5413821 -0.04466536 0.8395894 78 78 78
-0.0749703506977979 -0.0224269136134301 -0.00020278256531775 -0.4959653 -0.06656908 0.8657869 98 98 98
-0.0751502619177563 -0.0200215073793854 0.000198386251660965 -0.5744841 0.1026123 0.8120583 112 112 112
-0.0730458083722082 -0.0205169527285666 0.00108119945072749 -0.482386 0.01359049 0.8758534 79 79 79
-0.0689480911502039 -0.018714461469724 0.00348837849980199 -0.4550797 0.02781942 0.890016 92 92 92
-0.0648121116514137 -0.0298320610981904 0.00127750135949084 -0.2763297 -0.2684132 0.9228197 78 78 78
-0.0616372389553706 -0.0306849470763143 0.00227924929074119 -0.2301722 -0.2301802 0.9455357 107 107 107
-0.067559864782936 -0.0262203114568613 0.00239622668318584 -0.32717 -0.2360831 0.9149998 34 34 34
-0.0638769076837747 -0.028390549446847 0.00255992749157408 -0.2325401 -0.2615568 0.9367567 89 89 89
-0.0658745219580928 -0.0262615712687095 0.00327618048755324 -0.2809429 -0.2323775 0.9311669 97 97 97
-0.0655139424222543 -0.024779108800742 0.00379487077409213 -0.2579788 -0.1808962 0.9490646 99 99 99
-0.0636775173247058 -0.0251950841208507 0.00377080534124347 -0.2408857 -0.1852139 0.9527171 92 92 92
-0.0609465627605467 -0.029118464459247 0.00334868873541033 -0.2077548 -0.2533517 0.944802 101 101 101
-0.0575326818445658 -0.0321623523458859 0.00261848328366548 -0.2040428 -0.2295754 0.9516626 60 60 60
-0.0581175715575882 -0.0301075247676122 0.00290377552562554 -0.213931 -0.2495386 0.9444385 120 120 120
-0.0602584814733138 -0.0281050816944012 0.00368536818003135 -0.2245061 -0.2599462 0.9391619 93 93 93
-0.059711940874723 -0.0268733257594332 0.00402043339627367 -0.2069896 -0.2569668 0.9439933 83 83 83
-0.0580351809667957 -0.0264655955500497 0.00497099937971174 -0.2562496 -0.2578045 0.931597 89 89 89
-0.0566213202271 -0.0264637935071947 0.00569149506440586 -0.2986846 -0.2290252 0.9264637 117 117 117
-0.0663922366667731 -0.0237435547447864 0.00408076395331347 -0.3332889 -0.1122727 0.9361161 115 115 115
-0.0668914194860122 -0.019945593614905 0.00418182111912485 -0.3938469 -0.06528558 0.9168546 84 84 84
-0.0647980128689554 -0.0191002216133139 0.0053395589811307 -0.3731273 -0.111694 0.9210322 77 77 77
-0.0637010224789468 -0.0190687388031391 0.00548593003924014 -0.3536523 -0.1513977 0.9230432 122 122 122
-0.0612103337531254 -0.0210982769432706 0.00594274038355691 -0.2617465 -0.199767 0.9442362 78 78 78
-0.0570645464640386 -0.0233705676380439 0.00618969077958731 -0.2913769 -0.1880618 0.9379404 58 58 58
-0.0591877233073193 -0.0210197882382269 0.00665027655405764 -0.2610041 -0.2003608 0.9443159 134 134 134
-0.0552797328640148 -0.0210042465285034 0.00712478456217785 -0.2722431 -0.1676116 0.9475178 82 82 82
-0.0573084315684537 -0.0199043326032824 0.00737694678655249 -0.2453037 -0.1919011 0.9502631 104 104 104
-0.0580672545428075 -0.0195315036593239 0.00778095461871176 -0.2515241 -0.1924885 0.9485167 132 132 132
-0.0610424846350116 -0.0164082659767433 0.00805526969730752 -0.2846332 -0.1688625 0.9436468 62 62 62
-0.0614124497500492 -0.0160481026239864 0.00782588410301788 -0.313544 -0.1590661 0.936156 69 69 69
-0.0610005336734088 -0.0148366236499676 0.00838403712240054 -0.307088 -0.1599871 0.9381371 71 71 71
-0.0572569829185821 -0.0175651551080821 0.00836379030663453 -0.2360925 -0.1908254 0.9528095 119 119 119
-0.0585332423708605 -0.0154893273135513 0.00861097875979278 -0.2438414 -0.1764165 0.9536344 92 92 92
-0.0568511878907442 -0.0149706975631513 0.00892196457926736 -0.2555323 -0.1870475 0.9485339 126 126 126
-0.025811250878173 -0.0428735391615046 0.00970861516254296 -0.05578552 -0.1507966 0.9869896 219 219 219
-0.0465394593129404 -0.0340616440143245 0.00646648209438588 -0.3850693 -0.1713926 0.9068331 67 67 67
-0.0489108864695717 -0.0331125848268995 0.00559838570664889 -0.4457239 -0.2233442 0.8668607 24 24 24
-0.0473501921163583 -0.0348095398813327 0.00555246538399762 -0.4177932 -0.1708607 0.8923315 58 58 58
-0.0450500614101254 -0.0334386648796624 0.00743616942612518 -0.2949352 -0.1655221 0.9410716 103 103 103
-0.0463654342953063 -0.0323254903702721 0.00750248998512926 -0.3435225 -0.2151226 0.9141743 90 90 90
-0.0409194040449218 -0.0395496618182503 0.00696202817641384 -0.3739048 -0.2101437 0.9033465 45 45 45
-0.0412879720480683 -0.0377367414374633 0.00730498706431798 -0.3394612 -0.1443639 0.9294757 57 57 57
-0.0394441747985508 -0.0382815637543801 0.00797490273332813 -0.3698837 -0.1390896 0.9186077 105 105 105
-0.0405454439493322 -0.0365147554013843 0.00826748287387097 -0.3326407 -0.1293737 0.9341373 78 78 78
-0.0364865023798009 -0.041270757572925 0.00828406219052225 -0.2845725 -0.1880328 0.9400331 247 247 247
-0.0368974779802331 -0.0403214056244322 0.00868789693014266 -0.2986355 -0.1723423 0.9386773 244 244 244
-0.0388822655073701 -0.0389173871536542 0.00820299266861219 -0.3556276 -0.1625323 0.920387 199 199 199
-0.0379059797759762 -0.0375954769277389 0.00890601210027903 -0.3483847 -0.1149588 0.9302756 247 247 247
-0.0344433594991352 -0.0367438248184465 0.0104296083082264 -0.2541601 -0.1317143 0.9581513 77 77 77
-0.0420900723635472 -0.0354524239495306 0.00764596180410021 -0.3223007 -0.1333685 0.9371953 90 90 90
-0.0399846140803362 -0.0352997392795554 0.00866506510815956 -0.3369957 -0.0921214 0.9369885 57 57 57
-0.0436502321559303 -0.0324784540229356 0.00819142029827757 -0.2651401 -0.1486991 0.9526748 81 81 81
-0.03619052260212 -0.0346797876695922 0.0100120602138961 -0.3266513 -0.08256962 0.9415313 216 216 216
-0.0381903311403104 -0.0338658110626934 0.0094654727757964 -0.3517171 -0.07787979 0.9328611 194 194 194
-0.0376347044143427 -0.0324609784932396 0.0102101955810341 -0.3517237 -0.08610388 0.9321355 241 241 241
-0.037900827291028 -0.0309056757965959 0.01013571971917 -0.3500627 -0.1088693 0.9303782 137 137 137
-0.0364656862226642 -0.0309332232261925 0.0109189105508971 -0.3418877 -0.1099069 0.9332917 233 233 233
-0.0338046054123429 -0.0310894096517887 0.011911393539189 -0.247176 -0.08530566 0.9652082 89 89 89
-0.0351541858221265 -0.028801232676991 0.0121675523954597 -0.2643868 -0.06334614 0.9623341 124 124 124
-0.0342086736884775 -0.0284484641671746 0.0122165059236763 -0.2464831 -0.03542204 0.9684995 107 107 107
-0.0543523711783908 -0.0296251472384935 0.00394871364949279 -0.3023953 -0.2993854 0.904945 63 63 63
-0.0520829549976515 -0.0314502761943062 0.00403020371217233 -0.3717255 -0.2489045 0.8943527 58 58 58
0.0544369050082675 0.00292747275291516 0.00737878790313989 0.4599829 0.03734496 0.8871421 126 126 126
-0.0525775375450502 -0.0306068381414323 0.00548770933724596 -0.3809789 -0.2847683 0.8796375 78 78 78
-0.0518184321002645 -0.0303264796541057 0.00563739145265452 -0.4082452 -0.3061865 0.8599917 66 66 66
-0.0506751757256697 -0.0309053313318787 0.00577220072777684 -0.4371997 -0.2951784 0.8495446 67 67 67
-0.0517018408007313 -0.0278242022975178 0.00658882718646014 -0.3890156 -0.2928711 0.8734377 66 66 66
-0.0555511346958626 -0.0266799588552418 0.00559636826468302 -0.3161095 -0.2482725 0.9156613 90 90 90
-0.050332087761943 -0.0294622586580017 0.00644699686929601 -0.4227525 -0.2876356 0.859387 51 51 51
-0.0479264323353752 -0.029462672083264 0.00768097458784028 -0.360017 -0.2435024 0.9006077 56 56 56
-0.0331913224025153 -0.0156510251725068 0.0143871946158523 -0.02857605 -0.05496641 0.9980792 138 138 138
-0.052470897679498 -0.0264951069838129 0.00697659492510538 -0.3838462 -0.2559178 0.887225 100 100 100
-0.0513655944421031 -0.0262577456485813 0.00791941011850833 -0.3734073 -0.2070051 0.9042764 56 56 56
-0.0504120842616098 -0.0216353792953018 0.00940196170073504 -0.3857061 -0.1200634 0.9147763 68 68 68
-0.0496695092838945 -0.0284921634013086 0.00702185236989217 -0.3910521 -0.2738996 0.8786679 62 62 62
-0.0456412022454859 -0.0277061394211038 0.00936376974995157 -0.2296089 -0.1935729 0.9538392 114 114 114
-0.0488926813805299 -0.0260569123615818 0.00900623773777071 -0.3256972 -0.1761163 0.9289265 31 31 31
-0.0491695309288379 -0.0232773209408617 0.00991477417089098 -0.3586604 -0.1218333 0.9254833 81 81 81
-0.0550821710756674 -0.0196356371410175 0.0079481433176965 -0.2876065 -0.1659469 0.9432625 68 68 68
-0.0532308625191124 -0.0198737927792944 0.00856918121979738 -0.3452616 -0.1526175 0.9260142 62 62 62
-0.0495065786948594 -0.0217707190310144 0.00985505105799828 -0.367235 -0.1325006 0.9206422 74 74 74
-0.0443856699010858 -0.0291202296542494 0.00905294205056684 -0.1918242 -0.170152 0.966567 102 102 102
-0.042549196283015 -0.0279736705815784 0.00917435074909478 -0.2145021 -0.1942747 0.9572075 90 90 90
-0.0410547317099648 -0.0286684320462391 0.0096507751718356 -0.2496246 -0.1756882 0.9522716 123 123 123
-0.0414754683766314 -0.0261298813181408 0.010408832060565 -0.2227531 -0.1913197 0.9559173 89 89 89
-0.0377768866878319 -0.0267510834529693 0.0116447410064563 -0.2705888 -0.1134872 0.9559824 210 210 210
-0.033944067520613 -0.0273827856324762 0.0125159293035786 -0.2320732 -0.01602341 0.9725664 92 92 92
