ply
format ascii 1.0
comment File exported by Rhinoceros Version 7.0
element vertex 476
property float x
property float y
property float z
property float nx
property float ny
property float nz
property uchar red
property uchar green
property uchar blue
end_header
-0.170900656842021 -0.366758875628217 0.00860216802103955 0.8342566 -0.5211369 -0.1800895 164 164 164
0.0235445428697732 0.0586514104638396 0.0649043676375447 0.1474203 -0.07115993 0.9865108 183 183 183
-0.137875134951235 -0.132615886072729 -0.0500229965229302 -0.8483224 0.5166556 0.1158276 207 207 207
-0.0812102797110709 -0.225947036629335 0.0263275355248818 0.8338239 -0.5235186 -0.1751173 148 148 148
0.0911613343502873 0.166063592139179 0.0651963684753317 0.1301822 -0.0909461 0.9873102 201 201 201
-0.252991678264214 -0.364805197369449 -0.0231039367438979 -0.614534 -0.7876322 0.04453756 164 164 164
0.262047207615343 0.320552330189995 0.0300171945535897 0.8396015 -0.5234798 -0.1450452 145 145 145
0.033034228090726 -0.0450197280815616 0.0305437586425331 0.8428974 -0.5229702 -0.1265946 141 141 141
-0.152875850669469 -0.339336806396721 0.0180331222954177 0.8313088 -0.5281924 -0.1730272 145 145 145
0.134031132999647 0.149125592833023 0.0647465125205714 0.1395631 -0.04920402 0.9889899 201 201 201
-0.159039508394329 -0.289078389836441 0.0634528043378776 0.1618093 -0.09678482 0.9820644 189 189 189
0.243681619203675 0.382734124959859 0.0466243675773907 0.5615738 0.8273956 -0.007167385 161 161 161
0.144523976894865 0.319501548782401 0.026154123430011 -0.8529134 0.5035688 0.1376852 174 174 174
0.0262267779198731 0.132365926909323 -0.00768126240809963 -0.8395101 0.5336077 0.1023992 160 160 160
0.229284008302264 0.397436529959757 -0.0391613526071495 0.6157561 0.787604 -0.0229002 168 168 168
-0.15760820305681 -0.345477555695116 -0.00114323792047558 0.8318012 -0.5199602 -0.1942886 157 157 157
0.0357076213014199 0.143578765005153 0.0424071346361498 -0.8176728 0.5372483 0.206822 185 185 185
-0.0403968344469657 -0.159579604321765 0.00422091602444964 0.834164 -0.5292253 -0.1552131 139 139 139
0.200457585105479 0.40293013063771 -0.0544942900434263 -0.8575698 0.5095388 0.07031485 154 154 154
-0.204920153217174 -0.243529301132972 0.0528816887559652 -0.8197829 0.5123545 0.2558299 162 162 162
-0.0423775462058959 -0.0424283460029697 0.0652555246638307 0.1637672 -0.09451175 0.9819612 176 176 176
-0.0445316336330054 -0.137396641187598 0.0635389037239791 0.1524559 -0.0676869 0.9859897 175 175 175
0.178535685466948 0.251746603355163 0.0641592899179129 0.1499646 -0.1050967 0.9830897 200 200 200
0.0955869968844864 0.2400225838046 0.00236352191212075 -0.8424644 0.5098046 0.1742211 183 183 183
0.128621653311436 0.107793048254954 0.0364497907047618 0.8347707 -0.5327184 -0.1391724 105 105 105
0.0852772250055039 0.0403840660793121 -0.0270569823473796 0.8359106 -0.5349585 -0.1227715 125 125 125
0.165467029735637 0.165694007049176 -0.016400699140388 0.8266365 -0.5436738 -0.1452271 159 159 159
-0.17613199645973 -0.276966024334826 0.0640888242278409 0.1666948 -0.082477 0.982553 209 209 209
0.148212159986171 0.264320006911921 0.0653740329161081 0.1484616 -0.06161903 0.9869966 187 187 187
0.103314973015369 0.133509453940749 0.0642821030817321 0.1679673 -0.08143077 0.9824235 196 196 196
-0.185563447264996 -0.254685758567285 0.0654863930611347 0.1643033 -0.09424215 0.9818976 182 182 182
0.0977100651041577 0.0776429439974567 0.0639938717352679 0.1269791 -0.04918334 0.9906853 186 186 186
-0.0696258699559441 -0.208034892032038 0.0265243432923603 0.8312454 -0.5237111 -0.1864346 145 145 145
0.219688631584923 0.403483334892329 -0.0124611049915261 0.5749332 0.8178282 -0.02467602 226 226 226
-0.267963193703087 -0.338681169459078 0.0168951445639842 -0.8233843 0.5184295 0.2308012 225 225 225
-0.135499746998137 -0.309690912699336 -0.0388749515889344 0.9926169 -0.08817428 -0.08328879 113 113 113
0.220024177206934 0.403773296250541 -0.0286214693808667 0.6077165 0.7940506 -0.01281751 205 205 205
-0.148144990595855 -0.331928381886193 0.0176112570078613 0.8352368 -0.5201966 -0.178255 149 149 149
-0.0797581913982447 -0.0405836716775629 -0.0587381852020887 -0.8454545 0.52627 0.09081112 203 203 203
-0.0561780472037251 -0.183634913108941 -0.0429933380183677 0.8514675 -0.510779 -0.1187764 88 88 88
-0.10391370190948 -0.0793098913528453 0.0282404676953083 -0.8304268 0.5195128 0.2012406 176 176 176
-0.0456183343607119 -0.118031006440372 0.0635952036111507 0.1758868 -0.06234374 0.9824343 175 175 175
-0.245753396509111 -0.311772451879559 0.0627415187078588 -0.7470538 0.4557715 0.4839245 116 116 116
-0.0674597911282102 -0.208715107445493 0.0606363616790071 0.7987639 -0.5399714 0.2653434 102 102 102
-0.00920845076451878 0.0741655611698371 0.018937124604613 -0.8200353 0.5345409 0.2044702 179 179 179
0.071545609323518 0.0171957059597175 0.0254608558410474 0.8407534 -0.5143989 -0.1689008 124 124 124
-0.0926217458162703 -0.0585040970279824 -0.0230895688351727 -0.8422123 0.5298646 0.09960926 177 177 177
-0.106167308535238 -0.146949005550057 0.0651432518883411 0.1693424 -0.08570544 0.9818237 176 176 176
0.0835198994418871 0.216362822126723 0.0632849010345131 -0.7616428 0.4469856 0.4691525 192 192 192
-0.00525109886014998 -0.00707852394848823 0.064825705164164 0.1648195 -0.08108153 0.9829854 172 172 172
0.109772465751126 0.245365508892937 0.0660012132994092 0.1702372 -0.08195683 0.981989 217 217 217
-0.220714473445618 -0.2638316400194 -0.0241457704404192 -0.8425259 0.5232207 0.1280244 156 156 156
0.253472033696824 0.38131288263784 -0.0586544245660898 0.5300187 0.8479834 -0.002063421 173 173 173
0.205829622224838 0.285486226284484 0.0645161011963782 0.1342428 -0.07105456 0.9883978 223 223 223
-0.255561187828228 -0.331423587307279 0.0662695280428593 -0.1987787 0.1456225 0.9691651 174 174 174
-0.273079297250993 -0.34501885504995 -0.00912487074458494 -0.914259 0.3819248 0.1351442 203 203 203
0.0148097533634138 -0.0137015208497075 0.0643054037475818 0.1833493 -0.07883997 0.9798813 187 187 187
-0.067650350132932 -0.0212033299023956 -0.0578422207797576 -0.8503344 0.5187228 0.08864577 211 211 211
-0.0570825047109799 -0.18728578456977 -0.0516880360937281 0.8364296 -0.530079 -0.1392901 127 127 127
0.01585522289392 0.114002442467132 0.0186814394314031 -0.8349199 0.5120115 0.2018737 191 191 191
0.254337765402881 0.307786904136238 -0.0153102974174198 0.842274 -0.5251526 -0.121611 172 172 172
-0.108373466967937 -0.0835386209021007 -0.0174081163220623 -0.856252 0.4918108 0.1579703 144 144 144
0.0909073298449816 0.230487506967672 0.0402135181710601 -0.8525514 0.480484 0.2056483 154 154 154
-0.175663827231786 -0.193064937716135 0.031976250675516 -0.8232989 0.5235187 0.2193331 166 166 166
-0.179325140896641 -0.379400180274853 -0.0164090156412921 0.8499987 -0.4950337 -0.1801221 177 177 177
-0.172056174692557 -0.355104541561735 0.0619124133045362 0.1684806 -0.0717416 0.9830908 197 197 197
-0.127885529543724 -0.116554830740221 -0.0507399969172676 -0.8475894 0.5188605 0.1112473 197 197 197
-0.00706967641877006 -0.106748630359455 -0.0186999220114856 0.840432 -0.5131398 -0.174246 178 178 178
-0.0234135471216783 0.0478635421067233 0.0607881085088293 -0.8478346 0.4919489 0.197896 217 217 217
-0.26579016544692 -0.33489651306556 -0.0599665821909273 -0.8336904 0.5409864 0.1108785 142 142 142
0.250675594634745 0.300119243994811 -0.0609899603576022 0.8438436 -0.523307 -0.1186494 176 176 176
-0.153336594596144 -0.337600833965048 -0.0408740524249688 0.8311948 -0.5372283 -0.1431819 191 191 191
-0.21387020297484 -0.267568426188911 0.0665364391991268 0.04095312 0.009599209 0.9991149 190 190 190
-0.0236963762321094 0.0034986313594359 0.0656356645265 0.1587724 -0.06946123 0.9848688 167 167 167
0.10894860430437 0.0767834516482498 0.0311362062610628 0.832761 -0.5313295 -0.1555574 103 103 103
-0.249242674623321 -0.315419553861285 0.0550615302810342 -0.8197438 0.5153021 0.2499677 220 220 220
-0.0451615517384622 0.0135283813605412 0.0482401455137102 -0.8366789 0.508076 0.2045173 172 172 172
0.121609082769235 0.0963459959083513 0.0345437935320678 0.8337411 -0.532595 -0.1456652 92 92 92
-0.0368859422319379 -0.154575046333685 -0.0286951542620662 0.8345275 -0.5309488 -0.1471641 175 175 175
0.0829561964093288 0.151993434318421 0.0650622920501251 0.1469586 -0.07208429 0.9865125 186 186 186
0.0940293211392273 0.0545172314405742 -0.0239013907402972 0.8350903 -0.5268285 -0.1583535 128 128 128
0.00525066969453162 -0.0738779911816433 0.0630245504176878 0.1524489 -0.07957184 0.9851028 125 125 125
-0.1179505255479 -0.206367460457071 0.0640182380828343 0.1634181 -0.09470773 0.9820005 182 182 182
0.0129765461092486 -0.0236252566981096 0.063999273717249 0.1675765 -0.08520504 0.9821702 173 173 173
-0.135473427061968 -0.312535464352064 0.0249418438571631 0.8281472 -0.5298595 -0.1828143 140 140 140
-0.0274921622001436 -0.141665206813369 0.035441702139498 0.8215339 -0.5375449 -0.1900726 134 134 134
-0.163476207621213 -0.358338868096195 0.0345185028788906 0.8239824 -0.5150312 -0.2362117 156 156 156
0.195805343320429 0.397449336222848 -0.046151954255343 -0.8390864 0.5379587 0.08083589 170 170 170
-0.198954380942918 -0.398414174550045 0.0622521686109108 0.05469829 -0.2009347 0.9780763 214 214 214
-0.101419053007631 -0.177025586617183 0.0642585365622848 0.1611102 -0.07771721 0.9838717 177 177 177
0.220975429542973 0.386763934331518 0.0652078171011296 0.1563386 -0.06913834 0.9852808 226 226 226
-0.221173464291005 -0.388169923454212 0.062591039110407 -0.237249 -0.6907396 0.6830752 248 248 248
-0.000774534471846848 -0.1015334001518 0.061051937735792 0.7630712 -0.5190161 0.3851553 154 154 154
-0.159753286134546 -0.166674569209503 -0.0207280280014593 -0.8494411 0.5108812 0.1320998 183 183 183
0.164722111639409 0.263476567669499 0.0650596832754978 0.1798772 -0.0722546 0.9810318 215 215 215
0.203169284359473 0.395892286934724 0.0655228649183166 0.1767508 -0.06891356 0.9818401 216 216 216
-0.138490255284813 -0.244783118266967 0.063613546253868 0.1651067 -0.09084414 0.9820831 192 192 192
-0.173888974081045 -0.192452661673588 0.0488122497248321 -0.8257455 0.5172669 0.2248987 181 181 181
0.212202768441756 0.407384343498231 0.0323464237167786 0.5872586 0.8093215 0.0112276 245 245 245
0.0830424430907864 0.218998011614796 0.0322750081519449 -0.8263666 0.531747 0.1853736 177 177 177
-0.0779622645178548 -0.221428431056401 0.0628394716226512 0.6070367 -0.2753383 0.7454497 184 184 184
0.270185957726054 0.366575807585111 -0.03532288849828 0.6180245 0.7845924 -0.04960367 188 188 188
0.0131248849425207 -0.0220169343485743 0.0640343158907644 0.1728761 -0.08476715 0.9812891 167 167 167
-0.0571187255135158 -0.186088381869904 -0.0307179066194529 0.8299823 -0.5369484 -0.1510488 154 154 154
0.0710386343969954 0.0180164677244477 -0.0349308914017602 0.8533632 -0.5043558 -0.131896 128 128 128
-0.123146940503086 -0.294799133508468 0.0460612312883137 0.8609287 -0.4776705 -0.1750221 103 103 103
0.160249626542605 0.312182236950696 0.0658242153394554 0.1643129 -0.06360018 0.9843557 242 242 242
0.0719582073572554 0.0192987267664669 -0.0163777521218165 0.8341616 -0.5253843 -0.1677668 133 133 133
-0.0293210570826551 -0.144481778031321 0.0332561055929988 0.8224832 -0.5365633 -0.1887358 132 132 132
-0.161188649933578 -0.349674595810459 -0.0340345026870533 0.8351461 -0.527202 -0.1568087 134 134 134
0.0945262664452475 0.0551650449173185 -0.0585015281018399 0.84434 -0.5222185 -0.1199076 138 138 138
-0.209097682588289 -0.395898520516665 0.0184905060759963 -0.5975499 -0.800522 0.04581137 150 150 150
-0.103255357824214 -0.263630583000003 0.0547069415428727 0.8278874 -0.5311599 -0.1801987 114 114 114
0.166491401008908 0.167391295067218 -0.00635821666793617 0.8455519 -0.5151595 -0.1401879 149 149 149
0.191073286268936 0.393497646424915 -0.0230310134609335 -0.8362477 0.5413677 0.08724027 178 178 178
0.26999784331509 0.365461070405241 0.00263975972550229 0.5808437 0.8139404 -0.01102679 158 158 158
-0.212197121547334 -0.352253568832783 0.0636498466100798 0.1801192 -0.09524531 0.9790227 207 207 207
0.19816453471221 0.403777644037786 0.0473015210783446 -0.8178248 0.543757 0.1883901 216 216 216
-0.0124363337764712 0.0702714262731139 -0.00956760662411986 -0.8401865 0.5261992 0.1311524 147 147 147
0.210464551000874 0.332318864027408 0.0649906320155262 0.1468877 -0.07267691 0.9864796 186 186 186
-0.169908843176372 -0.364565278260871 0.00240409767702498 0.8456387 -0.5041577 -0.1752719 152 152 152
-0.241044241715203 -0.29461818488601 -0.00967824352448275 -0.8450257 0.5164956 0.1384332 184 184 184
-0.0859628048012113 -0.0493673449243978 0.0298674666839281 -0.8354314 0.5216029 0.1731614 150 150 150
-0.13228942633912 -0.182909516033345 0.0653134109357817 0.1849459 -0.07069799 0.9802024 164 164 164
-0.0641921772756625 -0.197462496977094 -0.0149852924294716 0.8346925 -0.5311019 -0.145668 149 149 149
0.164127906931818 0.349687062050888 -0.026172110653598 -0.8361231 0.546181 0.05083776 204 204 204
0.170229684131349 0.263167825634926 0.064736439716054 0.1637913 -0.07187402 0.9838732 227 227 227
0.183611848399211 0.194706926084483 0.0404246321425751 0.8389695 -0.518654 -0.1647065 147 147 147
0.0804385604886163 0.213770118034376 0.0380226934066035 -0.8146682 0.5430719 0.2034421 160 160 160
0.188707739987204 0.211612495173515 0.0643121609475036 0.1945606 -0.08441021 0.9772518 201 201 201
-0.0882605252097616 -0.236351509579309 0.00208603595183998 0.836355 -0.5163303 -0.1841555 153 153 153
0.0746036194649438 0.0212868462247998 0.0557865233240081 0.8306117 -0.4945324 -0.2559724 112 112 112
0.121769089318799 0.246370998141549 0.0656339153504841 0.1624136 -0.06471115 0.9845985 240 240 240
-0.076946876298077 -0.0361684524905292 0.0383866679286977 -0.8241137 0.5270008 0.2076216 210 210 210
0.129333495850848 0.293342213063552 0.0515395801936516 -0.8136379 0.5437919 0.20563 159 159 159
-0.0109691906674863 0.0705122584001082 0.0275123316535384 -0.8380039 0.5192959 0.1675745 175 175 175
-0.228732134156129 -0.278556316339234 0.0262821770462199 -0.834398 0.5105004 0.2077721 183 183 183
-0.216240943872701 -0.255684991026833 0.0110951235073028 -0.8276629 0.5218833 0.2064265 178 178 178
-0.00543258636492335 0.0792279511148407 0.030869122969919 -0.8318257 0.5252507 0.1793814 169 169 169
-0.131847346883873 -0.305147478200383 -0.00239205581074671 0.8416627 -0.5080471 -0.1830083 147 147 147
-0.176345639622188 -0.374769085987673 -0.0174191484219416 0.844606 -0.5086296 -0.1671426 196 196 196
-0.184918708972304 -0.356837847630273 0.0624186447331432 0.1547371 -0.07101458 0.9854001 194 194 194
0.0733707063895957 0.0694127777796961 0.0640035745914538 0.1633761 -0.0721076 0.9839252 183 183 183
0.0139868805354291 -0.075979246486483 0.0534430669977243 0.8300827 -0.5258337 -0.1856385 130 130 130
-0.262394739690521 -0.327750889618068 0.00589801957743352 -0.8329288 0.5252877 0.1740757 165 165 165
-0.154808140257904 -0.158031049345769 0.0112876452417819 -0.8284028 0.5234401 0.1993976 135 135 135
0.176755356525523 0.368991792216996 0.0509142254502776 -0.8285226 0.5166838 0.2158429 195 195 195
-0.133753504229991 -0.308325771804269 -0.00535765593147776 0.8342769 -0.5171027 -0.1912767 167 167 167
-0.226753481601947 -0.340425388249548 0.0642630074688869 0.1759672 -0.08384684 0.9808187 207 207 207
-0.117973801087499 -0.285483537278315 0.0273359408358629 0.824532 -0.5315416 -0.1939342 137 137 137
-0.15497516904004 -0.297076326898013 -0.0591914965030508 0.5638679 0.8236327 -0.06068079 91 91 91
0.117349043330048 0.0901254829291629 0.0401716676454988 0.8380337 -0.5230464 -0.1553122 106 106 106
-0.160547576355143 -0.352375148566419 0.0295996840602175 0.8351369 -0.4999709 -0.2292935 178 178 178
0.0469256125177286 0.164891348117557 -0.00350409007124401 -0.8389273 0.5286437 0.1293709 120 120 120
0.237133340142544 0.390932746195666 -0.0115021453646572 0.5700288 0.8213047 -0.02292709 209 209 209
0.161003901150753 0.159266600335353 0.0371245769672642 0.8248608 -0.546935 -0.143062 125 125 125
-0.126883058534391 -0.298027948583984 0.0068684667261315 0.8219427 -0.5369745 -0.1899174 149 149 149
0.274203693166322 0.339012919538503 -0.0314871409213093 0.8456764 -0.5211291 -0.1151342 138 138 138
-0.18437432492132 -0.245305126562384 0.0652349153757386 0.1988095 -0.09433905 0.9754871 171 171 171
-0.12030457171502 -0.287819127646669 0.0125024227218905 0.8307986 -0.5258907 -0.1822434 171 171 171
0.150181707603279 0.173041176059041 0.0646541813530914 0.1510009 -0.05472235 0.9870178 202 202 202
0.197035499885672 0.215762511809952 0.0260344009294248 0.8329104 -0.5309885 -0.1559215 147 147 147
-0.196440422093499 -0.397314983722785 0.0620768588260952 0.1353943 -0.1036908 0.985351 180 180 180
0.0607719895377426 -0.00140595602997523 0.0625347055544316 0.6830859 -0.4336247 0.5876762 99 99 99
-0.216314489653515 -0.391127395927595 -0.00799236863523355 -0.5573924 -0.8302213 -0.006808945 109 109 109
0.137600581188228 0.122414428246322 0.0186664315190279 0.8281635 -0.5245158 -0.1975562 133 133 133
0.127822636242554 0.192712175798964 -0.0444629891858313 0.5076975 0.8609547 -0.03162733 92 92 92
0.148413989529055 0.32553448834296 -0.0200804441601108 -0.8426244 0.5383552 0.01256083 135 135 135
0.0910955144032953 0.113669552137755 0.0645120682996865 0.1479755 -0.0690532 0.9865774 160 160 160
0.189495389406409 0.203749653739284 -0.00568509062903826 0.8415511 -0.5224504 -0.1372494 155 155 155
-0.25343104848359 -0.364481836740983 0.00461708295627226 -0.591432 -0.8060547 0.02200006 145 145 145
-0.152025859980848 -0.336794092800865 0.00289534127638467 0.8293601 -0.5265795 -0.1867509 154 154 154
0.00634071362371012 -0.087522037627854 0.0274505470361529 0.841945 -0.5191402 -0.1470446 143 143 143
-0.220233991041991 -0.263900605054314 -0.0547605361648848 -0.835853 0.536695 0.1153616 130 130 130
-0.112562691071517 -0.163580333938836 -0.0609484121913268 -0.53753 -0.8430936 0.01595676 54 54 54
-0.0592878676379472 -0.0855769144131879 0.0649407926009658 0.173284 -0.1122497 0.9784542 160 160 160
-0.159096320220751 -0.347985737115227 0.00694810064355079 0.832491 -0.5204606 -0.1899459 149 149 149
-0.136676112748234 -0.266226932031384 0.0632081677452948 0.1531972 -0.05516484 0.9866547 176 176 176
0.0677982683980925 0.196710632337419 0.00713472175743868 -0.8270696 0.5238757 0.2037403 157 157 157
0.118776027555902 0.28021801495397 -0.00904059110373343 -0.827524 0.551729 0.1039189 160 160 160
-0.111857434603827 -0.088906135596652 -0.00792114068000143 -0.8454748 0.5193322 0.1243641 170 170 170
0.0310673290968565 0.03599183304506 0.06435151369991 0.1949201 -0.08581392 0.9770579 145 145 145
-0.0165489524457016 -0.12382570981095 0.0297726132935328 0.8324746 -0.5255908 -0.1753293 151 151 151
0.27291569334362 0.33818529094734 -0.00727699418088369 0.8437592 -0.5210151 -0.1288936 167 167 167
0.174474992711325 0.18003568000236 0.0594583458387262 0.8293102 -0.5557546 -0.05815067 84 84 84
0.0133367501452774 0.107264206644394 -0.0528937042202167 -0.8368757 0.5408036 0.08467877 144 144 144
-0.187556020666127 -0.209620519871748 0.00540991483781399 -0.8463619 0.4996205 0.1845291 112 112 112
-0.212848275552127 -0.393635411801735 0.0521673327973283 -0.576643 -0.8151726 0.05455728 119 119 119
0.135275124340473 0.119152596737347 -0.00971427215438002 0.8354977 -0.5249915 -0.162258 136 136 136
0.176237811848672 0.299442750952922 0.0651262464015576 0.1619167 -0.05437376 0.9853052 188 188 188
0.265623877013668 0.326532499285402 -0.00776329111469126 0.8433276 -0.5190668 -0.13917 172 172 172
-0.150859635121618 -0.151082847244476 -0.00759728211694365 -0.842854 0.5222503 0.1298148 197 197 197
-0.180769587414624 -0.270494720097996 0.0645903037986852 0.1792195 -0.08776174 0.9798868 173 173 173
-0.20439888326759 -0.401457063805225 -0.0563010601668818 -0.5917295 -0.8048652 0.04525609 100 100 100
-0.197668536416369 -0.328719970390937 0.0632487659973008 0.1812154 -0.08797488 0.9795006 192 192 192
0.183199234955936 0.344304550556322 0.0657379872029238 0.1527766 -0.06872814 0.985868 240 240 240
-0.0939106523831877 -0.0639818200901534 0.0439648909134951 -0.8391273 0.5062076 0.1990456 149 149 149
0.220409899701218 0.317535464608731 0.0646549216693842 0.145667 -0.05557098 0.9877717 237 237 237
0.264909807538212 0.324517440741574 0.0549980715502311 0.8342129 -0.5243494 -0.1707236 138 138 138
0.233596404454843 0.394288784394803 -0.0510557290774781 0.5935848 0.8046879 0.01159983 155 155 155
0.0907656507019576 0.142472463353301 0.0648911685972507 0.157646 -0.06861803 0.9851088 169 169 169
-0.188956701156288 -0.213766970050363 0.0186042331314745 -0.8249274 0.5191073 0.2236568 146 146 146
-0.222958611179403 -0.265932205051899 0.00494830588988999 -0.8293065 0.5359028 0.1582998 122 122 122
-0.263904540106638 -0.3300729064961 -0.0109286342607265 -0.8479672 0.5114008 0.1393588 199 199 199
0.121842022903106 0.0982888527579205 0.00295556850409118 0.8418492 -0.5231322 -0.1327502 136 136 136
0.073145715125979 0.135735148684546 0.0651379072029779 0.1590186 -0.08184662 0.9838771 215 215 215
0.0190265067230323 0.115876829707575 -0.0596922043098833 -0.8343286 0.5412077 0.1048332 173 173 173
-0.0591677959545853 -0.190475112870653 -0.0595597984248816 0.8312777 -0.5396626 -0.1331979 109 109 109
-0.182645646108856 -0.391312644892058 0.0555757188202067 0.8410443 -0.4917683 -0.2254072 159 159 159
0.258247864227022 0.314532899807142 0.0178684409813093 0.8447012 -0.5099841 -0.1624689 167 167 167
0.201785674307597 0.331319554209649 0.0650899662805862 0.1564118 -0.07231212 0.9850413 244 244 244
-0.199238974437719 -0.234417844686475 0.0462118270688746 -0.8391698 0.4906772 0.2345846 131 131 131
-0.00475842176497111 0.0799057360190716 0.0304209546743513 -0.8329204 0.5243291 0.176982 181 181 181
0.262016903489002 0.37063686920017 0.061661643630408 0.6131806 0.7799418 0.1253009 127 127 127
0.117394454308735 0.221604883276648 0.0654689188482706 0.1588883 -0.06927948 0.9848629 213 213 213
0.18012074824698 0.188933785031374 0.0569622773126772 0.8305128 -0.5269701 -0.1804191 111 111 111
0.256388179430868 0.311588075429026 0.0369430786006302 0.8444275 -0.5217769 -0.1212065 161 161 161
0.0585358072500793 0.182126872348518 -0.00634405089647949 -0.8437275 0.5239072 0.1168126 148 148 148
-0.102960259246149 -0.0965578031844302 0.0660366554599971 0.1722776 -0.06560998 0.982861 185 185 185
-0.0478643322605618 -0.171641886257193 -0.0327717006387916 0.8380409 -0.5250652 -0.1483038 135 135 135
-0.00560942213129302 -0.103789297101415 -0.0176614604777279 0.8377046 -0.5221723 -0.1599597 95 95 95
0.269888712176739 0.329263630452737 -0.062123403638385 0.8578243 -0.5095428 -0.06710938 113 113 113
0.0040886201772962 -0.055868004373184 0.0634673965882787 0.144523 -0.08015513 0.9862496 163 163 163
0.0018087138831379 0.090531697669851 0.032175111659032 -0.8353411 0.5158949 0.1898888 199 199 199
-0.206827119917975 -0.242513846713414 0.0206371054781337 -0.8268228 0.5239648 0.2045116 205 205 205
0.0260848380144249 -0.0534861971152213 -0.0538088214206457 0.8406757 -0.5291552 -0.1151486 161 161 161
-0.11819960127549 -0.28336626625299 -0.0132091936410595 0.8364903 -0.5165093 -0.1830358 162 162 162
-0.214698470485029 -0.298056941592081 0.0651128750936141 0.2037601 -0.09084516 0.9747969 192 192 192
0.0653353278541088 0.150246920227931 0.0655760043045104 0.1724744 -0.0860381 0.9812492 179 179 179
0.134088487211206 0.116290480776758 0.0402086078827171 0.8282163 -0.5440639 -0.1343584 117 117 117
0.00998250075165623 -0.0822580821663934 0.0516760055255602 0.8381745 -0.5092143 -0.195357 139 139 139
-0.122776328832688 -0.297913364801637 0.062029213568838 0.7041292 -0.4972902 0.5068575 120 120 120
-0.0449716742567846 0.0167085953767757 0.0281940144019113 -0.8375443 0.5158942 0.1799243 217 217 217
0.02520006721857 -0.0555695497472146 0.0109276150872593 0.8370361 -0.5157211 -0.1827626 124 124 124
-0.101414374498506 -0.221361891987055 0.0631511994569453 0.1676244 -0.06595434 0.9836423 181 181 181
0.214799307845154 0.244657120233305 0.000854628613871435 0.8436333 -0.5218341 -0.1263808 154 154 154
-0.0638671561465898 -0.157060616968522 0.0635393926137231 0.1607133 -0.08433675 0.9833913 175 175 175
-0.0381494657189869 -0.160474686632063 0.0517566450058835 0.8295977 -0.5208904 -0.2010994 124 124 124
-0.22719571623913 -0.382249985908941 -0.0545854029321031 -0.5178057 -0.8554968 0.001566038 62 62 62
-0.0960714185655435 -0.142720051094383 0.0649912676041653 0.1647841 -0.07285523 0.9836352 165 165 165
0.17455647036254 0.367981859557138 0.0335908290151039 -0.8288953 0.5341769 0.1660953 212 212 212
-0.239148885697995 -0.373649722624294 -0.062519352920645 -0.5761024 -0.817119 0.02055798 78 78 78
0.0966384094879741 0.0589170954218284 -0.0152905124331429 0.8480847 -0.5084768 -0.149009 131 131 131
-0.0143565653745631 -0.122969142046076 0.0597617314556478 0.8253326 -0.5302273 0.1941264 166 166 166
-0.180995078909645 -0.389195240515699 0.0597597259843169 0.8589535 -0.4170018 0.2971671 148 148 148
-0.202857342472907 -0.233600308977648 0.0154732603482471 -0.8243709 0.5255802 0.2101859 161 161 161
-0.0928333080909598 -0.246930105245812 0.0515442020240411 0.8286092 -0.5204282 -0.2063035 110 110 110
-0.26355465430577 -0.3336420073213 0.0302853651469093 -0.8225408 0.5318901 0.2012949 199 199 199
-0.101723044875095 -0.183404802421639 0.0641770124765862 0.1705916 -0.09623477 0.9806311 181 181 181
-0.161195296796202 -0.350508622903745 -0.013079475213192 0.8279264 -0.5361664 -0.16451 143 143 143
-0.00442332323272933 -0.102211531688243 -0.00856037608867509 0.8400493 -0.5191731 -0.1574054 143 143 143
-0.087632771356762 -0.0516213707799986 0.0195825973360036 -0.8244568 0.5229637 0.2162869 124 124 124
-0.144558931911876 -0.271003843402063 0.0634731551779838 0.1751117 -0.07007401 0.9820517 181 181 181
0.190333061911766 0.355290543272613 0.0654914882224822 0.1672572 -0.0666829 0.9836556 197 197 197
-0.0473954491032757 -0.120432573704863 0.0637073271604946 0.1604833 -0.06840068 0.9846656 173 173 173
-0.185283690510245 -0.38740124504661 -0.0454113646185105 0.8316311 -0.5193575 -0.1966153 148 148 148
0.0746182256603971 0.0535630515575949 0.0635459197797204 0.1413669 -0.05921758 0.9881845 152 152 152
-0.137150155860564 -0.31533558445854 0.0259972917484267 0.8361243 -0.5093799 -0.2035395 141 141 141
-0.165531246948829 -0.211485078641987 0.0659518823655729 0.1839081 -0.1069357 0.9771093 175 175 175
-0.121698214837094 -0.258328492886088 0.0630629323938279 0.1759224 -0.0755196 0.981503 174 174 174
-0.207209212221352 -0.396679056049562 0.0433326541897053 -0.5818875 -0.8132679 0.00150222 107 107 107
-0.0223471398387247 0.055097039434138 -0.00189113132569407 -0.8374058 0.528798 0.1382902 158 158 158
-0.100211418019627 -0.0703591815148802 -0.0226493641376597 -0.8389497 0.5305583 0.121125 157 157 157
0.10659800807355 0.0735442837196243 0.0402259672561574 0.8294739 -0.5324235 -0.1688143 80 80 80
0.0113133374367215 0.000863475872625866 0.0643170723727675 0.1782074 -0.07204945 0.9813516 174 174 174
-0.177640271112141 -0.37570404191169 -0.0607473725332448 0.8425727 -0.5164331 -0.1528664 143 143 143
-0.00946751535386405 -0.11178980817344 0.017251364654023 0.8267686 -0.5344123 -0.175662 103 103 103
0.224609893627092 0.260559750411064 0.00908866445169609 0.8418318 -0.5236222 -0.1309164 134 134 134
0.168479622087075 0.221267436511815 0.0644977012357072 0.151339 -0.06675555 0.9862252 228 228 228
0.0500508638079474 0.165176463331284 -0.0510590138971626 -0.8643364 0.4942937 0.09271654 130 130 130
0.202752312753046 0.407957360520923 -0.0486407976115575 -0.8399018 0.5374132 0.07584179 150 150 150
-0.00703678477214527 -0.0931208287326323 0.0629710659471142 0.1503708 -0.08869492 0.984643 170 170 170
0.139938064788886 0.279599452740778 0.0658388015869917 0.1724998 -0.06773823 0.9826776 232 232 232
-0.0661540661976241 -0.113137027080075 0.0647231989541746 0.1625678 -0.06392071 0.9846247 184 184 184
-0.0937111513347684 -0.0591563015316793 -0.00865181300428299 -0.8445995 0.5143629 0.1486014 120 120 120
-0.176754022904209 -0.37613843766271 0.00574025208983438 0.832934 -0.5216609 -0.1846368 156 156 156
-0.15384123868289 -0.155718885476421 -0.00390189152000052 -0.8376293 0.5278605 0.1405009 162 162 162
0.0328943445402267 0.0566874792725605 0.0647265547271707 0.1563974 -0.06748305 0.9853861 158 158 158
0.0531540924787122 0.169370391554836 0.0505314167503379 -0.8305765 0.5236633 0.1895238 187 187 187
0.222714735903885 0.400424410989155 0.0259289301916013 0.6081356 0.7938306 0.002037355 201 201 201
-0.0403252158906956 0.0241031327000545 0.0276891409817887 -0.8361891 0.51964 0.1753911 219 219 219
-0.0649152097156944 -0.20313233461021 0.0553207644151899 0.8446007 -0.4993922 -0.1930209 111 111 111
0.125767385709456 0.101652096984634 0.0629755450944214 0.7360698 -0.4939837 0.4627973 109 109 109
0.242324398157404 0.288775530880494 -0.00530433860942096 0.8485281 -0.5129036 -0.1301149 173 173 173
-0.158743869096346 -0.290134398927527 0.0636859923122808 0.1542596 -0.08910397 0.9840043 204 204 204
0.165094780676762 0.16941249148072 -0.0563462625410844 0.8260021 0.5291604 -0.1941899 93 93 93
-0.123298649826997 -0.11169899568231 0.0483729537351977 -0.8303016 0.5150999 0.2127706 185 185 185
-0.192363394119914 -0.404216571828833 0.061187948492991 0.3019289 -0.7715764 0.5599186 133 133 133
-0.0304535666877594 -0.14751853281923 0.0468122094463333 0.8245496 -0.5215109 -0.219418 128 128 128
-0.0202171680382216 0.0561117608604652 0.0233677820315345 -0.8261878 0.5279152 0.1967719 223 223 223
0.048890133384176 0.16339970147439 0.0481497497153516 -0.8266397 0.5224169 0.2091586 141 141 141
-0.170061469261355 -0.37126200207456 0.0576317587282936 0.8691712 -0.4945113 -6.960266E-05 159 159 159
-0.140869987988949 -0.226882635928404 0.0645703441754191 0.1666188 -0.0899613 0.9819089 175 175 175
-0.152079551634881 -0.339291328330921 0.0361858873244391 0.8289977 -0.5096262 -0.2303126 117 117 117
-0.0908194053453394 -0.240583878763444 -0.00181264689743373 0.8283366 -0.533315 -0.1715622 156 156 156
0.106415092715817 0.258823339283434 0.0301015625921776 -0.8476736 0.5046866 0.1635266 142 142 142
-0.0978948740076609 -0.170052399371638 0.0644438699290356 0.1808969 -0.09504629 0.9788986 171 171 171
0.0499313544228074 -0.0173285255149186 0.0251181615380507 0.8332955 -0.5207404 -0.1856017 133 133 133
0.0231253837124127 0.0937808758252091 0.0664591503215484 0.1862458 -0.07151809 0.9798968 215 215 215
0.017013805691107 -0.0679797855638841 -0.0131776126933591 0.8426602 -0.5174626 -0.1488497 100 100 100
0.277412828466324 0.344980282858116 -0.00848807663181409 0.8287804 -0.5425493 -0.1369794 151 151 151
0.245191251100781 0.293586208938593 0.00270535388750902 0.8399243 -0.5197626 -0.1561219 171 171 171
0.160439477969958 0.345159110006182 -0.00488365051790039 -0.850001 0.5059115 0.1468052 47 47 47
0.15880743166058 0.339317415065112 0.0640446764025291 -0.6448805 0.4381239 0.62624 197 197 197
0.0672158205363091 0.0098038432240411 -0.010131984227961 0.8330836 -0.5293735 -0.1604225 132 132 132
-0.245855159393869 -0.308861852655652 0.0514413504010105 -0.8122325 0.5144333 0.2750215 180 180 180
-0.113087967982909 -0.0921780010578503 -0.0379258817512503 -0.849179 0.5102812 0.1360448 188 188 188
-0.193066487988753 -0.218010908195267 -0.015239031199123 -0.8350462 0.5354086 0.1266316 201 201 201
-0.0756765462613369 -0.164914616813081 0.0638268104286599 0.1725254 -0.07938007 0.9818013 172 172 172
-0.00799827517294001 0.076399725749107 -0.0270428413267316 -0.8419609 0.5269515 0.1158617 157 157 157
0.23976712046882 0.38739474689367 0.0313957222475626 0.5809465 0.8139221 0.005648238 210 210 210
-0.209317515875461 -0.249502262272827 0.0522889598110113 -0.8295769 0.4999634 0.2486741 202 202 202
0.100888565575563 0.065267229311733 -0.0444645867168186 0.8311727 -0.5383984 -0.1388491 133 133 133
0.212882258709405 0.407445228390083 0.00401241507656771 0.5885583 0.8080702 -0.02493563 175 175 175
-0.184288475970547 -0.207146647431881 0.0336770478401246 -0.8256257 0.5193834 0.2204159 170 170 170
0.148277295748425 0.179701987726013 -0.046772718105902 0.5497481 0.8248004 -0.1322172 80 80 80
-0.0895688072363956 -0.23571044477663 0.0624538523504262 0.3405951 -0.1420532 0.929417 191 191 191
-0.0103196309438947 0.0683934630848562 0.0582419171210721 -0.8314873 0.5234936 0.185966 182 182 182
0.13703122021739 0.306668856163427 0.0424103469802769 -0.8214143 0.527717 0.2163176 166 166 166
0.132310089337965 0.114004546962873 0.00309002867140476 0.8341117 -0.5289753 -0.1563418 156 156 156
-0.180964359815382 -0.384061028461156 0.0197560655063179 0.8311643 -0.5155367 -0.2082973 168 168 168
0.0761400062215967 0.026014455346032 -0.0175865877976419 0.8451964 -0.507454 -0.1677308 140 140 140
-0.268071694650412 -0.35309302464376 -0.0358512308056722 -0.6108043 -0.7916871 0.01222898 149 149 149
-0.0956551257112461 -0.173391229573014 -0.0598780308831676 -0.5370737 -0.8424573 -0.04263269 41 41 41
-0.150119086698211 -0.149881876578733 0.00123303325487553 -0.839924 0.5162688 0.1673142 167 167 167
0.13934508014515 0.125611607261702 -0.000949156822157988 0.8307824 -0.5359501 -0.150194 129 129 129
0.274633162704317 0.362813185689472 -0.0327138083738802 0.5896706 0.8075832 -0.009896991 132 132 132
-0.132386951820059 -0.307004083354652 0.062400531066303 0.5491689 -0.2455354 0.7988278 190 190 190
-0.14669997270407 -0.244763766658716 0.0640540965978375 0.1576414 -0.08194979 0.9840901 181 181 181
-0.0099275160894214 0.00270745011720003 0.0649764142547078 0.1604562 -0.05083672 0.985733 184 184 184
0.171879769136221 0.352113357661041 0.0658723214555772 0.02704466 0.006785904 0.9996112 226 226 226
0.134754453732125 0.118453980632053 0.0160246549080142 0.8341285 -0.519971 -0.1840103 114 114 114
0.261836135490492 0.320002784987276 0.00454259314338091 0.8409156 -0.522652 -0.1403419 174 174 174
0.190628290041576 0.214375884368202 0.0641433067960547 0.1499328 -0.06738909 0.9863969 203 203 203
-0.232948831966341 -0.283400208798759 -0.0511177476491933 -0.8288027 0.545878 0.1228956 131 131 131
-0.158742937690504 -0.322792255120139 0.0625789862370504 0.161892 -0.07222539 0.9841618 206 206 206
0.0786987331497307 0.212160468593643 -0.0248043052967442 -0.8374267 0.5389832 0.09062929 161 161 161
0.129243692413151 0.10832367889244 0.0376910787943582 0.8322896 -0.5344211 -0.1472685 89 89 89
-0.118957538948513 -0.100713751428274 -0.00951842271478799 -0.8443775 0.5222591 0.1194655 184 184 184
-0.0257687076126306 0.00248068420523412 0.0654514678331563 0.1701547 -0.07673056 0.9824255 181 181 181
-0.194982208645987 -0.256262339814565 0.0656751894083783 0.1953978 -0.1073205 0.9748344 179 179 179
0.0844001672219284 0.0392246179459191 -0.0512336049040704 0.836712 -0.5299721 -0.137995 139 139 139
-0.170389521928066 -0.254310329058743 0.0647542986195882 0.1619243 -0.09143186 0.9825583 181 181 181
0.252277954729735 0.377792145588363 0.00175610144744147 0.5347133 0.844968 -0.01052589 169 169 169
-0.230159309696508 -0.322687921264399 0.0649394912882195 0.1782028 -0.08997495 0.9798716 173 173 173
-0.244602520383744 -0.333416105712938 0.0657600886809308 0.187932 -0.1044941 0.9766077 185 185 185
0.0677272730322479 0.0243896571334204 0.0636708887373243 0.1720259 -0.08160373 0.9817066 160 160 160
-0.22843373439898 -0.274173212080847 -0.00016537093911237 -0.836094 0.531586 0.1355108 168 168 168
-0.059415592943211 -0.155059422566725 0.0634547898598635 0.1693836 -0.07831201 0.9824339 166 166 166
-0.0712465078963579 -0.0245385292407884 -0.0284573784070406 -0.8489829 0.51824 0.1032243 213 213 213
-0.00698640784959016 -0.105845010733495 -0.0433844426938629 0.8322579 -0.5306918 -0.1603531 178 178 178
-0.0372949440925646 0.0308975776663579 0.00600945575250743 -0.8332704 0.5178654 0.1935866 175 175 175
-0.00761187105957285 -0.0980337491720764 0.0626866773647236 0.1394902 -0.08934335 0.9861847 137 137 137
-0.108296944575363 -0.205783242872641 0.0639876794166009 0.1809072 -0.08702451 0.9796425 176 176 176
0.256892142450127 0.31169689973227 -0.0225540497750396 0.8415807 -0.5202425 -0.1452229 178 178 178
0.154077897650681 0.177503707312789 -0.0386261433861054 0.5104288 0.8522941 -0.114268 63 63 63
0.205966943702434 0.371600506602613 0.0651393795793208 0.1544963 -0.05017179 0.9867187 173 173 173
0.0587409341160286 -0.0024273962812848 0.0125754823861365 0.8375062 -0.5195222 -0.1693517 132 132 132
0.114127798109483 0.0858497564026535 -0.0625696261319945 0.8337559 -0.537416 -0.1266304 156 156 156
-0.0288652920866497 -0.145743971779472 0.0554541626317596 0.8257071 -0.5269299 -0.201377 130 130 130
0.161716342278535 0.171686172130368 -0.0408000254125866 0.6231763 0.7681114 -0.1471603 82 82 82
0.146718276447159 0.231251888622572 0.0648697612489089 0.1527237 -0.07118513 0.9857019 238 238 238
0.222948949627614 0.402795226265842 -0.0449390839111013 0.5832921 0.8122596 0.002135487 201 201 201
-0.00205624776568199 0.0869242784947304 0.00186787229047124 -0.8377523 0.5136067 0.1854166 130 130 130
-0.179668063357096 -0.197073908725727 0.0100021438562503 -0.8287384 0.5223103 0.2009594 156 156 156
0.0113205746181265 -0.00885582066379425 0.0642631330316101 0.1820877 -0.05786257 0.9815783 201 201 201
-0.1614052258211 -0.351117803546735 0.00306656881316301 0.8221627 -0.5334828 -0.1986064 155 155 155
-0.0257597679031037 0.0431476798675448 0.0619094702368657 -0.8104433 0.5077392 0.2922028 185 185 185
0.221426639120819 0.255534571148953 0.02392980385463 0.8358448 -0.5192614 -0.1781324 166 166 166
0.081530608800522 0.136386244022785 0.0650119274562698 0.1443324 -0.06832021 0.9871679 178 178 178
0.283258109624191 0.349777941820215 0.0559908510469371 0.9980527 -0.02251646 -0.05817126 135 135 135
0.0898755036395789 0.218687821258538 -0.0315000295271049 0.2849081 0.9484702 0.138678 158 158 158
0.0304947366558512 0.133347899151276 -0.0614765847170439 -0.8368911 0.5364407 0.1088333 165 165 165
-0.064009623925308 -0.0553192765563341 0.0657030084431985 0.1741159 -0.06177112 0.9827858 184 184 184
0.00766395091697967 -0.0837825916015404 0.000654643008053428 0.8318092 -0.5228203 -0.1864201 116 116 116
0.02805236771883 -0.0499277578519075 -0.052888347442337 0.8388036 -0.5256199 -0.1418885 172 172 172
0.186533366324907 0.299724160219637 0.064952611332826 0.1552218 -0.04314438 0.986937 197 197 197
0.214616717650166 0.403869822434888 0.0635594199052621 0.5547209 0.6911807 0.4631997 237 237 237
0.116574174590484 0.272017490481945 0.0576288416518663 -0.8380893 0.5147545 0.1806492 134 134 134
-0.190677675312602 -0.272925486228448 0.0649927406640814 0.185575 -0.09565191 0.9779635 187 187 187
0.258864208127105 0.375116498214157 -0.0281037604931619 0.5961373 0.8027691 -0.01349084 200 200 200
0.086032922489574 0.222389481499733 0.0598624959119801 -0.8574612 0.4892244 0.1594361 93 93 93
-0.0893189231274342 -0.149042363990219 0.0645592243747312 0.1586363 -0.0829281 0.9838483 168 168 168
-0.0637848885131892 -0.0151362930182556 0.0387461948137498 -0.8259155 0.5239928 0.2080746 242 242 242
0.0685887035550822 0.0134371629250301 0.0118936705049579 0.8390388 -0.5167311 -0.1703022 123 123 123
-0.0490428330763416 0.00830967426789348 0.0393162709588061 -0.8385973 0.499266 0.2179175 191 191 191
-0.134498644051038 -0.164886142189228 0.0657291524459363 0.175791 -0.08159348 0.9810403 168 168 168
-0.0226910799629976 0.052568640830198 -0.0300912836782686 -0.8541869 0.5064836 0.11764 140 140 140
0.184230123398076 0.196520413414373 0.00615917758732057 0.8299431 -0.5362936 -0.1535693 155 155 155
-0.0186554055999375 -0.126341250883769 0.0133913107626282 0.8249972 -0.5321327 -0.1903006 130 130 130
0.195071476000531 0.319276018488519 0.0649888718750079 0.1618428 -0.06629469 0.9845872 223 223 223
0.22322103082191 0.402307967551347 -0.0569256721217341 0.6110324 0.7912675 -0.02313481 132 132 132
0.260663234028908 0.31586495698335 -0.0603398169181971 0.8497007 -0.510523 -0.1318138 166 166 166
-0.0520580685294447 0.00745759314160882 0.0135519209317137 -0.8246759 0.5196953 0.2232186 198 198 198
-0.143000314854028 -0.143810988904339 0.0545674983430081 -0.8237301 0.5205263 0.2247692 170 170 170
-0.0960741144632453 -0.149049709166381 0.0648208367683699 0.17969 -0.07857504 0.9805802 161 161 161
-0.0838655928321717 -0.0465313994944029 0.03986545758286 -0.8258377 0.5251713 0.2053954 174 174 174
-0.208463079352794 -0.36873417909566 0.0626608051315696 0.1759272 -0.07659229 0.981419 181 181 181
-0.0075396550017975 0.0758402071610203 -0.046518581790097 -0.8430952 0.5292057 0.09555995 136 136 136
-0.175425207798983 -0.190386732567411 0.0109456965533542 -0.8301088 0.5228278 0.1938311 147 147 147
-0.0511992949360407 -0.178330752231594 0.0219814324608416 0.8368936 -0.5187923 -0.1745384 136 136 136
0.206822236044841 0.275650620871285 0.0644829072145207 0.1340054 -0.06106511 0.9890974 147 147 147
-0.196984533884497 -0.367000713384441 0.0623823151363166 0.1607221 -0.07310621 0.9842885 215 215 215
0.0258037285330424 -0.0553434927050455 0.0150819845725381 0.8350622 -0.5199841 -0.1796875 123 123 123
0.063425913861842 0.185611963003086 -0.0528134133986822 -0.8416332 0.5330324 0.08677579 155 155 155
-0.0340163330011889 -0.149491388062749 -0.051620969792026 0.8568314 -0.498394 -0.1320735 122 122 122
0.2346026954924 0.276523329303057 -0.00193156766136199 0.8409669 -0.5227904 -0.1395165 155 155 155
0.0572957713826687 0.0224483505095846 0.0638280022079751 0.1366068 -0.06978613 0.9881642 160 160 160
0.00040030456110955 -0.0269673735574378 0.0642025057088093 0.1597083 -0.06422955 0.9850725 173 173 173
-0.146293734811118 -0.143746882463022 0.000437122128846958 -0.8399559 0.5205352 0.1533532 188 188 188
0.162546889572889 0.346961389253393 0.0524995351387226 -0.8216262 0.532513 0.2033721 147 147 147
-0.0512585471972253 -0.0129649878757154 0.0660439940159575 0.1661975 -0.07764878 0.9830306 182 182 182
-0.178664193384068 -0.378027691753544 0.0617626205470378 0.2793832 -0.1642444 0.9460279 180 180 180
0.0268723132396717 -0.0527252148687697 -0.018840860248651 0.8347749 -0.5256267 -0.1639134 147 147 147
0.128813018981222 0.295648282384781 -0.0147301549494054 -0.8305833 0.5415589 0.1297891 140 140 140
-0.218997522232543 -0.334563417354867 0.064273003946579 0.2007676 -0.08458077 0.9759808 214 214 214
-0.201315861329456 -0.40230753339866 0.0422648133674972 -0.6362833 -0.7702596 0.04293978 132 132 132
-0.0264974412567599 -0.139216436694503 0.0252590184859205 0.823949 -0.539492 -0.173368 139 139 139
0.129196722611309 0.109843982828719 -0.0300759805340515 0.8352097 -0.5324164 -0.1376861 119 119 119
-0.254345785343261 -0.317360788926472 -0.0585517003996431 -0.8435191 0.5260109 0.1085727 172 172 172
-0.162924778472986 -0.172599488546664 0.0223168545634495 -0.8190125 0.5243202 0.2330383 192 192 192
-0.187154699910496 -0.398823009493548 0.0561745174102125 0.8292956 -0.5391074 -0.1470781 148 148 148
0.00559679610808776 -0.0865041611137795 -0.00542521628024363 0.8287668 -0.536009 -0.1607481 155 155 155
-0.200860117581925 -0.230817037432458 -0.00598175577642444 -0.840458 0.5157846 0.1661219 175 175 175
-0.0383550751324122 0.0276918237495781 -0.0225324842276209 -0.8461415 0.5233832 0.1005718 165 165 165
0.0708523846903412 0.0172234060379915 -0.0455434522999286 0.8256617 -0.5489758 -0.1300321 118 118 118
-0.10618957644138 -0.268305762561281 0.051696510671577 0.835845 -0.5195359 -0.1773292 96 96 96
0.00279863030279613 -0.0925964176190023 0.0139587637537427 0.8313509 -0.5258256 -0.1798975 138 138 138
-0.0435281805092084 -0.164539020718026 -0.0281684903250212 0.8326621 -0.5342686 -0.1457082 146 146 146
0.00635036620493427 0.0971675733927327 0.0424626442526021 -0.8395939 0.506986 0.1950572 199 199 199
-0.147416011637136 -0.33237096605011 0.038652362415749 0.8066636 -0.5443524 -0.2301615 133 133 133
0.156301581915604 0.33581297463602 0.0547640903173358 -0.8168549 0.5305198 0.2264879 167 167 167
0.0929496752580309 0.215965708662824 -0.0456621162406986 0.4320119 0.899602 -0.06389038 130 130 130
0.0834049525151405 0.0377155857195546 -0.0100965398622823 0.8289174 -0.5347777 -0.1640389 143 143 143
-0.263271818627399 -0.333624346554795 0.0339832505439979 -0.8120928 0.5351545 0.232626 218 218 218
0.0228488256520417 0.0617555187738284 0.0650784906381483 0.1625828 -0.0825725 0.9832337 172 172 172
-0.00585217765187497 0.0245134396830629 0.065586688004831 0.1767535 -0.08670407 0.9804288 151 151 151
0.223969324999889 0.260213469637555 0.00627792796466034 0.8426012 -0.5221674 -0.1317745 167 167 167
-0.079578806439046 -0.167279674716754 0.0638192048420363 0.1665834 -0.07072347 0.9834877 178 178 178
-0.239222581029022 -0.375149061853689 0.0507843430181518 -0.6673373 -0.7435321 0.04267197 142 142 142
-0.0743084445394093 -0.214135289398783 0.00354437124122621 0.8361171 -0.5221042 -0.168272 177 177 177
-0.0859577569813804 -0.237704767430785 0.0616527760260822 0.8284476 -0.5175928 0.2139446 133 133 133
0.271849840298159 0.365229933883956 -0.0393650892117721 0.5845766 0.8107366 -0.03124729 148 148 148
-0.00305358636935023 0.0799640298090801 0.059739357614176 -0.8289173 0.5248417 0.193487 198 198 198
-0.0815627820485545 -0.230640292795175 0.0622512019051789 0.7826268 -0.4623052 0.4168563 131 131 131
-0.237747181335788 -0.376488419346699 0.0261650798047443 -0.5692391 -0.8209829 0.04420396 155 155 155
0.0438821782815974 0.159460226513331 -0.00817241301650763 -0.8339671 0.5362542 0.130116 154 154 154
-0.137506824723485 -0.314335083747324 0.000232104772912882 0.8318844 -0.5275186 -0.1723149 157 157 157
0.269070570347281 0.331680620375354 0.00454456085016629 0.8502072 -0.5053553 -0.1475253 189 189 189
0.199387082533211 0.219859793928785 0.0180257622507015 0.8496693 -0.5058614 -0.1488834 153 153 153
-0.01680303654592 -0.124273286410149 0.0264187587266889 0.8341677 -0.5263284 -0.1647504 150 150 150
0.0777359852159802 0.191309839753401 0.0658711282439757 0.1782426 -0.09676889 0.9792167 192 192 192
0.0663996280334315 0.192990244010507 -0.021711582156747 -0.8378946 0.5374116 0.09550618 168 168 168
0.271446346035515 0.363646210784813 0.050775480930362 0.5300969 0.8476442 -0.02228347 174 174 174
0.14529643950149 0.171833884648347 0.0644863516040816 0.1520008 -0.05543717 0.9868245 228 228 228
-0.221317408679784 -0.329829173894631 0.0643199493216275 0.1801336 -0.08963776 0.9795493 191 191 191
-0.158571876526177 -0.343270899038027 0.0618282104011964 0.2364603 -0.1763688 0.9555002 177 177 177
-0.233142457600087 -0.380321981485019 0.0155031589118604 -0.5945851 -0.8036392 -0.02515146 131 131 131
-0.251161745111481 -0.365385436149471 -0.0422070513492161 -0.555557 -0.8311592 0.02303919 163 163 163
-0.0432820821234384 -0.157764892651495 0.0629641833327767 0.1677115 -0.06977209 0.983364 178 178 178
-0.136625443848997 -0.186955032893974 0.0654261055207359 0.1674604 -0.07631754 0.9829205 168 168 168
-0.163906807702374 -0.355285571017901 -0.0175532756435672 0.834723 -0.5156606 -0.1932139 166 166 166
-0.128459190535364 -0.299619031620349 -0.00165017069664068 0.8185257 -0.5456768 -0.17959 142 142 142
-0.0610695734729582 -0.175753624984756 0.0629648217600964 0.1515755 -0.08108164 0.9851145 156 156 156
0.264254334183677 0.371203329953257 -0.0434550063769786 0.6386867 0.7694629 -0.002484104 141 141 141
0.0953148843469887 0.0566166983614732 -0.0388850041729976 0.8384516 -0.5268263 -0.1394741 132 132 132
-0.124494584923744 -0.205171973704809 0.0645983223632792 0.1729285 -0.06417493 0.9828414 178 178 178
-0.155523923887901 -0.347287737088777 0.0554438482623891 0.841147 -0.5150449 -0.1649259 107 107 107
-0.222965715173554 -0.350858362304844 0.0638508264422036 0.1917869 -0.0981378 0.9765177 215 215 215
0.179184786071798 0.374213783125101 0.0352497174795157 -0.839086 0.5210974 0.1561803 168 168 168
0.139303677579481 0.124095572777674 -0.0559709459273195 0.8250099 -0.5480143 -0.1379819 124 124 124
0.114392586368659 0.271678776509975 0.0310418596888375 -0.8343431 0.5194743 0.1844398 158 158 158
0.15033254955874 0.255390898201218 0.0652224786111425 0.1630111 -0.06625626 0.9843971 209 209 209
-0.25981137766653 -0.324768164532388 0.00710090314992427 -0.8153946 0.5387104 0.2119499 102 102 102
-0.10161096313856 -0.259977139563215 0.0401447735244333 0.825625 -0.5202449 -0.2183771 114 114 114
-0.259557975883132 -0.360029961578801 0.0448294673806015 -0.5596609 -0.8261774 0.06488921 184 184 184
