ply
format ascii 1.0
comment File exported by Rhinoceros Version 7.0
element vertex 469
property float x
property float y
property float z
property float nx
property float ny
property float nz
property uchar red
property uchar green
property uchar blue
end_header
0.137100585694505 -0.0317314979514863 0.0101335683482024 0.1396807 -0.9855971 0.09532942 191 193 195
0.0371252006092836 -0.0427343281905503 0.00822180743543799 0.1415983 -0.9867325 0.07942872 193 196 196
0.0412566492004222 -0.0418767142463131 0.0106048933084821 0.1085083 -0.9924566 0.05706092 181 184 184
0.0528431009937239 -0.0428109403398718 0.000823894746406595 0.116919 -0.9908954 0.06675494 132 139 127
0.0433179946771972 -0.0415894663613978 0.0166703636708241 0.07513008 -0.9843522 0.1593936 185 188 195
0.036827025856841 -0.0419066593416152 0.0179605143632794 0.1946256 -0.8943257 0.4028677 180 183 184
0.0384842986334097 -0.0416220305941699 0.022335090446727 0.09950275 -0.9819974 0.1605627 185 190 194
0.0468486590372953 -0.0416348511683858 0.0183864526959542 -0.05607225 -0.9950659 0.08185141 190 196 201
0.0451197889561021 -0.0414135823278813 0.0207105332170008 -0.08254637 -0.9953727 0.04918614 186 189 195
0.0486100742670349 -0.0417295228530121 0.0144349108049462 0.09783494 -0.9925047 0.0732306 195 196 201
0.0566645241418355 0.064132817606191 0.0118032126546629 0.2309369 -0.4923141 0.8392228 175 182 188
0.0503601931897909 -0.0418440646973593 0.0191810591671038 0.1254126 -0.9817323 0.1430851 191 194 201
0.0552982835264234 0.0455571566536054 0.0101582417113668 0.07518298 0.07037151 0.9946836 179 180 188
0.077581463876948 0.0567403059142433 0.00816476481491135 0.2530628 0.1369021 0.9577145 177 179 188
0.130571881067684 0.0201157058968386 0.0173962686489385 0.02524284 0.08874056 0.9957349 181 185 193
0.0491351769541445 -0.0159318353176653 0.0207322302220482 -0.3629826 0.2597937 0.8948469 185 185 198
0.0669000981054226 -0.0298780781271729 0.0206074068550913 -0.6617821 0.6680181 0.3402885 181 187 194
0.134800494290309 -0.00957375250478593 0.0192798647823033 0.1361214 0.03666132 0.9900136 194 197 206
0.119195935751099 0.00966023736140903 0.015310524737513 -0.1705787 0.1518812 0.9735682 177 182 189
0.0427208171064112 0.0100480770163893 0.014954233047835 0.3614939 -0.04206147 0.9314253 182 186 194
0.0836496929870371 0.0786928923132713 -0.0251438076141246 -0.2147033 0.8576905 -0.4671932 94 100 83
0.0833920380388814 -0.0374374020517498 0.0171405618972821 0.1799408 -0.9622961 0.2039792 191 197 200
0.0815135013368341 0.0260800143238472 0.015307340830914 -0.6159809 0.715599 0.3293714 175 180 186
0.0496231091798826 -0.0435945081869043 -0.0196415720093036 0.1231323 -0.9899837 0.06907 192 197 200
0.0501729401957191 -0.0432080817892066 -0.0174464776482043 0.1329776 -0.9895982 0.05488594 186 189 189
0.0558096474421534 -0.0424042447562707 -0.0191612933016597 0.111123 -0.9891719 0.09586752 175 182 185
0.0867539528661367 -0.0135341928460991 0.018671707293027 0.4246017 0.2295955 0.8757849 177 183 188
0.0458175875124828 -0.0424364683830096 -0.00563311629736774 0.0925492 -0.9908844 0.09789107 194 198 198
0.0460496063461033 -0.0422020105099771 -0.00128899932169602 0.09837115 -0.9910651 0.09007251 193 196 198
0.055899494852982 -0.041825210326201 -0.00922726904908611 0.1216035 -0.9902651 0.06773234 191 195 197
0.0578070815782198 -0.0415464146841016 -0.00710145644852167 0.1283491 -0.9892609 0.06992475 192 196 197
0.0577945461446322 -0.041482245076165 -0.00345738596448464 0.1152094 -0.9896051 0.08607265 192 195 196
0.0556683683389371 -0.0413367871563893 -0.00142218767489483 0.1072927 -0.9908195 0.08224997 182 186 189
0.0619652214194574 -0.0421254218252496 -0.0191283576072484 0.1269106 -0.9900433 0.06089199 189 192 193
0.0619408028256358 -0.0420282094593646 -0.0170781341046128 0.1069932 -0.9892236 0.0999454 186 189 191
0.0659009598100592 -0.0418482213568718 -0.0193306641149891 0.07978246 -0.9943861 0.06950528 186 188 188
0.0704069001923805 -0.0416638821877759 -0.0214112028474182 0.0945263 -0.9922457 0.08070471 177 183 184
0.0730510278809865 -0.0379669116936749 0.0209099955051485 0.1221413 -0.7872781 0.6043797 170 176 183
0.0598409019193419 -0.0417132649238742 -0.0133501560338026 0.1413479 -0.9854271 0.09462652 192 196 196
0.0624378749967766 -0.0410253361828195 -0.0130592674767517 0.1012563 -0.9896185 0.1019923 152 162 152
0.0696349337095802 -0.0413900732843483 -0.0151219951557139 0.09521729 -0.993418 0.06367424 185 187 187
0.0659864262866906 -0.0407754143978482 -0.0112108314595575 0.03547388 -0.9958724 0.08354466 189 195 195
0.0718213372165649 -0.0409613483458467 -0.0187364743883165 0.1251416 -0.987717 0.09356599 184 187 187
0.054096530832474 -0.0248761518552579 0.0166477793494769 -0.1630607 0.07866169 0.9834752 186 188 196
0.0722848895790122 -0.0407478676577881 -0.0152642052961827 0.1231506 -0.9911345 0.04986409 193 195 197
0.0779698945339541 -0.0399472397322675 -0.0126064242537396 0.1320428 -0.9877746 0.08286186 197 198 201
0.0818901032326075 -0.0394242069295854 -0.0128524083705016 0.1188968 -0.9896645 0.08017289 186 188 189
0.0599246582242504 -0.041295913055947 -0.00518577042765211 0.1342311 -0.9881906 0.07390101 187 189 190
0.065946515555151 -0.0410660967449494 -0.0093762719412428 0.03694394 -0.9958334 0.08337238 180 183 185
0.0695558599601861 -0.0399689743327865 -0.00504567976692311 0.1320003 -0.9874696 0.08648557 185 188 190
0.0593428599306491 -0.0409271889005769 -0.00143916144743561 0.1379496 -0.9819254 0.1295859 191 193 197
0.0613254160876668 -0.0404210321123852 0.000799702064592789 0.1082988 -0.9888463 0.1022467 185 188 191
0.0616735627342974 -0.0399766022076611 0.000991961728969426 0.09182775 -0.9920712 0.08580498 192 197 200
0.0686936231190411 -0.0408856456795152 -0.00320056905552329 0.1095585 -0.9927912 0.04860624 145 145 150
0.0675118731883681 -0.0397376937569774 0.000874585728034505 0.06741693 -0.9941257 0.08467087 188 192 193
0.0756029654905578 -0.0395178807368312 -0.00668870259194282 0.126625 -0.9863542 0.105221 190 193 192
0.0736450078719148 -0.0391647098065404 0.000996854750771659 0.1197998 -0.9911597 0.05701157 189 194 194
0.0792129969537806 -0.0387475395550648 -0.00291452807552539 0.1144065 -0.9924685 0.04378941 181 184 185
0.0813391716691997 -0.0382622234065836 -0.00280520309703097 0.09070946 -0.9947175 0.04805018 192 194 197
0.0475426641934759 -0.0418768388589181 0.000803765978418802 0.09057453 -0.9920965 0.08683804 189 194 196
0.047452280822392 -0.0415946190672166 0.00648931636389805 0.07725953 -0.9958577 0.04794287 195 198 199
0.0435538668667138 -0.041423108622828 0.00963011229729499 0.07122125 -0.9954132 0.0638752 208 211 211
0.0494203124012388 -0.0413147513425196 0.00646243103832217 0.1232778 -0.9908667 0.0546419 196 198 199
0.0490919035766539 -0.0418207109358784 0.0062462184495522 0.1202035 -0.9912895 0.0538174 201 201 204
0.0492302040425977 -0.0411216582178049 0.0105745670875502 0.1042938 -0.9939161 0.03540548 201 203 207
0.0387615507514899 -0.0410117483281157 0.016190458527176 0.08582095 -0.9361277 0.3410275 183 185 189
0.0431590621202417 -0.0410950386800118 0.0158207649453022 0.04939546 -0.9668137 0.2506619 185 194 196
0.0391263744433946 -0.0382451911993577 0.018087955675356 -0.2527739 -0.3895752 0.8856277 186 190 199
0.0430902272989326 -0.0399885486236684 0.0198480993189484 -0.6471018 -0.5750276 0.5006022 195 191 205
0.0430460278386794 -0.0362292250397929 0.018442573926634 -0.4081671 0.1695765 0.8970192 185 189 200
0.0471734791910407 -0.0404439582852347 0.0224586021002302 0.06582549 -0.7375782 0.6720457 184 187 191
0.107221133310874 0.038060780160017 0.0163305306833685 0.08721734 0.1914336 0.9776228 181 184 193
0.038153819856516 -0.0339149067311896 0.0168212747323558 -0.1172746 -0.03990108 0.9922976 185 189 197
0.0408128830661668 -0.0343453994979707 0.0200352875926397 0.6201316 0.627521 0.4708016 183 188 199
0.0368239064883934 -0.0301523262800946 0.0204990306966619 -0.7549887 -0.4675539 0.4597668 217 218 233
0.0420031633451738 -0.0345493951182912 0.019315070426437 -0.1188524 0.483152 0.867432 185 190 198
0.0466879973684586 -0.0341660021366719 0.0201694706459186 0.6809301 0.655899 0.325777 182 187 194
0.0493552397741569 -0.0410968772393831 0.0126386944207822 0.09912773 -0.994308 0.03905476 194 199 200
0.0482180045654018 -0.0411100222201528 0.0167725047873045 0.02386073 -0.9958254 0.08810543 196 201 204
0.055079670537226 -0.0400182845710416 0.0170336759349837 0.2498969 -0.9676194 -0.03555704 195 198 203
0.0553512047491413 -0.0371591573113585 0.0169717976929282 -0.7644033 -0.3596171 0.5351291 181 188 194
0.05294068583863 -0.034500032881719 0.0167031906222875 0.02184203 -0.2081949 0.9778435 184 189 198
0.0506083612733376 -0.0405271611071146 0.0202649373849754 0.2034609 -0.9207675 0.3328525 195 197 200
0.0488603902491388 -0.037989494750802 0.0220586646991643 0.4813483 -0.2030156 0.8526948 180 185 196
0.0533615917364757 -0.0402307181543525 0.0177788283974771 0.4747126 -0.8785323 -0.05318876 186 193 198
0.0569927778045206 -0.0398528237005826 0.0185520428935642 -0.1297814 -0.9883894 -0.07901435 195 199 206
0.0575889395358372 -0.0374370388861754 0.0174579283018305 -0.1159529 -0.771146 0.6260102 186 190 198
0.0532553607609746 -0.0354549642726379 0.0222334591172887 0.04849339 -0.2628064 0.9636292 182 185 194
0.04903865285152 -0.0345307902847518 0.022032590572552 0.5871034 0.03917851 0.8085634 182 186 198
0.0463173746348421 -0.0293596390213191 0.0195899071422734 -0.1204565 -0.890127 -0.4395045 184 188 196
0.0562810246035858 -0.0333927625006844 0.0186367630637211 0.1416261 -0.02720549 0.9895463 185 189 198
0.110738792601537 0.00195872330175745 0.0152458612854042 0.01101367 0.4774607 0.878584 180 185 190
0.0562572790806259 -0.0317170647817146 0.021747392069258 -0.448619 0.3910384 0.8036354 182 185 196
0.0433485796618679 -0.0189326124111464 0.0155447441949551 -0.1911776 -0.06599895 0.9793341 179 184 188
0.0376882251566243 -0.026556703790345 0.017423257167718 0.114121 -0.002244649 0.9934644 183 188 195
0.041287064764887 -0.0293385822598676 0.0217240889121896 -0.2846745 0.5044975 0.8151336 203 205 220
0.040903509710868 -0.0259106947760603 0.0212599924339033 -0.1131097 0.09807603 0.9887301 218 220 235
0.0443827725465235 -0.0293302250713477 0.0170881709780513 0.1985401 0.1055677 0.9743907 186 188 199
0.0450649862708438 -0.0237339621607702 0.0184872713222298 0.1994493 0.127343 0.9715986 186 190 198
0.0469108517095266 -0.0260290584817184 0.02182009238685 0.5342435 0.02930729 0.8448225 179 182 193
0.0400059256686777 -0.0228146800863731 0.0182410695671089 -0.3629904 0.1106268 0.9252025 189 189 197
0.0389884432202347 -0.0178449547294169 0.0205942300072816 -0.1673451 0.9858812 -0.005817883 227 230 245
0.0465964584053574 -0.0217147837204144 0.0189640117656167 0.1478284 0.03272526 0.9884714 183 189 198
0.0406074953216506 -0.0239717141713354 0.0211094269955038 -0.221711 -0.1318735 0.966154 197 204 216
0.043228000539327 -0.022162366782282 0.0204502119904387 0.01995301 -0.1190319 0.9926899 181 188 200
0.043170504601808 -0.0189389200765502 0.0187874262049547 0.3942745 0.5914843 0.7033448 183 187 196
0.0526140702460009 -0.0220730299261148 0.0161468728945217 0.1545958 -0.06455206 0.9858667 182 187 194
0.048474934152687 -0.0278532118942129 0.017799677570132 -0.282643 0.4254826 0.8596961 184 190 200
0.0511791924787814 -0.0283397472762019 0.0201843674435378 -0.8884152 0.4243921 0.1749566 179 183 190
0.0527007937000025 -0.0263404346964061 0.0193693521883695 0.5908296 -0.7159307 0.3719726 184 188 197
0.0531523150064267 -0.0276769885433029 0.0199231518217335 0.3889577 0.8450271 0.3669348 182 187 196
0.0565129741659517 -0.0256942274811178 0.0178067518145915 -0.3649823 0.1980029 0.9097158 187 191 200
0.05698070412037 -0.0255035716817205 0.0215409482676717 0.7188756 0.1536129 0.6779535 178 183 191
0.055491160262931 -0.0240936541550311 0.0215038900395076 0.1915156 0.3681495 0.9098284 181 181 194
0.0468748554226398 -0.0177288782489394 0.0188975007799402 -0.01111282 -0.4719952 0.8815311 182 186 192
0.0508123162183282 -0.021979432246447 0.0215819282954616 -0.08824275 0.06886899 0.9937154 180 185 195
0.0572430936772378 -0.0221831826583567 0.0163716613154877 -0.1052014 0.1343544 0.9853332 183 189 194
0.0532062391694256 -0.0205071630626358 0.0206122940782552 0.7853905 -0.5941845 -0.1735124 181 188 194
0.059354861418823 -0.0404552707506825 0.00290950728454603 0.1583007 -0.9821495 0.1016036 187 192 194
0.060239973380262 -0.0395809896880538 0.00301844433217213 0.1696245 -0.9810304 0.09384497 194 196 203
0.0672529704373283 -0.0395764098539447 0.00274992639249938 0.07565323 -0.9943432 0.07455269 186 189 191
0.0694648307803691 -0.0394940795187409 0.00273165284120269 0.09968331 -0.992863 0.06547027 185 188 187
0.0654921836608741 -0.0394656197885317 0.00686895760325518 0.0381892 -0.9974643 0.06005485 187 191 193
0.061050035509311 -0.0398432584138538 0.00872807776654588 0.09147467 -0.9939338 0.06105741 188 191 194
0.0673630848101082 -0.0397043422554644 0.00816530523690151 0.07906333 -0.9919391 0.09902378 189 191 193
0.0651524272817011 -0.0392195430048198 0.010950839791654 0.04089594 -0.9970527 0.06491041 191 195 198
0.0715467847411119 -0.0392488683975661 0.00277433617128187 0.1257103 -0.9891315 0.07626234 189 192 192
0.0730485625197096 -0.038876411052785 0.00703038087588231 0.1205286 -0.9904053 0.06760383 180 184 185
0.0721371540954296 -0.0404744927642739 0.0107568116707024 0.1101493 -0.9908052 0.07856295 156 157 169
0.077455996728352 -0.0382951313910515 0.00899659123854601 0.1065589 -0.9904604 0.08736949 187 189 189
0.0775959318959797 -0.0378382777592736 0.0112040231162143 0.1124458 -0.9914479 0.06623442 194 199 200
0.0790820191797403 -0.0376687192909251 0.012760168567564 0.08944201 -0.9892201 0.1159474 196 199 200
0.059979961657645 -0.0390527622836184 0.0141602375136526 0.0311424 -0.9912331 0.1284024 164 169 164
0.0629988076937923 -0.0396023191234104 0.0148265181298858 0.0601931 -0.9951159 0.07823797 194 195 200
0.0648642363248741 -0.0383272505384988 0.0169187825063436 0.2332297 -0.9360808 0.2633565 196 200 205
0.065015906286496 -0.039904452282929 0.0169042368115346 0.181714 -0.9556177 0.231894 180 183 188
0.0585327497407061 -0.0389500283664019 0.0177214812774254 0.04815583 -0.9846961 0.1674949 183 187 195
0.0611820202868573 -0.0355379374288052 0.0174281605811343 -0.001821827 -0.1352154 0.9908146 183 190 196
0.0590317229983374 -0.0392285166978824 0.0224714308134585 0.05594147 -0.7671468 0.6390277 185 189 193
0.0647964737475816 -0.0394666914771374 0.0207697081692177 0.3252727 -0.8749814 0.3586157 165 167 181
0.0649798968438297 -0.0372331079014689 0.0204432841813385 0.5496277 -0.7753599 0.3110087 192 197 203
0.0629540768019493 -0.0357207444383751 0.0228861091987943 0.09543013 -0.05664651 0.9938231 183 189 196
0.0662715068349173 -0.0357066346112367 0.0229010785267507 0.1926637 -0.1859071 0.9634933 174 178 185
0.0643144814482232 -0.0321188017293053 0.0192222242908254 -0.4680941 -0.7430801 0.4782466 180 188 192
0.0688173269267637 -0.0298296951935128 0.0195969456797378 0.4131613 -0.9069306 -0.08230858 179 181 193
0.0638276486254804 -0.0326769818952068 0.0223133569181207 0.09626707 0.1584608 0.9826611 181 185 198
0.0649255954651752 -0.0312686732907075 0.0224376797479338 -0.2217929 -0.1034242 0.9695934 188 191 200
0.0750691651201977 -0.0381254611518753 0.0131318590214364 0.1258518 -0.9806445 0.149992 179 184 186
0.07743357021241 -0.0378618235468307 0.0127049192758931 0.1128754 -0.98637 0.1197219 193 196 198
0.0770455848564843 -0.0379514342352764 0.0170393748972972 0.1593543 -0.9590459 0.2341734 180 184 190
0.0811194142261386 -0.0373708282918834 0.0155651031085833 0.01942627 -0.9912382 0.1306497 190 195 197
0.0764763666694953 -0.0318562019678244 0.0170579894258917 0.02950495 0.2559871 0.9662298 188 193 200
0.0709030876359954 -0.0378736575843469 0.0185258266465195 0.03098871 -0.9389796 0.3425742 181 184 187
0.0749728559024671 -0.0378223696965577 0.0189445650470859 0.1226121 -0.9021277 0.4136809 194 196 200
0.0750211989591369 -0.036159582742294 0.0193535812511506 0.2061561 -0.8157246 0.5404564 186 191 196
0.0810372360533675 -0.0372294263239206 0.0188996355067788 0.01182104 -0.9728134 0.2312887 194 197 202
0.0708172293318282 -0.0339263115352563 0.0191772964161468 -0.8340214 0.5477427 0.06622826 186 192 198
0.0730195582806045 -0.034459307172916 0.0210026280526926 -0.29593 -0.07584364 0.9521939 176 184 192
0.0713565306445366 -0.0330844952896664 0.0229385340810387 0.1336625 -0.1515675 0.979368 190 194 203
0.0774992650222714 -0.033923145539825 0.0194582724360978 0.7363141 -0.6725007 0.07472874 187 189 200
0.0779002387962497 -0.032327113114875 0.0177152496747887 0.02805592 0.05319952 0.9981897 190 194 203
0.0772406281371786 -0.031911412734509 0.0228779832349272 -0.002903871 -0.03885486 0.9992406 191 194 202
0.0786203411008836 -0.0309444939841735 0.022467126193796 0.01184052 0.003112243 0.9999251 190 193 202
0.0600524189093156 -0.0243686891915201 0.0159652288646148 -0.0001541736 0.06547388 0.9978543 176 185 190
0.0594507083136687 -0.0218613332566548 0.0153957706951404 0.09589012 -0.1297118 0.9869042 180 185 189
0.0660382569977408 -0.0195376856264971 0.0152165995436024 -0.1844346 0.005883141 0.9828272 181 185 193
0.0629625452000028 -0.0251010831326228 0.0199281366848038 0.03096925 0.7380586 0.6740255 182 187 197
0.0629823169064415 -0.0275395266591951 0.022310996486607 0.1665099 0.1012552 0.9808271 189 193 203
0.0650637262725417 -0.0261859325703275 0.0189317202833121 0.08052549 -0.1737174 0.9814978 186 188 200
0.0671816914135605 -0.0280651765562659 0.0207405739006634 0.3670313 0.4115656 0.8342073 177 179 190
0.0647920028098891 -0.0238836914901546 0.0203169541750189 -0.2294029 0.4872241 0.8426073 179 183 191
0.0686088252391552 -0.0257188148979057 0.0225242635102246 -0.04445324 0.04118202 0.9981623 181 187 194
0.0602057511517426 -0.0194604187995243 0.0195385793864136 -0.8245175 0.2895339 0.486149 182 186 193
0.0608246948915695 -0.0187395625273934 0.0198450530095039 0.255463 -0.1835176 0.9492418 182 187 198
0.0612869920586313 -0.0184020855010854 0.0218193025959211 -0.0433983 -0.1898634 0.9808509 181 184 194
0.0671340626908547 -0.0232706261307843 0.0193100292678743 0.9008765 -0.02221997 0.4335063 182 187 193
0.0696303154349681 -0.0222809312039026 0.0198663985775775 -0.2820921 -0.1912921 0.9401231 183 187 195
0.0682041260317396 -0.0188812822406498 0.0215155205869334 0.0443602 -0.113148 0.9925874 186 192 200
0.0726049826561523 -0.0263025813244606 0.0163054495948226 -0.07654194 0.2549529 0.9639193 187 189 201
0.0760702742230463 -0.0242875821260513 0.0159937557596952 0.0930321 0.2454185 0.9649429 183 189 199
0.0766932135030142 -0.0218138132741741 0.0158886441254407 -0.05486291 0.2270168 0.9723443 183 188 194
0.0706062760510028 -0.0282692103868989 0.0172855769181277 -0.1171667 0.1913338 0.9745067 185 188 196
0.0730358819183234 -0.0279745281734491 0.0200082690236785 -0.7926623 0.5332056 -0.2955981 180 186 193
0.0729481405096137 -0.0250334076139015 0.0183938083397656 -0.377131 -0.3855463 0.8420963 185 189 198
0.0732877677388447 -0.0245697207546501 0.0199051497413048 -0.8068658 -0.298096 0.5100062 180 186 194
0.0744379761130928 -0.0273281892857769 0.0224083509756022 -0.04452851 0.09904511 0.9940861 182 188 194
0.0727012808975142 -0.0233296857953707 0.0222586050791388 0.0355133 0.1314111 0.9906917 180 186 195
0.0810917102929222 -0.0280329281246541 0.0184482664671279 -0.6409636 -0.6212167 0.4508387 186 192 199
0.0792938738994337 -0.0250680258594096 0.0200136135809514 -0.9274788 -0.3341449 0.1677209 178 181 191
0.0784064251023998 -0.0272520722606254 0.0220762445126447 0.01731859 0.07285982 0.9971918 191 197 205
0.0713990616178976 -0.0177242829343203 0.0188604062828039 0.9860198 -0.04637798 0.160044 180 185 194
0.0708518082912219 -0.0176973772797926 0.0216058740335462 -0.2227685 0.04035011 0.974036 175 180 188
0.0763119799679034 -0.0234372050285325 0.0185586265822587 0.2240278 -0.9621144 0.1553946 181 186 195
0.0766590630764356 -0.0180026202828397 0.0182457175404754 0.5931187 0.6757914 0.4376256 179 186 190
0.0764010646133425 -0.0222082916365614 0.0217251326026724 0.03553594 0.03829238 0.9986345 188 190 197
0.0808671604629302 -0.0217213857756115 0.0217847916690185 0.01225515 0.166923 0.9858938 190 194 204
0.0795852221032584 -0.0188941394214979 0.021633520685755 -0.03650521 0.02393622 0.9990467 198 200 208
0.0356040782378259 -0.0143828467354744 0.015069431795003 0.08300089 0.2529823 0.963904 183 184 194
0.0363893096319045 -0.0177028411980768 0.0189460376930823 0.2196155 0.9749987 -0.03386087 227 230 246
0.0413694134111184 -0.0156961455998821 0.0183532769193746 -0.1840377 -0.3999367 0.8978757 186 188 199
0.0423098307851172 -0.0158541922702097 0.0190963435555153 -0.8693751 -0.002826007 0.4941448 183 188 196
0.0449081693030139 -0.0141840409131004 0.0203776612671869 0.05258282 -0.2205234 0.9739633 179 184 194
0.036292519382367 -0.00680426622879021 0.0151169553457588 -0.413086 -0.0005527069 0.9106919 223 227 233
0.0410960758929925 -0.00832363786903961 0.0161634292152757 0.04073529 -0.07690918 0.9962056 185 187 198
0.0352321600327833 -0.00857500172453801 0.0196273271140174 -0.5551223 -0.7982303 0.233811 174 183 194
0.0416831124996341 -0.00677071092453158 0.0154431217615976 0.003477226 0.08669722 0.9962286 215 221 233
0.0409992236258151 -0.00958609554276807 0.0200495464748724 0.06592166 -0.02592417 0.997488 217 225 238
0.0519904369943368 -0.0173131339322211 0.0152215385350521 0.1607777 0.01256772 0.9869106 179 184 190
0.0844879728356022 0.0217448338443884 0.0157724159006837 0.8024747 -0.5185879 0.2951284 179 184 190
0.057237477515305 -0.00975900277801361 0.0147645088107416 0.1438504 0.1367221 0.9801093 180 185 190
0.0571598273395121 -0.00611816475884946 0.0146063448647497 0.2594807 0.05174574 0.964361 181 186 194
0.0516270090067411 -0.0129091029558513 0.016356888547378 0.1111644 -0.02829404 0.9933992 179 183 192
0.0473227675250386 -0.015703644998673 0.021163117686828 0.01557376 0.4034636 0.9148631 179 184 195
0.0520111634992989 -0.0131922567228792 0.0188219411849764 0.9652875 0.1106555 0.2365911 178 182 193
0.0528759616863349 -0.0140106535938675 0.0169166637821459 0.4323951 -0.2754971 0.8585662 180 185 192
0.0530719540370825 -0.0173396455503583 0.020123766747935 -0.4116834 -0.2040723 0.8881842 181 181 192
0.0467016820304595 -0.0102724586158375 0.0183884681241413 -0.9426965 0.3226621 0.08492599 176 183 189
0.0505604929994107 -0.00747640802637001 0.0167268374293043 0.7362411 0.4929405 0.4636364 179 183 189
0.0529342207757117 -0.0115627064688411 0.0185566827200899 -0.8042783 0.5925667 -0.04473389 177 181 190
0.0530120579277146 -0.00565054144903615 0.0167608863007129 -0.188501 -0.5183473 0.8341364 180 185 192
0.0552743283112475 -0.01136993194701 0.0209981709782008 0.4396076 0.2490052 0.8629841 180 183 191
0.0426515172296932 -0.000264097618102477 0.0136315779310186 -0.02047133 0.009235083 0.9997478 183 186 198
0.0376070184894532 -0.00443739070325161 0.0160753759671894 -0.29998 0.2209893 0.9279956 212 223 231
0.0371523982093935 -0.00458384320282518 0.0179218705419289 -0.9795704 -0.01908349 0.200194 212 220 231
0.0376048371553922 -0.00123051174837735 0.019827149492978 0.4702896 -0.01988753 0.882288 184 193 205
0.0408971459730562 -0.00538167576137466 0.0176727602687988 -0.5530385 -0.8176325 -0.1600797 176 180 191
0.0452651291295984 -0.00442075530996117 0.0174120270452088 -0.8219368 0.2327398 -0.5198578 175 181 190
0.0435451820237344 -0.00455580018375951 0.0178023688080334 -0.8960397 -0.04535665 -0.4416511 176 182 191
0.0435716775340384 -0.00156466197617072 0.019697915977516 0.3935427 -0.05448564 0.9176903 170 180 190
0.0394445825325948 0.00295033327526389 0.0152653594402282 0.1095707 0.336744 0.9351993 186 190 199
0.0450009387760601 9.56913971484341E-05 0.0159868439845209 -0.1236212 -0.2593191 0.9578473 211 213 225
0.0409781644127209 0.00217795931340509 0.0197907401626663 -0.0377213 -0.04253677 0.9983826 225 229 246
0.0428820704397951 0.0034931755610616 0.0178486123125102 -0.02307212 0.4688128 0.8829961 226 228 242
0.0463659044676687 -0.00176841168894598 0.0146020304426296 -0.4346684 -0.176059 0.8832138 182 188 193
0.0467235966915195 -0.00430675520556451 0.0150541097772316 -0.08561353 -0.03477583 0.9957213 226 220 232
0.0484910972409966 -0.00425421128318076 0.019548917678479 0.2650978 0.02932547 0.9637755 176 180 190
0.0540773990915359 -0.00462981160731618 0.0160446176118373 -0.2793507 -0.328856 0.902118 183 188 194
0.0567614935287898 -0.00476371624427036 0.0166460121133464 0.2036833 -0.4892395 0.8480317 183 187 195
0.0530643280731572 -0.00564759246580077 0.020355028369345 0.2695735 -0.2145452 0.9387761 178 184 191
0.0551207669547759 -0.00188280229088739 0.0202959454762858 0.1291228 0.1039784 0.9861621 177 182 192
0.0477919964239285 3.14240997632553E-05 0.0165038135896872 -0.6505159 -0.2646251 0.7119007 229 231 242
0.0508821205081406 0.00404686010448835 0.0164524013063674 -0.7154156 -0.4724887 0.5147184 195 198 204
0.0503910917807084 0.000531432504258633 0.018480661557764 -0.5018133 0.1300888 0.8551376 167 179 193
0.0516952039099784 0.00446454849461225 0.0179347648143295 0.02666524 -0.2517526 0.9674242 222 229 242
0.0572947097679487 0.00356802777288251 0.0165030294082412 0.5794889 0.4818055 0.6573098 177 182 192
0.0559690729572254 -0.000167490189029118 0.0186360278155755 -0.03948645 0.4092762 0.9115557 179 181 192
0.0581874000407813 -0.0113768710215698 0.0148098363143 0.08702951 0.3573504 0.9299067 181 188 194
0.0768621426230497 0.0516620669047218 0.0110891881419926 0.05517981 0.1517616 0.9868757 177 180 188
0.0648478343900038 -0.00832917320575649 0.014335619272236 -0.004087407 0.0189418 0.9998122 184 188 199
0.0609714490933541 -0.015407957179465 0.0164442599851501 0.2066725 -0.152104 0.9665148 182 186 194
0.0615220011562318 -0.0149311299918242 0.0168104513842871 0.08293089 -0.193799 0.9775298 184 187 196
0.0632082529914843 -0.0158160385080274 0.0216671003781194 0.04046669 0.1363582 0.9898328 175 179 188
0.0624334714409486 -0.011661154208469 0.0188016561371469 0.2455303 -0.4216911 0.8728639 176 182 190
0.0676715704716019 -0.0155510334672254 0.0174497345408954 -0.5926239 -0.1935495 0.7818795 181 184 192
0.0646519839378864 -0.0125098230897759 0.017183680074871 0.293787 -0.7518129 0.5903106 178 184 190
0.0651070093315137 -0.0172440508821606 0.0218233277946842 -0.01564867 -0.09399582 0.9954496 177 181 192
0.0585684316779941 -0.0119201951466548 0.0174277034931756 -0.4713708 -0.7759736 0.4191354 181 183 194
0.0633231625827563 -0.00969435286081893 0.0193019050464891 -0.309851 -0.2563651 0.9155705 177 180 190
0.0617551721826529 -0.00834561877060253 0.0188519541436943 -0.4804871 -0.1213913 0.8685599 175 180 187
0.063694421355229 -0.0102933711831457 0.0173231449010984 0.7096946 -0.7023063 -0.05567344 179 183 192
0.0669293134920427 -0.00945402051445449 0.0209631817816271 0.1453034 -0.02409662 0.9890937 182 185 195
0.0667068976817397 -0.00869713101342756 0.0188313210016327 0.1323399 -0.3305912 0.9344494 174 179 190
0.0743030454043689 -0.0156005631475467 0.0151772905017689 -0.3024059 -0.002648367 0.9531755 181 186 193
0.0770374631989622 -0.0143915639656128 0.0158019845491783 -0.05301561 -0.01391275 0.9984968 182 186 193
0.0723098708927054 -0.00865248541131652 0.0146526268552024 0.1805384 0.2344091 0.9552268 179 183 193
0.0808571139897795 -0.00836146477893723 0.0146872795451763 0.2312827 -0.1222236 0.9651786 183 185 194
0.0709498106143963 -0.0140777424024874 0.0191313296032233 0.6368588 -0.265451 0.7238416 182 181 192
0.0728466920502548 -0.0161113920230706 0.0199974568104868 0.1874884 0.2443557 0.9513876 179 183 193
0.0727928898265759 -0.0133105374184627 0.0190849652188581 0.8949752 -0.1382754 0.4241453 175 177 189
0.0759901534070001 -0.0144258624088737 0.0191580219502317 0.4721203 0.4708498 0.7452535 176 181 190
0.073383470099036 -0.00905913775599004 0.0166037802456447 -0.0890338 -0.01868659 0.9958533 182 186 194
0.0726057964115216 -0.0105258396694705 0.0189365785186296 0.288148 -0.1940821 0.9377115 170 177 184
0.071036880797661 -0.00744207502265665 0.0210300939239749 0.1701415 -0.095105 0.9808195 183 188 196
0.0807405536100962 -0.0100598684770783 0.0175725599596595 -0.7569969 -0.175789 0.6293282 175 182 191
0.0787021147664701 -0.00775464472269399 0.019390137417393 -0.001630842 0.1230801 0.9923954 174 179 187
0.0622303633650857 -0.00206587926659535 0.0137048213493791 0.05320085 -0.06260771 0.9966193 181 185 193
0.0675444098954598 -0.00148567520964488 0.0134507276077504 -0.2530182 -0.1744901 0.951596 181 186 192
0.0604370460239433 0.00275694606535065 0.0144117872992007 -0.1598645 0.3600698 0.9191263 181 185 193
0.0628351272668374 -0.00443609608796142 0.0166328179183395 0.3466071 0.304005 0.8873807 183 189 196
0.0628741510794876 -0.00399911312680962 0.0209225872026216 0.04595347 0.1840362 0.9818447 183 188 196
0.0647402452932321 -0.00408385012432072 0.0182247501070625 -0.7736806 0.5083455 -0.3781575 174 179 187
0.0684755551951685 -0.00136134194529453 0.0172562519874183 -0.9323124 -0.09169429 0.3498368 178 183 194
0.0688853238358888 -0.00155242000302463 0.0204148312028324 0.04347579 0.09760226 0.9942755 168 176 186
0.058762085032858 0.00180650701575485 0.0174066080394958 0.2137137 -0.4823929 0.8494843 179 184 192
0.0607354332085409 0.00396363671576733 0.0177433790640626 -0.550571 -0.0252456 0.8344065 174 182 193
0.0586426487117283 0.00192257230394061 0.0201239985017528 0.1028632 0.4425916 0.8908041 174 178 187
0.0670460993926151 0.00366674487487323 0.0177879269813787 0.3157363 0.8936508 0.3189025 177 181 191
0.0644464972445255 0.00210403304782386 0.0201245459613986 -0.1473545 0.1262254 0.9809963 183 187 195
0.0647462435301748 0.00359318661279212 0.0196374439094538 -0.1091917 0.3802656 0.918409 181 187 197
0.0789325504228608 -0.00240873196368635 0.0134425560127054 0.08843055 0.2238965 0.9705928 181 185 191
0.0769908799809273 -0.000187184980989297 0.0150204329509162 0.1726518 0.08682121 0.981149 181 187 193
0.0758695928601504 0.00431057545265062 0.0142344349791841 0.1410687 0.3828989 0.9129556 177 181 191
0.0720676822564369 -0.00635653329609537 0.0166103441015757 -0.3854087 -0.8541124 0.3492165 183 186 194
0.0750976816095671 -0.005305554638738 0.0206234438809537 -0.147662 -0.09998982 0.9839705 182 187 195
0.0748130787038989 -0.00407749911401828 0.0206657222106068 -0.07698186 0.1050597 0.9914818 180 184 194
0.0735168756711936 -0.000165551171500133 0.0192230209331995 -0.1108294 0.09544023 0.9892462 178 180 189
0.0797600613824014 -0.00583441389425982 0.0190863629039942 -0.5184166 -0.05774869 0.8531761 174 179 187
0.0797590234143676 -0.00191352508575754 0.0160700982070417 0.4108831 0.7681544 0.4910334 183 188 197
0.0770798267145622 -0.00464971557334543 0.0190228431061267 0.2520418 0.01651792 0.9675754 176 183 191
0.0784234004628558 -0.0014674445915322 0.0192053026214455 0.02751263 0.122843 0.9920447 176 179 190
0.0809611819547757 -0.00175468919552074 0.0203767965587072 0.1229018 0.02015382 0.9922142 189 192 201
0.073866396561849 0.00445319990282983 0.01507175208647 0.2266154 0.1470212 0.9628241 186 188 196
0.0735398860934803 0.000606524365964145 0.0201936845521067 -0.04889166 0.04728767 0.9976841 180 185 193
0.0709599350745826 0.00221273767652813 0.0180298189954001 -0.07355292 0.8778533 0.4732478 176 181 190
0.0742757297264866 0.00475425340371477 0.018174503827012 0.2861223 0.02517007 0.9578624 175 181 190
0.0748885910980827 0.0042306432758405 0.019877379205618 -0.08425596 0.108331 0.9905379 181 186 195
0.0788944208298889 0.0024450456927439 0.0185477092702842 -0.02335682 -0.2017833 0.9791517 175 179 187
0.0763038374283226 0.000575638106691867 0.0203168004842903 0.1142095 0.03967825 0.992664 187 189 200
0.0771590219570994 0.00323376709961559 0.0182663107957562 -0.07218391 -0.222631 0.9722268 178 182 190
0.079194212035855 0.0044117936898373 0.0197871987036407 -0.0004917147 0.02360875 0.9997212 177 182 190
0.115802904775052 -0.0356302526125106 -0.0121600689067141 0.1349786 -0.9883315 0.07058106 182 185 187
0.0863297992291276 -0.0395781273795376 -0.0181835372979228 0.04555637 -0.9954693 0.0834597 182 185 185
0.0879799222193391 -0.0388820700022756 -0.0166757976035527 0.0437506 -0.9952086 0.08743966 189 193 192
0.127205321774135 0.0143716663714051 0.0151742411972514 -0.5070918 0.8509249 0.1370573 175 181 187
0.0900737673845803 -0.0388871853200128 -0.0166040837979112 0.03182405 -0.9930052 0.1137009 193 196 199
0.0845876994312814 -0.0388975969193849 -0.0146243493571425 0.06620929 -0.9958886 0.06182414 196 200 201
0.08592791486771 -0.0393342383013881 -0.0147899527071768 0.05498745 -0.9965353 0.06240057 185 188 194
0.0856047448500818 -0.0389350403711179 -0.0104808306674903 0.04226782 -0.9965866 0.070912 196 200 202
0.0929599164439165 -0.0398124121939884 -0.0154149545188335 0.1321725 -0.9830956 0.1267018 153 158 156
0.0937873190115278 -0.0379323964242612 -0.0125150567552719 0.1602942 -0.9744843 0.1571179 187 188 192
0.096128416378143 -0.0383545797287707 -0.0183872980581364 0.1343507 -0.9884053 0.07074402 186 188 190
0.0980811191937227 -0.0379224826883282 -0.0166273116955067 0.1430593 -0.9833798 0.1117956 185 189 191
0.103985443297577 -0.0379098603249361 -0.0204108681027265 0.08546219 -0.9930058 0.08145988 195 198 198
0.104661052872348 -0.0370667503632964 -0.0165138977824147 0.1069178 -0.9891682 0.1005727 181 183 184
0.0997596088356373 -0.0372676626829097 -0.0107013832676516 0.05875393 -0.9903823 0.1252638 185 186 188
0.102367807743203 -0.0368564378925542 -0.0126685707030522 0.05200275 -0.9932491 0.1036917 177 180 178
0.103726763284231 -0.0367311904959355 -0.0121932597426023 0.09623225 -0.9915767 0.0866892 180 180 183
0.0836676895377872 -0.0390415735158147 -0.00896084620383708 0.07457791 -0.9933167 0.08809205 191 194 194
0.0871100857013671 -0.0389340460273516 -0.00891520610410407 0.05414404 -0.995955 0.07170773 196 196 198
0.0856929895363187 -0.0388828865121968 -0.00686607947324369 0.03723381 -0.9970264 0.06746773 178 181 183
0.0863748527507081 -0.0388551203886493 -0.00506219125013335 0.04744317 -0.9954085 0.08313318 150 155 145
0.0894023558722045 -0.0388684722261836 -0.00635368516521645 0.1391809 -0.9875396 0.07344483 172 177 173
0.0919190299673819 -0.0376429803854739 -0.00469701290554825 0.1455694 -0.988337 0.04471589 187 192 193
0.0835106043932969 -0.0383296841551641 0.00110568369337483 0.09192839 -0.9947785 0.04432781 194 196 198
0.0867831083598284 -0.0383807608406458 -0.000287480793235595 0.09471118 -0.9933538 0.06540605 190 190 193
0.0895136168969081 -0.0378842338954757 -0.00286185266139483 0.1154861 -0.9908193 0.070285 186 189 190
0.0937864957961773 -0.0372720750947519 -0.000512905232418703 0.1376757 -0.9864957 0.08872246 182 187 188
0.0957676117332366 -0.0370857485137058 -0.00643624827686395 0.1403791 -0.990027 0.01184508 172 177 175
0.0976607080626236 -0.0370101549385863 -0.00646679458945909 0.130476 -0.9911898 0.02277498 191 194 194
0.103642779147169 -0.0364488062474435 -0.00832174743942216 0.05050981 -0.9945836 0.09084138 190 194 194
0.100092569090709 -0.0364212501083547 -0.00683442567549092 0.06267246 -0.9960247 0.0632998 182 188 186
0.103191794209209 -0.0366803166736899 -0.00659651663392125 0.05053511 -0.995939 0.07450967 179 183 183
0.0978302769907212 -0.0369041296255592 -0.00228955752202098 0.1532229 -0.9853507 0.07487856 186 190 193
0.101790853319206 -0.0364140527471573 -0.000620945897941649 0.04467663 -0.9965574 0.06983773 185 191 193
0.103434496212388 -0.0364392658282268 -0.00232169824241391 0.03826407 -0.9973726 0.0615128 184 185 188
0.103432706434231 -0.0357909579996723 0.00178917512924953 0.00962965 -0.9978586 0.06469569 189 192 193
0.109308583669066 -0.0376027844388645 -0.0212489217420038 0.114854 -0.9898091 0.08418168 188 190 189
0.107992187451419 -0.0373109069742463 -0.0175615739651142 0.1094943 -0.9847185 0.1354271 186 189 191
0.0579207544269599 0.00675906341114135 0.0170034507276968 0.4225774 0.5189778 0.7430278 181 190 194
0.11572937372255 -0.0358775879461313 -0.0158839389471167 0.1628169 -0.9849334 0.05828237 185 188 190
0.106061995641932 -0.0365682473851325 -0.0123571784907065 0.1028648 -0.993022 0.05767283 187 191 191
0.109655883589086 -0.0361550432099599 -0.010164951637238 0.1165661 -0.9896238 0.08400674 178 184 185
0.115672582949009 -0.0357793694128065 -0.0139590398208145 0.1486379 -0.9869277 0.06229309 183 186 187
0.115669789162851 -0.0354272857701143 -0.00987325058809396 0.1353968 -0.9850528 0.1064829 187 191 192
0.120017550365705 -0.0356671158584169 -0.019985320296206 0.08313377 -0.9906827 0.1078729 180 184 184
0.109925460414534 -0.0322076960528299 0.0198043499380284 0.04319229 -0.4089361 0.9115403 183 188 197
0.120030084881557 -0.0351642132356708 -0.018195463563033 0.08519086 -0.992026 0.09288173 185 187 185
0.123788809863818 -0.0355092007936357 -0.0198578584830111 0.0643428 -0.9942859 0.08517885 182 184 186
0.118113227511394 -0.035428895713299 -0.0137202612225705 0.1286832 -0.9898143 0.06089543 184 189 190
0.0407677150792047 -0.0164013952539442 0.0223832693477047 -0.03977269 0.160375 0.9862545 183 198 206
0.122055727814076 -0.0347063404761678 -0.0118944962832681 0.07793022 -0.9942787 0.07305376 194 196 197
0.124081492857482 -0.0347943194301818 -0.0138240445887564 0.09159974 -0.9924179 0.08195296 195 198 199
0.125790904465276 -0.0349605698133791 -0.013037490818529 0.1176075 -0.9901081 0.0765147 196 197 200
0.124001630384423 -0.0347708465745806 -0.00997859483295654 0.1058655 -0.9915038 0.07558274 181 185 185
0.105970484005515 -0.0365468547013026 -0.00510107062664245 0.08661974 -0.9923139 0.08837527 187 190 195
0.111747831992843 -0.0356188137743744 -0.0065855248881464 0.1186599 -0.9900547 0.07557447 189 192 192
0.105181933037324 -0.0362094125198889 0.000131066767933952 0.05425806 -0.9977275 0.03994931 189 191 193
0.109567165198138 -0.0353052376592918 0.00173516438369126 0.138221 -0.9868303 0.08402928 190 193 193
0.113346466350091 -0.034797068603091 0.00178767197190999 0.1391678 -0.9862291 0.08935566 189 192 193
0.119511875636512 -0.0347924934778341 -0.00802584069943502 0.07796209 -0.9926331 0.09274399 187 191 195
0.118226382061854 -0.0343975693395005 -0.0054811311743983 0.1151041 -0.9916834 0.05757762 194 196 198
0.120070778493289 -0.0341183189602871 -0.00385583880261231 0.06472365 -0.996888 0.0450015 205 207 212
0.12371672815247 -0.0339755912129938 -0.00391569862077379 0.08481473 -0.9943371 0.0640323 185 187 186
0.122757205421249 0.0326866266113442 0.0117087493624788 -0.4466596 -0.01541193 0.8945712 186 183 191
0.121892889707835 -0.0337617835386457 0.000244057731724034 0.07670965 -0.9953532 0.05820356 175 175 179
0.127692124039694 -0.0334382840302905 -0.00193064905051538 0.1400229 -0.9851602 0.09926195 189 191 192
0.127511646090223 -0.0331433300453095 0.000146079627325657 0.1177703 -0.9904042 0.07231697 188 191 191
0.0850944801858204 -0.0379022762220985 0.00477297318480852 0.1146431 -0.9878176 0.1052301 173 179 178
0.0915276562415094 -0.0371096886640593 0.00353015138642215 0.1305685 -0.985351 0.1097059 193 195 200
0.0912544663840464 -0.036774323640732 0.00725611611458943 0.1436718 -0.9847453 0.09815881 190 192 196
0.0872494457557297 -0.0370677630323038 0.00885075905726729 0.1012578 -0.9930544 0.05991419 183 188 189
0.0913914637067471 -0.0366978816347268 0.00925874899031032 0.1727249 -0.9827154 0.06660775 190 193 195
0.0953947530671756 -0.0365481098613744 0.00346871443044194 0.1577132 -0.9791589 0.1279622 188 193 198
0.0993418457873144 -0.0360546167603038 0.0034575570386185 0.07245361 -0.9955423 0.06038178 191 194 196
0.0951206332075813 -0.0358613400315962 0.00943161046601287 0.1427777 -0.9866421 0.0784347 184 187 188
0.0952352761881935 -0.0358064732516579 0.0113911327857187 0.1463542 -0.9876653 0.05565701 189 191 192
0.095482136605949 -0.0355489133474712 0.00786270882520723 0.1310762 -0.9855775 0.1070333 203 205 210
0.103137026417524 -0.0351341183924668 0.00961049653867752 0.07150669 -0.9924428 0.09971989 182 186 187
0.101424433477439 -0.0350944597627723 0.0118361474606639 0.04343327 -0.9947704 0.09244096 178 183 183
0.0852069332877724 -0.0368271412987324 0.0170747243858025 0.07332887 -0.9817937 0.1752256 195 198 200
0.0894244430692456 -0.0366022837729575 0.0153944262739424 0.172298 -0.9536397 0.2467483 192 193 197
0.0816283156190242 -0.0326370056792362 0.0163503083052941 0.05799676 -0.1434072 0.987963 183 193 199
0.0908140212663967 -0.0319973676309337 0.0168524505915268 -0.02632727 0.04509797 0.9986356 193 195 200
0.0872676238705174 -0.0363066513105839 0.0191045470888946 0.07063767 -0.9693922 0.2351361 190 195 200
0.084965702571859 -0.0356053878709195 0.0225657701770473 -0.05072759 -0.4129046 0.9093605 183 186 193
0.0925968028430245 -0.0354924371365897 0.0213996915751609 0.2189928 -0.6610854 0.7176408 187 192 197
0.0968585570027131 0.0537422950161792 0.01205386736876 0.2565299 -0.876439 0.4074886 169 175 182
0.0834292149956327 -0.0294673768824616 0.0191619295174943 0.3567083 0.9054446 0.2300637 182 186 193
0.0821385457099165 -0.0336355707948684 0.0208966792635213 -0.05861508 -0.1112854 0.9920584 183 188 200
0.0822537525840598 -0.0295687812374086 0.0210307022405317 -0.1207681 0.154386 0.9806018 182 184 194
0.0906473758262664 -0.0321769404500603 0.0188669285148443 0.1706047 0.8091689 0.562263 189 192 199
0.0929813393591009 -0.0316235803607899 0.0223061402828164 -0.1244039 -0.1026406 0.9869086 189 193 202
0.0901101478586896 -0.0302222216180143 0.0217867498817653 -0.03237212 0.03549238 0.9988455 182 184 194
0.0969800384620153 -0.0355572261270556 0.0153514746338907 0.08677779 -0.9916225 0.0956787 187 189 192
0.0979696100865561 -0.0351640667400082 0.0131365472640538 0.05267648 -0.9972404 0.0523132 183 190 191
0.0944995251194369 -0.0314328654090926 0.0177498098799422 -0.1616015 0.037131 0.9861573 196 201 207
0.103185838187495 -0.0347516425508427 0.0155128980846596 0.0999938 -0.9848264 0.1418386 178 181 179
0.103092100797276 -0.034620761673296 0.0174497533354574 0.04868724 -0.9525093 0.3005919 182 185 182
0.100525076250333 -0.0298251718033345 0.0160026002515326 0.2899286 -0.01511611 0.9569289 188 190 201
0.0969733497315259 -0.0351507689854439 0.0194322243810872 0.06607882 -0.9652342 0.2528965 185 188 193
0.0942489597234545 -0.0342718865012638 0.0191075273122276 0.1191898 0.6561368 0.7451701 182 189 197
0.0932044256186556 -0.029982821127361 0.0208971724325262 -0.4465086 0.6407822 0.6245224 182 186 194
0.0977321808047888 -0.0298473112440227 0.0210912693762177 0.2105887 0.2303564 0.9500465 183 187 195
0.100923161011044 -0.0341007612490273 0.0215465132268878 0.1953285 -0.7178763 0.6682069 198 200 209
0.0992146925500574 -0.0301958811819901 0.0212232103669142 0.218473 0.144668 0.9650599 176 182 189
0.10065432246094 -0.029433347988611 0.0211209608790623 0.1459478 0.01144694 0.989226 189 194 201
0.0865786553899849 -0.0251069334231827 0.0168789468152694 0.009049634 0.43683 0.8994986 188 192 200
0.0843215172153259 -0.0224817155435308 0.0151060306068793 -0.1969291 0.134599 0.9711344 181 187 194
0.0875582937950707 -0.0215743699633886 0.0150884627432183 0.05940112 0.2437226 0.9680242 183 190 196
0.0832327352514689 -0.0258259379094063 0.0181285457944863 -0.129136 -0.2380966 0.9626182 185 189 197
0.083370242384068 -0.0257666085949307 0.0218865803608811 0.1037764 0.006852943 0.9945771 176 181 190
0.0883341760808289 -0.0258306090929523 0.0177878971912936 0.3151109 0.06662065 0.9467137 186 191 199
0.088747003391518 -0.023751413001799 0.0188537257632019 -0.5799242 0.8032735 0.1357924 181 187 197
0.0873940447501368 -0.0252880889604141 0.0208372277022598 0.008112989 -0.04080528 0.9991342 179 183 194
0.0908040873443327 -0.023579171302154 0.0217774244706007 -0.04628613 0.2162269 0.9752454 197 201 209
0.0847814881768511 -0.0217335864604126 0.0201492537184905 -0.2682135 0.4898413 0.8295282 178 184 192
0.0823533937214639 -0.0203517417490467 0.019327652496162 0.7596751 0.3941573 0.5172366 182 185 193
0.0854637289357562 -0.0205371338694311 0.0191550316201995 -0.9114552 0.171123 0.3741208 176 185 190
0.0870937948607141 -0.0183869776393019 0.0195654993664748 0.08384133 -0.1314061 0.9877768 179 183 191
0.0826000037050486 -0.0175486183128969 0.0214358924917973 0.00638609 -0.01663352 0.9998413 181 185 191
0.0906156759670688 -0.0184385436082575 0.0180270892369271 0.9318645 0.361477 0.03102988 181 187 192
0.0923218734908306 -0.0214843404665163 0.0202643237572341 0.1066091 -0.07432577 0.9915192 179 183 196
0.0908516149273166 -0.0178047884795269 0.0213881856955092 0.09655541 0.03333491 0.9947692 196 200 210
0.0950735680050336 -0.0199545214740831 0.0164706241793573 0.7529669 -0.02761688 0.6574786 185 192 196
0.102541275621462 -0.0183711514095005 0.0146518920153089 -0.1684932 -0.06548631 0.9835251 189 193 202
0.0968239299644439 -0.0269041142107742 0.0193113305447575 0.710565 0.4656948 0.5274711 181 187 194
0.0978042671031242 -0.0254267752545247 0.0177951724727325 0.3379469 0.5514922 0.7626587 199 201 206
0.0942747247034312 -0.0256099553985905 0.0218597531693301 0.1750694 0.08163752 0.9811656 202 204 213
0.0966609435278409 -0.025474991995663 0.0217808532533937 0.1059984 0.09838131 0.9894875 198 201 210
0.103039520435266 -0.0277476863015181 0.0208620008892104 -0.01033812 0.04708049 0.9988376 199 199 208
0.0998542448097212 -0.0276072811078221 0.0221480691085983 0.1075394 0.1414279 0.9840901 193 199 206
0.0948010130138025 -0.0225384918248819 0.0185997209471988 0.7510234 0.02533617 0.6597893 185 188 196
0.0975122547622635 -0.0215073174245772 0.0209270453396221 -0.00234913 -0.1147396 0.9933928 189 191 199
0.0618715769023798 0.00989104766117627 0.0196361436611175 -0.1518446 0.2356546 0.9599011 202 202 215
0.0993668988228091 -0.0219558961612643 0.0177386116587505 -0.1215419 0.9740114 -0.1911264 188 193 194
0.102468242394712 -0.0210488342904719 0.0193860228376497 0.6932203 0.588527 0.4160308 187 190 189
0.100765721768852 -0.0192144896031202 0.021163484565626 0.1348508 0.1218158 0.9833495 193 197 205
0.101556841977858 -0.0178836703620148 0.0209959954446921 0.1137803 0.2720155 0.9555426 198 203 206
0.107576239430133 -0.0353281453707827 0.00389076711458619 0.1138862 -0.9891434 0.09287208 190 193 194
0.10526011321303 -0.035179450663506 0.00755155835917876 0.09721144 -0.9908782 0.09332923 181 184 185
0.109226413690717 -0.0345136024195882 0.00967689321395271 0.1292366 -0.9891205 0.07027397 182 184 183
0.109342635672037 -0.0343889260387933 0.0116646370639111 0.1379489 -0.9840969 0.1119073 186 189 188
0.111187329614166 -0.0341744086214342 0.0116483465603652 0.1342016 -0.9857622 0.1013054 180 184 183
0.114781841504623 -0.0337475968012227 0.0138858074298384 0.1240291 -0.9832624 0.1334607 191 194 200
0.121338254698828 -0.0340719430049517 0.00424862115965829 0.06713147 -0.9945945 0.07921597 173 178 179
0.121289079332724 -0.0339197609559131 0.00592068767573084 0.04694714 -0.9962264 0.07299993 183 184 186
0.12296845866832 -0.0339352906384299 0.00439539799224403 0.09766635 -0.9935997 0.05675264 183 186 188
0.127211797737492 -0.0329019108640167 0.00407670762346551 0.1206748 -0.9926016 0.01340244 185 188 191
0.125187527037044 -0.0330429308159934 0.00815105954103168 0.1150381 -0.9905444 0.07475334 181 184 186
0.119150066184481 -0.0333890618900766 0.00838917692937502 0.09648227 -0.9912886 0.08965551 174 181 180
0.121204478666127 -0.03295220554146 0.0120916688248253 0.06024481 -0.9943858 0.08699144 187 190 190
0.1230884797572 -0.0335509526167444 0.00753865729754077 0.06247548 -0.9955148 0.07104389 186 188 191
0.124521897563657 -0.0334655337539239 0.0094213202439607 0.08420675 -0.9922441 0.09143788 188 188 189
0.127233641398259 -0.0326019842177861 0.012061620604357 0.07926738 -0.9911007 0.1069397 183 186 189
0.110023711279276 -0.0355065411342136 0.0150241242718088 0.09009319 -0.9910296 0.09870952 163 167 167
0.104895573165433 -0.0343884376221533 0.0152191994002652 0.2345946 -0.9576147 0.1671512 175 177 176
0.107075225252495 -0.0319845650971335 0.0178619088509032 -0.5649161 0.4945887 0.6604936 194 198 207
0.115497572218526 -0.0329564900659242 0.0152274683984536 -0.002783156 -0.9649934 0.2622592 183 188 190
0.0483308837939546 -0.0378888444064123 0.0237285554560019 0.04408056 -0.08770152 0.995171 198 203 209
