ply
format ascii 1.0
comment File exported by Rhinoceros Version 7.0
element vertex 467
property float x
property float y
property float z
property float nx
property float ny
property float nz
property uchar red
property uchar green
property uchar blue
end_header
-0.0668321433369255 -0.043780230987996 0.0227961327821881 0.007331337 0.005166641 0.9999598 143 143 143
-0.0625097486082649 -0.0463615889439286 0.0226366605550916 -0.006768596 -0.003241552 0.9999719 122 122 122
-0.0604517343346214 -0.0465063090214433 0.0231091763765485 -0.01030667 -0.003914725 0.9999392 114 114 114
-0.0599609347883797 -0.0442841286549271 0.0225941326410443 -0.008198863 0.006733147 0.9999437 94 94 94
-0.0692415269915199 -0.0403729910740556 0.0224774863512189 -0.007886633 -0.01709266 0.9998228 118 118 118
-0.0628276499811745 -0.04016747425887 0.0223223652631909 -0.02303302 -0.005843366 0.9997177 174 174 174
-0.0667205932442284 -0.0382160181889237 0.0227054741174847 0.02132699 -0.01521757 0.9996567 163 163 163
-0.0696876975599861 -0.0372268195042313 0.0232966627866895 0.01587357 -0.01694387 0.9997304 101 101 101
-0.0446791979376412 0.0636374716868697 0.0234057392866284 0.001495196 -0.01645857 0.9998634 93 93 93
-0.0624818685356713 -0.036141538132161 0.0232220377714307 -0.0005363581 -0.01175887 0.9999307 110 110 110
-0.0606302055422402 -0.0358153815159501 0.0230702843458325 0.002700952 -0.007859968 0.9999655 114 114 114
-0.100719663769398 -0.0440416569599809 0.00595224759885377 -0.9553045 -0.1250169 -0.2678881 63 63 63
-0.10230361250082 -0.0379277701267899 0.00813225767919129 -0.9652821 -0.09589488 -0.2429703 155 155 155
-0.101545113593731 -0.0361719365009965 0.00389013550588196 -0.9428746 -0.09696119 -0.3187256 91 91 91
-0.0244671585861778 -0.0938506359944047 0.0226991560251386 0.009712574 0.007381334 0.9999256 115 115 115
-0.103129047423992 -0.0357938046345414 0.011551507929054 -0.9517982 -0.06885112 -0.2988975 93 93 93
-0.102095398575459 -0.0324305529484452 0.0054069545061261 -0.9546088 -0.08298033 -0.2860704 50 50 50
-0.0992695721689797 -0.0337038273701371 -0.000657907506737054 -0.9200568 -0.09076945 -0.3811252 99 99 99
-0.0287728044096565 -0.0401014323124589 0.0227286007196576 0.001874119 -0.02945714 0.9995643 109 109 109
-0.0994703653160668 -0.0285241837391557 -0.00192927457979614 -0.9448884 -0.114995 -0.3065325 112 112 112
-0.0999946179691887 -0.0241106982121171 -0.00225975253275329 -0.950125 -0.1092856 -0.2920945 83 83 83
-0.101411256462727 -0.0284778113255204 0.00322822592565125 -0.9251828 -0.07961126 -0.371078 85 85 85
-0.102452340990696 -0.0245468850025834 0.00373108051129883 -0.9279903 -0.1008973 -0.3586834 94 94 94
-0.100920456916485 -0.0218296284565629 -6.92222326129088E-05 -0.9384484 -0.1170614 -0.3249789 82 82 82
-0.100518885523472 -0.0319891209492387 0.023042031744209 -0.01199229 0.007768354 0.9998979 116 116 116
-0.10036272135416 -0.0296367640385331 0.0225946392805249 -0.00606595 0.002679192 0.999978 131 131 131
-0.0951795759502983 -0.0328978533634843 0.0231463696748883 -0.007145595 0.01343066 0.9998842 122 122 122
-0.0382318678204155 0.20822165061143 0.023637929180351 -0.01214758 0.009317827 0.9998828 126 126 126
-0.092398378521595 -0.0301280255207719 0.0231131102831036 0.003185629 0.01863874 0.9998212 146 146 146
-0.0868731471602059 -0.030114197243184 0.0228411342889935 -0.009505173 0.0004577158 0.9999547 77 77 77
-0.0863749119345284 -0.0306056971440019 0.0231491412908704 -0.0104575 0.003077533 0.9999406 144 144 144
-0.103976804286633 -0.0275639529118241 0.00989569089719361 -0.9494277 -0.1347798 -0.2835869 73 73 73
0.0635273908372783 0.176411009322673 0.00150109193631714 0.98485 0.09071547 0.1477877 149 149 149
-0.103419068724308 -0.0200706953892411 0.00538418553182191 -0.9254951 -0.1248844 -0.357579 77 77 77
-0.0786410900656319 -0.0319446558842362 0.0227069940359265 0.0130597 0.01877327 0.9997385 97 97 97
-0.078923675686512 -0.0292343134770097 0.0230269219667584 0.0116341 0.004737131 0.9999211 167 167 167
-0.0738818230930901 -0.0319252247700395 0.0231862153799207 -0.00262708 0.01846192 0.9998261 126 126 126
-0.0726771238152123 -0.0314145321736039 0.0230768110544354 0.003223129 -0.01914987 0.9998114 105 105 105
-0.0729894521538353 -0.0292721028217973 0.0230505850107343 -0.02277036 0.01055439 0.999685 103 103 103
-0.0692415120903588 -0.0321901078114213 0.0231416013033063 -0.0178063 0.003001395 0.9998369 132 132 132
-0.0648466232124901 -0.027832531441182 0.0225960101873547 0.02733841 0.01396445 0.9995287 145 145 145
-0.0596486064497566 -0.0331269736180009 0.0227809335977704 0.01956033 0.008231664 0.9997748 111 111 111
-0.0627049538199043 -0.0303385491261186 0.0231133487016827 0.01953142 0.01227573 0.9997339 100 100 100
-0.0967858317200279 -0.0281852717289628 0.0228522207529218 8.743301E-05 -0.001547841 0.9999988 103 103 103
-0.104177582532558 -0.0249685282597245 0.0227758374006421 -0.07587384 0.03170229 0.9966133 125 125 125
-0.0988457086388207 -0.0239075655827226 0.0231245543749005 0.01314106 0.0006633018 0.9999135 121 121 121
-0.0989275011126137 -0.0222254032978715 0.022811957815376 0.02230161 -0.01871845 0.999576 95 95 95
-0.0950159761015511 -0.0241881842503251 0.0227606978208691 -0.01649922 0.004702281 0.9998528 89 89 89
-0.0830285432640648 -0.0279808277973832 0.023136505106178 -0.00918218 -0.003555941 0.9999515 124 124 124
-0.0925768497292137 -0.0247603888401688 0.0228559758455426 0.006825297 -0.02202448 0.9997341 157 157 157
-0.0905957999531365 -0.0226359600910844 0.0227673437387616 0.004257866 0.007444789 0.9999632 68 68 68
-0.0888735386435127 -0.0218634838947953 0.0228572275430829 0.0006955256 0.0008440325 0.9999994 107 107 107
-0.0824187728468514 -0.0238930220493974 0.0231197860033185 -0.0100112 0.004346517 0.9999405 125 125 125
-0.0855717840496636 -0.0216545100102128 0.0229105737001569 -0.01824598 -0.00035516 0.9998335 106 106 106
-0.103820640117321 -0.0197515721211137 0.0230343725473554 0.007822629 0.006644343 0.9999473 173 173 173
-0.100518885523472 -0.0180232758412064 0.0227674629480512 0.006663803 -0.0159882 0.99985 83 83 83
-0.101924363047276 -0.0180582041630448 0.0231316771299512 -0.00288258 -0.004824261 0.9999842 113 113 113
-0.103396761686001 -0.0146033997425736 0.0230991329939038 0.01622757 0.01081297 0.9998099 145 145 145
-0.0970832886997795 -0.0150835747608842 0.0230051066667706 0.00337378 0.0001489777 0.9999943 83 83 83
-0.103002640873585 -0.0120630497822465 0.0228674497396619 0.04068213 0.0002719072 0.9991721 105 105 105
-0.0983995231691933 -0.0119103426823319 0.0227190937788159 0.006011416 -0.005160699 0.9999686 119 119 119
-0.100440803438816 -0.00979044388625039 0.0226499523908765 -0.02487863 0.004643355 0.9996797 112 112 112
-0.096614796191845 -0.013712191093892 0.0228828873426587 -0.01788983 0.00766157 0.9998106 114 114 114
-0.0972171458307839 -0.0110587115177812 0.0229576911718518 0.007588518 -0.0062963 0.9999514 183 183 183
-0.108773249656353 0.0284750228038131 0.00697631500073975 -0.9123161 0.3300699 0.2423494 112 112 112
-0.0938261481825447 -0.00892140816542519 0.0226713802606732 0.002554897 -0.01280779 0.9999147 170 170 170
-0.0870218756500817 -0.0208347077259721 0.0230286206991345 0.0003626721 -0.008474999 0.999964 114 114 114
0.109253619342651 -0.107987427223653 -0.00399734713724548 0.9843352 0.155806 -0.08251524 83 83 83
-0.0913721504513359 -0.0157933468708695 0.0227127458841473 -0.01064578 -0.01743797 0.9997913 87 87 87
-0.0888958456818199 0.0302837853541671 0.022508242347923 0.01456263 -0.0003955419 0.9998939 128 128 128
-0.08459018495718 -0.0172778601536454 0.0231165077478558 0.001991998 0.004795169 0.9999865 167 167 167
-0.082969057828579 -0.0159479613194169 0.0226340975553662 -0.01466933 -0.01497878 0.9997802 144 144 144
-0.0887619885508156 -0.0120328898319901 0.0230416145116956 0.01025441 -0.0007521005 0.9999471 154 154 154
0.0538601135011577 -0.054773711670369 0.0230245675832898 0.005215275 0.0002224824 0.9999864 116 116 116
-0.0829839291874504 -0.0136317248234452 0.0228851523191602 0.002738388 0.004868567 0.9999844 130 130 130
-0.0849768700901604 -0.0103085274586381 0.0228385712892682 -0.001700004 0.005997242 0.9999806 102 102 102
-0.0828500869576073 -0.0104438300022782 0.0230988647730023 -0.01894026 -0.005672721 0.9998045 155 155 155
-0.080686080724392 -0.0277401442417802 0.0227224316389233 0.003833692 -0.02056731 0.9997811 105 105 105
-0.0762019636932945 -0.0259585614094437 0.0227643933088452 0.01085328 0.002029454 0.999939 137 137 137
-0.0806191596094704 -0.022611641396016 0.0227556612283856 -0.009568105 0.02326544 0.9996836 105 105 105
-0.0762019636932945 -0.0216379399189652 0.0226500119955212 0.01401509 0.02577293 0.9995696 109 109 109
-0.0719186100069618 -0.0270066494831742 0.0230526115686566 -0.01144996 -0.001192243 0.9999337 129 129 129
-0.0228513362709618 0.0139944319835006 0.0232045438081891 0.006241193 0.01753407 0.9998268 136 136 136
-0.0725432666842079 -0.0212649340519608 0.0231402601987988 -0.00308928 0.01814392 0.9998306 144 144 144
-0.0674568000141716 -0.028189205635518 0.0228458728582532 -0.009139111 0.01265142 0.9998782 118 118 118
-0.0527439447943306 0.00987789679673301 0.0231985237390668 -0.03795425 0.01057054 0.9992236 88 88 88
-0.0669065001312828 -0.0235854620823563 0.0231903579027326 0.007941092 0.01298169 0.9998842 126 126 126
-0.0694423052374459 -0.0213878388294877 0.0231120373994977 0.0113754 0.002600799 0.9999319 113 113 113
-0.0603178772036171 -0.0243062014469804 0.0229925896913678 0.004461827 -0.01141615 0.9999249 115 115 115
0.0449141678508186 -0.0557357306370438 0.0233378495962293 -0.0005956817 -0.003671947 0.9999931 123 123 123
-0.0807827594582176 -0.0179199213871659 0.0227641548902661 -0.01798239 0.004111681 0.9998298 123 123 123
-0.0272855344120598 0.0861134295573531 0.0237219419271619 -0.01655315 0.003281824 0.9998576 123 123 123
-0.070691618591938 -0.020156168449849 0.0227877583295972 -0.03284782 -0.007815266 0.9994298 113 113 113
-0.0769456061426735 -0.0161204571613969 0.0233390118868024 0.0009203436 -0.00452723 0.9999893 76 76 76
-0.071115482122097 -0.0175143713841142 0.0231594230920941 -0.001730099 -0.005324674 0.9999843 145 145 145
-0.0807084026638603 -0.0137149329075517 0.0225423362047345 -0.00301689 0.00235281 0.9999927 181 181 181
-0.0767373773161507 -0.0111152167210282 0.0232037093431622 0.01234864 -0.01360968 0.9998311 112 112 112
-0.0723647954765892 -0.012766146172017 0.0229218985826642 -0.003242397 0.03196245 0.9994838 79 79 79
0.105706472426262 -0.0834398503193559 -0.0206180725305408 0.9859115 0.133409 -0.1008984 97 97 97
-0.070297497779522 -0.0102060074696244 0.0228620853216321 0.002138402 -0.004403593 0.999988 75 75 75
-0.0652481946055031 -0.0200764174351395 0.0222638633043439 0.008546228 0.01388355 0.9998671 87 87 87
-0.0646012308899498 -0.018923782814473 0.0230948712618024 -0.001948812 -0.01466908 0.9998905 111 111 111
-0.0585220041576958 -0.0199777121433915 0.0227154280931622 0.007514934 0.01128035 0.9999081 116 116 116
-0.0684116217199898 -0.0158794159779252 0.0226929869444043 0.001507899 0.00177991 0.9999973 105 105 105
-0.0601394059959984 -0.0163575644383134 0.0228206302911908 0.01205933 -0.002358713 0.9999245 144 144 144
-0.0661182436052895 -0.0134709114918412 0.0228896822721631 -0.001841342 -0.005201277 0.9999848 124 124 124
-0.0681930067841149 -0.0115527148136796 0.0231356408388287 -0.02347115 0.009683102 0.9996776 137 137 137
-0.0706098112169838 -0.00781097363325967 0.0230988349706799 -0.0009570371 -0.003729698 0.9999926 141 141 141
-0.0649135592285729 -0.00789930771681679 0.0230839636118085 0.003851488 0.009886324 0.9999437 100 100 100
-0.0606748196188545 -0.0120659108051957 0.0231149878294141 -0.01064976 -0.01018619 0.9998914 117 117 117
-0.0622922363583183 -0.00807299565169228 0.0232059445173413 0.01911689 -0.008863945 0.999778 100 100 100
-0.0583398076597786 -0.00778784703108681 0.0227157261163861 0.02480987 0.006209993 0.9996729 93 93 93
-0.00885635194221499 0.0159423117747604 0.023202457645622 0.003383019 0.0123649 0.9999178 132 132 132
0.0506985974605942 -0.104109668243855 0.0228002157003552 -0.001676471 -0.009717793 0.9999514 113 113 113
0.0168567490871811 -0.112091207016438 0.0226994540483624 -0.002610337 -0.006517427 0.9999754 148 148 148
0.034718905120697 -0.0265196795353593 0.0229053880960614 -0.01397002 0.02776906 0.9995167 128 128 128
-0.0422921362225151 0.266359544288188 0.0238438036234052 0.009903383 -0.01394763 0.9998537 153 153 153
0.0595154729779625 0.16422066737321 0.0237173225671918 0.3407605 -0.06795049 0.9376913 131 131 131
-0.0684532704655266 0.101750112067729 -0.00162824132135803 -0.940822 0.3299342 -0.07744268 66 66 66
-0.104588064819965 0.0399094586482345 0.0143330182821423 -0.7643609 0.6095455 0.2102537 85 85 85
-0.0568822803799248 -0.0245234007725419 0.0232340779096753 -0.0222261 0.0001624519 0.9997529 120 120 120
-0.0183470132652855 0.134007430564433 0.0235459890157849 0.001694728 0.0001392309 0.9999986 102 102 102
0.0318782073553467 0.245682812224895 0.0237867023737103 -0.005939976 -0.006141447 0.9999635 67 67 67
0.0271932971771622 0.229662395011455 0.0238217797071607 -0.001456492 -0.007728287 0.9999691 121 121 121
-0.0548298391405678 0.0906921391597091 0.0229061033517987 -0.01501047 0.001184968 0.9998866 107 107 107
0.0050924089845085 0.242704964171916 0.0239503171236188 0.002592563 -0.01467062 0.999889 93 93 93
-0.00921887484231951 -0.102414869774312 0.0224978413374097 -0.01884334 0.003160646 0.9998174 93 93 93
-0.0744841578308678 0.140094972144633 -0.00215604045084411 -0.9906873 -0.1077652 0.08321816 146 146 146
0.0262860623296165 0.114785290252238 0.0237094547540814 0.0008494196 -0.004837326 0.999988 95 95 95
0.110659093141165 -0.123213552940816 -0.00359120108774597 0.9849541 0.1564595 -0.0733889 99 99 99
-0.0904574873749352 0.0616537098994552 0.0157238032610089 -0.8990597 0.4306286 0.07906149 70 70 70
0.0455611241157913 0.305436945449382 0.0117553558141858 0.9566507 0.2911251 -0.008108119 79 79 79
-0.00200188484827044 -0.071795367706746 0.0230025138647229 0.002057179 -0.0003288049 0.9999979 111 111 111
-0.0804518493715859 0.185769057761699 -0.00420101620844299 -0.9831622 -0.1774086 0.04379763 125 125 125
0.0191917684968376 0.186311460029155 0.0237132098467023 -0.001167313 0.001203229 0.9999986 112 112 112
0.107803527742233 -0.100623988617391 -0.00632130243471557 0.9965603 0.08286203 -0.001151094 89 89 89
0.0448918533619308 0.0110658173671065 0.0228884603769452 -0.01169482 -0.006177109 0.9999126 237 237 237
-0.0380087825361824 0.279152250777751 -0.0140550945012897 -0.3968042 0.9178945 0.004000891 104 104 104
0.100084577232208 -0.0525931353459062 -0.00424849130800659 0.9798291 0.1647556 -0.1130957 125 125 125
-0.0108697446886635 0.200114226829082 0.0237734403402478 -0.01388391 0.007266495 0.9998772 162 162 162
0.0973628671016359 -0.015994095314473 0.0072261478693158 0.9894696 0.1364756 -0.04821092 134 134 134
-0.106096166640911 -0.0137390131840409 0.0104466464311749 -0.9579809 -0.1455855 -0.2471383 88 88 88
-0.0406077834669686 -0.0578140253910722 0.0226261999399335 0.003901819 0.004211796 0.9999835 127 127 127
-0.106787744433079 -0.00599362801405801 0.00906808040448731 -0.9360841 -0.09783782 -0.337897 104 104 104
-0.105181488663349 -0.00440015744063271 0.00283030531713074 -0.9056913 -0.1106911 -0.4092319 96 96 96
-0.105337652832661 0.000511861335307229 0.00394687912770814 -0.909462 -0.1349272 -0.3932855 88 88 88
-0.10576151636282 0.00437018920090781 0.00241533778020447 -0.9076282 -0.1981973 -0.3700391 126 126 126
-0.104802239209805 0.0100004439463912 -0.00166591145685607 -0.9109985 -0.1305835 -0.3911902 98 98 98
-0.108579907089863 -0.00628139923903359 0.0155407871992261 -0.9763997 -0.08259578 -0.1995533 134 134 134
-0.107702422410641 -0.00422527741286172 0.010671653965202 -0.9457603 -0.1084154 -0.306241 98 98 98
-0.108014750749264 -0.0018422837147416 0.0100208010465772 -0.9388178 -0.1149941 -0.3246499 111 111 111
-0.109286356240902 -0.00605609368178261 0.0200595941335828 -0.9674413 -0.06167679 0.2454657 61 61 61
-0.109330985218678 -0.00178255986067666 0.0194218542368085 -0.9569841 -0.1659432 0.2380007 150 150 150
-0.108193221956882 0.000651216994792092 0.0109329607278973 -0.9532598 -0.08834215 -0.288949 91 91 91
-0.108025896817837 0.0036811595073043 0.00852082035848206 -0.947892 -0.1148045 -0.2971879 108 108 108
-0.107523951203022 0.00534877825883018 0.00788382551976746 -0.9385535 -0.1501127 -0.3107788 117 117 117
-0.109244931012783 0.0018810992350875 0.0138857748300702 -0.9662511 -0.1059529 -0.2348036 127 127 127
-0.109531763464603 0.00143740225937949 0.0157584931642682 -0.9705917 -0.1239518 -0.2063682 99 99 99
-0.109754848748837 0.00567290831711875 0.013946720579353 -0.9636282 -0.08881675 -0.2520561 102 102 102
-0.107434708148632 0.00770387698319541 0.00777695439168519 -0.9510061 -0.1141056 -0.2873453 73 73 73
-0.109174821049366 0.00693318892624961 0.0118405606538922 -0.9604819 -0.08838538 -0.2639366 55 55 55
-0.106988537580166 -0.00609030674788369 0.0230297531873853 -0.2845719 -0.07542594 0.9556829 110 110 110
-0.107390094072018 -0.00325014542433633 0.0230665292532117 -0.4139579 0.01810234 0.910116 102 102 102
-0.108594793349895 -0.00157811592909707 0.0232560720235974 -0.5136061 -0.01577979 0.857881 157 157 157
-0.110044884950314 -0.000348114479512107 0.0195891942770154 -0.9774806 -0.1212706 0.1726992 155 155 155
-0.107010829717312 0.00422189284470664 0.0225964274198682 -0.3960582 -0.1727174 0.9018351 185 185 185
-0.110290277272854 0.00577566672471153 0.0177657093794019 -0.9969285 -0.07411411 -0.02531093 111 111 111
-0.110892612010632 0.00811777163651572 0.0196546997816235 -0.9721224 -0.05706738 0.2274231 126 126 126
-0.109442535311375 0.0117162232508956 0.011826940992561 -0.968587 -0.1041354 -0.2258207 115 115 115
-0.111004162103329 0.00969443370011436 0.0220234479696423 -0.8905203 -0.07508999 0.4487038 191 191 191
0.0955112115587854 -0.040218972671956 0.0231642808706433 0.01392097 -0.02422688 0.9996095 121 121 121
-0.10846092131773 0.01063499499467 0.0225090768129498 -0.4150974 0.03709022 0.9090206 129 129 129
-0.110881465942059 0.013834572326213 0.0176649477274091 -0.9919252 -0.09831601 -0.08011402 142 142 142
-0.111286747724209 0.0145439868083297 0.0218848075658948 -0.8711534 -0.07981464 0.4844805 155 155 155
-0.10627463784853 0.010212278853923 0.0013607229978711 -0.9259205 -0.1002003 -0.3641854 105 105 105
-0.107289690047894 0.0137856965174972 0.00359702966519898 -0.9339512 -0.1157563 -0.3381356 100 100 100
-0.104817110568676 0.0140089755168258 -0.00347586610010558 -0.9173375 -0.1599143 -0.3645811 74 74 74
-0.107590872317944 0.0117853646388351 0.00571946165868348 -0.9489174 -0.1132306 -0.2945075 100 100 100
-0.109063270956669 0.0115661387553512 0.0102009262830884 -0.9633579 -0.1076256 -0.2456794 96 96 96
-0.107166993886623 0.0151469473948775 0.00284928939649171 -0.9290844 -0.1495494 -0.3382858 108 108 108
-0.0200990321938133 0.286719656478435 0.00180143974134034 -0.3579002 0.9337448 0.005288261 90 90 90
-0.104646075040493 0.018463945876628 -0.00567965843370849 -0.9222101 -0.1705601 -0.3470415 152 152 152
-0.10457913902441 0.0202806954493819 -0.00710775592020446 -0.9268517 -0.1899696 -0.3238171 62 62 62
-0.1046683820788 0.0236998562922774 -0.00828953721216613 -0.9113897 -0.2634289 -0.3161866 54 54 54
-0.107925507694874 0.0203991894831954 0.000979581096854865 -0.9025408 -0.2296751 -0.3642382 91 91 91
-0.10835682180563 0.02187607337144 0.00201983115979737 -0.9048674 -0.2496487 -0.3448052 102 102 102
-0.110513362557087 0.0280408625712691 -1.81112497180114E-05 -0.9426576 -0.2802504 -0.1812632 78 78 78
-0.110834616691265 0.0185075764766036 0.0121274378091962 -0.9762174 -0.1567655 -0.1497468 116 116 116
0.0979652111526394 -0.0540384287724198 0.0228533830434949 0.06959571 0.09689815 0.9928581 71 71 71
-0.109464842349682 0.019081211577922 0.00820315740415162 -0.9367191 -0.2230636 -0.2698147 97 97 97
-0.11149496164957 0.0186180834880172 0.018331178644386 -0.9898397 0.1077481 0.09277746 125 125 125
-0.111346248060856 0.0220758681407272 0.012197532871452 -0.9995391 0.01749637 -0.02480776 111 111 111
-0.0513496282402611 -0.112005614746541 0.0230319883615643 -0.01667851 -0.006241523 0.9998415 99 99 99
-0.109933334857616 0.0254952674022018 0.0134247031004102 -0.9532508 0.2937668 0.07081006 64 64 64
-0.110435295373592 0.0256968503108321 0.0044127192289502 -0.9914353 -0.10845 -0.07276363 105 105 105
-0.111338797480259 0.029686189185649 0.000464686372962653 -0.9618425 -0.2711695 -0.03641498 90 90 90
-0.109933334857616 0.0326146845927535 0.00417143962689942 -0.8038294 0.2446262 0.5422327 143 143 143
-0.1067505660359 0.0339464907756148 0.00786519906827515 -0.9472286 0.3089861 0.08535601 55 55 55
-0.106497723132763 0.0359979634394942 0.00755370519467896 -0.9515518 0.2757173 0.1361218 64 64 64
-0.0997603717152214 -0.0236276621708573 -0.00398861505678588 -0.9555452 -0.1095264 -0.2737467 116 116 116
0.0114728179868126 0.112070298682719 0.0235152926237256 0.005241726 -0.004385694 0.9999766 138 138 138
-0.100976217061672 -0.0182930464634599 -0.00190376379183227 -0.9385963 -0.07559343 -0.3366342 106 106 106
-0.102504390746746 -0.0181857581028642 0.00175438187429017 -0.9188353 -0.1265517 -0.3737999 88 88 88
-0.10219951298872 -0.0138955349812211 0.000197925785270392 -0.9106036 -0.0659854 -0.4079792 76 76 76
-0.0990464868847466 -0.0127024884113969 -0.0105016741960376 -0.9745198 -0.04968825 -0.2187286 59 59 59
-0.0985854300562477 -0.0141333575138749 -0.0114127609937518 -0.9809816 0.0001453213 -0.1941006 80 80 80
-0.0975294741694069 -0.00843825291487588 -0.0159647081106036 -0.965055 -0.1191627 -0.233386 100 100 100
-0.0987676265541649 -0.00595500420424355 -0.0118341062276691 -0.9693218 -0.09910801 -0.2249283 82 82 82
-0.10002808597723 -0.0110171074757279 -0.00529181101015502 -0.9500354 -0.1515737 -0.2728702 124 124 124
-0.100898134977016 -0.0063053603062333 -0.0062173221319049 -0.9520441 -0.09293329 -0.2915056 54 54 54
-0.100898134977016 -0.00432112168166054 -0.00611805059603149 -0.9565295 -0.05789693 -0.2858308 59 59 59
-0.0521973702017403 0.269195414077312 0.0242518868238599 -0.1473328 0.3277394 0.9332095 131 131 131
-0.102651644021664 -0.0081359381565751 0.000179627159324347 -0.9103208 -0.1138359 -0.3979415 92 92 92
-0.10415526059309 -0.0075953240284623 0.00264734885999268 -0.9085665 -0.0978631 -0.4061154 61 61 61
-0.102917108208332 -0.0061757798084916 0.000164964416709601 -0.9128517 -0.09073307 -0.398082 99 99 99
-0.10230361250082 -0.00238075207564248 -0.00205536820581848 -0.9241016 -0.0725019 -0.3752062 99 99 99
-0.102682876855526 0.000380492698222268 -0.00185059644869262 -0.918952 -0.1642525 -0.3585364 76 76 76
-0.09775255945364 -0.00143208454939736 -0.0185649309366077 -0.9320496 -0.07531142 -0.3544175 62 62 62
-0.0967263313833809 0.0021472935786544 -0.022137663146767 -0.922398 -0.09115352 -0.3753304 79 79 79
-0.0977748664919472 0.00382158805039512 -0.0191718850343555 -0.9419597 -0.1067349 -0.3183073 80 80 80
-0.0998719218079186 0.00334630061295615 -0.0132925126760333 -0.9613828 -0.1132491 -0.250834 66 66 66
-0.0988233866993523 0.00372073699143516 -0.0164759371488422 -0.9519873 -0.1080623 -0.2864311 74 74 74
-0.0970535459820366 0.00600729037430869 -0.0224899265973895 -0.9296194 -0.1370703 -0.342081 87 87 87
-0.0974848451916313 0.0100235705485641 -0.0217947576253741 -0.9266506 -0.1760729 -0.3321399 68 68 68
-0.100251171261463 0.0121844773402511 -0.0163300845830768 -0.94969 -0.1815922 -0.2551726 71 71 71
-0.100786599785481 0.00454602290299522 -0.0106218073575824 -0.9395355 -0.1537082 -0.3060177 96 96 96
-0.102437469631825 0.00599286605027305 -0.00705277063539916 -0.927292 -0.1771762 -0.3297547 84 84 84
-0.103195983440075 0.00513742018845664 -0.00262015201738769 -0.906484 -0.2146289 -0.3636224 54 54 54
-0.102593633801136 0.0134486918559371 -0.00826301314524108 -0.9230948 -0.1729154 -0.3435059 83 83 83
-0.104010272294674 0.0142638449778854 -0.00589095689943725 -0.9183646 -0.1571646 -0.3631884 99 99 99
-0.101835119992886 0.0165270333400069 -0.0136016521661609 -0.9498986 -0.1674384 -0.2639262 76 76 76
-0.100541192561779 0.0185152058711349 -0.0180332277028888 -0.9487047 -0.1276657 -0.2892419 87 87 87
-0.102482083708439 0.0160230164637862 -0.00999476649454528 -0.928173 -0.1819179 -0.3246548 71 71 71
0.0820365143116379 0.0640650754084884 -0.0162222895830005 0.978314 0.2065464 0.01550367 95 95 95
-0.102671715885792 0.0236607556453048 -0.0142546210496753 -0.9164305 -0.2228779 -0.3323861 85 85 85
-0.103820640117321 0.0226690535655318 -0.0110267017095416 -0.9272138 -0.2051883 -0.3133245 46 46 46
-0.0946739050451851 -0.00700118492934121 0.022626468160835 -0.0113573 -0.005626494 0.9999197 89 89 89
-0.100920456916485 -0.00673582505080117 0.0230920400411755 -0.004378422 -0.007734523 0.9999605 70 70 70
-0.0993811222616768 -0.0040923590550126 0.022857078531471 -0.03718515 0.002624822 0.999305 85 85 85
-0.0984664442841149 -0.00550153206679238 0.0230030205042035 -0.03113562 -0.02627024 0.9991699 67 67 67
-0.097038659722004 -0.00392665814253701 0.0229112591535718 -0.02673795 -0.01602849 0.999514 93 93 93
-0.0927553209368324 -0.00186672161909951 0.0231736387998731 0.0122447 0.0242526 0.9996309 109 109 109
-0.101946670085583 0.00229749728348838 0.0230125572473676 -0.01862564 -0.02358416 0.9995483 198 198 198
-0.0941831054989433 0.000301218520670998 0.0226838972360761 0.01518427 -0.005941104 0.9998671 121 121 121
-0.0969494315687752 0.00316295672562705 0.0230493929178388 -0.01272616 -0.01267425 0.9998387 89 89 89
-0.0967263462845421 0.00537166644242393 0.0230869140417249 -0.008832251 -0.0131474 0.9998745 150 150 150
-0.0886058243815041 -0.00477411698195351 0.0222312595636517 -0.01273671 0.01269508 0.9998383 132 132 132
-0.0881150248352623 -0.00222577999922646 0.0228808607847363 -0.01105655 0.001240102 0.9999381 135 135 135
-0.0824038865868187 -0.00588240574690713 0.0228994574339063 0.007532275 -0.004052687 0.9999634 105 105 105
-0.0828947010342217 -0.00334503601881875 0.0229153122694165 0.01034617 0.004228453 0.9999375 119 119 119
-0.0829095574919319 -0.000457190979451072 0.0226501312048108 -0.005987715 0.007108004 0.9999568 122 122 122
-0.0876242252890206 -0.000483774651020896 0.022859850147453 -0.01712286 -0.0002828368 0.9998534 111 111 111
-0.0910895648304558 0.00591990996506797 0.0227433528692395 0.00669956 0.005695132 0.9999613 151 151 151
-0.084277856618557 0.00434062529709922 0.0229959275514752 -0.01655944 0.01528392 0.9997461 203 203 203
-0.103776011139545 0.0124375586619674 0.0229767050535352 -0.02806319 -0.01012131 0.9995549 200 200 200
-0.095789361268673 0.00742421198990928 0.022959091881004 0.01219588 0.01617935 0.9997947 97 97 97
-0.0969494315687752 0.0126883750071822 0.0230828013212354 0.01160337 -0.008324891 0.999898 151 151 151
0.0808987473245525 0.0572654967418014 0.0203167583734662 0.8672996 0.1664152 0.4691454 137 137 137
-0.0933130415979958 0.0140285258403121 0.0225325610429913 -0.008388962 -0.00703125 0.9999401 108 108 108
-0.0873565110270119 0.00779995967057334 0.0228025700838239 -0.01478077 -0.007388252 0.9998634 164 164 164
-0.0923983636204338 0.0101156001200973 0.0232206966669232 -0.01094582 0.01333737 0.9998512 137 137 137
-0.0872672828737831 0.00678095866349326 0.0229409720689923 -0.0004403161 -0.01516746 0.9998848 150 150 150
-0.0872226538960076 0.0116758113017379 0.0227695491106183 0.02163902 0.00860808 0.9997288 189 189 189
-0.0912829222981072 0.0137995247950851 0.0229656185896069 0.01961279 -0.01976315 0.9996123 116 116 116
-0.0843224706951714 0.0140135054698287 0.0231053616792828 -0.005287783 0.01307512 0.9999005 156 156 156
-0.0782246473137474 -0.00249960373732461 0.0232280280382306 -0.004631088 -0.0123683 0.9999128 106 106 106
-0.0751757505241966 -0.0040705437550248 0.0225977387220532 0.01095343 -0.003625054 0.9999334 86 86 86
-0.0702677401606178 -0.00555326889845742 0.0232285644800336 0.01822155 0.01001251 0.9997838 106 106 106
-0.0707585397068596 -0.00413289021345986 0.0225402798444898 -4.317159E-05 0.002771626 0.9999962 96 96 96
-0.0745510938469506 -0.00155224751326455 0.0231433298380048 0.002670937 -0.01666653 0.9998575 119 119 119
-0.0765291633907891 0.00169847060349571 0.0230369057447583 -0.002698275 0.004766635 0.999985 100 100 100
-0.0766035201851464 0.00409135867264854 0.0229063417703778 0.009446912 -0.005263715 0.9999415 87 87 87
-0.0710039469305611 -0.000256323326558006 0.0231385912687451 0.004571312 -0.01492203 0.9998782 88 88 88
-0.0805834713284111 0.00413641978409873 0.0231238689214856 0.005543964 -0.005792715 0.9999679 116 116 116
-0.0721863242689705 0.00361833621171104 0.0231457736284406 0.006249208 -0.003021768 0.9999759 100 100 100
0.0814073947366142 0.0622443919291793 0.000483640650001227 0.9702528 0.2292746 0.07773519 103 103 103
-0.0680814417902565 -0.00266709278914345 0.0228766586572797 -0.007136011 -0.01045447 0.9999199 113 113 113
-0.0627272608582115 -0.00589611481520547 0.0226534988672406 0.0147382 -0.02869553 0.9994795 104 104 104
-0.0627867462936974 -0.00249698113295449 0.0228402104169995 -0.0123341 0.01079656 0.9998657 110 110 110
-0.0586223932806587 -0.00187625836226357 0.0227215077669293 0.0107509 -0.01069312 0.999885 110 110 110
-0.0648912372891045 0.000542736541300881 0.0229011561662824 -0.0134689 -0.0170696 0.9997636 111 111 111
-0.0670849713389015 0.0037649636378585 0.0227774765283734 0.005477504 -0.01598799 0.9998572 84 84 84
-0.0609983089272118 -5.80782780350564E-05 0.022803732374397 0.005628975 -0.0003692076 0.9999841 130 130 130
-0.0611210050884819 0.00197384406235801 0.022636153915611 0.01603245 0.01005573 0.9998209 127 127 127
-0.0586447003189659 0.00329074908402549 0.0231272365839154 0.004032526 0.005132386 0.9999787 125 125 125
-0.0664603146616554 0.00572464514878379 0.0229359056741864 0.00320342 -0.007588992 0.9999661 71 71 71
-0.060778934032116 0.00415477801468955 0.023147502163139 0.02441799 0.01905111 0.9995203 147 147 147
-0.0803068461720085 0.00752744723466026 0.0232498433382184 0.01054984 0.0196295 0.9997517 152 152 152
-0.0789088043276406 0.00945589591172324 0.0226161267549664 0.01989249 0.004335555 0.9997927 113 113 113
-0.0764845493141747 0.0117469792475997 0.0230232562811047 -0.006059243 0.006542489 0.9999602 114 114 114
-0.073257166415844 0.00709292937424766 0.0228507306368024 -0.01665098 0.01425849 0.9997597 75 75 75
-0.0706425341669655 0.00999198008683311 0.022687354305473 -0.00680354 -0.0135728 0.9998847 98 98 98
-0.0724874916378594 0.0123195414653121 0.0232085969240338 -0.008744727 0.01717308 0.9998143 140 140 140
-0.0778528335396385 0.013404942046672 0.023133971908775 -0.00126092 -0.02149001 0.9997683 94 94 94
-0.0670106145445442 0.00801572848466026 0.0232728805334241 0.01347687 -0.01464152 0.999802 105 105 105
-0.0677244993750191 0.012263036262065 0.0234546150953442 0.001556083 -0.01260125 0.9999194 112 112 112
-0.0641996594969368 0.00609335948136436 0.0227400150091321 0.02123544 0.00132175 0.9997736 98 98 98
-0.0598270776573754 0.00691757250931846 0.0224867250711591 -0.0009827669 0.00439109 0.9999899 156 156 156
-0.0612660231892204 0.0097766881099044 0.0226169314176709 0.02718593 -0.004424768 0.9996206 110 110 110
-0.0611210050884819 0.011853313933879 0.0228425946027905 0.0254731 -1.284808E-05 0.9996755 120 120 120
-0.0647573950592613 0.0128515725245772 0.0232174184114606 0.01573716 -0.002361486 0.9998734 133 133 133
-0.014392990142498 0.0901630883326827 0.0234783377439648 -0.004630826 -0.005487721 0.9999742 124 124 124
-0.0384995820824242 0.229653692733317 0.0237307336122662 0.004166432 0.00765107 0.999962 143 143 143
-0.0428870352808571 -0.0126458639988603 0.0233379986078412 -0.009324287 0.01101825 0.9998958 115 115 115
0.0584780988391304 0.225695348273784 -0.00743558146646911 0.9925364 0.06481289 0.1032993 150 150 150
-0.105397138268147 0.0300513272395431 -0.0140908870904773 -0.8723696 -0.3945675 -0.2885961 58 58 58
-0.0691968980137444 0.117340541373759 0.0129987385065228 -0.9878717 -0.1516976 0.033126 68 68 68
-0.0123086753193474 0.000835752975016701 0.0228227760584027 -0.01264416 0.01960325 0.9997279 109 109 109
-0.105605367094669 0.0355932479014693 -0.0202317152231067 -0.840888 -0.4987499 -0.210133 86 86 86
-0.109799477726612 0.0405994420161544 -0.0221579883306354 -0.9198983 -0.2520255 -0.3004501 84 84 84
0.0953104295875692 -0.0281131501087846 0.0232194449693829 0.08448159 0.004802074 0.9964135 129 129 129
-0.0412882151905632 0.0620666508784591 0.022810497501579 0.001666681 0.01757246 0.9998442 70 70 70
-0.107851150900517 0.0324952368846236 -0.00856657960108215 -0.8704308 -0.3753578 -0.3185227 71 71 71
-0.106408494979534 0.0325207476725875 -0.0135672900884479 -0.8750827 -0.4104502 -0.2564387 63 63 63
-0.108974027902279 0.0354755883326827 -0.00991653539827758 -0.8378179 -0.4680044 -0.2811281 44 44 44
-0.109174821049366 0.0330133204570113 -0.00645156838587219 -0.8244953 -0.4063858 -0.3937741 55 55 55
-0.110758769780788 0.0360551838984786 -0.00588294007471496 -0.92985 -0.2708063 -0.2490842 54 54 54
-0.0961463036839104 0.0283621316066085 0.0232649233133466 -0.01353216 0.02480803 0.9996006 150 150 150
-0.10930867818037 0.039705253135234 -0.0185435328691333 -0.9321882 -0.3394232 -0.1257661 61 61 61
-0.110334891349468 0.0424197678675948 -0.0186650071351855 -0.9941379 0.05624989 -0.09233488 84 84 84
-0.109442520410213 0.0441779856791793 -0.0197667691915362 -0.9342964 0.3515175 -0.05937835 52 52 52
-0.109375614196453 0.0443429713359176 -0.0181589338987201 -0.9188531 0.394484 -0.009555739 73 73 73
-0.108862492710743 0.0441205268016158 -0.0116323743074268 -0.8865643 0.4568662 0.07264268 93 93 93
-0.107791650563869 0.0469300513377486 -0.0122240994184344 -0.7713834 0.6351893 0.03875851 54 54 54
-0.112387317687664 0.0363797907939254 -0.00334828235796386 -0.9957659 0.08569659 -0.03326188 135 135 135
-0.111260715395603 0.0397292142024337 -0.00447320081880981 -0.917415 0.3871866 0.09184934 94 94 94
-0.108806717664394 0.0418036942591964 -0.00208731629541808 -0.794135 0.5134665 0.325118 92 92 92
-0.107523951203022 0.0384672646632491 0.00208342931577271 -0.7580763 0.3994406 0.5155265 76 76 76
-0.10546258416811 0.0382367138972579 0.00613499543973511 -0.9314166 0.3045081 0.1993435 78 78 78
-0.106869536906872 0.0441950326075851 -0.00157626607111389 -0.7979143 0.5257832 0.2947622 76 76 76
-0.10428169694582 0.045919156562358 0.00313542149373597 -0.8433593 0.4803108 0.2409287 57 57 57
-0.107141497999821 0.0457044606318771 -0.00601752736261779 -0.8026835 0.5732182 0.164682 72 72 72
-0.105136859685574 0.0490995411982833 -0.00947653391054565 -0.7444261 0.6661692 0.0452599 69 69 69
-0.105739224225674 0.0462158684840499 -0.000508240243706048 -0.7975041 0.5406383 0.2677639 87 87 87
-0.0699107977453804 0.121680474769145 0.0193357851297528 -0.9784965 -0.08909049 0.1860308 79 79 79
0.0627614450748825 0.195337391387492 -0.0106316719262927 0.9855606 0.1585579 0.05941159 124 124 124
0.0759238195713424 0.00762329150345908 0.0233608569891126 0.0002554827 0.01259771 0.9999206 124 124 124
-0.104400667816792 0.0495997433772384 -0.0221640680044025 -0.7672094 0.6395922 0.04807995 74 74 74
-0.0460623684231377 0.275419450294047 -0.00526552536180908 -0.4061588 0.9137961 -0.003431843 123 123 123
0.0267768618758583 0.181055284034282 0.0236722316534192 -0.002597908 0.002644979 0.9999931 130 130 130
-0.100306946307812 0.0198874240031539 -0.0204859588353961 -0.9477121 -0.1576873 -0.2774464 57 57 57
-0.0993253472153282 0.0575788979640304 -0.0159224484174579 -0.8597481 0.5090883 0.04077109 56 56 56
-0.100808906823788 0.0244122510066329 -0.020596644660744 -0.9402739 -0.2392308 -0.2421849 55 55 55
-0.101188156277332 0.0270315175166427 -0.02129032351664 -0.9221066 -0.3260902 -0.2082898 36 36 36
-0.102717924386654 0.0262111191859542 -0.0157814536302417 -0.8934602 -0.3026454 -0.3318654 69 69 69
-0.103597539931927 0.0291603570094405 -0.0168849442212909 -0.8539391 -0.4325658 -0.2892659 58 58 58
-0.0208196076456642 -0.0600050921330155 0.0226170208246381 -0.02631949 0.005589813 0.999638 220 220 220
-0.103552925855312 0.0495855574717818 -0.00454186536959106 -0.7310271 0.6592878 0.1758952 62 62 62
-0.101344320446644 0.0502313141932784 -0.000444493076118768 -0.7314849 0.6499509 0.2061399 30 30 30
-0.101968992025051 0.0520256524195968 -0.00678186752489501 -0.7492048 0.6370274 0.1813511 75 75 75
-0.0982879879776573 0.055582619201213 -0.00450887419870788 -0.8029815 0.5158691 0.2984958 48 48 48
-0.101098913222942 0.0547472005000411 -0.0227307293622821 -0.8574675 0.5096872 0.07048756 45 45 45
-0.102671715885792 0.0520341162791549 -0.0183845672815173 -0.8264263 0.5569071 0.08290986 58 58 58
-0.101812812954578 0.0539718632808028 -0.0204809222429126 -0.8463126 0.527948 0.07089324 72 72 72
-0.100370157033596 0.055515742789775 -0.0161126766412585 -0.8719829 0.4873488 0.04622697 68 68 68
0.0707555418010616 -0.049843930710286 0.023076930263725 -0.003252931 0.006257814 0.9999751 108 108 108
-0.0964140179459191 0.0630693202128707 -0.0221802804677814 -0.7935218 0.6018713 0.08985576 58 58 58
-0.103642154008541 0.050850010406047 -0.0129429910390704 -0.7546167 0.6561186 -0.007871476 50 50 50
-0.0999686005417443 0.0558968548884688 -0.012507638713631 -0.8608079 0.5082569 0.02616815 74 74 74
-0.0971279027763939 0.060196614753276 -0.0120603654592364 -0.7785887 0.6178256 0.1099596 52 52 52
-0.0988382729593849 0.0564605956187545 -0.00659485795191223 -0.8273274 0.5123407 0.2302966 71 71 71
-0.0964586320225334 0.0601597790828048 -0.00724568106821472 -0.7742872 0.6109179 0.1651024 109 109 109
-0.0942946406904793 0.0637800459971725 -0.011383644124779 -0.7398733 0.6476357 0.1820863 61 61 61
-0.0922199073139763 0.0654959445109664 -0.0101158235280841 -0.7793377 0.5928469 0.2028923 78 78 78
-0.0941831054989433 0.0638954405894576 -0.0176693115442126 -0.776305 0.6261484 0.07272372 34 34 34
-0.0911044510904885 0.0685914521327315 -0.0180320654123157 -0.7885301 0.6125264 0.05506157 42 42 42
-0.0875796112124062 0.0723248486628829 -0.0204770181386798 -0.758626 0.6508011 0.03073082 85 85 85
-0.0911639365259743 0.0677627091517745 -0.011694273731026 -0.7794352 0.602919 0.1702042 41 41 41
-0.0900559159819222 0.0699562792887984 -0.0177026305406421 -0.753499 0.6549122 0.05769991 75 75 75
-0.0860328408781624 0.0741281275859176 -0.019965997716698 -0.7760412 0.6299945 0.02944647 65 65 65
-0.10930867818037 0.0169548754802047 0.0234631087572247 -0.4569044 0.01773895 0.8893389 105 105 105
-0.110498491198216 0.0199887518992721 0.0215266730577618 -0.8087524 0.185638 0.5580842 85 85 85
-0.105203795701656 0.0207899575343429 0.023113289097038 -0.0326258 0.03179227 0.9989619 197 197 197
-0.110007691651974 0.0239716534724532 0.0181355562002332 -0.9602851 0.2559416 0.1111141 79 79 79
-0.109249192744885 0.0281740193476974 0.017643341043678 -0.9780381 0.203686 0.04419962 115 115 115
0.0511607122715378 0.279302812110454 -0.00490840413263732 0.9884179 0.1120319 0.1023671 131 131 131
-0.108706328541431 0.030018187057048 0.0219375278741986 -0.878396 0.06913107 0.4729072 113 113 113
-0.107300851017628 0.032504415999919 0.0225646879465253 -0.5894793 0.1426542 0.7950874 200 200 200
-0.107383716375027 0.0340848927607833 0.0120510842592389 -0.9555545 0.2855232 -0.07342993 65 65 65
-0.105627674132977 0.0385545258632003 0.0117173578531415 -0.922987 0.3818415 0.04787415 64 64 64
-0.107523936301861 0.0347866778483688 0.0208711709768445 -0.8305638 0.4312904 0.3523526 103 103 103
-0.104445296794567 0.03633079577592 0.022746929147926 -0.3463882 0.3713234 0.8614721 81 81 81
-0.106029230624828 0.0371716981044112 0.0219040300638348 -0.6422129 0.5515763 0.532284 117 117 117
-0.106096166640911 0.0376707081904708 0.0161326613218457 -0.831701 0.5515992 0.06333828 69 69 69
-0.105248409778271 0.0383020405879317 0.0180363144666821 -0.7431333 0.643774 0.1825048 107 107 107
-0.100652742654476 0.0180911784282027 0.0232599761278302 -0.002708753 -0.008493491 0.9999602 119 119 119
-0.0985705586973763 0.0183015828242599 0.0225313689500958 -0.02332456 0.009980417 0.9996781 117 117 117
-0.0895874234739876 0.0148118500819503 0.0230684664041669 0.02171909 -0.00441771 0.9997544 113 113 113
-0.0904054227177239 0.0198834900965987 0.0230670656950147 0.03997722 0.01503826 0.9990874 86 86 86
-0.0849917414490318 0.0155019526591598 0.0227412667066724 -0.0110031 0.001531567 0.9999383 120 120 120
0.0891233706023359 -0.0677072043308915 0.0231961991579205 0.005639444 -0.004444174 0.9999743 90 90 90
-0.0843894067112541 0.0180917744746505 0.02309284470388 0.0006059554 -0.01198838 0.9999279 153 153 153
-0.0783436330858803 0.0154548649897872 0.0228761222154767 -0.00612807 -0.01097719 0.999921 98 98 98
-0.0803068312708473 0.01841566611436 0.0230215277464063 -0.007803003 0.009815165 0.9999214 177 177 177
-0.0814446094338036 0.0200878148188888 0.0232110407144696 -0.0361169 0.01856563 0.9991751 136 136 136
-0.0732869091335869 0.0178736214747726 0.0232207860738904 -0.006228888 -0.003049702 0.999976 110 110 110
-0.0724986526075936 0.0159606700053512 0.0227170374185712 -0.004456581 0.007675741 0.9999606 104 104 104
-0.0706841829125023 0.0183130269160567 0.0228576745779187 -0.008189351 0.002908475 0.9999622 109 109 109
-0.0670552286211586 0.0151288275828658 0.0232383396417767 -0.01478356 0.02979109 0.9994468 180 180 180
-0.0684383991066551 0.0177482133021651 0.0225446309835584 0.00585402 0.001385726 0.9999819 121 121 121
-0.0643335166279412 0.0154832368007003 0.0229635920316846 0.02593511 0.00044753 0.9996635 108 108 108
-0.0631065252129173 0.0175215964427291 0.022897281864372 0.03361384 0.0001664499 0.9994349 117 117 117
-0.104132968455944 0.0221972231974898 0.0232581879884869 0.01718032 0.005837328 0.9998354 139 139 139
-0.101500484615955 0.0211872820964156 0.023074933508125 0.01694652 -0.005844449 0.9998393 86 86 86
-0.0987564655844307 0.0239706997981368 0.0231472637445599 -0.002597601 -0.006157637 0.9999776 152 152 152
-0.0989795508686638 0.0264183049311935 0.0232720162660748 0.00276913 -0.01279227 0.9999143 197 197 197
-0.0989126297537422 0.0285602574458419 0.0228248920232922 -0.0028527 0.006193637 0.9999768 97 97 97
-0.101411256462727 0.0326419835200606 0.0229523565561444 0.02350784 -0.02063224 0.9995107 71 71 71
-0.0934915128056145 0.0304140811076461 0.0227162327558667 -0.00407329 0.02378554 0.9997088 131 131 131
-0.0950531544987297 0.0323042636027633 0.0232956793100507 0.004456586 0.02362923 0.9997109 169 169 169
0.0513466191585922 0.235932326804668 0.0239119913370282 0.3487465 0.1222393 0.9292112 143 143 143
-0.0865979972187615 0.0215940241923629 0.023135968664375 -0.002906148 0.008661898 0.9999583 119 119 119
-0.0872226538960076 0.0235938792338668 0.0224619295389325 0.0003814994 -0.02081631 0.9997832 192 192 192
-0.0875349822346306 0.0270706181636153 0.0229685392172009 -0.01545937 -0.00594882 0.9998628 92 92 92
-0.0890966239277458 0.0320743088832198 0.0228868510515363 0.008919636 0.004482095 0.9999502 83 83 83
-0.0823592725102043 0.0274159674754439 0.0230153884679944 -0.004381234 -0.01410081 0.999891 83 83 83
-0.0864864620272255 0.0319607024302779 0.022747465589729 -0.003460048 -0.003580583 0.9999876 77 77 77
-0.101500484615955 0.0331244235148727 0.0229659464151532 0.03504041 0.008125653 0.9993529 111 111 111
-0.102080527216587 0.0411537652125655 0.0178815510065228 -0.6913902 0.7067018 0.1501739 44 44 44
-0.0890296879116631 0.0336234336009322 0.0230481412202985 -0.001947939 -0.008312352 0.9999636 138 138 138
-0.0855717840496636 0.0351675515284835 0.0229493167192609 -0.004013313 -0.01364669 0.9998989 78 78 78
-0.0988680156771279 0.0368039374461471 0.0228716816694409 -0.00745502 0.02211967 0.9997275 80 80 80
-0.0947333904806709 0.0393882756343185 0.0232705559522778 -0.001243749 -0.009701831 0.9999521 169 169 169
-0.0992472651306725 0.0416990285029708 0.0229107227117688 -0.4373725 0.2216211 0.8715442 103 103 103
-0.0981987449232674 0.0401303534617721 0.0228582110197217 -0.1693393 0.1508756 0.9739408 88 88 88
-0.0954770329300499 0.0415056710353194 0.0234004940778882 -0.03011427 -0.006856942 0.9995229 205 205 205
-0.0965924891535378 0.0444990162959396 0.0230515982896954 -0.2431521 0.1104279 0.9636819 195 195 195
-0.0930453422371483 0.0381896262278854 0.0228984143526227 -0.002901728 -0.005128837 0.9999827 87 87 87
-0.0894089522663689 0.0386156802287398 0.0231579627782971 0.00121066 -0.002075585 0.9999971 174 174 174
-0.0848578992191887 0.0374899869075118 0.0231262531072766 -0.008654417 -0.002796957 0.9999586 73 73 73
-0.07232910719553 0.263391471396953 -4.99699323504577E-05 -0.4241031 0.9054218 0.01865245 110 110 110
-0.0922645213905907 0.042101002227336 0.0229220773965985 -0.003372041 0.01193795 0.9999231 56 56 56
-0.0907028796974755 0.0454588894954024 0.0228186931402356 0.004890668 0.01004015 0.9999377 128 128 128
-0.0834301146570778 0.0410227542033492 0.0229659464151532 -0.01412248 0.003225756 0.9998951 79 79 79
-0.0858394983116722 0.0451608662715255 0.0228474225790173 -0.006908061 -0.01195856 0.9999046 75 75 75
-0.0821659299437142 0.0445227389445602 0.023089387634483 0.003849213 0.02117808 0.9997683 126 126 126
-0.0779866906706429 0.0243202214350997 0.0228228654653699 -0.02116613 -0.01763889 0.9996204 136 136 136
-0.0758003923002815 0.154856539260417 0.0141311969549329 -0.9844031 -0.1207347 0.1279594 50 50 50
-0.0706246825758553 0.0197601084819137 0.0230873014719159 0.003777299 0.01368784 0.9998992 138 138 138
-0.0789682897631264 0.0258905654063522 0.0228919174463422 -0.01580546 0.005287296 0.9998611 119 119 119
-0.0793698611561394 0.0276428227534591 0.0228732909948499 0.00827457 0.0206954 0.9997516 166 166 166
-0.0767016890350914 0.0322420363536178 0.0230871822626263 0.007656705 -0.02059601 0.9997585 141 141 141
-0.0728109660450554 0.0297620062938033 0.0232301440031201 0.006463359 0.01692677 0.9998358 108 108 108
-0.0793252321783638 0.182274675857097 0.0111658956796796 -0.993486 -0.1114956 0.02354429 110 110 110
-0.066363650828991 0.0206334357371627 0.0227374222070844 -0.001925407 0.008432909 0.9999626 111 111 111
-0.0698215546909905 0.0238972668757735 0.0231142725736768 0.01517668 -0.01342109 0.9997947 97 97 97
-0.0637088599506951 0.0205389027705489 0.0227966990263135 0.004895618 0.01305394 0.9999028 92 92 92
-0.0611210050884819 0.0205268626323043 0.02322552464315 -0.02441404 -0.01099839 0.9996414 100 100 100
-0.0610317769352532 0.0236556296458541 0.0226865198404462 0.02209236 0.007142239 0.9997304 96 96 96
-0.0684439721409416 0.0259848599543868 0.0231684829981 0.005249727 -0.008893714 0.9999467 122 122 122
-0.0610986980501747 0.0260491137614547 0.0229768540651471 0.03081249 0.001623462 0.9995239 106 106 106
-0.0669808718268013 0.0278162722697555 0.0228698935300977 -0.01670652 -0.01432067 0.9997579 108 108 108
-0.0655828299824333 0.0304093127360641 0.0226665522844464 -0.02659566 0.007381588 0.999619 104 104 104
-0.0664305868450737 0.0319484238734542 0.0232949044496686 -0.008021681 -0.007202385 0.9999419 111 111 111
-0.065136644512806 0.0326583151927291 0.0228104676992566 0.003197325 0.009569502 0.9999491 71 71 71
-0.06280163255373 0.027411437522441 0.0231762316019208 -0.00500412 -0.00843511 0.9999519 118 118 118
-0.0600501778427696 0.0284896855464278 0.0231323625833661 0.02828433 -0.00619713 0.9995807 181 181 181
-0.0606599482599831 0.0318217043986617 0.022483566024986 0.01932888 -0.01363518 0.9997202 107 107 107
-0.0804295423332787 0.034164047729045 0.0231964971811444 -0.001359726 -0.02911616 0.9995751 63 63 63
-0.0744172367159462 0.0335640673747359 0.0227431442529828 0.01053122 -0.02429844 0.9996493 118 118 118
-0.0710262539688683 0.0356898074260055 0.0226483430654675 -0.0001993689 -0.01438257 0.9998965 116 116 116
-0.0652258875671959 0.0338624482264815 0.0231353726179273 -0.007026688 0.008235292 0.9999414 173 173 173
-0.0608086767498589 0.0343696837535201 0.022852548578468 0.0004185389 0.01991636 0.9998016 127 127 127
-0.0791021468941307 0.035442328940898 0.0233037259370953 0.007480833 0.01238051 0.9998954 159 159 159
-0.0767820062939263 0.0382238392939864 0.0227848377020032 0.004447134 0.01700477 0.9998455 93 93 93
0.00326306793054579 0.191900110732585 0.0236686255724103 0.001954698 0.001229592 0.9999973 134 134 134
-0.0743503006998635 0.039604402076274 0.0234334852487714 -0.02325763 0.0002394629 0.9997295 63 63 63
