ply
format ascii 1.0
comment File exported by Rhinoceros Version 7.0
element vertex 476
property float x
property float y
property float z
property float nx
property float ny
property float nz
property uchar red
property uchar green
property uchar blue
end_header
0.0300363534801762 -0.00533036577937773 -0.0207590410083248 0.368716 0.5322041 -0.7621071 32 32 32
-0.0387498948030478 -0.00386990743459448 -0.0130834088001122 -0.8700982 -0.2004688 -0.4502681 38 38 38
-0.00383979614238417 0.0219328940520618 0.0231584946893583 -0.4948353 0.8480524 0.1895923 86 86 86
0.000699377657036759 -0.0114982590450452 -0.0210715612140593 -0.3975838 0.3193423 -0.8602021 210 210 210
0.00745343882313731 0.0293864764453506 0.0233958469107748 -0.4386734 0.8502597 0.2909023 82 82 82
0.0429932406807927 0.00665725535143413 -0.0135030590708059 0.2998506 0.5329459 -0.7912384 112 112 112
0.0217611510194704 0.0378492420666015 0.022170510517006 -0.7409015 0.6542638 0.1516703 38 38 38
-0.0386113181561214 -0.00945703025411149 -0.00853641756214479 -0.9097174 -0.2065864 -0.3601892 62 62 62
0.0274719703318049 0.0465034550636618 0.0263297448704947 -0.5052994 0.8508488 -0.1439751 42 42 42
-0.00570629501811082 0.012222903886248 -0.00878882345849469 -0.5665357 0.3500255 -0.7460023 231 231 231
0.0222433693729305 0.0384219767538549 0.026045129847555 -0.8775235 0.4783302 0.03395068 37 37 37
0.0250154049752718 0.0409102728934758 0.0109286056230032 -0.0002636382 0.916746 -0.3994705 72 72 72
-0.00806850335466924 -0.0312619493346593 -0.0357717024532652 0.3014713 0.2115405 -0.9297127 68 68 68
-0.00235899259328853 0.010690719037763 -0.0114468821846661 -0.4556366 0.3692502 -0.8099689 238 238 238
-0.0230383600588211 0.0146629657866686 0.00446176661465431 -0.297769 0.9480373 -0.1120669 79 79 79
0.0232626280897588 0.0425579334329607 0.0378870565812403 -0.8424735 0.5372866 -0.03951536 80 80 80
-0.0152113225030166 0.0175164197357511 0.00377327297574076 -0.6069979 0.7543936 -0.2498877 64 64 64
-0.0314424341423138 -0.030503806189373 -0.0207572408732237 -0.8070664 0.002613654 -0.5904548 51 51 51
0.0483197889025031 0.00399064833548857 -0.0111114246838268 0.4974262 0.5921282 -0.6339964 98 98 98
-0.00836753941383428 -0.00532987436641652 -0.0131043361800184 -0.584187 0.3282842 -0.7422634 124 124 124
0.0032579348022832 0.0285459619820041 0.0165623731359288 -0.4950619 0.8617992 0.1105249 92 92 92
-0.0130628840463221 0.0106226050823461 -0.00209975495922143 -0.7131737 0.2174385 -0.6664111 221 221 221
0.0421399792534434 0.0514483823999048 0.0372966647677809 -0.2815913 0.8184198 -0.5008946 63 63 63
0.0167751270491285 0.0310222056553564 0.0284696041578605 -0.5351384 0.7871565 0.3066129 84 84 84
0.0493336080300195 0.0143496505046372 0.00348715480278727 0.4355693 0.6436376 -0.6292933 77 77 77
0.0201216825453741 0.013503855617663 -0.0103117296964894 0.3021056 0.4472829 -0.8418255 66 66 66
-0.0301076358422847 -0.0278400486335282 -0.023008108074853 -0.830819 -0.02831332 -0.5558221 80 80 80
0.0121047792596376 0.031910297030243 0.0218186724392763 -0.448471 0.8378815 0.3111726 73 73 73
-0.0399384736769051 -0.0118437765918769 0.016529305894175 -0.0539359 -0.4626853 0.8848803 33 33 33
-0.012732696351748 -0.01404087172113 -0.0206285996351085 0.2865864 0.897346 -0.3356164 84 84 84
-0.0152293117378011 0.0170375574964639 0.0198565494983962 -0.4783357 0.8712121 0.110383 65 65 65
0.000325666741406661 0.026502169392304 -0.0034397418376943 -0.4237557 0.8478349 -0.3187586 70 70 70
0.0480763412825156 0.0291545399371824 0.0153403326873675 0.4187123 0.614825 -0.6683339 48 48 48
0.0133181290030446 0.0181683795466931 -0.0121465080631037 0.1728541 0.2253851 -0.9588134 210 210 210
-0.00106063345043461 -0.00253547731003323 -0.0183432183710782 -0.5064458 0.2172236 -0.8344619 68 68 68
0.0447888479856311 0.0147332369259896 -0.000432699529395453 0.5155403 0.6303697 -0.5803897 63 63 63
0.0232269959674221 0.031883953140676 0.00195775722615477 0.3557138 0.6904486 -0.6298797 75 75 75
0.0233593349668264 0.0410845722035444 0.0368743406555139 -0.8716738 0.4801774 -0.09805392 64 64 64
-0.040132902040209 -0.00225695155737382 -0.0106487202604973 -0.9019266 -0.214258 -0.3749958 73 73 73
-0.00467908544756224 -0.0379339400020948 -0.0362952897370636 0.2645271 0.3511461 -0.898177 69 69 69
0.0375942129269058 -0.0115484378200155 -0.022297423886126 0.2217009 0.6694602 -0.7089935 59 59 59
0.00467264311430027 0.0292354180442291 0.0178387150691205 -0.4792458 0.8687859 0.1246378 83 83 83
0.0138118450611184 0.0141816184838868 -0.0125353535242291 0.02826088 0.2253492 -0.9738681 204 204 204
0.00320587237323577 0.0283916676454417 0.0147969858948148 -0.4831253 0.8742108 0.04843021 102 102 102
0.0222335318066293 0.0241759684146263 -0.00658440653691805 0.04499456 0.3601801 -0.9317971 66 66 66
-0.00693078036858852 0.0229723805257509 0.00372050689302728 -0.4908418 0.8702822 -0.04102642 89 89 89
-0.0304202793486694 -0.0156521157818312 -0.0256484090007078 -0.7140513 0.3835963 -0.5856489 86 86 86
-0.0154137230454752 0.00874387808003374 -0.000201689896624335 -0.3763892 0.4793449 -0.7928175 90 90 90
0.0200824226777918 0.039226984115581 0.0146936975331122 -0.4554005 0.8866065 0.08086664 51 51 51
-0.0268843386912438 -0.0259814609001687 -0.0274279289195025 -0.8998398 -0.1163634 -0.4204141 114 114 114
-0.0407095299120455 0.00564684339309163 0.00364776243879794 -0.4170936 0.8906081 0.181246 48 48 48
0.0438588580713257 0.0260735765134741 0.0097763317756544 0.4894776 0.6085143 -0.6245975 77 77 77
-0.0318866899725863 -0.0156770787824589 -0.0202197134440322 -0.8718941 0.003373979 -0.4896828 103 103 103
-0.0483359871427886 -0.00320268804509261 0.00668800053215879 -0.9192722 0.002830824 -0.3936123 94 94 94
0.0145653721520973 -0.0038349220158842 -0.0221275895008433 0.05004437 0.5391608 -0.8407146 161 161 161
-0.025785026174042 0.00914356982500619 0.0263317526638647 -0.6207935 0.7641706 0.1750964 79 79 79
0.00928080820576138 0.0316913170075273 0.00572993746873612 -0.5219875 0.8459508 -0.1090705 87 87 87
0.01915518740774 -0.0289591035390779 -0.0359608665804413 0.07407984 0.3353799 -0.9391659 87 87 87
0.0019720088318449 0.0142569432590511 -0.0116623247338264 -0.3142009 0.3358913 -0.8879498 170 170 170
0.0136934374536328 0.00937100303036487 -0.0135912295857036 0.02638647 0.3886641 -0.9210016 79 79 79
0.00487997786165639 0.0059117166524234 -0.0169399316080635 -0.07158867 0.4961286 -0.8652927 40 40 40
-0.0231251735674167 -0.0390658158959143 -0.0363432119169554 -0.9214402 -0.2725272 -0.276906 35 35 35
0.0436477526757852 -0.00818795359888225 -0.0182525329355518 0.04944729 0.6219536 -0.7814913 56 56 56
-0.0189977810055995 0.012771607123349 0.0298411414188375 -0.5203461 0.8299318 0.2011297 44 44 44
0.00237395767145054 0.016061649197026 -0.0110712570129038 -0.3005877 0.2912416 -0.908199 105 105 105
0.0487595708564919 -0.00308393229141757 -0.013954645437848 0.411766 0.2772582 -0.8680879 45 45 45
-0.0202065962231486 -0.0475921897984288 -0.0339971098499708 -0.9823128 -0.1857549 -0.02359337 65 65 65
-0.0345727891351517 0.00496696998330903 0.0176407256414852 -0.4903683 0.8421768 0.2242259 41 41 41
0.0175123422741224 0.030458551002901 0.0317916460267426 -0.6162255 0.7687068 0.171336 89 89 89
-0.012836500758822 0.0013879565139272 -0.00499761209225286 -0.4033093 0.4365234 -0.8042319 89 89 89
-0.032051403105704 -0.0153303301202237 0.0155383737793071 -0.0277382 -0.5013445 0.864803 31 31 31
0.0242194914953622 0.00824468027094705 -0.0130849378342589 0.3194986 0.5644783 -0.7611077 35 35 35
-0.0281617123418689 -0.0101632348006668 -0.0208493554874065 -0.4175684 0.4495273 -0.7896593 99 99 99
-0.0133257792752586 -0.00931670421405895 -0.013815165710475 0.1839019 0.6308333 -0.7538099 63 63 63
0.010035784809971 0.0316755163659497 0.0185444368574938 -0.5176454 0.8261508 0.2225267 62 62 62
0.0258539957130481 0.0153294001813051 -0.00742108516715295 -0.06552543 0.195195 -0.9785731 73 73 73
-0.00472823940531608 0.0215767457599121 -0.00530453513246354 -0.5315242 0.5530397 -0.6415833 213 213 213
-0.0179545817529649 -0.0170765912612965 -0.0299236883598762 0.1919616 0.7269317 -0.6593338 81 81 81
0.0245340249500412 0.0068189643340919 -0.0140549529627796 0.3075587 0.5704078 -0.7616053 48 48 48
-0.00133628742348746 0.0026292498259386 -0.0165369456784269 -0.5288411 0.3527615 -0.7719367 205 205 205
0.00379077519433935 0.0250526587363942 0.0299444691381655 -0.4561981 0.851384 0.2588986 85 85 85
-0.013046233872557 -0.0149413383678381 -0.0219921942209931 0.3187142 0.8784873 -0.3559231 39 39 39
0.00785733565206392 -0.00947714701671343 -0.0238612987670048 -0.4069524 0.4776732 -0.7786 218 218 218
0.0181763608151444 0.0381411022115308 0.0126771941528149 -0.4563755 0.8897816 0.003183606 56 56 56
0.0429086395244815 0.04052339286638 0.022738175985183 0.3673564 0.5948794 -0.7149599 60 60 60
0.00765259167808008 0.0247742733633654 0.0364739724929636 -0.4188355 0.8655783 0.2745014 74 74 74
-0.0149581264168619 0.016434913144767 0.0240895332694371 -0.4670706 0.8691238 0.1626925 67 67 67
0.0438826766745453 0.0277420393996095 0.0118886237655419 0.4548601 0.5876266 -0.6691766 66 66 66
0.0274542904656498 -0.00483098178432395 -0.0211518608798473 0.2149148 0.4702106 -0.8559869 48 48 48
0.036743073301186 0.0444818541125411 0.0228823749843397 0.3044802 0.7402632 -0.5994183 72 72 72
0.0456655192434945 0.0176351198220626 0.00310938852136045 0.486176 0.6515729 -0.5823105 55 55 55
0.0200265955294312 -0.0252191575105174 -0.0343766230490236 0.1108827 0.4424585 -0.8899076 211 211 211
-0.00596895890834048 0.0231951425011749 0.000676816336769692 -0.5035554 0.8535343 -0.1338322 43 43 43
-0.0379717362188465 0.00329025866119825 0.0179351664724334 -0.4804708 0.8378637 0.2590989 88 88 88
-0.0338611550054297 -0.0221261940252511 -0.0168151957775568 -0.8135137 0.0280142 -0.5808706 92 92 92
0.00872684355617626 0.0317176486945585 0.0139642057024187 -0.5957831 0.7919073 0.1338858 83 83 83
0.000525580755303068 0.00640831252941942 -0.0152284835094317 -0.3969193 0.4531434 -0.7981955 98 98 98
0.0474169871788797 0.0445835714790555 0.0285303726949965 0.5163916 0.634917 -0.5746479 98 98 98
-0.0132018167362964 0.0187285589315838 0.00439234957682405 -0.606077 0.7917975 -0.07567927 49 49 49
-0.0448741369766226 -0.00626271847356663 0.00157395020220402 -0.8371571 -0.1227612 -0.5330081 96 96 96
0.0309244749530846 0.0434131923549996 0.0176993196320032 0.2823942 0.777099 -0.5624684 57 57 57
-0.0408176274701439 -0.0145356117386357 -0.00337508190781827 -0.8848357 0.03443837 -0.4646287 102 102 102
-0.0382500092749698 -0.0236456533395715 -0.00995737444836498 -0.8920097 0.03755422 -0.4504536 123 123 123
0.00062259943612375 0.025051032077793 0.0223642282191332 -0.5285045 0.8066867 0.2644608 85 85 85
-0.0516197240685279 -0.00405340863338366 0.0135124673300823 -0.9753453 0.06244708 -0.2116648 71 71 71
-0.00283622381606374 0.0101794571960578 -0.0120391593826009 -0.4760879 0.3587218 -0.8029066 223 223 223
0.00901934647020219 -0.0344061013411043 -0.0330172119922192 -0.3500635 0.009753952 -0.9366752 68 68 68
-0.0422008280099555 0.00266084842421699 -0.00906504200210267 -0.8936264 -0.1345558 -0.4281665 119 119 119
0.027118922844235 0.0378841604365645 0.00901656914919674 0.4096439 0.6759002 -0.6126589 49 49 49
-0.0246118668114064 0.00547145883564215 -0.00945773607556843 0.333081 0.5421822 -0.7714244 48 48 48
-0.0373130996121458 -0.0374790350671228 -0.0113328713723068 -0.8048187 -0.2185399 -0.5518216 46 46 46
-0.0106613293115543 0.0199867988720215 0.00950177411204345 -0.5994112 0.7971074 0.07297996 112 112 112
0.0427805282686915 0.0151403728947332 -0.00310755677073804 0.579654 0.6283394 -0.518836 83 83 83
-0.0300997961707665 -0.0381093845562155 -0.0192503808803915 -0.7190949 -0.549104 -0.4258958 73 73 73
0.0388003422450374 0.0290396143358818 0.00907774934194538 0.4996544 0.6101126 -0.614905 49 49 49
-0.029202269589319 0.0121561705195878 -0.00223604913652908 -0.2617564 0.9607894 -0.09147291 69 69 69
-0.0297829695030605 -0.0386882806788349 -0.0175376838578103 -0.6588953 -0.6454735 -0.3862913 62 62 62
-0.0175745101740463 0.0164695773942523 0.00736364777081894 -0.43218 0.9016439 -0.01608778 34 34 34
0.030191491534076 0.0424963997671646 0.0162525748332653 0.3010204 0.7693716 -0.5634306 58 58 58
-0.0431455846131081 0.00512451888931587 -0.00755620204145913 -0.9023895 0.3132212 -0.2959488 92 92 92
-0.00390158797936024 0.0227771619361663 0.0205716601846372 -0.5335457 0.818401 0.2134217 90 90 90
-0.014457521110911 0.016832321482197 0.00131286319968027 -0.7265948 0.4760096 -0.4954542 88 88 88
0.0506446002125029 0.024033453441652 0.012263658201874 0.3766527 0.6262118 -0.6826357 45 45 45
-0.0294708133288628 -0.030853659728705 -0.0235931768820764 -0.8393569 0.01814039 -0.5432779 41 41 41
0.00481877374679618 -0.0282600064494645 -0.032173204630032 -0.2482312 0.004625432 -0.9686897 52 52 52
0.0460008588592249 0.0538981718222979 0.0388424789127948 -0.2483973 0.7455655 -0.6184099 36 36 36
0.0209315004891599 0.0359152869424459 0.0292957066065433 -0.8391042 0.543961 -0.003248451 43 43 43
0.00204223552216343 0.0257535736081886 0.0237164943079076 -0.5266761 0.8066858 0.2680865 74 74 74
0.0157887581777572 -0.00510183900525218 -0.0227658081693022 0.09607448 0.561202 -0.822084 166 166 166
0.0254593304272821 0.00133634476897826 -0.0180358573162925 0.09899551 0.5755186 -0.8117747 42 42 42
0.040379607009903 0.0487605398879964 0.0311514093291708 -0.06698382 0.9443211 -0.3221349 58 58 58
-0.0315656590196558 0.0058160909639533 0.0214331435407914 -0.4991976 0.8419898 0.2045845 62 62 62
-0.0405057461917866 0.00339602022311158 0.0118005773842532 -0.4089894 0.8694689 0.2770405 49 49 49
-0.0235650065962689 0.00565142516019601 -0.00794746811084801 0.4092446 0.5953665 -0.6914171 28 28 28
-0.0103279862107546 0.0176590936504712 0.0284450175888197 -0.4464975 0.881474 0.1537646 73 73 73
0.0315775914561245 0.0249096645483928 -0.00250194310464463 0.491575 0.6571686 -0.5713874 54 54 54
0.0374940741531562 0.00461775359121641 -0.012694958476981 -0.4007815 0.028726 -0.9157232 70 70 70
-0.0207514683044683 -0.00122488922993491 0.025601410111019 -0.4421235 -0.2560084 0.8596432 8 8 8
0.0339110980391801 0.0213078785362908 -0.00358247855383242 0.4758002 0.6606824 -0.5806142 63 63 63
-0.0360491121877771 -0.0228810280389506 -0.0143490831185704 -0.8342688 0.02176699 -0.5509281 49 49 49
-0.0112705019341464 -0.0276721161710778 -0.0354662445468515 0.1728668 0.2652616 -0.9485533 54 54 54
0.0404315298044882 0.0496098244059449 0.039267083115628 -0.222388 0.8513761 -0.4750815 84 84 84
0.0427005881123206 0.0221437636017532 0.00546496962857684 0.5274128 0.6099153 -0.591472 64 64 64
0.0227969224839497 -0.0126485084805052 -0.0274534253001735 0.05704389 0.594848 -0.8018116 74 74 74
0.000670077045971773 -0.0363767398781731 -0.0343536786776918 0.1839667 0.2914023 -0.9387444 89 89 89
0.0314212587192841 -0.00691870673608586 -0.0211913232646803 0.4035141 0.5333711 -0.7434323 26 26 26
0.0194919862512726 0.0348736177132276 0.0323992979944912 -0.808841 0.5879852 -0.007044719 37 37 37
0.0233888367886896 -0.000510702130229301 -0.0194198157702036 -0.03208577 0.4992032 -0.8658907 161 161 161
0.0379250039909551 0.0294047331179328 0.00907999102698609 0.504461 0.6192141 -0.6017417 56 56 56
0.0475083262691807 0.0167565209665976 0.00347560126070906 0.446494 0.6559382 -0.6085952 81 81 81
0.00981830536590245 0.024864278390655 -0.0102259393222741 -0.01698625 0.5487474 -0.8358156 158 158 158
0.0343589304697742 0.0260467782755389 0.00336241118140873 0.5002586 0.6521373 -0.5696124 84 84 84
0.0161541203227564 0.00274955738410321 -0.0166041999214169 0.05407207 0.4583727 -0.8871137 126 126 126
0.0158844071152973 0.00867290678087684 -0.0141886334854789 0.005064507 0.4274197 -0.9040391 100 100 100
-0.0280092626566653 0.00338733451318451 -0.00997548242385493 0.08045876 0.4999535 -0.8623067 95 95 95
0.00234617284010463 -0.0185668786036015 -0.0276026693391023 -0.4370817 0.6314757 -0.640467 67 67 67
0.0482357128988973 0.0476409892878185 0.0333540673822055 0.4357473 0.7666885 -0.4715008 170 170 170
0.025035155777557 -0.0160438667361282 -0.029728193335031 0.1103796 0.5174998 -0.8485342 48 48 48
0.0272110373927883 0.0248195375626921 -0.00545190556815583 0.3094334 0.5693995 -0.7616004 47 47 47
0.0238730207376254 -0.00550991998659889 -0.0220246032359419 0.02798075 0.542841 -0.8393692 48 48 48
0.0069423971962399 0.0305661955007983 0.0197860993213308 -0.4628997 0.8668959 0.1849742 84 84 84
-0.0221553036137414 0.00566358085716256 -0.00678633664592093 0.5179327 0.6061263 -0.6036196 38 38 38
-0.040400202643883 -0.0100117522531216 0.0176772779394189 -0.0705213 -0.4732543 0.8780985 74 74 74
-0.0358422530401352 -0.0203639409398744 -0.0138622961454821 -0.8369521 0.08053872 -0.5413175 86 86 86
0.0384711764093142 0.0192859546018378 -0.00267752451898373 0.5200806 0.645324 -0.5595294 84 84 84
-0.0002586523148147 0.0211799341902856 -0.00803771871144643 -0.4406407 0.4327112 -0.7865093 187 187 187
0.00610166548864788 0.024834328455855 -0.00913639194162857 -0.3240234 0.5575607 -0.7642872 234 234 234
-0.0362957059723952 -0.00776768823638307 0.0190226443462437 -0.0691311 -0.4026244 0.9127511 54 54 54
0.021001523821119 0.0367006295213836 0.0227079168090443 -0.6780529 0.701076 0.220764 56 56 56
0.0350452384890985 0.0202652502471787 -0.00402562786968291 0.4857159 0.6570059 -0.5765616 69 69 69
-0.014152928727333 0.0137650268044074 0.000201656994744448 -0.6963108 0.2848333 -0.6588029 122 122 122
-0.0237418224350878 0.0106990319059452 0.0255792518287311 -0.5841088 0.8072566 0.0845793 69 69 69
0.0274834700185713 -0.020320816601491 -0.031290653818482 0.115298 0.4342573 -0.8933795 115 115 115
-0.0233071077623985 0.00885953957512697 -0.00433312622869519 0.5458835 0.6062832 -0.5783008 46 46 46
0.0395867160378454 0.0481468003808085 0.0315842118022999 -0.05816134 0.9673219 -0.2467905 98 98 98
0.0424652368632779 0.0135091863164956 -0.0046626633238317 0.571704 0.6325112 -0.5225745 46 46 46
0.0377680325779051 0.0486005784768631 0.035200449851015 -0.1495632 0.9359304 -0.3188496 104 104 104
-0.00413336706582923 -0.00484905006882874 -0.0164646460210714 -0.6161302 0.2350592 -0.7517518 215 215 215
0.0211146911636906 0.0310707007343922 -0.00139177660433787 0.3131858 0.70645 -0.6346992 45 45 45
0.000284424883024936 0.0264866197501055 0.00700629637078831 -0.4491264 0.8929154 -0.0314249 86 86 86
0.0523531782410624 0.0233546667236044 0.0127430904234631 0.3690795 0.6359332 -0.6777679 60 60 60
-0.0420609560404306 -0.0259976776305861 0.00390080319066133 -0.9464092 -0.3044196 0.107881 71 71 71
0.00481983762785276 0.0212619248361685 -0.0114523113811266 -0.3106879 0.3445919 -0.8858495 124 124 124
-0.00557851480190985 -0.018765168089685 -0.0238621001769257 0.2344988 0.7899058 -0.5666208 144 144 144
0.011934006368147 0.0283082874948262 0.0300914394485792 -0.3644809 0.8857519 0.2873974 96 96 96
-0.000564750430015692 0.0250789499494943 -0.00497040918354391 -0.4575886 0.689725 -0.5611525 141 141 141
0.0261745387868055 0.04511863162643 0.0308121067046057 -0.7224655 0.6786215 -0.1323499 42 42 42
0.035504906480496 0.0483570616743634 0.0356550947648133 -0.1212262 0.9522829 -0.2801098 91 91 91
-0.0370830868978915 -0.021139590534748 -0.0122545578626459 -0.8627052 0.07451602 -0.5001872 69 69 69
-0.00383026630135497 -0.0110053953530205 -0.0186589364679475 -0.4729186 0.3650527 -0.8019255 205 205 205
0.00782681489231551 -0.0216740063586125 -0.0319437638260339 -0.2224786 0.5223512 -0.8231965 225 225 225
-0.0472976908946694 0.00160865776652441 0.0104245929050921 -0.6839769 0.7121898 0.1579914 53 53 53
0.00133214963297767 0.0254354665415697 0.0212396795039998 -0.5290432 0.8051752 0.2679669 100 100 100
-0.0378810062388717 0.00716558423680458 -0.0118541812298476 -0.3358649 0.7857836 -0.5193639 82 82 82
-0.00881718714355406 0.0120667990380621 -0.00633067392487802 -0.6661217 0.2640377 -0.6975428 226 226 226
0.025067206197972 0.0283485263558345 -0.00262418296578976 0.3713773 0.7370591 -0.564644 48 48 48
-0.0211798777679055 -0.00100503061111246 0.0261789889519256 -0.3914394 -0.2801213 0.8765314 37 37 37
0.0305904199051792 0.00265188820956297 -0.0140310330869793 0.4132048 0.5032883 -0.758922 9 9 9
-0.034578031666181 -0.0245273099770449 -0.0161760958377737 -0.8120316 0.02195346 -0.5832003 88 88 88
-0.00907505146366772 0.0196096509682635 -0.00269907038958617 -0.6219445 0.5198372 -0.585623 205 205 205
-0.044846006871996 -0.00850527185280447 0.00234299753856987 -0.8328863 -0.114197 -0.5415343 77 77 77
0.00799205557000038 0.0106846677625896 -0.0139950877624454 0.08884182 0.4027231 -0.9110001 206 206 206
-0.0230907024352267 -0.00255418511764605 -0.0148597361249322 0.2564821 0.622669 -0.7392565 96 96 96
0.0499060848534771 0.00937549321545195 -0.00314573080554381 0.4513196 0.7183986 -0.5293525 53 53 53
0.00861028554661303 0.0323841758889907 0.0095122707299139 -0.5607567 0.8265448 -0.04874076 65 65 65
-0.00543870369619182 -0.0275843370416722 -0.0340723760032635 0.2671657 0.1837942 -0.945961 46 46 46
-0.0188433015664917 -0.0384787411307383 -0.0426827877594475 -0.3305418 0.1766035 -0.927121 186 186 186
0.0117862337183463 -0.0320026616815807 -0.0360609284303204 -0.4204329 -0.1018866 -0.9015849 49 49 49
-0.0337905833549015 -0.0132857755296016 -0.0181117383470461 -0.8672655 -0.1149628 -0.4843904 60 60 60
-0.0510965644813952 -0.00653878208627234 0.0144654636357378 -0.9840276 -0.1692014 0.05532253 85 85 85
0.00326926739475741 0.0247461331639411 -0.00752075684854114 -0.4537101 0.609284 -0.6503232 224 224 224
0.00261204637517176 0.00455119932847969 -0.0174414630982528 -0.1896686 0.4703639 -0.861849 50 50 50
-0.0162113808658653 -0.0196419691835288 -0.0318742929334714 0.2246353 0.6552703 -0.721221 150 150 150
0.0277818913121353 0.047118093566288 0.0315683463195534 -0.5415196 0.829352 -0.1375927 62 62 62
-0.0165924140461007 -0.0121566721063562 -0.0215127882885879 0.4604438 0.8191361 -0.3420637 73 73 73
0.000143274276064531 0.0262189863390614 0.0184514850058802 -0.5341465 0.8210646 0.2013465 89 89 89
0.0029831132644893 0.028125846258336 0.00721049314892525 -0.4999962 0.8658035 -0.01969896 44 44 44
0.0303398356215658 0.00671970288418056 -0.0107181998273201 0.0349328 0.2718054 -0.961718 51 51 51
0.0128118999921729 0.0168814883875372 -0.012311354175263 3.837054E-05 0.1249058 -0.9921686 163 163 163
-0.0464961903860295 -0.00724966301024477 0.00386205716715732 -0.8468231 -0.1011893 -0.5221603 91 91 91
-0.0213252316659744 -0.0341398794186873 -0.0403487985236672 -0.5321596 0.1379574 -0.8353286 155 155 155
0.000999490025675343 -0.0120433917826683 -0.0211159862869375 -0.4152483 0.3367251 -0.8450947 219 219 219
0.000475889969024923 0.00857782768801774 -0.0140094090677541 -0.39577 0.4275556 -0.8127499 139 139 139
0.0111077954022392 0.0342383947154401 0.0158332720466341 -0.5884238 0.7872563 0.18435 82 82 82
0.025338081724847 -0.0100850134761621 -0.0250387688505389 0.1054615 0.5833005 -0.8053809 51 51 51
-0.00315650606711193 0.0161153115026649 -0.00842352083166509 -0.4587305 0.3649591 -0.8101674 197 197 197
0.000312052453324885 -0.0198748763091021 -0.0277899823504181 -0.3520975 0.720739 -0.5971286 117 117 117
0.00106600211238828 0.0248726515077569 -0.00603568000357452 -0.4478029 0.6671495 -0.5953017 182 182 182
0.0498113750384115 0.0135191388863773 0.00266964893161942 0.4191232 0.6606545 -0.6227931 62 62 62
0.0045832611336647 0.000402154652965336 -0.0200232837846414 -0.1318841 0.3799246 -0.9155675 183 183 183
0.0509437080552133 0.0178736542703486 0.00689019026188742 0.4036534 0.6273212 -0.6659821 57 57 57
0.0489546482660765 0.014491397339502 0.00218451618319077 0.4311999 0.6535701 -0.6220231 70 70 70
-0.0187863869122449 0.0164352693198151 0.0102137181461179 -0.4372886 0.8987553 0.03190193 61 61 61
0.0407241796330111 0.0276264039320397 0.00932606390306057 0.478939 0.6269901 -0.614411 51 51 51
0.0380870047776027 0.0367251613376454 0.0163794597304122 0.4163407 0.656675 -0.6288388 81 81 81
0.0252159991178389 0.0457653638125783 0.033785272099796 -0.7865388 0.6083747 -0.1060043 27 27 27
0.0293629721347934 -0.0102369121611081 -0.0238405753509311 0.2755943 0.5662263 -0.7768111 50 50 50
-0.0179550871203076 -0.00716202319460613 -0.0144992012798728 0.462558 0.6068307 -0.6463719 70 70 70
0.00304130928500879 -0.00910426612453774 -0.0210791128305728 -0.3169305 0.2967379 -0.9008338 212 212 212
0.0367463029717845 0.030738892628956 0.00887135354955848 0.4963154 0.6240048 -0.6035636 45 45 45
0.0348825973862859 0.0211567263687267 -0.0024815490977757 0.492905 0.6557077 -0.5719197 54 54 54
-0.0480975486299515 -0.000717755254997954 0.00522090968739353 -0.9314888 0.1715469 -0.3207806 97 97 97
0.00704479155299964 0.023275875236316 -0.011204867216909 -0.2170339 0.4609042 -0.8605019 149 149 149
-0.0124368999030473 -0.0441630784592222 -0.0429545084351168 0.2402154 0.4262322 -0.8721368 91 91 91
-0.0266294359530419 -0.0123725469030667 -0.022663095288838 -0.4564503 0.4450025 -0.7704713 139 139 139
0.0278773791975535 0.00337217982082971 -0.0153844361891192 0.4168138 0.5941312 -0.6879494 15 15 15
0.0514733105967622 0.00925128035594613 -0.00384283362346416 0.451899 0.7091501 -0.5411963 61 61 61
-0.0398467495261046 -0.0123552177784672 -0.00466547864391459 -0.882057 -0.07129304 -0.4657174 60 60 60
-0.0196044095659191 0.00952607874155964 -0.000348991946745814 0.1544118 0.5765879 -0.8023112 58 58 58
0.00554681707532945 0.000437458046383954 -0.0201614290121048 -0.08849608 0.3981624 -0.9130362 135 135 135
-0.000280034326443968 -0.000624585774073871 -0.01843397932913 -0.4655375 0.2630179 -0.8450422 170 170 170
0.0244374797937441 -0.0149336894020367 -0.0290177486819042 0.0967245 0.5376293 -0.8376151 91 91 91
-0.00984885870102392 0.0197922277988236 0.0176690455288046 -0.497838 0.8533806 0.1545925 82 82 82
-0.00102377220587568 0.0260849979827105 -0.00177948401811739 -0.4635196 0.8718477 -0.1582121 29 29 29
0.0216678606903904 0.0372101070212187 0.0308828885620106 -0.8607668 0.5079669 -0.0324046 62 62 62
-0.0259108361771139 -0.0225446424129532 -0.0317111985990726 -0.891273 -0.06331105 -0.4490259 87 87 87
-0.00709506464970033 -0.0046435945777128 -0.0141465907809204 -0.6643621 0.2520947 -0.703613 214 214 214
0.0472533076140742 -0.00513121600406219 -0.0159978608404047 0.214212 0.3815218 -0.8991965 77 77 77
-0.0285159979851781 -0.0116241489306266 -0.0220970186945926 -0.4371632 0.4720891 -0.7655196 172 172 172
-0.0393768105533736 -0.0022521943788969 -0.0117702432230277 -0.8777338 -0.2004225 -0.4352175 75 75 75
-0.0458094676139318 -0.0145569724272308 0.0138190364067362 -0.6667658 -0.5441978 0.5091876 183 183 183
-0.0457261012949393 -0.0162505045309473 0.00483764033310891 -0.8656866 -0.3663643 -0.3411216 241 241 241
-0.0485751991678307 -0.0111083353717534 0.00924371556662268 -0.9511784 -0.2482158 -0.1834358 57 57 57
0.0512532664678917 0.0104357712872976 0.000738680350054866 0.4650064 0.6861565 -0.5594268 61 61 61
0.0311717170904666 0.0350730629040938 0.00990812624086679 0.490087 0.6281134 -0.6043908 42 42 42
0.0323946293125159 0.041105711535337 0.0166585371792622 0.4451905 0.6714237 -0.5924489 48 48 48
-0.0313143468643249 0.010450180819412 0.00533825455233122 -0.4856303 0.8627654 0.1407096 34 34 34
0.047392148885459 0.037711748759319 0.0230505104869657 0.4383629 0.5701686 -0.694799 56 56 56
0.0191623361774225 0.0387314967747487 0.0143527289747005 -0.4462186 0.8883846 0.1079893 56 56 56
-0.0321543381544376 0.00994438188076963 -0.00384348179991967 -0.4274695 0.8620086 -0.2724168 72 72 72
-0.0264646681968417 -0.030139101363714 -0.0300686211424186 -0.9549798 0.03243071 -0.2948928 90 90 90
0.0168282464064733 -0.0108100008114584 -0.0258048440898683 0.06712005 0.5727095 -0.817006 80 80 80
0.0461436848664012 0.0121424685786133 -0.00202732056320171 0.4759381 0.6733434 -0.5657664 52 52 52
0.0368020707514485 0.0475062340369372 0.0261151767653513 0.1213903 0.9248771 -0.3603703 68 68 68
-0.0278735200966218 -0.0400680947056276 -0.0192489750648022 -0.5846717 -0.7228874 -0.3682293 40 40 40
0.0286642106385053 0.0485109416612299 0.034859413835027 -0.375083 0.9143783 -0.1523977 52 52 52
-0.0429054937137821 -0.0165633118546531 -0.000110768465819977 -0.8885692 -0.04491612 -0.4565383 176 176 176
0.0153269610265587 0.0117081333652971 -0.0132975536358 0.08256064 0.3281865 -0.9409981 102 102 102
0.025764475910091 0.00848578841891001 -0.0109810813518545 0.2344377 0.4652588 -0.853565 60 60 60
0.0290045574635465 0.00920388174014097 -0.00992919404246551 0.06005234 0.2496589 -0.9664699 61 61 61
0.0500791184228908 -0.00483344349277437 -0.0144553613986255 0.3900137 0.2739508 -0.8791134 65 65 65
0.0500703427591653 0.037130229039807 0.0241001697361806 0.4555304 0.5682517 -0.6852605 92 92 92
-0.0500494778826051 -0.00603587761324054 0.0101165996317169 -0.9199733 -0.1050368 -0.377646 84 84 84
0.0334031518180438 0.0377234940316906 0.0144032720566267 0.4903781 0.634921 -0.5969964 58 58 58
0.0351454172606842 0.0388901297766866 0.0167312156027046 0.4848887 0.6310622 -0.6055108 49 49 49
0.00348130931052548 0.0279186588335487 -0.00317881568850659 -0.4114069 0.8630566 -0.2930489 50 50 50
0.0387259872666732 0.0215093817874721 0.000498631173791897 0.5365431 0.6353534 -0.5553805 59 59 59
-0.000146498078500201 0.0233130440873353 0.0271114352661569 -0.4800615 0.8572326 0.186261 79 79 79
0.0452345412122237 0.00632156677581563 -0.0106695489133937 0.5156328 0.6609231 -0.5452554 64 64 64
-0.0245330194244762 -0.031753183353292 -0.036974193677504 -0.8707818 -0.04154626 -0.4899113 90 90 90
0.00882949248739751 0.0280290692306948 0.0275875628467767 -0.4064603 0.8553567 0.3211775 88 88 88
0.0376647298389119 0.0377319232169813 0.0170714059657889 0.4264984 0.6418052 -0.6373267 70 70 70
0.00856540095320035 -0.0198450907359538 -0.0307367222078905 -0.2049974 0.566519 -0.798143 201 201 201
-0.0109623492045907 0.0168833275215021 0.0321524202706147 -0.4461945 0.8832417 0.1442034 81 81 81
-0.0211407871965599 0.014372205209183 0.01040736613596 -0.4532195 0.8812894 0.1338694 68 68 68
0.0232791686136107 -0.00425476940747616 -0.0214354339684881 0.0210764 0.4867445 -0.8732901 105 105 105
-0.0301247139029606 -0.0213908807603531 -0.0239079213025433 -0.9006616 -0.1531538 -0.4066356 44 44 44
-0.0230252664122088 -0.0413570059902193 -0.0223807023815176 -0.5591822 -0.7803735 -0.2798793 32 32 32
0.0103814861951772 0.033924405985237 0.0114908877865442 -0.5781005 0.8156638 -0.02218872 66 66 66
0.0461458954070464 0.0382056966065758 0.0222916019439029 0.4387268 0.5682379 -0.6961498 68 68 68
-0.00672080231196226 0.0144509822781584 -0.00698047264296159 -0.5605598 0.3360995 -0.756842 80 80 80
0.0431940297389315 0.0320490137880987 0.0152968092228327 0.4237015 0.6037747 -0.6752282 41 41 41
-0.0322427159785867 -0.0142275770298412 0.0149731976498921 -0.0277382 -0.5013445 0.864803 74 74 74
-0.0259024194756905 -0.0236445891441235 -0.0331558885899007 -0.8839391 0.0562321 -0.4642086 59 59 59
-0.0162329567167343 0.0144288417315641 0.0290743590986428 -0.4584103 0.8734411 0.164197 78 78 78
-0.00979605361750924 -0.0318740187483244 -0.0358374842511782 0.3244855 0.2409036 -0.9146992 81 81 81
-0.0393634843224331 -0.0301713291676668 -0.00835310158712538 -0.8912394 -0.06851871 -0.4483275 75 75 75
0.0551715800708337 0.00912144141129856 0.00155454489028628 0.4606806 0.6984697 -0.5476435 45 45 45
0.0510616864202071 0.0202859865969334 0.00886751841294792 0.3629345 0.6472366 -0.6703457 60 60 60
0.0258906331625899 -0.00229892872591453 -0.0205063294526525 0.1056211 0.4800972 -0.8708335 56 56 56
-0.0336497190879932 -0.0200789484607484 -0.0174889053228323 -0.8506266 0.01784391 -0.5254674 97 97 97
0.0159182448653934 -0.0343153542034236 -0.0373790426318023 -0.2670352 0.008000067 -0.9636536 31 31 31
-0.0146326398623109 -0.0484659001659897 -0.046325854316862 -0.4932288 0.1563729 -0.8557295 145 145 145
-0.0139616496106734 -0.0142495403639891 -0.0220862711042905 0.3214234 0.8872383 -0.3309005 97 97 97
-0.0428676936401664 -0.000596129313840787 -0.00435952744688012 -0.8816382 -0.2688197 -0.3878789 69 69 69
-0.0271625714484838 -0.0385040854267029 -0.0232702785246681 -0.5735345 -0.71219 -0.4047758 47 47 47
0.0329561561856426 -0.0014938849497137 -0.0151869135878451 0.4167504 0.5761139 -0.7031443 15 15 15
-0.0136015458271204 -0.0165986254749115 -0.0278277406605313 0.3550886 0.7973646 -0.4879772 40 40 40
-0.0121384601737797 0.00566903697308363 -0.00461099677095006 -0.5708503 0.3248532 -0.7540559 137 137 137
-0.028361246451666 0.00723397078840282 0.0254141368841905 -0.5612433 0.8166487 0.1345022 105 105 105
-0.0361304219931329 -0.0288973656879101 -0.0141412522365573 -0.8497534 -0.02436315 -0.5266172 83 83 83
-0.0378336901341969 -0.0233640485019377 -0.0107300921761126 -0.8771555 0.04755391 -0.4778461 114 114 114
-0.0217399449661633 -0.0417133774903651 -0.0356510218101601 -0.9210598 -0.3753709 -0.1036602 47 47 47
-0.0145745014683247 -0.0290846477498112 -0.0365167646497733 0.2633984 0.339213 -0.9030813 104 104 104
0.0151787661327289 0.0356434345150667 0.00144633624226354 -0.272903 0.8805977 -0.3873907 74 74 74
-0.0297483872857871 -0.013329784404351 -0.02327729695701 -0.5695575 0.4053243 -0.7150639 215 215 215
-0.0240207170004889 -0.0225139533922298 -0.0353397955623925 -0.5339251 0.3698885 -0.7603332 66 66 66
-0.0033177327641325 0.0230155969218724 -0.00553588053386256 -0.4649036 0.6363577 -0.6155596 230 230 230
-0.00298858359996057 0.0231413092921675 0.0207744577301323 -0.5299482 0.8165002 0.2290903 96 96 96
0.0427256450548601 0.00310746247202709 -0.0152284237278786 -0.008162906 0.2836322 -0.9588984 92 92 92
0.0163371370362695 0.0351449461576911 0.020265531635812 -0.4723819 0.7942091 0.3822138 57 57 57
-0.030528890852195 -0.0203318129546639 -0.0224065943257232 -0.9164589 -0.1030771 -0.3866241 63 63 63
0.0115594367801397 -0.0156796528270458 -0.0292763463257415 -0.2183211 0.5121036 -0.830714 222 222 222
-0.037738639750875 -0.0310651850138817 -0.0112271351405631 -0.8615592 -0.06404049 -0.5036017 134 134 134
-0.00554707550241362 0.00321433674978233 -0.0127403432955078 -0.6652037 0.2871948 -0.6892193 113 113 113
0.0164866041155141 0.00218274482794256 -0.0172374853230581 0.05372786 0.4808274 -0.8751676 133 133 133
-0.0177132812722554 -0.023201637819076 -0.0353037447217249 0.2528868 0.468398 -0.8465528 67 67 67
0.0420146776498953 0.0210779661517482 0.00386688522452633 0.5374743 0.6197456 -0.5718713 74 74 74
-0.00657109268849121 0.0218104565165029 0.0169344197173015 -0.5442122 0.8091031 0.2217778 103 103 103
-0.0413343596243041 -0.0193812673658427 -0.00429595441556369 -0.9118409 0.05010506 -0.4074747 66 66 66
0.0464302841971924 0.00462633240645149 -0.0120856829895927 0.5263618 0.5693997 -0.6314486 105 105 105
-0.0400914324373796 -0.0317600109504781 -0.00449727067425232 -0.9486484 -0.1264778 -0.2899475 68 68 68
-0.0155302326716966 0.0162803480829874 0.0233440900382347 -0.4853514 0.8630671 0.1398183 90 90 90
0.0292387310697566 0.0132302632938792 -0.00983205398486448 -0.1599521 0.1919008 -0.968292 39 39 39
0.0498597273425347 0.0433344341082043 0.0293191212361654 0.5533733 0.6244408 -0.5512273 111 111 111
0.0441470858677619 0.0232496995622005 0.00791323284071938 0.4992741 0.5977247 -0.6272564 51 51 51
0.044626816789775 0.0522063078198971 0.0371985673768132 -0.2362842 0.762072 -0.60284 84 84 84
-0.0386686854270053 -0.00592044587763141 -0.0115923020515125 -0.89077 -0.2295516 -0.392218 44 44 44
0.0278170214103741 -0.0248844674670097 -0.0329953987961411 0.08711955 0.3827495 -0.9197353 117 117 117
-0.0196667809694353 0.0001383619279689 -0.0103597133418764 0.4317398 0.5990803 -0.6743171 33 33 33
-0.0396813096856259 -0.0138208244643581 -0.00454326909507763 -0.8891069 0.02973921 -0.4567323 56 56 56
0.00488968614501273 -0.009114987767185 -0.0215560571477603 -0.3440943 0.3162831 -0.8840611 247 247 247
-0.00122855643883879 0.0118548566195993 0.0296880096459259 -0.2418865 -0.2766775 0.9300218 10 10 10
0.043578734118789 0.00148913662182282 -0.0165674307246205 0.01683127 0.2402025 -0.9705769 64 64 64
-0.00738182083904038 0.0228426414086425 0.00677191584888676 -0.5273501 0.8494713 -0.01733198 97 97 97
-0.039366558480713 0.00338519757730249 0.0136622415161539 -0.445651 0.8513349 0.2768106 45 45 45
0.0355062071267898 0.0222531144090263 -0.00130894556636219 0.493911 0.6562788 -0.5703946 62 62 62
0.0248169993034781 0.0217065716486653 -0.00894785350248412 -0.01030852 0.3216608 -0.9467989 95 95 95
-0.0293282178696987 -0.0394298589359767 -0.017842941622884 -0.6152152 -0.6964187 -0.3694744 66 66 66
-0.013979207415542 0.018033768749502 0.00836042540674148 -0.5166879 0.8557942 0.02549414 93 93 93
0.00641998360096308 0.0302684435401739 0.0124190824479583 -0.57218 0.8196288 0.02861211 75 75 75
-0.000884402234153203 -0.0101438878779743 -0.0204494433130734 -0.4355795 0.2548635 -0.8633164 155 155 155
0.0329508568469929 0.0436333525596075 0.0193429038307126 0.3681808 0.7338503 -0.5708824 49 49 49
-0.0248965151829577 -0.0367245694331788 -0.0341142940595582 -0.8783841 -0.3718194 -0.3003194 75 75 75
-0.00267016248193253 0.00351881587571334 -0.0152547322359606 -0.5745507 0.3646464 -0.7327513 81 81 81
0.0323452293848496 0.012343748586072 -0.0110889190030344 -0.2518162 0.131198 -0.9588408 47 47 47
0.00508071152477418 0.0243155794162464 0.0334131998776586 -0.42775 0.8626909 0.2698044 110 110 110
0.0439460430347012 0.00868106903534249 -0.00926775350181103 0.5307387 0.6571949 -0.5351741 38 38 38
-0.0277977308760518 -0.024385503775644 -0.0269633658574032 -0.8632373 -0.1712525 -0.4748621 60 60 60
0.0284270466450041 0.0322350663640991 0.0040575556447206 0.4646365 0.6380294 -0.6140288 56 56 56
-0.0282595441351918 -0.0183514165061307 -0.028607324198813 -0.8604563 0.08168647 -0.5029336 108 108 108
-0.0176439611017059 -0.0197213833704024 -0.0329313527864245 0.1844164 0.6251851 -0.7583761 130 130 130
0.0132950144466704 0.0272683939211746 0.0366428777494557 -0.4188002 0.876084 0.2389209 89 89 89
-0.0178791637157749 0.0134802379714878 0.0303357167015245 -0.4803492 0.8548111 0.1963738 67 67 67
0.0502070468478721 0.0392831628518922 0.0258649503365521 0.509867 0.589483 -0.6265344 80 80 80
0.0250914409989043 0.0268854400447933 -0.00486037115910631 0.2379665 0.6177166 -0.7495319 56 56 56
0.0450218545021572 0.0110950394075637 -0.00454627546292613 0.5024431 0.6908323 -0.5199054 50 50 50
0.0396529792295079 0.0267513730875375 0.0075203509816984 0.489226 0.6342328 -0.5986708 69 69 69
0.0224458401147625 0.0314989237106056 0.000802726024761558 0.3404944 0.7046526 -0.6225176 34 34 34
0.0463815524534432 0.00934473144459602 -0.00589442568783011 0.4689879 0.7000405 -0.5385106 50 50 50
-0.0348744542463466 -0.0263353036233243 -0.0154590755031964 -0.8206776 0.03133522 -0.5705317 77 77 77
-0.0376091170871136 -0.00551054608062507 0.0193558797063705 -0.1963051 -0.2635277 0.9444668 25 25 25
0.0213492052399782 0.0371712374961748 0.0230623246770439 -0.7555544 0.6369975 0.1528777 38 38 38
0.0257822528981713 0.0169428089569565 -0.00784345074164133 -0.0809839 0.2542476 -0.9637426 89 89 89
-0.0254060620736132 -0.0290767265021497 -0.0340010382843305 -0.9489987 0.02976859 -0.3138715 107 107 107
0.00548186641016146 0.00231346818170808 -0.0187801297911552 -0.03879486 0.4466394 -0.8938726 90 90 90
-0.0211087804011085 0.0137000936778018 0.0149777031187846 -0.5368772 0.8218755 0.1904827 43 43 43
-0.0448053663863188 -0.0188350704926834 0.00498460723193156 -0.8731027 -0.3976345 -0.2820967 90 90 90
-0.0194373693022274 -0.0382211228867173 -0.0425030357141831 -0.3639447 0.1093463 -0.9249798 169 169 169
0.0281369003033829 -0.00484022196395317 -0.0209963802757521 0.2557778 0.4805149 -0.8388583 43 43 43
-0.0349262163438677 -0.0312117747307319 -0.0156699265478078 -0.8414977 -0.0427428 -0.5385672 50 50 50
0.00227511292973581 0.0262805010529594 0.0222872393441584 -0.5243248 0.8091593 0.2652258 93 93 93
0.0477345635632145 0.0463458482316115 0.0314457347482009 0.5344586 0.6232591 -0.5708783 122 122 122
-0.0306949288171503 0.0105479004786704 0.00183016226824639 -0.5018728 0.8595081 0.09679613 81 81 81
-0.00778539000613421 -0.051039590228207 -0.0462459150072847 0.2145359 0.5331115 -0.8183926 48 48 48
0.00494668597227443 -0.0229849431279483 -0.0329270596098108 -0.2318616 0.3828839 -0.894226 247 247 247
0.0247587889629926 -2.53133296230779E-05 -0.0193608042664195 0.03187184 0.5158441 -0.8560894 110 110 110
0.0402276327978575 -0.000293631549182605 -0.0147669224019959 -0.3632458 0.2042853 -0.9090215 67 67 67
-0.0430615142415665 0.000953514197338245 0.0160780110635689 -0.3935861 0.8645052 0.312603 62 62 62
0.0155149250317823 0.0180032304299951 -0.0120058838277459 0.3299999 0.2823836 -0.900755 121 121 121
-0.0343426489711458 -0.0121611924758196 0.0160892148886499 -0.02051763 -0.4567643 0.8893511 65 65 65
0.0038413670370252 0.0120711576984853 0.0301638788414287 -0.04845025 -0.2832829 0.9578118 30 30 30
0.0406266362875414 0.0307990241319378 0.0126737364698404 0.4761711 0.5948696 -0.6476042 52 52 52
0.0432928384635738 0.0496308841819797 0.0336585702859697 0.004931054 0.8514963 -0.5243374 62 62 62
0.00648459619319075 0.0308865413861563 0.00828312416092331 -0.5630383 0.8260131 -0.02627387 73 73 73
0.0204388916125264 -0.000794375720738261 -0.0188030881594701 -0.06060533 0.4828148 -0.8736228 211 211 211
0.0138413770900971 0.03181124383283 0.0239343895094782 -0.4269967 0.8203158 0.3804677 79 79 79
-0.0206254493621172 0.00934632726709461 0.0318074910503846 -0.5953049 0.7565238 0.2707097 42 42 42
-0.0339481735232816 -0.0283433074979382 -0.017501431922562 -0.8236106 0.005906121 -0.5671249 75 75 75
-0.0393998461172931 -0.0104719392419428 0.0173185072715608 -0.05527339 -0.4668808 0.8825911 54 54 54
-0.0127058319452851 0.0188930099674316 0.00636763713544525 -0.560481 0.8281667 -0.001001007 65 65 65
-0.0195384092441371 0.013892103696582 0.0219430256519752 -0.5843538 0.8064122 0.09071942 80 80 80
-0.0128981311282663 0.000464774515239519 -0.00548189690192857 -0.3061333 0.3950724 -0.866141 86 86 86
0.0194526201803256 0.00934168018871429 -0.0138713291728432 0.1234615 0.5287892 -0.8397257 75 75 75
0.0219973684189974 0.00286952890701175 -0.017336535169431 0.02237939 0.494284 -0.8690124 164 164 164
0.0111362369156716 0.030815754127123 0.0238974364194255 -0.4028618 0.8590886 0.3157043 85 85 85
0.0315081298307369 0.0387051443791062 0.0130552390205677 0.4882248 0.6257107 -0.608377 71 71 71
0.0312151776326877 0.0207164781125337 -0.00669744205435013 0.3915765 0.6231797 -0.6769895 65 65 65
-0.0380506223301293 -0.0172085089254483 -0.010085718096131 -0.8780307 0.08771621 -0.4704975 178 178 178
-0.0071070914730762 0.0203245160542149 0.0222510147415237 -0.4748511 0.8634255 0.1703315 91 91 91
0.0367888282318005 0.0059937043968934 -0.0125807308030298 -0.3415419 0.03458126 -0.9392301 49 49 49
0.0108077421097095 0.0143638559242756 -0.0123694099573929 -0.007571031 0.1709336 -0.9852535 191 191 191
-0.0220431038812956 -0.0390331236668762 -0.0303662805523361 -0.8125421 -0.5820341 -0.03180768 56 56 56
0.0350155064483193 0.0473519869974071 0.0308113274941283 -0.0318023 0.9908193 -0.1313994 64 64 64
0.0066426620381419 0.00797016030695308 -0.0155360260142985 0.02804216 0.4836293 -0.8748236 163 163 163
0.0153219261003583 0.0332339577184613 0.0233157468619626 -0.4382314 0.8107758 0.3880668 63 63 63
0.0292393177904939 -0.0202868633326296 -0.0308795989767051 0.1440754 0.4746589 -0.8682979 133 133 133
-0.0129708379406912 0.0187535921797495 0.00979920633900261 -0.553064 0.8313805 0.05409848 77 77 77
-0.0268296651306006 0.0104834022045774 -0.00636584631799447 0.2027009 0.6874861 -0.6973344 32 32 32
-0.00985071642473345 -0.0495996965242582 -0.0467106964277104 0.1210935 0.5407668 -0.8324108 76 76 76
0.0343526886472332 -0.00825381153856375 -0.019572703085287 0.3647557 0.5975689 -0.7140481 49 49 49
-0.00807279870061395 -0.0368350392006982 -0.0369651333886296 0.3318727 0.3314799 -0.8831657 68 68 68
-0.0260705542810831 -0.000403519779378803 -0.0128626401447896 0.0551299 0.5251161 -0.849243 101 101 101
0.00461790718303412 -0.0338985535298935 -0.0328407297232194 0.03111036 0.1398299 -0.9896867 79 79 79
-0.0243814772580899 0.00784486824437303 -0.00627772173725955 0.4979219 0.5914439 -0.6342459 34 34 34
0.0155803336988836 0.00426505175924974 -0.0164438978367594 0.04724698 0.4768584 -0.8777094 147 147 147
-0.0243654826375566 0.0106847424582088 0.0193945618995335 -0.5519806 0.8236784 0.1298896 60 60 60
-0.0322216089127245 0.00683867968572138 0.0159081799482563 -0.4846938 0.8477713 0.2153037 60 60 60
0.0386958947350928 0.00320617906198573 -0.011322737097591 -0.4240578 0.1216219 -0.8974314 44 44 44
-0.0310924914064867 -0.0115685137404071 -0.0218458718591625 -0.5140515 0.2958297 -0.805131 180 180 180
-0.044503063793885 -0.0163578187771272 0.00299696974195013 -0.853024 -0.213473 -0.4762135 99 99 99
-0.0430082839851447 0.00640254431050624 -0.000288850476605651 -0.624018 0.779533 -0.05412751 85 85 85
0.0363566409788216 0.0471897002361537 0.0289872766105672 -0.03203434 0.9877146 -0.1529499 79 79 79
-0.00568688324148159 0.0210363889175202 0.0234940352463813 -0.4976807 0.8469329 0.1871325 74 74 74
0.00695141245241659 -0.00795894113562889 -0.0225593113702274 -0.335555 0.3619112 -0.8697259 151 151 151
0.0312272051561346 0.00940170940639318 -0.00934558437313304 -0.1791542 0.07381822 -0.9810477 78 78 78
0.0479842166184756 0.0183118093537058 0.00520871933298744 0.398348 0.644186 -0.6529498 54 54 54
0.0394024346411541 0.0287135973001478 0.00950937570354948 0.495187 0.6137276 -0.6149213 51 51 51
0.00921135442700027 0.0260365677529177 0.0345635760285802 -0.4015912 0.8788543 0.2575647 94 94 94
-0.0221951266901996 -0.0421698729506039 -0.0376120925241223 -0.9169745 -0.3424842 -0.204603 54 54 54
0.0504995924607337 0.0283383575022347 0.0158967682622075 0.4332638 0.6203714 -0.6537751 52 52 52
0.0202944811228418 0.0148627613081631 -0.00970940540227211 0.2986988 0.3864577 -0.8725992 34 34 34
0.051506936023805 0.00423840220937821 -0.00826098211495013 0.4467721 0.6240956 -0.6410143 104 104 104
0.00238808880031716 -0.0071307221501935 -0.0212156523892259 -0.2951056 0.1768619 -0.9389529 144 144 144
0.00515446048639312 0.0283431358489061 0.0227982433103046 -0.5133222 0.8130504 0.2746803 93 93 93
0.0451650910041561 0.0208526293028506 0.00626730569189476 0.4696482 0.6395977 -0.6085601 63 63 63
-0.0238563777190857 0.0123600995471673 0.012095565860032 -0.4733771 0.851967 0.2237549 33 33 33
0.0445536970891656 0.0459998675376823 0.0287445755513348 0.3815378 0.7194098 -0.5804124 44 44 44
-0.010426993561091 -0.0151445647566537 -0.0221952722828286 0.2895286 0.8677841 -0.403886 48 48 48
-0.0185587780484133 0.0149699400601022 0.0171892030107683 -0.552047 0.827282 0.1041567 50 50 50
0.0159655525299298 -0.00695184068589105 -0.0236131401389308 0.1121545 0.5551376 -0.8241624 176 176 176
-0.0347330870183074 -0.0227309078750282 -0.0160430132207396 -0.818126 0.02082234 -0.5746619 74 74 74
0.0119573990411199 -0.0189208440960402 -0.0313948640121165 -0.1497822 0.5113943 -0.8461921 201 201 201
-0.032253310540896 -0.0247428340966138 -0.0187512730256666 -0.8275399 0.02491405 -0.5608539 62 62 62
0.0328633894394845 0.0173792231011394 -0.00926372369272821 0.2680356 0.4675924 -0.8423267 50 50 50
-0.037090028390975 -0.00732133377137489 -0.0136840800997052 -0.8674425 -0.2189914 -0.4467508 77 77 77
0.0300393792559168 -0.0221526464545503 -0.0319227695523465 0.1065386 0.4625067 -0.8801915 230 230 230
0.0238097070668091 0.0401718207663844 0.0292791489652052 -0.8821087 0.4708017 0.0151661 71 71 71
-0.0392447757750807 0.00736467817024633 -0.00198833990690228 -0.371581 0.9273151 0.04488206 43 43 43
0.0494638314412104 0.00433185323504492 -0.0097589350998456 0.456802 0.6216734 -0.6362815 148 148 148
-0.0471713826437554 0.00181120057298489 0.00945862238808798 -0.6863219 0.7038451 0.1832058 107 107 107
0.0464692732982179 0.00545722067316823 -0.00961446927834914 0.4832955 0.6814476 -0.5495951 60 60 60
-0.0258875091810329 -0.0376756232260889 -0.0315237126263775 -0.7611406 -0.6003062 -0.2455554 64 64 64
0.0223816761427424 0.0367035343272661 0.00536206760534935 0.1673626 0.7172726 -0.6763947 32 32 32
-0.0152824656256363 -0.00833229098149046 -0.0136089205381311 0.3423639 0.6059265 -0.7180808 62 62 62
-0.0196034607059552 0.00376233083677469 -0.0058981734532807 0.5124904 0.6251913 -0.5886335 69 69 69
