ply
format ascii 1.0
comment File exported by Rhinoceros Version 7.0
element vertex 460
property float x
property float y
property float z
property float nx
property float ny
property float nz
property uchar red
property uchar green
property uchar blue
end_header
-0.0676424388857164 -0.0387743034377233 -0.044359552554399 -0.006916784 -0.4941806 0.8693318 143 143 143
-0.0683883528573612 -0.0362720748136467 -0.0426743990567075 -0.01320096 -0.5119781 0.858897 143 143 143
0.0535120492391341 -0.0922529429328309 -0.0737480439365201 0.5830014 -0.5693585 0.5796034 81 81 81
-0.0618690522241319 -0.0386971654549475 -0.0445886496111797 0.008455388 -0.5003109 0.8658046 142 142 142
-0.063127776418475 -0.0351414076665012 -0.0422354254351619 0.001229144 -0.488501 0.8725625 106 106 106
-0.0693343336808181 -0.0303282990565232 -0.0393107058760038 0.0002104382 -0.5024613 0.8645997 132 132 132
-0.0697905811321626 -0.0256406425255036 -0.0362416818927612 -0.008076212 -0.5019905 0.8648354 134 134 134
-0.0666535145293294 -0.0334804216603498 -0.0411307528447021 0.006752026 -0.4894604 0.8719994 134 134 134
-0.0639738980095781 -0.0304661723846787 -0.0393876493316762 0.00350699 -0.4907767 0.8712783 141 141 141
-0.0655228910356422 -0.0284921470734715 -0.0381075903416705 0.0006440208 -0.4910245 0.8711455 164 164 164
-0.0728077203134907 -0.018208194362097 -0.0318257487195984 0.01567763 -0.5102082 0.859908 156 156 156
-0.0704509793112864 -0.0154357016398898 -0.0298939926212148 -0.006186114 -0.515152 0.8570765 146 146 146
-0.0672603612321083 -0.021944028684681 -0.033988445699838 0.0002548511 -0.5023256 0.8646785 136 136 136
-0.0686223404782869 -0.0160312583310903 -0.0300279442800232 -0.007355291 -0.5185713 0.8550028 128 128 128
0.0676975385218164 -0.0187006340752868 -0.0311688218767064 0.01752205 -0.51209 0.8587531 125 125 125
-0.0657234987658826 -0.0188908353922269 -0.0321813210860008 -0.006808272 -0.508989 0.8607461 133 133 133
-0.0628501741188239 -0.0159824395793595 -0.0303361626004021 0.01236347 -0.5085293 0.8609559 140 140 140
-0.0719469303207032 -0.0121675499588412 -0.0280148002193479 0.005255726 -0.52299 0.8523226 155 155 155
-0.0727886442869607 -0.0084848472099881 -0.025660317203426 -0.002958219 -0.5219396 0.8529773 164 164 164
-0.0704660292890735 -0.0083316061445835 -0.0256259671702433 0.009352379 -0.5209712 0.853523 155 155 155
-0.0680591678694116 -0.011321621094629 -0.0274397921334019 -0.003698724 -0.514279 0.857615 119 119 119
-0.0631453288976456 -0.0124552274163012 -0.0281824981573545 -0.0006606319 -0.4966696 0.8679394 122 122 122
-0.0632119128552571 -0.0120561262383172 -0.0278704386534055 0.001543736 -0.4958533 0.8684049 124 124 124
-0.0623743725113468 -0.00786713102097825 -0.0253836854716757 -0.01546789 -0.5072837 0.8616403 169 169 169
0.0727085219207657 -0.0305306054276432 -0.0382256245216728 -0.0008338484 -0.5212493 0.853404 115 115 115
-0.0582215118805665 -0.0664627070564717 -0.0614836976952348 -0.004239777 -0.5309809 0.8473732 109 109 109
-0.0551613180678032 -0.0801204612805015 -0.0696822484008302 -0.003067394 -0.5084001 0.8611155 94 94 94
-0.049321899713024 -0.0789910328870914 -0.0689079585481213 -0.01687163 -0.4976532 0.867212 101 101 101
-0.0554817122295375 -0.0752919329031549 -0.0670303373611903 0.03113423 -0.505773 0.8621046 131 131 131
-0.0541988507921833 -0.0724181725254616 -0.0652920759637675 -0.008047466 -0.499181 0.8664603 144 144 144
-0.0519428827105193 -0.0759881591292182 -0.0675962801919504 0.04525686 -0.5228519 0.8512213 111 111 111
-0.0465469429312626 -0.0791643367872179 -0.0692585706439428 -0.02859983 -0.4855731 0.8737281 90 90 90
-0.0457370422518935 -0.0774208711583209 -0.0673386233082565 -0.01823342 -0.4880408 0.8726304 116 116 116
-0.041143576423778 -0.078723578679739 -0.0689648080600926 -0.005476247 -0.4950699 0.8688359 119 119 119
-0.0469046642083675 -0.0742315852469962 -0.0659989374164303 0.02780044 -0.5297078 0.8477244 117 117 117
-0.0490201934157977 -0.0722437534832663 -0.0651706287580427 0.022973 -0.5282632 0.8487698 100 100 100
-0.0455473152672154 -0.0743838947621774 -0.066099894399528 0.02014162 -0.4953656 0.868451 139 139 139
-0.0445575676825332 -0.0757477827952617 -0.0669088768300778 -0.007353661 -0.4782606 0.8781872 135 135 135
-0.0414531333010681 -0.0721210795535004 -0.0651063434863224 0.01452286 -0.5070358 0.8618026 110 110 110
-0.0539552396785479 -0.067626764237375 -0.0620705873849568 -0.02610268 -0.4991225 0.8661382 111 111 111
-0.0556586059502204 -0.0662795287202969 -0.0609958895811951 -0.01120517 -0.5319436 0.8467056 124 124 124
-0.0523535164721709 -0.0657948079544044 -0.061056783429794 -0.008360209 -0.4882538 0.8726617 110 110 110
-0.0482246040359051 -0.0701665644655874 -0.063763272645408 -0.003545 -0.5024972 0.8645716 129 129 129
-0.0456174897464474 -0.0702071885442157 -0.0641487836918926 0.0133186 -0.5099654 0.8600918 148 148 148
0.0458386442156198 -0.0984422808538024 -0.0694126218769458 0.9955328 -0.05837607 0.0742066 50 50 50
-0.0476525851140748 -0.065499804165347 -0.0609249308834004 0.002636909 -0.4943214 0.8692752 115 115 115
-0.0976461980352479 0.104708773612043 0.0664305276792641 -0.9598351 0.2059151 0.1905664 39 39 39
-0.0442916728111697 -0.0640888399265133 -0.060233821336257 0.00596837 -0.5023206 0.8646608 110 110 110
0.0389774546582986 0.0346534545986771 0.00159317975430826 -0.01189983 -0.4961564 0.8681516 128 128 128
-0.041905053946794 -0.0633738244782803 -0.0594197774714032 0.003309583 -0.5113618 0.8593591 141 141 141
-0.0582224791186321 -0.056032219506998 -0.0548977658279385 -0.02018178 -0.5268101 0.8497434 97 97 97
-0.054691343914226 -0.0590634453139056 -0.0567786062881478 0.00345908 -0.5184228 0.8551174 108 108 108
-0.0520511209708481 -0.0607199141079207 -0.0580171007612623 0.004636109 -0.5015015 0.8651444 108 108 108
0.00767731648419279 -0.104211449244097 -0.0572887584338783 0.9854951 0.1270996 0.1124504 80 80 80
-0.0549056629301332 -0.0558306752770061 -0.0547160689453399 -0.02283571 -0.5049089 0.8628705 109 109 109
0.0210161599414755 0.0070686242899809 -0.0152546735056358 -0.02693485 -0.5043989 0.8630506 171 171 171
-0.0477278721826089 -0.060166157812603 -0.0573608991501329 -0.03166569 -0.4967307 0.8673269 116 116 116
-0.0462608142614562 -0.0579851070625829 -0.056360944621831 -0.04239565 -0.4977035 0.8663105 130 130 130
-0.0432545690259785 -0.0601763992567758 -0.0576633854862221 -0.03998897 -0.4954138 0.8677362 116 116 116
-0.045144705929578 -0.0570293922881282 -0.0555037347706296 -0.03426829 -0.4988044 0.8660369 89 89 89
-0.062049026919484 0.115879154848036 0.0522083950293586 -0.5733027 -0.3435612 0.7438345 91 91 91
-0.0474375172950183 -0.0574324119518699 -0.055399795864419 -0.03371759 -0.5136504 0.8573368 92 92 92
-0.0466204318169128 -0.0554758562168047 -0.0540886149095945 -0.02220278 -0.5091035 0.8604189 84 84 84
-0.0430138676844836 -0.0553972668718211 -0.0544708646516891 -0.01356007 -0.4671316 0.8840838 98 98 98
-0.0566389832233445 -0.0516614305532992 -0.0518482871668166 0.01720986 -0.5269466 0.8497241 115 115 115
-0.0571188917910903 -0.0463311131495414 -0.0490136869608628 -0.01341738 -0.5055433 0.8626969 116 116 116
-0.0544976484239839 -0.0443443857508228 -0.0475489839069737 -0.006222261 -0.5014927 0.8651395 108 108 108
-0.0500604883251961 -0.0435982278884984 -0.047180126206522 -0.007564407 -0.5087333 0.8608909 100 100 100
-0.0495701807027391 -0.0517238297525425 -0.052071939487924 0.02279046 -0.5191497 0.8543794 85 85 85
-0.0428342867611335 -0.0514318195228185 -0.0520721022529631 0.0156405 -0.4838824 0.8749933 100 100 100
0.117274714436903 0.0391400864274176 0.00524084653952431 -0.02930658 -0.493067 0.8694976 98 98 98
-0.0488908597014448 -0.0466504005151899 -0.0493472855742687 -0.01205174 -0.5027885 0.8643255 124 124 124
-0.0473025710705759 -0.0465467286865401 -0.0493291573979034 -0.01166765 -0.5092018 0.860568 126 126 126
-0.0481616263799292 -0.0450348627767647 -0.0485362995011559 -0.02451083 -0.5070955 0.8615413 89 89 89
-0.0443541005924675 -0.0451011912111785 -0.0482175614458354 -0.02232726 -0.5110295 0.8592732 130 130 130
-0.0586830789238859 -0.038562450547746 -0.0443128545841296 0.02308057 -0.5040893 0.8633431 142 142 142
-0.0601240519393893 -0.0349817362697435 -0.0423041310238884 0.001504246 -0.4883246 0.8726608 162 162 162
-0.0595862697178253 -0.0335196526944187 -0.0415150193732171 0.002046554 -0.5012146 0.8653206 115 115 115
-0.0594017013714447 -0.028407396183172 -0.0379051875151736 -0.01450651 -0.5125458 0.8585374 188 188 188
-0.061134052730897 -0.0250930784443906 -0.0357485640041225 -0.01994756 -0.5034918 0.8637697 144 144 144
-0.0536438054506925 -0.0394612792196376 -0.0451268789561489 0.02675239 -0.5103915 0.859526 93 93 93
-0.0569156009433307 -0.0362135100187231 -0.0428777333698775 0.00251995 -0.4996089 0.8662474 113 113 113
-0.053811680396664 -0.0371282347780526 -0.0433677499484542 0.01137007 -0.511739 0.8590658 136 136 136
-0.0506313546211006 -0.0399311911107096 -0.0451482601732481 0.01947143 -0.5217865 0.8528539 119 119 119
-0.0503890108072156 -0.0368660375776572 -0.0431652920461646 0.01209207 -0.5216035 0.8531023 116 116 116
-0.0176097395995076 -0.0351984523685414 -0.041823109067473 -0.01519067 -0.502853 0.8642384 126 126 126
-0.0430977694711223 -0.0397644347433285 -0.0450493600725234 0.01731199 -0.4864472 0.8735384 124 124 124
-0.0469448405165114 -0.0364271870062645 -0.0428936798340356 0.02314245 -0.5057296 0.8623816 128 128 128
-0.0464590459106677 -0.0348864345364738 -0.0420685420020566 0.02853099 -0.5063242 0.8618711 99 99 99
-0.0290028210213364 -0.0677263095488142 -0.0620225656571393 0.02091696 -0.5101057 0.8598574 131 131 131
-0.0552677301462716 -0.0294968859311145 -0.0381677767194462 -0.01510889 -0.5174112 0.8556035 97 97 97
-0.0566261373525947 -0.0282734176301074 -0.0379452531959266 -0.009587563 -0.5191272 0.8546432 154 154 154
-0.0564642259469874 -0.0260147804350348 -0.036641744942358 0.003420127 -0.5181388 0.8552897 138 138 138
-0.0534792030132363 -0.0269065132352533 -0.0369063008296535 -0.00521472 -0.5207019 0.8537226 105 105 105
-0.050792374033783 -0.0296643532557576 -0.0387166212949784 -0.02610426 -0.4863127 0.8733948 126 126 126
-0.0510591614161204 -0.0245553886898497 -0.0355130194756533 0.01988601 -0.5010275 0.8652028 116 116 116
-0.0481389553298648 -0.0296231510867586 -0.0387941042499146 -0.01336822 -0.4990155 0.8664899 114 114 114
-0.0456434950819857 -0.0302337313680139 -0.0392028414807624 -0.0074193 -0.5043268 0.863481 112 112 112
-0.0498105620745077 -0.0247861427574986 -0.0355600961508039 0.01757144 -0.4924063 0.8701881 139 139 139
-0.0446557138619061 -0.0241683509577278 -0.0354197836387604 -0.005943879 -0.5070345 0.8619052 135 135 135
-0.0603984836770439 -0.0186169336873057 -0.0318121864944816 0.002463159 -0.5164335 0.8563238 93 93 93
-0.0610492748674667 -0.0166015248479525 -0.0304353879866662 0.02251993 -0.5190455 0.8544499 139 139 139
-0.0603510987751394 -0.00946840904871571 -0.0265509359870723 -0.02697715 -0.4908627 0.8708192 138 138 138
-0.0567438093257677 -0.0236047020841134 -0.0351959233945333 -0.003503064 -0.5047429 0.8632627 126 126 126
-0.0541070877963006 -0.0197110926933016 -0.032792259119372 -0.001310092 -0.4782697 0.878212 152 152 152
-0.0575543706649624 -0.0152277689853458 -0.0297120411299729 0.0250858 -0.502847 0.8640113 128 128 128
-0.0533446630371843 -0.0170102007805482 -0.0310867188298407 -0.005150256 -0.4981758 0.8670608 149 149 149
-0.0524569758521154 -0.0147358902413175 -0.0296940923017558 0.007251378 -0.5050707 0.8630475 97 97 97
-0.0500594787599682 -0.0228247803370252 -0.034392332522315 0.01718723 -0.5045795 0.8631942 114 114 114
-0.0489094055174757 -0.0194135026341542 -0.0324718825303667 -0.007097767 -0.5168805 0.8560281 100 100 100
-0.047555005299452 -0.0191150994850604 -0.0322789839073834 -0.0159264 -0.521 0.8534081 102 102 102
-0.0494329939753899 -0.0183252781558413 -0.0318375904459726 -0.006829026 -0.5177462 0.855507 107 107 107
-0.0174483153642289 -0.0512051816073934 -0.0516120930600358 -0.0006951506 -0.511108 0.8595162 97 97 97
-0.0479043071616894 -0.0151081878960854 -0.029733285799714 -0.0004729013 -0.5161105 0.8565218 100 100 100
-0.0573438077150463 -0.00926063540754529 -0.0263377559056282 -0.02343006 -0.4919518 0.8703071 150 150 150
-0.0549975068905795 -0.00609095641518265 -0.0243528029535985 -0.0158191 -0.4880458 0.8726746 135 135 135
-0.0537380562784149 -0.00835573677259838 -0.0256608850869003 -0.0131499 -0.4931382 0.8698516 157 157 157
-0.0530470775134444 -0.00415860217651687 -0.0228285893611979 0.001504167 -0.4855094 0.8742301 146 146 146
-0.048670998255663 -0.00919824052641782 -0.0261625949762694 -0.007132965 -0.5095497 0.8604117 133 133 133
-0.0468735642084148 -0.00898031065345095 -0.0259214623054494 -0.008826329 -0.5117519 0.8590879 138 138 138
-0.0463510996121004 -0.00383779585032595 -0.0229072876857563 0.001198856 -0.5150132 0.8571814 126 126 126
0.126534535781372 -0.061840823525374 -0.0330414464447401 -0.123651 -0.8054072 -0.5796806 41 41 41
-0.0366770410543844 -0.0805706852643329 -0.0701373723625058 0.001376999 -0.5095498 0.8604401 122 122 122
-0.0368806227152692 -0.0775251633857458 -0.0682454697697438 -0.01065002 -0.5258713 0.8504975 122 122 122
-0.0357677883095073 -0.0731610590196832 -0.06546098672995 -0.008572266 -0.5359924 0.8441793 131 131 131
-0.0325976360849833 -0.0771267355008538 -0.0679593448052565 -0.01772794 -0.5226347 0.8523723 97 97 97
-0.0330062425146291 -0.0717690012484277 -0.0645427368231493 0.003679049 -0.5294644 0.8483242 122 122 122
-0.0321217613129408 -0.0729753246667486 -0.0652388534661781 -0.01108552 -0.5241029 0.8515828 131 131 131
-0.0294562851610478 -0.080324018473853 -0.0698872238959578 -0.009674441 -0.5228263 0.8523844 102 102 102
-0.0297496178090002 -0.0734550697044011 -0.0655903287372397 -0.01024644 -0.5155668 0.8567881 118 118 118
-0.039331777849859 -0.0685720850011305 -0.0627728183070391 -0.002028084 -0.521261 0.8533949 132 132 132
-0.0402883517323529 -0.0670311923460464 -0.0616630915326156 0.0002847868 -0.5145935 0.8574342 148 148 148
-0.0393115169512979 -0.062018880838048 -0.0590492486695017 -0.007482601 -0.5148609 0.857241 143 143 143
-0.0122798280229164 0.0652072330388409 0.020386984526321 -0.02153892 -0.491936 0.8703648 128 128 128
-0.0339276386959964 -0.0684998210558503 -0.0625317187323575 0.0101995 -0.5242073 0.8515296 120 120 120
-0.0335430364566398 -0.0649680605196901 -0.0604487747192805 0.007647118 -0.5256321 0.8506776 120 120 120
-0.0286158041057498 -0.0662134345136569 -0.0612198512771244 0.002405318 -0.5092323 0.8606257 136 136 136
-0.0273807074259298 -0.066305599351191 -0.0614185140170898 0.009162361 -0.5078423 0.8614013 138 138 138
-0.0279218069884051 -0.0621822093874203 -0.0587438979756174 0.002214387 -0.5147623 0.8573301 157 157 157
-0.0226947487196396 -0.07796474586154 -0.0684520279921309 -0.003069513 -0.5222614 0.8527799 131 131 131
-0.0263268165015011 -0.0714629882870093 -0.0642693790181263 0.008641751 -0.5048499 0.8631639 117 117 117
-0.0230682712852608 -0.0733300799470095 -0.0654981913536469 -0.003678326 -0.5055253 0.8628039 114 114 114
-0.0264511550558275 -0.0682714448831655 -0.062403276056019 0.02678864 -0.5099713 0.8597742 144 144 144
-0.0259784303835109 -0.0647819693643632 -0.0603199201199591 -0.00154835 -0.5228646 0.8524143 143 143 143
-0.0263442526417985 -0.0628900408102958 -0.0589288987680061 0.0009042135 -0.5215266 0.8532345 131 131 131
-0.0416425494241652 -0.0598198319434277 -0.0573415510702739 -0.01810643 -0.5015402 0.8649449 131 131 131
-0.0395548711009148 -0.0598365779210345 -0.0573500230541158 -0.01053952 -0.4989963 0.86654 110 110 110
0.0676121486769472 0.0612821288429871 0.0183789461474502 -0.006350016 -0.5066661 0.862119 165 165 165
-0.0352308377636179 -0.0581158625778206 -0.0563315721142001 0.0006986446 -0.5195866 0.8544175 132 132 132
-0.0388431863458538 -0.0547574465415487 -0.0543082592987947 -0.005633725 -0.4896115 0.8719225 115 115 115
-0.0374073630230622 -0.0534463906572716 -0.053361571867668 -0.009999298 -0.5103629 0.859901 103 103 103
-0.0690519299603851 0.0902198893162562 0.0352360043065967 -0.0047944 -0.5197631 0.854297 140 140 140
-0.031730809044423 -0.0603505289456158 -0.0573565607556745 -0.006858285 -0.526294 0.850275 110 110 110
-0.0345566538703488 -0.0557713973197558 -0.055027579614101 -0.004379986 -0.5145394 0.8574556 129 129 129
-0.0312699332220414 -0.0606219898455691 -0.0578767974564017 -0.008016128 -0.5190079 0.8547319 128 128 128
-0.031246288371503 -0.0549041930532781 -0.054434219954971 -0.01186421 -0.519044 0.8546652 138 138 138
-0.0306409957020164 -0.0524635812669658 -0.0522360291019242 -0.01080604 -0.5061263 0.8623917 130 130 130
-0.0392161763345702 -0.0496861149830866 -0.0511577275608844 0.003031971 -0.5065768 0.8621895 129 129 129
-0.038596203550858 -0.0487726287414341 -0.0502777498186677 -0.004905401 -0.5116974 0.8591517 121 121 121
-0.0371181470588708 -0.049722002552428 -0.0512038174753824 -0.002039834 -0.509001 0.8607635 145 145 145
-0.0397643526196569 -0.0426873804411938 -0.0467173219069729 0.01259615 -0.5056667 0.862637 132 132 132
-0.0374035729366482 -0.0467490133007087 -0.0494107728509094 -0.006478695 -0.5040369 0.8636578 94 94 94
-0.0331229709248451 -0.0510323889734394 -0.0518309272370301 -0.0007966362 -0.5172478 0.8558353 91 91 91
-0.029202352439802 -0.0497809411667256 -0.0506975561137866 0.01080663 -0.5113815 0.8592858 103 103 103
0.0793253295100489 0.106379324613692 0.0463831908242059 -0.006627921 -0.5312349 0.8471986 191 191 191
-0.0331403618873107 -0.0430019781884873 -0.0468704229957358 -0.01125709 -0.5235975 0.8518913 109 109 109
-0.025994738252427 -0.0596534681593242 -0.0572488252455927 0.009727469 -0.512475 0.858647 119 119 119
-0.0270493032288086 -0.0543854597588829 -0.0540365058681812 -0.005312669 -0.5124973 0.8586724 134 134 134
0.0121083242353071 0.0762869025558688 0.0269533268413067 -0.01459472 -0.5151022 0.8570045 84 84 84
-0.0244410344834378 -0.0516587026659985 -0.0520513663945596 -0.01422624 -0.5236493 0.8518151 109 109 109
-0.0271774118001633 -0.0460904208907539 -0.0486101871299142 -0.007732756 -0.515645 0.8567674 90 90 90
-0.0260904983412269 -0.045714890199404 -0.0490114556170928 -0.003681566 -0.5251402 0.8510078 127 127 127
0.069754764092782 -0.0576363154053074 -0.0551145879609238 0.002590984 -0.4649497 0.8853333 122 122 122
-0.0198328625947801 -0.0763880042168406 -0.0671869522788097 0.006835332 -0.501091 0.8653676 101 101 101
-0.0210078192219116 -0.0714841626625393 -0.0644658048364401 -0.002481143 -0.5130242 0.8583706 158 158 158
-0.0182168441547916 -0.0797992384301678 -0.0693078819499303 -0.0145111 -0.5058625 0.8624921 100 100 100
0.0412917610680066 -0.0744171116725266 -0.0655277635982886 0.0006815649 -0.52525 0.8509477 118 118 118
-0.0168584731903709 -0.0781470774365798 -0.0684164726791512 0.01194601 -0.488182 0.8726601 106 106 106
-0.018667362455425 -0.0752434008656852 -0.0668139701798001 0.006157453 -0.5026538 0.8644659 107 107 107
-0.0187944530090896 -0.0732616961795457 -0.0652273681653619 -0.005975372 -0.5027287 0.8644236 97 97 97
0.119025383736769 -0.0426328972850929 -0.0452603938580199 -0.02516367 -0.5407674 0.8407957 108 108 108
0.0772168298897249 -0.0459402661422368 -0.0478994033382213 0.01110202 -0.5163057 0.8563324 140 140 140
-0.0173386695723767 -0.0724922510639834 -0.0648158014217105 -0.004638945 -0.4968597 0.8678185 112 112 112
-0.0144952203547541 -0.0745227819679175 -0.066230132590265 -0.006228008 -0.5168399 0.8560594 128 128 128
-0.0152887135997015 -0.0707659942657375 -0.0638358257312641 -0.01004098 -0.5156735 0.8567263 129 129 129
-0.021475067228411 -0.0707354915223763 -0.0637104379121565 0.00771761 -0.5171591 0.8558545 118 118 118
-0.0201836018605741 -0.0676092723788085 -0.0619992887366913 0.00842177 -0.5142497 0.8575991 151 151 151
-0.0122348967576054 0.0609215901693302 0.0175122988117807 0.001720279 -0.4974229 0.8675065 145 145 145
-0.0206304908988986 -0.0608133171856736 -0.0577174969092349 0.01991387 -0.5115775 0.8590063 141 141 141
-0.0157601250781507 -0.0692098280489754 -0.0627553743201642 0.01054367 -0.5117525 0.8590683 114 114 114
-0.0194712806653552 -0.0630071527225773 -0.0589183170370556 0.00443982 -0.5022443 0.8647144 142 142 142
-0.0178181171120673 -0.0647973109921393 -0.0603148892525723 0.004341748 -0.5107446 0.8597215 141 141 141
-0.0167656350625909 -0.0611742052780235 -0.0579457704003901 -0.001018394 -0.5135692 0.8580476 122 122 122
-0.0150251595699684 -0.0609911925964176 -0.0578745456818477 0.0006241534 -0.5197093 0.8543429 103 103 103
0.0843118918736598 -0.0299282574883919 -0.0379843048076736 -0.005848868 -0.5121642 0.8588676 127 127 127
0.0572383425871368 0.0659547119232304 0.0211185705345514 -0.01983662 -0.4848508 0.8743719 184 184 184
-0.0177604713969557 -0.0590237747371944 -0.0568130374809874 -0.01092773 -0.5228326 0.8523653 136 136 136
-0.0173620019663283 -0.0569361584481288 -0.0555812065989593 -0.02634046 -0.5257307 0.8502432 129 129 129
-0.0138974981322626 -0.0590456615969444 -0.0565679086785904 -0.0290079 -0.5226497 0.8520539 102 102 102
-0.018426037777294 -0.0522707794477395 -0.052613360718979 -0.01902049 -0.5124474 0.8585079 111 111 111
-0.0155055704958253 -0.052917502772218 -0.0526933984177257 -0.003638927 -0.5360978 0.844148 93 93 93
-0.0218937599504718 -0.0460469893516561 -0.0485473997545102 0.00521229 -0.5396347 0.8418831 102 102 102
0.0787109382537716 -0.105081433547399 -0.0592708758737026 0.9934418 -0.01102296 -0.1138067 35 35 35
-0.0177944217398887 -0.0480358785963325 -0.0491857264491074 0.0008203901 -0.4912989 0.8709907 134 134 134
-0.0164138126930555 -0.0496201624129575 -0.0506844807375374 0.01696357 -0.5048445 0.8630435 134 134 134
-0.0172928863633146 -0.0460017711188494 -0.0488093266437135 0.003538218 -0.4888519 0.8723596 92 92 92
-0.00700664841079135 -0.0775179363319097 -0.0678304557389285 -0.03124724 -0.5025959 0.8639566 82 82 82
-0.00576928647146113 -0.0779373996707688 -0.0683425481434359 -0.03152557 -0.494973 0.8683363 90 90 90
-0.0060286138365977 -0.0761111493665819 -0.066741895558892 -0.02721016 -0.4974038 0.8670923 101 101 101
-0.00543386224427733 -0.0739995359873749 -0.0656681807391851 -0.008745729 -0.4993026 0.8663835 122 122 122
-0.0109518975156218 -0.0675236260311399 -0.0617081684821119 0.004104866 -0.5248314 0.8511963 108 108 108
-0.00735130511983906 -0.0679248059204879 -0.0617448333637032 0.005122116 -0.5332853 0.84592 112 112 112
-0.00533088236405632 -0.0673829033350216 -0.0615010942318926 -0.007072225 -0.5254642 0.8507863 112 112 112
-0.0109954442192626 -0.0639870059813231 -0.0596811914866492 0.003413817 -0.5245121 0.8513961 121 121 121
-0.00789527289393677 -0.0621321586403731 -0.0583127946502187 -0.001909166 -0.5311503 0.8472754 101 101 101
-0.00426185388648914 -0.0790404965368899 -0.0689128186547641 -0.04167686 -0.5023271 0.8636727 87 87 87
-0.00148387115252557 -0.0792855179129867 -0.0689667597741313 -0.02777725 -0.5221746 0.8523861 117 117 117
-0.00190527484017711 -0.0751809893000587 -0.06633422905699 -0.01378538 -0.5032694 0.8640196 115 115 115
0.00267135820054731 -0.0752896787178192 -0.0663858492322913 -0.001688241 -0.4995649 0.8662748 117 117 117
0.081530832630802 -0.0925390423759073 -0.0714300069974658 0.866883 -0.3772726 0.3258514 68 68 68
-0.00295452676128871 -0.0709159301348664 -0.0635573183361787 -0.01545581 -0.4917005 0.8706272 119 119 119
-0.000310377942420281 -0.0706203273624159 -0.0635014928681039 -0.02792508 -0.5060955 0.8620253 124 124 124
-0.00490428592186909 -0.0685868456660833 -0.0623378597810121 -0.0107603 -0.507359 0.8616676 121 121 121
-0.00320870074197765 -0.0658163761025855 -0.0603239655673528 -0.001075626 -0.5298622 0.8480831 66 66 66
0.00020588248108 -0.06954845472398 -0.0630875735569069 -0.0267464 -0.506116 0.8620506 96 96 96
0.06200945531184 -0.0646259670051028 -0.0592573649794066 -0.01230815 -0.503194 0.8640858 111 111 111
0.00212845172748732 -0.0667961618283527 -0.0609353896983343 -0.01835867 -0.5009397 0.8652875 129 129 129
-0.00568048204109006 -0.0603909418282127 -0.0572936958992946 -0.005137736 -0.523535 0.8519887 113 113 113
-0.00103010560184691 -0.0633840840558462 -0.0585852704048088 0.008810093 -0.5172248 0.8558042 94 94 94
0.00185589821904353 -0.0637846308694976 -0.0591225627745644 -0.004055619 -0.5066651 0.8621334 134 134 134
0.000633664516976662 -0.062428205769008 -0.0582988179401443 0.006023621 -0.5149815 0.8571801 114 114 114
0.00533862379787786 -0.075469156661517 -0.0666392541108277 -0.002203323 -0.5140581 0.8577526 100 100 100
0.00868214188067595 -0.0785526022933865 -0.0683165716068439 0.02019762 -0.4990835 0.8663185 96 96 96
0.00514464136958104 -0.072250165093481 -0.064342848942549 -0.02804501 -0.5191106 0.8542468 119 119 119
0.00826802783824965 -0.0739533194976975 -0.0657437132995265 -0.03427894 -0.5110428 0.8588715 92 92 92
0.00957436981283299 -0.0720042705768211 -0.0643566447944739 -0.01859346 -0.4976113 0.8672008 113 113 113
0.0125492873613617 -0.0785560615838683 -0.0686284873048884 -0.01769344 -0.5078235 0.8612794 122 122 122
0.0116531784404392 -0.0704135133972013 -0.0635105806573817 0.01537326 -0.4886011 0.8723719 87 87 87
0.0038502516753165 -0.0687777815878623 -0.0620436656581967 -0.01656627 -0.5215644 0.8530511 118 118 118
0.00759447026066118 -0.0686046093805056 -0.0619796535790294 0.006542657 -0.4848093 0.8745954 93 93 93
0.134263539777158 0.0384424606082967 0.0123243546096711 -0.1802433 -0.9338376 -0.3089656 61 61 61
0.00458095904630129 -0.0603516166865701 -0.0568724188715237 0.01195157 -0.4892205 0.8720782 100 100 100
0.00821681510071492 -0.0634175278903413 -0.0591774626204231 0.0073243 -0.4782176 0.8782108 137 137 137
0.00799591104473762 -0.0620697619979335 -0.0582816842044583 -0.002370044 -0.477564 0.8785937 120 120 120
-0.0110049400892493 -0.059206799931363 -0.05648163899242 -0.01967069 -0.5161846 0.8562514 98 98 98
-0.00731184590583256 -0.048906533441718 -0.0501806740061116 0.01228645 -0.509962 0.8601092 97 97 97
-0.00633181163869923 -0.0595381922160697 -0.0567192822918447 -0.00342993 -0.5205876 0.8538014 133 133 133
-0.0124617786756427 -0.055838399622482 -0.0545305855490562 -0.02771084 -0.5155547 0.8564085 83 83 83
-0.00985881106231234 -0.0536162231498173 -0.0530272021614714 0.007211342 -0.4888854 0.8723182 111 111 111
-0.0103962648687812 -0.0477842725236535 -0.0498355891573274 0.01478495 -0.5049003 0.863051 133 133 133
-0.0114656774051598 -0.043381535178971 -0.0470718614628424 -0.02328313 -0.5055553 0.86248 106 106 106
-0.0102733889950124 -0.043127294300577 -0.0467079475681383 -0.0170531 -0.5060414 0.8623406 98 98 98
-0.00835227109539272 -0.045635941552 -0.0482030870094872 -0.007181273 -0.5255066 0.8507592 113 113 113
-0.00959844030606982 -0.0427589904409003 -0.0463226805168287 -0.01823215 -0.5089803 0.8605851 99 99 99
-0.00395738070747331 -0.0560479762305823 -0.054435439229228 0.02592912 -0.5198044 0.8538917 161 161 161
-0.00256461113204454 -0.0559633522383096 -0.0542806896262295 0.02876791 -0.5091407 0.8602024 122 122 122
0.00172097536295324 -0.0584062543229908 -0.0557939490462876 0.01147429 -0.5006639 0.8655657 122 122 122
-0.0051015346417409 -0.05515894017475 -0.0541890985333168 0.03295945 -0.5161987 0.8558344 143 143 143
-0.00511516299955117 -0.051611353126368 -0.0520014089144355 0.006830169 -0.4934652 0.8697388 113 113 113
0.0756442513500706 -0.0827026698051546 -0.0704654062380709 -0.01090632 -0.4968593 0.8677626 129 129 129
-0.0060397305208153 -0.0507540269283625 -0.0515753724789762 -0.002444999 -0.5001453 0.865938 116 116 116
-0.00266212647277042 -0.049996122860582 -0.0511402245262266 -0.0218498 -0.4941444 0.8691052 157 157 157
-0.00164579791163089 -0.0469004384472574 -0.0489443247975428 -0.009679225 -0.4920586 0.8705083 142 142 142
-0.00168407834712436 -0.0456185982178787 -0.0480194753287629 -0.01115277 -0.5071445 0.8617889 160 160 160
0.00254551093503785 -0.0567016236769567 -0.0548553952279562 0.04369584 -0.495085 0.867745 127 127 127
0.00200043553768303 -0.0527713836714395 -0.0528991211495298 0.03496865 -0.4934643 0.8690628 188 188 188
0.0103207399723488 -0.0534510568366119 -0.0530507341602776 0.03419782 -0.5238824 0.8511038 154 154 154
0.0120248195263009 -0.0580611490023767 -0.0554742418595131 -0.01769605 -0.4978777 0.8670667 138 138 138
0.00398764731225265 -0.0466729888496689 -0.0488980669080606 -0.02497485 -0.5071664 0.8614862 157 157 157
0.00717525675652286 -0.0496924234899129 -0.0507659356100967 -0.01753993 -0.5128865 0.8582773 182 182 182
0.00357095839809007 -0.043368173826254 -0.0466675590603835 -0.003773003 -0.5024572 0.8645939 143 143 143
0.00384328069172435 -0.0418389587354294 -0.0458100232666781 -0.01733088 -0.5133412 0.8580096 146 146 146
0.0065272523831128 -0.0412682695979273 -0.045467692832372 -0.02579057 -0.5200257 0.8537612 131 131 131
0.00947112332654276 -0.0495825602821084 -0.0508422199796962 -0.00882188 -0.5206348 0.853734 167 167 167
0.00916184244819052 -0.0409895130270054 -0.0451742491389337 -0.03166778 -0.5077771 0.8609062 144 144 144
-0.0391567094887524 -0.0403676205095435 -0.0455451897713682 0.01390623 -0.5083287 0.8610508 135 135 135
-0.0346602449678404 -0.0408006381611807 -0.045672154522128 -0.004155959 -0.5273165 0.8496588 111 111 111
-0.0410158751801628 -0.0366367725408664 -0.0432195121979816 0.01290878 -0.4982983 0.8669096 121 121 121
-0.0313740620130689 -0.0419722819517253 -0.0460313112776877 -0.01780124 -0.517472 0.8555149 123 123 123
-0.0316652065525282 -0.0397083287003386 -0.0447681231617737 -0.01312508 -0.5164202 0.8562347 121 121 121
-0.0309115630140857 -0.0395122812119465 -0.0443510646154633 -0.006312852 -0.515411 0.8569199 138 138 138
-0.0322756987272155 -0.0342525927765833 -0.041648254066788 0.01121421 -0.5222514 0.8527178 111 111 111
-0.0294786861897589 -0.0347135685805388 -0.0417441318930563 0.01386227 -0.511959 0.858898 125 125 125
-0.0430326996219565 -0.032141320004194 -0.0404113068659384 0.002576425 -0.5064908 0.8622415 138 138 138
-0.0401131187284784 -0.0285211956284215 -0.0382845922011869 0.0001847992 -0.49593 0.8683625 196 196 196
-0.0386877060305073 -0.0307757463828574 -0.0397096785322246 0.009498186 -0.5071397 0.8618115 134 134 134
-0.0421966310231321 -0.0243579955519104 -0.0357271704747305 -0.01819501 -0.5069634 0.8617755 118 118 118
-0.0383352433062636 -0.0240143313401737 -0.0353505551556432 -0.02189457 -0.5172732 0.8555402 137 137 137
-0.0353765676361069 -0.0292812116908771 -0.0387878808761811 -0.00714456 -0.5260074 0.85045 151 151 151
-0.0309494489395123 -0.0305980443797773 -0.0392220307193804 0.003910771 -0.5225314 0.8526111 77 77 77
-0.032916713440986 -0.02551664801748 -0.0361806649745086 -0.01277846 -0.5246838 0.8512012 114 114 114
-0.0325260821379483 -0.023742856626787 -0.0352923004527597 -0.004300239 -0.51871 0.8549394 98 98 98
-0.0261049574949492 -0.0401252974553222 -0.0451012730283982 0.007806127 -0.5058205 0.8626035 106 106 106
-0.0271517415902096 -0.0398238763707818 -0.0448454414977915 -0.0007074008 -0.4984529 0.8669165 136 136 136
-0.0253300051969299 -0.0376354985250865 -0.0436054848478648 0.01239993 -0.5019838 0.8647881 151 151 151
-0.0250062966725229 -0.0356783753806182 -0.0424391954446835 0.000202167 -0.5064331 0.8622792 127 127 127
-0.0265905667100013 -0.0341461817441839 -0.0414609930114997 -0.01178838 -0.507807 0.8613902 113 113 113
-0.0271335486954425 -0.0261948030653916 -0.0362322427980575 0.005738944 -0.5152043 0.8570482 130 130 130
-0.0255172346622961 -0.0268697878891956 -0.0369114675138223 0.00304924 -0.5158885 0.8566504 181 181 181
-0.0284253328730779 -0.0251284738924389 -0.0358048217369641 0.006500593 -0.5134939 0.8580686 168 168 168
-0.0426612789027527 -0.0219729203582585 -0.0339280873855937 0.003143802 -0.5103563 0.8599573 146 146 146
-0.0411525905128651 -0.0208247805150917 -0.033299155952073 -0.002598908 -0.5150437 0.85716 114 114 114
-0.0358215558252284 -0.0225511732980499 -0.0344154253210157 -0.01040661 -0.5145416 0.8574023 131 131 131
-0.0390803421870016 -0.0186440423365309 -0.0320249296865675 0.001349321 -0.5103079 0.8599907 126 126 126
-0.0412709858596805 -0.0158039845110566 -0.030163055357269 0.006624735 -0.5062248 0.8623762 137 137 137
0.137016799816015 0.033129498602599 0.0246241040191775 -0.1098275 -0.9000814 -0.4216532 52 52 52
-0.0434396830041872 -0.0149607700015293 -0.029364197617232 0.008568161 -0.5065468 0.8621699 130 130 130
-0.0385012279850141 -0.0173809061104158 -0.031103179912668 0.006862503 -0.5031971 0.8641444 127 127 127
-0.0361573198287299 -0.0175591132916573 -0.031170604205756 0.01522469 -0.5097886 0.860165 151 151 151
-0.0315242085685137 -0.0185366572240899 -0.0317723408677681 0.004113032 -0.5157833 0.8567092 163 163 163
-0.0346504011295576 -0.0178629527153988 -0.0314643535954961 0.0128605 -0.5103639 0.8598623 166 166 166
-0.0331295117434927 -0.015347459757218 -0.030149435710432 0.009286232 -0.5143688 0.8575188 157 157 157
-0.0417485342136978 -0.0112120339508524 -0.0275085747022623 0.005896485 -0.5018844 0.8649146 156 156 156
-0.0394723418105212 -0.0101878311448054 -0.0268219090201488 -0.009161646 -0.5036417 0.8638641 150 150 150
-0.0436343636233989 -0.00745968655484341 -0.0249853641327636 -0.006697869 -0.5027467 0.8644078 140 140 140
-0.0427189612425378 -0.00802691608249739 -0.0256990870405262 -0.00577881 -0.5051298 0.8630241 133 133 133
-0.0407926624211719 -0.00874025873704409 -0.0259682640967258 -0.008911088 -0.5023124 0.8646404 168 168 168
-0.0370356791758883 -0.00715681921892608 -0.0249205404764613 -0.004528513 -0.5116438 0.8591857 120 120 120
-0.0389988190494353 -0.00498768109940273 -0.0235730793493768 -0.005614173 -0.5046578 0.8633012 146 146 146
-0.034942279348317 -0.0103807123863632 -0.0270230492254499 -0.00451417 -0.5167671 0.8561141 160 160 160
-0.0304619187819943 -0.0118442364703167 -0.0278188827309856 -0.01108429 -0.5205261 0.8537738 203 203 203
-0.035954574812179 -0.00854412896339707 -0.0257256216335012 -0.008585115 -0.5161552 0.856452 143 143 143
-0.0340155992682076 -0.00754184110979961 -0.0250961130300216 -0.004827471 -0.5226343 0.8525433 141 141 141
-0.0366284548979743 -0.00348236678197089 -0.0227393604391334 -0.004407138 -0.503884 0.8637601 122 122 122
-0.0322785856264391 -0.00859594037926947 -0.0256891448182164 -0.006513986 -0.5224978 0.8526158 130 130 130
-0.0306191968641318 -0.00466794227099476 -0.0231706655363237 -0.003982436 -0.5216798 0.8531321 185 185 185
-0.0293407717184553 -0.0118697774809889 -0.0277616130540663 -0.006849861 -0.5159247 0.8566065 205 205 205
-0.0295016742414256 -0.0049390069348163 -0.0231931047178363 -0.001887647 -0.517405 0.8557386 188 188 188
-0.0235742758160273 -0.0407881162560483 -0.0450665855649846 0.008760168 -0.5221425 0.8528132 88 88 88
0.125658237336351 -0.0457217360768548 -0.0470446981517788 0.00882324 -0.6085184 0.7934907 77 77 77
-0.0219893448582154 -0.0338686194725694 -0.0410792853614436 -0.01215318 -0.5160541 0.8564698 97 97 97
-0.0193886874380014 -0.0407939272786452 -0.0452639981574513 0.02489497 -0.5087677 0.8605438 123 123 123
0.0327253381757298 0.121475590979551 0.0554398343312304 -0.008677066 -0.5289706 0.8485958 129 129 129
-0.0184136259651382 -0.0371268603803958 -0.0431363527922631 -0.008444733 -0.5051196 0.863008 118 118 118
-0.0208317526324464 -0.0336648724288553 -0.0409852362898336 -0.01241941 -0.5181245 0.8552151 96 96 96
-0.0165373261683563 -0.0395914941613152 -0.0450146049238031 0.01355793 -0.5068176 0.8619467 103 103 103
-0.0146850674660488 -0.0390443119663485 -0.0445602542108346 0.01640244 -0.5086811 0.8607988 119 119 119
-0.0146440673633128 -0.0353518111699844 -0.0419366157255409 -0.01432271 -0.5037736 0.863717 128 128 128
-0.0161326288695376 -0.0323527154367477 -0.0401677467605905 -0.01129141 -0.5123049 0.8587294 95 95 95
-0.0139195614358734 -0.0335024909744166 -0.0407942168237116 -0.0131766 -0.5058295 0.8625329 72 72 72
-0.0248712578063262 -0.0307126938865085 -0.0391895413991616 -0.003371679 -0.5155192 0.8568714 87 87 87
-0.0233194086447197 -0.0304792436835226 -0.0388158807064972 0.002591111 -0.5180471 0.8553482 101 101 101
-0.0242227469328333 -0.0270744050710497 -0.0371828746528639 0.008709537 -0.5114155 0.8592895 178 178 178
-0.0197537467262721 -0.0301565812747882 -0.0389550127168648 -0.004384877 -0.5191159 0.8546926 117 117 117
-0.020468062998888 -0.0259577842791394 -0.0362774300221698 -0.00103881 -0.5324147 0.8464831 194 194 194
-0.0140200533086952 -0.0302081744372156 -0.0386951267174463 -0.01068334 -0.4925777 0.8702029 107 107 107
-0.0170848767046303 -0.0253190934078017 -0.0359421284329431 -0.003044627 -0.5361898 0.844092 190 190 190
-0.0168397907588913 -0.0236895391090356 -0.0347422576619569 -0.004797911 -0.5337244 0.8456449 147 147 147
-0.0192782219385488 -0.0178005247172283 -0.0316031198898312 -0.0151789 -0.5267797 0.8498663 110 110 110
-0.064423705533136 0.0518621451399205 0.0113658233905671 0.01284369 -0.5134459 0.8580258 195 195 195
-0.0210283547258521 -0.01324706944736 -0.028388418245613 0.01987997 -0.5279164 0.8490636 130 130 130
-0.0193239028334906 -0.0138768162841241 -0.0287338088147459 -0.008529672 -0.529568 0.8482246 127 127 127
-0.0267367114352428 -0.0123044556872527 -0.0277511316607535 0.009169231 -0.5105661 0.8597897 201 201 201
-0.0183783863501241 -0.0103208578441347 -0.0264330485216769 -0.01355534 -0.5409358 0.8409547 120 120 120
-0.0188121422522429 -0.00843860593772972 -0.0254041587359281 -0.03444328 -0.5325505 0.8456971 122 122 122
-0.018329614892048 -0.00697792585185342 -0.0242875731554619 0.001090673 -0.52135 0.8533422 122 122 122
-0.0197595392787848 -0.00552097563364573 -0.0234171931374327 -0.001523819 -0.5159307 0.856629 119 119 119
-0.0162080755787124 -0.0107680934027727 -0.0266887770833278 -0.006005077 -0.519616 0.8543788 136 136 136
-0.0158937713420819 -0.0105760177468873 -0.0263043950629482 -0.005377012 -0.5087765 0.8608819 114 114 114
-0.015019980504916 -0.00969635740798525 -0.0259811923616122 -0.01046575 -0.5024953 0.8645166 131 131 131
-0.0168190037441232 -0.0028003451319949 -0.021819361159007 0.009731027 -0.5202361 0.853967 112 112 112
-0.0112565610958546 -0.0391619971585824 -0.0440700931600403 0.01041027 -0.5271762 0.8496922 133 133 133
-0.00674839180392928 -0.0399717952292552 -0.0447996316064394 0.002529258 -0.5012117 0.865321 103 103 103
-0.0128035258537751 -0.0366234381663259 -0.0430637008344943 -0.003282207 -0.5115002 0.8592769 78 78 78
-0.00821315081320195 -0.0327563005418756 -0.0405604956838207 0.008502793 -0.5123382 0.8587417 84 84 84
-0.0127799927950361 -0.0266117216999993 -0.0364707906304498 -0.02825851 -0.5037774 0.8633712 161 161 161
-0.0948332790898201 0.110502814096019 0.0474048475013 0.004199139 -0.5071457 0.8618501 187 187 187
-0.0100868995534231 -0.0285044650575004 -0.0380421179651689 -0.01998188 -0.4990043 0.8663691 102 102 102
-0.0110740993169518 -0.02417410953927 -0.0351566172094268 -0.01541566 -0.5275515 0.8493832 65 65 65
-0.00640769836181843 -0.0367916983934461 -0.0429732725099386 0.01451429 -0.5065184 0.862107 103 103 103
-0.00539567841532351 -0.0393757520490079 -0.043955144575758 0.003415356 -0.5022573 0.8647115 65 65 65
-0.00359233669234138 -0.0364387801113016 -0.0427288115027203 -0.0009249744 -0.4982074 0.8670574 129 129 129
0.00074629202670895 -0.0399594564192171 -0.0448809085629815 0.01798066 -0.5149021 0.8570604 145 145 145
-0.0017975044353804 -0.0372246396471742 -0.0434066647160141 -0.002730422 -0.4982011 0.8670572 136 136 136
-0.00407950370950738 -0.0314918898258302 -0.0395360153346167 0.001932005 -0.5242886 0.8515385 119 119 119
0.000555165486603837 -0.0347131584943162 -0.0413650697186778 -0.01786406 -0.5244148 0.8512755 109 109 109
0.000427211688708962 -0.0333698720283161 -0.0406396842735734 -0.02672461 -0.5161703 0.856069 109 109 109
-0.0076183321068477 -0.025446102831865 -0.035644647485808 -0.04987992 -0.5207452 0.8522537 89 89 89
-0.00120617148303026 -0.0298555777564142 -0.0385704939178898 -0.01094892 -0.5102732 0.8599427 138 138 138
-0.00253050410173072 -0.0284169772980739 -0.0375929443732955 -0.02621165 -0.5079248 0.8610026 170 170 170
-0.00584566249243057 -0.0242204639439182 -0.0347572335027843 -0.01243116 -0.5189717 0.854701 81 81 81
-0.00182623504043233 -0.0263139493109801 -0.0360812856000674 -0.03308073 -0.4953486 0.8680642 103 103 103
0.126946243568544 1.38577607450285E-05 -0.0188732834375055 -0.001646651 -0.7651103 0.6438971 78 78 78
0.00152021183913176 -0.0378822516102367 -0.0436523840635029 0.01012803 -0.5224016 0.8526394 139 139 139
0.00347192575009059 -0.0365599977614467 -0.0426149634270089 -0.01349579 -0.5373779 0.8432336 100 100 100
0.00505474144884532 -0.0368646228098468 -0.0427906980605934 -0.01395411 -0.5427895 0.8397529 116 116 116
0.00633396883936221 -0.0363821120741076 -0.042326132180383 0.009015213 -0.5345929 0.8450617 138 138 138
0.00339699753952738 -0.0343592568594213 -0.0411225803725824 -0.01979031 -0.5255591 0.8505269 137 137 137
0.00607883581335056 -0.0346129146416407 -0.0413089398259725 0.007290128 -0.5186145 0.8549771 168 168 168
0.0104679075827803 -0.0399492647629024 -0.0442275476600167 -0.008933198 -0.4957524 0.868418 150 150 150
0.00890884873237496 -0.036058571349575 -0.0421143155327616 0.02027652 -0.5097612 0.860077 131 131 131
0.000869110102778237 -0.0311585158516622 -0.0391870163832631 -0.008580219 -0.5184319 0.8550759 129 129 129
-0.0890965820050886 0.0195019604639122 -0.00874529913267225 -0.01615056 -0.5010082 0.8652918 150 150 150
0.00303590448364588 -0.0274632864227073 -0.0369569781899116 -0.00545851 -0.5003718 0.8657934 207 207 207
0.00551749034710847 -0.0280479836738712 -0.0371637088390431 -0.001872954 -0.4983268 0.8669873 196 196 196
0.0652026900735052 -0.022459513942032 -0.0331887341272751 0.01567963 -0.5075234 0.8614953 116 116 116
-0.0131782529949285 -0.0213351748661662 -0.0332302759231815 0.02187635 -0.5163945 0.8560714 195 195 195
-0.0121648253997351 -0.0179625198225954 -0.0312663826781185 -0.00574914 -0.505628 0.8627324 189 189 189
-0.0105220313389731 -0.0198241443392249 -0.0324545320615374 0.00584761 -0.542924 0.8397615 185 185 185
-0.0149665653666746 -0.00810345789287303 -0.0249329304016372 1.371107E-06 -0.4965815 0.8679901 127 127 127
-0.014089087307299 -0.00404306445118918 -0.0226106451650056 0.002412523 -0.5162188 0.8564534 123 123 123
-0.00997406169042758 -0.00504792993045078 -0.0232426345597869 -0.01867956 -0.4873255 0.8730206 139 139 139
-0.00749671860905021 -0.0217125101970427 -0.0331201402156645 0.0178447 -0.5236769 0.85173 102 102 102
-0.00825096628223765 -0.0184133743338074 -0.0311622950171447 0.01046403 -0.527837 0.8492812 126 126 126
-0.0074857245216533 -0.0128411596584275 -0.0280289826789396 0.03176309 -0.505729 0.8621075 103 103 103
-0.0547673332837531 0.0122256484514537 -0.0126606768210449 -0.02430725 -0.4804341 0.8766939 98 98 98
-0.0060379761253575 -0.0188019296631029 -0.0314038758097767 0.01943694 -0.4985319 0.8666534 109 109 109
-0.00571794115467528 -0.0200041482830157 -0.0321152366621697 0.02201501 -0.4996947 0.8659218 91 91 91
-0.00155111328481361 -0.0214504950791558 -0.0330733475597507 0.02673643 -0.5047698 0.8628399 131 131 131
-0.00452913862366966 -0.0160491262100643 -0.030025145354134 0.01155609 -0.4938273 0.8694832 117 117 117
-0.00576827607471708 -0.0171687209089685 -0.030001252805487 0.01094472 -0.5001978 0.865842 130 130 130
-0.00318773008717832 -0.0153570142071123 -0.0297490431477475 -0.001562826 -0.5008403 0.8655383 149 149 149
0.0704590083453205 -0.104239719569839 -0.0622418469910169 0.9723127 -0.1585864 -0.1716342 67 67 67
-0.00365533183778188 -0.0126349092246767 -0.0280705863241178 0.0258251 -0.5234095 0.8516898 137 137 137
-0.00929159740517926 -0.0114477241861384 -0.0272840971864362 0.01553568 -0.498013 0.8670304 123 123 123
-0.00908095596989078 -0.00760441100431142 -0.0251177944806165 -0.01065194 -0.4859295 0.8739331 113 113 113
-0.00457531754538065 -0.0111303826657021 -0.0270651456020583 0.02018093 -0.5228794 0.8521677 141 141 141
-0.00217328031839337 -0.00949895828153302 -0.0258833138192078 0.00571575 -0.5442535 0.8389013 125 125 125
-0.00398588864597738 -0.00427497381141095 -0.0225034928369374 -0.01497099 -0.5207022 0.8536071 151 151 151
0.000566865632588787 -0.0197137516655035 -0.0320584939834173 0.01729917 -0.5413961 0.8405897 141 141 141
0.00388417624512538 -0.021089847161457 -0.0329141541279064 -0.00829012 -0.4919251 0.870598 203 203 203
0.00680947883662686 -0.0209239801209924 -0.0329748802303366 -0.0100428 -0.4707162 0.8822275 179 179 179
0.0024243013696208 -0.0146349357491835 -0.02866015581012 -0.002621555 -0.4888465 0.8723659 123 123 123
0.00322406928437768 -0.014048133833948 -0.0287022821953753 -0.0002631527 -0.4858957 0.8740168 146 146 146
0.00495151721385323 -0.0157949101164723 -0.0296553090201624 0.02047631 -0.4917803 0.8704786 174 174 174
0.0079890448399933 -0.015810141800576 -0.0297333044086238 0.0168205 -0.4948356 0.8688238 191 191 191
0.00835030568746076 -0.0193059484399764 -0.031865932297486 -0.003424803 -0.4891975 0.8721663 193 193 193
-0.0298503047803935 0.0448977984619069 0.00704059164849127 0.02001326 -0.5067545 0.8618581 126 126 126
-0.000406796314047941 -0.0111268863470879 -0.026783575789424 0.01059523 -0.5433793 0.8394204 118 118 118
0.00211683831419052 -0.0112582667049143 -0.0265996020131942 0.003995274 -0.5082492 0.8612007 126 126 126
0.00504913423429931 -0.0109064808740669 -0.0265039400943199 -0.002083171 -0.472469 0.8813448 133 133 133
0.00602224619062541 -0.0112287120571685 -0.0271529566498608 0.003032838 -0.4766219 0.8791032 130 130 130
0.00292812929565534 -0.00565246525130703 -0.0235359861117636 0.00919516 -0.5103217 0.8599344 120 120 120
0.0043630271998949 -0.00608422431109257 -0.0236475320207337 0.01015654 -0.5024253 0.864561 125 125 125
0.00530440858039016 -0.00324146702961425 -0.0220762217126611 0.01301694 -0.5006202 0.8655692 157 157 157
0.00760854298596625 -0.00912842604374642 -0.0257505247584852 -0.002190073 -0.4967047 0.8679168 143 143 143
0.137179194436372 0.0274622756323039 0.0214069564834376 0.1208964 -0.8641385 -0.4885169 44 44 44
0.0499989960024045 -0.0806507220407573 -0.069043439419819 0.001481746 -0.5116691 0.8591813 95 95 95
0.118098712615696 -0.106664988287553 -0.0655718399395483 0.9684165 -0.01534316 0.2488656 68 68 68
0.0163878494898388 0.102042483980673 0.0429156254393232 0.02215746 -0.4838015 0.8748972 136 136 136
0.0168197479851404 -0.00695173266153082 -0.0240184401322812 0.0009556463 -0.5031159 0.8642184 129 129 129
0.0826631865808691 -0.0658650480145846 -0.0599177128234425 0.01610851 -0.5284892 0.8487872 102 102 102
0.136236962366354 0.0407572820884397 0.0268866392761715 -0.1266301 -0.9433919 -0.3065561 76 76 76
0.0162646744603991 0.0935758451188861 0.0395405053531554 0.07057395 -0.2301107 0.9706021 107 107 107
-0.0815182117864408 0.0640571867802546 0.019092622234245 0.001538623 -0.502947 0.8643159 207 207 207
-0.0566494732578384 0.0908266461949395 0.035574261612199 -0.003337485 -0.5046374 0.863325 130 130 130
0.124430932045264 -0.0641782633671781 -0.0585571787590644 -0.009148366 -0.4874865 0.8730826 118 118 118
0.123279384193987 -0.044240759255587 -0.046289599306425 -0.008888081 -0.5055684 0.8627407 105 105 105
0.108048242053642 -0.108097539630872 -0.0605655523000733 0.9668933 -0.1014018 0.2341686 61 61 61
0.0758762021335344 0.0637918918073169 0.0201529844535507 0.01161043 -0.5108563 0.8595877 136 136 136
0.132611045527524 0.0427864915085934 0.00823720262927111 -0.04740826 -0.9289839 0.3670715 110 110 110
0.0457495719719963 -0.0872014883862471 -0.0735943462278908 0.0858293 -0.5605323 0.8236728 111 111 111
-0.0244262436600202 0.0847109304366643 0.0324001403750649 -0.01174966 -0.5183812 0.855069 92 92 92
0.0372873801744507 0.0941386109994647 0.0383025409266546 -0.03128664 -0.5276685 0.848874 149 149 149
0.00730765490828134 0.0474491471893166 0.00938169827143764 0.004049606 -0.5089493 0.860787 119 119 119
0.0971885726495687 -0.0347429158053791 -0.0404998128364438 -0.004611347 -0.5009782 0.8654476 116 116 116
0.108721109140125 -0.0900506780729051 -0.0745228613179881 0.2403894 -0.4617341 0.8538235 118 118 118
0.129563742135217 -0.0962868980893394 -0.0636364918014161 -0.037629 -0.8312414 -0.5546367 24 24 24
0.00157522676605426 -0.10267706434043 -0.0564599283644476 0.9969167 0.05482974 0.05613286 27 27 27
0.00510758642721454 -0.103602935262155 -0.0569108494357336 0.9854819 0.1283012 0.1111951 35 35 35
