ply
format ascii 1.0
comment File exported by Rhinoceros Version 7.0
element vertex 469
property float x
property float y
property float z
property float nx
property float ny
property float nz
property uchar red
property uchar green
property uchar blue
end_header
-0.0781221029983928 -0.0592941850619615 0.0486399004534196 -0.9360735 -0.2208172 0.2738723 161 161 161
0.0973423623122927 0.114549484400306 -0.0192863819604125 -0.076638 0.9626284 -0.2597559 137 137 137
-0.098907938015426 -0.0036211286262795 -0.0628623861488785 0.01684402 -0.06872739 -0.9974933 131 131 131
-0.0105906686687995 -0.115485285832642 0.0679432774453312 0.2624327 -0.8345218 0.4844611 108 108 108
0.147725340098277 -0.126114200738013 -0.0418052617881346 0.356855 -0.9311394 -0.07505935 103 103 103
-0.13374226709437 0.0715355255279084 -0.0327302202901208 -0.8481904 -0.5267624 -0.05562772 173 173 173
-0.0203964664173975 -0.0218627871711667 -0.0561475595292386 0.05989687 -0.01848616 -0.9980334 193 193 193
0.00604847939511921 -0.0984584812568243 0.0854981199548867 0.1833448 -0.5613274 0.8070292 134 134 134
-0.0581484217626924 -0.112461183085952 0.0646307388469359 -0.8152712 -0.2778938 0.5080432 157 157 157
0.139425553024856 -0.0794210107022626 -0.0542665050508141 -0.2215425 -0.1384572 -0.9652712 104 104 104
-0.0857660594446314 -0.111786904123326 0.00455595546156384 -0.9486515 -0.1653574 0.2696613 194 194 194
0.153802951345546 0.0571909525887029 -0.0316006116120128 0.957755 0.003923852 -0.2875587 62 62 62
-0.113595068777844 0.0536549511089708 0.071079127418239 -0.5901509 -0.1367192 0.7956317 124 124 124
0.000213059266994997 0.112600840687716 -0.041719000633116 0.1579802 0.9764788 -0.1467359 133 133 133
-0.00704236255721857 0.131885410150064 0.0102572216548441 0.3488905 0.8826637 -0.3149288 125 125 125
0.0374589197007239 -0.117695566355897 0.0408028187161834 0.2352629 -0.8735592 0.4260817 106 106 106
0.14020533804176 -0.126707094026879 -0.040967497233608 -0.040887 -0.9720707 -0.2310992 115 115 115
-0.116735343765339 0.037878758352198 0.0217912263254479 -0.9512155 -0.3042926 -0.05094245 140 140 140
-0.108833178141834 0.0252061326308752 0.0148745686360957 -0.8833216 -0.4669692 0.04102121 149 149 149
0.191768571679013 -0.0563534760684612 -0.0297954898391418 0.8256598 0.3658811 -0.4294381 84 84 84
-0.0736683957646214 0.116315184791749 -0.0663754427180869 -0.0862668 -0.1687134 -0.9818828 135 135 135
0.0970955692700999 -0.106780509885349 0.0254090144843275 0.1154212 -0.8603896 0.4963947 133 133 133
0.09985584414531 -0.0132243779016674 -0.0598983543590292 -0.08697294 0.02353703 -0.9959326 162 162 162
-0.138541478135016 0.0760182703091474 0.00110347710477898 -0.8850485 -0.4531671 0.1064368 115 115 115
-0.0181579577511584 -0.144442939648721 -0.0162701612846791 -0.1842163 -0.9828188 -0.01147305 120 120 120
-0.0184978469285845 -0.140879446413919 0.0198686037210232 0.2328373 -0.9198148 0.3157965 128 128 128
-0.0581698401778742 0.0283596304728895 -0.0599796261219875 0.08443438 0.0005267783 -0.9964289 129 129 129
-0.076878187748683 -0.142558606442455 0.0105198316016856 -0.5346453 -0.7219698 0.4392197 215 215 215
-0.103377530647787 -0.0434131526641526 -0.0318988179373439 -0.9202262 -0.129484 0.3693476 113 113 113
-0.120370822933237 0.0546898403229557 0.0566838164698438 -0.9333343 -0.3541469 0.05888161 187 187 187
-0.112836787475817 -0.00544963826193157 -0.0249971182583215 -0.866716 -0.2239837 0.4456844 226 226 226
0.076516159719032 0.0637003079542027 -0.0598919583983304 0.2112072 0.03348115 -0.9768677 197 197 197
-0.124147363141519 0.1449887133847 -0.0572513862600088 0.07149349 0.3123753 -0.9472647 154 154 154
-0.120760695102197 0.0416172398967003 -0.00526464370260554 -0.8727615 -0.4280324 0.2346819 96 96 96
-0.0100167467624226 -0.0111269607125701 -0.0577096644832947 -0.02402988 -0.1263375 -0.9916962 205 205 205
-0.137837401291425 0.0738527128517388 -0.0086232979102373 -0.8635917 -0.5025024 -0.041239 150 150 150
0.00166344880657765 -0.12070012467669 0.053952696088031 0.16863 -0.8794782 0.4450642 83 83 83
-0.029643818945141 -0.0785904428369921 -0.0467692220580054 -0.1046215 -0.3478102 -0.9317094 140 140 140
-0.102710544561857 -0.0546298788986483 -0.0429640988692415 -0.9110186 -0.3903945 0.132805 129 129 129
0.183417594867428 -0.0307543885338817 -0.0280231959487124 0.877892 0.2196483 -0.4255119 83 83 83
-0.119723955703358 0.0343411787076446 -0.0195173776786321 -0.8705439 -0.3873525 0.3034985 130 130 130
-0.0894985594347274 -0.0955573069797819 -0.00640672704136674 -0.9994063 0.02487263 0.02384027 150 150 150
-0.140457752284373 0.1675383002147 0.00978016812747312 -0.964224 0.2298171 0.1321219 77 77 77
0.107562498922061 -0.0796382507274955 -0.0528885640815568 0.2117996 -0.06771869 -0.9749641 199 199 199
-0.0706276997257519 -0.0921994644377364 0.0503728770499389 -0.8285787 -0.1995055 0.5231203 173 173 173
0.0465789830917182 -0.0947811653907438 -0.0518952001476664 -0.03967022 -0.05961673 -0.9974328 196 196 196
0.136004727239372 0.0795156233057988 -0.0553662237358081 -0.1633548 0.3969599 -0.9031821 81 81 81
-0.145093159757405 0.140899489786313 0.00144844121475762 -0.9743156 0.1963928 0.1101773 88 88 88
-0.041703301021058 0.0404805662712222 -0.0588175840450724 -0.03452219 -0.01340645 -0.999314 110 110 110
0.0205030911648488 -0.0649190587097848 -0.0529747065220654 0.1071189 -0.1267647 -0.986132 177 177 177
-0.0330962512576901 0.0924488416818063 -0.065274433768359 -0.09368142 0.08536225 -0.991936 191 191 191
0.147692758507042 0.106653874684862 -0.0372912872740769 0.526516 0.8472258 -0.07063492 83 83 83
-0.0809382190723125 -0.130451704850638 -0.00974334435796687 -0.9721668 -0.2336049 0.01789928 128 128 128
0.0822691720430104 0.008326492834557 -0.0593012954196055 -0.04484453 0.06455 -0.9969063 153 153 153
-0.0484011965915041 -0.132786424520741 0.0503843833958712 0.1108256 -0.8885157 0.4452612 154 154 154
-0.0617706230776177 0.103297221923857 -0.0650500736374339 0.009037594 -0.1388157 -0.990277 103 103 103
-0.0659989914770216 0.0708007114354294 -0.0627293284400535 -0.1312372 -0.06969158 -0.9888983 145 145 145
-0.0597486939776546 0.153002256349127 0.0238456330878122 0.2147508 0.9759079 -0.0385467 72 72 72
0.179705636095538 -0.0310508102196985 -0.0342753870972535 0.7548724 0.2362613 -0.61184 95 95 95
0.133530056516767 -0.126708093713109 -0.0224561824344626 -0.1888385 -0.9819898 0.006007161 93 93 93
-0.104509214035014 -0.00846484998378694 -0.0154206845192049 -0.8405205 -0.3430913 0.4193013 114 114 114
0.114308561632243 -0.124165833026842 -0.0256681890672771 0.02267846 -0.9656772 -0.2587533 128 128 128
-0.136876187636101 0.0857369121988714 -0.0416565506971666 -0.953405 -0.1729769 -0.2471798 150 150 150
-0.022482301109312 -0.0940781541598172 -0.0436574167926988 -0.01094698 -0.2514129 -0.967818 162 162 162
-0.0496887784697639 0.00667431885953262 -0.0599098516029022 0.04689174 -0.1224649 -0.9913645 166 166 166
-0.0230821374346628 0.135311707637179 0.000106224788464448 0.3583515 0.8906983 -0.2797156 99 99 99
-0.0437075255279591 -0.0288164588503452 -0.0569129669948039 0.01985952 -0.1466784 -0.9889848 128 128 128
-0.138226067174352 0.0749211415122057 0.0104153825246281 -0.8865064 -0.4621418 0.02305038 119 119 119
-0.0803921686109966 -0.139376794020309 -0.0210212185316797 -0.9466025 -0.3137689 0.07411424 149 149 149
-0.0280926560398292 -0.0983025584442609 -0.042534001086254 0.06143843 -0.3735601 -0.9255691 171 171 171
-0.10020413570316 -0.0667400475923443 -0.0445506010078635 -0.9686334 -0.2302095 0.09355727 128 128 128
0.115521021593066 -0.118557998052226 -0.00199650339051027 0.1698326 -0.911774 0.373932 86 86 86
-0.0972828126431878 0.162369338386037 0.0124192239449548 0.2906433 0.9453092 -0.148044 89 89 89
-0.0910509645128338 -0.0993939581146404 -0.0237489241325129 -0.9588392 -0.2188994 0.1808605 149 149 149
-0.113323174526952 0.0419351076176289 -0.0593280354066969 -0.08652709 0.00178066 -0.9962479 145 145 145
-0.115805979765948 0.157727441864062 -0.0270593781756751 0.311022 0.8999944 -0.3054102 92 92 92
0.164526141739599 -0.0327014449233096 -0.0553287739552288 0.7963336 0.2312019 -0.5589262 100 100 100
-0.123336378993921 0.0698102010446853 -0.055148575361916 -0.1498132 0.05828496 -0.9869949 136 136 136
-0.0732206673743144 0.01907072585923 -0.0603653833320505 -0.1155547 0.02970009 -0.992857 127 127 127
-0.0865251488419907 -0.0302262301328677 0.0759749913285807 -0.897527 -0.3893526 0.2070018 122 122 122
-0.0178976826810038 0.100542716312674 -0.0655431226883874 0.06544945 0.05894605 -0.9961133 177 177 177
-0.142226751548505 0.151786451985295 0.011938826281651 -0.9827135 0.1343732 0.1273502 101 101 101
0.055818986093612 -0.0218837964143526 -0.0600249690034274 -0.1267525 -0.07439716 -0.9891405 143 143 143
0.18295426722579 -0.118423461359399 -0.0164514566490138 -0.07966749 -0.9271347 0.3661616 100 100 100
0.0752011263586279 0.0024957531031462 -0.0597147617889778 0.06229711 0.004437375 -0.9980478 162 162 162
-0.150083824674032 0.099502073109293 0.0225338316814202 -0.8753957 -0.4833479 -0.007561024 180 180 180
0.0397747099531587 -0.127191471221183 -0.0296190296146045 0.01136552 -0.9790689 0.2032117 141 141 141
0.0384612316742478 -0.119094442530247 0.0359451885836736 0.348508 -0.8698375 0.3491775 95 95 95
-0.14415020604205 0.163148531314967 -0.0251499597868821 -0.8897852 0.4509165 0.07040329 135 135 135
0.0325661653339764 -0.111494376737121 0.0544854900847122 0.2860718 -0.8738847 0.3930501 105 105 105
-0.0516286345115275 0.0459877941101514 -0.0590230050170386 0.07973312 -0.06597898 -0.9946303 170 170 170
0.031284466312241 -0.108867627598402 -0.0469855633158709 -0.5817305 -0.6517981 -0.4865685 208 208 208
0.192108211126193 -0.105480863935534 -0.0541449439330802 0.5813771 0.0991582 -0.8075694 157 157 157
-0.0314413178800858 0.146769148545812 0.0304052353402596 0.2661364 0.8972107 -0.3523981 79 79 79
-0.0797007427793767 -0.140351849990525 0.000915470435805865 -0.9381056 -0.3401472 -0.06525107 138 138 138
0.10193225770034 -0.099180819194999 0.0369386284782823 0.08954103 -0.8036383 0.5883434 104 104 104
-0.0170910448205379 0.0842950821310673 -0.0644504887545305 -0.07363217 -0.1765202 -0.9815391 153 153 153
0.168437164793717 -0.00163791689048143 -0.027321146435862 0.8463265 0.2390781 -0.475997 49 49 49
-0.130104562003273 0.0540764486900682 -0.0430934698064449 -0.9775937 -0.1190412 0.1736078 184 184 184
-0.0600587320912654 0.0767562725113913 -0.0640103370742687 -0.03813753 -0.1456161 -0.9886059 203 203 203
0.0689577391733401 -0.11944690710968 -0.0132084745266076 -0.152314 -0.9363583 0.3162808 60 60 60
-0.101676480543875 0.125577803362126 -0.0598555572582057 -0.3737288 -0.1349455 -0.9176691 150 150 150
-0.132430266222516 0.0656079585386664 0.00547306493724331 -0.7861422 -0.617057 -0.03494367 96 96 96
0.124499065540259 0.113370434647429 -0.0423965029291875 -0.01102264 0.9315326 -0.3634908 92 92 92
0.00303852928564929 -0.10317234675015 0.082985653945724 0.1169903 -0.6491523 0.751608 84 84 84
-0.0150938612615908 -0.032239701027708 -0.0571320522692992 -0.02676416 -0.04370156 -0.9986861 194 194 194
-0.0915729790809111 -0.0274378091369225 0.0313269941590745 -0.9935455 -0.08757176 0.07210028 137 137 137
0.00176778868054317 -0.124440710013802 0.0469738064533571 0.2332975 -0.8690723 0.4362175 88 88 88
0.0778246298408493 -0.106926971277236 -0.0533819308686245 -0.1950745 -0.242688 -0.9502887 222 222 222
-0.105106661612977 -0.0411237121875379 -0.0361785661883531 -0.9056398 -0.1426697 0.3993269 148 148 148
-0.0928622980443066 -0.0345016977252726 0.0138651063485391 -0.9677299 -0.2452196 0.05801889 130 130 130
0.0427995250211453 -0.0976231718391127 0.0683385226170361 0.4136401 -0.6481875 0.6393394 178 178 178
-1.24583523546384E-05 0.0638438001199964 -0.0636885938996209 -0.1220697 -0.1782775 -0.9763791 152 152 152
0.188833826185899 -0.0399056783244949 -0.0236064576080456 0.808704 0.2787699 -0.5179625 103 103 103
0.00818352417221557 -0.106738406869779 0.0790884894417178 0.2063283 -0.7565179 0.6205717 122 122 122
-0.0401409816670301 0.143275872399784 0.00704419968256048 0.4024622 0.8537763 -0.330288 42 42 42
-0.0263472992644037 0.077278507298741 -0.0643906783783927 0.09037757 -0.2101853 -0.9734752 114 114 114
-0.0966439974589931 -0.0669418568062763 -0.0319055670936674 -0.9655051 -0.1148576 0.2336829 139 139 139
-0.0539019157297566 -0.116799891564564 0.0674987559717258 -0.8167143 -0.410712 0.4053311 132 132 132
-0.0313946606239306 0.131036366242914 -0.0240140249320135 0.3911942 0.8853804 -0.2511345 68 68 68
0.0405135992050731 -0.11983480750627 0.0133417506694133 0.4079075 -0.7069378 -0.5777979 161 161 161
0.0165884816092435 -0.128428712362337 0.0284729788634133 0.2158585 -0.892561 0.395904 95 95 95
-0.0185348543709406 -0.139933270521735 -0.0297248223224201 -0.09543446 -0.6528711 -0.751433 238 238 238
0.145509856930964 -0.108094201699245 0.0169566874058077 0.03329342 -0.8093827 0.586337 92 92 92
0.0789424348814786 -0.0647941362375297 -0.0564850248734454 0.1139277 -0.09076396 -0.9893343 183 183 183
-0.0281052798111561 0.105656214734343 -0.0646437102526969 -0.04259313 0.06385864 -0.9970496 163 163 163
0.1110783761213 0.0767996760786658 -0.0528901345951223 -0.08377244 0.2766668 -0.9573075 121 121 121
-0.0169758052549696 -0.145381069953276 -0.00754906532470895 -0.1731933 -0.9825915 -0.06721712 143 143 143
0.0938335084765467 -0.106384674892529 0.0269554383341106 0.1465921 -0.860766 0.4874347 144 144 144
0.148520088708349 -0.0483870865349094 -0.0581853485519441 -0.1219129 0.001129697 -0.9925402 147 147 147
-0.14877732225656 0.0971812255750333 0.00315932296204463 -0.9538805 -0.2668218 -0.1375431 153 153 153
-0.0259698043403521 0.128331693336692 -0.0241806669471443 0.3317147 0.8976019 -0.2903036 71 71 71
0.14888052285381 0.0837691900015405 -0.0447094270885133 0.8998371 0.08957189 -0.426931 64 64 64
-0.127228940175641 0.0524228403322078 -0.0186523150715671 -0.8843692 -0.448842 0.1281873 138 138 138
0.158963912642976 0.0652573725774099 -0.0195189305075275 0.9404268 -0.01992155 -0.3394122 55 55 55
0.0450464733068338 -0.120596185332687 -0.0112620447136043 0.1578492 -0.9417454 0.2969836 84 84 84
-0.0252510330008731 -0.11456255654168 0.075273368077852 0.1796429 -0.8315028 0.5256724 114 114 114
0.0403869906256114 0.11334758822991 -0.020455577590603 0.3120248 0.932947 -0.1795841 46 46 46
-0.144375639655974 0.15728309705194 -0.0223320698377154 -0.9712137 0.1840402 0.1512388 107 107 107
0.0393666779063605 0.108130095090848 -0.0432915781323391 0.3236175 0.9042916 -0.2784392 46 46 46
-0.0333567512347235 0.0056201215432059 -0.0593492068720404 0.02617589 -0.007852536 -0.9996265 161 161 161
-0.0388342002229575 0.0305099931357842 -0.0586186650291664 0.07157789 0.004431274 -0.9974252 150 150 150
0.0393399655625304 -0.0920864575672207 -0.0514162386247182 -0.06616313 0.0567524 -0.9961936 140 140 140
0.0913618534022138 0.111639274006108 -0.02655251272109 -0.04466581 0.9507429 -0.3067457 63 63 63
-0.0969226317861709 -0.0208183677242735 -0.0621788024732107 -0.06458472 -0.142041 -0.9877516 240 240 240
-0.0934180949803286 -0.0456775646484036 -0.00935698872846402 -0.8975506 -0.2232546 0.3802108 110 110 110
-0.143401095027852 0.163166891371578 -0.0202413456727195 -0.9611804 0.2757499 0.009709357 139 139 139
-0.118944394822299 0.0576666797861758 0.0679642746117211 -0.7601284 -0.2610738 0.5950171 120 120 120
-0.0289870587275095 0.0787653009662774 -0.0649388021758099 0.01399615 -0.2118957 -0.977192 143 143 143
0.0798149501445112 0.0857823921726932 -0.0551946186323686 0.2259375 0.1647471 -0.9601097 90 90 90
-0.030070817990116 0.13085689731746 -0.0225886994763262 0.4037214 0.8846548 -0.2332274 83 83 83
0.109468829022174 -0.12464823825562 -0.0307728742968549 0.1236011 -0.9915718 -0.03883538 117 117 117
-0.103796842417752 -0.0292482739066187 -0.0585458715915542 -0.4489723 -0.2309352 -0.8631876 236 236 236
-0.0310960162396086 0.0907908269945312 -0.0656469033660028 -0.08779448 0.06865886 -0.9937696 193 193 193
0.00210727992708581 -0.0723722185887314 -0.0538979913957701 -0.132327 -0.239387 -0.9618645 193 193 193
-0.0855915811939792 0.124081547103293 -0.0652987492635641 -0.2025044 -0.09920148 -0.9742438 148 148 148
-0.0303958490814468 0.143795215403981 0.0201470930339301 0.33185 0.9100403 -0.2483993 121 121 121
0.0858638277280038 -0.125023795917208 -0.0325992431106625 0.11895 -0.9847255 0.1271481 101 101 101
-0.0388492840107828 -0.135289417833601 0.04050365217094 0.1255933 -0.9046387 0.4072532 150 150 150
0.0368185775119015 -0.119506357167439 0.00448395457768891 0.3295489 -0.9425238 0.05519329 81 81 81
-0.0959287997245754 0.0215875988876111 -0.0604854383384689 -0.111451 0.2371998 -0.9650466 113 113 113
-0.0218846762169094 0.0235183073795695 -0.0587643732981443 -0.05545938 0.0145557 -0.9983549 126 126 126
0.13570705677452 -0.119368848763235 -0.00443147867286103 -0.09531541 -0.8561103 0.5079272 88 88 88
0.123477039092516 0.0417340657916641 -0.0599889550228722 0.3882029 0.0168333 -0.9214202 85 85 85
-0.0697714734919259 -0.14287357531727 0.0142375735207021 -0.04697363 -0.991547 0.1209465 136 136 136
-0.0860979956236488 -0.0529630748037355 -0.058571791012931 -0.06971429 -0.1740278 -0.9822699 203 203 203
-0.00704765945646524 -0.0781706625381402 -0.0518195784167096 -0.1613228 -0.1528188 -0.9749981 177 177 177
-0.0217375713192506 -0.138380860096467 0.0290528608195962 0.08668301 -0.9301308 0.3568513 131 131 131
-0.0854269721117576 -0.0346907929579929 -0.0600440631789294 0.06792582 -0.08382121 -0.994163 201 201 201
0.158575912053399 -0.0176815410406495 -0.0569876977709603 0.7274204 0.2720602 -0.6299546 89 89 89
0.0625864091049312 0.0738057655712459 -0.060790393443553 0.2889753 0.1990549 -0.9364136 135 135 135
0.18900049326078 -0.121074597916227 -0.0292149921225657 0.01350858 -0.9926437 0.1203161 77 77 77
-0.135037628490978 0.133404289492628 0.0369507305711112 -0.6340451 0.347103 0.6910183 93 93 93
-0.0817963424978635 0.136327114454479 -0.0517979403951506 0.2569911 0.6623581 -0.703731 129 129 129
-0.0476323794875751 0.151615707724432 0.0455504573433759 0.4333316 0.897519 -0.08175191 41 41 41
-0.0830687656472557 -0.124425978101403 0.00242081717648934 -0.9495949 -0.3066271 0.06518662 153 153 153
-0.0428570069005938 0.0634003659131706 -0.0622466193464327 -0.00212318 -0.3026208 -0.9531087 156 156 156
-0.0205362579316866 0.00735900805459155 -0.0586320411919238 -0.03214597 0.05355035 -0.9980476 115 115 115
-0.0591986421415109 -0.0980657989723546 0.0663909694930747 -0.8352362 -0.3443437 0.4287283 145 145 145
-0.0959317920818097 -0.0835050581970405 -0.0493779969600218 -0.6337233 -0.261039 -0.728185 195 195 195
0.17252499811275 -0.0950854834915829 -0.0573684088670571 -0.1420019 -0.449177 -0.8820859 221 221 221
-0.13700467095624 0.0763922015956975 -0.0300848671801191 -0.9187147 -0.3555069 -0.1719828 161 161 161
0.155528138148224 -0.0341758082580621 -0.0618369714772977 -0.1888309 -0.1084128 -0.9760069 209 209 209
-0.110305577570292 0.033017835652269 0.0553776664388776 -0.8790766 -0.4507956 0.1549439 123 123 123
0.00293020102588748 -0.0937941655837577 -0.0493734007267116 -0.4429903 -0.4987952 -0.7449583 178 178 178
-0.0418656233693601 -0.141556030435405 0.00246161004480772 0.004424084 -0.9999704 0.006302031 182 182 182
-0.0203389370854331 0.148308469495921 0.0374432917120501 0.06247321 0.8238165 -0.5634034 86 86 86
-0.099231146979642 -0.00876612588261683 0.000984826765273172 -0.9532053 -0.2658857 0.1438905 135 135 135
-0.0691207745303255 -0.0653988051388739 0.0677226241744698 -0.8526012 -0.4086529 0.32569 135 135 135
-0.113004905699109 0.00764868713361611 -0.0225168371892741 -0.9268466 -0.2144886 0.3081397 109 109 109
-0.028116231724569 0.0271971217334337 -0.0588953114691979 -0.01398587 -0.02738545 -0.9995271 145 145 145
0.0489020450665592 -0.125528216908778 -0.0280856241227521 0.2498508 -0.9111959 0.3275616 104 104 104
-0.0973701133363672 0.157366664923078 -0.007073357274201 0.3041714 0.939163 -0.1595384 70 70 70
-0.135788821086409 0.0779364452557487 0.0314462624931169 -0.7940444 -0.585529 0.1632458 186 186 186
-0.0103958165897446 -0.134369663937039 0.0314619284269556 0.230143 -0.8769125 0.42197 127 127 127
0.0389797245434942 -0.124810738453652 0.0226589119373524 0.3798634 -0.8617355 0.336327 126 126 126
0.142124848955154 -0.0482037855869053 -0.0588339088252642 0.03087881 0.05566706 -0.9979718 201 201 201
0.0490305070166756 -0.110129815124352 0.0448943418102137 0.3265718 -0.8449253 0.4236179 120 120 120
-0.00941699572681398 -0.0120398727659832 -0.0579696841633329 -0.02403019 -0.09115009 -0.9955472 208 208 208
-0.136146844919668 0.0849142590412546 -0.0434462746725183 -0.961997 -0.1688962 -0.2145596 78 78 78
-0.0246459677129383 0.141392282532583 0.0210215845731979 0.3500931 0.9113099 -0.2166774 30 30 30
-0.092550856570018 -0.0449614613889302 -0.00470457535145041 -0.9493926 -0.2415 0.2008268 155 155 155
-0.00936045604160407 -0.0706882642598352 -0.052674265220493 -0.1305538 -0.0967025 -0.9867139 152 152 152
-0.0846440756649219 -0.0322407378097964 0.064504960379391 -0.8389786 -0.5436332 0.02403835 163 163 163
0.0110883364127246 -0.136740228426777 -0.0210298482322862 0.4296742 -0.9016652 -0.04878495 105 105 105
-0.100651551377222 0.0223288412388973 0.0801682664539967 -0.7874775 -0.2309613 0.5714333 162 162 162
0.0173219826941502 0.122986550580762 0.00602044096248433 -0.13581 0.8624293 -0.487618 88 88 88
-0.0888296327596682 0.160285063181912 0.0171479319511316 0.2935177 0.944786 -0.1456942 76 76 76
-0.146687919665447 0.0972699584663252 -0.00605477269549259 -0.9330234 -0.3021924 -0.195313 107 107 107
-0.0415681567727435 -0.0548358289687902 -0.0541280436420951 -0.002626993 -0.1465709 -0.9891967 115 115 115
-0.0862969346024954 0.148060245802067 -0.0368800586073449 0.2391537 0.8792043 -0.4120744 52 52 52
0.1806528989001 -0.0817232601112678 -0.05700038287757 0.5855712 0.2805715 -0.7605169 183 183 183
0.129519385998509 -0.104303402341249 -0.0516882110371733 0.0066479 -0.03108878 -0.9994945 217 217 217
-0.0735785742656083 0.153118936723016 -0.00322709531642124 0.2037985 0.9647952 -0.166242 51 51 51
-0.00804935949605545 0.0946668452165582 -0.0642680975169934 0.08884794 0.1513084 -0.9844856 136 136 136
-0.0987865857834688 0.0138153062072737 0.0775064320478482 -0.8482549 -0.3254687 0.4177723 135 135 135
-0.0423865227737872 -0.132046628937141 0.0503699038408749 0.08522888 -0.9363597 0.3405387 171 171 171
-0.144565931566361 0.149470340517202 -0.00959135966522978 -0.978788 0.1406356 0.148982 118 118 118
0.128998731695043 -0.0813559759572422 -0.0541787567446628 0.1770365 -0.06907628 -0.9817773 171 171 171
-0.0664189734530016 -0.0779662741688938 0.0663002026136613 -0.7567946 -0.2408603 0.607658 111 111 111
0.0827467219137548 0.109409090049412 -0.0321705382369964 -0.07428101 0.9429424 -0.3245641 50 50 50
0.139671996528822 0.00320941550578713 -0.057818447308785 -0.1337862 0.005233616 -0.9909964 116 116 116
0.0259747249327464 0.0277031644861072 -0.0602208011672072 -0.01360787 0.02511599 -0.9995919 130 130 130
0.0210871092934857 -0.128621993528893 0.0254696377978899 0.15534 -0.9116902 0.3803821 173 173 173
0.028589034234084 -0.12335117194068 0.03463007738598 0.2761033 -0.8483609 0.4517198 111 111 111
-0.0690811682203996 0.0942734599833199 -0.0643957055989836 -0.06395322 -0.08985902 -0.993899 122 122 122
0.0105117583417156 -0.133914546976152 0.0210779460900166 0.3342998 -0.87731 0.3443413 119 119 119
-0.143483498480387 0.155245989174943 -0.015788205968721 -0.9826764 0.09579499 0.1586518 101 101 101
0.0925268242331825 -0.0347210979588397 -0.0560361910046691 0.06388348 -0.1873371 -0.9802161 124 124 124
0.169143350597961 -0.0488389678088481 -0.0571891388257833 0.719392 0.05152839 -0.6926904 123 123 123
-0.0681410003561771 0.0577433074649527 -0.0601698448266738 0.02752808 -0.05539048 -0.9980852 146 146 146
-0.135664378889811 0.0989813974284068 -0.0501592564137876 -0.5350711 -0.1546289 -0.8305353 160 160 160
0.0748590564027024 0.0041780113059815 -0.0597400173933281 0.08488999 -0.01394375 -0.9962928 149 149 149
0.0896225863495059 -0.0184498491167928 -0.0588045766037242 0.02059874 0.1068577 -0.9940609 149 149 149
-0.113884930429459 0.0139052393346566 -0.0224487473151889 -0.9670594 -0.1557712 0.2013244 131 131 131
-0.126504947070881 0.0727665583174673 0.0586439284197384 -0.9389946 -0.3354897 0.07573492 174 174 174
-0.127482233987847 0.170530351568634 0.0119615052894836 0.2559025 0.9587692 -0.1235941 116 116 116
0.140130820340397 -0.0909631960703496 -0.0525059683410505 -0.1474538 -0.2020686 -0.9682075 174 174 174
0.0447725274026275 -0.0744857826215697 -0.0518649204558406 -0.03244891 0.04810857 -0.9983149 156 156 156
-0.128630041959582 0.0770300690956869 0.0511526884578769 -0.826926 -0.5095872 0.2377273 130 130 130
0.149951570954481 -0.123737974838623 -0.0299013672100088 0.2808838 -0.9454726 -0.1648813 135 135 135
0.0900728724619713 -0.123998504585668 -0.0262396589523811 0.0125295 -0.999134 0.03967682 101 101 101
-0.00294331187389363 0.0266906355844763 -0.0597757074631299 0.02196518 -0.07729724 -0.9967661 165 165 165
-0.103872404430509 -0.0539866660480397 -0.0473128421449218 -0.9026329 -0.4278125 0.04722677 128 128 128
0.14857792136568 -0.124274630645799 -0.0462264772059104 0.1554805 -0.8482221 -0.5063052 130 130 130
-0.0769626704696795 -0.0857130219440287 0.042094461616399 -0.9189374 -0.1898873 0.345683 177 177 177
-0.144760250584433 0.143821784307683 -0.00696621441649747 -0.9780998 0.2079571 -0.008638189 72 72 72
-0.111372117944024 -0.0360284635119914 -0.0479273742905196 -0.9949693 -0.09627576 0.02769565 164 164 164
0.146402390028446 0.0325593563938587 -0.05404070731055 0.8540027 0.1125282 -0.5079535 74 74 74
-0.13026835738104 0.039230567051439 -0.0539618681742666 -0.886952 -0.3364025 -0.3164641 153 153 153
0.203052902611225 -0.0905937922557682 -0.0285946358575251 0.9263784 0.1769591 -0.3324282 111 111 111
0.178269744011689 -0.100415783403125 -0.0576906347750798 -0.2919491 -0.3973826 -0.8699729 208 208 208
0.187685252979622 -0.11960208219677 -0.051788750358722 0.03020534 -0.7208675 -0.6924143 225 225 225
0.00568563964096558 -0.0700488219291897 -0.0552213720177837 0.01535884 -0.2354319 -0.9717695 136 136 136
-0.0100727884854368 -0.0259038799038227 -0.0567565013859757 -0.02170559 -0.003526202 -0.9997582 186 186 186
-0.071048049860866 -0.140495609061416 -0.0314469726745217 -0.02531255 -0.3514152 -0.9358774 195 195 195
0.00745208302120026 0.0152407011046372 -0.0592712696594056 -0.06620842 -0.02886058 -0.9973884 153 153 153
-0.0716181576311837 -0.145555577793891 -0.0035950050090644 0.01101257 -0.9991964 -0.03854026 156 156 156
0.0191739924917789 -0.0772210531699851 -0.0520193045695526 0.05417031 -0.1058609 -0.9929044 218 218 218
0.0999360745853929 -0.024868641587378 -0.0594637758330027 -0.1185662 -0.08063422 -0.9896667 147 147 147
-0.092671969861037 -0.0987971165292931 -0.0384665217541171 -0.9516649 -0.2830737 0.1191775 102 102 102
0.0509206507786681 -0.116103233340813 0.0131761499422416 0.2538956 -0.8755411 -0.4110534 135 135 135
0.0772999415661345 0.038940412078464 -0.0600466553159716 -0.02576781 -0.1348904 -0.9905254 172 172 172
-0.0880053609596768 -0.113962297432528 -0.0247123670757212 -0.9872615 -0.1435019 0.06871615 143 143 143
0.191514720551523 -0.0467803928370785 -0.0182737469471285 0.9600302 0.04359578 -0.2764804 45 45 45
0.0247003475604368 0.0464073777829865 -0.0625758672844431 -0.1171205 -0.08856126 -0.9891611 161 161 161
0.110092292006772 -0.0988714042009893 -0.0529098570992158 -0.01663831 -0.1585006 -0.9872187 208 208 208
0.078929303499948 -0.0809174449046881 -0.0553489199301858 -0.103688 -0.04049418 -0.9937852 134 134 134
0.191080019663359 -0.120601932311059 -0.0224516220404214 0.09791554 -0.9691555 0.2261641 116 116 116
-0.0581636999096614 -0.0129756510910712 -0.0601062032980518 0.1702452 -0.09635192 -0.9806798 166 166 166
-0.0938841570208344 -0.0595827585551574 -0.0129633330745129 -0.9176224 0.04389884 0.3950214 155 155 155
-0.0994670546563294 -0.0203767051346373 -0.0126723246130075 -0.9387365 -0.2836197 0.1957899 124 124 124
-0.143317197102432 0.128589891140548 -0.0468961068717231 -0.9481546 -0.002880679 -0.3177965 148 148 148
-0.0651534154092721 0.155661811160659 0.0323247364460578 0.2059408 0.9558081 -0.2098077 106 106 106
-0.0698917284686967 -0.0779914605530823 -0.0479882119777942 0.06125444 -0.1614698 -0.9849748 180 180 180
-0.149902614452548 0.117750259631523 -0.0137400688381336 -0.9950283 0.07057644 0.07026926 111 111 111
-0.00229817329916226 -0.111671353853186 0.0733675815406794 0.1238231 -0.8788596 0.4607316 92 92 92
0.153123779335813 -0.0105241179921074 -0.0581736122846839 0.243596 0.1996726 -0.9491006 123 123 123
-0.1033694461787 0.0150238812952321 0.0434730124122239 -0.9421641 -0.3220771 0.0926999 159 159 159
-0.0615219740622925 -0.133041053944442 0.0465492043207872 -0.8301181 -0.3242557 0.4536102 188 188 188
-0.0583029215557253 -0.0425531401305526 -0.0561055505133491 0.0263456 -0.185313 -0.9823263 134 134 134
-0.0694676105676061 0.144340775962086 -0.0305238589619635 0.4470492 0.8746137 -0.187611 58 58 58
-0.136206569618089 0.0739036444478431 -0.0267787507091317 -0.848613 -0.5073527 -0.1498305 171 171 171
-0.0822218444716062 -0.0441214257841525 -0.0589921820340235 -0.03456216 -0.1282918 -0.991134 181 181 181
0.076220052454112 -0.0657112443509349 -0.0569326074003871 0.08184833 -0.06847632 -0.9942896 171 171 171
0.017661417778273 -0.134273262981282 -0.0363583735705659 -0.1246739 -0.7222211 -0.6803331 204 204 204
-0.0830684566292437 -0.113881664910544 0.00985877179609984 -0.8700569 -0.2350067 0.4333276 197 197 197
-0.0696811642266577 0.152255921930714 0.00355342555039595 0.1963468 0.973541 -0.1169016 96 96 96
-0.0373742104736453 -0.10516629306261 0.0871467649490288 -0.4345561 -0.3768623 0.8180072 128 128 128
-0.064315378012516 -0.120724173873345 -0.0380443844260765 -0.005583474 -0.2336246 -0.9723108 196 196 196
-0.0667972658395178 -0.138722031601528 0.0305881393855884 -0.7567131 -0.5922906 0.2767257 151 151 151
-0.0879960232673234 -0.0655238811240211 0.00192061792823051 -0.9421111 -0.1995945 0.2694229 152 152 152
-0.0854668145342018 -0.0220628211767149 0.0896584888314606 -0.8534315 -0.3502136 0.3860119 130 130 130
-0.121438069978672 0.0485034726061651 0.00891962080378661 -0.9133162 -0.3777857 0.1520902 137 137 137
0.103233237746509 -0.114564038595129 -0.0520146591198436 0.0862979 -0.167096 -0.9821566 194 194 194
-0.0562114901974704 -0.124171532620585 -0.0367845591881795 0.1014561 -0.2767123 -0.955582 163 163 163
-0.0477753247775837 -0.109228394477644 -0.038886944523857 0.06291211 -0.3379244 -0.9390683 171 171 171
0.144831065615749 -0.035076514370955 -0.0562585809926867 -0.1352464 -0.0132597 -0.9907233 115 115 115
0.147241916405304 -0.115373712415532 0.00412687552101237 0.1848053 -0.8851488 0.4270348 145 145 145
0.0370920359884355 -0.119755696980033 0.000228225363931467 0.2802052 -0.9474171 0.1545507 101 101 101
-0.094791386321578 -0.0133331515904893 -0.0620479060869834 0.05651784 -0.05128995 -0.9970833 171 171 171
-0.0840077730008224 -0.104242148636256 0.0108358806276628 -0.9253711 -0.05076453 0.3756478 134 134 134
-0.083842172046921 -0.0955296269195793 0.0195842429767506 -0.9748589 -0.1132875 0.1918748 163 163 163
0.0721910333920299 -0.0980445763014601 0.0516499894175063 0.3740402 -0.6938591 0.6153482 120 120 120
-0.0779471216251544 -0.0611034260399428 0.0472115052696888 -0.9291389 -0.2004311 0.31069 96 96 96
0.10135816398095 -0.110806218665998 0.0165081923888487 0.04082168 -0.9284841 0.3691217 106 106 106
0.0845188464963327 -0.124473093507158 -0.0487380763605683 0.03404953 -0.9690557 -0.2444828 175 175 175
-0.0795903534464105 -0.0838061606559748 0.0332063116626775 -0.9607455 -0.01067088 0.2772259 130 130 130
0.0887007820387435 -0.0372966588071462 -0.057213781629349 0.227358 -0.0869516 -0.9699215 133 133 133
-0.149279032291266 0.125602180568108 -0.027091522950995 -0.9698614 0.2219696 -0.1004899 165 165 165
-0.0598557516359219 0.0881189772131088 -0.0637994393862603 -0.009680013 0.04157013 -0.9990887 137 137 137
-0.141762418921651 0.169628389166955 -0.0149982077674987 -0.6250592 0.7043754 -0.3363869 122 122 122
-0.0238254694559956 0.122883077315847 -0.0379154614360938 0.3255996 0.8973832 -0.2978058 19 19 19
-0.145815283016049 0.143108177225263 -0.0408246845470443 -0.9597059 -0.1680488 -0.2252202 163 163 163
-0.0513365631368036 -0.113215489141608 -0.0377606669871541 0.1492431 -0.2456742 -0.9577947 188 188 188
0.0988614470884112 -0.0266785302000387 -0.0587796825419803 -0.1279321 -0.09908712 -0.9868207 149 149 149
-0.125507505516187 0.0488948067602151 -0.0181086072888864 -0.905334 -0.410109 0.1103673 159 159 159
-0.0549372418339685 -0.106298826706487 -0.039677380208511 -0.06769489 -0.2276655 -0.9713835 157 157 157
0.0468254202945249 0.0703995245937996 -0.0630967656701731 -0.06514458 0.08729827 -0.9940499 154 154 154
0.0975086697516421 0.0407748096586036 -0.0607771566628975 0.09538168 0.0801862 -0.9922059 144 144 144
0.103628489224238 0.025507837097843 -0.0597635875580378 -0.08005992 -0.1139356 -0.9902571 160 160 160
0.098702423129956 -0.00691160188069428 -0.0597179203273722 -0.115676 -0.03212802 -0.9927673 173 173 173
0.00787120382766349 -0.124122949231761 0.0429238322329968 0.2883279 -0.8746688 0.3896429 99 99 99
-0.112348355843555 -0.0121494223052483 -0.0468327699359338 -0.987394 0.1555823 -0.02910918 101 101 101
0.0972345445943127 -0.0731155781520785 -0.0538486263659644 0.00726907 0.03828331 -0.9992405 157 157 157
-0.0888481461210537 -0.0257247750462752 0.0709928420795738 -0.9463137 -0.3049769 0.1071425 224 224 224
0.0359604486394317 -0.107875071461894 0.0604203583159226 0.4002935 -0.8177549 0.4135723 122 122 122
0.0314153535545947 -0.0882408419496379 -0.0506505258176588 0.004837378 0.05669913 -0.9983796 140 140 140
0.00382620214944274 -0.139373513648057 0.0117198206490925 0.3067349 -0.8757431 0.3728107 127 127 127
-0.101013478552435 0.169060910981967 0.0325913707233787 0.3642651 0.915925 -0.1685004 133 133 133
-0.0771149696094086 -0.0744156008899943 -0.0492654126892096 0.1804275 -0.2073803 -0.9614777 154 154 154
-0.0686011504901157 0.139725959711719 -0.0403473851169973 0.3550369 0.8784512 -0.3198004 100 100 100
-0.02646274451805 -0.145031816027426 0.00925203576723749 -0.1601048 -0.9850791 -0.06313203 163 163 163
0.0651919194693119 -0.125611522136151 -0.0315833223967572 -0.09172773 -0.9471928 0.3072651 131 131 131
0.19419152373122 -0.109332326917315 -0.0527248519131794 0.5242334 0.0254622 -0.8511939 99 99 99
-0.146996396807076 0.0909236570751504 0.00140450128549086 -0.9008402 -0.4299732 -0.06008424 124 124 124
-0.0963163006008568 -0.0456214120721166 -0.0156147491560868 -0.8946763 -0.07286721 0.4407319 111 111 111
-0.00545696080090274 -0.110366237342129 0.0764264082289431 0.08902389 -0.8697104 0.4854672 143 143 143
-0.0192191964121957 -0.0629182428485733 -0.0522328010316895 0.06023487 -0.1900525 -0.9799244 153 153 153
-0.112501263573866 -0.0127605333376082 -0.0443478958310563 -0.9942092 0.09563266 0.04901417 101 101 101
0.152261787506907 0.0922534263299719 -0.0387455956440088 0.9481724 -0.01637567 -0.3173341 76 76 76
0.121817470760873 0.00693452979413256 -0.0588300870358187 0.2847675 -0.2564833 -0.923647 180 180 180
0.108190950347705 -0.0816290156134196 -0.0523564716725046 0.2141766 -0.06267695 -0.974782 177 177 177
-0.00555306549148293 -0.146160415438121 -0.00258733702133107 0.03172403 -0.9848225 0.1706411 133 133 133
-0.123557259876318 0.169557569251679 0.0119466638556548 0.1984395 0.9684918 -0.1504838 71 71 71
0.199718941486581 -0.107471921220541 -0.0416173881323401 0.8708694 0.2294878 -0.4346514 142 142 142
-0.0761965837099335 -0.115710380796083 0.024213981690094 -0.8971837 -0.1677219 0.4085715 158 158 158
0.0255450827564004 -0.133120948032809 -0.033936102516891 0.4369985 -0.8994604 0.001778811 117 117 117
0.0887866461869932 -0.110370652042878 0.0193718376385781 0.1248494 -0.9507374 0.2837446 100 100 100
-0.111720515196029 0.0320625917917727 0.0509981338944995 -0.8601645 -0.4668384 0.2053751 152 152 152
0.0099466716257266 -0.0821871703321808 -0.0525640889337246 0.06303238 -0.05582491 -0.9964489 116 116 116
-0.0137900191667488 -0.112313877269518 0.0766660427623921 0.1877191 -0.840753 0.5078346 89 89 89
-0.0806310058446819 -0.136792750632689 1.59533996880179E-05 -0.9824725 -0.1828656 -0.03616379 137 137 137
-0.0896752620095153 0.0932981467084835 -0.0608246282709136 -0.1846359 -0.09293573 -0.978403 149 149 149
0.204235347754565 -0.0807832599027427 -0.0201542418861246 0.9561814 0.1033152 -0.2739398 127 127 127
-0.119097800794055 0.0162105070826939 -0.0358228594398301 -0.9029592 -0.35669 0.2396602 131 131 131
0.0749024282181936 0.116824818678005 -0.0091723396393058 0.0510056 0.9218199 -0.3842479 131 131 131
-0.0172093054359934 -0.0354907213731814 -0.0567312750983729 -0.0906943 -0.1188533 -0.9887611 127 127 127
-0.0423264113026612 0.126405500432216 -0.0506986810410481 0.4054836 0.8819579 -0.2402778 94 94 94
-0.120066764755153 0.0438740955952617 0.00245910879616767 -0.870739 -0.4566134 0.1825316 86 86 86
-0.0930280022670508 -0.0791398718671228 -0.0214037990699943 -0.9690409 -0.1479367 0.1976728 149 149 149
-0.142524135539451 0.120787243239465 -0.0470479453595797 -0.9846089 -0.07529989 -0.1577186 120 120 120
0.0579882785656189 -0.117321346367423 0.0206850401369142 0.2708005 -0.9587409 -0.0865045 113 113 113
0.124890388326872 -0.0677134701699829 -0.0577061752163713 0.114952 -0.3747476 -0.919973 205 205 205
0.155215199676521 -0.11129369251324 -0.0510577356173005 -0.2078671 -0.2034881 -0.9567569 125 125 125
0.0645688834065032 0.115572243474051 -0.00988537076683399 -0.1616359 0.9006012 -0.4034741 86 86 86
-0.079349437490718 -0.0747070257456408 0.0376933802654609 -0.962965 -0.1730374 0.2067764 137 137 137
0.155479355985236 0.0282185825721901 -0.0391721501418965 0.8635816 0.1834165 -0.4696649 157 157 157
0.131102023865257 0.00436864236981771 -0.0574142954008672 -0.01238242 -0.09928508 -0.994982 124 124 124
-0.131311985549338 0.065741115977459 -0.0284813322501756 -0.9578282 -0.263865 -0.113756 202 202 202
-0.0324612760732305 -0.118497357302399 -0.0362688854829975 -0.07679286 -0.1857153 -0.9795982 191 191 191
-0.0698867067197438 0.0145894441966039 -0.0617976686112023 -0.1129814 0.0744379 -0.9908049 148 148 148
-0.0844654089024649 0.0250202038720775 -0.0603007244600799 0.04156316 0.02767544 -0.9987525 148 148 148
0.00876107507952828 -0.13783182326421 -0.0116381938150494 0.5608507 -0.8273864 0.02963278 89 89 89
-0.127553267274456 0.053273412822203 -0.0170893588489263 -0.8795555 -0.4233041 0.2172457 115 115 115
-0.135076320347778 0.0881951509291115 0.0532574058342036 -0.7324952 -0.2547539 0.6313092 198 198 198
0.158267892309947 0.0747455665261814 -0.0258935691844712 0.9567274 -0.07789786 -0.2803652 53 53 53
-0.110784417566808 0.0268129714204546 0.00548158372125307 -0.9066852 -0.3972976 0.1416917 192 192 192
-0.016634811348949 -0.144887275991681 -0.0160241905724635 -0.2007503 -0.9781861 -0.05339795 164 164 164
0.0412027568922595 -0.118352144504994 0.00898169888983474 0.266793 -0.9543772 -0.1341109 93 93 93
-0.00914375558830294 0.00445157889669834 -0.0597736908554077 -0.0703417 0.006732308 -0.9975002 151 151 151
-0.112191876855932 -0.00957610171068479 -0.0361108664504934 -0.9609587 -0.2383426 -0.1405391 203 203 203
-0.104552686605586 0.0966822727650085 -0.0590194542957229 -0.1000463 0.03931407 -0.9942058 118 118 118
0.164655986678753 -0.0271087405705952 -0.0521260239446786 0.8104402 0.277686 -0.5158267 77 77 77
0.16389249563927 0.0212846367278505 -0.0258201786426426 0.8495457 0.254138 -0.4622618 84 84 84
0.0633593590806037 -0.0706532689280548 -0.0549373683746538 -0.2135933 -0.08885605 -0.9728733 230 230 230
0.0871971097192367 0.049138396302681 -0.0608676056172542 -0.06443046 0.2317731 -0.9706338 173 173 173
-0.0740365906309355 -0.143676869297941 -0.0119955694728989 -0.2358636 -0.967622 -0.08986624 151 151 151
0.157527970434475 -0.107338725426163 -0.0529861514538602 -0.1932676 -0.3711846 -0.9082233 203 203 203
-0.0589615335335626 0.145490741774883 -0.0116567240129224 0.4694096 0.809152 -0.353451 119 119 119
-0.0762731687354712 -0.0299982943938228 0.0981426510913078 -0.5769692 -0.6193725 0.5324323 141 141 141
-0.0976297861551741 -0.0220916443636185 -0.00586536455626974 -0.9424081 -0.2585784 0.2121419 152 152 152
0.0370772763418236 -0.0449348624003696 -0.0550380396115315 0.003870748 -0.1016833 -0.9948093 118 118 118
-0.0499065963175976 0.0454959804967454 -0.0596144320530737 0.0005680909 -0.1461304 -0.9892652 164 164 164
0.167186591259253 -0.0136871108853804 -0.040128673421656 0.8278996 0.4356185 -0.353297 39 39 39
-0.0888942524941888 -0.104958765218823 -0.024954657055439 -0.9311985 -0.2586644 0.2568307 179 179 179
-0.083810878698003 -0.0918100163600604 0.0208304445907393 -0.9482534 0.02452824 0.3165657 161 161 161
-0.0809570006727984 -0.114336995646942 -0.0411517224687169 0.0177301 -0.1894971 -0.9817212 198 198 198
-0.0787306644709438 -0.0703500893692259 -0.050797719616307 0.2554547 -0.3735869 -0.8917263 154 154 154
-0.145206844254911 0.160709186912225 -0.0320761504312675 -0.869665 0.4688392 -0.1545077 160 160 160
0.00930146302850987 -0.136674005933773 -0.00692078244601696 0.6570535 -0.7519062 -0.05401516 140 140 140
-0.0424009845597867 -0.075220319190016 0.099575082623357 -0.38983 -0.4801178 0.7858241 97 97 97
-0.150600901919315 0.10037498068058 0.0194459876603389 -0.8935632 -0.4489221 -0.003711932 173 173 173
-0.103971046748403 0.105217805185421 -0.0583380679884922 -0.2836517 -0.03488035 -0.9582928 171 171 171
-0.0613303534561547 -0.143571424724547 -0.00331294876923388 0.2003745 -0.9400819 0.2758552 117 117 117
-0.0693743604261495 -0.143819350942594 -0.0306984937706448 -0.07519397 -0.5220053 -0.8496213 189 189 189
0.000231746373266839 -0.13485478323565 -0.0339060859086803 -0.04783154 -0.6317922 -0.7736607 180 180 180
-0.109173685517062 0.0102428743576879 -0.00938817229927535 -0.9085473 -0.3074611 0.2828595 75 75 75
0.00454671051038202 -0.0106946739515379 -0.058417736257703 0.05963372 0.02029721 -0.998014 158 158 158
0.112916557891504 0.0206525466271374 -0.0609027761040477 -0.08865275 -0.01155275 -0.9959956 171 171 171
-0.0783023376626494 -0.0368270147598806 0.0749867605817021 -0.5083057 -0.8273455 0.2390079 169 169 169
-0.034459287953908 0.0285728624672803 -0.0579621970545603 -0.002858686 0.03627366 -0.9993378 136 136 136
0.0232778757197248 -0.12408841098866 0.0357017547913546 0.15548 -0.8812217 0.4464015 110 110 110
-0.112782992837032 0.0723022529026087 -0.0572986974305005 -0.09709729 -0.01633455 -0.9951409 143 143 143
-0.0634047585285116 -0.117024386123282 0.0523223003811364 -0.8851833 -0.1240273 0.4484058 170 170 170
-0.0650217303273064 -0.0873351786371639 0.0631720791688715 -0.8593789 -0.3497767 0.3729934 151 151 151
-0.0885077102307663 0.105520652469586 -0.0623872731443533 -0.0942843 -0.09284902 -0.9912061 148 148 148
-0.0621292721218492 -0.0222051619296886 -0.0595751663601798 0.1828564 -0.1069982 -0.9772998 128 128 128
-0.0583865308987792 -0.0836855914342329 -0.0467948858133703 -0.007920538 -0.2288464 -0.9734303 206 206 206
-0.0230964544818628 -0.0216793768534773 -0.0569265375085832 0.0711128 -0.01384977 -0.9973722 151 151 151
-0.0665280289252204 -0.0452865994949505 -0.0570749398120817 0.2149698 -0.2195525 -0.9516221 173 173 173
-0.0837349013796387 0.153073523386056 -0.0164569594433866 0.2651979 0.9622949 -0.0604857 97 97 97
-0.0552541897243469 0.0401812420467733 -0.0605740319481169 0.3095007 -0.04412555 -0.9498749 147 147 147
-0.112685525883562 0.0359199138874564 0.0508696147788483 -0.9066288 -0.3601226 0.2198544 125 125 125
-0.150454116438754 0.113516984636002 -0.0148408117677065 -0.997822 0.04524425 0.04800296 110 110 110
-0.135470730566026 0.128455351301763 0.0374356761154545 -0.6149945 0.2275328 0.7549905 104 104 104
-0.101906494430414 -0.0573016019761976 -0.0435405888011053 -0.9310247 -0.3278242 0.160388 106 106 106
0.0702559714152263 0.112804758187819 -0.0185094685568513 -0.09677422 0.9288123 -0.3576905 99 99 99
-0.00450937109097183 -0.0624486178764816 -0.0535812581167009 -0.270307 -0.05000908 -0.9614745 151 151 151
-0.0854562320854658 0.159100134776768 0.0162504920275972 0.3349776 0.9182358 -0.2112652 105 105 105
0.0292668396190409 -0.116357691300989 0.0457416065322745 0.2687083 -0.8721258 0.4088918 112 112 112
-0.0514380617085238 0.0669597675741247 -0.0631360473814255 -0.04944419 -0.1938407 -0.9797862 187 187 187
-0.12102103006542 0.163035047580114 -0.0161038290578605 0.3207628 0.9002291 -0.2944467 88 88 88
-0.144455745428001 0.0912767386416011 0.0323689199318172 -0.8436022 -0.5325722 0.06857178 145 145 145
-0.0873469357305428 -0.0552638249546251 0.0285590270119792 -0.9472244 -0.2095587 0.2425925 164 164 164
-0.15126685567853 0.103665062421621 0.013043690292013 -0.9764835 -0.1684726 -0.1345249 153 153 153
-0.0407709931695259 -0.023407009776035 -0.0579213289809317 0.04426884 -0.1452456 -0.9884048 161 161 161
0.0291840135689256 -0.130060476108969 0.0190553228421614 0.2185985 -0.9260206 0.3077344 83 83 83
-0.00783695290847464 0.111983891529568 -0.0589475546226644 0.3464925 0.7812031 -0.5192925 146 146 146
-0.0287012893271223 -0.137314222172078 0.033448149745321 0.06819368 -0.9522086 0.2977386 122 122 122
-0.119787897763967 0.0477877928834318 0.0284574837514084 -0.9653124 -0.2595702 0.02820189 166 166 166
0.0146411133809001 -0.135748721458026 -0.0241438387982482 0.1849491 -0.9825917 0.01752987 81 81 81
0.0378128650324309 -0.116356751963186 0.0425045030929891 0.2328193 -0.8637775 0.4468596 97 97 97
-0.0228084778755812 -0.0664756141129357 -0.0515537190563135 0.04554629 -0.1664242 -0.9850018 205 205 205
-0.105996773922009 -0.0289431605966026 -0.0568754359901863 -0.528592 -0.237983 -0.8148341 205 205 205
-0.0684049040183983 0.0250658109713093 -0.0608008360535474 0.05907199 0.01843683 -0.9980835 153 153 153
0.0885691992729455 -0.116096939848653 0.000999456068341675 -0.04951015 -0.9312989 0.3608754 80 80 80
0.0721931499533095 0.0543359880701286 -0.0614744465751515 0.09310741 -0.02086067 -0.9954375 202 202 202
-0.0758614884836298 0.137061972671986 -0.0507848838098678 0.147319 0.6410258 -0.7532483 135 135 135
-0.0486392958706059 -0.0827892925303204 0.08638037377577 -0.8260412 -0.1259924 0.5493469 123 123 123
-0.010248778589967 0.142714096473898 0.0342864956248763 0.2691385 0.8231927 -0.4999183 87 87 87
0.0397810853126154 -0.0910685884778903 -0.0517014493730219 -0.06656116 0.03864552 -0.9970337 155 155 155
0.00491937395175701 0.0980442992706485 -0.0637288731963832 0.10794 0.3358616 -0.9357061 153 153 153
0.0880500493252663 -0.0176318380937834 -0.0589221243428587 0.04094687 0.1480883 -0.9881261 169 169 169
0.0381396199322881 0.0312402639487974 -0.0619237904316038 -0.0006831053 -0.01117189 -0.9999374 139 139 139
-0.0111134047803414 0.140282166394324 0.0268932462399901 0.1186786 0.8711405 -0.4764761 83 83 83
-0.0154008622556506 -0.132388857737095 0.040315377384849 0.2801026 -0.8853195 0.3711494 102 102 102
-0.105932684246029 0.035731980896281 0.0762410765027629 -0.8297068 -0.1465803 0.53861 98 98 98
-0.0786633814409243 0.141197377088486 -0.0478792800050739 0.199708 0.7792231 -0.5940775 162 162 162
0.130047619986865 -0.103342930742952 0.0264535343021582 -0.03943202 -0.7958252 0.6042412 128 128 128
0.0705025524732124 -0.0807395828470123 -0.0548663043267181 -0.05804606 -0.09917314 -0.9933757 156 156 156
0.118728158002896 -0.0419696228959978 -0.0579855364741722 0.07772974 -0.2443452 -0.9665679 204 204 204
-0.0388648009103255 0.0178947022610374 -0.0598384535015079 0.06903064 0.05246707 -0.9962339 149 149 149
-0.0714548102011263 -0.0657895378280824 -0.0531565028832961 0.1564672 -0.356691 -0.9210263 221 221 221
-0.0036963384760369 -0.0947738417297272 -0.0448595372313024 -0.2845046 -0.6464801 -0.7078987 147 147 147
0.0110321422482348 0.00932859695251009 -0.0598228340425788 -0.04530339 -0.0230942 -0.9987063 152 152 152
0.0598622650352324 0.0145519492720434 -0.0609761907836667 -0.0441885 -0.005300885 -0.9990091 158 158 158
0.0467818455948089 -0.124473447781336 -0.0463479532430072 -0.3542219 -0.5827608 -0.73138 188 188 188
-0.0890805653653443 0.0112705897393208 -0.0622655585129132 0.1978637 0.02307654 -0.9799579 126 126 126
