ply
format ascii 1.0
comment File exported by Rhinoceros Version 7.0
element vertex 474
property float x
property float y
property float z
property float nx
property float ny
property float nz
property uchar red
property uchar green
property uchar blue
end_header
0.0372669132712238 0.0189072850246906 -0.0068015341339708 0.9707041 0.005480816 0.2402154 127 127 127
0.0238127778115711 0.0353476818359908 -0.0104722221665674 0.1323179 0.7201583 -0.6810756 83 83 83
-0.0142880943676928 0.0450451970743442 0.0260023374328326 0.2057519 0.1174031 0.9715363 57 57 57
0.0199543130067958 0.00325308266423441 -0.0263866301014059 0.4634576 -0.03093811 -0.8855789 93 93 93
-0.0295048658108881 -0.027839004652878 -0.0328822776833326 -0.5586424 0.05777188 -0.8273942 44 44 44
0.0151907829533307 -0.02669058348427 0.0182929231424794 0.4179146 -0.05094012 0.907057 77 77 77
0.0291775096218569 0.0123594499817208 -0.0194697835438103 0.511474 0.05673414 -0.8574238 148 148 148
-0.0342245398696228 0.0364539366783936 0.0384111265538517 0.4576835 0.2163596 0.8623887 107 107 107
0.0119711798930893 0.0419828906467512 -0.00546271585425218 0.003843666 0.4941311 -0.8693789 191 191 191
0.00543911899260463 -0.0206194326664194 -0.0348989137120971 0.4663013 -0.01993712 -0.8844013 135 135 135
0.0339120440020793 -0.0504950982195629 0.00161931863413817 0.6453855 0.2147818 0.7330391 56 56 56
0.0135341218576857 0.0169465525504213 -0.0209384690772148 -0.1226001 0.4729988 -0.8724915 165 165 165
-0.0316972830873632 -0.00583020208973495 -0.0280367077960972 -0.6152849 0.3309989 -0.7154469 135 135 135
-0.0342640217600811 0.0347687390622814 0.0144003952668743 -0.6716613 0.5022552 -0.5446199 135 135 135
0.00688846015674915 0.00880295624814309 0.0238998968151329 0.6724846 0.4258409 0.6053297 20 20 20
-0.0258688719798261 0.00773803993185529 -0.0228053901537212 -0.6276925 0.5453744 -0.5554898 61 61 61
-0.0122021683569682 -0.0365148982702455 -0.0387679316179905 -0.1003014 -0.0343439 -0.9943642 106 106 106
0.000980666753579218 0.0144242532126677 0.0256574029973935 0.6996197 0.3986779 0.5929487 122 122 122
-0.0125186015403487 -0.00363712145438222 -0.0355331628658811 0.03182083 0.2827867 -0.9586549 183 183 183
0.0344240852293649 -0.0349470528372344 0.00188180403360427 0.8046456 -0.2156391 0.5532135 58 58 58
0.0248221656630196 -0.00184846538585193 -0.0226442742093766 0.7311267 -0.08671091 -0.676709 116 116 116
0.0178905402719893 0.0300803986175203 -0.0129318214379216 -0.1653972 0.5347599 -0.8286589 109 109 109
0.0062370996568557 -0.0476373417642643 -0.0335806937786417 0.4667571 -0.09781218 -0.8789599 92 92 92
-0.0108302871365775 0.0422108720296186 0.0262779024739356 0.1733582 0.2396966 0.9552447 77 77 77
-0.0372616838450934 0.00776396616753372 -0.00599276115104988 -0.7483039 0.4785303 -0.4594018 59 59 59
0.0117643289741767 -0.0113650953531194 0.0213364189404214 0.4775398 -0.1480326 0.8660497 93 93 93
0.036927596137883 -0.0552747305751951 -0.000500089816363958 0.8752378 0.1019503 0.4728266 90 90 90
-0.0341366020524503 -0.0135988638196622 -0.0296532570538064 -0.618362 0.2158044 -0.7556831 100 100 100
0.0272691883336895 -0.0412016859598922 -0.0167040926066733 0.8729863 -0.04037793 -0.4860706 114 114 114
0.0205454452370879 0.0485298703514864 0.0018529842556777 0.6946723 0.708144 -0.1263426 125 125 125
-0.041487201308926 0.0224706890740386 0.0168742540699352 -0.6959531 0.4217125 -0.5812123 110 110 110
0.0287706748615566 -0.00421582338015447 -0.0170230649252952 0.7089685 -0.2035873 -0.6752155 107 107 107
0.0382091714384214 -0.00447085554763849 0.00177502384413503 0.6172513 0.2020433 0.760381 57 57 57
0.0173160732083599 0.0213867373331513 -0.0200849121782963 -0.0976286 0.5369258 -0.8379614 125 125 125
-0.0252866575313515 -0.0198011070828098 -0.0345075922576096 -0.3947579 0.2150645 -0.89326 79 79 79
-0.00386325168533785 0.00671460450742156 0.0340913049750363 0.5244364 0.0831684 0.847378 91 91 91
0.0269256146445729 -0.017579361513399 0.0103122426438788 0.6374801 0.0211514 0.7701764 24 24 24
0.0286402696091628 -0.00785234832203729 -0.0161770876370614 0.689239 -0.114751 -0.7153893 154 154 154
0.00813644783742662 0.0324854164364998 -0.0112407700743618 0.005595203 0.5224813 -0.8526324 109 109 109
0.0297829738505864 -0.0400615658066328 -0.0139348188666254 0.8206136 -0.01391404 -0.5713141 113 113 113
0.0370573599981552 0.0289410986432661 -0.00928090262958339 0.8319614 0.1831076 -0.5237479 141 141 141
0.0287919690761993 -0.0279840558296381 -0.0162531103732442 0.8402619 -0.1545216 -0.519695 131 131 131
0.0225698698640024 -0.00532168010205991 -0.0246562298286406 0.615192 -0.02640623 -0.787935 92 92 92
-0.0344404136530199 -0.0042813469537758 -0.0234711329150084 -0.7104149 0.4072663 -0.5739728 67 67 67
0.0190550595772674 0.0460925303898225 0.00558763221403077 0.6590469 0.4767159 0.5817209 121 121 121
-0.0279510328470574 0.0107059947280659 -0.0160858040136679 -0.6459724 0.5771089 -0.4996649 40 40 40
0.00531745063785127 0.0367297327998091 -0.00737399248572579 -0.109227 0.5603822 -0.8210002 94 94 94
0.0399593318121121 -0.0110568629589457 -0.00540209301345282 0.8842093 -0.04909229 -0.4645038 188 188 188
-0.000989412971888814 0.056025985508921 0.0150557998840398 0.4932568 0.7796609 0.3857806 98 98 98
-0.0355354116650952 0.0215766981975104 0.00564288709194516 -0.7629285 0.4881386 -0.423864 87 87 87
0.00815917919129205 -0.0521873655183139 -0.0295175324359234 0.4768741 -0.3359955 -0.812218 60 60 60
-0.0271636928356003 -0.000502281152230499 -0.0287929373638953 -0.5288147 0.4102629 -0.7429935 132 132 132
0.000181261774226726 0.0573081258863769 0.0092301124770241 0.2588726 0.9383827 -0.2289603 117 117 117
0.0297733898537387 0.00922691359324568 0.00477209380885707 0.6988081 0.1442816 0.7006069 76 76 76
-0.0292806955790934 -0.00999292265027385 -0.0310902846414943 -0.4656428 0.2388138 -0.8521413 126 126 126
0.0352291996634713 -0.0510066626526058 -0.0069799868452278 0.8241886 0.1606357 -0.5430555 123 123 123
0.0263935905220816 0.00177587867344253 -0.0211721522673351 0.6542285 -0.1197129 -0.7467623 122 122 122
0.0300535608231569 0.0222249513638728 -0.0174292266818771 0.6099362 0.1714887 -0.7736728 122 122 122
0.0355817909082567 0.0317756619359899 -0.0104542806124264 0.6397674 0.5044872 -0.5798193 120 120 120
0.0103951120264432 -0.0485759166117624 -0.0306033177198773 0.5154124 -0.1721241 -0.839478 79 79 79
-0.0181300119911763 0.0543076651511846 0.0267171791400884 -0.2196053 0.9731063 -0.06955282 98 98 98
-0.0261104171270534 0.0247201309750894 -0.0062389973540119 -0.7427087 0.4660615 -0.4808019 67 67 67
-0.0325475296063691 0.0446755696757011 0.03304728904167 -0.4775542 0.8025095 0.3576597 111 111 111
0.0133546576086108 -0.054767835386211 -0.0263878365511097 0.3904457 -0.5125199 -0.7647715 58 58 58
-0.0392701611001396 0.0237322689178093 0.0138767819237625 -0.7394651 0.3656895 -0.5652102 85 85 85
0.0373975590954738 -0.0106135957474017 -0.00909565134707491 0.6634141 -0.07079901 -0.7448955 219 219 219
0.0393830894885614 -0.0263713365022208 -0.000877559392642668 0.9255517 -0.1795241 0.3333545 53 53 53
-0.00808857341640357 0.00569231477173093 -0.0310318383482306 0.08418639 0.5209061 -0.8494525 161 161 161
0.00181441695774787 -0.00787401672224675 -0.0339991370915826 0.2540716 0.2083543 -0.9444766 42 42 42
0.00826969267434352 -0.00376676846702706 0.0244742892839483 0.6089846 -0.09447972 0.787535 155 155 155
-0.0368983284027267 0.0115489807103305 -0.00365527457004364 -0.7274666 0.4849546 -0.4853981 68 68 68
-0.0204185677518192 0.0390784057898755 0.005378139967224 -0.4344385 0.7280715 -0.5302595 52 52 52
-0.0303095542062581 -0.00507640809753507 -0.0287084380355771 -0.5829282 0.3210926 -0.7463875 168 168 168
0.00630717328885178 0.0447584889712778 0.0144207375114059 0.6501063 0.2902587 0.7022191 39 39 39
0.00668287713404325 0.0158093836837438 0.0202932846509358 0.6801615 0.2231348 0.6982774 100 100 100
0.0030181954833024 0.0110252394008555 0.0267477239064853 0.7252003 0.3853918 0.5705767 97 97 97
0.0320561680434066 -0.0331190636876064 0.00588048518959688 0.679674 -0.2514976 0.6890516 27 27 27
-0.00129057402823474 0.0472297480946118 0.0205178620496622 0.601075 0.1867517 0.7770667 64 64 64
-0.00660704283655189 0.0376833536433175 0.0271500056820137 0.458436 0.3231367 0.8279004 58 58 58
-0.00331563716249672 0.0400784364516314 0.0227986973399849 0.5487972 0.2371062 0.8016248 79 79 79
0.0204997377130072 0.0254093836999592 0.00869132546768794 0.5094602 0.2550795 0.8218179 54 54 54
0.0190754626260934 0.00553082528321369 -0.0266948443511747 0.3820174 0.0009675317 -0.9241546 70 70 70
-0.0103189814150122 -0.0359285832682519 -0.0385262976317843 -0.05583427 0.01794703 -0.9982787 90 90 90
-0.0126466388631492 0.0386543090845118 -0.00347260737106195 -0.4852066 0.6842977 -0.5443447 74 74 74
-0.0031442337264882 0.0440856890629542 0.0219180333823759 0.5381007 0.1080354 0.8359282 73 73 73
0.00239394263515047 -0.0462639855502819 -0.034786184340541 0.4004314 -0.1278116 -0.9073692 79 79 79
-0.00489679400229859 0.0102030289488669 0.0343070550504671 0.3777163 0.2060118 0.9027123 84 84 84
0.0174254134493537 -0.00701645670053108 0.0177448443637725 0.7169273 0.009515324 0.6970829 120 120 120
-0.0151990898849368 0.0535627056128575 0.02302068923221 -0.3058319 0.9217044 -0.2385959 79 79 79
-0.0250160997899322 0.0346240202643396 0.032390037907467 0.4368601 0.1331125 0.889626 60 60 60
-0.00143193457421242 0.0129209523162933 -0.0265460575057974 -0.0158063 0.6625109 -0.7488855 185 185 185
0.0341693453312044 -0.0458285964196158 -0.00170812770389259 0.9214743 0.1073797 0.3733023 70 70 70
0.0231239534902663 -0.0193925985203248 -0.0226406318770621 0.6282953 0.07570905 -0.7742823 183 183 183
-0.0288788272718392 -0.0165726477385183 -0.0327862385730868 -0.3965428 0.101183 -0.912423 104 104 104
-0.0445857595976094 0.018685251956879 0.0159276875061434 -0.6415389 0.5468782 -0.5379146 90 90 90
-0.0152812117691448 0.0164752501316201 -0.0242725729689839 -0.2020965 0.5907944 -0.7811012 190 190 190
0.00452163498439795 -0.0451967569794606 -0.0340894863579705 0.4249143 -0.05745025 -0.9034087 83 83 83
-0.00517900592309894 0.050970960270624 0.0224767734613263 0.4952603 0.3302776 0.8035135 92 92 92
0.0377081818187879 0.00851643081968201 -0.0122245111190643 0.8616479 0.04229583 -0.505741 176 176 176
0.0343335496697215 0.0241490831865324 -0.012367738822881 0.721352 0.1020897 -0.6850029 131 131 131
0.00208495919584983 -0.00481710178320505 0.0308058869701023 0.7656452 -0.02066553 0.642931 113 113 113
-0.00783333424456911 -0.0259342114466217 -0.0372648371199575 0.08551615 0.03210527 -0.9958194 53 53 53
0.00697120762688908 0.0463743393907089 0.0133799975689906 0.6294859 0.3421089 0.6976453 69 69 69
0.0353625234002695 0.0271549459396953 -0.00257069215517877 0.7442353 -0.1160052 0.6577663 71 71 71
0.020360965898472 -0.0050733481019023 -0.0254427416231881 0.4599113 -0.06356609 -0.8856868 66 66 66
-0.0285633048360965 0.0456417697358362 0.0338984994165763 0.08406488 0.622027 0.77847 92 92 92
0.0265395463171667 0.040782090746396 -0.00158423424818727 0.5082752 0.8495539 -0.1411188 173 173 173
0.00888616137129006 0.0158258743231324 -0.0226141960332686 0.06531744 0.5903437 -0.8045048 180 180 180
-0.0190575865721732 0.0159604375052382 0.0361712030633172 0.3903517 0.2868607 0.8748351 83 83 83
-0.00940022132310192 0.00949591894452717 -0.0291697119540016 0.06160366 0.5348644 -0.8426892 155 155 155
-0.0161119569015984 0.0239642910839115 -0.0181247344844434 -0.2222195 0.6526902 -0.7243024 157 157 157
-0.00721352209866399 0.0466249012362697 0.0249854072413126 0.3706425 0.1624288 0.9144621 48 48 48
0.0313179325096038 -0.0421051885837854 -0.0100114395001406 0.8065587 0.009392329 -0.5910795 124 124 124
-0.0157658619168295 0.0474122489104188 0.013922548779167 -0.5303319 0.7156933 -0.454457 85 85 85
0.0410077232485637 -0.00812846547520918 -0.004789259380032 0.9672903 -0.08121359 -0.2403203 156 156 156
0.00339436578563257 0.0552864931393556 0.00985864796424793 0.6184494 0.774532 0.1327418 103 103 103
0.00156746102609295 0.0382297477940694 -0.0055596898361587 0.08890788 0.5032519 -0.8595539 115 115 115
0.0220827797795859 -0.0172120431219212 -0.023948018249648 0.6226938 0.01455088 -0.7823303 180 180 180
-0.0309151476621516 0.035612093742157 0.0366045503025513 0.5840126 0.06431789 0.8091925 109 109 109
0.00807610952188664 0.0104418733457748 0.0204326869357671 0.6858196 0.3955334 0.6109049 110 110 110
-0.00755697603859051 0.0422691986645861 -0.00430207641671149 -0.3222123 0.6361597 -0.7010564 118 118 118
-0.0111821282108648 0.0374591030100261 0.0275384116156524 0.1219958 0.2733305 0.9541528 56 56 56
0.0406705741248707 0.0100169739142831 -0.00398426174199101 0.9536667 0.1713678 0.247291 51 51 51
0.0113222988954673 0.0115885489071107 0.0166764202167754 0.5230847 0.2322789 0.8200176 103 103 103
-0.0394097714655088 -0.00204937804635907 -0.0121627037967085 -0.8229101 0.4205608 -0.3820308 23 23 23
0.026111950940451 -0.0347635205199802 0.0101932700364642 0.6490963 -0.141255 0.7474764 51 51 51
-0.023881428645085 0.00635337229915778 -0.0264971490225598 -0.5569823 0.5098433 -0.6556146 126 126 126
-0.0149226106354727 0.0107898193309189 -0.0283099759858233 -0.1362751 0.5523936 -0.8223687 189 189 189
0.00608914494094659 0.0287045722335216 0.018426918556507 0.5922955 0.07023261 0.802654 59 59 59
0.00644090515586093 -0.0159998418508337 0.0242565008799386 0.6271421 -0.1628289 0.7616951 107 107 107
0.00868937029386618 -0.0111513404696056 -0.0311974400739587 0.6062843 0.1247698 -0.7853992 88 88 88
0.0385012294834217 -0.0189563316305285 -0.00640156131504915 0.7160897 -0.09477144 -0.6915446 120 120 120
-0.0244910513885879 0.0198604112794339 -0.0134493148430069 -0.7364037 0.4500439 -0.5051436 92 92 92
0.0193728161695859 0.0408138106890008 -0.003923951049047 0.2220027 0.6548638 -0.7224045 128 128 128
0.0373971280411798 -0.0279729186730125 -0.00748542033055358 0.7387965 -0.1318281 -0.6609094 118 118 118
0.0170729862138006 0.000257136985049256 -0.0281088029857344 0.3086962 -0.01729432 -0.9510034 84 84 84
0.000498135651046283 0.000238652441945986 0.0322054362475192 0.7227179 0.1730282 0.6691338 108 108 108
-0.028991010206306 0.0433359149730915 0.0216444569951095 -0.5111118 0.7595381 -0.4023266 88 88 88
-0.00287326403452148 -0.00642851179805926 -0.0342839528783066 0.1909897 0.194759 -0.9620768 176 176 176
-0.0188982872896855 -0.0362198811797354 -0.0369947539906419 -0.1804932 -0.1168077 -0.9766157 50 50 50
-0.0400771402667153 -0.00983079872699155 -0.0185512315081634 -0.8520586 0.3058236 -0.4248154 59 59 59
0.0330802990549546 0.0297027189440927 -0.0131220388088777 0.5125202 0.323113 -0.7955633 101 101 101
-0.00729417219190953 -0.0236289051684823 -0.0371039280535844 0.1167513 -0.010935 -0.993101 91 91 91
0.030552233161381 0.00166530596911707 -0.0184380278197544 0.6202582 -0.2171588 -0.7537385 105 105 105
0.0331750080832864 0.015824520600152 -0.0163163838937275 0.6747517 0.1997888 -0.710489 115 115 115
-0.0271103820076277 0.0223765754913374 0.0370386875832458 0.4411584 0.2710932 0.8555044 106 106 106
0.0365054101948203 0.0110702504546967 -0.0132007632489702 0.8436697 0.05883936 -0.5336285 139 139 139
0.0220467997287908 -0.0160442457450728 -0.0239078844948292 0.6139312 -0.02667578 -0.7889087 172 172 172
-0.00191042730171409 0.0218431077316581 -0.0184416102126491 0.05079612 0.4841482 -0.8735103 181 181 181
0.0242285303948355 0.0280950411335893 -0.0156712760248775 -0.03883562 0.5985389 -0.8001518 197 197 197
0.0307444123470599 0.0342302199635924 -0.000118551438667319 0.5775965 0.3744223 0.7253897 91 91 91
-0.0216047269233686 0.0504184446849619 0.0238183322001158 -0.4377601 0.826178 -0.3546772 70 70 70
-0.0350214715502251 0.040953139617618 0.0364733234912684 -0.01165334 0.6381329 0.7698381 82 82 82
-0.0313165935919528 -0.0075478978939223 -0.0294097639723332 -0.5726706 0.3088732 -0.7593719 113 113 113
0.000734222753801639 0.0278356820526791 0.0225065817831419 0.714469 0.1328336 0.686942 87 87 87
0.024886644254082 -0.0162702576923395 -0.0200078058465877 0.7319517 0.08788862 -0.6756644 111 111 111
0.0178697186717698 -0.0301083358972707 -0.029895311395233 0.4488534 0.250767 -0.8576984 132 132 132
0.0295083241376513 0.0344106690157351 7.95889900770674E-05 0.5220906 0.2868613 0.8032011 70 70 70
0.0373858913960352 0.0235176455938069 -0.00541877734596283 0.8196771 -0.1934534 0.5391708 95 95 95
0.0242560412337718 0.0289797446821649 0.00505561303631524 0.5265237 0.3501644 0.7746984 117 117 117
-0.0166591756701155 0.0382891032935762 -0.000449286642513341 -0.542561 0.7236869 -0.4265031 83 83 83
0.00717308154388041 -2.0915943972466E-05 -0.0290847035209283 0.2696435 0.2780111 -0.9219556 102 102 102
0.0334803080237758 0.0256229689458283 -0.000433386253184231 0.7247137 -0.06025758 0.6864102 53 53 53
0.0248673135653243 -0.0439815205572879 -0.020977736811319 0.8976668 -0.1403088 -0.4177414 91 91 91
0.00811884637362281 -0.0137262429929649 0.0239416506757275 0.6106741 -0.1620563 0.7751225 101 101 101
-0.000722471808871639 -0.0219987570039908 -0.0369554362955479 0.2030399 0.07476963 -0.9763116 121 121 121
0.00375318952543946 -0.0122109305109324 0.0282709675495552 0.7427379 -0.09861692 0.6622802 118 118 118
-0.0118762011761291 0.0339012231422345 -0.00952085389730969 -0.1452824 0.6257823 -0.7663482 197 197 197
0.009587417030267 -0.0334786974454592 -0.0306562517162461 0.3687184 0.005308995 -0.929526 159 159 159
0.00425047303494042 -0.00496364430573237 -0.0327650902618433 0.364088 0.2598088 -0.8943933 45 45 45
0.0319648143895428 -0.0229355556408388 -0.0124192260230836 0.7520509 -0.04626802 -0.657479 136 136 136
-0.0235223954215789 0.016584812056141 -0.0169303392133115 -0.7214682 0.4302932 -0.5425232 89 89 89
0.0285839339414453 0.0254328841484239 -0.0174092650941586 0.352128 0.3209854 -0.8791896 133 133 133
0.0347639165250295 -0.0442673623504281 -0.00319681978166536 0.9954891 -0.0006172236 0.09487353 57 57 57
-0.0250535595049115 0.0281672467949167 -0.00406300938223772 -0.6996531 0.5666102 -0.4352453 60 60 60
0.0349905885857957 -0.0418914682697973 -0.00626336296736194 0.9109854 -0.0497038 -0.4094327 133 133 133
0.0346813014006191 -0.0169057892365378 -0.0101431754713729 0.6623681 -0.07757872 -0.745151 131 131 131
0.0292822864197291 0.0319811236355466 0.000933631190586759 0.4155364 0.2543792 0.8732816 63 63 63
-0.0246453272464264 0.0209905072858079 0.0368931117175249 0.3775164 0.3173698 0.8699182 81 81 81
0.0132577113960033 -0.00594541144796701 0.0221310339944522 0.5537744 -0.02345231 0.8323364 123 123 123
0.0193088652576434 -0.0301740381784318 -0.0285885720795588 0.5576683 0.2132274 -0.8022096 123 123 123
0.0388802668310224 -0.0180446760388117 -0.00657269176725003 0.7171754 -0.08817673 -0.6912918 141 141 141
-0.00845494989110218 0.0329031301208873 0.0292330930166953 0.1944505 0.255623 0.9470195 73 73 73
-0.0336877885804241 0.0406457381476496 0.02209167835452 -0.5034533 0.7607393 -0.4096469 134 134 134
-0.0126178077253098 0.0281884675648921 -0.0145870951858464 -0.1087168 0.644901 -0.756494 114 114 114
0.00716824164995744 -0.0124838683038382 -0.0339995904714068 0.5097722 0.144048 -0.8481641 78 78 78
-0.011178945138159 0.0518335575010342 0.0162775690739368 -0.5269034 0.761332 -0.377818 58 58 58
0.00689450215429011 -0.0259795404697805 -0.0329758980429771 0.4688183 -0.06416845 -0.8809607 70 70 70
-0.0177174017384667 0.0246042337475233 -0.0164028280742381 -0.3723018 0.64403 -0.668294 114 114 114
-0.0331090116231811 0.0125071908375542 -0.00664816551714986 -0.658305 0.567461 -0.4945934 39 39 39
0.0108205000090069 -0.0135924315779485 -0.0302053640275576 0.6250604 0.1115149 -0.7725697 130 130 130
-0.0099573763646017 0.022080933079701 0.0310806008635316 0.02451104 0.2361125 0.9714165 83 83 83
-0.00767854214658348 0.019473178225912 -0.0217667546201619 0.1670359 0.6070246 -0.77693 88 88 88
0.025092175645173 -0.0383699482999588 -0.0221430296159657 0.9066333 0.03321372 -0.4206101 154 154 154
-0.00766861425075804 -0.00960345395065321 -0.0354689937760827 0.1702548 0.1519346 -0.9736165 155 155 155
0.0156959361832145 -0.000141087538600537 -0.0284805573607887 0.2478933 0.007658746 -0.9687571 141 141 141
-0.0341557724156587 0.0258645095508747 0.00737941090742672 -0.7715197 0.4119521 -0.4848225 88 88 88
-0.00454147606565858 0.0565567883492178 0.0185626151282846 0.3580478 0.754112 0.5505605 77 77 77
0.0310877242174734 -0.0538558105818576 0.0028738480475842 0.5776324 0.132162 0.8055272 72 72 72
-0.00136747661567371 0.0537996140905441 0.0178100809615751 0.6477611 0.419877 0.6356956 92 92 92
0.0328051347129792 -0.0398437253530741 0.00227664363789679 0.7675949 -0.2022487 0.6081887 23 23 23
0.0330608459316406 0.00753088166431493 -0.0174957766494188 0.6234608 -0.05834049 -0.7796749 165 165 165
-0.0267461850660204 0.0242478017152148 -0.00534624894375718 -0.7563811 0.4625377 -0.4625435 98 98 98
0.00541356151899119 0.0247737629392492 -0.0152449490128957 0.1533206 0.558074 -0.8155037 136 136 136
0.00318119158718577 -0.0342634193687732 -0.0356423540774531 0.4777557 -0.03464084 -0.8778095 98 98 98
0.0242651629726875 -0.0364719035081212 0.0111805363006695 0.649467 -0.2247603 0.7264127 94 94 94
0.00827135012918534 0.00285984134390138 -0.0285670907669534 0.1130996 0.1528885 -0.9817502 78 78 78
0.0204507903045963 -0.0523290070571754 -0.0241799075559836 0.5785743 -0.5450437 -0.6067776 52 52 52
0.032767612553346 0.00704465943409205 0.00277379047447254 0.6642085 0.1797018 0.7256269 37 37 37
-0.0311491751182902 0.0412377743403085 0.0203524678811803 -0.5052586 0.7539907 -0.419776 157 157 157
0.0200401909449748 -0.039810277410382 -0.0279367995302947 0.4664614 -0.1511981 -0.8715233 116 116 116
-0.0179468469274511 0.0240049425628746 0.0327102109822911 0.2994147 0.4180744 0.8576506 102 102 102
0.00785759060763125 0.00387548836708462 0.0255016049921374 0.6080894 0.2144829 0.7643456 115 115 115
-0.0114841791041744 0.0147696007182805 -0.025244141430082 0.08210689 0.5941393 -0.8001606 195 195 195
0.0107103318168997 0.0395427990469002 0.0130204217971299 0.5873715 0.1510094 0.7951043 90 90 90
0.00695693717588641 0.032165237134558 -0.0112038812195253 0.002974685 0.5442601 -0.8389112 126 126 126
-0.0273725570490977 0.0349938065576809 0.00592830625509652 -0.5508537 0.5586154 -0.6200879 103 103 103
0.0184221314444066 0.0327095142655758 0.00728826566297572 0.6077589 0.2432837 0.7559379 52 52 52
-0.0168849025390498 0.011884307999127 0.0360123818848189 0.3996414 0.2928179 0.8686452 99 99 99
-0.0216328146060691 0.0421133097648249 0.0120322146263034 -0.4268341 0.7998349 -0.4219914 94 94 94
-0.00706443638240373 0.0480927672500656 0.00341990606891998 -0.5924953 0.6604815 -0.4612088 30 30 30
0.0120541986574096 -0.0373443710663572 -0.0306872881951944 0.3164965 -0.1098638 -0.9422101 72 72 72
-0.0223046357124681 0.0396193517545625 0.0306571691574349 0.4392569 0.1292734 0.8890117 76 76 76
-0.0299957848706058 0.0459291751644503 0.0300838667693708 -0.4124876 0.9030869 0.1195324 29 29 29
0.0302860890401879 -0.000423594436938957 -0.017215909483654 0.6869624 -0.3040907 -0.6600087 142 142 142
0.0232782458279015 0.0146277406305435 0.00857681349791017 0.6062803 0.1152222 0.7868596 85 85 85
0.0309590448052042 -0.0019621734652463 -0.0151798934659557 0.6746277 -0.2515532 -0.693973 161 161 161
0.0122317227192674 -0.0261908433992138 -0.0306981447713425 0.4272102 0.1245067 -0.8955387 103 103 103
-0.0181208039365086 0.0471085262764215 0.0164765238477777 -0.4872893 0.7158166 -0.5001557 118 118 118
0.015125210202958 0.011664455105618 0.0149518071240713 0.4921938 0.1491041 0.8576207 68 68 68
-0.0289695304606581 -8.56476883983603E-05 -0.0273322401082269 -0.5973825 0.4555993 -0.6599723 128 128 128
-0.00786237370509157 0.0533104108465869 0.0213967281154704 0.1535542 0.5974167 0.7870923 39 39 39
-0.0182745974971512 0.0261116591679617 -0.0140275842924158 -0.488337 0.620509 -0.6135924 119 119 119
-0.0197554182776591 0.053859354132384 0.0280798713630537 -0.1111845 0.9539481 0.2786054 59 59 59
0.0315247315717397 0.000762288486188867 0.00644108449808964 0.7034615 0.140278 0.6967525 32 32 32
-0.025892583412344 0.0140892392252472 -0.0159940294033523 -0.6934327 0.4962636 -0.5223729 53 53 53
-0.0167532079942054 0.0495226994493697 0.0197188455594608 -0.4725076 0.7268312 -0.4984505 85 85 85
0.0335285607183424 -0.0396766080304461 0.00149642051760865 0.8160914 -0.2172111 0.5355504 32 32 32
0.0243971238792176 -0.00408246851126248 -0.0228016513740412 0.7277331 -0.08926415 -0.6800268 99 99 99
-0.0256975537660753 -0.0263053288868563 -0.035451533916496 -0.479684 0.1065556 -0.8709473 75 75 75
-0.0132519843028329 -0.0275545383144755 -0.0381309063891307 0.0534569 -0.05236435 -0.9971963 96 96 96
-0.00466569822772733 0.0547080418504962 0.00890137140984945 -0.5319874 0.7222366 -0.4419996 61 61 61
0.00982805472472625 0.0101100141598618 -0.0260726268887825 -0.04403985 0.529435 -0.8472067 198 198 198
0.0109157019370367 0.0220561970438877 0.0151606070314273 0.5727401 0.05931092 0.8175885 75 75 75
-0.0269444544382429 0.00376616857798329 -0.0254387622996124 -0.6026303 0.5424967 -0.5852641 119 119 119
-0.0373467542766681 -0.00299910318695662 -0.0170505777626791 -0.7998683 0.4346754 -0.4138452 93 93 93
0.0134215848047767 -0.00378104920883438 0.0206831776543969 0.5862812 -0.01724081 0.8099241 99 99 99
0.0278214614752308 0.0158317577879837 -0.0199690255588564 0.435584 0.2119866 -0.8748304 149 149 149
0.038128117135162 -0.0203437371242536 -0.00648978689330953 0.7390893 -0.08519023 -0.6681988 145 145 145
-0.0329472807407991 0.034509426765531 0.0374787993351405 0.5746622 0.107129 0.8113487 79 79 79
0.0259610954070526 -0.0464515102800879 -0.0190571339566143 0.8800347 -0.1182541 -0.4599509 123 123 123
0.0339801688856105 -0.0366673449297742 0.0017731063013115 0.8004655 -0.2439949 0.5474683 48 48 48
-0.00224379054389567 0.0128022412083444 -0.0264494357589702 -0.01807557 0.671878 -0.7404412 186 186 186
-0.0241881720196471 -0.0227565528553292 -0.036047563915097 -0.4534221 0.2022315 -0.86805 166 166 166
0.0315759201953281 -0.0181894469331972 -0.0132178487782057 0.756005 -0.01822564 -0.654312 114 114 114
0.0156299129007209 -0.0549695366058994 -0.0233416710308137 0.4498477 -0.6299891 -0.6330488 76 76 76
0.0216946987799225 0.0386113088555271 -0.00665156275781786 0.1204748 0.7850972 -0.6075428 80 80 80
0.0378881602506795 -0.0351770645072577 -0.00339564992034425 0.9239403 -0.378924 -0.05244943 50 50 50
0.0225410865131965 -0.0253748279790929 0.0122240983362902 0.6928492 -0.05764593 0.7187747 41 41 41
0.0127735537583158 -0.0246104994498815 -0.0290502011562425 0.4809875 0.155296 -0.862864 111 111 111
-0.015438218829511 -0.0270725365390332 -0.038315087122942 0.03058403 -0.09126106 -0.9953572 111 111 111
0.00874491679979128 0.0518512169424185 0.00466267202590168 0.1273865 0.9762051 -0.1754889 66 66 66
-0.0139000699707723 0.0510969988518328 0.0180493256930853 -0.518653 0.7256106 -0.4522039 29 29 29
0.0361153306466999 0.0114634866718536 -0.0141288046406874 0.8220984 0.06133281 -0.5660322 140 140 140
0.0248788222919454 -0.0103994003074173 -0.0211126689814366 0.8225272 -0.08400015 -0.5624883 126 126 126
0.0333855320222831 -0.00556083902246851 -0.012795882244151 0.6315883 -0.1854152 -0.7528063 142 142 142
0.00355769071532119 0.0229755689935526 0.0199646190943641 0.6256719 0.1107684 0.772182 105 105 105
-0.00527800646223042 0.029329464986486 0.0282305188457061 0.5751967 0.2407729 0.7817782 70 70 70
-0.000419358427548033 -0.0162946128919348 -0.0360122229172981 0.1851272 0.1213073 -0.9751987 127 127 127
0.0180299552691521 0.0479105791440546 0.00474415594074901 0.5868539 0.6320623 0.506063 81 81 81
-0.0227537098730064 -0.0034915546968699 -0.0329700673344111 -0.4548301 0.3106243 -0.8346509 111 111 111
0.00229906273497082 -0.00918776390866327 -0.0339239850502454 0.2601902 0.2031201 -0.9439509 47 47 47
0.0369806742623595 0.0139440287721334 -0.00244806046148671 0.6261389 0.4140405 0.6606971 93 93 93
-0.0164413153917633 0.0406130388547497 0.00474759906829347 -0.4550564 0.7732273 -0.441637 63 63 63
0.000839073156417847 0.0127479272763704 -0.0262164039802521 0.1618082 0.6229525 -0.7653419 190 190 190
-0.000395586509030377 -0.00226038931075745 -0.034001008655116 0.1976795 0.2605 -0.9450199 157 157 157
-0.0156082000526765 0.0170233411800382 -0.0236098736615299 -0.2120007 0.600843 -0.7707421 99 99 99
-0.0151606338397987 0.00446650685871375 -0.0321904722848003 -0.1637751 0.5309685 -0.8314145 164 164 164
-0.0214335868123827 -0.0152465852226488 -0.0346932095682245 -0.4439868 0.1562726 -0.8823007 90 90 90
0.0161970247639913 0.0321428008513429 -0.0116659112829852 -0.2244802 0.5259842 -0.8203349 102 102 102
-0.00312174121197861 0.018266734087109 -0.0208525445083365 0.1242201 0.5984282 -0.7914879 133 133 133
-0.000529163987335934 -0.0448831913665653 -0.0363220586337451 0.3163818 -0.1850638 -0.9304053 63 63 63
0.0170405165191263 0.0217019263331933 0.012024033425777 0.4437177 0.2101158 0.8711865 75 75 75
0.0182885528571015 0.0273423133736823 0.0097686610479272 0.5020077 0.2810007 0.8179406 73 73 73
-0.035164097983281 0.0165347587053556 -0.000817938850768779 -0.6673057 0.5342247 -0.518948 50 50 50
-0.0196457418448972 0.0364037435117072 0.00107459766859611 -0.5551299 0.6937093 -0.4589099 62 62 62
0.0344736325566015 -0.0151607208064044 -0.0105218937342178 0.6563423 -0.06135352 -0.7519645 139 139 139
0.00831116197182258 0.0061597444295034 -0.0284065744372072 0.03660992 0.2885596 -0.9567618 115 115 115
0.00501015346517519 -0.0362268070903824 -0.033957283890668 0.4890955 -0.0488728 -0.8708599 82 82 82
0.000204112738275697 0.00751841095423667 0.0321951883331225 0.6652527 0.1196958 0.7369611 100 100 100
0.0171043746810966 0.0324184784725697 0.00844839577714548 0.6471269 0.2315115 0.7263808 57 57 57
-0.00698864242241104 0.00932362267706477 -0.0288671849035977 0.02785847 0.5617037 -0.8268693 141 141 141
-0.00455081227849741 -0.03413309265639 -0.0387219225776729 0.1587559 0.09806301 -0.9824359 108 108 108
0.0414489785486634 -0.00632584091973121 -0.00310881181945638 0.9924547 -0.05484746 -0.1096604 124 124 124
0.0271666855478996 -0.029624671496867 -0.0183605906961015 0.8685519 -0.1107078 -0.4830749 137 137 137
-0.0128320895752925 0.0222037068784136 0.0312128162677942 0.1851224 0.2963698 0.9369603 63 63 63
-0.0230626703444505 0.051141694126294 0.0303627638459983 -0.4883279 0.7231485 0.4884589 79 79 79
0.0072244117525746 0.00950676327771693 0.0227505786972151 0.6744398 0.4448697 0.5892553 96 96 96
-0.0168649853721976 0.0207374443698223 0.034010302700716 0.3905924 0.3043118 0.8688107 95 95 95
-0.0265198201714663 -0.023741913917772 -0.0352866568852713 -0.4844055 0.1580274 -0.8604526 110 110 110
0.00892324877510298 -0.0361437749232497 -0.0319282128167094 0.4185637 -0.04953166 -0.9068357 96 96 96
0.0334148918873622 0.000521997613804115 0.00336157662679701 0.7050725 0.1840315 0.6848395 60 60 60
0.00583081648914918 0.0430236994083163 -0.00352815389611646 -0.1355251 0.610158 -0.7806025 181 181 181
-0.00121928743339161 0.00176588203851635 -0.0323682701545041 0.209445 0.3909154 -0.8962801 119 119 119
0.0317967191896802 0.0110100412175431 -0.0180093417965039 0.5839278 0.01995381 -0.8115603 153 153 153
0.0338902724939216 0.0269482793597884 -0.000886466032907207 0.709245 -0.07586217 0.7008684 76 76 76
-0.00205955672419922 -0.0464252749336538 -0.0364552134503905 0.219033 -0.2479221 -0.9436944 68 68 68
-0.0120076002349569 -0.0210960771029233 -0.0381392912946294 0.07521361 0.06469112 -0.9950668 104 104 104
0.0323040468943359 -0.00912180340122493 -0.0133004376248347 0.6747741 -0.09779734 -0.7315159 137 137 137
0.0163688883483046 0.0112979224171679 -0.0261299003523307 0.02897187 0.4800643 -0.8767548 134 134 134
-0.01625682069312 -0.0198169171399523 -0.038288689163864 -0.08522151 0.2272861 -0.9700919 102 102 102
0.00414321445492982 0.0411851515292813 -0.00457435140508658 -0.05479297 0.530287 -0.8460458 127 127 127
-0.0136847455928866 0.0455418686792851 0.00931790423100715 -0.5390178 0.6984174 -0.4708216 60 60 60
-0.00459879347847503 0.0334175356710719 0.0261716267460883 0.6659266 0.2226324 0.7120228 76 76 76
0.014507022477031 0.0125773227187533 0.0153872137922329 0.4738264 0.178912 0.8622523 82 82 82
-0.0447047055775864 0.0331560319334204 0.0364061173206205 -0.7220416 0.6905816 0.04186849 134 134 134
-0.0275665333387507 -0.010326450535766 -0.0318541945060576 -0.4150454 0.1780077 -0.8922167 114 114 114
0.0345313492148969 0.0115689830876669 0.000209819743648088 0.6288557 0.22248 0.7450122 55 55 55
0.00352509624567299 -0.026576980286565 -0.0346360540937914 0.4825676 -0.03138748 -0.8752961 65 65 65
-0.0143260980574902 -0.0362446634298335 -0.0382193427779723 -0.2057496 -0.07504895 -0.9757227 109 109 109
0.0346946840062321 -0.0304381450985611 -0.00897581571668332 0.657708 -0.1591866 -0.7362607 146 146 146
-0.041328935556006 0.0270387278542187 0.0181319911973199 -0.7177181 0.3123239 -0.6223621 116 116 116
0.0275590702348412 0.0335126992805841 0.00161566533288626 0.4799935 0.2036849 0.8532987 68 68 68
0.0353511540105491 -0.00212655334277245 0.00221466443286417 0.6326662 0.2205295 0.7423613 44 44 44
-0.0221937519687687 0.00481152765489434 -0.0286735074392398 -0.5015331 0.4734567 -0.7240879 117 117 117
0.0215570526900697 -0.0282669964577013 -0.0249039669347825 0.7017731 0.1756869 -0.6903974 123 123 123
0.0180294362006688 -0.0174096065104563 0.0174856177569965 0.4934464 -0.09395579 0.8646867 74 74 74
-0.0114538870495369 0.0353911958482971 -0.00878947981831135 -0.244435 0.6497384 -0.7197857 140 140 140
-0.0424193879634416 0.0339257243053138 0.0317970677584139 -0.6872312 0.7167084 -0.1185005 157 157 157
0.0245359481612684 -0.0125666699475241 -0.0213322800494554 0.7849457 -0.0959102 -0.612096 127 127 127
0.0126668696870014 0.00825141195818491 0.0167039888163593 0.529418 0.3788457 0.7590735 87 87 87
-0.0420321286537488 0.0337796115185763 0.028082194457136 -0.7393304 0.6651685 -0.1046018 121 121 121
0.00951384305584702 0.0207599771624423 -0.0183048547170187 -0.1589952 0.6286673 -0.7612476 103 103 103
0.0387037459030406 -0.0570813391851338 -0.00374921965720673 0.9508705 -0.08692319 -0.2971358 93 93 93
0.0141493238998067 0.0432100873829194 -0.00436764272282192 0.1520475 0.4915971 -0.8574461 88 88 88
-0.019805695688484 0.019459941884252 -0.0192280719774572 -0.504282 0.5404896 -0.6734765 116 116 116
0.00277998251966194 0.0436631474127814 0.0183699057336574 0.6019424 0.2274253 0.7654692 65 65 65
-0.0125582733261527 0.0488937752340187 0.0250707722585689 0.1651348 0.2709522 0.9483224 55 55 55
-0.012162876829946 0.00458495744170684 -0.0318732261398414 0.01692049 0.5539051 -0.8324079 158 158 158
-0.00321655399756038 0.00214912487971142 0.0347007698681713 0.5527563 0.2092044 0.8066561 100 100 100
-0.0235389493382319 0.0314048067273447 -0.00125209823660047 -0.6326829 0.6506044 -0.4200312 30 30 30
-0.0171848100362229 -0.00982864452763266 -0.0373136839250551 -0.2553643 0.07791899 -0.9637 197 197 197
-0.0228256108996803 0.0435377719736372 0.0159957384127173 -0.4184583 0.7688164 -0.4835432 86 86 86
0.0325382274064907 -0.0484250278808774 0.00204842060751612 0.6430632 0.08732341 0.7608182 54 54 54
-0.0304294548481567 0.000424761131177176 -0.0250132616566485 -0.6459472 0.4869105 -0.5879374 130 130 130
0.0203800534900416 -0.0336573788480898 0.0147482662384137 0.5599654 -0.05431174 0.8267339 139 139 139
-0.036214722155222 0.0264512737070853 0.010805091673037 -0.7584291 0.3553296 -0.5463755 75 75 75
-0.0419037718689497 0.0135973414599603 0.00599597917112063 -0.6945745 0.5196904 -0.4974818 103 103 103
0.0214437981639763 -0.014106969717519 -0.0240278187769978 0.5980446 -0.08647969 -0.7967835 120 120 120
-0.00536257231517734 0.0358754553139166 0.0266242807218154 0.5326174 0.3008521 0.7910795 89 89 89
-0.0429046362070418 0.00846527338763914 0.00238795304132691 -0.7497839 0.4385682 -0.4954615 108 108 108
0.0141207228963212 -0.000830654800687669 -0.0284059915847232 0.2205918 0.04049657 -0.9745252 191 191 191
-0.0103490974328557 0.0447428631318622 0.0256784032712443 0.2145468 0.1484661 0.9653639 39 39 39
-0.0182131063984725 0.0408580149493437 0.0062517007496963 -0.4239939 0.7597602 -0.4929439 87 87 87
0.0103349317415486 0.0452806180207548 -0.00276468954249892 -0.1538465 0.5784467 -0.8010809 96 96 96
-0.00756297518087745 0.0047041109298811 -0.0320939029305829 0.08219262 0.5050069 -0.8591929 193 193 193
0.023759117621021 -0.0414146774363895 0.00871059470743796 0.6226851 -0.310425 0.7182615 58 58 58
0.0231395749072885 0.0220080581693888 -0.0201764553972924 0.1448741 0.371318 -0.9171338 202 202 202
-0.0165868899523782 0.0304802237657534 -0.0115192257675624 -0.3689113 0.6624699 -0.6519495 189 189 189
0.0236067444653578 -0.0227131249161532 0.0119789244296677 0.6608402 -0.135474 0.7381986 72 72 72
0.0343324035832686 -0.0307400409471329 -0.00926216515439721 0.6497954 -0.1635391 -0.7423078 132 132 132
0.027735315551277 0.0385411184905576 0.0010014961782657 0.6515657 0.4702779 0.5952318 76 76 76
0.038692536937202 -0.0548686299279377 -0.00426412805431964 0.9727979 -0.009714661 -0.2314516 92 92 92
0.0253466987006012 -0.0242662727849547 -0.0212934513085401 0.7052308 0.04833995 -0.7073279 138 138 138
0.0239381055929888 -0.0182081244659491 -0.0217896211981221 0.6556995 0.07397234 -0.7513896 172 172 172
0.0030366045255712 0.0408531739347819 0.0186504150498525 0.5638421 0.2284192 0.7936667 91 91 91
-0.0195136748201086 0.0398212496578052 0.0290064697728665 0.4450518 0.2304894 0.8653343 85 85 85
-0.0200520383462579 0.0398717163369011 0.0293284934320495 0.4500361 0.2266039 0.8637813 60 60 60
0.0348531602350741 0.0353837477863244 -0.0039319082750062 0.6472424 0.7349416 0.2023315 118 118 118
0.0302426406628311 -0.036916880706137 0.00566179640067155 0.6239917 -0.2740997 0.7317812 35 35 35
0.0147476201530705 -0.0222235433924568 -0.0279425312033212 0.5138955 0.1084838 -0.8509658 113 113 113
0.0369474658552131 -0.0501802954163216 -0.00542436401395296 0.8874345 0.251174 -0.3864862 165 165 165
0.0159443882605639 -0.00467245630868351 -0.0275158433745482 0.3605775 -0.1193189 -0.9250659 173 173 173
-0.00989682351714505 0.0277967971970257 0.0297340797088572 -0.008635212 0.2854696 0.9583489 72 72 72
0.0295449314140432 -0.0279195348123458 -0.0156489406636905 0.8034651 -0.1813883 -0.5670468 126 126 126
-0.0218328850257032 0.0251192995336774 0.0339424733156301 0.3628111 0.4129936 0.8353469 79 79 79
-0.039503693389825 0.0125267270765729 0.00148316968135051 -0.7249 0.4827 -0.4914476 66 66 66
0.0381273398557394 0.0046264594489297 -0.0108617703967784 0.8279085 0.006348821 -0.5608273 167 167 167
0.0171135445553618 0.0289303877127431 -0.0139794746786104 -0.2197191 0.5477337 -0.8072864 146 146 146
-0.0146081452222711 -0.0206261558221601 -0.0380983138700945 0.00947273 0.1573345 -0.9875 80 80 80
0.0129622695884115 -0.0330674554271237 -0.0306858310130759 0.2131998 -0.05535902 -0.975439 55 55 55
0.0195902782513211 0.0403287321036518 0.0061496295234296 0.5925348 0.06016274 0.8032951 60 60 60
-0.0192928721375787 0.0458030120681497 0.0158266694923504 -0.463278 0.7487164 -0.4741279 70 70 70
0.0362582538995384 -0.0495517637059825 -0.00575544350115567 0.9006934 0.2389274 -0.3628569 134 134 134
0.0413287098579822 -0.0165423231966573 -0.00442211333039175 0.8865507 -0.09611542 -0.452537 169 169 169
-0.0227508608623013 -0.00768935393455605 -0.0337942391711494 -0.4361937 0.1493428 -0.8873735 106 106 106
-0.00353275305390754 0.0452592752872303 -0.00248377028031393 0.004427063 0.6408035 -0.7676921 170 170 170
-0.0120421948159914 0.0395994235075072 0.0267279477705331 0.117943 0.2608297 0.9581531 64 64 64
0.028086649294246 -0.02556497711354 0.00828965957380284 0.472508 -0.05080307 0.8798609 53 53 53
0.0234937866111915 -0.0331049524501392 -0.0228047905003456 0.8339201 0.05264302 -0.5493688 88 88 88
0.014601209946171 -0.0405308017995154 -0.0289827761173656 0.254756 -0.1948688 -0.9471671 97 97 97
0.0265048237728172 -0.0382800855133896 -0.0175646397172621 0.890506 0.02768308 -0.4541286 159 159 159
0.000368028141589871 0.0288115058458625 0.0222742593594819 0.6905606 0.1225745 0.7128124 99 99 99
-0.0102444148478553 0.0090435657803325 -0.029224429856106 0.05110827 0.515547 -0.8553358 200 200 200
-0.0359470942674802 0.00343870211563091 -0.0134901170749325 -0.7639626 0.4659367 -0.4463902 35 35 35
0.0189696799201906 -0.033557477417983 -0.0296566885858373 0.5160989 0.04669469 -0.8552552 157 157 157
0.0384318911202737 0.0276248042454179 -0.00545663193377888 0.9050923 -0.04976537 0.4222929 90 90 90
0.00427830270182206 0.0143393933026954 0.022510566973894 0.6804808 0.3167199 0.6607831 84 84 84
-0.0147124675393351 0.00747439151847185 0.036724835859249 0.2592088 0.3008033 0.9177844 66 66 66
0.0350896321827134 0.0175537569312592 -0.0141930779508206 0.7585834 0.2449416 -0.6037837 156 156 156
0.0195674753009882 0.0414362589425863 -0.00359527247876862 0.2422513 0.6337414 -0.7346333 66 66 66
0.025469798429365 0.0160700693619358 0.00649101230611646 0.5471843 0.05104794 0.835454 81 81 81
0.000530910942253549 0.0222415024754379 0.0234144324322256 0.7363365 0.1296962 0.6640689 110 110 110
-0.0051466149029622 0.0281438406134664 -0.0145071841588371 -0.01541383 0.5938277 -0.8044446 163 163 163
-0.000362969802066626 -0.000817323562031347 -0.0334278643728279 0.2091064 0.3029417 -0.9297854 109 109 109
0.0211351765251879 -0.0358527358086012 0.0134578999816566 0.5908183 -0.1350308 0.7954247 71 71 71
0.0188120686810147 -0.0248564657199863 -0.0263311412174016 0.5405599 0.2497211 -0.8033893 127 127 127
0.0334074562845372 -0.0566774563935158 -0.0097645345751956 0.6378784 -0.1000924 -0.7636051 106 106 106
0.0213889973128669 -0.0276161802871727 0.0137413480198128 0.6824293 0.03977235 0.7298687 59 59 59
0.0107060983131917 0.0362927464562958 0.0128733033346603 0.5742897 0.0490406 0.8171819 52 52 52
-0.0251697696336008 0.0271650070584848 0.0347688611532312 0.4864972 0.3050184 0.8187089 86 86 86
-0.0305952666751392 0.0107382050476146 -0.0147387443755552 -0.6706359 0.5879118 -0.4523352 52 52 52
-0.00563883956204903 0.0341092580228701 0.0273301641434955 0.5441642 0.2629766 0.7966986 88 88 88
0.0352375101124665 0.0310168168716745 -0.0109491774737956 0.6458637 0.4436777 -0.6212972 137 137 137
0.0226298101618916 -0.0489116054051851 -0.0231599463030399 0.7359707 -0.3175533 -0.5979189 98 98 98
0.00777342140541304 -0.01826391050936 0.0226297871274223 0.5924028 -0.1661767 0.7883173 105 105 105
-0.0205909980194616 0.0453516987251734 0.017071858802161 -0.4469645 0.7476843 -0.4911119 90 90 90
0.0191018261497851 0.00127615757881638 -0.0266786655919045 0.4190024 -0.02631103 -0.9076039 63 63 63
0.00233316959434404 -0.00908603758186277 0.0305420686503307 0.7706658 -0.08547416 0.6314811 112 112 112
-0.042670171995391 0.0144561637708365 0.00800866085730936 -0.6726084 0.5580184 -0.4860179 97 97 97
0.00911075760574276 0.000458915930427684 -0.0282610160248748 0.1337974 0.171504 -0.9760557 54 54 54
0.00461738492354424 0.0186658102458396 -0.0202032671398815 0.02675723 0.6382474 -0.7693662 188 188 188
0.0348633298970911 -0.0493511887167014 1.83237505961831E-05 0.8206778 0.2777108 0.4993644 88 88 88
0.0121697813533985 0.0153298359628961 -0.0227177804072522 -0.07180128 0.5492294 -0.8325813 168 168 168
-0.0312247290081848 -0.00631148821776406 -0.0289003908703644 -0.5749525 0.3062004 -0.7587298 156 156 156
-0.0227215182438871 -0.00500575662526326 -0.0332343213310484 -0.449874 0.2683871 -0.8518109 149 149 149
-0.00826733668933644 -0.0452638782240138 -0.0376147602227636 -0.09549236 -0.2716481 -0.9576474 110 110 110
0.0309862797917857 -0.0429045836473491 0.00372519743051491 0.6140737 -0.2038794 0.7624609 55 55 55
0.0277809990218554 -0.0274302140278275 -0.0174856402576041 0.8382109 -0.1207929 -0.5318004 132 132 132
0.000407271137071952 -0.0130352619699097 -0.0355196449333431 0.2146985 0.1603285 -0.963431 114 114 114
-0.0434384316136494 0.0344711129251482 0.0379289541235028 -0.7684462 0.5877351 0.2530967 102 102 102
-0.0173335484769597 0.0443910613426447 0.0120137127512329 -0.488446 0.7528566 -0.4411661 67 67 67
-0.0105466868531727 0.0453162600665422 0.00480695572550541 -0.6322231 0.6740255 -0.3820778 58 58 58
-0.0339251705091463 0.0445485857488802 0.0331204931851777 -0.5610247 0.7989488 0.2166379 98 98 98
0.0268544704814726 0.0284183356336428 -0.0166640273937274 0.150885 0.5542149 -0.8185838 148 148 148
-0.0039454292959995 -0.0217445095756374 -0.0372291739530755 0.1286063 0.0687381 -0.9893106 97 97 97
0.0234597188225503 0.0234222695551992 -0.0197663873133636 0.1674721 0.4044033 -0.8991168 214 214 214
0.0024854648165733 0.0555736767271354 0.00895920122516505 0.4842643 0.8511086 -0.2027369 124 124 124
-0.0350400583235531 0.00920201008645394 -0.0093395866280582 -0.7093868 0.5385021 -0.4547372 48 48 48
0.0264039349358409 0.00946737981655832 0.008082325335447 0.5735585 0.201421 0.7940152 84 84 84
0.0353334396540386 0.0160419908880829 -0.0146703801149212 0.7606786 0.2179877 -0.6114322 139 139 139
-0.0067444224559261 0.0302385182250621 0.029853056669925 0.3273818 0.2727664 0.9046655 62 62 62
0.00328984038117675 -0.0139249615937027 -0.0348986457932594 0.3251941 0.1384239 -0.9354612 87 87 87
-0.0261665586677435 -0.0105926720536107 -0.0328845206059989 -0.4159774 0.145521 -0.8976561 162 162 162
0.0107268828386862 0.0358162708805093 -0.00841851558887549 -0.05335199 0.546822 -0.8355473 84 84 84
0.000145458241175511 -0.0151104581056026 -0.035899511690259 0.2070079 0.1283677 -0.9698812 137 137 137
0.0315881621025471 0.0219731651488848 -0.0157732810917164 0.6679356 0.1750345 -0.7233429 111 111 111
-0.0200064245310378 0.0238437828830731 0.0333226519311675 0.3197698 0.4086457 0.8548427 106 106 106
-0.00246450293169742 0.0479241477797375 0.0214633326368721 0.5592521 0.1882959 0.80733 81 81 81
-0.0178361875093622 0.0402194237374222 0.00476219110333484 -0.4260847 0.7713591 -0.4727123 99 99 99
0.0195459876520041 0.0116868022563745 -0.026282413633426 0.2373743 0.4172425 -0.8772469 148 148 148
-0.00808687791849971 0.00282103526501731 0.0370090646498329 0.2183353 0.2174983 0.9513276 114 114 114
0.0312253841673438 0.0041246449414164 -0.018309016145008 0.5783303 -0.1457122 -0.8026842 168 168 168
0.00558265590510887 0.0401192367285657 -0.00540975345666922 -0.1180488 0.5190182 -0.8465722 115 115 115
-0.0381331280466219 -0.00949518512255143 -0.0220356352370215 -0.8181351 0.2766814 -0.5040857 44 44 44
0.0297585968159928 0.00726618289854042 0.00490542748933706 0.7044665 0.2243638 0.6733408 65 65 65
0.0177337937320394 -0.0115381664899707 -0.025932430540339 0.3955534 -0.05031399 -0.9170638 162 162 162
-0.00718379656123513 -0.00270588743837785 -0.0348030620830588 0.2095376 0.2482681 -0.9457573 185 185 185
-0.0391702066734561 -0.00965296505661184 -0.0207394669954933 -0.8288854 0.2916321 -0.4773884 51 51 51
0.00316366248317212 0.00164964425052316 0.028988187255279 0.6592081 0.1753777 0.7312232 130 130 130
-0.0113802224439259 -0.0170919531829435 -0.0376581704015563 0.0512733 0.141271 -0.9886423 100 100 100
-0.0115992819594553 0.0497534227802922 0.0138162602651714 -0.5667439 0.6950667 -0.4423615 66 66 66
0.0253244755058812 -0.0220339728844082 0.0107106230727349 0.5773121 -0.1278194 0.806457 8 8 8
-0.00812280136846111 0.0350913234571816 0.0287461987204095 0.2022788 0.3077257 0.9297248 67 67 67
-0.0189889808419568 0.0378131116652674 0.0299086468387882 0.3843786 0.1986545 0.9015484 109 109 109
0.0253562065678823 0.039074959321547 -0.0053954139553225 0.209842 0.8202677 -0.5320971 88 88 88
-0.00385880433624486 0.0128553912867599 0.0329440599915185 0.5991367 0.3159164 0.7356848 95 95 95
0.0294574451965759 -0.00630162054939531 -0.0159944332269746 0.6830648 -0.136016 -0.7175807 140 140 140
-0.0230367639572893 0.0349726874170411 0.00378920042521957 -0.5101068 0.635945 -0.5791071 90 90 90
0.0250916608926941 0.0343511667298486 -0.0111758709706751 0.09111115 0.7069147 -0.7014061 94 94 94
0.0104211451516272 0.0179278850477417 0.0158536822182394 0.5502328 0.1769603 0.8160447 82 82 82
-0.0200369863865468 -0.00906575953205513 -0.0354001327387405 -0.4648735 0.1049116 -0.8791395 136 136 136
0.0367957385067217 0.0173362168122174 -0.0115151018343898 0.8694668 0.2121449 -0.4461189 98 98 98
-0.0309167860834823 0.0246282965806203 0.0389210478825972 0.477447 0.250516 0.8421913 96 96 96
