ply
format ascii 1.0
comment File exported by Rhinoceros Version 7.0
element vertex 472
property float x
property float y
property float z
property float nx
property float ny
property float nz
property uchar red
property uchar green
property uchar blue
end_header
0.0131113713772839 -0.0148322733248712 -0.0199135236367667 0.6363802 -0.6553293 -0.4068953 42 42 42
0.038930925672068 0.0136784650647722 -0.0106290797447296 0.009517231 0.5069043 -0.8619498 117 117 117
0.0549279401598683 0.0193981200700845 -0.00603534561021798 0.5227368 -0.07176785 -0.8494678 60 60 60
-0.0583274128633775 0.00278674491533704 -0.00921758020723193 -0.9141712 -0.2976263 -0.2751537 56 56 56
-0.0346963400303184 0.00523044212759383 -0.0160703944033974 0.001770613 0.5159627 -0.8566092 161 161 161
0.0492137582688339 0.0419171710146796 0.00949444249793788 -0.01482348 0.9827167 0.1845215 48 48 48
0.0517886953446749 0.00162763936560018 0.00734758062019361 0.6128451 -0.6564444 -0.4398881 40 40 40
0.0566033393897198 0.0125359702247888 0.00225866878930017 0.7930518 -0.4467551 -0.4141 45 45 45
0.0274355144733502 -0.00704028110952304 -0.014620001194669 0.5325364 -0.6250387 -0.5707291 58 58 58
-0.00969398036171132 0.00136993359649351 -0.0181623416232174 0.009044889 0.5169965 -0.8559397 158 158 158
0.0613107771489321 0.0209655142953978 0.00225789241443911 0.7477484 -0.4931097 -0.4446517 48 48 48
0.0347445522642991 -0.00394780029978514 -0.00963354991512774 0.5055152 -0.6910434 -0.5166365 59 59 59
0.0325438297516394 0.0350122392845807 0.0191903379666088 -0.1740679 0.9673607 0.1841565 56 56 56
0.0356627377321526 0.0142781358277998 -0.0102484514895015 0.005860106 0.5123544 -0.8587542 108 108 108
0.0557689187601396 0.0385821060339478 0.0224896118634466 0.004130921 0.9813479 0.1921956 69 69 69
-0.0563830875677462 -0.00124376880358124 -0.0112472257024215 -0.9269665 -0.2738671 -0.2563785 58 58 58
0.029331688361053 -0.0107881867910468 -0.00562431238506486 0.5855495 -0.6766373 -0.4464233 39 39 39
0.0452070553734494 -0.00195559573018833 0.00542239469254316 0.6224228 -0.6992365 -0.3516506 47 47 47
0.027110360123701 0.0297761069373587 -0.00115659907411467 0.01783386 0.5198616 -0.8540643 128 128 128
0.0550212270674142 0.0383552831429844 0.00431651198253372 0.008753557 0.5052601 -0.8629227 119 119 119
0.0665390392417664 0.018471446995057 0.0118210576325057 0.7090304 -0.4806618 -0.5159847 78 78 78
0.021485149675458 0.0384556476911097 0.00430738096466557 -0.1474185 0.8600903 -0.4883775 78 78 78
-0.00336188708183993 0.00210226512505385 -0.0175650554219264 -0.005009321 0.5126575 -0.8585786 123 123 123
-0.0339360915482083 -0.0604749543593236 -0.0323833094471495 0.6403036 -0.698186 -0.3202305 55 55 55
0.00167366253563861 0.00752331317206034 -0.0144069091915925 0.007795752 0.5086538 -0.8609359 165 165 165
0.0756866336325697 0.0302865953782875 0.0129565720411697 0.6359822 -0.5811358 -0.5077479 49 49 49
-0.0565059588853769 0.0193816173357099 -0.0035374786598846 -0.05707169 0.9946944 0.08559112 51 51 51
0.00896779253901592 0.00326456334511882 -0.0171582747514775 0.007116992 0.5201308 -0.854057 118 118 118
0.0233042713557134 0.0277553506375227 -0.00213347185540488 -0.0192496 0.5188596 -0.8546427 145 145 145
0.00478665729103911 -0.0217689543765548 -0.0221584052415043 0.6296844 -0.657637 -0.4135348 39 39 39
-0.0427341086391104 0.00127151334079623 -0.0181442210938326 0.0002196652 0.5148695 -0.8572685 82 82 82
0.0485853596451795 0.0028928697796623 0.00140908179229451 0.6814141 -0.6211691 -0.3870706 39 39 39
0.00305415727904101 0.0157609279503045 -0.00940330254638941 0.002826796 0.5126411 -0.8585984 118 118 118
0.0393261745567899 0.0231805036767981 -0.00472603009717962 -0.009290516 0.5150509 -0.8571092 117 117 117
-0.0418489470827126 0.0155562072556396 0.0109681834100444 -0.335427 0.9159611 0.2202362 66 66 66
0.00889241787280026 0.00454153948674174 -0.0161814354875446 0.01265535 0.5251976 -0.8508862 111 111 111
0.0332262664533003 0.0192039604891511 -0.00715051726641611 -0.004681506 0.5155224 -0.8568633 112 112 112
-0.0313907393592459 -0.0291310835205872 -0.0343115674107114 -0.08661549 0.1159952 -0.989466 89 89 89
-0.0515973055148566 -0.0298928991078017 -0.0145479262540431 -0.960952 -0.2200483 -0.1677794 39 39 39
0.0546894939603528 0.0251233649474109 -0.00362718454268715 0.04791959 0.4762839 -0.8779848 110 110 110
0.0480112363019991 0.00605475571290148 -0.007688980908057 0.7662886 -0.4493827 -0.4591917 60 60 60
0.0830618695670373 0.0321778297545939 0.0187194978076219 0.8336511 0.1387051 -0.5345902 60 60 60
0.0215929566274951 -0.0213392756712211 -0.00289020502066403 0.6069977 -0.5346651 -0.5879516 71 71 71
0.0605510908210185 0.00841484174809859 0.013874144852075 0.7109666 -0.5250259 -0.46784 62 62 62
-0.0136284561932416 -0.0148931587594124 -0.0275881319280754 0.01481319 0.51647 -0.8561772 193 193 193
0.0513527734602 0.014166619894053 -0.00654494133802994 0.7006782 -0.209666 -0.6819752 67 67 67
0.000702582670758289 0.0152297383345058 -0.00959707989790967 0.00724161 0.5017539 -0.8649801 102 102 102
0.0251177593277587 0.0307195619875859 0.0280129855222188 -0.1909454 0.8862517 0.4220162 32 32 32
0.0471551137747679 0.00367244435392566 -0.00525019779609467 0.7584083 -0.5796183 -0.2980931 55 55 55
-0.0385768883035964 -0.0355832899777794 -0.034245649888414 -0.1328107 0.1087093 -0.9851617 66 66 66
0.0670399535519741 0.0381922724947424 0.0110740512934125 0.1738023 0.9727623 0.1533824 67 67 67
0.0737541356491875 0.0370655224585584 0.015662394355428 0.1203486 0.9768161 0.1770495 72 72 72
-0.0165928275167637 0.0151385515779531 -0.00990236217702187 0.005718566 0.525254 -0.8509263 116 116 116
-0.00265289958860082 0.0284269636941069 0.0219977648507846 -0.2890564 0.9280179 0.2350089 68 68 68
-0.0108728590508838 -0.017256018353151 -0.0291492651067958 0.009189061 0.5290219 -0.8485584 133 133 133
0.00405231257046434 0.00347191245299616 -0.0167588177659813 -0.003920473 0.5081007 -0.8612888 179 179 179
0.00658590874352338 0.0137966383435281 -0.0106008858846061 -0.002737837 0.5203431 -0.8539529 125 125 125
0.0623130321905245 0.0324562545598212 0.000733183212345084 0.009958928 0.5022442 -0.8646685 78 78 78
0.0596496259044041 0.0137348199794546 0.00653972544302242 0.7546732 -0.3890584 -0.528301 61 61 61
0.01911355160395 0.0355645255089369 0.00250726029772888 -0.0369382 0.5725709 -0.8190227 105 105 105
-0.0295115869117932 0.0178890309150975 -0.00813271696682313 0.0113489 0.5173042 -0.8557264 124 124 124
0.0534336007788832 0.0205821281669617 -0.00625283899352932 0.277723 0.2239152 -0.9342012 107 107 107
0.045200765048766 0.0333800763784328 0.0302667878117485 -0.1889516 0.8583348 0.4770312 35 35 35
-0.0468769256151584 -0.0105323107966145 -0.0255265364520326 -0.1849155 0.4307891 -0.8833047 96 96 96
-0.0288730954353467 -0.0536723932444242 -0.0348495878770597 0.6662869 -0.5148355 -0.5394498 62 62 62
-0.035449316716536 -0.0314433207336496 -0.0344142316929282 -0.08080716 0.1109833 -0.9905316 75 75 75
0.0278202381385975 0.0376013846537721 0.010270530651949 -0.02165486 0.9358794 0.3516543 48 48 48
0.0156191200312232 -0.0134357358295113 -0.0188712173660711 0.596073 -0.6913006 -0.408412 41 41 41
-0.0476483107039871 0.0183608699693077 0.000886033308466178 -0.1291837 0.8246432 0.5507042 38 38 38
0.0319715019220452 0.01782477985237 -0.00783741874124341 -4.826069E-05 0.5234006 -0.8520867 164 164 164
0.0814829245872604 0.0235068455001964 0.0235029477313643 0.705659 -0.4492685 -0.5479081 78 78 78
-0.0118600124155717 -0.0184449256833615 -0.0300241298436238 0.008631804 0.5225028 -0.8525938 112 112 112
0.00815205631850402 0.0304688300720343 0.0232580173196101 -0.2172759 0.9066265 0.36169 50 50 50
-0.0552923190688106 -0.0153192855180951 -0.0105824008090144 -0.9284892 -0.07243903 -0.3642258 36 36 36
0.00115714107472709 0.0193718981904089 -0.00713904625953785 0.01106902 0.5156581 -0.856723 129 129 129
-0.00261866602060357 -0.000618029446880164 -0.0190156906147806 0.001826633 0.512114 -0.8589156 132 132 132
-0.0148731419807557 0.0020033572283894 -0.0176162431933412 -0.01276445 0.5221541 -0.8527557 139 139 139
0.0101648692918106 0.034744562125869 0.00548542227571527 -0.04799151 0.9811812 0.1870301 50 50 50
-0.0243335544412071 -0.013910345927182 -0.0271555670449863 0.0181935 0.5126532 -0.858403 164 164 164
-0.00394748492818042 0.0300926027612382 0.0100722695679088 -0.2306973 0.882596 0.4096377 68 68 68
-0.0437511306927316 -0.0153212714127763 -0.0281607431486401 -0.09755736 0.4422961 -0.8915473 101 101 101
-0.0108364534707177 -0.0417962618961559 -0.0175859484175519 0.5820442 -0.6945949 -0.4228032 59 59 59
0.0414752768440305 0.016272322451843 -0.0090019798783165 0.004248626 0.5066034 -0.8621687 117 117 117
0.0549288918816062 0.00323568826935638 0.00940425467611131 0.7191314 -0.5809813 -0.3811964 41 41 41
-0.047193922967689 0.0147992134694591 0.00693962627650438 -0.187594 0.9359074 0.2981374 54 54 54
-0.0418349970482295 -0.0618364958730856 -0.0343557696952029 -0.396453 -0.3245402 -0.8587774 96 96 96
-0.0416398292535693 -0.0376360063974536 -0.033773620548447 -0.3550339 0.1278145 -0.9260747 68 68 68
0.0584441037159764 0.0189657606417192 -0.00104161434591651 0.7867422 -0.4374637 -0.4355022 49 49 49
-0.0491057682382361 0.0114969332689122 -0.0117668937645271 0.009310354 0.5181335 -0.8552491 97 97 97
0.0414564608841306 0.0412164773673657 0.00610807680387662 -0.1143854 0.882146 -0.4568747 108 108 108
0.068238642999253 0.0185239176793807 0.0135995882075854 0.7133653 -0.4671977 -0.5223373 64 64 64
0.050536842879537 0.00864413940955144 -0.0047645681108742 0.8379816 -0.3622031 -0.4081613 37 37 37
0.0363340582835612 0.0182325251863383 -0.00781638468249143 -0.001511576 0.518224 -0.8552436 125 125 125
-0.00175748339190429 0.0283692610772884 0.020327459370327 -0.2609265 0.9512283 0.1645666 86 86 86
0.0424714724137192 0.0380627231565166 0.0160821976429936 -0.2463948 0.9415562 0.2296987 67 67 67
-0.0208524010758726 -0.0436186955467174 -0.0350153214899926 0.7127905 -0.4206718 -0.5612173 62 62 62
-0.00597167853897318 -0.0313838017636047 -0.0245196725030562 0.5934597 -0.5957252 -0.5412181 47 47 47
-0.0592331530802928 -0.00812311209590388 -0.00107958413118067 -0.8929892 -0.102892 -0.4381592 71 71 71
0.0550288256335092 0.0222318569048167 -0.00539172097021209 0.2421168 0.2784899 -0.9294207 124 124 124
0.00758987632230124 0.0284723713748535 0.0256865372758693 -0.2261237 0.8856035 0.4056779 52 52 52
0.00778510006634248 0.00751735929972075 -0.0142532070349321 0.008006069 0.5092459 -0.8605838 126 126 126
0.050163242259595 0.00981831327197924 -0.0060016538751467 0.8371084 -0.306297 -0.4532457 55 55 55
0.074797925443046 0.0279778803890195 0.0140845555709112 0.6159685 -0.4925763 -0.6147776 59 59 59
0.0346622522921782 -0.0107848041767155 0.000409378501154772 0.5483963 -0.697735 -0.4608985 54 54 54
-0.0192952599079312 0.00540153659637632 -0.0157025817134299 0.01773357 0.5095446 -0.8602615 168 168 168
-0.00647843586179242 0.0117431223915961 -0.0116825185216473 -0.01199375 0.519529 -0.8543686 128 128 128
0.0371313509594353 0.00645294947135178 -0.0148497506821714 0.07828649 0.3937902 -0.9158605 106 106 106
-0.0389795098089909 0.0156761892160581 0.0130693518184418 -0.3610424 0.9133817 0.1881018 63 63 63
-0.0109891372451267 0.0242551367241904 -0.00487484611188857 -0.003358718 0.5229688 -0.8523452 138 138 138
0.0331737990190146 0.0137108587588025 -0.0104370279285343 0.002095244 0.5176784 -0.8555727 102 102 102
0.024682314245104 0.00581156860456711 -0.0151465142341984 0.007520913 0.5082304 -0.8611884 182 182 182
0.0808852612498425 0.0255305668486178 0.0219366250637024 0.7167143 -0.4445812 -0.5372785 67 67 67
0.0697609359980249 0.0379893642027592 0.00419887371252572 0.07796164 0.7377114 -0.6705996 119 119 119
0.06533546405156 0.0300786813819932 -0.000540371282654578 0.2229345 0.2194233 -0.9498177 109 109 109
-0.0283685904653068 0.0191890493912804 0.0187398285051406 -0.3572772 0.8817157 0.308108 59 59 59
0.0670876155671301 0.0244233338217291 0.00725726663247853 0.6660677 -0.5566312 -0.4965033 55 55 55
0.0577068080409773 0.0391477205210516 0.0168022993232755 0.03603537 0.9797581 0.1969152 105 105 105
0.0315485244377123 0.00321533384786321 -0.0166697215558144 0.1395174 0.2409739 -0.9604512 142 142 142
-0.0451640003715541 0.0148677510606011 0.00875581210222301 -0.2536767 0.9370773 0.2398631 59 59 59
0.0120039689512845 -0.0239134785263965 -0.00941786751981119 0.5492896 -0.5608803 -0.6194306 63 63 63
-0.0261953434708002 0.0244584202637547 -0.00413949890319162 -0.02341334 0.684325 -0.7288012 117 117 117
-0.0536304266324907 -0.0135807752930449 -0.0131071630596966 -0.924288 -0.04175572 -0.3794051 76 76 76
-0.045184810349804 0.00226342468158169 -0.0175623965185678 -0.006719139 0.5148203 -0.8572718 121 121 121
-0.047835179158696 -0.042576809352293 -0.0215626975938105 -0.9565644 -0.1288816 -0.2614844 79 79 79
-0.00150818329342739 -0.0234305104818641 -0.0300389138898141 0.6748487 -0.3722133 -0.6372099 58 58 58
0.0266317790281159 -0.0166988386964965 -0.000829768018848126 0.6041062 -0.5824057 -0.5439295 66 66 66
0.0353170100850493 -0.00789657189178683 -0.00357260524260525 0.444418 -0.758836 -0.4760888 62 62 62
-0.0239913545837527 0.00220306452024677 -0.0174908417600239 0.008797181 0.5113731 -0.8593138 116 116 116
0.0335470528285455 0.0159008447843983 -0.00935364760400367 -0.004655394 0.5102811 -0.8599951 108 108 108
-0.0138129097402757 0.0300939896701627 0.00099734256228326 -0.3469696 0.9272971 -0.1404711 53 53 53
0.0148829968122586 0.0161405283455723 -0.00895320017093956 0.008635082 0.5143936 -0.8575107 146 146 146
0.0630809427501648 0.0151841457708267 0.00956413901111255 0.7149193 -0.4982695 -0.4905282 63 63 63
0.0297791027109571 0.0365060485638177 0.0137438617178055 -0.07877672 0.9149136 0.3958881 51 51 51
0.0188390319170808 0.0294350792225085 -0.000784348071903279 -0.005490235 0.5121397 -0.8588846 173 173 173
0.061322740802086 0.0237631210363319 -4.48915941011208E-05 0.6896906 -0.3816479 -0.6153631 71 71 71
-0.0376922038969116 -0.0638455880213326 -0.0338412175238743 0.3324129 -0.7584275 -0.5606152 68 68 68
0.0342008314036093 0.0291664419749039 -0.00116785229480051 0.001729083 0.5068243 -0.8620477 133 133 133
0.0219282832284078 0.0267537236715515 -0.00272496926039775 -0.01211461 0.5209584 -0.8534961 172 172 172
-0.00320744977919896 -0.0138268246806071 -0.0271091590989877 0.006047266 0.513538 -0.8580455 105 105 105
-0.0301876745234857 0.0203118238066097 0.00702333724118223 -0.4168718 0.8828868 0.2161685 75 75 75
0.0587786740867968 0.0310534949012383 7.0984904386312E-05 0.02299835 0.5084215 -0.8608012 122 122 122
-0.0469905802240431 -0.045500423910647 -0.0230096975619366 -0.9586363 -0.1235352 -0.2564282 53 53 53
-0.00117989443593869 -0.0337604684429514 -0.0174034305426161 0.6925957 -0.5537581 -0.4622372 51 51 51
0.00307100992456411 0.0347021673258828 0.00259845074222534 -0.2554425 0.9193779 -0.2991545 108 108 108
-0.0424690977952484 -0.00466332742942643 -0.0218159014282608 -0.007992999 0.5153509 -0.856942 104 104 104
-0.0562984880366093 0.000723043484318731 -0.0139519708724727 -0.8701882 -0.1984169 -0.4510024 51 51 51
-0.0145506915049349 -0.0251363817625551 -0.0339822809368085 0.01230347 0.4944081 -0.8691428 114 114 114
0.00727108032099588 -0.0152733798295087 -0.0274974616216744 0.4054923 -0.1149281 -0.9068448 68 68 68
0.0580549621737623 0.0337649924507178 0.00164512163344813 0.005209825 0.5170631 -0.8559315 119 119 119
0.0470004053550834 0.0290020591988173 -0.00087002145503165 0.01120941 0.5197228 -0.8542615 137 137 137
-0.0393636166667006 -0.0380623333723479 -0.034294794759539 -0.1867611 0.1498434 -0.9709105 67 67 67
0.0555525474462111 0.012276937110674 1.13019742622733E-05 0.7654175 -0.4900707 -0.4170932 35 35 35
0.066824418618523 0.037082530398275 0.0217968489561327 0.1703438 0.9650989 0.1989149 58 58 58
0.0282029809417352 0.0324454321709521 0.0264687943179065 -0.1581134 0.9189635 0.3612565 21 21 21
-0.00735172766448944 0.00364669426506092 -0.0161348565187443 0.007506175 0.5214417 -0.8532539 198 198 198
0.0328713801842944 -0.00498765087435016 -0.0103676221866326 0.5494866 -0.6755966 -0.4915625 55 55 55
-0.0277532043336119 -0.0133376861268134 -0.0268691278562393 0.001554447 0.4985701 -0.866848 169 169 169
0.0635190142444517 0.0261531881114158 1.03114178751362E-05 0.5287803 -0.3999654 -0.7486114 53 53 53
-0.0149977145473814 -0.038995724254867 -0.0308513065951495 0.7578088 -0.4875422 -0.4336224 75 75 75
-0.0425617243219309 0.0163830795943581 0.00659133867540976 -0.3065683 0.8983557 0.3145997 56 56 56
0.0463133131255535 0.0105467348127802 -0.0121016702217212 0.4861463 0.05876287 -0.8718995 89 89 89
0.0500482687569401 0.0145671300716669 -0.00961214884739955 0.6598563 0.101943 -0.7444443 68 68 68
0.0113142061373348 0.0363601955883627 0.00316017385784775 -0.123977 0.8899128 -0.4389589 91 91 91
0.0234823788452179 0.00263759507280092 -0.017170363712401 0.009872221 0.5058609 -0.8625585 103 103 103
0.0302148001634226 0.0251466357016766 -0.00364389877631574 0.01523233 0.5143089 -0.8574697 127 127 127
0.0444078564616968 0.0412601781254508 0.00963072629678133 -0.1187179 0.9738615 0.1936486 65 65 65
-0.0342411702666543 -0.0476287779688044 -0.0365857353880113 -0.2101978 0.06018258 -0.9758047 82 82 82
-0.0119625914816934 -0.0280487782086606 -0.0353782452389299 0.4038061 0.02783671 -0.914421 97 97 97
-0.0568413233642215 0.019444126087779 -0.0044577822887015 -0.07123369 0.9973099 0.01728343 41 41 41
-0.0388064744783669 -0.0205528650229353 -0.0313462566528621 -0.09385644 0.4566387 -0.8846875 129 129 129
0.0771332871319292 0.0353361135106455 0.00581781326054168 0.8288952 0.1638408 -0.5348728 58 58 58
-0.0305748854999925 0.00739410777069438 -0.01452033274492 0.003237379 0.5230924 -0.8522698 128 128 128
0.0371200337988862 0.019362325116374 -0.00704416360555346 -0.001826554 0.5174568 -0.8557074 158 158 158
0.05389161787416 0.0124281945104517 -0.00266179037169265 0.7111437 -0.4442896 -0.5448682 65 65 65
0.0686573940981323 0.0379432919912969 0.016843187328013 0.1414129 0.9792463 0.1451865 44 44 44
-0.0143173817478335 -0.0353565064834512 -0.0334662692763422 0.7031808 -0.4433588 -0.5558504 41 41 41
0.0522391893061078 0.0388430851053544 0.0218400054633614 -0.06603021 0.9787939 0.1939137 77 77 77
0.0630632690177912 0.025201991321374 0.000910778077247848 0.5637329 -0.486729 -0.6673081 64 64 64
-0.0211422871822537 0.0269077558566481 -0.00271806416675799 -0.1301618 0.8675789 -0.4799634 131 131 131
0.0138962885871852 0.0295206257382828 0.0282791153128943 -0.1629007 0.8904662 0.4248922 74 74 74
-0.0281913261782218 -0.00134464415533653 -0.0197492609964665 0.002315347 0.5105754 -0.8598299 118 118 118
-0.0221346567407501 -0.0245298309930998 -0.0336200701711807 -0.01724406 0.440261 -0.8977042 108 108 108
0.00280688198328516 -0.0206506588103789 -0.0267864015336031 0.6625068 -0.4909801 -0.565706 59 59 59
0.04237491031417 0.0321283344892046 0.000598687668236592 0.004239811 0.5223442 -0.8527243 136 136 136
-0.0213153792411074 0.0239889297638386 0.00942304032206479 -0.3857507 0.8957906 0.2208068 63 63 63
0.0110150021241728 0.025548925595727 -0.0033845023518729 0.01209098 0.5163902 -0.856268 180 180 180
0.0492701393526955 0.011179490971336 -0.00835937512235171 0.794005 -0.1998173 -0.5741333 49 49 49
0.0426586945055067 0.0281449230435818 -0.00168006881026314 0.01209543 0.522 -0.8528597 85 85 85
0.0542737662627082 0.0419150576904413 0.0100789011250978 -0.04816328 0.9891102 0.1390733 56 56 56
0.0538985438128896 0.0043629739175316 0.00562040220486096 0.6717405 -0.5458513 -0.5008104 65 65 65
-0.0311897885050816 0.0103697547578424 -0.0129057883759993 0.005906366 0.5177231 -0.8555279 124 124 124
0.0170693585240711 0.0357457874980339 0.00762819253848793 -0.2366948 0.9588404 0.1568457 66 66 66
0.0198514932585203 0.0303221949236995 -0.000523504937598757 -0.002646187 0.5184144 -0.8551254 134 134 134
-0.0510937866275083 -0.0316272186186465 -0.0139269799154347 -0.9620624 -0.2258414 -0.153074 54 54 54
0.0781950562757041 0.0251184278813655 0.0179984491024968 0.621775 -0.4604306 -0.633561 67 67 67
0.00189761818558809 -0.0245065479233103 -0.0226856670122052 0.7010617 -0.5928207 -0.3963284 45 45 45
0.00919824019391458 0.0251285804442786 -0.00374903319070205 -0.006792993 0.5131527 -0.8582704 180 180 180
0.041046848500887 -0.00511642184174554 0.00346963026882899 0.7127249 -0.6558024 -0.2488905 41 41 41
-0.0436995195754815 0.0147412330799185 -0.0100344599469704 0.001573982 0.5147874 -0.8573164 125 125 125
0.0116101741526733 0.0332666648487258 0.00964477477633999 -0.2656275 0.9109793 0.3155293 45 45 45
-0.00952813107664063 0.027733956573342 0.0121945863433554 -0.2006112 0.9384255 0.2812697 50 50 50
0.0372788934388453 -0.00897148204610898 0.00204379684499359 0.6435674 -0.7069506 -0.2933288 58 58 58
0.0714133605738363 0.0358425664000582 0.0244794630204797 0.2319516 0.9350609 0.2680666 60 60 60
-0.043423422619159 -0.0295032100284133 -0.0327796168668688 -0.5666854 -0.006666767 -0.8239073 73 73 73
-0.000573948549412062 -0.0203099924426903 -0.0308067563241513 0.4422141 0.03986767 -0.896023 89 89 89
0.0130118396806238 -0.00746885296968214 -0.0232340536245485 0.1636345 0.4027333 -0.9005718 126 126 126
0.0717435057546738 0.0341022614767491 0.00176130492365437 0.3019859 0.1528982 -0.9409711 103 103 103
0.00376056046588102 -0.00779260337215726 -0.0235798846958183 0.008520985 0.5143797 -0.8575202 163 163 163
-0.0593204086921739 0.0146302854430372 0.0058446920357216 -0.2084673 0.8102325 0.5477816 60 60 60
-0.057381114789409 0.00370730230936156 -0.0110650294658355 -0.8942121 -0.165031 -0.4161123 61 61 61
0.0319286187814649 0.0307214420038774 -0.000317444298695485 0.00991913 0.5119451 -0.8589609 109 109 109
0.052780837405292 0.00842858680547309 0.00165529458341931 0.6944674 -0.5902394 -0.4115003 48 48 48
-0.0428682210806346 0.01194951773733 -0.011807942773345 -0.004105132 0.5164971 -0.8562791 151 151 151
-0.00822561663052657 0.0244771085169565 -0.00417486664138142 -0.003594221 0.5215163 -0.8532338 103 103 103
-0.0420236341321347 -0.0203549552489041 -0.0307765151090535 -0.2041731 0.381777 -0.9014209 73 73 73
0.0620729821272028 0.0250459266219637 -0.000663370814971448 0.5277072 -0.3716166 -0.7638234 62 62 62
-0.034915020675315 -0.0248447150620595 -0.0332075435471774 -0.02358323 0.2825904 -0.9589507 86 86 86
0.0665006791359199 0.0192613125294391 0.0110021505087833 0.7058308 -0.4727998 -0.5275066 72 72 72
-0.00101678625074486 0.0296671143835999 0.0150713817648598 -0.2416602 0.9585783 0.150758 69 69 69
0.0792387255084077 0.0276041905647105 0.0173549825169416 0.6137234 -0.4697814 -0.6345463 54 54 54
-0.00654373960556276 0.0259333951574693 0.0222318877440331 -0.3944482 0.8883522 0.2350341 76 76 76
0.0188180650964407 0.0374312460486422 0.00521672689133781 -0.3002603 0.9308915 -0.2080501 69 69 69
-0.00516918443464398 0.0224429153413218 -0.00547333263486879 0.009741349 0.5114215 -0.8592748 122 122 122
-0.025056709537381 -0.00226591268344023 -0.0200604860010442 -0.002568574 0.5274343 -0.8495919 176 176 176
-0.0244902580815096 0.0263512801983953 -0.0011144635140273 -0.1772781 0.9711491 -0.1595048 62 62 62
-0.0360052140048208 0.0183443433936988 -0.00785241850968318 0.000439241 0.5186328 -0.854997 113 113 113
0.00790719280827901 0.0357973915422877 0.00282844767129811 -0.05975108 0.9373925 -0.343111 95 95 95
-0.0293728326057821 -0.0527827763791214 -0.0368985096261317 0.5401641 -0.3718954 -0.7549282 93 93 93
0.00134283971845717 0.00502977066701382 -0.0154894574358815 0.003961988 0.5111226 -0.8594987 158 158 158
-0.0142914504135305 0.0250535886747386 0.0185793619452898 -0.2825437 0.9056554 0.3161604 61 61 61
0.0196420733438916 -0.00675776531356564 -0.0214558285263466 0.5206746 -0.1856582 -0.8333241 83 83 83
0.0438917758779556 0.0144030699624441 -0.0100812863388736 -0.01241239 0.5050422 -0.8630054 101 101 101
-0.00952297552635395 -0.00199234904963752 -0.0200380824517598 0.01758426 0.5095201 -0.8602791 129 129 129
-0.0123211682731865 -0.00643949535620114 -0.0226513512807822 0.008804082 0.5098894 -0.8601949 148 148 148
-0.0437142323055526 -0.0174541118556085 -0.0289209527325337 -0.1845629 0.3943011 -0.9002573 65 65 65
0.0311185680620456 0.0356879114421492 0.00279875276775768 -0.000726218 0.531323 -0.847169 98 98 98
0.0186246657436788 -0.0175526445071975 -0.00917724345906709 0.5516995 -0.5905754 -0.5889384 64 64 64
0.0532153759101233 0.0151598166147934 -0.00504027423206818 0.6733222 -0.3451458 -0.6538437 67 67 67
-0.0434870852426443 -0.0547895401966331 -0.0352073980100743 -0.511878 -0.1227937 -0.8502368 118 118 118
-0.0189910886454605 0.0246281576947008 0.0161772523487518 -0.3462515 0.915456 0.2050614 66 66 66
-0.0113505713063287 -0.0201420061976146 -0.0311636533107815 0.01279072 0.5256222 -0.850622 119 119 119
-0.00412338942105839 0.0285982593634621 -0.00164509078629047 -0.01118586 0.5292119 -0.848416 109 109 109
0.0356315564078287 0.0233250719102484 -0.00476705970007127 -0.001514684 0.5156119 -0.8568209 112 112 112
-0.0226806865112268 0.00771838625602073 -0.0142543339034999 0.002557666 0.5126995 -0.8585643 115 115 115
-0.0618296508093126 0.0105196970541647 -0.00285700765703409 -0.9409545 -0.124816 -0.3146833 67 67 67
0.0405013181853153 0.0352181667094321 0.0023891501048561 0.01502659 0.5024179 -0.8644943 94 94 94
-0.0233094070542381 -0.0468936135284305 -0.0354653913887033 0.5877212 -0.5319202 -0.6096266 74 74 74
0.0217323968376135 0.0341207394619515 0.018672289013417 -0.1286457 0.9529621 0.2744331 55 55 55
-0.0496877943156222 0.0149229308956086 0.00564756686266535 -0.08194795 0.8958512 0.4367324 29 29 29
0.0596221424946899 0.0407978099576748 0.00589543835833831 0.08441821 0.6051508 -0.7916224 97 97 97
0.0684412391912139 0.0382009680636056 0.011783539015531 0.1425277 0.9792235 0.1442471 70 70 70
0.0150712100263748 0.0177165430191294 -0.00834354722335537 0.007401102 0.517652 -0.8555592 187 187 187
-0.0374450874294192 -0.061496428071209 -0.0356731818842726 0.1491701 -0.5123678 -0.8457113 108 108 108
0.0251496176252877 0.0316229429448575 1.3469875920491E-06 0.004787283 0.5330142 -0.8460928 136 136 136
0.0118270797200846 0.0112195711167719 -0.0120629207884795 0.009807735 0.5089684 -0.8607293 122 122 122
0.0386398171191829 0.0206068767941044 -0.00647774422441891 -0.006559137 0.5144181 -0.8575144 107 107 107
-0.0178062568169528 -0.0325062173337746 -0.0367041528103923 0.03523564 0.1055238 -0.9937924 72 72 72
0.0262902645181913 0.0232147927223215 -0.00473411261811615 0.01218158 0.5034535 -0.8639364 119 119 119
-0.0564510974643659 0.0127440796094725 0.0107152446531164 -0.1071023 0.962379 0.2497114 64 64 64
-0.0441138761426041 -0.0274749497272854 -0.0310549823992018 -0.6458412 0.03616614 -0.7626147 93 93 93
-0.0163379670563595 -0.0107212497664925 -0.0251801034337613 -0.001069378 0.5132472 -0.8582402 113 113 113
0.0115787647845846 0.0324805098686635 0.0200724916600236 -0.1940416 0.970809 0.1409885 65 65 65
-0.0594585560456271 -0.0149496114251016 0.000253655217718501 -0.9147072 -0.1144628 -0.3875679 50 50 50
-0.0449141461869793 -0.0533861046858556 -0.0330996389572878 -0.8409421 -0.1299962 -0.5252783 47 47 47
0.0602860136533971 0.0242614157614313 -0.00264037233812839 0.5742114 -0.06743007 -0.8159255 68 68 68
-0.0416207696664692 0.0220202091602487 -0.00537207699239636 -0.03834696 0.8508957 -0.5239332 89 89 89
0.0556402412888652 0.0282953983321411 -0.00157134125184485 0.005521581 0.5040527 -0.8636553 103 103 103
0.032996055775246 0.0206318326197744 -0.00636675565529718 -0.002607731 0.5134459 -0.858118 139 139 139
-0.000420483621704992 0.0159384425780239 -0.00923706839073965 0.01775522 0.509027 -0.8605674 92 92 92
-0.0203592709256477 0.0227499192695079 -0.00509216345345395 0.003713148 0.5103387 -0.8599654 111 111 111
0.0159382072732823 0.0373114779393396 0.00374878488353128 -0.1575201 0.9649082 -0.2100939 84 84 84
-0.0223063842890627 -0.0263681168506408 -0.0353175639198862 -0.05864953 0.3301148 -0.942117 89 89 89
0.0143652960488119 0.024551072446435 -0.00394189481061855 0.01296131 0.5155875 -0.8567389 97 97 97
0.0512039329386669 0.00729460010668481 -0.000698922847432309 0.7525344 -0.585312 -0.3018306 29 29 29
-0.00280597316099662 0.0330706460169182 0.00114565282463255 -0.1092526 0.8635632 -0.4922625 137 137 137
0.0650948803312259 0.0245884958129731 0.00391679335553544 0.64908 -0.6028304 -0.4639943 40 40 40
-0.0211549067615295 0.0237699074713659 0.0105404251396159 -0.3905192 0.8991014 0.1977662 72 72 72
0.0794202185715087 0.0329405655397671 0.0257266342983934 0.01785233 0.9856421 0.1679015 59 59 59
0.0455585820990865 0.0292512970388042 -0.00112041309275177 0.001993817 0.5272925 -0.8496815 107 107 107
-0.0111509837998365 -0.0144727886794688 -0.0275356048331264 -0.0005254667 0.5115036 -0.859281 150 150 150
0.0361682635272156 0.0359440765117484 0.0200471252081641 -0.2631086 0.9491633 0.1728092 70 70 70
-0.00202112511962227 0.00134331919054864 -0.0181243418518071 0.004795971 0.5100041 -0.8601586 124 124 124
-0.0561674987484868 -0.0197410108100601 -0.00480537459965955 -0.9131143 -0.2586977 -0.3151155 73 73 73
0.0428940875557293 0.0173288809987225 -0.00834777875196954 -1.328866E-05 0.5084802 -0.8610737 136 136 136
-0.0466078296350867 -0.0481492500885111 -0.0239160695002023 -0.9816423 -0.1136013 -0.1532096 55 55 55
-0.0503423609611078 -0.0331407738937125 -0.0178731684016396 -0.9616085 -0.2206962 -0.1631019 62 62 62
0.0562480410575912 0.00464199551328381 0.0111611253079962 0.7403552 -0.5700952 -0.3561819 40 40 40
0.0845707855315614 0.0325368122826052 0.0204030604771776 0.8502892 0.08401493 -0.519567 58 58 58
0.0597302563661017 0.038457882748658 0.0220238848227579 0.03478552 0.9826385 0.1822401 84 84 84
-0.0536333002964415 -0.0249315563734113 -0.00580943353331784 -0.9269923 -0.2994013 -0.2259296 26 26 26
0.00274713564479345 -0.0312340090019324 -0.0129437993618437 0.7681113 -0.3907161 -0.5072928 63 63 63
0.0328315276525575 -0.00853382592687335 -0.00419966948839054 0.461138 -0.7476285 -0.4779158 42 42 42
0.0801166645186351 0.0352930207485783 0.012114319611627 0.9151325 0.1106246 -0.3876787 75 75 75
0.0238375255237195 0.0390390628158653 0.00646921510917023 -0.1798236 0.9810032 -0.07277483 46 46 46
0.0491753079466184 0.0219349294558194 -0.00543609975163903 0.01240419 0.5078173 -0.8613755 105 105 105
0.0335961259391349 0.017886730477347 -0.00798824071546264 -0.007447212 0.5198199 -0.8542434 131 131 131
0.0154958697490231 0.0325471849982396 0.0170138171468742 -0.3007856 0.9368114 0.1786403 81 81 81
-0.00466710855790264 0.0105479773380269 -0.0131575694085469 -0.0007321856 0.5208025 -0.8536769 137 137 137
0.0370697735363792 -0.00496095677954134 -0.00640241044124865 0.476447 -0.7129695 -0.5144635 64 64 64
0.0119396431672096 0.0318573914722245 0.0164490699393934 -0.2620187 0.9619375 0.07760479 85 85 85
0.0160965648990903 0.0174121341307091 -0.00846291766539584 0.008067205 0.5137442 -0.8579055 182 182 182
-0.0423991054016488 -0.0532567094032953 -0.0363639929133205 -0.2571474 -0.04614319 -0.9652699 110 110 110
0.00283127038841036 0.00712333147344701 -0.0146841692482199 0.008862355 0.5057997 -0.8626055 134 134 134
0.0517815333168357 0.00425569404745885 0.00408046315989422 0.651862 -0.5482906 -0.523883 49 49 49
-0.00197358911077394 -0.0217218694200264 -0.0316402295551438 0.4081828 -0.01843262 -0.9127141 94 94 94
0.0239922764458353 0.0342065925490643 0.00187212594675082 -0.000529815 0.5194621 -0.8544933 118 118 118
0.0161174849234302 -0.000926765584497224 -0.0193638030266708 0.005080611 0.5116888 -0.8591558 93 93 93
-0.0305122259164503 -0.0225828956111082 -0.0324553655378511 -0.02373565 0.448741 -0.8933465 110 110 110
0.0786702045411336 0.0329853265910068 0.0127974884188648 0.7605615 -0.347689 -0.5483233 69 69 69
-0.0523263005391819 -0.0253538443364641 -0.0150132971218301 -0.9612028 -0.170531 -0.2168142 71 71 71
-0.0176901816076978 -0.042206882622687 -0.0315052536528628 0.7447912 -0.4773535 -0.4662829 50 50 50
0.0693613397450119 0.0156012809637512 0.0175133250789522 0.6801754 -0.4737096 -0.5594289 69 69 69
-0.0195566118461437 0.00327918392495807 -0.0168138968326854 0.01612014 0.5095075 -0.8603152 171 171 171
-0.00225950910582506 0.0269585100878135 -0.00257310884872983 0.006465106 0.5156476 -0.8567764 112 112 112
-0.019045269568513 -0.0447632385302129 -0.0306098302263794 0.7468755 -0.4999823 -0.4384001 62 62 62
-0.0452481699328926 -0.0553808398318266 -0.022679611609376 -0.9758266 -0.2174182 -0.02217678 66 66 66
-0.01123931328803 -0.0234676312520209 -0.0329184723867951 0.03251261 0.4638542 -0.8853148 117 117 117
-0.0271971747736917 -0.0490760745295308 -0.0369912604685463 0.3515129 -0.3585364 -0.8648065 63 63 63
-0.0305606793675999 -0.0112178240907598 -0.0258007875878471 -0.009915089 0.5018473 -0.8648994 138 138 138
7.24646096359471E-05 0.0326541374623887 0.006846781964054 -0.1689154 0.9342677 0.3140247 27 27 27
0.0345845757676977 0.0354518685051352 0.00263036699312882 -0.006274592 0.5352668 -0.8446597 98 98 98
0.0537130727858268 0.0163684643055572 -0.00521177741269416 0.6324481 -0.2550097 -0.731423 57 57 57
0.0683334106849829 0.0207363628789988 0.0113225366303405 0.7126008 -0.470755 -0.5201825 55 55 55
-0.0365443955391229 0.0200165360567458 -0.0072406686226387 -0.01897112 0.5397671 -0.8416005 109 109 109
0.0237671224577682 0.0391558650708489 0.00510431351276511 -0.1763346 0.9372058 -0.3009176 77 77 77
0.0142314653839608 0.0343296410918886 0.0113868390512041 -0.3511143 0.9017702 0.2520502 35 35 35
-0.0262334032732499 -0.0101808496279586 -0.0252153400339477 0.01339694 0.509461 -0.8603894 150 150 150
0.0106923622211417 0.0287730949789357 -0.00143329911958953 0.005451603 0.5133572 -0.8581578 176 176 176
-0.0407785399955842 0.0149745860254918 0.013666591127146 -0.3503446 0.9204066 0.1735235 69 69 69
-0.0253328335812872 -0.0433234731672009 -0.0379631226428828 0.1178703 -0.06360032 -0.9909902 62 62 62
0.05007801785362 0.0387460194007182 0.0155757640072246 -0.05464285 0.9540687 0.2945625 48 48 48
-0.0106809454049395 0.017169038091689 -0.00874187325729689 -0.002055894 0.5085317 -0.8610408 143 143 143
-0.0198134509808767 0.0080707922562252 -0.0141360236368641 0.009762077 0.5095784 -0.8603688 175 175 175
0.0742720822983598 0.0327943885367917 0.00423524865166749 0.6499126 -0.3908646 -0.6517963 48 48 48
0.0167111612290123 0.035077026789427 0.00234344414991797 -0.08355388 0.642933 -0.7613513 144 144 144
-0.0101424037807205 0.0295250104576145 0.00604464174375488 -0.3929846 0.8647354 0.3127232 58 58 58
-0.0285253616515395 -0.0146774028048936 -0.0277017804162204 -0.0007248672 0.5130053 -0.8583851 120 120 120
0.00413420831696953 -0.0264995925866315 -0.0134250125192328 0.7081332 -0.4998513 -0.4986944 61 61 61
0.0620233692822012 0.0161215487588212 0.00774020568709713 0.685885 -0.4348623 -0.5834866 72 72 72
0.0732423884726274 0.0359128595980339 0.00284339845778039 0.3691591 0.4333892 -0.8221285 97 97 97
-0.0053724398021493 0.0183583765432892 -0.00797087035471308 0.004142522 0.518665 -0.8549675 97 97 97
0.0272831162144951 0.0205665094005744 -0.00635925655841982 0.01789565 0.5114132 -0.8591486 102 102 102
-0.00291530395297768 0.0296902420764865 -0.000955905916836114 -0.01441269 0.5639351 -0.8256933 108 108 108
0.0305831323146037 0.029392243922545 -0.00109373242320818 0.00783207 0.5062953 -0.8623246 122 122 122
-0.0625997151870124 0.0130554298750788 -0.00104215932116378 -0.9753888 0.03351515 -0.2179298 68 68 68
0.0449919143456001 0.0343338073556138 0.00201643120455133 0.004761235 0.504548 -0.8633705 121 121 121
-0.04207009952709 0.00723132316688047 -0.0146142392989273 -0.001011197 0.5148274 -0.8572932 158 158 158
-0.0264255834270313 -0.0567004211159928 -0.0233018840178667 0.6704959 -0.6598236 -0.3392169 93 93 93
0.0627478035758786 0.0371646664664463 0.0035551572967705 0.02017183 0.546536 -0.8371927 135 135 135
0.011927134898122 0.0316561970490318 0.0220661550108453 -0.1604556 0.9488587 0.2718846 50 50 50
-0.0112995648327638 -0.037500227108929 -0.0251940093937311 0.7003149 -0.574678 -0.4234432 60 60 60
-0.0215441099153817 -0.0139124404637373 -0.0271642166920639 0.001509323 0.5093669 -0.8605481 122 122 122
0.0595618747184545 0.0320652503115119 0.000715966350235769 0.02102623 0.5089364 -0.8605473 113 113 113
-0.0608371184612344 0.00550539295925756 -0.00393656795080685 -0.9266347 -0.1848061 -0.3274062 74 74 74
0.0574829024661478 0.00905047923961588 0.00674317777785352 0.7584454 -0.4907018 -0.4289199 71 71 71
0.0536267249790101 0.0429311904798407 0.00764371994224847 -0.1152673 0.8729002 -0.4740871 80 80 80
-0.0524061502041655 -0.0157518962626829 -0.0165268548305927 -0.960382 -0.03657955 -0.2762757 64 64 64
0.0654801424190823 0.0386941127868538 0.0140263514478724 0.1723991 0.9768072 0.1269892 58 58 58
-0.0169465268389657 -0.0260319355994766 -0.0345159722212926 -0.02802305 0.4673948 -0.8836044 104 104 104
0.00235836822939417 -0.0296607195727486 -0.0151709512449796 0.8083645 -0.3925802 -0.4386659 56 56 56
-0.0435267656132035 -0.031781731468976 -0.0330222654433903 -0.6225219 0.03934775 -0.7816126 65 65 65
-0.00631277532560492 -0.0063624242054211 -0.0226498461248263 -0.0001233623 0.5047142 -0.8632865 122 122 122
-0.00478582620467405 0.0259259269712105 0.0258732283523301 -0.3476943 0.8860151 0.3067341 63 63 63
0.055132421445089 0.0136882479887258 -0.00201921460865315 0.7347215 -0.4276843 -0.5265648 65 65 65
0.0568987590800156 0.0372833536429217 0.0255909509186842 0.01043821 0.9594929 0.2815394 62 62 62
-0.00932938824151819 -0.0307896627730465 -0.0295119462565337 0.6410066 -0.6333256 -0.4336003 60 60 60
-0.0465543183563621 -0.0227417171512555 -0.0298224726386762 -0.5835882 0.1017611 -0.8056484 72 72 72
-0.0242443037973588 -0.0334365751405595 -0.0358132834300847 -0.1445855 0.2217535 -0.9643238 77 77 77
-0.0462005277106585 -0.0498747769117641 -0.0250149204796604 -0.9895328 -0.1026781 -0.1014009 49 49 49
0.0358351878458496 0.00702373851161042 -0.014514732538538 0.01594228 0.4793121 -0.8774998 109 109 109
0.060991695382568 0.0311658812874801 5.58551224915382E-05 0.01558557 0.5021218 -0.8646564 130 130 130
-0.0142282887248339 -0.0213217112935328 -0.0316073489210099 -0.00363886 0.5123186 -0.8587878 129 129 129
0.0470281774687438 0.00844651424043275 -0.0101719292321809 0.6948206 -0.2482119 -0.6749927 53 53 53
0.0470851412152835 0.00280292395402937 -0.0025796172659934 0.7618139 -0.6193709 -0.1897872 58 58 58
0.0387514883236504 0.0392160261517024 0.00485734602926549 -0.1017559 0.7263046 -0.6797995 124 124 124
0.02134397533393 0.0152668456377142 -0.00937539979597632 -0.002548359 0.5133406 -0.8581812 168 168 168
0.0814090558035181 0.0244418655705966 0.0231226527745418 0.7093981 -0.4543785 -0.5387898 63 63 63
0.000862495752509851 0.0248191077938277 -0.00404289094457674 0.01439626 0.5140718 -0.8576264 127 127 127
0.0260316006252217 -0.00843869382758811 -0.0134867283637529 0.4974995 -0.6936762 -0.5208719 40 40 40
-0.0185309732318841 0.0186289256938476 -0.00770660124526631 -0.008335968 0.5243218 -0.8514794 97 97 97
0.0617623654683359 0.0378039230137245 0.0040428974025877 0.01954297 0.5880836 -0.808564 124 124 124
-0.0187320212602291 0.0144384265974448 -0.0101121218755375 0.02231657 0.528221 -0.8488136 123 123 123
-0.024282539436955 0.00482346355547458 -0.0162727917169583 0.01010334 0.5186604 -0.8549206 129 129 129
0.0687078700711181 0.0380827951547641 0.0146395287538622 0.1508613 0.9785308 0.1404219 53 53 53
0.0633323786381288 0.0174806819165806 0.00800230198624377 0.6758003 -0.4564624 -0.5787367 62 62 62
0.0351557173705501 0.0246464657859936 -0.00384945618912466 0.001382785 0.5103318 -0.8599765 91 91 91
0.0736154353843146 0.0332562670714528 0.0290071396770964 0.2217772 0.9396536 0.260511 37 37 37
0.0382153203659397 0.0356880899430442 0.0220216765275395 -0.2500698 0.9212273 0.2980024 49 49 49
0.00150208384553618 0.021406534633489 -0.00589846653447731 0.01469125 0.521272 -0.8532642 126 126 126
0.0117501986462418 -0.00916083293950709 -0.0241402040845243 0.2500543 0.2819561 -0.9262686 110 110 110
-0.0607486059632452 0.010488722730123 -0.00537994795867378 -0.9466353 -0.1140023 -0.3014715 52 52 52
0.0279747539784805 -0.0119535121384916 -0.00573578585899812 0.5990709 -0.651338 -0.4656961 37 37 37
0.0460599362850735 0.0010521535245559 -0.00186302681780778 0.7349145 -0.6500222 -0.1933176 29 29 29
0.0717611059639016 0.0321582268903678 0.00136061559912518 0.4919972 -0.1482317 -0.8578847 51 51 51
0.0111108611880844 0.0316992787330116 0.0139795127699676 -0.2690976 0.9448817 0.1865074 81 81 81
0.0778910514636113 0.0228267462786947 0.0198909699183633 0.6258969 -0.5004348 -0.5981789 52 52 52
-0.0235639810168844 -0.0507714157090601 -0.0291219802052765 0.6157179 -0.7352916 -0.2832626 53 53 53
-0.0359148226653843 -0.00511092347527808 -0.022035756200179 0.01031174 0.5165455 -0.8561977 158 158 158
-0.0529911559146345 -0.00984546982048673 -0.015687496282253 -0.9493054 -0.0796638 -0.3040937 72 72 72
-0.0590710659660809 0.0120104316707553 -0.0110758085812057 -0.6447598 0.1872707 -0.7410901 74 74 74
0.0116931707710179 0.0342729466838155 0.00855227181454413 -0.2279597 0.8939062 0.3859612 57 57 57
0.0783683236062211 0.0249768218375325 0.0190599004186985 0.6403513 -0.4774736 -0.6016388 54 54 54
-0.0187998564380552 -0.0178772770750529 -0.0296199328011454 -0.006698634 0.5232944 -0.8521256 131 131 131
0.0475799057832931 0.036437959855364 0.0254982147293671 -0.1861116 0.9048843 0.3828144 65 65 65
0.0182930076104268 0.0327746467122348 0.0011296270708411 0.0005830706 0.5154219 -0.8569364 105 105 105
-0.00532123312569377 -0.0339257668978344 -0.0214803425723676 0.5844404 -0.5898886 -0.5571901 52 52 52
-0.0233032774859514 -0.00733789376802585 -0.023558740822941 0.003744033 0.5059794 -0.8625374 185 185 185
-0.0609538907907368 0.0130392793582673 -0.00587855656958422 -0.907932 -0.08999863 -0.4093406 58 58 58
0.00520856568741257 -0.0200671092721482 -0.0239620230942522 0.6365749 -0.6470644 -0.419619 71 71 71
0.0515403582250333 0.0381897598736797 0.0212384498722208 -0.0707378 0.9822503 0.1737254 82 82 82
-0.033551652185607 -0.0317387449681615 -0.0342170346395175 -0.08039927 0.1223788 -0.9892216 78 78 78
0.0800159987653615 0.0293303777873365 0.0169824620065449 0.6114157 -0.4671913 -0.6386729 56 56 56
-0.0296336647097397 -0.000887837875004904 -0.0193882633093168 3.854891E-05 0.5112126 -0.8594543 148 148 148
0.0105538642147982 0.0265625886173116 -0.00295700958359399 0.01309719 0.5123115 -0.8586998 173 173 173
0.070304448649805 0.0254953696734687 0.0096588270355881 0.7183177 -0.5358685 -0.4436942 54 54 54
0.0725138651845172 0.0360537179601922 0.021701806546555 0.2072304 0.946547 0.2471927 60 60 60
-0.0393210767034575 -0.0423891433628899 -0.0352059165727865 -0.1483847 0.1672354 -0.9746868 80 80 80
-0.0567967814228969 0.0139238159537439 0.00616746089161693 -0.0002909203 0.8534977 0.5210964 49 49 49
0.0292678899579513 0.0280669667626993 -0.00207862473033091 0.02237917 0.5127656 -0.8582369 104 104 104
-0.0464866434770745 -0.0287120179620163 -0.0291880744782092 -0.8079534 -0.06372352 -0.5857906 54 54 54
0.0420600840424332 0.00897711548521196 -0.0134274354202565 0.2286533 0.4068224 -0.8844282 104 104 104
-0.0209514841244038 0.0135503860169776 -0.0106875391923345 0.01560455 0.5138434 -0.8577421 100 100 100
0.00965226007013609 -0.0253097520943858 -0.00922332992959982 0.5307559 -0.5505058 -0.6443923 72 72 72
0.0353233759847109 0.0398414384782241 0.00915027904521595 -0.2000972 0.9613502 0.1891214 44 44 44
0.063793527962821 0.0351684309514982 0.0297394840795554 0.1015676 0.925313 0.365349 68 68 68
0.0570938651956379 0.0181069781925595 -0.0028963576481775 0.7368561 -0.3561767 -0.574614 56 56 56
-0.045989816418667 0.00309811449786335 -0.0171943198333589 -0.003101058 0.5093389 -0.8605605 104 104 104
0.0144391985462087 0.0302788025056998 -0.000608563018767189 0.008253114 0.5166344 -0.8561663 174 174 174
0.0388939415307155 0.0366061370778109 0.0209255287497592 -0.2733499 0.9306875 0.2431062 68 68 68
0.0121266699515283 -0.025471006285552 -0.00797058533802006 0.5391771 -0.5146173 -0.6666762 49 49 49
0.0419253875612187 0.0390560208046874 0.00479708335986742 -0.03242408 0.6514809 -0.7579719 112 112 112
0.0529416894716679 0.0307163363983475 -0.000141660780280745 -0.007422212 0.5135037 -0.8580553 128 128 128
0.0398927970627256 0.0124833811176576 -0.0111290904721394 0.002696043 0.5084633 -0.8610795 111 111 111
0.023611048277417 -0.00733914468298369 -0.0168147422939805 0.5115342 -0.5771458 -0.6365811 67 67 67
0.0833291727747452 0.0295242539938944 0.0218339153067504 0.7537851 -0.3750138 -0.5396041 53 53 53
0.0286971526587045 0.00801350220592145 -0.0139412797989979 0.003661298 0.5167804 -0.8561102 168 168 168
-0.0629600168531601 0.00481737449664144 0.00252242494983881 -0.9488159 -0.1330915 -0.2864174 31 31 31
0.0206651455666824 0.0254325004466011 -0.00338793307273585 -0.0241131 0.5174186 -0.8553927 152 152 152
0.00825744438196674 0.0187327686408497 -0.00741008153160869 -0.009806659 0.5198798 -0.8541831 139 139 139
-0.032058810341733 0.0241991447087907 -0.00424793747914862 -0.1498665 0.8581372 -0.4910606 104 104 104
-0.015006190752695 -0.0306200912681248 -0.0365971700183262 0.2887179 0.08346006 -0.9537696 98 98 98
0.0519788126155087 0.00776126219584816 0.000645047531706938 0.7016768 -0.5899158 -0.3995609 56 56 56
-0.024506843899605 -0.00891718233945216 -0.0243443187059082 0.01285819 0.5062317 -0.8623016 157 157 157
-0.0114193203155755 -0.0360756107180692 -0.0271340747286244 0.7432315 -0.5137514 -0.4285632 50 50 50
0.0577456319515792 0.0264741618854095 -0.0025889188374579 0.1699622 0.387318 -0.9061443 101 101 101
0.0586298550526219 0.032859986889645 0.000983802210282742 0.02039366 0.5113265 -0.8591445 119 119 119
-0.0112664799707796 0.0292548853010725 -0.00130501876191644 -0.1158114 0.6405333 -0.7591474 128 128 128
-0.054788145925448 0.0143383320936331 -0.0102543325941128 -0.02066846 0.4998799 -0.8658481 88 88 88
0.0398648934009556 -0.00796794399309053 0.00441904989661626 0.6956826 -0.673192 -0.2506756 70 70 70
0.00724612786837353 0.0312003518692704 0.0150507466576404 -0.1904572 0.9785085 0.07903912 71 71 71
0.00645858664920196 -0.0222073820021408 -0.0192775557095221 0.6040223 -0.7000143 -0.3809685 42 42 42
-0.0628660033547508 0.0144923320330307 -0.0024120939709191 -0.9794016 0.078279 -0.1861311 78 78 78
0.0575207986215411 0.0383297016833498 0.0218748170307314 0.01096729 0.9870306 0.1601573 98 98 98
0.0424812866122073 0.0133627350534763 -0.0106837248863397 0.005507324 0.5106714 -0.8597583 85 85 85
-0.0297200834080664 -0.029436744786658 -0.0343983434485914 -0.1321774 0.1343164 -0.9820836 68 68 68
0.0174681786379032 -0.0226127473624088 -0.00567404297160376 0.5598562 -0.5353335 -0.632439 57 57 57
0.0104969491046711 -0.0103257834453848 -0.0249565531033322 0.222914 0.3447458 -0.9118441 122 122 122
-0.000871448617256299 -0.00404189700906821 -0.0213692152177783 -0.004048856 0.5208982 -0.8536092 161 161 161
0.0014304455168217 -0.0169289953909447 -0.0290044315194603 0.2246949 0.2931406 -0.9292905 108 108 108
0.015302966104175 -0.0231183425840061 -0.00701537906483349 0.5772069 -0.5027189 -0.6435106 66 66 66
-0.0401331697366358 -0.0635135940646488 -0.0351908230212899 -0.2391098 -0.4604882 -0.854855 79 79 79
-0.013192796768934 0.0276556274256264 0.00965958622570576 -0.3255222 0.9255126 0.1935503 68 68 68
0.004529598335961 -0.0155282422969066 -0.0282360955030041 0.3192456 0.2091109 -0.9243132 116 116 116
-0.0117028335249771 0.0268254584285704 0.0150026866394055 -0.2291794 0.947199 0.2242564 77 77 77
0.0560502827257796 0.0205013123189027 -0.00519471611261255 0.4950481 -0.006154215 -0.8688438 69 69 69
-0.0068773469944694 0.0193282632409623 -0.00724689135114073 0.005589616 0.5202778 -0.8539788 121 121 121
-0.039721445870835 -0.0652142139559578 -0.0324733030403322 0.09077384 -0.7848662 -0.6129805 74 74 74
-0.0640380221423884 0.00406602083841767 0.00853092387267665 -0.9934109 -0.07353291 -0.0879077 59 59 59
-0.0387424316224756 -0.0650916454978393 -0.0328333529129466 0.2016008 -0.7651434 -0.611484 68 68 68
-0.0631468672737632 0.0097022133159218 0.0156796628027364 -0.7589148 0.6347238 0.1455128 109 109 109
0.0557825320140228 0.0354216929027099 0.00259365146197924 -0.001974449 0.5263692 -0.8502539 121 121 121
0.0494217216142072 0.0387731519158147 0.0153423976145212 -0.04171939 0.9575192 0.2853355 46 46 46
