ply
format ascii 1.0
comment File exported by Rhinoceros Version 7.0
element vertex 475
property float x
property float y
property float z
property float nx
property float ny
property float nz
property uchar red
property uchar green
property uchar blue
end_header
0.0265582368533241 0.0316361549525939 0.0240197505008695 0.6815128 -0.396339 0.6151875 57 57 57
-0.00102813739241814 0.0278857292908767 0.0152982188872255 -0.6138882 0.7205553 0.3223993 97 97 97
0.0328701486826177 0.00556235689292528 0.00624151009288182 -0.004026145 -0.276453 0.961019 82 82 82
-0.00787218584928251 -0.0340033860631123 -0.0228529655220991 0.5915238 -0.5674804 -0.5727701 79 79 79
0.0292673826405689 0.0396010159099697 0.0248594585009352 0.7324217 -0.3069753 0.6077209 65 65 65
0.000797830396265908 -0.0369016680613791 -0.00432251103745152 -0.04789406 -0.8367699 0.5454561 158 158 158
0.0330494155455239 -0.00159544513184329 0.00248724418270346 -0.004150835 -0.5088819 0.8608264 114 114 114
0.0121962931872797 -0.0185231054249477 -0.0151263750673816 0.656144 -0.4756835 -0.585833 44 44 44
-0.0333002656616066 -0.00847236550238817 0.00876080586368849 -0.7958972 0.4681913 0.3838549 84 84 84
0.00941831030732043 0.0327879015833865 0.0397127665681538 -0.1342615 -0.1736235 0.9756171 49 49 49
0.0335727061812792 -0.00243019252954835 0.0018789695967445 -0.002848538 -0.4901342 0.8716424 120 120 120
0.0338916660582207 -0.00569691784324189 0.000109053144442872 0.1618818 -0.5558547 0.8153649 86 86 86
-0.0212215257252089 -0.0179969254724227 -0.0310883504091791 -0.9098289 -0.4136775 -0.03289894 54 54 54
0.0169438219956479 0.0357638566340145 0.0370593793277877 0.5318511 -0.3949768 0.7490847 45 45 45
0.0251504363535462 0.0395779986468524 0.031518387175506 0.7284738 -0.2804792 0.6250259 50 50 50
-0.00636115194773845 0.00644074317833265 0.0246073995235777 -0.03198827 -0.662039 0.7487864 80 80 80
0.0436118648489505 0.0031118436239379 0.00298747116710474 0.3204403 -0.4672996 0.8239837 85 85 85
-0.0346529892662604 -0.00967475102434578 -0.000448047574090615 -0.8174902 -0.4428085 -0.3682803 102 102 102
-0.0194342359427804 -0.0218821149362024 -0.0296333188795164 -0.9242135 -0.3745094 -0.07464642 83 83 83
0.00628587141312575 -0.0290746921346678 -0.000417929260758509 0.4573168 -0.1575645 0.8752341 85 85 85
0.0179271953503397 0.0272443903080388 0.0315139592147841 0.565814 -0.5336521 0.6285459 100 100 100
-0.0202458271630626 0.0155190700846651 -0.000279819814869797 -0.7855526 0.5288209 0.321334 82 82 82
0.0033456291408771 0.0045506951576828 0.0222983436009533 0.1657837 -0.576942 0.7997835 38 38 38
0.0478229234557621 0.00606028230813571 -0.00242535951895934 0.6275543 -0.7647929 0.1458339 97 97 97
0.0410067738237854 0.00365446808279524 0.00408771281916681 0.2377282 -0.4067516 0.8820649 94 94 94
0.043513244858604 9.47470431713615E-05 0.00164699545293284 0.4887646 -0.6402859 0.5925733 109 109 109
-0.0310281916524278 0.0052228493539479 -0.0128003011345126 -0.879894 0.4482737 0.1575986 72 72 72
-0.000832178626182234 0.00437727926695697 0.0226862647300329 0.109088 -0.6258965 0.7722391 73 73 73
-0.00924838788051874 -0.0370336519809144 -0.00563770582011586 -0.06376895 -0.6921943 0.7188884 215 215 215
0.0269458759488828 0.0198847092497307 0.0114971349855626 0.5753825 -0.5820104 0.5746293 53 53 53
0.0116649624741392 0.0330557415419173 0.0392088828471993 0.1741427 -0.384119 0.9067121 99 99 99
-0.00388417207178016 0.0240319114142874 0.021421481911807 -0.7120771 0.6814503 0.1690316 96 96 96
-0.0167980270710264 -0.038070290999725 -0.0176276418792404 -0.921899 -0.2750838 -0.2728209 85 85 85
-0.0101017294921588 -0.0368060605155638 -0.0220298867717011 0.5005249 -0.5937812 -0.6299989 49 49 49
-0.0113128998570908 0.023940108710649 0.00680950119051099 -0.6923217 0.5543183 0.4619761 99 99 99
0.0207632105387585 -0.00581051030530788 0.00188280346631692 0.2183677 -0.3475095 0.9118951 182 182 182
-0.0185744698142774 -0.0320827742367022 -0.017649506818997 -0.9531661 -0.2379806 -0.1866539 97 97 97
-0.0201388933572999 0.000677992445368369 0.0197847015524916 -0.2190962 -0.3741454 0.9011171 53 53 53
0.0293664183772795 0.0407574596308009 0.0251399961613553 0.7531614 -0.3118609 0.5792156 76 76 76
0.0029756378958683 -0.0345228705116218 -0.0107095799275989 0.6506932 -0.4769745 -0.5908415 49 49 49
-0.0344933191416938 -0.00464166731992766 -0.00684921574634118 -0.9587445 -0.1885548 -0.2127349 78 78 78
0.0110656320009519 0.00361439640168293 0.0125794385080322 0.5585577 -0.6571215 0.5061666 227 227 227
0.03148602218304 0.00763317390676166 0.00635976627623064 -0.08644174 -0.1699614 0.9816521 82 82 82
-0.0269290190087075 0.00438657961602285 -0.00175236431284959 -0.812185 0.5146499 0.2747562 103 103 103
-0.00618194618405621 -0.00558857902271215 0.017981347150148 0.1090241 -0.2193971 0.969525 25 25 25
-0.0228500276958612 -0.0197037089683502 -0.0120878656849449 -0.8927618 -0.3728625 -0.252883 60 60 60
0.0153769816880711 0.0198053606195804 0.0258701403331158 0.5622117 -0.547447 0.6198546 18 18 18
0.0292152049662167 0.0137956198447344 0.00672831795420786 0.1982332 -0.1730709 0.9647539 93 93 93
-0.0333064567842878 -0.00465451571904385 0.00230308766696208 -0.9237698 0.3417891 0.1727124 90 90 90
-0.00452095449141776 0.0174339318286748 0.0332486953761735 0.04819829 -0.4858402 0.8727177 82 82 82
0.0250349720799408 0.0411076475655852 0.0312235650543506 0.7398539 -0.2837569 0.6099986 40 40 40
-0.0177720220962208 -0.0106724229722953 0.0183539128861108 -0.1721242 -0.2628617 0.9493561 64 64 64
-0.0171158434971033 -0.0291060359658987 -0.0299792706800849 -0.8558999 -0.3553297 -0.3757342 68 68 68
-0.0226107941624623 -0.0262551219680057 -0.00592094012361677 -0.8776955 -0.2973829 -0.3757845 60 60 60
-0.0022556032660721 -0.032116704587731 0.000764149240897849 -0.0345201 -0.6739622 0.7379589 164 164 164
0.0174615382722774 0.0127428590762129 0.0169972893291935 0.6988783 -0.629864 0.3388812 80 80 80
0.0271852485421347 -0.000140451849309109 0.0030095691351763 -0.02866636 -0.4103193 0.9114913 230 230 230
0.031700910292479 -0.00808171660626056 -0.000376881703047671 0.3925162 -0.6108806 0.6875725 81 81 81
0.0119495347923584 -0.0297258925328598 -0.00312633290076914 0.7640284 -0.4394633 0.4723692 107 107 107
0.0494608806826524 0.00560582193605996 -0.0010638813043724 0.6434426 -0.7225813 0.2527014 100 100 100
-0.0293269727328473 -0.0119556081642201 -0.00710831848991483 -0.7964204 -0.4802845 -0.3674798 52 52 52
-0.0200371561406221 -0.0203269701131144 0.00977202051408949 -0.1057318 -0.6697511 0.7350199 240 240 240
0.00143296162764761 -0.0368351054778269 -0.0109524393796993 0.6388255 -0.550455 -0.5374953 27 27 27
-0.00267093683826669 -0.0249425233595968 0.00516112153620935 0.5020327 -0.5089014 0.6992728 69 69 69
-0.0253711900924043 0.00536283719276487 0.00285875687757137 -0.8198349 0.4844527 0.3052479 52 52 52
0.0284670389952382 0.0223874281066029 0.0154480926333374 0.6327364 -0.6826736 0.3655153 40 40 40
-0.0143176020287878 -0.00318336085654225 0.019016560019438 0.02649144 -0.2490397 0.9681309 70 70 70
0.031615292242682 0.00169579202644066 0.00475166777367814 -0.09359897 -0.4575764 0.8842303 112 112 112
0.010027452062666 -0.00382688282643295 0.00753576838341713 0.6196234 -0.4687805 0.6295329 59 59 59
0.0219917387259394 0.0333066426696326 0.0317620183286531 0.6570435 -0.3928627 0.6433916 100 100 100
0.0251900907154616 0.0118979703836504 0.00772692391271568 0.3605549 -0.4442596 0.8201424 59 59 59
0.00366005547629511 -0.00638111856533752 0.0126326368933236 0.6280055 -0.4369264 0.6439755 29 29 29
-0.0264703226042315 -0.0104890863187079 0.0156961749227942 -0.2094127 -0.2599934 0.9426292 61 61 61
-0.0206059225100268 -0.0238345924798029 -0.0177825730770026 -0.9379538 -0.3070951 -0.1610441 104 104 104
0.0264061984057182 0.0241534874412487 0.0203833308092948 0.6423455 -0.5480204 0.5357854 51 51 51
0.019167091379138 0.0274196924828161 0.0305865524389041 0.6263648 -0.5217763 0.5791516 85 85 85
-0.0151704604627683 -0.00499539224759304 0.0184455797166256 -0.01640424 -0.1825774 0.9830546 86 86 86
-0.000268114822595145 -0.0225018111782003 -0.0251844433329784 0.5880421 -0.4780787 -0.6524164 73 73 73
0.0126254527222853 -0.0219034678257148 -0.0112545947104497 0.6645194 -0.5040724 -0.5516565 107 107 107
-0.0198756323618885 -0.0220013223491392 -0.025975116889268 -0.9339708 -0.3422088 -0.1029158 53 53 53
0.0174244082118462 0.0409698897710562 0.0391586024839932 0.5320005 -0.2973393 0.7928208 62 62 62
0.0195119951104075 0.0178647441707246 0.0221822242128983 0.5661449 -0.5546929 0.6097506 106 106 106
-0.0321335465940082 0.00458264814320775 -0.0136822048128493 -0.9323727 0.3544898 0.07083893 79 79 79
0.00303490888188129 -0.0271912911105167 0.000997161878528052 0.3729177 -0.09584687 0.9229007 60 60 60
0.0250171495938827 -0.0160401613410833 -0.00199475842954949 0.3059347 -0.5710758 0.7617587 103 103 103
0.0185868474924669 0.0229398929988569 0.0253900723930116 0.570819 -0.5174679 0.6374893 41 41 41
-0.00272650059461688 0.0133474331396242 0.0293501499108911 0.1871677 -0.5966364 0.7803802 65 65 65
-0.00491562176799221 0.0240752419932284 0.0193600359322034 -0.7119562 0.6697205 0.21117 76 76 76
0.0095273731710166 0.0333437426223397 0.0098890184767258 -0.4089976 0.9122879 -0.02125656 44 44 44
-0.0343971420670748 -0.012688975071257 0.0133322118568608 -0.4579977 0.03184142 0.8883829 73 73 73
0.0237061701110277 0.0222392982026337 0.0213557735785574 0.6405498 -0.5063739 0.5773053 126 126 126
-0.00373741084012069 -0.0419629163934161 -0.00989770017785041 0.2297668 -0.9193022 0.3195162 131 131 131
0.0333507518143268 0.0295238976050863 0.0161088121882376 0.7051438 -0.5980086 0.380996 47 47 47
0.00768480294455154 0.0293016277992935 0.0384162688560415 0.04140157 -0.2203027 0.9745525 58 58 58
0.0283484780721994 0.0221061650048442 0.0133870683575343 0.6258253 -0.6753309 0.3902189 36 36 36
-0.0274018303335568 -0.010288211260686 0.015788159347061 -0.2584483 -0.2450098 0.9344382 41 41 41
0.00862077867126088 -0.0305810245875816 -0.00802608011079814 0.673488 -0.488886 -0.5544406 79 79 79
-0.00503949104666468 0.016227435325295 0.0323931943271989 0.06579721 -0.4765996 0.8766547 61 61 61
-0.0225124925895566 -0.0221421153709104 0.00748724032594444 -0.1214775 -0.6933429 0.7102948 237 237 237
0.018788196650882 0.0156922507829628 0.0193143048116597 0.6506938 -0.6524103 0.3885336 56 56 56
-0.019790158858088 -0.0335297762301956 -0.00285645412522834 -0.2229458 -0.7328779 0.6427948 238 238 238
0.0489707550732126 0.00534656776768938 0.00254007817827123 0.6039229 -0.5692824 0.5578483 93 93 93
0.0407387532989434 0.0137772878281771 0.00662579108931516 0.1240424 -0.05145085 0.9909421 54 54 54
-0.0195333792315879 -0.0235365532768396 -0.0256851593521488 -0.9410369 -0.3162849 -0.1200562 76 76 76
-0.0126763872083191 0.0174879386157587 0.0120511906465687 -0.694303 0.6281554 0.3512322 92 92 92
0.0284924068108419 -0.0097750744185463 -2.29428436174239E-05 0.1784006 -0.3821219 0.9067282 88 88 88
-0.0156512744277708 -0.0296183904993566 -0.0319681868040672 -0.4146526 -0.5122837 -0.7520828 118 118 118
-0.000344848812132259 0.00831900465114743 0.0251859250221492 0.195649 -0.5489551 0.8126314 25 25 25
0.0392956195164165 0.0219897871051585 0.00676652132473338 0.04480377 -0.2274637 0.9727553 95 95 95
0.0064014957354499 0.0315638756521706 0.0363898256161324 -0.5670964 0.3654337 0.7381463 53 53 53
0.016552963989652 -0.0153415075126212 -0.0127197870171639 0.6411361 -0.5143493 -0.5695518 87 87 87
-0.0259663681026256 -0.00491004709150433 0.016184863792001 -0.5057738 0.0648794 0.8602229 100 100 100
0.00746290065266253 0.0191576418260612 0.0311315112427096 0.3213288 -0.5633435 0.761178 22 22 22
0.00801908173659127 -0.00121235061040925 0.0114317482701664 0.6522804 -0.4972223 0.5721016 215 215 215
-0.0200747684064266 -0.0256724682412176 -0.016269520035489 -0.9444721 -0.2819724 -0.1687126 94 94 94
-0.0182320031708314 -0.0262969168067201 -0.0253400896511117 -0.9555377 -0.2687208 -0.1213957 49 49 49
-0.014817566942023 -0.0360388277027821 -0.0280329058567096 -0.1594604 -0.7345473 -0.6595549 114 114 114
0.00285140299166287 -0.0375594637002413 -0.00396515634839012 -0.05224726 -0.9018896 0.4287953 154 154 154
0.000123955913363893 -0.0401411904135172 -0.00759032536589127 0.2880685 -0.8847768 0.3663148 77 77 77
-0.022066043138107 -0.0319578231496134 -0.00103024390839823 -0.4396386 -0.7200596 0.5368726 183 183 183
0.026287171604559 0.0184515764742956 0.0108925757429338 0.5560296 -0.505904 0.6594635 63 63 63
-0.014280317788526 -0.00711201522692084 0.018191194514145 0.03443031 -0.1607562 0.9863935 102 102 102
-0.0145800326168453 0.0096710483399165 0.0274544659986158 -0.4861076 -0.4044564 0.7746705 92 92 92
0.0131124552617905 0.0315090512370666 0.0369661963732993 0.4327225 -0.4977466 0.7516645 63 63 63
0.0113273584625109 0.0194602712317059 0.0301270507420017 0.4418861 -0.5739008 0.6894742 89 89 89
-0.0250314304178589 -0.0252905037856436 -0.00188974842201645 -0.801344 -0.4930629 -0.338728 49 49 49
-0.0158744121401586 -0.0303046203339179 0.000490214180840887 -0.04134158 -0.729477 0.6827549 232 232 232
0.00608160299116545 -0.0185722768091918 -0.0220446647066713 0.6506246 -0.4768652 -0.5910052 56 56 56
0.0292932452332728 -0.00157442191720236 0.00226638803070328 -0.03390289 -0.4481198 0.8933304 207 207 207
-0.00761345116385614 -0.0346543644017061 -0.00315453867483095 -0.08589777 -0.7166765 0.6920956 238 238 238
0.00123844824416075 0.00802816952350693 0.0244716902571921 0.1680477 -0.5348574 0.8280625 31 31 31
-0.0180902463198684 -0.0318638210027146 -0.020582411594296 -0.9569216 -0.2417792 -0.1607601 105 105 105
-0.0199045923423511 -0.0251690515940586 0.00506987143592047 -0.1207724 -0.6780707 0.7250063 241 241 241
0.0160620950069892 0.0326955476721855 0.0359270978206832 0.5061985 -0.4312477 0.7468524 38 38 38
0.00658786648053367 -0.0331987360257101 -0.00178764216278143 0.5688418 -0.4130202 0.7112197 85 85 85
-0.00129234092676755 -0.0250702496707702 0.00372920066546972 0.5342745 -0.3048969 0.7884089 71 71 71
0.0156326705896039 0.00545534882582144 0.0111023700790205 0.5424535 -0.5873988 0.6005887 242 242 242
-0.00231476808653497 -0.0176105502135332 0.0123584394614462 0.6248219 -0.3769976 0.683718 58 58 58
-0.0206834492880366 -0.0190737646097934 -0.0316851860258811 -0.9146597 -0.4020969 -0.04142066 54 54 54
0.00738076077482575 -0.0295514387060232 -0.000904507060971282 0.4476278 -0.1837549 0.8751363 86 86 86
-0.021823776107885 0.000442176254090376 0.019064042280392 -0.4461786 -0.1630565 0.8799644 64 64 64
-0.0255956337238556 -0.026347481809168 -0.000278537023254033 -0.6904551 -0.7091376 -0.1428132 66 66 66
-0.0121057601099199 0.000690793743334694 0.019935399238925 0.04233482 -0.3984604 0.916208 39 39 39
-0.0238016947223931 -0.016047794724991 -0.0152994588412619 -0.8636837 -0.4413927 -0.2433577 92 92 92
-0.0340118163492225 -0.0162375426300676 0.0111945756823131 -0.298236 -0.6940966 0.6551986 90 90 90
-0.00941697541477238 0.0234787774314248 0.00878101104669121 -0.7316715 0.5301237 0.4285157 104 104 104
0.0298796779433625 0.023293998246004 0.0123601487891722 0.6673897 -0.6316798 0.3944257 53 53 53
0.000515536257501559 -0.0244076633705137 -0.022558880699258 0.6031627 -0.5043765 -0.6178989 55 55 55
0.00480008036178647 -0.027410466267856 0.000457506127245433 0.3913169 -0.1090936 0.9137667 78 78 78
-0.000293054000128912 0.00249612873220639 0.020420753196082 0.05727712 -0.6021059 0.7963591 42 42 42
0.0157590339112641 -0.0177102852180254 -0.0109619205150265 0.6704468 -0.4754519 -0.5696021 48 48 48
-0.0160830287153959 -0.0256741732367427 0.00531751530583707 -0.07197204 -0.6956592 0.7147576 98 98 98
0.00634394074119982 -0.0132389482931602 0.00443092255948707 0.5286099 -0.4560024 0.7159842 234 234 234
0.0355649022638853 -0.00535706726435103 -0.00462300589120351 0.5386993 -0.718655 -0.4397021 66 66 66
-0.0078244817853852 -0.0247443514928163 -0.0302652847670625 0.5576711 -0.4643163 -0.6880503 88 88 88
-0.00762886283386965 0.0193906238229953 0.0218204298672579 -0.6407917 0.7577011 0.1235923 89 89 89
0.00808235907487287 -0.0170909500790986 0.00213660429567814 0.3770922 -0.3458087 0.8591961 224 224 224
-0.0302399132872244 -0.0145019640997772 -0.00216022864498649 -0.781345 -0.436879 -0.4456868 82 82 82
9.22846488031759E-05 -0.0349705182888093 -0.00215009913423514 -0.1648311 -0.7170016 0.677303 157 157 157
0.0418822712967248 -0.00226564056936873 -0.00173121350921152 0.6159906 -0.7689568 -0.1710584 79 79 79
0.0393954424241802 0.00770378680863804 0.00623858281187045 0.1677745 -0.2384581 0.9565508 65 65 65
-0.0033571744387082 0.0266611593836579 0.0133304356809389 -0.5931945 0.6694974 0.4470946 118 118 118
-0.0112395288066063 0.0180435166272583 0.0251604179033117 -0.5666021 0.7791929 0.2679936 106 106 106
0.0353646638778824 0.00597690796985884 0.00623562411468864 0.1027597 -0.2487541 0.9631001 55 55 55
0.034449808479001 0.0262681097717363 0.0105268164248752 0.6110509 -0.557767 0.5617052 80 80 80
0.0211176777316502 -0.00696068600399646 0.00171263373957664 0.2207682 -0.3349378 0.916012 209 209 209
-0.030952125233942 -0.00314677908667671 -0.0196638406915237 -0.7893384 -0.5606759 -0.2501751 85 85 85
0.010440956587523 -0.0295319598227349 -0.00666450385815476 0.8029535 -0.4821996 -0.3503559 49 49 49
-0.0203868575343229 -0.0234992978611392 -0.0197025261308043 -0.9407379 -0.3091094 -0.1395122 105 105 105
-0.00921378367445325 -0.0396768475832975 -0.0184777651216261 0.5717395 -0.538488 -0.6189868 97 97 97
0.0307706124818377 0.037803730068097 0.0230243483145344 0.542932 -0.1872497 0.8186345 52 52 52
0.010926393920331 0.040158328072974 0.0286174765386628 -0.7446414 0.6468769 0.1644977 94 94 94
-0.00803999100521269 -0.00186509395064194 0.0188627192217805 0.05717286 -0.3186792 0.9461368 45 45 45
0.0284244550198753 0.0293540470053784 0.0221016442130237 0.5130863 -0.4360591 0.7393206 55 55 55
0.0166503888383138 -0.0169841916414517 -0.00113224259718941 0.1709784 -0.3429455 0.9236638 213 213 213
-0.0210200316934661 -0.0313358838133403 -0.00142403339025055 -0.4396386 -0.7200596 0.5368726 226 226 226
0.0321514632621756 -0.00638755231426125 -0.000212570667913026 0.1857139 -0.513702 0.8376279 70 70 70
0.032629456965954 -0.00354202850631624 -0.00760415833863615 0.5237468 -0.5817448 -0.622304 51 51 51
0.0179932212548151 0.0310572646950044 0.0339917615492102 0.5363117 -0.4149404 0.734979 34 34 34
0.0456759164428266 0.0109523693888167 0.00545580456262068 0.2469469 -0.1669808 0.9545337 66 66 66
0.0195952988339183 0.0477813410506751 0.0318464336101347 -0.1682159 0.9783195 0.1208072 67 67 67
-0.0316159061796961 -0.00319034406669849 -0.0178655738034846 -0.7884321 -0.5623944 -0.2491734 105 105 105
0.0237494507570091 -0.0126546284829288 -0.00838509968755047 0.5161718 -0.5631809 -0.645286 47 47 47
-0.0325079986074619 -0.0136765221803438 0.000259973687298409 -0.7391653 -0.4707736 -0.4816709 83 83 83
-0.0241160484833203 -0.0140863808560245 -0.0168725307896714 -0.8693376 -0.4511645 -0.2017494 101 101 101
0.0122820854019654 0.0352082193655284 0.0402080654331902 0.2924678 -0.3620427 0.8850919 102 102 102
0.0109777780091993 0.0139651012953627 0.0255089118450114 0.4751653 -0.4842662 0.7346456 80 80 80
0.0291195060000065 0.0483616652575378 0.0308995017626536 0.7083852 -0.3322615 0.6227301 33 33 33
0.0341551032231693 0.0121446658328224 0.00652104522712865 -0.006401368 0.0246126 0.9996766 61 61 61
0.0197463262030211 0.0369672331900964 0.0359714159071134 0.5818239 -0.3849674 0.7164363 39 39 39
0.0313661523932667 -0.00961896098861437 -0.00350254142510681 0.7049718 -0.6998402 -0.1150588 48 48 48
0.000627551133703275 0.0281131987335206 0.0237628743409508 -0.725756 0.6878248 0.01323883 102 102 102
-0.00251330457376442 0.0102957720156753 0.0270992096550008 0.1712814 -0.5688477 0.8044097 44 44 44
0.0179915671102626 -0.0178874517764014 -0.00855279341329401 0.6262472 -0.4843416 -0.6109237 58 58 58
-0.00483441808174456 0.0230273425787391 0.0218999508450662 -0.7228095 0.6716552 0.1625598 92 92 92
0.035222346604352 0.0213046059193349 0.00785902776308756 0.243071 -0.2677515 0.9323227 50 50 50
-0.0101913027225153 -0.0199681396712758 0.0120457324352852 -0.1901764 -0.6905438 0.697841 136 136 136
-0.0232934720696556 0.00563863071099624 0.00901571901073117 -0.802237 0.5291623 0.2764108 101 101 101
0.0289134972711862 0.0055446589646343 0.0056985310707704 -0.2180497 -0.313291 0.9242852 113 113 113
0.0121955819966675 -0.0228351010858553 -0.011458086260155 0.6557857 -0.515137 -0.5518867 127 127 127
0.0298986505652441 0.0257591909748924 0.0180639626378001 0.6654589 -0.5876852 0.4602071 63 63 63
0.00819566103744807 0.0246815147707093 0.0353339192431886 0.3096924 -0.5683967 0.7622439 85 85 85
0.0268282815522847 0.0461637087979277 0.0327260389029381 0.7307159 -0.3268198 0.5993689 73 73 73
-0.00763561034617144 0.0204018055993087 0.0186045941808702 -0.686757 0.7059472 0.173215 96 96 96
-0.00114744074173689 0.0262380028149635 0.0254831246690324 -0.7438526 0.664135 0.07488609 79 79 79
0.00468819178362478 -0.0150809651389477 0.00469114206494636 0.5724925 -0.4825729 0.6628543 233 233 233
0.0219818638634117 -0.00651889178456155 -0.0157468408361041 0.5735503 -0.5639213 -0.5941656 84 84 84
-0.0316654726063734 -0.0164039950714573 0.00184009175961625 -0.758549 -0.3879678 -0.5235308 88 88 88
-0.00874910771597781 -0.0399278148839118 -0.0181322431515148 0.571021 -0.5401654 -0.618188 91 91 91
-0.0159364030326272 0.0066918871006012 0.0251761786545876 -0.3342576 -0.5119158 0.7913369 59 59 59
-0.0293799935602332 -0.00851469183128983 0.0144694238532521 -0.5263225 0.1503518 0.8368865 110 110 110
-0.00797525623040851 -0.0287835236042595 0.00329617576432395 -0.1122929 -0.6862214 0.7186728 89 89 89
0.00440103355260391 -0.00725688491756105 0.0109664738692728 0.6593575 -0.4328434 0.6147311 45 45 45
0.0288041369792191 0.0375074917655903 0.0245948356253302 0.7208869 -0.2663459 0.6398297 51 51 51
0.0225741420275902 0.0139351883591392 0.0107586041282777 0.5776283 -0.4541148 0.6783254 50 50 50
0.024335470396585 0.00268432881670588 0.00439031136100393 0.0839299 -0.3069862 0.9480059 131 131 131
0.00716711178565665 0.0139502672904731 0.0274439166423986 0.2840503 -0.5516045 0.78425 65 65 65
-0.0179338572640502 -0.0233533341553046 0.00719664432375727 -0.1061528 -0.6837197 0.7219827 132 132 132
0.0265520897662612 -0.015475049985093 -0.00204778140034806 0.3709553 -0.7535797 0.5426875 88 88 88
0.00195923968880285 0.00140104784150619 0.0197620501738342 0.1616945 -0.5996867 0.7837287 42 42 42
0.0070963434481186 -0.0156609123366572 0.00258031419451804 0.4339704 -0.3825087 0.815694 194 194 194
0.0117514210479306 0.0136147544124992 0.0244841326826077 0.48771 -0.4685915 0.7365873 36 36 36
0.00743106538598104 -0.0275051059620518 -0.000812345420454053 0.4384841 -0.1483856 0.8864048 68 68 68
-0.0019815081452883 -0.0212347215077272 0.00787977154081781 0.7068231 -0.5391542 0.4579453 74 74 74
-0.0181345803092809 -0.0333793239845087 -0.0175549921739342 -0.950654 -0.2450339 -0.1903031 92 92 92
0.0143771091904936 0.0201658648285326 0.0273763743835037 0.5737652 -0.5683823 0.5896906 26 26 26
0.0184091535916808 0.0120995740456535 0.0142254190053279 0.662829 -0.5643452 0.4921099 55 55 55
-0.0235564973855342 -0.0132307292515087 -0.0279430024177801 -0.9045988 -0.4260808 -0.01249653 56 56 56
-0.0246226317885436 0.0128395353309271 -0.00789122275841997 -0.8121569 0.5287423 0.2466428 88 88 88
0.018891623593607 -0.00902630587389452 -0.0161800468899626 0.6331221 -0.5362599 -0.5581949 54 54 54
-0.0156905120027391 0.0147980996684774 0.0206079763414571 -0.7319912 0.6759467 0.08535251 102 102 102
-0.0189423048523301 -0.0376676116662138 -0.00647553770666714 -0.5852262 -0.7150305 0.3824157 233 233 233
-0.00929017469264659 -0.033220502299673 -0.00246524194271652 -0.09421393 -0.7187924 0.6888115 167 167 167
-0.0143913685786967 -0.0455254876122934 -0.0146969927862025 -0.1071867 -0.8466085 0.521311 101 101 101
-0.0100319736093621 -0.0171405243679603 0.0146432265580198 -0.1172338 -0.6224743 0.77381 126 126 126
-0.0186402215371468 0.0113309982471612 0.0101328696566616 -0.7895499 0.5395197 0.2924541 92 92 92
0.0165382096841458 0.0111047984586919 0.0154590803199957 0.6914835 -0.6072168 0.3913289 202 202 202
0.026952330866937 0.00723639157084977 0.00526873781487641 -0.139227 -0.3661855 0.9200674 96 96 96
-0.0186050034732226 -0.0360113574430607 -0.0116296591690019 -0.9551119 -0.257376 -0.1466935 71 71 71
-0.0176672619507849 -0.0297142877206701 -0.0254777137795668 -0.9619061 -0.2301563 -0.1475285 64 64 64
-0.00414381582651879 -0.0234798088672742 0.00965020273982409 0.3564529 -0.724146 0.5903846 137 137 137
-0.0104460108946967 -0.00130390720257012 0.0193835392954197 0.05683419 -0.3331302 0.9411664 56 56 56
-0.0289126292109292 -0.0103453358763934 -0.0096946601950571 -0.7778644 -0.5307735 -0.3364617 81 81 81
0.0293424716272197 -0.0124775789419059 -0.00301217831618888 0.6743218 -0.7364078 0.05471523 53 53 53
-0.0148370120741701 -0.0467569162639375 -0.0158198072387357 0.2174529 -0.9735662 0.06987849 105 105 105
-0.0202948723609859 -0.0147804633339761 0.0144402848013459 -0.1676413 -0.6006444 0.7817433 227 227 227
0.0114373299631221 0.0158470758478495 0.0259431163314263 0.5004007 -0.5200332 0.6922172 46 46 46
-0.00385341150429097 -0.0224187338043169 -0.0285966047687645 0.5931022 -0.4672523 -0.6556715 83 83 83
-0.0182088887063334 0.0029203118173321 0.021424439314118 -0.2454979 -0.3816423 0.8911116 82 82 82
-0.000653744546442514 0.0230930407340623 0.036570635999445 -0.2482052 -0.1992968 0.9479847 90 90 90
-0.0189954853554815 -0.0379171192719346 -0.00762288226819846 -0.6403376 -0.6406978 0.4236439 112 112 112
0.00805158974552089 -0.00387799353642593 0.00942065033952405 0.6648437 -0.4569492 0.5909148 191 191 191
0.0253713404147686 0.0189960269528783 0.0120642124174863 0.5711017 -0.606477 0.5531985 53 53 53
-0.0168175005790783 -0.0343427822393414 -0.021681341743796 -0.9054539 -0.3554592 -0.2319524 84 84 84
0.0454420875780341 0.00240516401284285 -0.00229122596463649 0.7022536 -0.6708227 -0.2384044 69 69 69
0.0128510472177115 0.00777785455707269 0.0165597767875212 0.6811894 -0.6212918 0.3872693 124 124 124
0.0164959617141536 -0.00452653795958535 0.00287519020666366 0.2400279 -0.4296137 0.8705278 79 79 79
0.0259163877124959 0.0177536240454016 0.010452581294891 0.5396439 -0.4910031 0.6838863 47 47 47
-0.0216547120266632 -0.0238613752953738 -0.012050617597113 -0.9323013 -0.2953143 -0.2088149 89 89 89
-0.0278175552514557 -0.0244792453900059 0.00125250971574126 -0.7297637 -0.6810105 -0.06057731 87 87 87
-0.0190269938568717 -0.0257287123191552 -0.0235591387724528 -0.9463426 -0.2924258 -0.1375606 93 93 93
-0.0234253748702318 0.0133556398632234 -0.00677961939116128 -0.8090668 0.5321778 0.2493947 76 76 76
0.0104397365753814 0.0207491603162846 0.0313339922437467 0.3831883 -0.5377723 0.7509778 77 77 77
0.0443889124756933 0.00315993623337285 -0.0042080105523376 0.6407169 -0.5738688 -0.5100554 73 73 73
0.0109244388407324 0.00846938221520122 0.0219058890036252 0.5213921 -0.5926923 0.6138942 79 79 79
0.0178121103429079 0.0196540677646517 0.0242585230857173 0.4993491 -0.4858622 0.7173482 42 42 42
-0.00598225949463549 -0.0240976996453134 0.00836495473386739 0.07241129 -0.7779459 0.6241448 95 95 95
0.0148116815989785 -0.00787214026041094 0.00233467730192388 0.2668867 -0.3427108 0.9007335 85 85 85
0.043387587300205 0.00182201098017454 0.00254770642505281 0.4062079 -0.5689175 0.715072 89 89 89
0.0171714762641129 0.0102929986653514 0.0131666120308853 0.6265708 -0.5284329 0.5728593 151 151 151
0.0340585692955711 -0.00568209652285401 -0.00519657162270853 0.5346233 -0.7030373 -0.4689527 56 56 56
0.0100114049303119 0.00472056887654226 0.0151438720592942 0.6331623 -0.6710641 0.3857181 86 86 86
0.026855497775879 0.0181203848987708 0.0101773071873205 0.5229869 -0.4960898 0.6930943 58 58 58
-0.0103111685736765 -0.0376289079569401 -0.00606093217364073 -0.06547599 -0.6960049 0.7150456 180 180 180
0.0272060006393056 0.0219186950047382 0.0137206488220834 0.6228813 -0.68642 0.3752951 53 53 53
0.0250094510618624 -0.00340725022904997 0.00170845712187323 0.131064 -0.3470174 0.9286556 233 233 233
-0.000467561913187975 -0.00797023139169883 0.0155373128408073 0.5088122 -0.4197676 0.7516018 222 222 222
-0.0187125730346622 -0.0266715343482404 -0.0210816493374796 -0.9517196 -0.275571 -0.1352421 92 92 92
0.02903137337373 0.0221156388581369 0.011878964616376 0.6348966 -0.6420463 0.4297475 61 61 61
-0.0356598285694041 -0.0162085239622505 0.0112825024410441 -0.450733 -0.7296535 0.5142426 119 119 119
0.0194915827083291 0.0249225630851553 0.0274018620404899 0.6298934 -0.5545243 0.5438172 80 80 80
-0.0148817799438064 -0.0127819919377082 0.0171773358317946 -0.08510025 -0.4485548 0.8896946 137 137 137
-0.0195956303692153 -0.0308785037885227 -0.000105943639244599 -0.1679771 -0.7469783 0.6432784 238 238 238
-0.00539632208808971 0.0251957854819137 0.0133581590235453 -0.6474612 0.6562243 0.3875096 122 122 122
-0.00874293590165998 -0.0241164088818118 0.00770271033313014 -0.1577402 -0.7325041 0.6622354 91 91 91
-0.0119427277880675 -0.019843213004315 0.0115799286343197 -0.1740112 -0.6902747 0.7023112 225 225 225
0.0122034614403428 0.0229118311916843 0.031596620935039 0.4262776 -0.5586565 0.7114705 65 65 65
-0.00697279914645854 -0.0438915380800068 -0.0128245948964468 0.3844254 -0.9215814 0.0538958 104 104 104
-0.0251115271251945 -0.0197418417962349 -0.00620461850832393 -0.7991596 -0.423738 -0.4263684 71 71 71
0.00744046959714151 0.033231605041296 0.0364638085398881 -0.628669 0.1556162 0.7619441 72 72 72
-0.0216753756810757 -0.0263996590861391 0.00369061551331334 -0.1531635 -0.6867999 0.7105258 243 243 243
-0.0213801806846838 -0.0293144273709596 0.00100136032286957 -0.2745195 -0.7171656 0.6405564 241 241 241
-0.0176443610762078 -0.0277004969894319 0.00310231420249246 -0.05964088 -0.6940732 0.7174296 242 242 242
0.00455278574534645 -0.0313357485538804 0.000107777203031623 0.3715259 -0.2384052 0.8972912 34 34 34
-0.0201511839162345 -0.0218151220751275 -0.0241302638936247 -0.9365512 -0.3228269 -0.1365822 76 76 76
-0.019110255525379 -0.0366128168487648 -0.00974041614771254 -0.9207985 -0.3878639 -0.04112956 64 64 64
-0.00580674331649922 -0.0390413828628661 -0.0160068314029519 0.5828509 -0.5092769 -0.633184 71 71 71
-0.0331763054823773 -0.00906331577239039 -0.00325033673157166 -0.7037243 -0.5554531 -0.4429943 91 91 91
-0.00528145628459553 0.023805129779231 0.0175671218398145 -0.6953329 0.6704552 0.2588475 101 101 101
0.0201230838424644 0.0306194728316925 0.0318806453031969 0.6388304 -0.4270249 0.6399574 80 80 80
0.000918320523333627 -0.0383064446444142 -0.00578312499745054 0.04512768 -0.8680742 0.4943791 99 99 99
-0.000648322876566354 -0.0106223819702994 0.0139991854386995 0.582922 -0.3664328 0.7252096 138 138 138
0.00724191735620794 0.00252905800615266 0.0191178645708837 0.5723019 -0.6717021 0.4704114 78 78 78
0.00251508819890134 0.030311577389216 0.0241953993041193 -0.7392698 0.6734092 -0.0005629227 88 88 88
-0.0100032227822489 0.020143361671364 0.013038787692232 -0.7649144 0.5691358 0.3016462 100 100 100
0.0232870724054268 0.0197371431551272 0.0178003165799848 0.7024824 -0.6441255 0.3026893 69 69 69
0.0301133743882795 0.0426923804247771 0.0266022062752335 0.7522786 -0.3357622 0.5668692 53 53 53
0.012688475957304 -0.0256845943533711 -0.00820878950723242 0.6976712 -0.55815 -0.4491365 53 53 53
0.0208623305039 -0.0183153031145155 -0.00511893565664506 0.7070055 -0.7065964 0.02940533 48 48 48
0.0284818018938728 -0.00511921536782234 -0.0106060626459699 0.5673765 -0.5563521 -0.6070883 66 66 66
-0.00820603933835473 -0.0152929847413259 0.0160224090566339 0.1120748 -0.4665967 0.8773407 92 92 92
0.0268914339921413 0.0232235616671068 0.0175229271881982 0.6430826 -0.6411266 0.4188097 42 42 42
0.0269513816181508 -0.0108785580088946 -0.0072281255895526 0.5550761 -0.5620311 -0.6131978 42 42 42
0.00670677375366946 -0.0346903102519356 -0.0073569049034154 0.615307 -0.5468153 -0.5677942 73 73 73
0.0181492374792702 0.0323855433383047 0.0343578055046109 0.5456206 -0.3988746 0.7370191 44 44 44
0.0244392465040892 0.0316620023919737 0.0283495126641324 0.7064091 -0.4609323 0.5371477 63 63 63
-0.0182820248268154 0.0176250497868383 0.0015543072067643 -0.7871596 0.4937541 0.3695763 70 70 70
0.0104909896079834 0.00199888015553185 0.0118107362087532 0.5738301 -0.5934234 0.564418 225 225 225
0.0053457682981195 0.0231487305101558 0.0346899388734672 0.2424606 -0.5894471 0.7705615 50 50 50
-0.021574753546818 -0.0215028350561099 -0.0152606085904957 -0.9446488 -0.2823697 -0.167051 96 96 96
-0.0243589522897314 0.00544052383833771 0.00518114902765116 -0.8164901 0.4831769 0.3160442 70 70 70
0.0238287983405607 0.0365631434543455 0.0319636610652008 0.6917286 -0.3307339 0.6419709 63 63 63
0.00788700920459551 -0.0266445086371706 -0.0135467947820554 0.6421649 -0.5580873 -0.5255119 57 57 57
0.0254816882988576 -0.00904771204114641 -0.00980876202468034 0.5222142 -0.5748259 -0.6299742 35 35 35
0.0252392792819998 0.0175928784204481 0.0110423928738038 0.5711998 -0.4957915 0.6541571 55 55 55
0.0452353461017041 0.01412745533716 0.00562246220066881 0.1945875 -0.0705827 0.9783424 64 64 64
-0.0260415876368141 0.00186841290641804 0.00684817669021615 -0.7993076 0.5097174 0.3182696 103 103 103
-0.0238680517057817 0.00343537108029679 0.0106381241205901 -0.8273554 0.4927339 0.2696226 119 119 119
0.00128610473159929 0.016970745077677 0.0304570682993534 0.1950739 -0.6070248 0.7703682 25 25 25
-0.0336485092121834 -0.020024096898219 0.00578019440084016 -0.7761422 -0.624386 -0.08800817 60 60 60
0.0169572243322924 0.00237072883987732 0.00648934921705557 0.4998337 -0.4466033 0.7420996 110 110 110
0.0294962761290316 0.0269247031542298 0.018020691988202 0.6615418 -0.5671694 0.4905928 37 37 37
0.0015090814870069 -0.00909214967701044 0.012773358144869 0.6278186 -0.3991656 0.6682144 32 32 32
0.0262514344279121 0.0216900176542474 0.0174249151215727 0.6528916 -0.6637381 0.3649441 59 59 59
0.0275078327175637 -0.0135559460772899 -0.00412965815251526 0.7364251 -0.651373 -0.182733 65 65 65
0.00547298813779928 -0.0011368776045646 0.0145289915317657 0.6521341 -0.574297 0.4948778 230 230 230
0.00687706425052781 0.0377481154224731 0.0244443084316918 -0.7831797 0.6216404 -0.01388347 93 93 93
-0.00961951578384612 -0.0396064518466843 -0.00807279705641278 -0.06196905 -0.6937749 0.7175209 193 193 193
-0.0109850120785038 -0.0357771753071476 -0.00432435605667747 -0.07580135 -0.6938136 0.7161542 244 244 244
0.0430248089300234 0.00947482270367195 0.00581444631823685 0.2087013 -0.1804619 0.9611853 45 45 45
0.0179796921894355 0.0155182904478339 0.020638409351951 0.6446124 -0.5991634 0.4748453 33 33 33
-0.0283495588754645 0.00374537442732881 -0.00179733124261433 -0.7930505 0.5458211 0.270463 94 94 94
-0.0324376859245596 -0.013373842189373 0.0136902052448845 -0.1918926 -0.2887318 0.9379825 63 63 63
0.0224603869120239 -0.0117029744789743 -0.000763606615356849 0.162501 -0.2210619 0.9616262 103 103 103
-0.0105088956862156 0.00278550954112955 0.0213619323298763 0.03110373 -0.5581892 0.8291305 73 73 73
-0.0217775603584203 0.0137432996789187 -0.000759751041099155 -0.7891235 0.5420397 0.2889241 105 105 105
-0.00132440576033277 -0.0340940926803889 -0.00141015161568175 -0.1381937 -0.7173969 0.6828207 173 173 173
0.0273037679413322 0.032674480030276 0.0229818197697274 0.6611331 -0.3493936 0.6639482 57 57 57
-0.000459345867111605 -0.0188744487052142 0.00834350480511287 0.7562604 -0.4694907 0.4556848 66 66 66
0.00111912747369125 -0.00111231857062111 0.0185848255844808 0.1970755 -0.555468 0.8078468 36 36 36
0.00362274692587983 0.0158783907636647 0.0296206598803834 0.1475584 -0.5910477 0.7930253 62 62 62
-0.00485531486290647 -0.0138402914589052 0.0154556807502278 0.4385861 -0.3040623 0.8456881 95 95 95
0.0276662895319926 0.0506403879151112 0.0346309950882893 0.7095687 -0.2866709 0.6436863 37 37 37
-0.0289432651858221 -0.00886079010837815 -0.0120486153250468 -0.7646179 -0.566505 -0.3072972 84 84 84
-0.0041727684678694 -0.0226466157451775 0.0108704483054902 0.3140196 -0.6901527 0.6519823 148 148 148
-0.0250855373044625 -0.0120081183156616 -0.0175483071732059 -0.8502505 -0.4828335 -0.2096327 100 100 100
-0.00961843129882789 0.024552355705961 0.00624003151253 -0.7024821 0.5468253 0.4555227 95 95 95
1.20712860294248E-05 -0.0287993879190148 -0.0197386475370598 0.6000596 -0.5374381 -0.5925274 59 59 59
0.0180480633454607 -0.0163899118768763 -0.00150815656733477 0.2175809 -0.360477 0.9070363 187 187 187
-0.00965049205151347 0.0184778341082348 0.0203796630916818 -0.5859267 0.8022 0.1147388 104 104 104
-0.00148683941584871 -0.0368291379419882 -0.00456035016428347 -0.138602 -0.724835 0.674836 98 98 98
-0.0261401682755942 -0.0252048641612385 -0.00102200598278684 -0.7963751 -0.5255191 -0.2993601 32 32 32
0.0325056574113165 0.0392830134631517 0.0226327173257813 0.5474154 -0.1970809 0.8133237 57 57 57
0.0206926919341579 0.000278638399955788 0.00445587414954901 0.3107721 -0.3092738 0.8987605 235 235 235
-0.00750013471717992 0.0128810699080809 0.0299913987875659 0.04567365 -0.5610741 0.8265045 68 68 68
0.0218053153060547 0.0322368876936856 0.0310587494265648 0.65169 -0.3964266 0.6466421 81 81 81
0.0358482535865399 0.0193579777430125 0.00687064294381851 0.07203914 -0.1404439 0.9874644 51 51 51
-0.0328972566782775 -0.005977058283402 0.00470801106385282 -0.8693562 0.4634868 0.1714636 112 112 112
0.013657232202287 -0.0187528131165868 -0.00130602456167023 0.2974936 -0.3568765 0.885515 151 151 151
0.00930356732498394 0.0306321936559505 0.0387647176351929 0.1435454 -0.3714494 0.9172895 80 80 80
0.0143412045136846 -0.0018174949179246 0.00577032143260003 0.4207006 -0.5056984 0.75318 102 102 102
-0.0043950715172878 0.0217116137574161 0.0271052139166767 -0.7050461 0.6367595 0.3121656 119 119 119
-0.0174523054852815 -0.0413946271595974 -0.0106187519413926 -0.4900002 -0.707468 0.5093023 196 196 196
0.0254781321804933 0.00810496654520898 0.00529609239095702 0.07132973 -0.4302522 0.8998862 83 83 83
-0.00169551695997194 -0.0332241413217603 -0.000578980098967452 -0.1341896 -0.7030274 0.6983879 201 201 201
0.0159015838524033 0.00640002553884489 0.0118682134162549 0.5662261 -0.5725815 0.5929068 228 228 228
0.00120632902735673 -0.038283166654377 -0.0103143806563553 0.6137952 -0.631879 -0.4732699 87 87 87
0.0444816354720396 0.000963737665987785 -0.00241895194441138 0.6764913 -0.6639022 -0.3187372 88 88 88
0.0266450756928225 0.027118675593072 0.0218691906946709 0.5607767 -0.4469388 0.6969757 63 63 63
-0.00736097228616783 -0.0327472669438091 -0.000921727331827216 -0.1114975 -0.7439614 0.6588549 193 193 193
-0.0224912357227032 -0.0167666277662666 -0.0274704478725099 -0.9130788 -0.4063465 -0.03419777 58 58 58
0.0190491997678932 -0.0210148247518602 -0.00262812846286725 0.6057313 -0.5096126 0.611052 84 84 84
-0.0115714669774452 -0.0274730988098895 0.00381955227447217 -0.100252 -0.7052529 0.7018318 84 84 84
-0.029946331865875 -0.00403636385088835 0.00806642325931267 -0.7079409 0.6027893 0.3680551 103 103 103
-0.0183640060792309 0.00589017595716601 0.0234576151056331 -0.6713898 -0.1974071 0.7143291 60 60 60
0.0193873823647213 -0.0105172042692478 -0.0141674552462265 0.6162596 -0.5464754 -0.5670879 57 57 57
-0.0148006765505349 -0.0314394401943814 -0.031035595583903 -0.06397711 -0.5820072 -0.810663 114 114 114
0.00373374458166431 0.0193770655893906 0.0324008429864763 0.1615061 -0.6058021 0.7790504 80 80 80
0.0181096895943917 0.0254079077967513 0.029251201852631 0.6185142 -0.5849996 0.52461 71 71 71
-0.0125317161533123 0.0228792875460038 0.00635726483403826 -0.6810257 0.5579824 0.4741935 113 113 113
-0.0206106007558611 0.00597858196444045 0.0154109855391886 -0.8882162 0.3804151 0.2575974 115 115 115
0.00592138424414301 0.0125088482200473 0.0270062016902238 0.2091274 -0.5568592 0.8038492 105 105 105
-0.0257064041663515 0.0106167614543972 -0.00701316502870358 -0.820177 0.5165173 0.246007 76 76 76
0.0024747234300162 -0.0299975457730643 -0.0160017664213974 0.6337432 -0.5588323 -0.5348607 34 34 34
-0.0249767290213634 -0.0131058234006831 -0.0173066370569183 -0.8577941 -0.4713718 -0.2049338 87 87 87
-0.00523274797495699 0.0221415161953535 0.0240597316677372 -0.725579 0.6723088 0.1467517 95 95 95
0.00163823530929585 -0.0329196995731866 -0.0138995558765423 0.6448902 -0.5422591 -0.5385831 35 35 35
0.0212253808875946 -0.00361831680558755 0.00254435088644805 0.2248196 -0.3559649 0.907053 193 193 193
-0.0245419547620318 0.00505615930119951 0.00679750694859332 -0.8043259 0.5042316 0.3143412 89 89 89
-0.0115547273703869 -0.0304589016742176 0.000799392570923929 -0.1056666 -0.7232298 0.6824759 82 82 82
-0.00105994898677286 0.0268287753895996 0.019953568497045 -0.6635314 0.7383445 0.1207208 94 94 94
0.0115940761663134 0.0401820704925266 0.0299416612054921 -0.6542826 0.5811833 0.4838803 116 116 116
-0.0138824397505108 -0.00167103308457528 0.0191746538391473 0.02808139 -0.3191408 0.9472912 72 72 72
-0.016816180483032 -0.0267172950612026 -0.0331367150376719 -0.6179491 -0.3669599 -0.6953269 63 63 63
0.0370138469012868 0.0325334101879426 0.0130410155412223 0.7349226 -0.5535365 0.391773 62 62 62
-0.0281280785826037 0.00327099535990838 -0.000163417455053938 -0.7948125 0.5442295 0.2684909 96 96 96
0.0305923344163319 0.0242772433478848 0.0135066616661175 0.6809375 -0.6421842 0.3520278 57 57 57
0.0186200803277523 0.005820552726716 0.00822224655226678 0.5879984 -0.5428804 0.5996155 230 230 230
0.00446145607623238 0.0320798602939458 0.03239788479656 -0.6826531 0.6102216 0.4020128 64 64 64
-0.0256275246525202 -0.0278399745517683 0.00132915761442848 -0.6488752 -0.7486959 0.1357035 96 96 96
-0.0185000184517263 -0.0124355933950658 0.016403317332518 -0.2212553 -0.5341966 0.8158922 73 73 73
0.0431712332337919 0.00386938371019996 0.00370994073591951 0.2673872 -0.4268315 0.8638976 101 101 101
0.0153984922810357 0.0272784059184643 0.033321898716269 0.4462834 -0.5219567 0.726906 64 64 64
0.0106162655358735 -0.0254988551899773 -0.00215128321892061 0.4186802 -0.2115163 0.8831578 80 80 80
-0.00215499824110443 -0.0234963676246293 0.00558037320371363 0.6399683 -0.4643856 0.6121982 72 72 72
0.0192086934045652 0.000163780093472066 0.00466445506840907 0.3643727 -0.3351546 0.8688521 162 162 162
0.00817606422334238 0.0352448395757461 0.017970460536278 -0.6604232 0.7332633 -0.1617593 82 82 82
0.0028950311765743 -0.0386652871024441 -0.00850622469897783 0.5795932 -0.6867971 -0.438613 73 73 73
-0.0299686068489176 -0.0080610830957426 -0.0115765167227359 -0.7671565 -0.5656351 -0.3025356 88 88 88
0.0482853679327069 0.00684147866133522 0.00294732085166066 0.505216 -0.5310137 0.6802803 49 49 49
-0.019178204183075 0.0154197997299134 0.00284107678351347 -0.776974 0.5179141 0.3578777 90 90 90
-0.0282999241860611 -0.0194323071651292 -0.00148652608479188 -0.7986754 -0.3549803 -0.4859081 82 82 82
0.00501409523293717 0.00198093613169747 0.0203429123684783 0.3269147 -0.6382567 0.6969614 59 59 59
0.0434772196137767 0.00757542902255814 0.00520359830870892 0.2303567 -0.3004192 0.9255723 89 89 89
0.0411174464276542 0.0116873039020624 0.00631313316415166 0.149179 -0.08785347 0.9848997 69 69 69
0.0202177998758901 0.00518017496706591 0.00574029141968374 0.4637824 -0.419158 0.7805206 142 142 142
0.0309842953757653 0.00628026335407006 0.00677822606471407 -0.1093468 -0.2595725 0.9595131 101 101 101
0.0167825939715915 0.00023855616928381 0.00555681430567384 0.4334225 -0.4524789 0.7793638 86 86 86
0.00216180214456774 -0.0244842452179855 -0.0210244724104384 0.6046627 -0.5022569 -0.6181594 52 52 52
-0.00834416572547303 0.00936729994481433 0.0273490653304596 0.05945725 -0.6598555 0.7490364 82 82 82
0.00715507525809667 -0.0188715720140371 -0.0202234253151519 0.6579609 -0.4707385 -0.5877863 53 53 53
0.018298418105438 0.0192855053986787 0.0237093333530328 0.4903466 -0.501221 0.712978 32 32 32
0.00326651976860415 0.0247014936710523 0.0368940094531315 -0.1279525 -0.340275 0.9315799 74 74 74
0.0249690788349204 0.0102455933057054 0.00706059953719901 0.2338383 -0.4513168 0.861181 79 79 79
0.0174289038944395 -0.0172037968088339 -0.00980934387727245 0.6189212 -0.4976908 -0.6076516 53 53 53
-0.000726494048164827 -0.0170083413558315 0.0106255460691698 0.7350321 -0.3937523 0.5519845 107 107 107
-0.0258225544767328 -0.0102690806976029 -0.0193821674314596 -0.8342827 -0.5171752 -0.1910556 94 94 94
-0.028098518110212 0.005642129281344 -0.00547524925096599 -0.8122469 0.5065905 0.2891729 96 96 96
-0.0248215898873339 -0.0257840145164809 -0.00214022174678191 -0.7968497 -0.507475 -0.3278714 60 60 60
0.0299700566147809 0.0457081676612844 0.0295112989757585 0.7548363 -0.391516 0.5262484 86 86 86
0.0320172838779649 -0.00415269708182331 -0.00840046095126606 0.5286368 -0.5827178 -0.6172382 44 44 44
-0.0132487998928617 -0.023404895916431 0.00743831958669694 -0.0943917 -0.7114254 0.6963937 90 90 90
0.0111669654825461 0.0295330928144515 0.0368734782820082 0.3493831 -0.4839803 0.8023058 46 46 46
-0.0303895771858036 -0.0110886612941037 -0.00539240169031052 -0.7646606 -0.5006984 -0.4057035 74 74 74
-0.00502749774674482 -0.0259205024373288 -0.0267354668973351 0.5991687 -0.4896005 -0.6334731 103 103 103
-0.0172681159024974 -0.0412025873230305 -0.0146350415723706 -0.9306403 -0.3654516 0.01881156 90 90 90
0.0116792374393841 -0.0179125687269401 -7.20818291042868E-05 0.3448656 -0.3324335 0.877813 240 240 240
0.0095682514557156 0.000861965819781374 0.0121807960962665 0.6336238 -0.5369923 0.5569203 203 203 203
0.017069065658633 -0.0155447477151857 -0.000671041194964195 0.1935675 -0.3314642 0.9233976 214 214 214
0.0173331360160929 -0.0209269297802969 -0.00789694108853606 0.6629127 -0.5680946 -0.487663 63 63 63
0.0363838377371382 -0.00543580528695253 0.000520458251830891 0.329539 -0.5959677 0.7322749 175 175 175
0.00579703839880619 -0.000342347777354424 0.0157399774523794 0.6380088 -0.619159 0.4578066 205 205 205
-0.00998796092143861 0.00233006440927419 0.020751887930684 0.007251299 -0.5170074 0.8559502 65 65 65
0.0197796417168226 -0.00823844342683389 0.000735063545729553 0.2150383 -0.3133266 0.9249784 238 238 238
0.039286143551752 0.00391999997045778 0.00451225704253055 0.2295234 -0.4046107 0.8852171 90 90 90
-0.00133310764269456 -0.0420966598798634 -0.0099535060580549 0.4547102 -0.8870172 0.08024428 87 87 87
0.000274173900591812 0.0267124580505356 0.0335523873169296 -0.7227538 0.4124339 0.5545495 99 99 99
-0.0341959010699342 -0.00351674689626702 -0.011685201702933 -0.8820772 -0.3761652 -0.2836186 85 85 85
0.0419430361029782 1.85483944372677E-05 -0.00385654892606241 0.5917597 -0.6207159 -0.514327 84 84 84
0.00868470046429737 -0.0182506578947723 -0.0194106096061612 0.6591381 -0.4780797 -0.5804969 74 74 74
0.00288867425949269 0.0307586186791265 0.027689005988402 -0.751008 0.6534519 0.09480327 115 115 115
-0.0180298753323855 0.0112834215996692 0.0115860389177259 -0.8105962 0.5624498 0.1630462 103 103 103
-0.0321432030385642 -0.0146593741071361 0.013089266011629 -0.1580998 -0.4464429 0.8807344 130 130 130
0.0166312377333511 -0.0112059476906557 -0.0168607975391192 0.6412853 -0.5274724 -0.5572486 51 51 51
-0.00636990359349987 -0.0155985143038592 0.0154865179927041 0.3014695 -0.4091063 0.861248 70 70 70
0.00196064414512298 -0.00546011208519448 0.0147577021047844 0.5685369 -0.4532856 0.6865114 190 190 190
-0.0279063258577414 -0.00795605642953168 -0.0176594331823054 -0.7940801 -0.5632132 -0.2285337 99 99 99
-0.0275611861570662 -0.0221427875753438 -0.000889454548047841 -0.7988211 -0.4109479 -0.4393252 76 76 76
-0.0141648481334027 -0.0094704592064816 0.0176670339761338 0.03295527 -0.2132427 0.9764433 64 64 64
0.000252291031157537 0.0276632752975288 0.0295468174356819 -0.7590248 0.6372783 0.1332581 86 86 86
0.0110984832695382 -0.0166914527055737 -0.0176774573007006 0.6268075 -0.507166 -0.5915193 57 57 57
-0.000889473736122248 -0.035836123222197 -0.0140592173399552 0.6338387 -0.4681543 -0.6156948 51 51 51
-0.000502392828777509 -0.0317031762661669 -0.0179776997992604 0.5945036 -0.5754058 -0.5616704 47 47 47
0.010961856807322 -0.0150074530978126 0.00115422830464867 0.3618063 -0.2915887 0.8854786 231 231 231
-0.0205184029385874 -0.0286220076739238 -0.00974091942811289 -0.9441941 -0.2215715 -0.2437285 52 52 52
