ply
format ascii 1.0
comment File exported by Rhinoceros Version 7.0
element vertex 469
property float x
property float y
property float z
property float nx
property float ny
property float nz
property uchar red
property uchar green
property uchar blue
end_header
0.0365456367669048 0.0601014440491585 -0.00101328109406018 0.8310957 0.5553131 0.03012161 125 125 125
-0.0568535711261848 0.0319331783411212 -0.0158578549873467 -0.3493855 -0.1629837 -0.922695 138 138 138
-0.0001524960919288 0.0561984165629785 -0.0177670750384759 0.1212114 0.05645025 -0.9910203 83 83 83
0.00331520527308049 0.0645114749581952 -0.00675554327913863 -0.2561172 0.966512 -0.01608336 109 109 109
-0.00474627357772572 -0.0405982292497451 -0.02322343339892 -0.04288891 0.06342807 -0.9970644 173 173 173
-0.0198298696067156 0.0421036568759707 -0.0208205658437601 0.06965283 0.05829218 -0.9958667 47 47 47
0.0339077288867089 -0.0165934914827193 0.0115178684527513 0.9949652 -0.1000639 -0.005607642 132 132 132
-0.0436461107485147 -0.0234345999307719 -0.00308766642973057 -0.6964052 -0.5005018 0.5143129 60 60 60
0.0068418206187828 -0.0224125857884692 -0.0228654855047723 0.03211764 0.1001694 -0.9944519 135 135 135
-0.00260738873907629 -0.01809931342288 -0.0221517326056357 -0.05173303 0.01607526 -0.9985316 215 215 215
-0.021525383250399 0.0355168237418748 -0.0215481826898663 0.0004568039 0.08105564 -0.9967095 59 59 59
0.0382062546400026 0.00524430861799363 -0.0247220084867738 0.1765856 -0.06931966 -0.9818413 125 125 125
-0.0393504050480127 -0.0184039964874925 -0.0186480237597672 -0.2224249 -0.002084709 -0.9749476 80 80 80
0.0122389124846127 -0.0396212990320712 -0.0241901910198659 -0.04151712 0.09573947 -0.9945402 192 192 192
0.0240573903566839 0.0314697331560021 -0.0187099644504712 -0.0224244 0.07640795 -0.9968244 165 165 165
0.037738420697691 0.0169943295987234 -0.0243433160617427 0.3189331 0.07366042 -0.9449105 141 141 141
0.0331669953731413 -0.00452343293925561 0.0300472138121274 0.9729974 -0.120385 0.1969353 71 71 71
-0.0479346259637534 0.0586716117484922 -0.0191285563199914 -0.2064059 0.3729421 -0.9046053 122 122 122
-0.0169511608851245 0.061520859105231 -0.00602864299648953 -0.0295624 0.9978436 -0.05860223 131 131 131
0.0341943353172307 -0.0155893641374614 -0.0219418627201304 0.4347477 -0.3528235 -0.828559 111 111 111
-0.0163148949105421 0.0216007182727243 -0.0213903471748034 -0.1184931 -0.002693673 -0.9929512 202 202 202
-0.0156627474923585 -0.0566369458052169 -0.0211468509418923 -0.3066702 -0.3064974 -0.9011175 100 100 100
-0.000447474100581324 -0.0634747848725636 -0.0147990115973764 -0.08500759 -0.9961014 0.02357132 84 84 84
0.028360405869345 -0.0240131566439095 0.0324883395902427 0.919843 -0.1984818 0.3383695 84 84 84
0.0388154036140294 0.00858767079976874 -0.00496701918704073 0.9793268 -0.1798531 0.09258473 91 91 91
-0.0514655489585132 0.00918728809205027 -0.0159117112919727 -0.3168611 -0.03168683 -0.9479425 196 196 196
-0.0403116759239306 0.0267097708811157 -0.0193003903194347 -0.1386207 -0.2113355 -0.9675338 76 76 76
0.00549736899920905 -0.0508844588769817 0.0289491397313063 -0.3510315 -0.75959 0.5475398 75 75 75
0.00728363526467346 0.0225722982503778 -0.0226619168218555 0.01201592 0.1443993 -0.9894465 92 92 92
-0.0183037290420973 0.0230601392881726 -0.021323536403081 -0.08075168 -0.01479416 -0.9966245 154 154 154
-0.00115906690140211 -0.0623356350036486 -0.000513721401252831 -0.1493416 -0.9884028 0.02751338 156 156 156
-0.0491884999297199 0.0451884545872328 -0.0199335913063967 -0.2431999 -0.05639143 -0.9683356 108 108 108
0.0128347101734652 0.0478691791540202 0.0118210446864806 0.2806133 0.3278813 0.9020809 72 72 72
0.0114608662050428 -0.0621864216955563 0.00209855860169983 -0.1400415 -0.9708945 0.1942993 84 84 84
-0.038720529203855 0.0326173099712532 -0.0209138268891105 0.02970601 -0.06207387 -0.9976294 113 113 113
0.0317572540466435 -0.0343857546752313 0.00735230733425446 0.9790415 -0.2021852 0.02447082 152 152 152
0.0124012978841579 -0.0652351723046114 -0.0195012679845818 -0.02587002 -0.9706838 -0.238964 81 81 81
0.0310686211150601 0.0452526126332033 -0.0188269893711658 -0.1445482 0.04980475 -0.9882435 142 142 142
-0.0417366500208161 0.0266786077539238 -0.0189528807073202 -0.1324625 -0.2265254 -0.9649559 98 98 98
0.0257590242803887 -0.0325541072706306 -0.0256506445978995 0.01017465 0.1630308 -0.9865685 112 112 112
0.00866886787212184 -7.99371000255178E-05 -0.0211312549766773 -0.01539825 -0.01710319 -0.9997352 204 204 204
-0.0263275547106852 -0.00789568293996168 -0.0208577564131283 -0.1340843 0.01731824 -0.9908186 42 42 42
0.0380925476877434 0.0147262193260904 -0.0241264043645698 0.2399946 0.04071987 -0.9699199 103 103 103
-0.0258299183520938 -0.035333979989457 -0.0212872210947459 -0.3089454 -0.1301064 -0.9421386 96 96 96
0.0298700864290953 0.0258796686841827 -0.0202704978093705 0.05739889 0.3712467 -0.9267585 142 142 142
0.00034700504572438 -0.0484264484979002 0.0273524341897957 -0.5303475 -0.6085321 0.5902712 152 152 152
0.0137233679831694 0.028676324963663 -0.0193337006050318 0.04984495 0.294018 -0.9544993 166 166 166
0.0023778048515255 0.0560070482362856 -0.0173297220632599 0.1206313 0.07664365 -0.9897342 70 70 70
0.031845133264401 -0.0333524577900262 0.00964755409561224 0.9828466 -0.1762164 0.05440959 120 120 120
-0.0561912363774364 0.0176444212120781 -0.0145822519599517 -0.3573659 -0.1038371 -0.9281743 139 139 139
0.0193666888488622 0.025603608104676 -0.0203890970216825 -0.0400513 0.4727669 -0.8802769 141 141 141
-0.0607751677601724 -0.00605173071969856 -0.0127827697779399 -0.5261018 -0.01927012 -0.8502033 191 191 191
0.0226025933244443 -0.0435467517124977 -0.0253637560631658 0.1291213 0.004937553 -0.9916165 85 85 85
0.040848169270729 0.0210380992730592 -0.0206300929845339 0.6222305 0.2348329 -0.7467816 164 164 164
0.0347447832333851 -0.0175010334018648 -0.000922863787030215 0.9870532 -0.1516407 0.05226004 118 118 118
0.00754025999465124 0.0549020482708469 -0.0175908506145588 0.08443303 0.1300295 -0.9879086 100 100 100
0.0368339406961335 -0.000630598181726505 0.00374967065063969 0.9757707 -0.1678355 0.1403666 138 138 138
0.0405780374045857 0.040290616737674 0.00836891155847663 0.9355576 0.2757299 0.220692 75 75 75
0.0279177994423572 -0.0172790264945262 0.0400099976878101 0.9379641 -0.1486704 0.3132417 75 75 75
-0.0172366291748398 0.0465217679140839 -0.0205983092685464 0.04914197 0.01726864 -0.9986425 70 70 70
-0.0127836956493068 -0.036700661129381 0.0211905344119797 -0.6299157 -0.5058029 0.5893807 76 76 76
-0.0391185878202598 0.0404852071046673 -0.0206254271778316 -0.04289421 0.02218246 -0.9988334 33 33 33
-0.00152116884608677 0.0363833515996299 -0.0181196900270757 0.0715805 0.1314942 -0.9887292 120 120 120
-0.00575282245060693 0.058196443866239 -0.0186100364394242 0.1163414 0.2431541 -0.9629853 59 59 59
-0.0359983254612435 0.0343072861819662 -0.0202729909813044 0.06939062 -0.07518655 -0.9947522 141 141 141
-0.0340187122655933 -0.0349672046911125 -0.018274628909823 -0.3592895 -0.1805623 -0.9155918 161 161 161
-0.0109977608355085 0.0215242188531484 -0.0221983154550829 -0.05076959 -0.03461193 -0.9981105 203 203 203
-0.0424019841965602 -0.00182183114119638 -0.0177383787867779 -0.2078833 -0.00861623 -0.9781157 93 93 93
0.00964644149218907 -0.0514465520546026 0.0294695687396783 -0.2605383 -0.821537 0.5071458 99 99 99
0.035440351165458 0.00814427356503367 0.0244792849477369 0.9939319 -0.1099288 -0.003874896 115 115 115
-0.038459395375873 0.0146033482330234 -0.0183985153608357 -0.1800506 -0.003450476 -0.9836513 98 98 98
-0.0268448224163529 0.0358651144702324 -0.0212122075961979 -0.0783278 -0.03553988 -0.996294 44 44 44
-0.0459472349872514 -0.00779269341033073 -0.0173255040617554 -0.1838768 0.009021289 -0.9829079 164 164 164
-0.0281895672091195 -0.0441260732066657 -0.00389306314065785 -0.6434661 -0.3473817 0.6821124 115 115 115
-0.0130063023450053 -0.0551440343788729 -0.0217945115549379 -0.1478112 -0.1761183 -0.9732082 102 102 102
0.0114634013497534 -0.0374751161541456 -0.023993979376282 -0.04869427 0.06683388 -0.9965752 196 196 196
-0.00031624493128124 0.0500914870972726 -0.0179496742514407 0.07124192 -0.02425612 -0.9971641 85 85 85
-0.00886957717503689 -0.0368070691906226 -0.0230872230804335 0.06195282 0.01472411 -0.9979705 118 118 118
-0.0563236488393328 0.0476359862736278 -0.0188424320305389 -0.1939996 -0.1322977 -0.9720399 151 151 151
-0.0217530792338585 -0.0194354070108493 -0.0221802446100887 -0.0970743 0.121583 -0.9878229 166 166 166
-0.0332124884204505 -0.0252353341174754 -0.020165227130563 -0.263836 -0.06155664 -0.9626014 62 62 62
0.0100400585499929 0.0089063311095734 -0.0212389070027129 -0.03355931 -0.04483277 -0.9984307 60 60 60
-0.0319880720827377 0.0625304135709304 -0.00899853592491684 0.01730853 0.9976016 0.06701786 40 40 40
0.00359030082010436 0.0646845248500918 -0.00111020577336601 -0.2405906 0.9705615 0.01124532 56 56 56
-0.0381164155494074 -0.0260621129657976 0.0028463783140833 -0.6659936 -0.4899169 0.5625247 76 76 76
0.0070699795904563 0.060533923725987 -0.0155857593696661 0.1310377 0.3712147 -0.9192545 182 182 182
0.0199241811268087 0.0116101772790833 -0.0221948491338906 -0.0621114 -0.05305545 -0.9966581 199 199 199
0.0253882610987173 0.0133850044025832 -0.0226864924983897 -0.1534953 -0.04478287 -0.9871341 188 188 188
0.0319970770236502 -0.0342426404213285 0.00514302479952755 0.9781441 -0.207897 0.003591572 116 116 116
-0.0276091891223933 0.0284702556180212 -0.0200300691080961 -0.1327231 -0.03327676 -0.9905944 64 64 64
-0.021267139612712 0.0558567195012853 -0.0213506042061034 0.03189458 0.07535349 -0.9966466 54 54 54
-0.0315955249346191 -0.0477995950620382 -0.0083317715070047 -0.7300363 -0.278185 0.6242277 80 80 80
-0.0577095799540253 0.0382459404276301 -0.0167169668545498 -0.310348 -0.1644662 -0.9362879 136 136 136
-0.0193102040790647 0.0236879659808669 -0.0213712638612878 -0.08453733 -0.01409136 -0.9963207 65 65 65
-0.0457961312950377 0.0110664524477624 -0.0170240246488127 -0.1383868 0.02284004 -0.9901149 124 124 124
-0.028524411631464 -0.0436790694694753 -0.0185448814704768 -0.3293701 -0.195478 -0.9237444 162 162 162
0.0133480538313351 0.0599974049236971 -0.0148069775304793 0.03213237 0.5206844 -0.8531443 174 174 174
0.0294339415562903 -0.0468703495351259 -0.0027699336808395 0.9534137 -0.3016385 -0.004068943 179 179 179
0.0180803193432837 -0.0356518463488684 -0.0244713290595969 -0.1008665 0.07592908 -0.9919984 64 64 64
0.0353251718495309 0.00218993782938837 -0.024607990489809 0.02910642 -0.04593551 -0.9985203 79 79 79
-0.0420470855390502 0.00445898642608711 -0.0178346758948491 -0.1616011 0.01717206 -0.9867067 111 111 111
0.0337363691305059 -0.0192830891923563 -0.0200067193095755 0.7449665 -0.3705584 -0.5547174 138 138 138
-0.0152085983479857 0.00274736457621061 -0.0217780390812044 -0.0812527 -0.03561867 -0.9960569 100 100 100
-0.0221994412630409 -0.0590187153051114 -0.0169103885683047 -0.2946669 -0.4919734 -0.8192275 136 136 136
-0.0397272094506609 0.0566048197354332 -0.0213163327167631 -0.1348417 0.06700071 -0.9885993 75 75 75
0.0303120844540001 -0.0279643463917554 -0.0208396321411032 0.7994345 0.108819 -0.5908155 148 148 148
-0.0435965958533835 0.0246552819355075 -0.0187320472125517 -0.1755457 -0.1916839 -0.9656299 68 68 68
0.00424394375426518 0.019906818016227 -0.0229382183837896 -0.02698101 -0.08134071 -0.9963211 212 212 212
-0.0379604700711633 -0.0299650918288454 -0.0174790910698069 -0.3343058 -0.168223 -0.9273298 150 150 150
0.0365493015950147 0.0160543099008226 -0.0247317748167443 0.2293257 -0.008507608 -0.9733126 106 106 106
-0.0178897688152504 0.042371636237599 -0.0207462511309532 0.05321323 0.05198355 -0.9972292 99 99 99
-0.0303995108234201 -0.0250697419942736 -0.0208163933538554 -0.2427435 -0.004971371 -0.9700778 79 79 79
0.0045491180064956 -0.0620158982924626 0.00184624401396871 -0.005928587 -0.9749336 0.2224169 73 73 73
-0.00567258678312665 0.030468864911487 -0.0197340163078353 0.09716003 0.38124 -0.9193563 152 152 152
-0.00382530011494842 -0.0455886619528016 0.0249678572320597 -0.6699594 -0.494306 0.5539097 169 169 169
0.0116962437595234 -0.00233988423081799 -0.0211334104616236 -0.03209252 0.02021398 -0.9992805 63 63 63
0.036081157810651 0.00986179501635753 0.0171350606877614 0.9843448 -0.1542242 0.08532428 122 122 122
0.00392770946431087 0.0122580715372835 -0.0218753165862886 0.05189057 -0.1106403 -0.992505 45 45 45
-0.0504785859546493 -0.0249916813474587 -0.0142874201070793 -0.4944671 -0.4783021 -0.7257612 115 115 115
-0.00228208566557964 0.00641464784595991 -0.0216283549586294 0.0575495 -0.05852182 -0.996626 127 127 127
-0.0378733442491872 -0.0345578784377853 -0.0173906153974403 -0.3314891 -0.1834187 -0.925458 207 207 207
0.0346136508347126 -0.0189186192936484 -0.010336051765812 0.9842237 -0.1517012 0.09105266 104 104 104
-0.0241488010430317 -0.0301504449402408 -0.0224433959722103 -0.2366099 -0.03201776 -0.971077 197 197 197
0.0407699466877403 0.0196939394590057 -0.0207480914844399 0.6390809 0.1984493 -0.7430972 171 171 171
-0.0458649489737399 -0.0316246898265842 -0.0119623509783202 -0.9002236 -0.3551366 -0.2519434 67 67 67
0.031327285037988 -0.0388891045556523 -0.00280665212455217 0.9845446 -0.1738786 0.02093145 129 129 129
-0.0507959434407002 -0.0172842276684009 -0.0157293766072926 -0.3096038 -0.05959561 -0.9489962 175 175 175
-0.0601592361874776 -0.00416261826589892 -0.0128647104665347 -0.5105402 0.01506297 -0.859722 180 180 180
0.0171831306639039 0.0642276120256169 -0.0121486258306276 0.3001509 0.4836002 -0.8222167 174 174 174
-0.0481491980450359 0.0151859727141579 -0.0167673354177169 -0.1904044 -0.01836724 -0.9815339 175 175 175
0.0161414944499971 0.0263257584061218 -0.0201134798440064 0.03165517 0.4381962 -0.8983218 155 155 155
0.0115404878030438 -0.0633353110053667 -0.0034105371319314 -0.1041374 -0.9785806 0.1775822 54 54 54
-0.0536687896916237 0.0154141168811781 -0.0152700688467716 -0.3518159 -0.03394169 -0.9354537 150 150 150
-0.044546673031312 0.0106021392592817 -0.0175789054100744 -0.1524601 0.01863413 -0.988134 115 115 115
-0.0199996736877766 -0.0566519937375933 -0.00223526178933353 -0.5084751 -0.6098042 0.6079408 124 124 124
-0.00930161121928252 -0.0326633303042843 -0.0231916765168665 0.04976199 0.0312127 -0.9982733 211 211 211
-0.00627695152471563 -0.0617162895671073 -0.00408385373812747 -0.1966535 -0.9642155 0.1778086 101 101 101
0.0142200791013845 0.0195478906848268 -0.0227434121173282 0.009800687 -0.03264511 -0.999419 145 145 145
-0.0226794891292474 -0.0132415536918178 -0.0216403602571486 -0.09462245 -0.005438937 -0.9954984 166 166 166
-0.00621478191142089 -0.063215060575432 -0.0169378679242996 -0.1907984 -0.9711249 -0.1432214 90 90 90
-0.023959176930278 -0.0578395037755643 -0.0170070466996896 -0.247163 -0.4617304 -0.8518894 147 147 147
-0.0402758940370291 0.0105436308844915 -0.0183011125682442 -0.200731 -0.005697838 -0.9796298 97 97 97
0.00673404515515319 -0.0589357269605522 0.014218615395185 -0.2443127 -0.834237 0.4943277 82 82 82
0.00740153549985578 -0.00229713479077187 -0.0212301998146172 -0.002496221 0.008467001 -0.999961 151 151 151
-0.06347307400033 -0.00323097246027015 -0.0108826093621122 -0.5267109 -0.01487508 -0.8499143 140 140 140
0.0249779072403786 -0.0538949332274459 -0.00908132047220622 0.8962384 -0.3865025 -0.2176523 121 121 121
0.0394061924503637 0.0281563957177238 0.00294539260949145 0.9922732 -0.1048569 0.06632539 98 98 98
0.0310418773646597 -0.00231648473984847 0.0407691015225939 0.922161 -0.223818 0.3154751 82 82 82
0.0111544723626626 -0.0621787956170101 -0.0230343278510374 -0.03067653 -0.4697313 -0.8822763 100 100 100
-0.0442961516078157 -0.0294909086503128 -0.0156476552347635 -0.5095911 -0.2159546 -0.8328749 195 195 195
0.0207493168736215 0.0554949939243028 0.00759532733650281 0.1512172 0.4890954 0.8590222 19 19 19
-0.0345246426627952 0.0289684211774965 -0.0196687273624908 0.03795255 -0.04721896 -0.9981633 23 23 23
0.00392212801646652 -0.0369379932700968 -0.0235969275177627 -0.06598955 0.06885545 -0.9954417 66 66 66
0.00878450234916217 -0.0538054824322796 0.0210531421998144 -0.21239 -0.925517 0.3135424 60 60 60
-0.0173413286666846 -0.0482839634698096 -0.0221209522156361 -0.2322981 -0.1024755 -0.9672313 186 186 186
0.0390228343166168 0.0247845589469575 -0.000435573760007468 0.9922338 -0.09966311 0.07442641 104 104 104
-0.0445168672933529 0.0489470462996702 -0.0204777901997512 -0.07678227 0.001817025 -0.9970462 88 88 88
0.0340248811108324 -0.0132987680326162 0.0191104700113678 0.9877555 -0.1296571 0.08676438 134 134 134
-0.00134561010356871 -0.00423649518858915 -0.0209809038122972 0.04655674 0.05910549 -0.9971655 32 32 32
-0.00146664263587626 0.0249844774400432 -0.022202289853986 0.04276538 0.1925715 -0.9803506 116 116 116
0.00236143664602961 0.0550739834023704 -0.0176831782246489 0.1236681 0.04517678 -0.9912947 69 69 69
0.0280193342955228 0.0586917148170663 -0.0136753252271074 -0.057951 0.8196051 -0.5699905 136 136 136
-0.0455308023565837 -0.00380102231757662 -0.0176029222608823 -0.1920759 0.004680105 -0.9813689 131 131 131
-0.00264506458620595 -0.020035264382708 -0.0222583861515798 -0.05669418 0.02716866 -0.9980218 218 218 218
-0.0392052353843706 -0.0379587920507747 -0.015736597343822 -0.3815795 -0.2189308 -0.8980348 180 180 180
-0.00346654788911849 0.0360857781525561 -0.0187772715290618 0.1146235 0.0895332 -0.9893661 158 158 158
0.022949416502918 -0.0282487015878798 -0.0245929862464483 -0.1328372 0.1184552 -0.9840339 63 63 63
-0.0439020357367368 -0.020130126895276 -0.0175858085192286 -0.255979 -0.08140919 -0.9632483 195 195 195
-0.0284874647325393 -0.0465151534596855 -0.00483306892246349 -0.6436968 -0.3143999 0.6977156 85 85 85
-0.0195146555775287 0.00470005838635901 -0.0213487446111926 -0.1393648 -0.06631615 -0.988018 43 43 43
0.0115504161487934 -0.04739909894522 -0.024487226607429 -0.03938434 -0.006028632 -0.9992059 172 172 172
0.0282465739779463 -0.0424273745987549 0.0231047378796825 0.9482122 -0.1977419 0.2485795 138 138 138
0.0303577764476266 -0.043180090762498 0.0184084499884872 0.9569706 -0.1825915 0.2255384 164 164 164
0.0245361409770357 -0.00303932532063889 -0.0223248593611989 -0.1849513 0.05124537 -0.9814107 32 32 32
-0.0309342066452758 0.047882614606684 -0.0223582073583555 0.01942381 0.03517605 -0.9991924 53 53 53
0.0310011772333341 -0.0116514038688551 0.0354803290988177 0.918752 -0.2311852 0.3200755 102 102 102
-9.13703292773071E-05 -0.0636108294656772 -0.0121204418939808 -0.08434413 -0.9952638 0.04833243 125 125 125
0.000399759723103799 -0.0609273724463872 0.00572172848311692 -0.1267853 -0.9022637 0.4121234 125 125 125
-0.00503884684458278 0.003686321011104 -0.0215009758485977 0.05264717 -0.07016242 -0.9961453 195 195 195
0.0129417285890936 -0.0122032033158626 -0.0215936143245284 0.006570133 0.06259581 -0.9980173 47 47 47
0.0380257143904119 0.0221992072756385 0.0134599531400661 0.98204 -0.07987048 0.1709333 73 73 73
0.0317813825864333 0.0146832257038554 -0.0239365655501805 -0.1351775 -0.06949116 -0.9883815 28 28 28
0.0267515157918439 0.00123865534430379 -0.0229297342191754 -0.1799614 0.01601658 -0.9835433 34 34 34
0.0253433633552378 -0.0520235783583836 0.0181709297901729 0.6774288 -0.7069843 0.2031337 93 93 93
0.00566436521638281 -0.0480159603754993 0.0306620059688708 -0.4595928 -0.6599012 0.5943946 94 94 94
0.0338423149497373 -0.0256933791329297 -0.0115387414745972 0.9881696 -0.1525377 -0.01591113 88 88 88
0.0349732979600819 0.0592866426699987 0.0034218660547764 0.7623193 0.5500292 0.3410823 73 73 73
-0.0497175932401897 -0.0224600225919058 -0.0155477777817196 -0.3551677 -0.2620418 -0.8973238 180 180 180
-0.00208271758926015 0.0521353277167149 -0.0180738316475895 0.1162874 0.002917117 -0.9932113 88 88 88
-0.0571551807155091 -0.0150020000960871 -0.00531435701017757 -0.5688282 -0.6316276 0.5267648 92 92 92
0.0133917747144863 -0.0561762278251339 -0.0247721748866624 -0.2288432 -0.1037718 -0.9679164 103 103 103
-0.0362154386376625 0.0482857095385254 -0.0214421287828647 -0.1140895 -0.04073654 -0.992635 90 90 90
-0.00939889268643546 0.0410898057949929 -0.0194956280795963 0.2468813 0.06578923 -0.9668099 51 51 51
0.0134492843973417 -0.0497170554580382 -0.024676917885411 -0.08815934 0.007995069 -0.9960743 181 181 181
-0.0318445992282528 -0.0507438096642394 -0.0159359261821424 -0.4886588 -0.2111111 -0.8465487 155 155 155
0.0302055514078647 -0.00100530922793141 0.0448657245843863 0.9113116 -0.1705779 0.3747191 95 95 95
0.030074316893844 -0.00161702883692771 0.0429603168291608 0.9200665 -0.1925851 0.3411579 91 91 91
0.0328227535961307 0.00304679781207184 0.0433353582496381 0.9243135 -0.1493094 0.351214 101 101 101
0.0312887334850656 0.00816305920451854 0.0425334895366901 0.9181052 -0.04913945 0.3932788 48 48 48
0.0328926588813525 0.00712864783248035 0.0394827908366935 0.9573104 -0.02744275 0.2877563 72 72 72
0.0346289837746241 0.00714896114941466 0.0372487219353458 0.9594609 -0.02688156 0.2805568 85 85 85
0.035353443599961 0.00824272497358902 0.0378204297827679 0.9539616 -0.01718363 0.2994361 114 114 114
0.0331959677454399 0.0113486750539418 0.0385321535766316 0.9322317 0.03556041 0.3601103 78 78 78
0.0369387979818256 0.00986077223152182 0.0350340088229144 0.9589751 -0.1027003 0.2642335 92 92 92
0.0362104096933926 0.00980985015586433 0.0311530547259687 0.9907161 -0.05875596 0.1225944 129 129 129
0.0380064694766906 0.0134041052469249 0.0310335773141239 0.9213626 0.35136 0.1662441 74 74 74
-0.0274076621553081 0.0542766000662485 -0.0216545944182047 0.03772602 -0.02272161 -0.9990298 33 33 33
-0.0256702825051716 -0.00254897125418618 -0.0208886746487208 -0.07336949 0.09254877 -0.9930013 91 91 91
0.039027126091554 0.0483902872946405 0.00590053362246412 0.8367523 0.1095718 0.5365069 113 113 113
0.0114853242901956 -0.0381535587685533 -0.0242282242913584 -0.05250667 0.06703681 -0.996368 193 193 193
0.0205475654175293 -0.0010353741150968 -0.0217600688780029 -0.1180971 0.02911795 -0.992575 114 114 114
-0.0390186189228845 0.0304695762933063 -0.020530088156903 -0.01334802 -0.141199 -0.9898912 71 71 71
0.0252383945374315 0.0386247271269422 -0.0181703670532924 -0.05567915 0.1024374 -0.99318 134 134 134
0.0316748889913798 -0.0385424326782069 0.000321632190930787 0.9871484 -0.1596086 0.007948728 107 107 107
0.0336259814674036 0.0135664248659231 0.0371305074700671 0.7866095 0.4374138 0.435792 30 30 30
-0.019754283771622 -0.0564827099656062 -0.0191686734505695 -0.3712583 -0.3599249 -0.855933 168 168 168
0.0237708193900947 -0.0527702763856521 0.0074318040840472 0.7228726 -0.6843778 0.09530114 70 70 70
0.0082534955711977 -0.0295948187846189 -0.0237011379584929 -0.0222314 0.05735571 -0.9981062 223 223 223
0.033083410212758 -0.00209999728149279 0.0358810220302949 0.9569089 -0.1784152 0.2291145 113 113 113
-0.00449279813311287 -0.0629678624441798 -0.00981758733374605 -0.1111511 -0.9895906 0.09141026 129 129 129
-0.0127273929806782 -0.015951752954839 -0.0221710085635476 -0.04645705 -0.01036066 -0.9988666 175 175 175
-0.0509058088245404 0.0460345290156829 -0.0189358217752779 -0.2334033 -0.08281896 -0.9688467 187 187 187
0.0175379268271318 0.0528744460885511 -0.0173635381006681 -0.06550265 0.05469382 -0.9963523 81 81 81
0.00490958796871865 -0.00402510114702226 -0.0210353590977762 -0.009951738 0.02460534 -0.9996477 112 112 112
-0.0593290141977989 0.0395452278504302 -0.0155984666148558 -0.3636196 -0.1717556 -0.9155768 155 155 155
-0.0107077675140901 0.00857452357597333 -0.0223421005055362 -0.028732 -0.06922513 -0.9971872 190 190 190
0.000392878710819389 -0.0452135965543288 -0.0240234650807206 -0.1169656 0.05322829 -0.9917085 193 193 193
0.0326331973301954 -0.0311731750525897 -0.00612161145409751 0.9840958 -0.1579477 0.08128936 105 105 105
-0.0405317786553381 0.022559537767616 -0.0187824018227666 -0.1731365 -0.09352 -0.9804477 71 71 71
-0.0446760383361471 0.00467537053964606 -0.0175292998818584 -0.1889489 0.01206597 -0.9819128 113 113 113
-0.0373434013090126 -0.00428583266615479 -0.0193581911092612 -0.2024831 0.06931252 -0.9768298 71 71 71
0.0317243255379545 -0.025073150938439 0.0199391652539412 0.958531 -0.2270671 0.1722176 105 105 105
-0.00607460665468906 0.0627818842296095 -0.00867457912564773 -0.2032527 0.9780234 -0.04646159 120 120 120
-0.010322739059176 0.0295384205417981 -0.0207209322711199 0.1204098 0.3235108 -0.9385319 165 165 165
-0.0236215400020279 0.00504917086746626 -0.0205060037848968 -0.142036 -0.03420184 -0.9892704 50 50 50
-0.0188777550187731 0.0457933116942688 -0.0206355925580071 0.03974898 -0.0105252 -0.9991543 78 78 78
-0.055295531604592 -0.0166551293566215 -0.00655123893368037 -0.4628976 -0.7429839 0.483426 76 76 76
0.0137342711324187 -0.063867589039738 -0.00357972718636557 -0.08689485 -0.9857557 0.1439964 97 97 97
-0.0439377227793916 -0.0337807124216745 -0.011000409830354 -0.7022465 -0.6529629 0.2837064 64 64 64
-0.0219637290920534 -0.00536878035474131 -0.0215101423697875 -0.1064497 0.08043041 -0.9910597 118 118 118
0.0273136417528854 0.0569705396110767 -0.015952279866329 -0.03415797 0.6560792 -0.7539186 173 173 173
-0.00224954305269121 -0.063332358511454 -0.0139857739786469 -0.09929597 -0.994607 0.02995383 121 121 121
0.0395667220244222 0.0151127405946514 -0.0067956593581911 0.989985 -0.08207431 0.1148631 120 120 120
-0.0361348299561217 -0.0293772636576353 0.000661421822178265 -0.5427691 -0.6268154 0.5590207 84 84 84
-0.0379447994855795 -0.0328613551678816 -0.0169193559917293 -0.3255244 -0.1729023 -0.9295906 192 192 192
-0.0390879134612456 -0.0122346095598262 -0.0189922999412628 -0.2480591 -0.05248607 -0.9673221 42 42 42
0.0293327346973191 0.0162337002258441 -0.0239417303514485 -0.1407743 -0.1036232 -0.9846039 37 37 37
0.0220371701859912 0.036663054308022 -0.0190727321986518 0.0685792 0.1241282 -0.9898935 126 126 126
-0.000250130439968466 0.0617657176582289 -0.0169863556566528 0.0473826 0.5706041 -0.8198572 153 153 153
0.00535522643815911 0.00626404647145518 -0.0211539170339103 0.01724875 -0.02697226 -0.9994873 58 58 58
-0.00497932623285857 0.00221312838279464 -0.0215307983845189 0.04446221 -0.07626063 -0.9960961 202 202 202
0.00731790032272972 0.0308094975071316 -0.0191381074360837 0.09943318 0.2833582 -0.9538454 166 166 166
0.00349844552659651 0.0315742106976504 -0.0194016391776249 0.02820418 0.2514123 -0.967469 165 165 165
0.034415403872901 -0.00691753958781494 0.0211389102130251 0.9855593 -0.07840747 0.1500835 134 134 134
0.0276915447650361 -0.0154591585796748 -0.0239418511141046 -0.1146241 -0.001467024 -0.9934078 83 83 83
-0.0547895758159944 -0.0146985882394959 -0.0144946967455115 -0.3281225 -0.1415785 -0.9339653 167 167 167
0.0246130298219231 -0.0301838622258555 -0.0254085097513107 -0.07658709 0.1427253 -0.9867948 92 92 92
0.0206882591530935 0.0596521860282873 -0.0133177381641719 0.2975174 0.706765 -0.6418463 129 129 129
0.0358628935350875 0.0116877979200396 -0.0246432815361554 -0.01250037 0.03396441 -0.9993449 79 79 79
0.0196440759759757 0.0214542200176495 -0.0224722227478298 -0.04100252 0.2243267 -0.9736511 86 86 86
-0.0311924269270918 -0.0332289953130307 -0.0197948015103308 -0.3434851 -0.1434525 -0.9281376 93 93 93
0.00110318639622609 0.0243677712163228 -0.0227606386710049 -0.05986442 0.1865188 -0.9806258 125 125 125
0.0214433100103664 0.0452760164842736 -0.0175871738456143 -0.07570035 -0.00382815 -0.9971232 153 153 153
0.0135040204160899 0.0178255219516845 -0.0224009111006744 -0.01338745 -0.1306877 -0.9913332 214 214 214
0.0133794982264965 -0.0459863312001416 0.0380201895456774 -0.2324008 -0.644329 0.7285808 55 55 55
0.0364084059472649 -0.00749711139723064 -0.00472431980887622 0.9914801 -0.1162176 0.05882723 139 139 139
0.0181982363782471 0.0474293576427991 -0.0173861996985573 -0.06480858 -0.01449965 -0.9977924 148 148 148
0.0256414792840078 -0.0223597176131634 -0.0242520589609085 -0.1003007 0.1196398 -0.9877378 101 101 101
0.0234286241106454 0.0594071119208517 -0.0115754583596624 0.191388 0.7335954 -0.6520801 127 127 127
-0.0207243449595569 -0.0420511115733144 -0.0222325185856487 -0.3199534 -0.1370424 -0.9374696 224 224 224
-0.0327298070397113 0.0124922133523659 -0.0198537633167327 -0.1845464 -0.004907384 -0.9828116 88 88 88
-0.0127131165678152 0.0599902395244654 -0.0189327539712465 0.1436421 0.7393437 -0.6578281 87 87 87
-0.0047437961559984 0.0294078148028838 -0.0203161050668397 0.09130655 0.4440307 -0.8913472 189 189 189
-0.0354212172073538 0.0184771958641752 -0.0192933968414422 -0.1866432 -0.1230011 -0.9746974 80 80 80
-0.0326291594195056 0.0219639879105078 -0.0204406943148199 -0.1014949 -0.05830223 -0.9931262 48 48 48
-0.0534092768713892 -0.0226244905861206 -0.0138133030237609 -0.6136616 -0.3440886 -0.7106494 113 113 113
-0.0601735093525608 0.00257144145284549 -0.0124725301847066 -0.4326582 0.04597526 -0.900385 154 154 154
-0.00492390660470443 0.00096770744568242 -0.0214383903530272 0.04783984 -0.07617939 -0.9959458 167 167 167
-0.0190613622851998 -0.0342887291406755 -0.0232775490312954 -0.1205057 -0.01747033 -0.9925589 233 233 233
0.0327803213106894 -0.00742303861063465 -0.0245807129876302 -0.1086779 0.01422373 -0.9939752 106 106 106
0.0196511441429501 -0.0344299298325945 0.0454722173496437 0.7753837 -0.2684696 0.5715805 69 69 69
0.0404285089613072 0.0372376624283992 0.0115751656759936 0.9269471 0.1400302 0.3480815 87 87 87
0.0346917003700629 3.3169445677439E-05 0.0237649340801048 0.9932048 -0.08075831 0.08379973 154 154 154
0.0303024467829673 0.0363548938745824 -0.0191717672795105 -0.1625547 0.08114081 -0.9833576 143 143 143
-0.0112229351439805 0.0415469335155081 -0.020265567744632 0.2051816 0.0379412 -0.9779882 67 67 67
0.0358111539676687 0.0120753851457762 0.0263816420437714 0.9927443 -0.1025801 0.06273828 74 74 74
-0.000611120190859626 0.0417922921095188 -0.0177206574613519 0.09271879 0.1195726 -0.9884865 157 157 157
-0.0413918626585699 -0.0242681397964324 -0.0177021039265649 -0.3190753 -0.1551557 -0.9349426 149 149 149
-0.0437314055995284 -0.0190421940363155 0.000518745377333651 -0.6265206 -0.5510614 0.5511835 61 61 61
0.0050203190498781 0.0434619057178851 -0.0171181292248422 -0.01680773 0.01902365 -0.9996778 137 137 137
0.0338270801842917 -0.0247539990879213 -0.00713450912118746 0.9864835 -0.1288207 0.1012693 109 109 109
0.019804321840716 -0.0563038012732855 0.0182192015533433 0.4379185 -0.8222048 0.3636024 52 52 52
-0.0367785561294633 0.0424860662918998 -0.020825349810543 -0.06696664 -0.02571106 -0.9974239 62 62 62
0.0327099998532945 -0.0229575513131959 0.0196863771412353 0.9557719 -0.2388971 0.1715464 122 122 122
0.0327134953150083 -0.0336939490289119 0.00208102299917934 0.9815988 -0.1853971 -0.04573555 142 142 142
-0.0436794575138935 0.0188752051963144 -0.0180163110605404 -0.1780184 -0.1171479 -0.9770291 89 89 89
-0.0432272869008399 -0.0169872177485355 0.00143363956890935 -0.6187521 -0.5504806 0.5604615 62 62 62
0.0103256702840206 -0.0214653578058202 -0.0226973013109801 0.05254206 0.1070566 -0.9928637 126 126 126
0.0357077934985019 0.0601703608840398 0.000280272354597821 0.8475856 0.523841 0.084789 103 103 103
-0.031539140415866 -0.0451042070899101 -0.0171752072315389 -0.3553697 -0.2154233 -0.9095632 160 160 160
0.00256996258926545 0.0482827696904824 -0.0176753904339024 0.05140609 -0.03603467 -0.9980275 76 76 76
0.00774475114514628 0.0298601940274086 0.0195091156189036 0.1717959 0.3098337 0.9351413 39 39 39
0.0224145284088966 0.0627519241969843 -0.0101836132992305 0.3034945 0.5389371 -0.7857721 161 161 161
0.0168053100038286 -0.039739333593201 -0.0246442117913086 -0.1062411 0.06417788 -0.9922671 203 203 203
-0.0171028975029555 0.0567013941846215 -0.0207635694547057 0.1918484 0.2032782 -0.9601417 75 75 75
-0.014890077651371 0.0415303399565425 -0.0207187824702688 0.06471263 0.01471061 -0.9977955 124 124 124
0.0070639466709741 -0.0152070591679589 -0.0224238148364988 0.05855331 0.0663012 -0.9960802 72 72 72
0.0114913205217348 -0.0211572613491966 -0.0224624390178006 0.04050527 0.1161974 -0.9923999 142 142 142
-0.0298088006810717 0.0476004906435086 -0.021816894212153 0.03006129 0.03027741 -0.9990894 44 44 44
0.0335153104140238 -0.00150494423419323 0.0309591593677953 0.9656087 -0.200936 0.1649986 96 96 96
0.0359233025187455 0.0102071268256367 0.0282613066933115 0.998197 -0.05655169 -0.02011518 145 145 145
-0.0403360482245447 -0.0242208086199891 -0.0179110556470496 -0.3145248 -0.1493152 -0.9374322 142 142 142
0.0239904894635239 0.0602019865469694 -0.0109574942581149 0.1903306 0.708146 -0.6799291 140 140 140
0.0359829612404758 0.00477184516045237 0.0139371356699918 0.9887255 -0.1119933 0.0993946 116 116 116
-0.046740800356492 -0.0285887022294529 -0.0114926732419232 -0.8633111 -0.4426632 -0.2423702 41 41 41
0.020301545640125 0.00984295614894171 -0.0221578487364622 -0.07785139 -0.06557423 -0.9948061 190 190 190
0.0308728578041455 -0.0200773118651034 -0.0231794989331797 0.5507762 -0.2679235 -0.7904825 163 163 163
0.0345572074379179 0.0418195380787254 -0.0194519076196428 -0.1700588 0.09331917 -0.9810054 67 67 67
0.039512171696932 0.0252653308575992 0.0132178901769813 0.9661155 -0.001350954 0.2581065 112 112 112
0.0350588874840772 -0.0151903071423287 0.00277528162959539 0.9884419 -0.1300945 0.07783309 134 134 134
0.0405368647621347 0.0160083067935486 -0.0211563559515829 0.5858681 0.1338272 -0.7992802 180 180 180
-0.0330775983465301 -0.0065171626705276 -0.0199557817857322 -0.1544774 0.04372192 -0.9870284 103 103 103
-0.0226593842828633 -0.000779259769651652 -0.0202282991180511 -0.07148933 0.07592515 -0.9945475 31 31 31
0.034827208709399 0.0511952373076849 -0.0191132338148929 0.00741559 0.1779504 -0.9840115 134 134 134
-0.0318578785715076 0.0114157272187527 -0.0200108716364907 -0.1496324 -0.0467566 -0.9876356 106 106 106
-0.0279577117814003 -0.0418206326702093 -0.00202574709773629 -0.6510786 -0.3911679 0.6504493 96 96 96
-0.00256083792106887 -0.059312437761929 -0.0234579139386527 -0.1315143 -0.2967806 -0.9458463 94 94 94
-0.0334081984068 0.0302469459650134 -0.0203030397635376 0.03409571 -0.0351764 -0.9987993 39 39 39
0.0376510565236599 0.0434474863063206 0.00856324636395528 0.7335185 0.4151606 0.5381378 98 98 98
0.0120305042457414 -0.046627487468395 0.037406023285135 -0.2806403 -0.646763 0.7091817 93 93 93
0.019059085287279 -0.0534632485187709 0.0278051556030252 0.2351062 -0.9275531 0.2904656 90 90 90
0.0228453980454701 -0.0517207994273743 0.0275136600807407 0.58815 -0.7516361 0.2985344 165 165 165
0.0260347557775087 -0.0437576060128564 0.033823964630125 0.8337344 -0.2921891 0.4685217 89 89 89
0.0149913390232541 -0.0516148130503424 0.0310744855493398 -0.01389167 -0.8646991 0.5020981 52 52 52
0.0205877292580423 -0.0466059374149521 0.0399932905757588 0.4127986 -0.6581295 0.629653 70 70 70
0.0191720283257104 -0.0446563977272407 0.0404480337248862 0.3207243 -0.6187584 0.7171289 95 95 95
0.0217466050054238 -0.0444187517595951 0.0378316917360553 0.6589468 -0.5375948 0.5260998 91 91 91
0.0222359152556013 -0.0515071774436699 0.0315373549781984 0.536814 -0.7283083 0.4259082 49 49 49
0.0178519389802747 -0.0521391905022199 0.0287215828891776 0.1878205 -0.9096295 0.370537 78 78 78
0.0238422726240661 -0.045367515941078 0.0354716131257471 0.7815983 -0.3597902 0.5095636 69 69 69
0.0243701530104934 -0.0449764437736804 0.0342376660746297 0.8165724 -0.3399903 0.4664935 82 82 82
0.0231625599703942 -0.042254372054211 0.0355142807529672 0.8236266 -0.2579127 0.5050943 44 44 44
0.0100758126305904 -0.054493076833787 0.0262546139477726 -0.1426648 -0.9561169 0.2559046 76 76 76
0.0146549841499044 -0.0569559467226326 0.0186473464706094 0.03466935 -0.7743972 0.6317492 42 42 42
0.0184877122545628 -0.0541168905711342 0.0225000670556738 0.1419105 -0.9031756 0.4051361 37 37 37
0.0169029155836906 -0.053906631792195 0.0246567854016946 0.1238241 -0.9523814 0.2786346 70 70 70
0.0133325755637466 -0.0545928093927546 0.0225539049661869 -0.05944477 -0.9303048 0.3619384 62 62 62
0.00781920217409171 -0.0544544273712311 0.0197573374779024 -0.2389877 -0.8551663 0.4599733 49 49 49
0.0110273514845334 -0.056712781110579 0.0186491349868952 -0.143157 -0.805041 0.5756867 55 55 55
0.012293639856614 -0.0542624822123798 0.0212800802792197 -0.06355669 -0.9257157 0.3728418 36 36 36
0.00566952597616721 -0.0595850402978906 0.0133561389827048 -0.2588784 -0.8507057 0.4574733 59 59 59
0.00618579527218799 -0.059030064370621 0.0135784733114263 -0.270392 -0.8240882 0.4977619 61 61 61
0.00501375369885348 -0.0603318756224152 0.0120969562594546 -0.2335768 -0.9110819 0.3396639 101 101 101
0.00353872609029748 -0.0592227577174553 0.0130432987481716 -0.3370748 -0.8001264 0.4961636 41 41 41
0.00160133371596816 -0.0597636008188069 0.0108874883789109 -0.2889761 -0.8491231 0.4421344 58 58 58
0.000875523587103633 -0.059185421008759 0.0104878267859635 -0.3144975 -0.833901 0.4535421 139 139 139
0.00452892007388161 -0.0546230996137418 0.0214064366827964 -0.255944 -0.9016536 0.3485879 51 51 51
0.00172710822586408 -0.0541912893745031 0.0185607645115464 -0.2777869 -0.8833875 0.3774401 83 83 83
0.00369039249955971 -0.0569578055553819 0.01496052645319 -0.3087521 -0.7609019 0.5707017 23 23 23
0.00480617672958505 -0.0532960910418245 0.0179752745697606 -0.2945506 -0.8308342 0.4721806 103 103 103
0.00258413006508063 -0.0559379726843836 0.0148596403149831 -0.3195532 -0.7731851 0.5477869 94 94 94
0.00991979908157603 -0.0523461515621131 0.0299535479167722 -0.203546 -0.8624421 0.4634249 102 102 102
0.0131636006512501 -0.0513329419963855 0.031924705503708 -0.06191941 -0.8390249 0.5405582 100 100 100
0.00817594167960323 -0.0513902078504422 0.031190634332713 -0.3131989 -0.7899386 0.5271656 103 103 103
0.0121415368351343 -0.0529109343878713 0.0276848826200801 -0.05931564 -0.9406018 0.3342902 57 57 57
0.00730326553469007 -0.0512623624140633 0.030654542979631 -0.3131989 -0.7899386 0.5271656 68 68 68
0.0083910671098355 -0.0527599441397408 0.0250416818056385 -0.1769395 -0.940953 0.2886174 72 72 72
0.0042453958343307 -0.0520622053404889 0.0257033169654871 -0.3561089 -0.8546923 0.3777398 68 68 68
0.00900282380578465 -0.0482325473569205 0.0340298445454013 -0.3527407 -0.6499601 0.6731462 75 75 75
0.00725107142065529 -0.048926028978991 0.0324081424057608 -0.373547 -0.7010477 0.6074495 89 89 89
0.00356539618748508 -0.048784930468037 0.029479805667141 -0.4932181 -0.6124431 0.6177778 80 80 80
0.0120351645540202 -0.0531475048663463 0.0250337973133876 -0.04542566 -0.954192 0.2957266 126 126 126
-0.00151742218924911 -0.0503172353648069 0.0228598190707195 -0.5119829 -0.6893163 0.5125588 104 104 104
-0.00434899047959281 -0.0537064932621099 0.0184528318048276 -0.4016542 -0.7916044 0.4604741 84 84 84
-0.00371848388272866 -0.0512197296191115 0.0195409560342733 -0.5204139 -0.7059968 0.4803518 6 6 6
-0.00458417431183289 -0.0502930010861311 0.0202168841186246 -0.5857928 -0.6201165 0.521826 22 22 22
-0.00123996237668944 -0.0454299144013164 0.027176483397616 -0.6002884 -0.518464 0.6089736 172 172 172
-0.00254588640741282 -0.046315937885874 0.0255427968141992 -0.6239112 -0.5255394 0.578397 175 175 175
-0.00660647044515184 -0.0459729138180829 0.0213289987460038 -0.7071186 -0.503228 0.4967342 35 35 35
0.00502586240609526 -0.0528425288185057 0.0213450824818271 -0.2304031 -0.9058056 0.3555708 80 80 80
0.00118778851088974 -0.0529120645654115 0.0198644227842475 -0.3049138 -0.8893247 0.3407773 64 64 64
0.00384988101465522 -0.0527609960768316 0.0193519382166171 -0.2687033 -0.8934954 0.3598116 111 111 111
-0.00014369313714635 -0.0529184000760643 0.0181428713484907 -0.3222718 -0.8683864 0.3768897 90 90 90
0.0396618390311865 0.0232090179556086 -0.00162248516105273 0.9917781 -0.06192376 0.1119898 94 94 94
-0.00385183916414134 -0.0587678808598617 0.0075507048649448 -0.3597786 -0.8013428 0.4779216 42 42 42
-0.00553462452866471 -0.0544840037085204 0.0132033254651077 -0.3405054 -0.7763001 0.5304849 81 81 81
-0.00871753682283005 -0.0571843134666965 0.00610238440275318 -0.3878359 -0.7842674 0.4842602 107 107 107
-0.0115773564670447 -0.056918081190215 0.00625546090068752 -0.5435704 -0.7068809 0.4526042 119 119 119
-0.0104329519903725 -0.0550523255969961 0.00783368008439189 -0.5640466 -0.6162356 0.5496409 99 99 99
-0.00835626901158371 -0.0445624081445117 0.0196009220714006 -0.7071579 -0.4812899 0.517965 65 65 65
-0.00737668049505835 -0.0544474320268131 0.0135768951656355 -0.540231 -0.6410199 0.5452008 64 64 64
-0.00594467555889722 -0.0516942654050487 0.0164240918702107 -0.5928812 -0.5815961 0.5569899 67 67 67
-0.00695955871396992 -0.051764706878614 0.0125751604304327 -0.5748606 -0.5853066 0.5717967 89 89 89
-0.0126996331006275 -0.0544630247405609 0.00784723208215332 -0.6238286 -0.5745521 0.5298374 100 100 100
-0.0126818786377747 -0.0530060389799114 0.00876484393667787 -0.6568306 -0.4875925 0.5751757 88 88 88
-0.00806875600683155 -0.0450948881711943 0.0180834686348702 -0.6910093 -0.498393 0.5235556 95 95 95
-0.0108175007907314 -0.0461859742036028 0.0156584878377112 -0.7062287 -0.4588278 0.5391828 49 49 49
-0.013047035106081 -0.0439326027608695 0.0134849509590831 -0.7291923 -0.4699183 0.4974489 129 129 129
-0.0136158834342921 -0.0482352080965107 0.00978991557865783 -0.7562709 -0.3523659 0.5512644 112 112 112
-0.0140760098349282 -0.0515457367643739 0.00889850300350875 -0.7389742 -0.3932779 0.5470371 76 76 76
-0.0157278022822829 -0.0504049042294472 0.00619755058796878 -0.691077 -0.4274105 0.5828661 58 58 58
-0.0147322679332977 -0.0510976921688713 0.005539449931522 -0.7000105 -0.4408245 0.5618355 95 95 95
-0.014703623030389 -0.0485712850939326 0.00717511667841392 -0.7149252 -0.3774122 0.5885932 99 99 99
-0.0163070471491551 -0.0460373615938818 0.00767655234353293 -0.6644493 -0.391019 0.6368762 93 93 93
-0.0168068169122062 -0.0435305327834137 0.00920959789875458 -0.6679555 -0.4351206 0.6037429 110 110 110
-0.0179277763996226 -0.044884214444191 0.0066666370157954 -0.6595297 -0.3770309 0.6502832 101 101 101
-0.017793783680212 -0.0435039473022287 0.00798391515100982 -0.6491422 -0.4214014 0.6332734 128 128 128
-0.0186760344362371 -0.0476659505177666 0.00478918047294663 -0.6487647 -0.4099884 0.6411037 98 98 98
0.0100171537197831 -0.0429350826941901 0.0381489005938392 -0.3302044 -0.5927177 0.7346092 64 64 64
0.0119504840378699 -0.0412546259817654 0.0413950618123208 -0.2025482 -0.5193258 0.8302258 60 60 60
0.018868201989195 -0.0359480275036399 0.0454780931258161 0.6403576 -0.3512153 0.6830739 53 53 53
0.0223866442873182 -0.0345342501714607 0.0423704420321396 0.8354081 -0.242781 0.4931031 70 70 70
0.0231885183814917 -0.0334832717227236 0.0390920221628566 0.8807903 -0.1697693 0.4420259 93 93 93
0.0239356431332176 -0.0308736222782666 0.0413994722422094 0.8755205 -0.1949658 0.4420997 90 90 90
0.0233075306929038 -0.0316563218499735 0.0391600778586199 0.9004247 -0.1451829 0.4100699 61 61 61
0.0199336906839869 -0.0432273905864913 0.0407591500611519 0.3921918 -0.545615 0.740601 49 49 49
0.0193156448383354 -0.0387176123081039 0.0432657827487186 0.5627322 -0.3712301 0.7385938 44 44 44
0.0186417807607726 -0.0381394281185112 0.0443900553768762 0.3461854 -0.3579003 0.8672157 44 44 44
0.0203408717975031 -0.0315138326206983 0.0450562188861039 0.852628 -0.2654246 0.4500837 51 51 51
0.0232109182029481 -0.0283652413148154 0.043843160883371 0.8613145 -0.2924718 0.4154485 92 92 92
0.0243829506467295 -0.0279707918663192 0.0397781161362315 0.8961171 -0.2679325 0.3538169 77 77 77
0.0240672604621954 -0.0238902868234403 0.0463189314467708 0.8725457 -0.3024914 0.3836184 50 50 50
-0.00213587701469065 -0.0448604137035915 0.0281344669850658 -0.6180955 -0.5045075 0.6028517 179 179 179
-0.00378936784585049 -0.0447704328817173 0.0266656859157338 -0.6592892 -0.4922589 0.5683475 184 184 184
-0.00515052439603725 -0.0438042414514916 0.0262808114278014 -0.6743996 -0.4936923 0.5490475 179 179 179
-0.00814487602821101 -0.043170352527701 0.0225771531031514 -0.7081629 -0.4851307 0.5129848 36 36 36
-0.0077455262280135 -0.035579893333209 0.0277218875658853 -0.6687781 -0.4344065 0.6033463 117 117 117
-0.00828455881749957 -0.0350496082574381 0.0268845407931732 -0.6690857 -0.4242982 0.6101601 70 70 70
-0.00637832636231384 -0.0331744291047307 0.0296100954067655 -0.6720098 -0.4241899 0.6070139 155 155 155
0.0189184585769593 0.0156192420118229 -0.0223990140588834 -0.04461718 -0.05427998 -0.9975284 195 195 195
-0.0102306207287186 -0.0332991486006662 0.0262824264280388 -0.6564209 -0.4039871 0.6371075 57 57 57
0.0262217174421813 -0.0155093711505261 0.0463703782845306 0.9422711 -0.2147884 0.2568874 93 93 93
-0.00951661473140186 -0.0427955271845135 0.0197030087693602 -0.6678495 -0.536387 0.5160097 68 68 68
-0.0112637721446847 -0.0369236807412872 0.0233037385268189 -0.6315477 -0.4970947 0.5950162 85 85 85
-0.0138362190275814 -0.0409747098551769 0.01655079246314 -0.7330633 -0.5406218 0.4127302 123 123 123
-0.0158238790202883 -0.0405807189714456 0.015011161628131 -0.7487003 -0.5269064 0.4022655 177 177 177
-0.0159331425540783 -0.03894668296677 0.0150044015776095 -0.7541149 -0.5467765 0.3637942 218 218 218
-0.0139518192720431 -0.0384372573193132 0.0189168311300091 -0.6827686 -0.5482295 0.4829818 115 115 115
-0.0165990323044189 -0.0367898892971401 0.0171251393490119 -0.7411727 -0.5297532 0.4123403 187 187 187
-0.0176342345176179 -0.0370652885567371 0.0135640003150374 -0.713998 -0.5464985 0.43766 147 147 147
-0.0175650584090428 -0.0349640328318026 0.0187739660875639 -0.7394851 -0.4756199 0.4763901 121 121 121
-0.0191765781990787 -0.0341788134928402 0.0158201510744741 -0.6974455 -0.538834 0.4724698 128 128 128
-0.0178263806163885 -0.0333527965117897 0.0153016080508621 -0.6933727 -0.5482649 0.4675895 127 127 127
-0.016633588564257 -0.0416473541092686 0.0103424492018036 -0.7159947 -0.4676012 0.5183635 159 159 159
-0.0157671482962463 -0.0419597829790783 0.0103794540956065 -0.7190029 -0.4624389 0.5188305 129 129 129
-0.0195447918635301 -0.0411779078773438 0.008672020151407 -0.6438097 -0.4626406 0.6094857 165 165 165
-0.0213600435097403 -0.0372195630413439 0.00850938768350962 -0.6303325 -0.5655656 0.5318048 162 162 162
-0.0128760404948096 -0.0338408848913012 0.0239621740244216 -0.6655071 -0.3647651 0.6511886 49 49 49
-0.0162424795075844 -0.0288974765640835 0.0219384566590849 -0.6925232 -0.3490479 0.6313297 131 131 131
-0.0180258130331761 -0.0328301843586649 0.0183292616744983 -0.7109617 -0.4111454 0.5705199 148 148 148
-0.0180625586488414 -0.029004756747592 0.0202391076545904 -0.7074496 -0.3628031 0.6065386 131 131 131
-0.0193552553475378 -0.026137260808986 0.0206216856584674 -0.706067 -0.3470382 0.6172794 104 104 104
-0.0219797616693103 -0.0306564736637773 0.0163061276858341 -0.727699 -0.3566918 0.5858542 63 63 63
-0.0236051654579668 -0.0303785153135374 0.0136445097622859 -0.7159964 -0.4109241 0.5643495 62 62 62
-0.0248776608081336 -0.0288428312438844 0.0128488366359867 -0.7144651 -0.4132301 0.5646066 74 74 74
-0.0256844932261648 -0.0305511425708112 0.0106562645659254 -0.7304305 -0.4339658 0.5273945 56 56 56
-0.0264369403074896 -0.0298470670425623 0.00986455300543287 -0.7123142 -0.439148 0.5475012 41 41 41
-0.0282163900263459 -0.0296520311043387 0.00805284301308096 -0.637367 -0.5056551 0.5814433 163 163 163
-0.0237626511893225 -0.0257416649948943 0.0149190954446636 -0.6919176 -0.411331 0.5933438 55 55 55
-0.025903670727871 -0.0252275188571263 0.0139297318794587 -0.6607257 -0.4409437 0.6074621 44 44 44
-0.0228534558092255 -0.025268557949935 0.0172736677627361 -0.6768477 -0.4074574 0.6130707 63 63 63
-0.0235298307754168 -0.0236594361959777 0.0172204922904573 -0.6652527 -0.4303705 0.6100984 28 28 28
-0.0277780083787151 -0.0244815937498366 0.0123432167524186 -0.6161658 -0.5084853 0.6014836 63 63 63
0.0192621278893585 -0.00391378922777519 -0.0218576994004817 -0.1200468 0.05489753 -0.9912492 27 27 27
-0.0321387276357767 -0.0246575416788037 0.00954054216632749 -0.5569606 -0.5559223 0.6170456 53 53 53
-0.0308717016663 -0.0217004230653248 0.0133476324503903 -0.5779378 -0.5508986 0.6020786 78 78 78
-0.0308932931152257 -0.0430848960682642 -0.00639582635082636 -0.6288513 -0.3782716 0.679306 89 89 89
0.0135044649426543 -0.0615926187535092 0.0115851345684849 -0.08245333 -0.966737 0.2421177 58 58 58
0.0148052908283973 -0.0615474857114238 0.00876676049760539 0.007549558 -0.9689484 0.2471476 93 93 93
