ply
format ascii 1.0
comment File exported by Rhinoceros Version 7.0
element vertex 469
property float x
property float y
property float z
property float nx
property float ny
property float nz
property uchar red
property uchar green
property uchar blue
end_header
0.0711748047830766 -0.0475358176557743 0.0028579882542914 0.9914145 0.06839494 -0.1114419 97 97 97
-0.00954579343496953 -0.0335774687636972 0.013702319329094 0.03107766 -0.0002664878 0.999517 98 98 98
0.00494533967552058 0.123652010549824 -0.00906621251696738 -0.04627171 0.963119 0.2650672 174 174 174
0.00662790923065981 0.0224765840705965 0.0139960480206045 0.02341112 -0.01218022 0.9996517 131 131 131
-0.0195085260798527 0.121097017596909 -0.00666797870068536 -0.02409186 0.957482 0.2874851 100 100 100
0.0226459122631338 0.0515410855894836 0.014005541150662 0.01341085 -0.01506776 0.9997965 117 117 117
-0.0251649759499962 -0.0595064818693896 0.0133492177513183 0.004396089 -0.02316402 0.999722 133 133 133
0.0676208156567378 0.0288039339728992 0.0129192344918372 0.7511441 -0.1020795 0.6521981 144 144 144
0.0643468797306215 0.0316033203536534 0.0133816540364274 0.1671092 -0.02362024 0.9856554 152 152 152
-0.0710516636298901 0.115155884297245 -0.00192313088861024 -0.05135842 0.9803092 0.1906729 50 50 50
-0.0273203377133003 -0.0195702061266156 0.0139342592748884 0.007589365 -0.001533144 0.99997 105 105 105
-0.0101317710370584 0.118717070215519 0.00218758874562991 -0.09838631 0.9551116 0.2794315 46 46 46
0.0644952600025533 0.0767939526863879 -0.00623678407708089 0.9961877 0.08451238 -0.02162735 64 64 64
-0.0706352775721787 -0.0348354962389197 -0.0017806649589891 -0.9689952 0.2403332 -0.05734408 55 55 55
-0.0691793419782487 0.0665335540726151 -0.00512132084045169 -0.991751 -0.1193434 0.04676592 64 64 64
0.0649922366036531 0.0801159059090335 0.00879531317378068 0.9836745 -0.053385 -0.1718562 86 86 86
0.0707565509401852 -0.0290908765693711 0.00817741219604112 0.9941538 0.09888759 -0.04335289 63 63 63
0.0599786912748268 0.0743619612983351 0.0136005072845108 0.01835466 -0.01045223 0.9997769 117 117 117
0.0730542774513849 -0.0539147375515303 0.00522200018572272 0.9736701 0.2219939 -0.05181889 65 65 65
-0.00657568708364198 0.0389700412463068 0.0142559343146668 0.01611042 -0.01601651 0.9997419 129 129 129
0.0309983237960497 -0.0653839271945083 0.0126266330322368 0.02161189 -0.01329909 0.999678 159 159 159
0.0503978399107436 -0.0694629003476115 0.0122467893438885 0.01699712 -0.01399647 0.9997576 133 133 133
-0.0330915968151784 -0.075485743544262 0.0136456517965433 0.05786135 -0.03071724 0.997852 70 70 70
-0.0071523210480271 -0.0259678137542092 0.0134730972209126 0.01848591 -0.02302229 0.9995641 104 104 104
-0.0177034700429501 -0.016248725652489 0.0140409220092713 0.02350835 -0.02261408 0.9994678 123 123 123
-0.0756356231887682 -0.127086792964071 0.0127577597571996 -0.266542 -0.7563068 0.5974575 103 103 103
0.0729706202262544 -0.100504912820051 0.00648383135955588 0.4931138 -0.865509 -0.08793746 126 126 126
-0.0663607496284186 -0.125214182439367 -0.0110195463442499 0.1681909 -0.9857539 0.001039215 91 91 91
-0.0317437907231352 -0.093647956976511 0.0129918990712453 0.02433963 -0.03348085 0.9991429 88 88 88
-0.0309250096601027 0.0403052552668846 0.0147896858950514 0.01023681 -5.374011E-05 0.9999476 110 110 110
0.0204514952951254 -0.0997535581473077 0.0123259501931896 0.008153479 -0.01672511 0.9998269 82 82 82
-0.0599398632008472 0.0186307908507721 0.0150826914213709 0.01277076 -0.006931262 0.9998944 114 114 114
0.0343580398390486 -0.0183255177890744 0.0132529951367721 0.0076505 -0.0137586 0.9998761 152 152 152
0.0711238616129668 -0.0431539919267006 0.00396043850154237 0.9846947 0.03329678 -0.1710781 56 56 56
0.0166720442624192 0.0121703953326959 0.0137604385204478 0.01755811 -0.01207964 0.9997728 166 166 166
0.0231833933244274 0.0880441036474746 0.01482947805841 0.01571322 -0.005756733 0.99986 123 123 123
0.0397366136616043 0.022715015491783 0.0137253437679694 0.02334911 -0.01343553 0.9996371 159 159 159
-0.0724536089359322 -0.0457435096053553 -0.00580084083867111 -0.9857052 0.05276379 -0.160004 50 50 50
-0.0673653141965311 -0.045845128764902 0.0143440883632018 0.008962526 -0.01904508 0.9997784 142 142 142
0.0537117396071332 0.0867836048647417 0.013984449229378 0.02132123 -0.007286778 0.9997461 144 144 144
-0.00393794932449198 -0.0273067117610892 0.0136139771247027 0.009809589 -0.001323896 0.999951 117 117 117
0.0709671755397103 -0.0375069449821541 0.000384621496346715 0.9993678 0.03105643 -0.01730429 63 63 63
0.0615016494025968 0.0760365516216952 0.0137523494538502 0.07879913 0.02039399 0.9966819 133 133 133
-0.0573317141674764 -0.0835391649454174 0.0138534547724201 0.02824714 -0.007622423 0.9995719 106 106 106
0.00699150899594836 0.103050027416223 0.0152737318070422 0.01749856 -0.0210373 0.9996256 112 112 112
-0.00911892419845983 -0.0817362158682622 0.0128248602497077 0.000374712 -0.0101319 0.9999486 75 75 75
0.041929837627062 -0.00994212312157283 0.0130412982511277 0.01237288 -0.01418064 0.9998229 155 155 155
0.0284181563638444 0.0302174450115176 0.0140358235408918 0.02348443 -0.005015376 0.9997116 122 122 122
0.0638380464658452 0.0964984344428022 -0.0048587192648844 0.9922221 0.09062663 -0.08533585 54 54 54
0.0658743106232673 0.033848634588274 0.00242028673351086 0.9971606 -0.02847092 -0.06971449 82 82 82
0.0627561530015506 -0.00765054717826308 0.0128078073970738 0.01164013 -0.01773726 0.9997749 150 150 150
0.0421083019647833 -0.0246729271169854 0.0129642136842967 0.01948763 -0.01168998 0.9997417 139 139 139
0.065206718491837 0.0533741859692838 0.00684675439172594 0.9702901 0.1316745 -0.2029755 71 71 71
-0.0750476952006573 -0.103509474008817 0.0136658524612157 -0.1597163 -0.03622236 0.9864982 119 119 119
0.0713212296853609 -0.0458332860094186 0.00432770297822821 0.9880971 0.05889361 -0.1421113 66 66 66
-0.0511477289615511 -0.0837976355381436 0.0134830805875921 0.02224214 -0.02095014 0.9995331 133 133 133
-0.0176075332195486 -0.0873495950578931 0.0127606082920284 0.00210963 -0.02073457 0.9997828 142 142 142
-0.0109898715164803 0.0919623785796717 0.0151351084165824 0.01606502 -0.008327416 0.9998363 159 159 159
0.0644810900664575 0.110917320761224 0.00139044775892505 0.9958386 -0.06875709 -0.05981479 74 74 74
-0.0665155181023943 0.00282023748429161 -0.00575211217718363 -0.9933567 0.1141864 0.01428054 71 71 71
0.0320228080291951 0.00418945602878695 0.0131731200776357 0.008694412 -0.01000121 0.9999122 104 104 104
0.0277035779400372 0.0105771080540915 0.0132056359175061 0.01310773 -0.01799798 0.9997521 105 105 105
0.0565659337364254 -0.0218983060497344 0.0126873202613975 0.01647647 -0.005615971 0.9998485 161 161 161
0.0717011719696772 -0.041305015184691 0.0121679189867263 0.6621242 0.02244029 0.7490581 140 140 140
-0.0809025918817069 -0.122257061648423 -0.00242150407749886 -0.940974 -0.1621745 0.2970983 50 50 50
0.052295545191013 0.0260290787707125 0.0133196677538543 0.0153251 -0.01795153 0.9997214 120 120 120
0.0680622358930187 0.0201384991916995 0.0115762538738765 0.9219013 -0.06945778 0.3811476 84 84 84
0.0545828355671798 -0.0891389472588977 0.0120265063825324 0.01553284 -0.008445807 0.9998437 131 131 131
-0.0581049563067553 -0.124074323558312 -0.0068819637205158 0.1784367 -0.9838234 -0.01586836 100 100 100
-0.00722493783645517 0.0114218106083397 0.0138773836538649 0.002194453 -0.01386717 0.9999014 111 111 111
-0.0207586656541197 0.0799053435411232 0.0151081649499781 0.005108058 0.006645626 0.9999649 142 142 142
-0.0134158641494624 0.0145039244681742 0.0142585474115 0.004765565 -0.01278778 0.9999069 127 127 127
-0.047638335326359 -0.111173555378797 0.0134829205099637 0.01649344 -0.006993229 0.9998395 106 106 106
0.0228395753846988 -0.00757778733024983 0.013383816526311 0.01274059 -0.006874602 0.9998952 112 112 112
-0.0546639640571764 0.0297806275385908 0.0148014544216785 0.01229736 -0.004854046 0.9999126 120 120 120
-0.0729176297283088 0.085675721090462 0.00256191790693666 -0.9554223 -0.2544458 0.1497519 50 50 50
0.0712324217971252 -0.0512435672469225 0.00541710614662444 0.9758725 0.1938343 -0.1005048 62 62 62
-0.0661834181980003 -0.0688811589453318 0.0147911761710882 0.006951475 -0.01458883 0.9998694 119 119 119
-0.0594885367890535 0.0586532260739077 0.0156088418281313 0.02022735 -0.0202892 0.9995895 130 130 130
0.0695039405022462 -0.0156399071003546 -0.000626244514268737 0.9758738 0.153785 -0.1549855 102 102 102
-0.0515279465546108 0.106445888089086 0.0158910201809064 -0.02853686 0.1186688 0.9925237 160 160 160
0.0646473015761756 -0.00200887078337852 0.0128014271305655 0.235093 -0.009872485 0.9719228 137 137 137
0.00882300998568797 0.0286718467160263 0.0139762233025758 0.01571155 -0.01627616 0.9997441 229 229 229
-0.0727693688102277 -0.0415764364979008 0.00116908446248215 -0.9771095 0.1977227 -0.07850346 53 53 53
-0.00614754508008952 0.122042965603312 -0.00591682758243006 -0.1083155 0.962436 0.2489673 89 89 89
0.0150797409584258 -0.0998210051393935 0.0124012415170554 0.01891399 -0.005189608 0.9998077 100 100 100
-0.0173851707211005 0.0424574511165354 0.014631952763568 0.01216248 -0.00483165 0.9999143 134 134 134
-0.0778743604380249 -0.109083623731814 0.0133231608463008 -0.6381675 -0.0182644 0.7696809 61 61 61
-0.00884136610559161 0.00228420868719947 0.0140241891393888 0.02110729 0.0002570343 0.9997772 89 89 89
-0.0292378718883448 0.118428353937151 0.00301658666320731 -0.1202836 0.9554813 0.2694203 74 74 74
0.0131505615678461 0.108817704538095 0.0149042650970611 0.01566631 -0.02328644 0.9996061 145 145 145
0.0595341946722259 0.017338144012508 0.0132624164680532 0.01715876 -0.01075959 0.9997949 141 141 141
-0.0192968884012521 0.0225346138465563 0.0141905348252319 0.009113773 -0.006342809 0.9999384 103 103 103
-0.0313921681224228 0.0839938135468947 0.0153247281167119 0.007130885 -0.02078266 0.9997586 129 129 129
0.0290519880246223 -0.0149439898718386 0.0132505810932141 0.006261842 -0.004740697 0.9999692 136 136 136
0.0420203942049863 -0.104285843465886 0.010941787157935 0.2147225 -0.6252246 0.7503256 112 112 112
0.0632941225234274 0.101908680337719 -0.000324628530397497 0.9995797 -0.01091244 0.02685716 103 103 103
-0.00182979513099024 -0.114328221543886 0.00935429642912611 0.1373049 -0.9593052 0.2467405 65 65 65
-0.0681732170463339 -0.0756923035696848 0.0140057046455777 0.01762918 -0.001380482 0.9998437 146 146 146
0.0630686931414914 0.042828082890958 0.0133901210785305 0.08170866 -0.054045 0.9951898 121 121 121
-0.0349006604237362 0.0783542784685871 0.0154540492844909 0.004694815 -0.02119254 0.9997644 114 114 114
0.0677651858246412 0.00245669176669705 0.00520170520800273 0.9989454 0.02155795 -0.04053877 64 64 64
0.0756504398635143 -0.0944617559471839 0.00988526262812073 0.9922919 -0.1239133 -0.001550101 81 81 81
-0.0252817952281993 0.0282452281847414 0.0146438494340356 0.01993282 -0.01520829 0.9996856 103 103 103
-0.0370991750858229 -0.117073360119445 0.0131486719494593 0.07301288 -0.3059932 0.9492298 63 63 63
-0.0672731465330525 -0.101978267047319 0.0140022223357418 0.01886634 -0.0254935 0.9994969 126 126 126
0.0675394084494136 -0.101085341283415 -0.0140054355647444 0.3179286 -0.946215 -0.05998874 104 104 104
0.0367600722640145 0.0142625554090348 0.0135214985297671 0.01807976 -0.007075275 0.9998115 166 166 166
0.068510393378805 -0.0837813165994488 0.0118393884301758 0.02533854 -0.01080187 0.9996206 146 146 146
-0.0207206629702245 -0.00521777602432683 0.0141353709958726 0.01862885 -0.01147098 0.9997607 98 98 98
0.000873103891552596 0.121236804042725 -0.000963948168464901 -0.08743171 0.964238 0.2502016 82 82 82
0.0112255269470926 -0.0396136087462673 0.0132523299285965 0.01061772 -0.01292206 0.9998601 133 133 133
0.0449007708935064 -0.0100984341515062 0.0132012152733173 0.01244804 -0.01566028 0.9997999 150 150 150
0.0576621406002323 0.100652261334446 0.014154235519533 0.0038471 -0.01781445 0.9998339 119 119 119
-0.0774969943755609 -0.127397610412027 0.000697812765507455 -0.176255 -0.9796357 0.09616648 95 95 95
-0.0496224505451496 0.0802694649674016 0.0155903322718917 0.01401853 -0.009605455 0.9998556 132 132 132
0.0658927650580985 0.0591845037863008 0.00936322166280246 0.993525 -0.0900639 0.06925651 90 90 90
0.0364264588129125 0.0188316935514115 0.0136207966694817 0.009168306 -0.01184761 0.9998878 165 165 165
-0.0375917335590568 -0.0111129425489389 0.014451935930233 0.01719766 -0.02564683 0.9995231 113 113 113
-0.0336406482539585 -0.0673877466246093 0.0135242014258524 0.02148713 -0.01431469 0.9996666 125 125 125
0.064703163732843 0.0804659388904747 0.00231753538055635 0.9992915 -0.01693687 -0.03360912 69 69 69
-0.0719828481397593 -0.126388746471528 0.00815809970845699 0.1700587 -0.9692302 0.1779684 83 83 83
-0.0178553227063615 -0.0778746092369695 0.0130764327999212 0.01380908 -0.02017511 0.9997011 104 104 104
-0.0455294419957845 -0.121875510963348 0.0105041458970409 0.171721 -0.8876582 0.4272877 90 90 90
-0.0787361314983773 -0.106273640464772 0.00824696322553836 -0.9850984 0.01073059 0.1716564 34 34 34
0.0483351532090835 0.0209487701342783 0.0131460342377036 0.01722049 -0.01044108 0.9997972 87 87 87
0.00286583347596359 0.060409850155019 0.0150651072896114 0.009245194 -0.02949261 0.9995223 110 110 110
-0.0353514882580461 -0.112794125168701 0.0132040993211169 0.0311316 -0.03055185 0.9990482 124 124 124
0.0376641840813725 -0.105749959760553 0.0108028199045875 0.2140271 -0.7442916 0.6326314 97 97 97
0.0384470018346209 0.040091163045513 0.0138410446218333 -0.005975462 -0.0143916 0.9998786 149 149 149
0.0312492795419061 -0.107730421733701 -0.0012149573841661 0.1878516 -0.9821959 0.001763787 86 86 86
0.0502816960710052 -0.0569402054701693 0.012251875519292 -0.00139312 -0.009928635 0.9999498 118 118 118
0.0587390868469648 0.00413370760982601 0.0131251880539814 -0.003528673 -0.02056989 0.9997822 161 161 161
-0.04599360133388 -0.121547946871771 0.00222732731790781 0.1779253 -0.9839713 -0.01196087 84 84 84
-0.0346589135418425 0.108198769066833 0.0164587577687805 0.004516943 0.0003204897 0.9999897 187 187 187
-0.0475237287011292 -0.0454270408292385 0.0139945462312916 0.01221655 -0.01223804 0.9998505 131 131 131
0.040106724636941 0.124772026256012 -0.00835088635470305 -0.001553208 0.9644703 0.2641867 73 73 73
-0.0429638235595107 0.0482571749095553 0.0149828049398063 0.01641948 -0.001728139 0.9998637 115 115 115
0.0081362826830732 -0.0698311493869852 0.0128623229636451 0.01625596 -0.02357628 0.9995899 121 121 121
-0.043459754278377 0.0812489178698232 0.0157137531265903 0.006675731 -0.009561638 0.999932 127 127 127
-0.0294056735586986 -0.115495428622643 0.0130254494525242 0.1075565 -0.2821331 0.9533271 124 124 124
-0.00473840992817365 -0.000533017276652448 0.0140762779072065 0.02239377 -0.007484793 0.9997212 177 177 177
0.0474578973630595 0.108793056129324 0.0143491993658595 0.01622175 -0.001007742 0.9998679 155 155 155
0.0155011603138614 0.100239911756228 0.0147812685353768 0.003047866 -0.01378618 0.9999003 146 146 146
-0.00913231035869377 -0.0675189765158337 0.0133573790255062 -0.0006001877 0.01539499 0.9998813 103 103 103
-0.0150584812326177 -0.0631041698506867 0.0135077088962506 0.006892834 -0.02710869 0.9996088 148 148 148
-0.0204171086349356 -0.116933584995212 -0.0126805043314236 0.1807073 -0.9835321 0.003066383 78 78 78
-0.0664120476372607 -0.115021205647681 0.0133829625115866 0.01103284 -0.008762712 0.9999008 114 114 114
-0.0473608896264726 -0.0277296650914856 0.0143620275734091 0.04543699 -0.03201902 0.9984539 104 104 104
-0.0280550247683344 0.106597866079791 0.015457801471394 0.01862262 -0.006400169 0.9998061 134 134 134
-0.00345937209640679 0.12246240451167 -0.00544725801986118 -0.05322298 0.9549387 0.2919921 56 56 56
-0.0189288536585865 0.0400056185494386 0.0146038082619874 0.01652561 0.002536947 0.9998602 165 165 165
0.00475932500751708 0.0209446946204943 0.0136696868407432 0.01758192 -0.005832894 0.9998284 161 161 161
0.034306747391977 -0.0731715039822187 0.0123689504104139 0.02023702 -0.01148371 0.9997293 90 90 90
-0.0485754579113239 0.113981582610341 0.0100758622810407 -0.216056 0.909908 0.3541007 93 93 93
-0.00867347005099095 -0.0839591769139927 0.0129361720505609 -0.001609547 -0.0105651 0.9999429 95 95 95
-0.0744712005029207 0.095460246346414 -0.00192553934430945 -0.9619332 -0.1714292 0.21283 63 63 63
-0.0651443310264936 0.0474189082732355 0.0160818873577759 -0.6551717 -0.1015109 0.7486292 125 125 125
-0.0322612548836922 -0.119320019375588 -0.0119482608415559 0.177077 -0.984167 0.007684634 97 97 97
0.01889094735195 -0.0637597058904287 0.0129514257204489 0.02883798 0.01011059 0.9995329 118 118 118
0.00730584060098327 0.0821185745239261 0.0146468876525874 0.003986761 0.001689381 0.9999906 113 113 113
-0.0496290833884785 -0.122123544497686 -0.00188391230586593 0.1706315 -0.9852559 -0.0124792 87 87 87
0.0290654477103611 -0.00374196888465228 0.0131400946612026 0.01146131 0.004949494 0.9999221 120 120 120
0.0705733603450703 -0.0903819882204497 0.0116985022912784 0.1659161 0.0008944542 0.9861395 132 132 132
-0.0573523808967523 0.0120348000624471 0.0150544287996435 0.01170569 -0.0003567891 0.9999314 101 101 101
0.00159254761057293 0.00237185020055475 0.0135855884960016 0.02603437 -0.009278877 0.999618 191 191 191
0.0023776168989722 0.0565910099754667 0.0143899111407774 0.0158725 -0.0204345 0.9996652 128 128 128
-0.0333035523348911 0.0172989945507944 0.0148533180052885 0.01661968 -0.008580444 0.9998251 94 94 94
0.0278105512155428 0.12268935220597 -0.00191354332494553 -0.08359767 0.9603195 0.2660787 94 94 94
0.0203360535334073 -0.0434930818772128 0.0131077732912928 0.006028144 -0.009126447 0.9999402 233 233 233
0.03497999628016 0.0706813823214287 0.0142229153387076 0.01618157 -0.02438243 0.9995717 177 177 177
-0.0448010341372221 0.0986529023721101 0.0157041685903692 0.009922363 -0.02090853 0.9997321 140 140 140
0.0506988143795407 0.12296986343756 -0.00433387561731685 -0.01046055 0.9500248 0.3119989 53 53 53
0.0427057070859773 0.0431562093878277 0.0134814053666626 0.01902199 0.006545344 0.9997976 86 86 86
-0.0684778860830155 -0.0200378064962152 -0.00839664083529923 -0.9900694 0.1302798 0.05281697 38 38 38
-0.0411522130790277 -0.0300143588051605 0.0140625210660756 0.006473078 0.006791963 0.999956 136 136 136
0.0666116181768056 0.0393037928762972 0.00245487834792851 0.9953995 -0.02980311 -0.09105813 62 62 62
-0.0493028457877965 0.114448962182444 0.00782558049517218 -0.2100679 0.9142863 0.346341 47 47 47
0.0515761810233557 0.0780670488606492 0.0148789124150634 -0.008451381 -0.02285552 0.999703 102 102 102
0.0664751380051186 0.028074348955641 0.00731595671551594 0.9800336 -0.004985522 -0.1987692 74 74 74
0.0607769354462652 -0.093134544132697 0.0118597442547476 0.0294197 -0.008794846 0.9995285 146 146 146
0.0243248124240432 0.067716254417264 0.0142361605500429 -0.004657621 -0.02001698 0.9997888 152 152 152
-0.0687560570701183 -0.0199105487275264 -0.000431433586524366 -0.9858375 0.1602365 0.0494847 66 66 66
0.0349877624192994 0.122109430978885 0.00409890414658154 0.01156655 0.969795 0.2436469 90 90 90
-0.0102289748758666 -0.000679067151641455 0.014024311350967 -8.482877E-05 -0.02167384 0.9997651 206 206 206
0.0486419749900611 0.069993338980787 0.0138357566564101 0.03046877 -0.003633843 0.9995291 146 146 146
0.00612815879212047 -0.0640486210928179 0.0130152301778508 0.03088231 -0.0008903527 0.9995226 211 211 211
0.0282287488467994 -0.0510328934851862 0.0125992709993717 0.01651606 -0.00831388 0.9998291 106 106 106
0.0553882475148596 0.0484578822627104 0.0135121705942843 0.02256541 -0.004792456 0.9997339 143 143 143
-0.0730077988300536 0.0960579957258774 0.00394196818376752 -0.9626899 -0.09740844 0.2524675 35 35 35
0.0348746536962191 0.0523435822052001 0.0139814163143342 0.01795149 -0.01970966 0.9996446 107 107 107
-0.0621162377444108 -0.111222490906024 0.0136737161151224 0.01896774 -0.008871115 0.9997807 102 102 102
-0.0612171274504845 -0.0916380575996529 0.0137335977501877 0.0138881 -0.01669336 0.9997642 116 116 116
0.0649838658815219 0.0268331386128782 -0.00829854114547152 0.992311 -0.06314484 -0.10645 82 82 82
-0.0167225092194541 0.106261112244405 0.0153350427459535 0.02229232 -0.007591759 0.9997227 138 138 138
-0.0657291945539883 -0.124977182840584 0.0125663919399827 0.128714 -0.7041856 0.6982516 77 77 77
-0.0712885535171123 -0.10147745049904 0.0140215809910202 0.005421652 0.002283303 0.9999827 124 124 124
0.0588217228959546 0.0363476267367424 0.0134799792753981 0.0120156 -0.007554618 0.9998993 150 150 150
0.0463747292650517 0.0481716114819275 0.0135963737618059 0.008211145 -0.006670846 0.999944 114 114 114
0.0298266873719905 -0.00902837536339951 0.0136140163024385 0.0198903 -0.01478024 0.9996929 134 134 134
-0.0495574456031562 0.118594133927196 -0.00188254064028986 -0.1072579 0.9427878 0.3156689 74 74 74
-0.0749831084812543 0.0949355519649597 -0.00394453342478041 -0.9645391 -0.2086744 0.1616145 69 69 69
-0.00890820447337415 0.0622572486468682 0.014603775781415 -0.0005873094 -0.003214283 0.9999946 109 109 109
0.0400971858730699 0.0311912387056739 0.0133285104753071 0.004901876 -0.02519161 0.9996706 96 96 96
0.0123849230529127 -0.0734882587759755 0.0127913791492262 0.003904016 0.0003908371 0.9999923 127 127 127
0.0652782434159693 0.0165575782889333 0.00105939213848127 0.9826124 0.1231499 -0.1389495 89 89 89
-0.0614706016508044 0.107187331974557 0.0159380492007518 -0.05366332 0.2609977 0.9638467 142 142 142
0.0208970409827042 -0.0638468613702159 0.0128558975196444 0.01251002 -0.009757592 0.9998741 151 151 151
0.0250566157775477 0.0403968211911605 0.0140800222091126 0.02553182 0.003413662 0.9996682 138 138 138
-0.064912470254941 0.0120518973405785 -0.000189332546261356 -0.9940312 0.1016943 0.03950056 55 55 55
-0.0304269367468205 -0.118728668644887 -0.00365845390566122 0.1839357 -0.9828399 -0.01390201 85 85 85
-0.0117628629497248 0.0917738774415924 0.0155272961384478 0.0101019 -0.005109625 0.9999359 162 162 162
-0.033127916170491 -0.0218558626208689 0.0141598589940935 0.04829737 -0.008236305 0.998799 115 115 115
0.0565009017362387 0.0145065944176237 0.0131665465934843 0.01344324 -0.0220842 0.9996657 136 136 136
-0.00146707243701139 -0.0439809945607288 0.0133860874914181 0.004588954 -0.02570742 0.999659 117 117 117
-0.0767197918930417 -0.0830652745375851 0.00707728619719195 -0.9875534 0.109372 0.1130309 32 32 32
-0.0219394431989083 0.0258684187443665 0.0145760991139937 0.03822327 -0.02600035 0.9989309 109 109 109
-0.0175738334001702 -0.0370404943442904 0.0138204445696378 0.00934203 -0.01725153 0.9998075 100 100 100
0.0734074389789525 -0.098253118066423 -0.00681443651786112 0.9402742 -0.3378441 -0.04178145 86 86 86
0.0260558013741874 -0.102276371292342 0.0124484100271301 0.0231371 -0.04175783 0.9988598 107 107 107
0.0365054854968768 0.076089901592354 0.0140727188229355 0.01018739 -0.01450112 0.9998429 130 130 130
0.0729721223727211 -0.0650048090373301 -0.00428341081241168 0.9916022 0.1260024 -0.02912629 69 69 69
-0.0478255695815968 -0.0974371859163645 0.013210557029611 0.02302183 -0.02578692 0.9994023 104 104 104
0.00877029946744723 0.119246210260814 0.0107146787950007 0.0006743445 0.9551974 0.2959687 64 64 64
-0.0506326581976877 0.0187398896909188 0.0148297884442633 0.0118939 -0.003890107 0.9999217 103 103 103
-0.0661768731134618 0.049545622404999 0.015650431599528 -0.6465562 -0.191617 0.7384091 120 120 120
-0.00410239337002449 0.060761941059859 0.0147436951166225 0.004480763 -0.01046291 0.9999352 105 105 105
-0.0132089991034799 0.0688444817024036 0.014793237982635 0.02348527 -0.01157987 0.9996571 130 130 130
-0.0655677700923266 -0.0899149284610334 0.0136456152450852 0.01160718 -0.01813562 0.9997681 89 89 89
0.00776508300933754 -0.0739793404499274 0.0129973788663961 0.006409455 -0.008822255 0.9999405 120 120 120
0.0468393821115745 -0.0767620850125692 0.012235142764786 0.01369953 -0.007038655 0.9998814 169 169 169
-0.0591133828000673 0.101999794094034 0.0158995611205612 0.01339007 0.005295211 0.9998963 138 138 138
-0.0457634966635037 0.0675225719756989 0.0153172503776987 0.004924861 -0.02962513 0.999549 109 109 109
-0.0233956346804659 0.0625905789803622 0.0150240140715251 0.01364797 -0.01675518 0.9997665 123 123 123
0.0643439433269383 0.0541850232062333 0.0134971893964561 0.2690235 -0.001064394 0.963133 148 148 148
-0.034792806329154 0.0766908172056486 0.0153901931461057 0.003184876 -0.01848813 0.999824 117 117 117
0.01842386948984 -0.0954481746812339 0.0124952802730768 0.006655336 -0.01166631 0.9999098 121 121 121
-0.043645145875549 -0.0568240300814769 0.0140334188060645 0.004705635 -0.0224886 0.999736 84 84 84
-0.0701615604781849 -0.0927921518012078 0.0139770326334781 0.01555241 -0.01450083 0.9997739 144 144 144
0.0501724890738325 -0.0323285240400211 0.0128352969816688 0.01718209 -0.01587855 0.9997263 183 183 183
0.0134545195426891 0.0769448228374827 0.0145168472074801 0.03115095 -0.02267911 0.9992574 136 136 136
-0.0578640310683532 0.0903351797519552 0.0156104370012369 0.005134523 -0.006592477 0.9999651 139 139 139
0.0226998414363421 -0.025656124144787 0.0132554243734132 0.01544678 0.001189993 0.99988 177 177 177
-0.049064388789009 -0.0674922813293339 0.0138346723156607 0.03580206 -0.01046024 0.9993042 109 109 109
-0.0254370768269281 0.0908018008647613 0.0154423352515277 0.009031443 0.009809501 0.9999111 152 152 152
0.0732602881312371 -0.0766264594019088 -0.00465577755864494 0.9901268 -0.005352308 0.140072 49 49 49
0.0650258981822337 0.0170240363598633 -0.00776715649471954 0.9844401 0.1754122 0.01040858 85 85 85
0.0669499272100126 -0.00175804486174314 0.0127762467597868 0.4098577 -0.0250271 0.911806 153 153 153
-0.0731936003377044 0.099844986516616 0.00546011271868407 -0.95939 -0.1596441 0.2325611 63 63 63
-0.0375354290548207 -0.0570776972455904 0.0138444194504184 0.03694208 -0.038583 0.9985723 106 106 106
0.0302740725381896 0.00422596207972226 0.0136276971669411 0.01032882 -0.01219686 0.9998723 149 149 149
0.0447194057720963 0.125355044520642 -0.0101013905775401 -0.03061983 0.9518782 0.3049432 78 78 78
-0.015716726001948 -0.0403266998238481 0.0135711504494127 0.01261393 -0.01073541 0.9998628 122 122 122
0.0649600187934358 0.052475086015553 0.00014356544435834 0.9920173 0.1117064 -0.05851009 49 49 49
0.0395950253724437 -0.0329113269948285 0.0128465998183058 0.009696092 -0.01525086 0.9998367 151 151 151
-0.0151584702073376 0.040203195919879 0.0145578523322658 0.01065588 -0.005054303 0.9999304 109 109 109
0.00664251669247751 -0.11143361966867 -0.0102239858808178 0.1645394 -0.9861947 -0.01862518 82 82 82
-0.00482300563417115 0.0443633994749779 0.0144709335756003 -0.004574557 -0.03001498 0.999539 114 114 114
-0.0752625092027752 -0.117411823112117 0.0139302406564584 -0.2247665 -0.04013813 0.9735856 120 120 120
0.0545568651177503 0.087868137172709 0.0137781793712944 0.02536017 -0.003060997 0.9996737 123 123 123
-0.037279097706496 0.0689582710219017 0.0154611028437086 0.02457001 -0.003270721 0.9996927 87 87 87
-0.0733851604774007 -0.0616013827484452 0.0139391898488797 -0.1123473 -0.04530834 0.9926355 107 107 107
-0.0390903072481315 -0.00143397660694955 0.0146975967147154 0.004341916 -0.0154523 0.9998712 86 86 86
-0.06455469636069 -0.0721927195543335 0.0139446702938991 0.01222519 -0.02140457 0.9996961 111 111 111
-0.0380503066973454 -0.0410693211814468 0.0137546176125192 0.01994611 -0.012384 0.9997243 100 100 100
0.0522784565756111 0.120541296938243 0.00936653683426336 -0.007141967 0.8956596 0.444683 73 73 73
-0.00366352892374777 0.0580059203808259 0.0145781163875305 0.008385045 -0.02053041 0.9997541 123 123 123
0.0677046837650578 0.00762751604691303 0.00349652630308511 0.9941435 0.1056878 0.02255343 62 62 62
-0.0102314824045003 -0.0261474748519166 0.0134929564022534 0.01827552 -0.01909464 0.9996507 120 120 120
-0.0133323416753774 -0.113010529076985 0.0126347476257093 0.07604774 -0.1754848 0.9815406 51 51 51
0.0528166104680676 0.125421880512856 -0.00988467076160299 0.01271467 0.943867 0.3300809 93 93 93
-0.0353812380688128 0.119524661511861 -0.00267929658269989 -0.07443208 0.9680605 0.2394132 49 49 49
0.0428989397717262 0.0487281544144327 0.0138050044201802 0.01762665 -0.01265236 0.9997646 124 124 124
-0.00894696577435583 0.0725148416968451 0.0149015768722308 -0.004977611 -0.005050427 0.9999748 127 127 127
0.0407568610215669 0.0902660600283449 0.0142060805602738 0.01776313 -0.02480073 0.9995346 150 150 150
0.0544909308209356 0.0740175943725687 0.013694804127403 0.01822439 0.007417823 0.9998064 124 124 124
0.0681066057328333 0.0342005198235509 0.0123164159208372 0.9399383 0.07964049 0.3319238 92 92 92
-0.0571120438609671 0.0336673674558741 0.0148475775838532 0.0160488 0.007614056 0.9998422 88 88 88
0.0645063008570402 0.0180115115835755 0.0130321466488831 0.263644 -0.1800351 0.9476704 171 171 171
-0.0260731398761339 -0.00544723889205434 0.0142875120451962 0.0180536 -0.0243371 0.9995408 92 92 92
0.0657225404047281 -0.0257439426168873 0.0122603661565294 0.2089668 0.07147743 0.975307 108 108 108
-0.0435867663735545 -0.0617768238345189 0.013607385629884 0.02207134 0.008586397 0.9997195 117 117 117
-0.0421232444320416 0.0561996312401634 0.0151599487429852 0.02800044 -0.0156227 0.9994859 111 111 111
0.0238459929096448 0.0220314258154588 0.0136272152227207 0.006542598 -0.007184116 0.9999528 151 151 151
-0.0484055518892877 -0.0767516532426264 0.0139531280607648 0.01261483 -0.01126582 0.9998569 125 125 125
-0.0413523386962975 0.115085371697824 0.0118053714926201 -0.1715111 0.9241872 0.3412654 65 65 65
0.0408761429517533 -0.0410984872736699 0.0127712546657289 0.01923844 -0.0152067 0.9996993 157 157 157
-0.0574122409938166 0.110380178484578 0.013826816116409 -0.1599686 0.808264 0.5666739 77 77 77
-0.00404922411331055 0.0419663827604875 0.0142890522294692 0.007878969 -0.001388766 0.999968 98 98 98
0.0623052691725614 0.104985567002872 -0.00827329388517822 0.985291 -0.02256935 -0.1693878 74 74 74
-0.000971340038488755 0.0955342967784452 0.0148724362788348 0.02144766 -0.01007558 0.9997192 127 127 127
0.00987560771058171 0.0927921909337424 0.015165908615954 0.0232515 -0.01142459 0.9996644 154 154 154
-0.0474342216645653 0.0206750706272698 0.0148782238711598 0.02337031 -0.001336171 0.999726 166 166 166
0.0236847926368143 -0.108947863794121 -0.0071297557135982 0.1731154 -0.9847121 -0.01931714 79 79 79
0.00584403547330248 -0.0602029516856586 0.0130388255683679 0.03229998 -0.01502602 0.9993653 178 178 178
0.0648408937112489 -0.017485998962816 0.0127537212524142 0.08845797 -0.01929322 0.9958931 131 131 131
-0.0259389610810704 0.0802888384334923 0.0149198506514547 0.01610262 -0.01967417 0.9996768 121 121 121
-0.0492466085028277 0.0189426184760808 0.0149374336355907 0.0186449 -0.0005433235 0.999826 111 111 111
-0.00986009837191315 -0.0898986144240339 0.0131441208875611 0.01856225 -0.01521202 0.999712 114 114 114
0.0307138218306063 -0.0713599273434089 0.0125847899911145 0.02535066 -0.006783799 0.9996556 123 123 123
-0.0273765183402617 0.119411683250235 0.00127519262899106 -0.1300881 0.949892 0.2842223 75 75 75
0.05949204744924 0.100175547524996 0.0141942728051842 0.1133839 -0.002638029 0.9935477 139 139 139
-0.0700251994247066 -0.0278272278338856 0.00340328615328528 -0.9775197 0.1757494 -0.1164794 50 50 50
0.000688234859617776 0.00636468937792833 0.0138206519666542 0.03098466 -0.02527286 0.9992003 181 181 181
0.070390401060489 -0.0372408379572664 -0.00539978163016674 0.9897454 0.1346919 -0.04756086 77 77 77
-0.0753786907617032 -0.105805053676806 0.0139947653325067 -0.08508964 -0.004101505 0.9963648 103 103 103
-0.0618405402677539 -0.0518351384675986 0.014313703039108 0.0508803 -0.02618036 0.9983615 129 129 129
0.0162003832353848 0.0883060596467371 0.0148761001873831 0.006036985 -0.009876454 0.999933 93 93 93
0.0738737598041206 -0.0646672058957973 0.0109384755346819 0.9357617 -0.04160401 0.3501702 59 59 59
0.0519161645753243 0.00865986322572065 0.0134189653448734 0.02051095 0.009009836 0.999749 136 136 136
-0.0757912636756489 0.0972601628795655 -0.0053880234799118 -0.9601105 -0.2202344 0.1722923 53 53 53
-0.0718733573934404 -0.103177854110413 0.0139169953475611 0.004421863 -0.01254122 0.9999116 101 101 101
0.0197586242097288 0.0318478290335757 0.0138465028599489 0.03419378 -0.02086324 0.9991974 214 214 214
0.0262142036211177 0.0219142231161564 0.0137767443434029 0.01072639 -0.01667589 0.9998034 124 124 124
-0.0540537360293574 -0.122940336162206 0.00421356431823361 0.1761615 -0.9840761 -0.02369096 62 62 62
-0.00713499825205288 -0.089685262913396 0.0130489598283102 0.009043806 -0.01702524 0.9998142 96 96 96
-0.0212113838535662 0.0219706755063751 0.0144438709128013 0.01117181 -0.006090309 0.9999191 102 102 102
-0.0433126615087636 0.022252143165171 0.0149929740233268 -0.02047739 -0.01612571 0.9996603 118 118 118
0.00970110625491971 0.0993185123963336 0.014919092996307 0.02964677 -0.0157629 0.9994361 159 159 159
0.00438296955967521 0.120345632544579 0.00681351991284368 -0.04804669 0.9858778 0.1604261 113 113 113
-0.077391132182573 -0.0880445174359215 -0.00220519548199521 -0.993228 0.1112509 -0.03348905 37 37 37
0.0292914659363175 -0.0864790871134238 0.0124564431861876 0.01031362 -0.004073028 0.9999385 110 110 110
0.00217381094442781 -0.107463260200222 0.0125155756945151 0.03564051 -0.08318629 0.9958965 95 95 95
-0.0336460995369471 -0.0855292407918342 0.0134180884243874 0.02654046 -0.0003746105 0.9996477 86 86 86
-0.0206870174563104 0.108164881524362 0.0155596165949946 0.01800263 -0.01433931 0.9997351 137 137 137
0.0151014887353549 0.0799698311279087 0.0145362769310343 0.02488283 -0.02122676 0.999465 134 134 134
0.0499449927477522 -0.104201699522539 0.0040287685233607 0.1303916 -0.9908616 -0.03451629 100 100 100
-0.0473086599830436 0.0362379362339811 0.0150313661662901 0.01499861 -0.00483311 0.9998758 114 114 114
-0.0293697325977074 0.0263850109972159 0.0145564266938042 0.001595379 -0.01525971 0.9998823 100 100 100
0.0721003728068743 -0.0358412514465127 0.00886491211576085 0.9962263 0.02754674 0.08230698 67 67 67
-0.0578103803132475 -0.045715214175635 0.0145514408679478 0.02428955 -0.01180604 0.9996353 101 101 101
-0.0462545614737965 -0.119212197249679 0.0129760800687227 0.06102126 -0.288566 0.9555135 103 103 103
0.029155597378377 -0.0234921776941688 0.0130893814989994 0.01014728 -0.002331391 0.9999458 164 164 164
0.065563002636985 0.0479278236196587 -0.00128814267771132 0.9840078 0.02922524 -0.1757114 74 74 74
-0.0539208037314599 -0.0687769651595087 0.0143024385472667 0.005829819 -0.003665573 0.9999763 104 104 104
0.0661526979632538 0.0126905620516142 -0.00624373444816351 0.9809219 0.1943657 0.003761331 92 92 92
0.0405049504654955 -0.105725712839446 -0.0117999938494773 0.1877243 -0.9822027 -0.006119264 89 89 89
-0.0646942016726307 0.0175069887876838 -0.00290043209966839 -0.9953572 0.01784404 0.09458145 73 73 73
-0.065835123112427 -0.0831259753626175 0.0139200338249196 0.01246861 -0.01864052 0.9997485 116 116 116
-0.0367114402325107 -0.0712664902017319 0.01365952941619 0.005264654 0.01301018 0.9999015 120 120 120
0.0120380018026119 -0.111241378289584 0.000979698797754669 0.1968194 -0.9802121 -0.02112859 78 78 78
0.0674695784071995 0.010478679493108 0.00273893601721148 0.9891904 0.1431278 -0.03188688 68 68 68
-0.0725144414131085 -0.126451210587953 -0.000115552074693992 0.1782606 -0.9838712 -0.01485515 84 84 84
0.00465768279550727 -0.11239169796486 -0.01116525197662 0.1621515 -0.9866607 -0.01440515 62 62 62
0.0703778208081099 -0.0241285610402915 0.00497973581357686 0.9921121 0.04357549 -0.1175364 88 88 88
0.0680784175848597 0.00465251374091302 0.0016647606052852 0.9973147 0.06859278 -0.02566101 85 85 85
0.0713215528694944 -0.0594062020697115 -0.0137981902054651 0.9979886 0.06335881 -0.002109288 70 70 70
-0.063955848135015 0.113856609300268 0.00662757197272751 0.03233421 0.8870768 0.460488 75 75 75
-0.0191267869704749 0.0685665970531673 0.0149479739482919 0.009396615 -0.0124772 0.999878 103 103 103
-0.0451552301225809 -0.0922567444434883 0.0135735561465681 0.02354275 -0.01565789 0.9996002 113 113 113
-0.0454375257959393 0.114363586495121 0.0115602232934341 -0.2087164 0.9223785 0.3250467 59 59 59
-0.04088168349835 0.0809909507376774 0.0152395742477647 0.006904581 -0.01608898 0.9998467 142 142 142
0.0548157986496851 -0.0299830971499635 0.0127730009317116 0.0142338 -0.01799166 0.9997368 173 173 173
0.0734666161416585 -0.0901007440831185 -0.000320162819017145 0.9986452 0.04837793 0.01916313 93 93 93
0.0576123676869076 -0.102639925595482 0.0105674400829665 0.1626984 -0.7058627 0.6894107 142 142 142
-0.0738582623589874 -0.126152124306186 -0.000371755448911271 0.138233 -0.9903928 -0.003712641 81 81 81
-0.0664433186317083 -0.108837474399634 0.0136014650996495 0.005751911 -0.006971576 0.9999592 122 122 122
0.0154445061518547 -0.0953907303803427 0.0124737270491148 0.01851482 0.01249532 0.9997505 103 103 103
0.0678346930382618 0.049488477362063 0.0132145195043051 0.7498397 0.01931407 0.6613376 123 123 123
-0.0476255047322887 -0.0888671421038008 0.0136605912819548 0.02268849 -0.007409662 0.9997151 100 100 100
-0.0631076642057958 0.0517008784255417 0.0155552355570941 0.008044789 -0.02050221 0.9997575 108 108 108
-0.00652750667204671 -0.078717366481535 0.0127646192070738 0.005137893 0.004475835 0.9999768 122 122 122
0.0273683675535419 0.0183466179628156 0.0137221232328357 0.02063438 -0.02346858 0.9995116 156 156 156
0.022150155689148 -0.00451270529208037 0.0132893032578607 0.009821845 -0.008117096 0.9999188 129 129 129
0.0451728014654404 0.117765658783705 0.0112047255130806 -0.02094364 0.7322442 0.6807201 55 55 55
0.0708432068558286 -0.0379964193726465 0.00300619776328298 0.9894444 0.01343129 -0.1442895 83 83 83
0.0521095034683368 0.123958763692345 -0.00522516536324025 0.01581469 0.9566345 0.2908616 86 86 86
0.0725069072805855 -0.0657163088546806 0.00227217448297351 0.9988316 -0.02266632 0.04268219 83 83 83
0.0388378800568944 -0.0879651584414578 0.0123649332673154 0.009892292 -0.01421107 0.9998501 146 146 146
0.0568462724386337 -0.0695518578773235 0.0122374575029666 0.0114762 -0.02336948 0.999661 150 150 150
0.0662075827375085 0.00277069631315818 -0.00685973135622098 0.9820388 0.06293723 -0.1778726 69 69 69
-0.0654577795226877 0.07484670121176 0.0157847887519181 0.01598277 -0.01662178 0.9997341 133 133 133
-0.0609338096781218 0.0302641344102572 0.0158461825188404 0.01883632 0.000859975 0.9998222 99 99 99
0.0708736307503034 -0.0468798844530882 -0.00554305187025322 0.9998903 -0.01388071 0.005167451 100 100 100
0.0503775928686809 -0.0273937965614095 0.0127098544709874 0.00857814 -0.009100282 0.9999218 180 180 180
0.0623966904064331 0.0140737410419538 0.0130734508084167 0.1351864 -0.01549673 0.990699 140 140 140
0.0327895886212595 0.114896994928051 0.0146241305575152 0.06213142 0.1530726 0.9862598 147 147 147
-0.00959062883069095 -0.0477215711537988 0.013578913720852 0.02902788 -0.00867751 0.9995409 146 146 146
0.0105872400119817 -0.0938911478340247 0.0127150028481339 0.01725468 -0.004697 0.9998401 97 97 97
0.0288057081445906 -0.0271194457607002 0.0129646913872055 0.02118011 -0.01400697 0.9996775 120 120 120
0.0646379550849467 0.058232213161497 0.0134121189575517 0.4715215 0.07291633 0.8788348 156 156 156
0.0165619749828118 -0.0264401479013763 0.013239055762886 0.01086011 -0.01842522 0.9997712 143 143 143
0.0209743961103573 -0.0452435355969079 0.0131632070589257 0.006031819 -0.01912342 0.999799 229 229 229
-0.0124866067845039 -0.0727840931897548 0.0133694964948307 0.02181313 -0.01456455 0.999656 117 117 117
-0.0213371663495181 0.0409767281523372 0.014615902599636 0.02989698 0.001515354 0.9995518 181 181 181
0.0463599045601752 -0.044011821731287 0.0127050772885579 0.0174966 -0.007716965 0.9998171 151 151 151
-0.0553864828838142 -0.101582300496118 0.0136579721328544 0.02187064 -0.01205247 0.9996881 133 133 133
-0.0694324404056915 -0.041055734593483 0.0144087970280818 -0.2356908 0.008361051 0.9717921 127 127 127
0.0700640876836591 -0.035869146783543 -0.00763300972907727 0.9848542 0.1410696 -0.1008043 71 71 71
0.065153893414019 0.0661357446989277 0.000313157083316751 0.9952615 0.07442146 -0.06257837 87 87 87
-0.0196111008365857 0.012352727494777 0.0147851206886095 0.01633206 -0.01575302 0.9997425 132 132 132
0.0726857197358008 -0.0840201863074159 -0.00177941555109451 0.9991286 0.0226374 0.03506597 76 76 76
0.0690714832550174 -0.0328143380340271 -0.0136375102786275 0.9819539 0.1497419 -0.1155162 60 60 60
0.0270118434362224 -0.108324300294838 -0.00530195628613123 0.1746479 -0.9843247 -0.02455645 91 91 91
0.04979535304825 0.126010094057085 -0.00928774114047126 0.01064574 0.943082 0.3323898 98 98 98
0.0654739990555364 0.0797031822510177 0.0135301237383822 0.8439611 -0.04751962 0.5342953 100 100 100
0.0626843156247713 -0.083497098408023 0.0120733142252821 0.01556155 -0.01270477 0.9997982 164 164 164
-0.0674777637009335 -0.0148420203131778 0.000590930148834878 -0.9915457 0.1243754 0.03698463 60 60 60
0.0548219900343122 0.110389833136661 0.0142633685981183 0.01650389 -0.01681001 0.9997225 136 136 136
0.0663810351207726 0.0348960289837397 0.00408782069965929 0.9949792 -0.03483734 -0.09382314 86 86 86
-0.0232931684017863 -0.0200532943084066 0.0137646948882955 0.02563243 -0.01655958 0.9995342 102 102 102
0.0319291478060001 -0.10723341386231 -0.00921947029986581 0.1783794 -0.98383 -0.01609997 98 98 98
0.016520151712061 -0.0583282751052312 0.0130337503765701 0.01627154 -0.01101048 0.999807 187 187 187
0.044635480909761 -0.0339550526361549 0.0127946063997275 0.01485816 -0.01040017 0.9998356 169 169 169
-0.0755127742510852 -0.0689833113687004 -0.00858129270445418 -0.9955037 0.09230641 0.02126035 47 47 47
-0.0231559087441965 -0.0982385754774115 0.0128028070957092 -0.002992251 -0.006302697 0.9999757 127 127 127
0.052767368105902 0.0203736526112854 0.0133191461362444 0.001425989 -0.006789403 0.9999759 159 159 159
-0.0258456137941502 -0.0674943611522816 0.0133525908327827 0.01502899 -0.0174896 0.9997341 150 150 150
-0.0372042861631718 0.0264124248337085 0.0147987233183646 0.05139125 -0.01174752 0.9986095 83 83 83
-0.00504014210682013 0.0330309101294102 0.0144562145046863 0.02103048 -0.0005276169 0.9997787 118 118 118
0.0487237134976222 0.0462685390845463 0.0136546535517612 0.0179871 -0.02840154 0.9994348 134 134 134
0.000429930195218531 0.104397232119841 0.0151230196324916 0.0112103 -0.01308053 0.9998516 161 161 161
-0.0735195800697708 -0.058958698401848 -0.00643870804954744 -0.9797729 0.1659001 -0.1119023 66 66 66
-0.0719848444318186 0.0844336237818792 0.0040248785130968 -0.9554223 -0.2544458 0.1497519 68 68 68
-0.0496007203431146 0.102856643363765 0.0158150500520516 0.02650268 -0.009850827 0.9996002 131 131 131
-0.0191455711909606 -0.0244732787007989 0.013926143920518 0.004531907 0.002326578 0.999987 116 116 116
-0.0469789452778552 0.11222597665725 0.0150057069898412 -0.138416 0.6759765 0.7238072 79 79 79
0.0325300880568696 0.0387709639718155 0.013753480096206 0.02445944 -0.005714637 0.9996845 100 100 100
0.0583638652806103 0.0130384104488612 0.0130762841898572 0.01195042 -0.01679329 0.9997876 156 156 156
0.0344045683484524 0.0664508979536618 0.0140252617879259 0.01882551 -0.005248507 0.999809 170 170 170
-0.0595746941692162 -0.107282817312606 0.0133043506654901 0.0262835 -0.0238176 0.9993708 135 135 135
0.053100172579902 0.0538179043054041 0.0136403045358653 0.01971271 -0.009560976 0.99976 126 126 126
0.00696507490418097 0.124361575636187 -0.0106886190399125 -0.05983622 0.9619048 0.2667561 127 127 127
-0.070458587105893 -0.111402225867188 0.0138351459274877 0.02630106 -0.01074978 0.9995962 91 91 91
-0.0699785210030507 -0.112399459730087 0.0133854450197545 0.02228498 -0.01950874 0.9995613 108 108 108
0.0245680177953467 0.120716685531105 0.0102334628219972 -0.01301272 0.8916358 0.4525663 108 108 108
0.056916498212804 0.08425320004731 0.0137518925772033 0.03123967 0.004056428 0.9995037 115 115 115
-0.027162884230081 0.0647593973606637 0.015057583717675 0.0164234 -0.008850104 0.999826 117 117 117
0.0653207554469377 0.0672797721628557 -0.00137537400210413 0.9918 0.1041431 -0.07407368 64 64 64
0.0664140111450979 6.99326610176243E-07 -0.00852507130102748 0.9816872 0.157838 -0.1066649 71 71 71
0.0348793501791779 0.123326302684549 -0.00112401766492048 0.002370379 0.9631115 0.2690923 93 93 93
-0.00423394996238269 0.00822048862418945 0.0141344987261067 0.01559413 -0.02019905 0.9996744 125 125 125
-0.0367413318078248 0.0241422139502134 0.0143294359628874 0.03023881 -0.009734951 0.9994953 112 112 112
-0.0805423586964708 -0.108856049904514 -0.00528138689842578 -0.9641038 0.2262417 0.1389914 50 50 50
0.00789446489817791 -0.111757644432772 -0.0047976051278516 0.1949882 -0.9805461 -0.02255945 86 86 86
0.0681146147678542 0.0364035300672734 0.0120202545743592 0.9758483 0.06713945 0.2078759 93 93 93
-0.0231026785114354 0.119837332112649 0.000749471535843482 -0.0417077 0.9715579 0.2331003 79 79 79
-0.0652861451365156 0.049029164109617 0.00289809138581126 -0.9736494 -0.2113177 -0.08574133 28 28 28
-0.0249150445284159 0.0639959948301958 0.0148317348747166 0.03391073 -0.007685718 0.9993953 117 117 117
-0.00422105645004434 -0.0122111510441505 0.0139940330218516 0.01378863 -0.01340642 0.999815 102 102 102
0.0135236120320414 0.0358977200999173 0.0141899102711391 0.003424941 -0.006672943 0.9999719 177 177 177
-0.0196771197896699 -0.11489806325351 0.0127525777939888 -0.002894118 -0.4941348 0.8693805 63 63 63
-0.0617665028675042 -0.113351136277309 0.0134689916877253 0.02137743 -0.01387042 0.9996753 115 115 115
-0.0114421226452507 -0.0530223473718225 0.0129013005079278 0.0237667 0.003900422 0.9997099 97 97 97
-0.0807802348922146 -0.122914535487578 -0.00398255205025455 -0.9188549 -0.2080943 0.3352647 49 49 49
0.0406089833398735 0.124057181751535 -0.00458889953019076 0.03916542 0.9590722 0.2804398 79 79 79
-0.0146749567458658 -0.0979511182539121 0.0128599406862362 0.02008909 0.006301628 0.9997783 117 117 117
-0.0782230061695118 -0.0953484939225231 -0.00942291751667068 -0.9825958 0.1614072 0.09194139 63 63 63
-0.0488085606617776 -0.0451254715423799 0.0138921316803716 0.02685856 0.0007250534 0.999639 106 106 106
0.00748073757178713 -0.109567136030172 0.0124740708422618 0.05167735 -0.4651447 0.883725 135 135 135
0.0450982729927637 -0.0217852757409558 0.0127660706577736 0.003796671 -0.02640109 0.9996442 141 141 141
-0.0558867954846302 -0.0651030734630564 0.0139451472208469 0.02739784 -0.0286527 0.9992139 124 124 124
-0.00322781704054242 -0.111817748684997 0.0116727114768016 0.114769 -0.4516605 0.8847773 63 63 63
0.0620946262613765 0.0218300879960296 0.0132231858590456 0.04862226 0.004831272 0.9988056 141 141 141
-0.0239599539195944 -0.117565554226779 0.00347874064360093 0.1868123 -0.9822963 -0.01396529 149 149 149
0.0424797885462691 0.118041998290207 0.0111659680088722 0.1077691 0.716507 0.6892051 99 99 99
0.0129198607024242 0.0256123688489149 0.013757774876279 0.007053336 -0.02277692 0.9997157 205 205 205
-0.00636059577875936 -0.110453037702334 0.0122188662341103 0.02466162 -0.1889731 0.9816725 40 40 40
-0.0213598784165204 0.106145616525537 0.0155328301894896 0.0152157 -0.00308478 0.9998795 139 139 139
-0.0772238941991912 -0.11837541521372 0.013043967955421 -0.5849366 -0.06487627 0.8084802 75 75 75
0.0717885204736459 -0.0574386190262366 -0.00589504267491686 0.9960287 0.07254343 -0.05161641 57 57 57
0.0753058366420768 -0.0944828269723696 0.00888803767157936 0.9824731 -0.1004468 -0.1570257 87 87 87
0.0664339200097747 0.040071266820112 0.000323659107773377 0.9818659 0.02380819 -0.188076 94 94 94
0.0300599968092804 0.108297137034137 0.0147183039527712 0.02821115 -0.01236438 0.9995255 129 129 129
-0.0162027648458525 0.121258961691372 -0.00493401147317118 -0.04601735 0.9532964 0.2985102 83 83 83
-0.0390177385371961 -0.0477155006469403 0.0138251378171625 0.01912407 -0.01966139 0.9996238 93 93 93
0.05039216109029 -0.104819550666245 0.00693304891548313 0.1315739 -0.9811291 0.1416825 85 85 85
-0.0592352860279989 -0.0529272494636175 0.0141270252730438 0.01485167 -0.001696043 0.9998882 150 150 150
-0.0314305227657522 0.108731896723818 0.0155559947340705 0.02497914 0.02063294 0.999475 156 156 156
