ply
format ascii 1.0
comment File exported by Rhinoceros Version 7.0
element vertex 471
property float x
property float y
property float z
property float nx
property float ny
property float nz
property uchar red
property uchar green
property uchar blue
end_header
0.72997259321207 -0.126696420670223 -0.00570970924785869 -0.06974814 -0.9975644 0.0006220114 166 166 166
0.717157735615565 -0.124837686263108 -0.00389685812063983 -0.1756058 -0.9837414 -0.03762234 153 153 153
0.707421790997372 -0.125310026597822 -0.0121300122162274 -0.09590198 -0.9935902 -0.05984505 110 110 110
0.730941978747122 -0.126527971863271 0.000258135593345643 -0.06988557 -0.9971976 -0.0266992 177 177 177
0.723382911675406 -0.125970730603552 -0.0170223263436118 -0.129468 -0.9909527 0.03536512 172 172 172
0.727556937659922 -0.126864662190903 -0.0220998213811835 -0.1091849 -0.9939283 -0.01360926 152 152 152
0.723545166594896 -0.126495480159644 -0.0241566732267445 -0.1095138 -0.9915456 -0.06960022 143 143 143
0.714996138257072 -0.125291247243906 -0.012759841218389 -0.09248139 -0.9956019 -0.01496742 190 190 190
0.704998933305987 -0.123346093853331 -0.00409415134252472 -0.1266962 -0.9919294 0.004909921 179 179 179
0.701483532242927 -0.122962478745493 -0.002542490171562 -0.1379787 -0.9904202 0.005459244 211 211 211
0.705453848877693 -0.124286584432306 -0.010845077384084 -0.09754843 -0.995019 -0.02053032 160 160 160
0.689457612998123 -0.122892690700794 -0.00136125260197256 -0.1699296 -0.9854051 0.01003157 211 211 211
0.693340829852081 -0.124149610912581 -0.00950420705315219 -0.08497093 -0.9961699 -0.02062902 156 156 156
0.689910014216632 -0.122356668620817 -0.00822135747261632 -0.1291627 -0.9915357 0.0131884 178 178 178
0.69572192606827 -0.122576969687251 -0.0144533007473513 -0.107955 -0.9936194 -0.03265301 187 187 187
0.705277173915836 -0.123514493254231 -0.0201241809955913 -0.1202901 -0.9926926 -0.009579498 210 210 210
0.690871720834197 -0.124080712247409 -0.0198631575464142 -0.1207565 -0.9926404 0.009102029 116 116 116
0.733664151086484 -0.113253670333994 -0.0381476964772581 -0.6755025 -0.09184939 0.7316147 73 73 73
0.73368408784533 -0.110417018583111 -0.0381537073305221 -0.6795716 -0.1402067 0.7200865 75 75 75
0.716596380336353 -0.115715476433439 -0.0417093192486392 0.01809224 -0.006471656 0.9998154 85 85 85
0.715289398742082 -0.109941554118095 -0.0411644853240974 0.02542721 0.03108439 0.9991933 115 115 115
0.731167214199956 -0.103194035877845 -0.0402774484062308 -0.2854227 0.02897531 0.9579636 105 105 105
0.701841199088989 -0.109607876510802 -0.0406956538895797 0.003519131 0.02674845 0.999636 193 193 193
0.69321719969872 -0.110010893834604 -0.0410155810160109 -0.007358561 0.009181209 0.9999308 185 185 185
0.693425277256311 -0.100652310697055 -0.0408283097504969 0.02155895 0.08156575 0.9964347 223 223 223
0.707771255493067 -0.099274276656991 -0.0403326755691456 0.0360927 0.008006829 0.9993164 182 182 182
0.696454626392414 -0.0961515434259761 -0.0407237523454948 0.009303068 0.02611707 0.9996156 203 203 203
0.665538159099246 -0.120066369453034 0.0290673964441806 -0.1334705 -0.9897805 -0.0502001 149 149 149
0.181798210396245 0.0510648157005291 0.00094186952347558 0.1115208 0.9916665 0.0645036 105 105 105
0.0450794271635389 -0.0671028140931673 -0.00077657914879864 -0.1128839 -0.9935308 -0.01240608 158 158 158
0.26000037652263 -0.0737110369953808 -0.0432231228374155 -0.008169183 0.0649557 0.9978547 64 64 64
0.641379353811798 -0.118005434016906 0.0299229421385666 -0.1223365 -0.9923896 -0.01402466 178 178 178
0.674328214024664 -0.120569132486682 0.0431867338995501 -0.1443652 -0.9894569 0.01156407 115 115 115
-0.245925310917154 0.0132020604894523 -0.04345055535174 0.03955927 0.02499735 0.9989045 172 172 172
0.658714085222518 -0.119270597835308 0.0444599300516769 -0.1405138 -0.98945 -0.03527947 105 105 105
0.268848886899769 -0.0858444494771891 0.0191398380636059 -0.1045641 -0.9944525 -0.01142187 153 153 153
0.662903747228208 -0.119683419536447 0.039171773740362 -0.1046893 -0.9944545 -0.0100201 186 186 186
-0.430652642401785 0.0551107782756151 -0.0461743629077568 -0.00886093 0.0003665792 0.9999607 173 173 173
0.648011461677795 -0.118617775128588 0.043224787254694 -0.1034735 -0.9944506 0.01900392 63 63 63
0.6431735081184 -0.117928488919621 0.0444183517392506 -0.1267917 -0.9919292 0.000439205 51 51 51
0.637540956653972 -0.117040336721599 0.0416400291371741 -0.07119484 -0.9970975 0.02697943 181 181 181
0.677032203845506 -0.12169373521985 0.0251467831785663 -0.09934943 -0.9946184 -0.02939508 156 156 156
0.673629372214528 -0.119932646618125 0.0214235880057841 -0.06311148 -0.9976926 -0.02502862 173 173 173
0.673781187463376 -0.119879526062572 0.0167514604708775 -0.09801537 -0.9938504 -0.05152149 179 179 179
0.664470092619945 -0.120105954146421 0.0212904384804157 -0.1208474 -0.9926054 -0.01142295 199 199 199
0.661180041924599 -0.119515844028342 0.0223252222047583 -0.1233416 -0.9923242 -0.008918685 197 197 197
0.661142189525629 -0.119805398008295 0.017916160006244 -0.1709518 -0.9849825 -0.02418653 207 207 207
0.681357475192065 -0.122324502519609 0.00202719699186105 -0.0872056 -0.9953794 -0.04018649 194 194 194
0.671374701664192 -0.121404232662597 0.0021995490424157 -0.105243 -0.9938505 -0.03442385 201 201 201
0.660404493987221 -0.120390646060337 0.00590688936927841 -0.1802572 -0.9834205 -0.01978648 180 180 180
0.669922477447364 -0.120101261161014 0.00123313494690236 -0.1310942 -0.9902557 -0.04698883 179 179 179
0.682823562841897 -0.121681526496952 0.012577230865724 -0.107486 -0.9941603 -0.009597285 214 214 214
0.67110194147815 -0.120861954880945 0.00692015833791609 -0.1112126 -0.9937701 -0.007263816 182 182 182
0.660093246328669 -0.119064795866866 0.0106369635961877 -0.1169211 -0.9930202 0.01549962 205 205 205
0.650685246790647 -0.118158697638043 0.0194265138627461 -0.1097848 -0.9933127 -0.03573722 217 217 217
0.65758321734035 -0.119967797429403 0.0123370914729608 -0.1012112 -0.9945457 -0.02520295 157 157 157
0.399131650020693 0.024421972987049 -0.0407103038937502 0.02967745 0.02946073 0.9991253 155 155 155
0.63667767499621 -0.117981871626901 0.0240510749477472 -0.06405552 -0.9967703 -0.04843403 160 160 160
0.641322843855651 -0.117787279874903 0.0230544382274688 -0.1295168 -0.9915007 0.01231831 158 158 158
0.561715411094196 0.012897645774459 -0.0403108363535792 0.0684967 0.3688933 0.9269444 195 195 195
0.651385149944042 -0.120006487771657 0.00758697878765879 -0.08942902 -0.9959931 -0.0004834372 164 164 164
0.646989650104948 -0.119108429740257 0.00285536785648133 -0.1283333 -0.9913644 -0.02696727 186 186 186
0.643636473576378 -0.118358850396129 0.00899334401071922 -0.1528128 -0.9880936 -0.01787125 168 168 168
0.637020517345743 -0.117956746526162 0.0106360451105254 -0.08901496 -0.9954694 -0.03342189 129 129 129
0.642360842922147 -0.118858826081909 -0.00212296822085906 -0.08146861 -0.9960465 -0.03541333 196 196 196
0.67368097354369 -0.0802519158545225 -0.0403168528974557 -0.01125936 -0.005748458 0.9999201 207 207 207
-0.0447358663172643 0.0712256661988793 0.0333919104039591 0.1483558 0.9888729 -0.01099323 120 120 120
0.619102426762105 -0.116004402792346 0.0373826422257411 -0.1316162 -0.9902132 -0.046422 159 159 159
0.629141778421086 -0.11630057195992 0.0359546166109554 -0.1125873 -0.993558 0.01290216 157 157 157
0.624920437151289 -0.116336469421971 0.0310191603868945 -0.1243745 -0.9913076 -0.04289685 162 162 162
0.627070478207796 -0.116761991848087 0.0288922338265591 -0.1095083 -0.9927267 -0.05001569 170 170 170
0.18168544512197 0.0503109409795561 -0.0301092474010519 0.08657135 0.9950688 0.04840815 100 100 100
0.614427615724481 -0.115329610574824 0.0315188500575385 -0.096728 -0.9950479 -0.02287973 187 187 187
0.496099808221019 0.0236070870070941 0.00636647427627468 0.1038234 0.9942132 0.02758201 145 145 145
0.605327811957234 -0.114251668691278 0.0417723559279512 -0.1173311 -0.9930126 -0.01262596 178 178 178
0.598694962619216 -0.113655807144328 0.0367354375288083 -0.1070088 -0.9941093 -0.01719934 146 146 146
0.586822799444374 -0.112652637783773 0.0425288089280163 -0.08967466 -0.9959643 -0.003673438 163 163 163
0.587577270148969 -0.112488535285448 0.0399141290802458 -0.08490173 -0.9960623 -0.02552598 156 156 156
-0.759299769094955 0.119880384704273 -0.0420933365284896 0.9966481 -0.08179241 -0.001577089 169 169 169
0.608741515595464 -0.115270424444206 0.0278666137793399 -0.08638988 -0.996255 -0.003568549 166 166 166
0.602579450261159 -0.114572389701239 0.0248129675355795 -0.09683186 -0.9948514 -0.02990432 160 160 160
0.591291715626161 -0.112691120698144 0.0348988562666771 -0.1196039 -0.9923336 -0.03112775 163 163 163
0.593827873745707 -0.114161143485898 0.0230925390020348 -0.1187443 -0.9928473 -0.01241445 167 167 167
-0.22562306095438 0.0735537674331894 -0.0438698129983546 0.08019147 0.02177759 0.9965416 188 188 188
0.61844822579504 -0.115453998279355 0.0447936840747667 -0.08888821 -0.9960409 0.001215559 109 109 109
0.613710322465044 -0.114414845964266 0.0394395140708032 -0.0879939 -0.9953447 -0.03931867 172 172 172
0.596965212460653 -0.113529344336013 0.0433377371626337 -0.1115144 -0.9935924 -0.01840122 157 157 157
0.623421486284784 -0.116746537229105 0.0129248281597455 -0.1059615 -0.9939104 -0.03023811 162 162 162
0.612689329477115 -0.116226837831427 0.0115202683120729 -0.07292037 -0.9961438 -0.04878735 133 133 133
0.624814241705971 -0.116975078970532 0.0198796630839898 -0.08280302 -0.9965323 -0.008191032 165 165 165
0.627313554770455 -0.116707671313515 0.0136316085485395 -0.1312492 -0.9908097 -0.03270739 158 158 158
0.62168931153956 -0.116161280852518 0.0173814402535968 -0.057854 -0.9982678 -0.01069644 184 184 184
0.621251225086716 -0.116413069628647 0.0153434186725918 -0.08616364 -0.9951938 -0.04653002 163 163 163
0.629355848290692 -0.117205451721515 0.00460317405845895 -0.1154044 -0.9919387 -0.05234086 186 186 186
0.623330369393184 -0.116917352215875 0.00404408753805718 -0.09426904 -0.9955447 0.002022902 184 184 184
0.62685375058113 -0.116311119707126 -0.00130535120237701 -0.05463682 -0.998473 -0.008154229 139 139 139
0.620760009125417 -0.117151681444014 0.00340718157686221 -0.1213926 -0.9924887 -0.01516474 172 172 172
0.615124442454526 -0.116261307917265 -0.000829578781297802 -0.1175137 -0.9928877 -0.01909193 180 180 180
0.609175325558028 -0.115685545765404 0.000379174836503626 -0.06803425 -0.9976713 -0.004825639 186 186 186
0.605829322224202 -0.114365787347772 0.0127509795110945 -0.07580524 -0.99694 -0.019087 194 194 194
0.536965798113907 0.0188969497561704 -0.0147835389925073 0.09744693 0.9948835 0.02666169 93 93 93
0.591525793516427 -0.113642731852068 0.00980662334116988 -0.08396246 -0.9946806 -0.05967158 193 193 193
0.605222853764753 -0.114741892920745 0.0169067221918004 -0.1034067 -0.9944661 -0.01855212 184 184 184
0.591237244225177 -0.113330320121388 0.0184466742867632 -0.1065563 -0.9943066 -0.0001870919 154 154 154
0.554938523564103 -0.0134033885375575 -0.0407742610579636 -0.01820016 -0.006168569 0.9998153 153 153 153
0.603142197181007 -0.115117553484314 0.00049954450765799 -0.1232005 -0.9915582 -0.04042329 149 149 149
0.589493871636707 -0.113940675013851 0.00362677610432088 -0.1055236 -0.9933904 -0.04516855 174 174 174
0.587500800949035 -0.11409346646137 -0.000476280136677498 -0.08317797 -0.9958648 -0.03653371 161 161 161
0.681394005530429 -0.12258501702112 -0.02725585836425 -0.1154433 -0.9918905 -0.05316004 177 177 177
0.671671901527853 -0.122515312368166 -0.0279958614614113 -0.148045 -0.9879386 -0.04538664 131 131 131
-0.631241426292157 0.112642998900624 -0.047000406297685 0.07390292 0.2016409 0.9766675 190 190 190
0.66397489801963 -0.121715960089356 -0.029086594901245 -0.1146463 -0.9912712 -0.06509738 138 138 138
0.65360652299638 -0.120249701791282 -0.0171132279193666 -0.08523142 -0.9963559 0.003244103 144 144 144
0.649744688721053 -0.120477192710655 -0.0214347264705751 -0.08651973 -0.9957023 -0.03303424 107 107 107
0.323906087153223 -0.0916665357552091 -0.0353406622015035 -0.1051628 -0.9943984 -0.01061707 178 178 178
0.234742748179347 0.0447720028190051 -0.0292533097462694 0.1184018 0.9929605 -0.003246358 132 132 132
0.635518349047549 -0.118677292318697 -0.0230565470207831 -0.122985 -0.9923967 -0.004844792 176 176 176
0.643736653097172 -0.119778601786301 -0.0269730020285612 -0.119516 -0.9927465 -0.01305333 90 90 90
0.636187602372741 -0.0461900890383644 -0.040715811134732 0.008259897 -0.0003364164 0.9999658 192 192 192
0.673462254179145 -0.120920965802695 -0.0282893216238393 -0.1475333 -0.9881933 -0.04132566 140 140 140
-0.305900637067646 0.0559610973359588 -0.0450888349443337 -0.00163998 -0.0270987 0.9996314 147 147 147
0.675820714482523 -0.121928758304387 -0.0406048058501617 -0.132644 -0.9274282 0.3496892 205 205 205
0.65922750255338 -0.120860179505768 -0.0349698468032952 -0.08011911 -0.996761 -0.006963086 182 182 182
0.669045379261969 -0.122414547937034 -0.0406944259666954 -0.1169518 -0.7974288 0.5919709 143 143 143
0.679397238544616 -0.112495549841472 -0.0411863819311632 0.01789044 0.04658549 0.9987541 201 201 201
0.612330301491276 0.0114073778664308 -0.038332079573615 0.06955739 0.8954896 0.4396136 124 124 124
0.646578354421981 -0.120370113310297 -0.040908772453883 -0.1229431 -0.917419 0.3784541 195 195 195
0.658271849162353 -0.121149431191271 -0.0338000009118564 -0.06081941 -0.9978693 -0.02361761 117 117 117
0.673235590168073 -0.00229106131829981 -0.0392918129090307 0.003528593 -0.02734707 0.9996198 210 210 210
0.643771510421728 -0.119586217507475 -0.0334597397207259 -0.07274649 -0.9952723 -0.06434973 170 170 170
0.643918511965207 -0.119060860881935 -0.0347636206142687 -0.08098058 -0.9933476 -0.08186913 178 178 178
0.640083787523825 -0.119574238505056 -0.0394832853474382 -0.1055933 -0.9183041 0.3815331 184 184 184
0.654986522705193 -0.111822101996536 -0.041170856697135 0.02384278 0.009871366 0.999667 183 183 183
0.64788829295564 -0.111674904134168 -0.0413213749205885 0.006629961 0.01421522 0.999877 187 187 187
0.639550329243795 -0.107301336105541 -0.0411700673621034 0.02612285 -0.02195114 0.9994177 153 153 153
-0.219778175914063 0.0842287049492678 -0.0304101345821151 0.1334969 0.9907828 0.02298025 174 174 174
-0.247680462568081 -0.0390855734401647 0.0166075185218217 -0.04932847 -0.9769354 -0.2077592 34 34 34
0.555712401958973 -0.112173284499762 -0.0246498150822002 -0.1098173 -0.9938739 -0.01244143 154 154 154
-0.0778102246410927 0.02828600586348 -0.0443513624871399 -0.005426603 0.000182592 0.9999853 196 196 196
0.627847253761412 -0.118171232089963 -0.028233382953598 -0.1117748 -0.9920521 -0.05778355 95 95 95
0.614095736961684 -0.117259554207722 -0.0245347507680955 -0.1498194 -0.9884728 -0.02180913 164 164 164
0.482619033459986 -0.104304825622976 0.0208219558849557 -0.1087116 -0.9936711 -0.02827603 172 172 172
0.607728830417227 -0.116328513166652 -0.010738060361747 -0.1432809 -0.9894737 -0.02030566 141 141 141
0.604254864902285 -0.115528883886417 -0.0122331579331719 -0.08365415 -0.9964296 -0.01140457 184 184 184
0.600101596445394 -0.115259961236517 -0.0190077987193061 -0.1078657 -0.9940682 -0.01390774 142 142 142
0.591131507347654 -0.114149953417957 -0.00881412241184393 -0.09026249 -0.9938386 -0.064323 173 173 173
0.593297655511809 -0.114663233961177 -0.0151880056143704 -0.08076186 -0.9967325 -0.00133056 150 150 150
0.589899509960986 -0.115262918947767 -0.0339702362574044 -0.06380565 -0.9977249 -0.02176812 134 134 134
-0.490754846691352 0.107300925872209 0.013723906483622 0.1150995 0.9925194 0.04070963 114 114 114
0.604223107071881 -0.116905255867995 -0.0320833806245016 -0.1469534 -0.9880682 -0.04610784 148 148 148
0.401658039758507 -0.0187486786999527 -0.0420681482297609 0.02658392 0.04158161 0.9987814 163 163 163
0.592485465272746 -0.114139511188641 -0.0200611520847463 -0.08227117 -0.9965058 -0.0144086 206 206 206
0.62714385039911 -0.118940421319577 -0.040422363120663 -0.1252144 -0.8491399 0.5131109 128 128 128
-0.762020780735474 0.0868548273198382 0.0321743196202259 0.9978506 -0.06314661 -0.01751348 173 173 173
0.634569287422131 -0.113907145949952 -0.0411503264937632 0.008012985 -0.1268066 0.9918951 195 195 195
0.622889779016155 -0.112384878435377 -0.0411298901993857 -0.0005288098 -0.1669989 0.985957 133 133 133
0.631174961550988 -0.108572134489322 -0.0408034798534131 -0.02158028 -0.0469934 0.9986621 187 187 187
0.111249286465304 -0.0729350320979485 -0.0176004996967792 -0.1091006 -0.9940029 -0.007432138 114 114 114
0.605494021132818 -0.116515682764652 -0.038655215265583 -0.1421522 -0.9777546 0.1542357 174 174 174
0.598697032956919 -0.112381415155519 -0.0409488112322856 0.05656785 -0.3185287 0.9462239 203 203 203
0.603638992736971 -0.110258977162331 -0.0415069815657054 0.02528373 -0.01676567 0.9995397 167 167 167
0.611584788213371 -0.103999894862884 -0.0412611358320261 0.01485265 -0.006518479 0.9998685 172 172 172
0.600620843881385 -0.0991378773689626 -0.0412572747802841 0.01248895 0.02434531 0.9996256 131 131 131
0.681816667079276 -0.123021160739387 -0.0026764705776256 -0.0816924 -0.9966002 0.01070008 118 118 118
0.671862466584814 -0.121678949300972 -0.00173510863188758 -0.1064936 -0.9941132 -0.01995208 159 159 159
0.566852018438043 -0.112151784039071 0.00464461782369013 -0.1256588 -0.9920663 -0.003785325 160 160 160
0.658967077108468 -0.119856802372691 -0.00779240697985678 -0.1121851 -0.9932016 -0.03106685 176 176 176
0.667782699885965 -0.121128322243067 -0.0121234397768159 -0.1242549 -0.9868625 0.1032618 44 44 44
0.676066031305992 -0.12119025387643 -0.0198201390587365 -0.07167522 -0.9973127 -0.01516692 123 123 123
0.654095790641622 -0.120356106528444 -0.00785276643711147 -0.16463 -0.9861619 -0.01953788 134 134 134
0.655398459180474 -0.120110429676816 -0.0101919597524215 -0.1314511 -0.9908401 -0.03092624 136 136 136
0.649561920886822 -0.120035123596444 -0.0138605137661529 -0.09802452 -0.9951656 -0.006050539 125 125 125
0.646350598199263 -0.118935254990927 -0.00793292574288545 -0.08608672 -0.9953187 -0.04392966 150 150 150
0.645460413019869 -0.118417355782695 -0.0143230345364915 -0.104979 -0.9944527 -0.006583721 132 132 132
0.683829084983485 -0.108147080446658 -0.0410407453640228 -0.009995182 -0.0250982 0.999635 176 176 176
0.603306295175014 -0.0406817377954676 -0.040811895498549 0.0132044 0.05552971 0.9983697 197 197 197
0.668778094065074 -0.106737890679911 -0.0405401935364417 0.0009650575 -0.01131083 0.9999356 212 212 212
0.687533501119893 -0.0947671848241018 -0.0403528975632795 -0.01494466 0.008565662 0.9998516 202 202 202
0.669278006045104 -0.0903989946306547 -0.0406146629098012 0.0079256 0.006955874 0.9999444 205 205 205
0.661755414383178 -0.0985384248598002 -0.0407250338685688 -0.006736471 0.03076877 0.9995039 204 204 204
0.644560619283305 -0.100668150426374 -0.0411996342937075 0.03544636 0.05431898 0.9978943 122 122 122
0.646992917844163 -0.09407674087013 -0.0411415464925149 0.01699214 0.02477186 0.9995487 191 191 191
0.644452902187897 -0.0925427454879362 -0.0410544130000941 0.009504258 0.02932993 0.9995246 184 184 184
0.64856818344626 -0.0909335294685141 -0.0409914753492147 0.02407722 -0.008644279 0.9996727 160 160 160
0.629387990631767 -0.117075774068112 -0.00896117224405996 -0.1484386 -0.9889064 -0.005478884 145 145 145
0.623374565860451 -0.117514080016699 -0.0110450995912589 -0.1075507 -0.9940977 -0.0142389 163 163 163
0.619076027889913 -0.117297130792629 -0.00933690665992598 -0.1179142 -0.9930223 -0.00169036 107 107 107
0.149587416292287 0.0286404729307392 -0.0426958013050341 0.008231052 0.0239941 0.9996782 155 155 155
0.630890851190173 -0.0965344538555319 -0.0406748286654335 0.01168181 0.05455527 0.9984424 190 190 190
0.622985632593047 -0.100148327385062 -0.0413984239397162 0.02119508 0.02972421 0.9993334 95 95 95
0.624261396932606 -0.0937590864726481 -0.0409178273716768 0.006660183 0.02999351 0.9995279 166 166 166
0.636722791269099 -0.0859521252330504 -0.0405450082306314 0.03385468 -0.007414056 0.9993992 198 198 198
0.624290382281076 -0.0818557107524414 -0.0406099502692418 0.005685918 -0.03836718 0.9992476 193 193 193
0.609917097512027 -0.0945484378348653 -0.0409522433123777 0.01596216 0.04933977 0.9986545 179 179 179
0.612344269805002 -0.0885575917987707 -0.0412541537185376 0.0164478 -0.008280986 0.9998304 210 210 210
0.591717971409452 -0.0938403560052512 -0.0409469730683686 0.0232613 0.05244095 0.9983531 178 178 178
0.596921686273011 -0.0872001561232567 -0.0408454145291736 0.01725119 0.01897032 0.9996712 192 192 192
0.604291592695965 -0.0847559560339199 -0.0410417190486621 0.03637684 -0.008318334 0.9993035 187 187 187
0.145791913755708 -0.0642671520977007 -0.0432451368009796 0.002490509 0.05327292 0.9985769 176 176 176
0.743136897290597 -0.098459510832229 0.0460639423395099 -0.987037 0.1412211 0.07625335 130 130 130
0.74151583969572 -0.105383466011643 0.0351374295631379 -0.9906073 0.1308595 0.03966129 104 104 104
0.74150496954829 -0.104033591771831 0.032112521998254 -0.9895951 0.1435661 0.009506247 124 124 124
0.742936728446045 -0.0936578872364238 0.0458790853584449 -0.9881529 0.13997 0.06294709 150 150 150
0.743075106313087 -0.0882782002272657 0.0410487597713906 -0.9893612 0.1428401 0.02758662 123 123 123
0.741551096810869 -0.0977473383134457 0.0288635870722406 -0.9932546 0.1159498 -0.0009726762 79 79 79
0.741934308057323 -0.0928958664490374 0.0248116065533306 -0.9924312 0.1152508 0.0423967 87 87 87
-0.357229331300004 0.0971069360100398 0.0111102539835141 0.1215689 0.9925512 0.007944628 118 118 118
0.736289807953664 -0.00106290995327285 -0.028790904026174 0.04563352 0.9855856 0.1629068 63 63 63
0.155719641423315 0.053009917733339 -0.00737060291455094 0.09205066 0.9927307 0.07754055 114 114 114
0.744085525662033 -0.0774221998862279 0.0410328397204934 -0.9918386 0.1144004 0.05629189 137 137 137
0.744280200447665 -0.0728240283968802 0.036832366468674 -0.9870321 0.1605185 0.001188165 120 120 120
-0.438118221071641 0.0551143079075844 -0.0461403318051588 0.01610414 0.002089039 0.9998682 207 207 207
0.581769495750445 0.0152357729911743 -0.012483419187284 0.09843248 0.9942397 0.04240804 112 112 112
0.742080467701926 -0.0920235227135482 0.0144607338119101 -0.9912046 0.1253328 0.04248611 102 102 102
0.743176438271744 -0.0880828924484853 0.0176022829513072 -0.9911008 0.1285415 0.03458621 84 84 84
0.743246640310281 -0.0812350634665995 0.0142221964251132 -0.9943327 0.1042205 0.02098791 79 79 79
0.528336876277719 0.0190848754026378 -0.0380235183036806 0.07349675 0.8970017 0.435874 141 141 141
-0.761386593931467 0.102896810031948 -0.0348343139024389 0.9964029 -0.08443587 -0.007206144 216 216 216
0.743346472712663 -0.0794455905614382 0.0109377550430187 -0.9934984 0.1090312 0.03275792 178 178 178
0.743709669156194 -0.0769063140995065 0.00662096442227239 -0.994431 0.08115729 0.06723544 82 82 82
-0.611590931110356 0.116535139997413 -0.0324931225470697 0.1269019 0.9909292 0.04421764 127 127 127
-0.372123258483384 0.0722455617740949 -0.0453273471812171 0.05722339 0.0009975105 0.9983609 181 181 181
0.743522808724979 -0.0623107139366481 -0.0249602124372046 -0.9895608 0.1428853 0.01879076 65 65 65
0.744768888816718 -0.0632279259287971 0.033646977069756 -0.9939295 0.1092469 0.01301126 72 72 72
0.746693181224175 -0.0507780901652746 0.0336229252710355 -0.9904978 0.02339281 0.1355247 79 79 79
0.74480339967107 -0.061382371769894 0.0191547062986291 -0.9919918 0.1245477 0.02098041 46 46 46
0.746926346551474 -0.0475342014290741 0.026612665310015 -0.9971402 0.04804973 0.05833292 60 60 60
0.745774664411105 -0.0496350268518051 0.0194270867865416 -0.9984766 0.003223073 0.05508261 177 177 177
-0.022056332805297 0.0672320611736774 -0.0309071096015416 0.09762988 0.9948266 0.02808176 134 134 134
0.742772036789217 -0.0728155637489154 -0.00311829306001327 -0.9914495 0.1228034 0.04412653 135 135 135
0.542564563095611 -0.0499946733639889 -0.0416355313922124 0.01662523 -0.0003905242 0.9998617 171 171 171
0.743761355463044 -0.0657997742422909 0.00180620172628593 -0.9921255 0.1186545 0.04010093 66 66 66
0.744078758870462 -0.0649369258406716 -0.00327460378583044 -0.9956509 0.08619563 0.03535034 87 87 87
-0.218274101183502 0.0844950274545728 0.00528335464788388 0.1274236 0.9918078 0.008968135 91 91 91
0.74333131094516 -0.0659070568843392 -0.0166729793122229 -0.995625 0.09108955 0.02082215 32 32 32
0.744524770686338 -0.0593232284526968 -0.00547993571056599 -0.9970161 0.06159634 0.04652636 46 46 46
0.744930266748997 -0.0580609599801774 0.00838126049469218 -0.9962234 0.07855959 0.03697593 27 27 27
0.744488297920419 -0.0581430546915764 -0.00149467630957056 -0.9956693 0.09268301 0.007241445 190 190 190
0.74556343381474 -0.0495441456821117 0.0146111006788817 -0.9993603 0.0273977 0.022984 56 56 56
0.745062769042135 -0.0540491110225352 -0.000856899543353384 -0.9967414 0.07886719 0.01693068 59 59 59
0.25139387151817 -0.0847486602549301 -0.0203161494989906 -0.1164962 -0.9931839 -0.003797983 175 175 175
0.745381503902406 -0.0447905846528545 0.00797669327662087 -0.9950328 0.0857655 0.05053662 47 47 47
0.744990336450019 -0.0494503372915274 -0.0080786082091367 -0.9929653 0.1099923 0.04383628 109 109 109
-0.368317617947194 0.0542809304844303 -0.0456696948446542 -0.04673217 0.08191436 0.9955431 189 189 189
0.746697568445917 -0.036320723930837 0.000377750446208802 -0.9940163 0.07932446 0.07509397 139 139 139
0.747435366485164 -0.0495659378157605 0.0378127749542953 -0.9871804 0.1071487 0.1182967 98 98 98
0.74888665805042 -0.0422634035453928 0.0409815858566016 -0.9959994 0.08623192 0.02343519 93 93 93
-0.246148226962795 0.028882934152449 -0.04476859208525 -0.0257001 0.06506673 0.9975499 153 153 153
0.747913305079884 -0.0415363823387747 0.0326886352392871 -0.9873882 0.08233464 0.1352243 93 93 93
0.749811302156632 -0.0325918200431072 0.0351638680568693 -0.9963323 0.04346792 0.07370577 83 83 83
0.750320538424216 -0.0264004197798471 0.034119727376406 -0.9919481 0.1192334 0.04268819 74 74 74
0.74946210796517 -0.02515686939185 0.0406334711484408 -0.9925979 0.1036073 0.06336313 85 85 85
0.751555411365599 -0.0128367426740974 0.0407491340917525 -0.9917831 0.11414 0.05777768 25 25 25
0.74976384590004 -0.0245303530093968 0.0261937342445009 -0.9962749 0.0761843 0.04040131 24 24 24
0.749967104576508 -0.020969609202659 0.0367669848517309 -0.9937229 0.1083978 0.02765511 34 34 34
0.751386803115814 -0.0112851002831782 0.037703025381543 -0.9902292 0.1155399 0.0780803 40 40 40
0.713589382451515 0.00519650303840624 0.0431580310437533 0.07446852 0.9959013 0.05133245 212 212 212
0.292619233813916 0.0416157084382398 0.0169863067112438 0.08825824 0.9949545 0.04770666 119 119 119
0.749739198111444 -0.0246442323111973 0.0191684637433228 -0.9973742 0.05547883 0.04654905 26 26 26
0.748664392749301 -0.0281949761546088 0.012328398778187 -0.9956325 0.0653322 0.06669073 106 106 106
0.151170371532287 0.0132574433899908 -0.0430749830948876 -0.002555721 -0.0009469189 0.9999963 164 164 164
0.748998923214611 -0.0200309116692221 0.00702656869123686 -0.9950672 0.06818439 0.072056 37 37 37
0.750711325084511 -0.0130195581706198 0.0342760377789207 -0.99155 0.1174091 0.05516931 46 46 46
0.751093385745293 -0.0108939569657602 0.0284598889340079 -0.9903267 0.1381894 -0.01251955 18 18 18
0.751952964024427 -0.0023664711760647 0.034207712782364 -0.9806131 0.190017 0.04787071 134 134 134
0.751769692406835 -0.00201054070950235 0.0308471418754195 -0.9252099 0.3372356 0.1739507 168 168 168
0.743965651053014 0.00197819724463733 0.0294327534191035 0.1204407 0.9920047 0.03769335 159 159 159
0.733005668358735 0.00293116254891324 0.0278665871379021 0.09662525 0.9951418 0.01887744 124 124 124
0.749981052999855 -0.0127509700751514 0.0142226339738379 -0.9928709 0.1043333 0.05763565 25 25 25
0.75136990469208 -0.00160659576450328 0.0261709645471157 -0.8772216 0.4623365 0.1293337 25 25 25
0.743397486153609 0.00215162917763356 0.0233847469211276 0.1299211 0.9913402 0.01911047 181 181 181
0.734356192124133 0.0026301442786183 0.0206466956184704 0.1033949 0.9937216 0.04274145 193 193 193
0.731422591341889 0.00348830471221495 0.0157237212807832 0.09522376 0.9944172 0.04546317 160 160 160
0.723451852024789 0.00377821124347655 0.0309817647957932 0.09588994 0.9953308 0.01103067 159 159 159
0.715492218922729 0.00469185446723674 0.0329696043743115 0.09596625 0.9951867 0.01984743 164 164 164
0.711437280936788 0.00495444834213288 0.0281515000048358 0.0906472 0.9956787 0.02017284 131 131 131
0.722501376286271 0.00354308119602198 0.0165471544509971 0.1065911 0.9938074 0.03138876 196 196 196
0.715210805595046 0.00341932992249872 0.0199765866702572 0.08427324 0.9953546 0.04655364 196 196 196
0.70551184070508 0.00516272238555038 0.0180024467770689 0.09051638 0.994826 0.04612997 148 148 148
0.71570039420807 0.00439304076709135 0.0235617360152279 0.08001051 0.9958402 0.04359632 183 183 183
0.419170412175568 -0.0902194450723091 -0.0427247247278068 0.00124791 -0.01761578 0.9998441 170 170 170
0.695159499888932 0.00689205158937867 0.0445742374766693 0.1152264 0.9930201 0.02518051 174 174 174
0.684458527597699 0.00739815047060333 0.043685902999156 0.1033592 0.9944468 0.01980904 177 177 177
0.680709102363615 0.00789219592968848 0.03873494170553 0.1058096 0.9941956 0.01948068 160 160 160
0.66117480753078 0.00959601519625153 0.0394581564127157 0.09154504 0.995403 0.02814887 178 178 178
0.697564069262992 0.00609697970400003 0.0340838811997186 0.09125844 0.9956439 0.01910878 201 201 201
0.705386348006138 0.00567023931106547 0.0306982809456899 0.1056811 0.9938536 0.03296414 189 189 189
0.690114903159122 0.00691681163551827 0.0316309587076851 0.1091633 0.9934297 0.03436403 167 167 167
0.684221024176419 0.00780949261332342 0.0359916117286882 0.09737463 0.9947059 0.03283953 175 175 175
0.682837659891783 0.00743961096367496 0.0305146846779169 0.1082458 0.9938005 0.0253637 163 163 163
0.695653447009823 0.00631382884681297 0.018291752389589 0.1200769 0.9924413 0.02533278 142 142 142
0.697787818083679 0.00568308656198147 0.0170357936248949 0.1266157 0.9915158 0.02940875 154 154 154
-0.271614501328321 -0.04000751473894 0.0398470191035515 -0.1006327 -0.9947886 0.01639404 177 177 177
0.686928240617882 0.00674685314532031 0.0148641875406311 0.09858596 0.9944149 0.03768149 134 134 134
0.701527811220668 0.00574175032773061 0.0228049148751683 0.09228742 0.995384 0.02634061 160 160 160
0.67368592260013 0.00804017107893973 0.0233347317589564 0.08479186 0.9952967 0.04684964 135 135 135
0.678939739536853 0.00812716061231811 0.0327012101261973 0.1248904 0.9913778 0.03965377 173 173 173
0.677758060928525 0.00807940970733778 0.0297576933509549 0.1190177 0.9914019 0.05437822 154 154 154
0.658468839995591 0.00997720124239887 0.0365748534411167 0.1104397 0.9935335 0.02634921 157 157 157
0.679446060503252 0.00744934482786608 0.0182372171165023 0.1017118 0.9946868 0.01589867 124 124 124
0.677843748631812 0.0072522144799736 0.0157655889824557 0.09109368 0.9958112 -0.007873456 91 91 91
0.663359168160915 0.00872356498590854 0.017656219646844 0.1104947 0.9929143 0.0437272 142 142 142
-0.0686828439591217 -0.025737173088126 -0.0447109774068746 0.01213731 -0.01951231 0.999736 190 190 190
0.649018031703319 0.0109935691285896 0.0445824288818849 0.1071925 0.9939744 0.02290343 182 182 182
0.645604710923665 0.0109935267927024 0.0368871148687762 0.1039183 0.9943584 0.02127021 154 154 154
0.64304363138456 0.0113034989711469 0.0441204332332769 0.1047656 0.9944562 0.008998133 168 168 168
0.637387820037617 0.0118042789699677 0.0415566781189716 0.08816072 0.9957168 0.02785398 140 140 140
0.413155487097928 -0.09853335558378 -0.00754038447645095 -0.09980959 -0.9944486 -0.03331685 176 176 176
0.6221199770598 0.0135671830569466 0.0456299223203701 0.09487049 0.9954875 0.002085197 126 126 126
0.617442196730696 0.0135468603803903 0.0453225301760709 0.09611973 0.9953378 0.007978531 98 98 98
0.319235808698516 -0.0595482883385783 -0.0428835953663542 -0.002232276 0.01548255 0.9998776 191 191 191
0.614057815936113 0.0123123709191084 0.00588899859086189 0.1006077 0.9940545 0.04163777 94 94 94
0.649771875418929 0.0104688542483045 0.026278043015365 0.1068008 0.9940947 0.01921668 123 123 123
0.639833541017277 0.0110865800883646 0.0229799707865823 0.0908846 0.9952326 0.03538512 130 130 130
0.651139110633597 0.0106966558633648 0.0359655755107679 0.1062493 0.9938292 0.0318526 142 142 142
0.641689154732666 0.0109786813715207 0.0303153569182475 0.1120821 0.9931185 0.0339612 131 131 131
0.653870467343322 0.00964730481328768 0.017601054148452 0.1083392 0.9938477 0.02300769 136 136 136
0.653431254674095 0.00941113513548952 0.010217735340561 0.09841166 0.9949103 0.02164855 122 122 122
0.63210627005275 0.0115266456340892 0.0177412725833717 0.09434377 0.9948987 0.03571779 139 139 139
0.639694904682231 0.0103379677341513 0.00929142596094917 0.08607188 0.9952456 0.04558238 138 138 138
0.621063438422137 0.0127461700777447 0.0282686561051437 0.1172877 0.9929751 0.01562484 93 93 93
-0.244063791777535 0.0666351566068961 -0.0446151015023598 -0.05863452 -0.004839999 0.9982678 189 189 189
0.613736271334495 0.0136353776298197 0.0290206759108609 0.07833196 0.9964122 0.03204315 53 53 53
0.619707113609137 0.0132464028324404 0.0220632444355037 0.1417457 0.9898798 0.006790757 86 86 86
0.627681843048508 0.0121124918325539 0.0177956456536075 0.08497171 0.9957907 0.03436157 143 143 143
0.627503363622756 0.0122645355150226 0.0205167125053317 0.08228289 0.9954817 0.04738928 158 158 158
0.556213118423151 0.018018359772185 0.00392233097820455 0.09836033 0.9950552 0.01379866 85 85 85
0.617728951565714 0.0129299301204693 0.00787499197651093 0.09991984 0.9940739 0.04281578 131 131 131
0.741286784508923 -0.0918024690057422 -0.0345312064951203 -0.9698252 -0.03594083 0.2411374 96 96 96
0.743189361284514 -0.0747943028823261 -0.0283916734981042 -0.9901394 0.1004687 -0.09762149 72 72 72
0.742920566160593 -0.0716278184342514 -0.0351438141140452 -0.9739441 0.1032249 0.2019343 120 120 120
0.726442618389916 -0.0954345028725685 -0.040528468005056 0.004808819 0.002539461 0.9999852 122 122 122
0.720859643618888 -0.0933301367728729 -0.0409507232407005 0.02708061 0.02122542 0.9994079 96 96 96
0.740011526714949 -0.07893079456076 -0.03928872333592 -0.6038892 0.1039692 0.7902583 130 130 130
0.689659631278174 -0.0869670513776959 -0.0402893691648484 0.006815418 0.007983571 0.9999449 197 197 197
0.736758282783506 -0.0862046090494606 -0.0402186319858263 -0.3555357 -0.04605833 0.9335272 128 128 128
0.506322814835949 -0.0059508449409611 -0.040883706619292 0.02786019 0.0292061 0.9991851 142 142 142
0.717297312878859 -0.0841981088814823 -0.0409740711171645 0.0389872 -0.00596921 0.9992219 122 122 122
0.738524662552095 -0.0771590555998665 -0.0404951318946159 -0.362363 0.07529061 0.9289911 158 158 158
0.733732861342747 -0.0719796799058563 -0.0404351825825731 -0.03164846 0.01903167 0.9993178 127 127 127
0.00731720296946159 0.0654124757093713 -0.0404030713565173 0.07861965 0.97209 0.221043 125 125 125
0.714382305320758 -0.0799701967179929 -0.0404418543816704 0.06929398 0.01662937 0.9974577 149 149 149
0.699668615580228 -0.0758729780397789 -0.0402859001567545 -0.04048073 0.01930653 0.9989938 217 217 217
0.710985755948711 -0.0725028314546803 -0.0405693946558295 0.04704919 -0.00010335 0.9988925 202 202 202
0.712056833657447 -0.0659183761208393 -0.0403154147829871 0.04377957 -0.007078578 0.9990162 181 181 181
0.683977417651185 -0.0910552448689472 -0.0404456666450824 -0.02202028 0.02088558 0.9995393 196 196 196
0.676090078527 -0.0878066951467127 -0.0400135702076448 -0.01282375 0.01737353 0.9997668 199 199 199
0.660112993274079 -0.0839177647381222 -0.0406056327966755 0.02735539 0.01175144 0.9995567 185 185 185
0.650296388028323 -0.0790353889490856 -0.0409402902150356 0.01044019 -0.0245138 0.999645 204 204 204
0.153289295466446 0.0498700126810987 -0.0425299964891295 0.05191399 0.2512869 0.9665195 94 94 94
0.680340035081734 -0.0714572438880854 -0.0406347954019679 0.007694359 0.02626807 0.9996253 201 201 201
0.330829783081546 0.038916526584563 0.0313544490800358 0.1095501 0.9924008 0.05603136 162 162 162
0.742389049617769 1.48217875874934E-05 -0.017229676565711 0.1024935 0.9945792 0.0175293 152 152 152
0.691018873579913 -0.0618249029017042 -0.0403782067446574 -0.01773912 0.0009067963 0.9998422 206 206 206
0.679168780554324 -0.0616527454149827 -0.040121571160955 0.009547131 0.02375846 0.9996721 169 169 169
0.327124033387101 0.0216755739721313 -0.0415918388718898 0.02134956 0.005807874 0.9997552 205 205 205
0.660083296815946 -0.0747921096451085 -0.0408484308306589 0.007447187 -0.005084634 0.9999593 188 188 188
0.657539070055145 -0.0726495593853453 -0.0408104433287547 -0.01921712 0.03264513 0.9992822 156 156 156
0.653223072946897 -0.073204624465256 -0.0408415827359564 0.01739065 0.008738581 0.9998106 138 138 138
0.666458740047758 -0.0636374803812236 -0.040514292091331 0.004888486 -0.01992888 0.9997895 169 169 169
0.668485050808866 -0.0577259422344909 -0.0408981592725875 0.01477368 0.03404001 0.9993113 206 206 206
0.650512527243448 -0.0584228436249115 -0.0402669668438809 -0.007937003 0.0004649948 0.9999684 213 213 213
0.635352542626304 -0.0804398795460495 -0.0405702059314036 0.004202319 -0.01143032 0.9999259 181 181 181
0.622751678253598 -0.078138990718807 -0.0410556996821039 -0.01728647 -0.01037612 0.9997967 191 191 191
0.32154109083316 -0.0908128212729675 0.01861694630165 -0.09784429 -0.9951673 0.008281773 152 152 152
0.633669896211774 -0.0727329185606167 -0.0406041343622173 0.02358544 0.0002651548 0.9997218 171 171 171
0.644092302417903 -0.0647282862103102 -0.0410234779134074 0.001472387 0.03614892 0.9993453 209 209 209
0.623352659727288 -0.0718675951123222 -0.0406244173583036 -0.00126633 -0.01012118 0.999948 179 179 179
0.623226665315239 -0.0639388894505228 -0.0410114267728529 0.009905599 0.02723513 0.99958 190 190 190
0.632654943566668 -0.0566568434550692 -0.0408619461127075 -0.0009284875 0.001502031 0.9999985 195 195 195
0.637945673154079 -0.0546715274121619 -0.040306401557481 -0.004885131 -0.006453745 0.9999672 166 166 166
0.624849415862863 -0.0512600682748108 -0.040322785007102 0.02241135 0.01912743 0.9995658 189 189 189
0.171541110826813 -0.0371136380293118 -0.0432353112686067 0.01950062 0.03005823 0.9993579 154 154 154
0.614299519683682 -0.0595464862603161 -0.0407771794784368 0.01675937 0.02627274 0.9995143 167 167 167
0.594598579249646 -0.0686600526058627 -0.0410064421634971 0.0008705591 0.01847233 0.999829 218 218 218
0.61427311816857 -0.0572702450122402 -0.0411539434476251 0.009438823 0.006093376 0.9999369 173 173 173
-0.0150754593339097 -0.00159775688558206 -0.0440850035541844 -0.005102891 -0.003873936 0.9999795 165 165 165
0.620829541336597 -0.0520859312551663 -0.0407299508516722 -0.008412725 -0.001806649 0.999963 192 192 192
0.613514533849538 -0.0454241161958375 -0.0407149382383622 0.01732576 0.009173431 0.9998078 198 198 198
0.743355066013845 -0.0692775721195895 -0.0253510157926987 -0.9893217 0.1457324 0.002157386 154 154 154
0.279961647482879 0.0425534888506163 0.00792197689444379 0.1130159 0.9928365 0.03877076 118 118 118
0.743859446874864 -0.0639558418269601 -0.0359274920717723 -0.9763771 0.0844958 0.1988673 116 116 116
0.74381396025869 -0.0581434670361602 -0.0202271133903071 -0.9929314 0.08968032 0.07774681 80 80 80
0.744273564099905 -0.0550468605081664 -0.0280149098970477 -0.9943386 0.08981971 0.05677345 65 65 65
0.732615036210543 -0.0642907095251939 -0.040652749318914 0.0007121064 -0.003095033 0.9999949 138 138 138
0.599781284749561 0.014561972753643 0.0159868139718375 0.1124244 0.9931571 0.03161722 102 102 102
0.732688667897047 -0.0552772245676385 -0.04043991112878 -0.03202928 0.01040791 0.9994327 89 89 89
0.725737458852449 -0.0585185722382873 -0.0404715581205718 0.009684116 0.008975139 0.9999129 149 149 149
0.731932413278748 -0.0512272465320747 -0.0405810976618478 -0.03344078 -0.02137243 0.9992121 81 81 81
0.744940712116857 -0.0472983510817109 -0.0292181069090536 -0.9963332 0.06293604 0.05795816 42 42 42
0.744898290402291 -0.0498726734520103 -0.0374528875697667 -0.952513 0.1140861 0.2823178 100 100 100
-0.184439813193607 0.0780825595343813 -0.044196123873854 0.09674548 0.282248 0.9544508 174 174 174
0.580382359068691 0.0156922416033236 0.0060522210513782 0.1018779 0.9943218 0.03074221 118 118 118
-0.254023075380409 0.0879598151249388 0.0020746449932631 0.09707808 0.9950536 0.02107322 144 144 144
0.697190151877852 -0.0543805866369871 -0.0403047394119059 0.01529788 0.007522356 0.9998547 209 209 209
0.696945055867583 -0.0483794391982624 -0.040018107713463 0.02083933 -0.01322273 0.9996954 165 165 165
0.531707300967585 0.0194779229384738 -0.0199274782677452 0.1236219 0.9921919 0.01651671 125 125 125
0.745216202086004 -0.0471289604164005 -0.0174864151722322 -0.9973652 0.07198241 0.009012213 72 72 72
0.745816769494258 -0.0396055559536039 -0.0139169546685113 -0.9956424 0.0741936 0.05649422 101 101 101
0.746236732114033 -0.0330230982306139 -0.00842507355032357 -0.9964689 0.08387909 0.003743236 49 49 49
0.74711832168431 -0.0295831231072272 -0.011409376773632 -0.9946104 0.1022224 0.0173383 108 108 108
0.745519676729084 -0.0380850436324289 -0.0260276134830789 -0.9925815 0.1199942 0.01957997 54 54 54
-0.120357535833919 -0.0527291503456135 0.0371228509173853 -0.1090672 -0.9940298 -0.00300697 144 144 144
0.747604457543944 -0.02451422808746 -0.0216243322545158 -0.9955843 0.08225311 0.04523676 62 62 62
0.214790030781558 -0.0166015639436399 -0.0426665974567949 -0.002813539 -0.01397352 0.9998984 139 139 139
0.726928993510733 -0.0429634006578974 -0.0404564203069442 -0.02251063 0.00577123 0.9997299 83 83 83
0.72475265937857 -0.0378801484312792 -0.0402861303786282 -0.009336808 0.03991365 0.9991595 80 80 80
0.714428602103186 -0.0381473654490661 -0.0403637559608378 0.05280699 0.01303008 0.9985197 166 166 166
-0.503606800924072 0.0513185413206561 -0.0463688495073049 -0.01399058 0.01544935 0.9997827 144 144 144
0.740225814973589 -0.0344286648557333 -0.0403122038947278 -0.1603483 0.005689927 0.9870441 145 145 145
0.724098120762593 -0.0353280095412973 -0.040775879580956 0.02441286 0.04347035 0.9987564 101 101 101
0.730244383909846 -0.0277137858106609 -0.0401882562235559 0.000973765 0.02570114 0.9996692 137 137 137
0.746957412922151 -0.0236282545455975 -0.0282536203442286 -0.9939941 0.1037875 0.03469878 62 62 62
0.746428552218592 -0.0207022010797449 -0.0378307471810387 -0.8022451 0.1273751 0.5832481 107 107 107
0.74113592295383 -0.0204192535539613 -0.0398089071944729 -0.1318781 -0.006221261 0.9912464 114 114 114
0.734919423640108 -0.0176230204666559 -0.0398371050427945 -0.0004674776 0.01503652 0.9998868 183 183 183
0.728839418952791 -0.0146112534109144 -0.0399565210393855 -0.01488102 0.01320328 0.9998021 193 193 193
0.712795476162496 -0.0300977055713307 -0.0395279044286863 0.07453376 0.01556437 0.997097 213 213 213
0.493992181122163 -0.105169862893549 0.0336085770704062 -0.105418 -0.9934258 -0.04463289 122 122 122
0.70268316691458 -0.0276672898741288 -0.0394876125401352 0.005366188 -0.01635059 0.9998519 215 215 215
0.706127231732564 -0.0201827469816322 -0.0397706934065163 0.0371442 0.04969154 0.9980737 240 240 240
0.706453101343594 -0.0161478360392722 -0.039457694185031 0.02167351 0.04341457 0.998822 174 174 174
0.719593268401937 -0.0118237873917333 -0.0401241874266506 0.05401912 0.004254974 0.9985309 198 198 198
0.709531586398143 -0.0113555181468659 -0.0391458479752034 0.02756935 0.007174001 0.9995942 235 235 235
0.748272844890619 -0.0268820423204605 -0.00277504338669343 -0.9966128 0.07122757 0.04110429 135 135 135
0.749044478075055 -0.0170707266555836 0.00269751450522149 -0.9957926 0.0843761 0.03574612 45 45 45
0.74898318354333 -0.0133832478387559 -0.00688184932981245 -0.9968461 0.03950781 0.06882538 39 39 39
-0.357978074942492 0.047824238485862 -0.0455713160492213 -0.04527901 0.009237563 0.9989316 169 169 169
0.749564772881248 -0.0122862746278054 -0.0156049881930416 -0.9963065 0.06878021 0.05140671 59 59 59
0.750413117308813 -0.00719303172002927 -0.00791177249000308 -0.9969912 0.07681686 0.01038146 61 61 61
-0.411246621298971 0.100947317674041 0.00498751883221216 0.1108449 0.993153 0.03688399 112 112 112
0.740937216522361 5.77301952544573E-05 -0.0131634689508792 0.1100938 0.9938418 0.01255964 110 110 110
0.722082361136677 0.00184162011551781 -0.0114147156513606 0.08474524 0.9954668 0.04317563 149 149 149
0.715215329317013 0.0029482663958893 -0.0124780152842182 0.1025018 0.9940871 0.03583538 190 190 190
0.749941654535259 0.00045070948886039 0.00781620029934332 -0.568525 0.8225175 0.01563134 127 127 127
0.75046671719649 -0.00293818810430713 -0.000523427889455697 -0.9350784 0.3516987 0.04400499 42 42 42
0.737813321477974 0.00194919952801964 0.0103057198934968 0.1053502 0.9942176 0.02080342 160 160 160
0.433698169201984 -0.10094220902473 -0.00233303701933657 -0.08685801 -0.9961528 -0.01162925 187 187 187
0.735472239521633 0.00167808704518313 -0.000562616307131114 0.08129543 0.9962634 0.02915726 164 164 164
0.750379608575584 -0.000471855771633223 -0.00476271163892433 -0.6820979 0.731247 0.004497837 112 112 112
0.734240530533853 0.00175746550413125 -0.00320462635930063 0.1037797 0.9923297 0.06716788 169 169 169
0.725447583666105 0.00291742152224472 0.00709558107982705 0.08402922 0.9954058 0.04589495 127 127 127
0.723880493356102 0.00280045256752137 0.00487460561020314 0.09694741 0.9940736 0.049181 168 168 168
-0.239610488400296 0.0859984345110276 -0.0218186625807497 0.1234154 0.9916989 0.03608237 184 184 184
0.709823825411289 0.00409706672995691 0.00381646665084034 0.1137275 0.9925939 0.0427022 164 164 164
0.72128535648791 0.00264789155514533 -0.00258942032765441 0.117498 0.9930554 0.005937448 155 155 155
0.74812708770327 -0.0174281610719804 -0.0271811179884318 -0.9979993 0.03633371 0.05174323 82 82 82
0.74926836056567 -0.0115523008160547 -0.0295573417218739 -0.9888393 0.05085654 0.1400376 87 87 87
0.749858850756742 -0.00392311732273587 -0.0173568644160687 -0.9320315 0.3609186 0.03248389 53 53 53
0.74417986908442 5.35537440349287E-05 -0.0164863410978338 0.02807866 0.9992954 0.02490401 161 161 161
0.731662087208649 0.000953754566906717 -0.0219519170838026 0.0719951 0.9885367 0.1327101 171 171 171
0.740757633768896 -0.00172789726030853 -0.0273214086543271 0.03099696 0.9757652 0.2166138 59 59 59
0.729941950024751 7.5425357184411E-05 -0.0271310127830686 0.03344088 0.9852408 0.1678759 70 70 70
0.74684531024849 -0.00410957156127978 -0.0339930804225875 -0.4985392 0.8442568 0.1966954 116 116 116
0.729863734369661 -0.00052626996420857 -0.0323843880035371 0.0659342 0.9813887 0.1803576 50 50 50
0.731460170899434 -0.00197761004375963 -0.038846716184798 0.04870592 0.7698608 0.6363506 84 84 84
0.725700075388386 0.00184407578787127 -0.0173574870263877 0.09790292 0.9950525 0.0168999 186 186 186
0.715044049090889 0.00240440151105403 -0.0215390836599516 0.1122643 0.9932118 0.0304468 204 204 204
0.716166879893673 0.00252138365482191 -0.0242314214885164 0.0996097 0.9920564 0.07682446 142 142 142
0.720674289631568 -0.00436952052428685 -0.0399193770692755 0.04957666 0.2967228 0.9536759 159 159 159
0.718234877601805 0.000558214238882915 -0.0347597361998717 0.0530221 0.975266 0.2145807 52 52 52
0.708639356741144 -0.00360540696544476 -0.0397166994689604 0.04548819 0.1252825 0.9910778 208 208 208
0.712010674217521 0.00166173320586704 -0.0343685981136764 0.05891412 0.9753575 0.2126192 61 61 61
0.691643144950152 -0.0561004337023903 -0.0399002159021768 -0.009194668 0.01186933 0.9998873 170 170 170
0.695233237543129 -0.0447489724942751 -0.0401402882828478 -0.001360747 0.01615761 0.9998685 175 175 175
0.26487749140223 0.042786754214502 -0.0214906284004934 0.1167213 0.9929161 0.02221916 78 78 78
0.680114303927828 -0.0424208614105934 -0.0398602593406592 -0.03295986 0.01378864 0.9993616 192 192 192
0.682528994926629 -0.041639240010189 -0.0396421568935368 -0.005035454 0.0102643 0.9999346 178 178 178
0.664298874297906 -0.0471665069720313 -0.0405285283657928 -0.0075122 -0.028555 0.999564 139 139 139
0.657513218617116 -0.0504182564315592 -0.0403869420839936 -0.01716494 -0.02230199 0.9996039 192 192 192
0.655616913098116 -0.0466611236028855 -0.0407416662310322 -0.01250612 -0.04302754 0.9989956 201 201 201
