ply
format ascii 1.0
comment File exported by Rhinoceros Version 7.0
element vertex 480
property float x
property float y
property float z
property float nx
property float ny
property float nz
property uchar red
property uchar green
property uchar blue
end_header
0.0126276066223872 0.00687289604231167 0.0119212965547441 -0.1274131 -0.3549396 0.9261662 30 30 30
0.0144699265877497 0.00886536010786343 0.0132953028261064 -0.1114623 -0.4609259 0.880411 35 35 35
0.0163441946427119 0.006914738502944 0.0126461188375352 -0.08517842 -0.402696 0.9113619 118 118 118
0.0159565856377375 0.00725973018690396 0.0130733053266404 -0.08143005 -0.4126313 0.9072511 79 79 79
0.0181546261231196 0.00438344844862271 0.0115311841546891 -0.02548457 -0.3667172 0.9299834 214 214 214
0.0203344275872004 0.00517320999189663 0.0118990640222428 -0.02911288 -0.4109195 0.9112067 191 191 191
0.0187554409424555 0.00878620513960171 0.013738969999492 -0.0736565 -0.4272896 0.9011095 235 235 235
0.0203952243248713 0.00685680278822232 0.0127772788583634 -0.05501721 -0.4240913 0.9039467 215 215 215
0.0103360464493525 0.0107899940876608 0.0136259893953202 -0.1439503 -0.4910237 0.8591705 15 15 15
0.012582009069134 0.0102303064732199 0.0138772527753709 -0.1470738 -0.4730625 0.8686663 29 29 29
0.0163670232216608 0.00834596523329068 0.012887249427974 -0.09515685 -0.4388717 0.893497 34 34 34
0.014606778852154 0.0104053057102804 0.0141350726663468 -0.1005152 -0.4539396 0.8853449 33 33 33
0.024241035215069 0.000962261047804835 0.0101824502527116 -0.07796565 -0.288297 0.9543617 14 14 14
0.0233898212830317 0.00161815055891323 0.00995780034655314 -0.05263034 -0.3015827 0.9519863 17 17 17
0.0240168621460688 0.00242722400709439 0.0106625954686997 -0.05347954 -0.3516716 0.9345946 16 16 16
0.0277904918114436 0.000517133560622218 0.0106498996793626 -0.185571 -0.2448879 0.9516267 7 7 7
0.026612406007458 0.00279295810743618 0.0113099019109605 -0.1268042 -0.3447713 0.9300825 17 17 17
0.0285657098213923 0.00231302150770474 0.01138765617007 -0.1929519 -0.2810843 0.9400857 12 12 12
0.0247179915825617 0.0043294466404562 0.0120445291578172 -0.06288311 -0.3883186 0.9193772 18 18 18
0.0265637686173212 0.00446248420759487 0.0122160713254807 -0.1190622 -0.3676079 0.9223278 35 35 35
0.0269012501160395 0.00724089511915493 0.0130860905229447 -0.06806011 -0.3564929 0.9318157 64 64 64
0.0284364869515192 0.0063586271671896 0.0126928488790391 -0.09353515 -0.344708 0.9340383 42 42 42
0.0264825274864924 0.00885177024885464 0.013566086727321 -0.02418357 -0.370064 0.9286914 76 76 76
0.0319175174156916 0.00418293842359829 0.0126813153802751 -0.226013 -0.2935964 0.9288268 73 73 73
0.0349044849793207 0.00611365207716275 0.0144298176347611 -0.164984 -0.2849281 0.9442437 75 75 75
0.0285657098213923 0.00707853206678677 0.0133341054498551 -0.09192456 -0.3503392 0.932101 78 78 78
0.029124384156872 0.0087162292866354 0.0136968593179582 -0.08375698 -0.3516043 0.9323943 75 75 75
-0.00988867379028679 0.00687456497236538 0.0169721643506883 0.1436736 -0.4007294 0.9048612 245 245 245
-0.0115474710543859 0.00842035182997036 0.0174937943994401 0.1538117 -0.3357972 0.9292912 238 238 238
-0.0102876970847356 0.0079075134663229 0.0172355870782731 0.1926715 -0.3284933 0.9246458 243 243 243
-0.00741016364891411 0.0104928053288107 0.0167652170240281 0.2624106 -0.2093677 0.9419692 220 220 220
-0.011433477171253 0.012472394791091 0.018429527717769 0.2297813 -0.1699569 0.9582877 55 55 55
-0.0040355870803106 0.00881564983412075 0.0152359704553483 0.2823636 -0.2617809 0.9228985 228 228 228
-0.00569551683266045 0.010919693794692 0.0163872937738297 0.2703526 -0.2148624 0.9384794 228 228 228
-0.00922363496620537 0.0125333107380514 0.0175684194146989 0.2399838 -0.1941285 0.9511687 58 58 58
-0.00182842708427788 0.0109086073307638 0.0156563024103044 0.2286106 -0.2783097 0.9328884 225 225 225
-0.00654828048546197 0.0145872867970114 0.0174144010125993 0.205749 -0.282799 0.9368522 56 56 56
-0.00150918460686089 0.0147318876652365 0.0162875155984757 0.1879857 -0.311554 0.931448 32 32 32
-0.0113867173274267 0.0144315994648581 0.0186223487436173 0.1971605 -0.1878303 0.9622097 122 122 122
-0.0108121583541143 0.0160630978016501 0.0184520582734941 0.1709033 -0.205352 0.9636506 133 133 133
-0.00950371719200493 0.0164881981281881 0.018494258361995 0.1555986 -0.2686407 0.95059 141 141 141
-0.00830399490196587 0.017552379456008 0.0188191930829881 0.1383956 -0.2989196 0.9441894 127 127 127
-0.00710314012367608 0.016222599831069 0.0181050102292893 0.1627875 -0.31633 0.9345778 114 114 114
-0.00748311973411919 0.0173138416676168 0.0190362135946153 0.1485617 -0.3184651 0.9362208 159 159 159
-0.00912481046516778 0.0183231867222433 0.0187369684755204 0.1000762 -0.2666687 0.9585784 133 133 133
-0.00527595973808648 0.017149809685195 0.0181774596750138 0.1855686 -0.3435952 0.9206012 42 42 42
-0.00331049657661797 0.0180014408497458 0.018252650934398 0.2148566 -0.3363167 0.9169121 66 66 66
-0.0011170456488836 0.0164651907353048 0.0167462627469895 0.1690655 -0.3282077 0.9293528 18 18 18
-0.00312810636360528 0.0169262922672873 0.0172875921308396 0.2082024 -0.3487346 0.913803 26 26 26
-0.00594782329399468 0.0193285978703146 0.0194875399648545 0.1601097 -0.2838806 0.9453977 69 69 69
-0.00378936029274346 0.0191088951496725 0.01892019315356 0.2186947 -0.2693443 0.9378839 77 77 77
0.000565712682415231 0.01021170982405 0.0144318143903611 0.2801608 -0.3474581 0.8948647 163 163 163
-0.000505919226001517 0.0100036896137838 0.014517823892772 0.2786512 -0.3321102 0.9011416 186 186 186
0.00177419685523628 0.0106142795948629 0.0149302284299729 0.2503989 -0.3813008 0.8898933 134 134 134
0.00109017395179389 0.0111277140049582 0.015077749925792 0.2477828 -0.3726312 0.8942872 170 170 170
0.00099891924064277 0.0120482481388693 0.0155001978456376 0.2103029 -0.320325 0.9236691 164 164 164
0.000740533105541452 0.0161775387196188 0.0162249903261064 0.1444252 -0.3149657 0.9380501 24 24 24
0.00271231435935615 0.0147652662663107 0.015443424421489 0.1524503 -0.3587125 0.9209149 28 28 28
0.00229102873008369 0.0167938507465963 0.0163211028158067 0.1152902 -0.3570727 0.9269344 25 25 25
0.00629532837073921 0.0111980474857931 0.0136442880212663 0.06974269 -0.4648362 0.8826456 24 24 24
0.00583279632728217 0.0121475494770651 0.0141238669931291 0.09170675 -0.4558332 0.8853282 21 21 21
0.0101012041489374 0.0126425064472799 0.0145567755281327 -0.1183534 -0.4488286 0.8857456 30 30 30
0.0106325199524653 0.0128854549793844 0.0150284568845628 -0.1265977 -0.4305728 0.8936331 10 10 10
0.00710970663230537 0.0136477983860617 0.0146901409208177 -0.04614644 -0.4262399 0.9034324 7 7 7
0.00862372421424507 0.0145559347538595 0.015297363239467 -0.08637868 -0.3990362 0.9128575 15 15 15
0.00683033966224311 0.0161970890431051 0.0157157580434678 -0.005217987 -0.3895183 0.9210039 10 10 10
0.00845951341788886 0.0165734327702169 0.016077528434932 -0.05312041 -0.3796549 0.9236019 9 9 9
0.000617509118725046 0.0186015404133444 0.0177664856492875 0.1311643 -0.3234543 0.937109 56 56 56
0.00508034729163764 0.017736796226943 0.0166547994195817 0.04979138 -0.3847897 0.9216603 26 26 26
0.00879699491660713 0.0181119478611593 0.016639063793361 -0.07463098 -0.3868653 0.9191113 11 11 11
0.0146189381996882 0.0591713226704245 -0.00599046544438619 -0.5361236 0.8333657 0.1344363 51 51 51
-0.00962644315559746 0.0227221287159567 0.0201973418771623 0.04336178 -0.2177632 0.9750379 105 105 105
-0.00363730884392144 0.020961049881423 0.0190777580320237 0.2266355 -0.1819383 0.9568358 95 95 95
-0.00385772682030083 0.0221867597965841 0.0191920201360581 0.2150134 -0.1694474 0.9617987 76 76 76
-0.00255804754097344 0.0203986204533224 0.0188715855657456 0.2275984 -0.2107407 0.9506773 67 67 67
-0.00149404502708794 0.0207970178990011 0.0183623830854295 0.1538907 -0.2211798 0.9630146 70 70 70
0.00287777685325263 0.0206583774952536 0.0181661943971513 0.06595001 -0.2995151 0.9518095 64 64 64
0.00473380588691352 0.0225374735264425 0.0184175769864915 -0.0192632 -0.2835445 0.9587656 37 37 37
0.00249243282477973 0.0224936045078878 0.0186898808061479 0.04842271 -0.2305812 0.9718475 37 37 37
0.00622046493690132 0.0184396541981344 0.0167565445482133 0.02613742 -0.3868591 0.9217684 38 38 38
0.00891858839194892 0.0188082493214254 0.0172320107995866 -0.08299592 -0.3719221 0.9245462 16 16 16
0.0104295661370051 0.02049744495436 0.0179778139173387 -0.1204426 -0.3947541 0.9108583 39 39 39
0.00623411440055488 0.0206658876804953 0.017852465349376 0.001914557 -0.3577232 0.9338257 32 32 32
0.0069272568146479 0.0228406227497702 0.0184635321676133 -0.03794912 -0.3240052 0.9452939 41 41 41
-0.00946688152153374 0.0248047150044088 0.0206945340215562 0.07424663 -0.1822424 0.9804464 89 89 89
-0.011514420278858 0.0263563431172018 0.0210560957967637 0.06962586 -0.1968687 0.9779544 109 109 109
-0.00883602596123101 0.0262328422932272 0.020809213358104 0.1177413 -0.1719945 0.9780362 97 97 97
-0.00562864042122246 0.0230578220753317 0.0197582046567796 0.1947705 -0.1461869 0.9698937 89 89 89
-0.00369810558159234 0.0264424122242575 0.0197143058359025 0.1509698 -0.2299403 0.9614238 67 67 67
-0.00319647289116265 0.0241047180561667 0.0188915829240678 0.1815146 -0.1692291 0.9687177 24 24 24
-0.0013267943938482 0.0261632240681295 0.0197321574270127 0.0930514 -0.2325784 0.968116 32 32 32
-0.00776814914543511 0.0285781658558493 0.0210776130735276 0.1377053 -0.1723464 0.9753635 117 117 117
-0.00333332515556695 0.0287221706776266 0.0203254322587846 0.1136619 -0.2492859 0.9617367 93 93 93
-0.00575673080284478 0.0305928028492575 0.0212357739984391 0.1117719 -0.2335017 0.965911 57 57 57
-0.00559067226250054 0.0301418341068869 0.020884464222133 0.116725 -0.2214599 0.9681584 42 42 42
-0.00360691047508599 0.0296599901585226 0.0207429925977586 0.1104696 -0.2517433 0.9614686 39 39 39
-0.00143753982384087 0.0307246483235006 0.0207920174180863 0.08906136 -0.262384 0.9608448 24 24 24
-0.0114505837043035 0.0308433807758932 0.0221076707422135 0.08804303 -0.1496458 0.984812 102 102 102
-0.0113775978167761 0.0328184402851706 0.0221487085401414 0.0386784 -0.007673019 0.9992223 91 91 91
-0.00939195848305108 0.0325721538929586 0.0219946007310746 0.02713333 -0.130511 0.9910755 94 94 94
-0.0112757632811773 0.0343228615193014 0.02225391073817 -0.1514784 0.1409134 0.9783648 79 79 79
-0.00951700902778985 0.0343126095204001 0.0221983294069169 -0.07061443 0.03514105 0.9968845 92 92 92
-0.00800299144585015 0.0366435087589865 0.0227824251233933 -0.1891952 0.1312093 0.9731337 69 69 69
-0.00377797580559136 0.0309375561146383 0.0211435060083268 0.09738041 -0.261951 0.9601555 40 40 40
-0.00357651210625054 0.0330296791462545 0.0216342906534074 0.09498067 -0.2672848 0.9589252 62 62 62
-0.000996167429279105 0.0324059761433249 0.0212768415986894 0.0906207 -0.2620981 0.960777 14 14 14
-0.00332825876076104 0.0345017946629171 0.0221477250635026 0.09109575 -0.2585295 0.9616985 59 59 59
-0.00108962751228692 0.0346195734409933 0.0218302707254289 0.1022559 -0.2608129 0.9599586 46 46 46
-0.00577306247551324 0.0357482469944601 0.0228113333761094 -0.03306504 -0.07859065 0.9963585 54 54 54
-0.00556784368355157 0.0368127859501486 0.0230533580362199 -0.06375428 0.03619091 0.9973092 58 58 58
0.00439632438819526 0.0231761968998556 0.0190257529794572 -0.0003640862 -0.2492298 0.9684443 28 28 28
0.00063413881461738 0.0270034111408834 0.0197682182371018 0.0413259 -0.2397656 0.9699509 28 28 28
0.00237465404670356 0.0268030203251486 0.0194026629506944 0.009258323 -0.2289229 0.9734005 12 12 12
0.00387192272346137 0.0249922312168722 0.0191435615598557 0.002356153 -0.2422096 0.9702211 68 68 68
0.00448549293677925 0.0269634760288839 0.019331375795543 -0.01892284 -0.2376125 0.9711757 27 27 27
0.0105103304306757 0.0286687649159079 0.0212661425649522 -0.2190208 -0.3234782 0.9205388 74 74 74
0.00216937565009712 0.0290180481342917 0.0200947920858262 0.02569831 -0.2534423 0.9670091 32 32 32
0.000829582444835886 0.0307581461338644 0.0204700927316545 0.06854947 -0.2551512 0.9644682 24 24 24
0.00855595373313545 0.0283458269505148 0.0202334324895738 -0.2250743 -0.2979694 0.9276615 48 48 48
0.000740533105541452 0.0319114960102682 0.0207581023752091 0.07632785 -0.2611558 0.9622743 23 23 23
0.000275795690227731 0.0347737110523825 0.0216421584665177 0.06092333 -0.2787641 0.9584252 37 37 37
0.00275463365714668 0.0318660772709494 0.0206236044942735 -0.0073353 -0.2788128 0.9603174 9 9 9
0.00465727352302192 0.0329328812031393 0.0210630993425248 -0.1360682 -0.3119975 0.9402888 28 28 28
0.00447387003104804 0.0344319380192404 0.0214725832521317 -0.1526626 -0.3053496 0.9399233 60 60 60
0.000782315961529001 0.0365946329502707 0.0222920577108262 0.01601536 -0.2644363 0.9642702 47 47 47
0.00679046415488838 0.0309582985310202 0.0212213496744035 -0.2017022 -0.3352144 0.9202975 28 28 28
0.0107213904778254 0.0322818792729025 0.0224136809884904 -0.1763895 -0.3297299 0.9274508 86 86 86
0.00677526497047065 0.0323362387089376 0.0213027100145219 -0.2151578 -0.3411675 0.9150475 33 33 33
0.00666887067954658 0.034934643593276 0.0224786202489732 -0.2320108 -0.3053677 0.9235375 25 25 25
0.00456244253318427 0.0363550222782736 0.0223247508584855 -0.1707983 -0.2907855 0.9414201 21 21 21
0.00587845348518012 0.0362875498203878 0.0227668087064622 -0.2109474 -0.289111 0.9337644 33 33 33
0.00682694219749092 0.0366443432240133 0.0231897036611436 -0.2121735 -0.2732519 0.9382515 58 58 58
0.00975466274421333 0.03338647254988 0.0232292215406297 -0.197088 -0.3049493 0.9317523 88 88 88
0.0126732041756403 0.0114363468556051 0.0149234036981462 -0.1151485 -0.4495303 0.8858122 32 32 32
0.0145124843041193 0.0130289829640036 0.015312204796016 -0.07071452 -0.4026256 0.9126292 54 54 54
0.0162302305619013 0.011892560806716 0.0150271753847001 -0.0433423 -0.4232577 0.904972 59 59 59
0.0123083641449702 0.0145762003330832 0.0162205199777482 -0.1019099 -0.3692524 0.9237245 32 32 32
0.0140583565155756 0.0145456827549582 0.0158100227891801 -0.04873742 -0.3712704 0.9272448 46 46 46
0.0127279212395441 0.0161672867207174 0.0165185133993028 -0.09323877 -0.349303 0.9323593 37 37 37
0.0163735201279414 0.014859918442214 0.0161744455873368 -0.04131132 -0.3604966 0.9318452 89 89 89
0.0148241569916499 0.0159082449345236 0.0165455441057084 -0.05123809 -0.3362117 0.9403916 78 78 78
0.0191031744400751 0.0115023888020163 0.0152644018709062 -0.06657112 -0.4064141 0.9112606 229 229 229
0.0183930447022211 0.012332800713027 0.0153858165323136 -0.06904613 -0.3936745 0.9166532 227 227 227
0.0202717235008967 0.0128144062428122 0.0156140129148362 -0.03792226 -0.3717901 0.9275419 231 231 231
0.0204712202469599 0.014163855400527 0.0161350171148179 -0.01640801 -0.362958 0.931661 230 230 230
0.0189298441330683 0.0148241556553488 0.0165371994554399 -0.04345059 -0.3649223 0.9300236 204 204 204
0.0164353897492182 0.0169504917530661 0.0171609322606919 -0.0452164 -0.3553194 0.9336507 72 72 72
0.0187687923828852 0.0167409218220358 0.0170551340162156 -0.02939426 -0.3182517 0.9475504 105 105 105
0.018608038655926 0.0182838476566916 0.0176928739129899 -0.02760158 -0.327444 0.9444674 83 83 83
0.022295360795666 0.0160921848683004 0.0171279708921311 0.04706157 -0.3209174 0.9459372 229 229 229
0.0248491218010676 0.0109458006291037 0.0152563552438615 0.01790341 -0.3705979 0.9286208 135 135 135
0.0267947962204707 0.0111671722797995 0.0144998232900498 -0.02933775 -0.3668595 0.9298136 107 107 107
0.0253963520447504 0.0115994251637106 0.0147576431810258 0.004000465 -0.377477 0.9260103 112 112 112
0.0266959717194331 0.0118324793247824 0.0146545271455644 -0.01058585 -0.3636418 0.9314787 93 93 93
0.0243474295059931 0.0147928036121969 0.0162554184972642 0.05441432 -0.3471672 0.9362233 185 185 185
0.0240647246758234 0.0159376896290426 0.0165861944734452 0.06003078 -0.3181796 0.946128 215 215 215
0.0263083627144587 0.0148985422520285 0.0160458187639115 0.01467548 -0.3314096 0.9433728 54 54 54
0.0301389744202387 0.00971126922651577 0.0143305460988877 -0.1014873 -0.3466361 0.9324933 54 54 54
0.0305266430298579 0.0106412208943014 0.0151323477804063 -0.1130495 -0.3527764 0.9288534 84 84 84
0.0320885231415522 0.00995386013075161 0.0146068136274217 -0.1773847 -0.3118902 0.9334127 77 77 77
0.0324191501061213 0.010134462204421 0.0150353710233567 -0.164284 -0.2970763 0.9406149 83 83 83
0.0336048056999934 0.00995517143293667 0.0147712330400346 -0.158357 -0.2921281 0.9431777 97 97 97
0.0346194555680048 0.0102527178196554 0.0151893298208116 -0.1301433 -0.2905189 0.9479776 87 87 87
0.0326072027603876 0.012709621277297 0.0157540242254136 -0.1205522 -0.3477196 0.9298162 72 72 72
0.0340380718628657 0.0120549238590841 0.0155507425844071 -0.1228622 -0.3024304 0.9452199 60 60 60
0.0286569049278986 0.0144288576511984 0.0162267784654496 -0.05420684 -0.3472935 0.9361885 87 87 87
0.0301650812546503 0.0139659679798727 0.0162378351270555 -0.08752161 -0.351009 0.9322729 72 72 72
0.0264299561898005 0.016976240959609 0.0169688860952256 -0.03504959 -0.3507095 0.9358281 223 223 223
0.0265021970192683 0.0167601145176535 0.0166976551591752 -0.03420001 -0.3522137 0.9352945 199 199 199
-0.00629746414024712 0.0475082434086447 -0.00972237185841818 -0.4298349 0.8748287 0.2234205 113 113 113
0.0280640771309626 0.0170757807163839 0.0170207719385026 -0.06978632 -0.3379373 0.9385778 213 213 213
0.0306634356896174 0.0168975628285055 0.0172656874238847 -0.08419483 -0.3480588 0.9336842 160 160 160
0.0321531345764887 0.0167503393559103 0.0171773235380052 -0.07347009 -0.3388764 0.9379579 196 196 196
0.0126960327545893 0.0200333631901388 0.0182927946626542 -0.07175249 -0.4157266 0.9066548 11 11 11
0.0144897153298151 0.0207883156208639 0.0183223883687852 -0.01710416 -0.4207197 0.9070294 39 39 39
0.0130836417595637 0.021146539535964 0.019080470043361 -0.05983376 -0.4276226 0.901975 35 35 35
0.0136764695564997 0.0210468805698996 0.0192583303033708 -0.04728461 -0.4286117 0.9022506 32 32 32
0.0154093553940546 0.0215616262821798 0.0187987784921525 0.01264955 -0.4196296 0.9076073 47 47 47
0.018733804456402 0.0207371748356466 0.0185095767557023 0.02730699 -0.3925216 0.9193373 81 81 81
0.0185819914261591 0.0226486957935934 0.0193680028497575 0.03995063 -0.4376339 0.8982653 92 92 92
0.0208360602776301 0.0203723944096212 0.0183051626264451 0.02795268 -0.3445068 0.9383675 82 82 82
0.0198327948967707 0.0224925316242819 0.0191958050310014 0.03923789 -0.4338709 0.9001203 130 130 130
0.0228334715286982 0.0224702394871359 0.0185458759843705 0.02832689 -0.4271534 0.9037353 79 79 79
0.0225233485619318 0.0191128290562277 0.017870376545131 0.04870199 -0.3121379 0.9487877 163 163 163
0.02553314470451 0.0185387171177511 0.0172679822027085 -0.02110223 -0.3283288 0.9443277 237 237 237
0.0243930866638911 0.022864822235549 0.0188512305795548 0.02138234 -0.4144158 0.9098364 91 91 91
0.0262830307404291 0.0206426418690329 0.0183018247663377 -0.04146383 -0.3382405 0.9401458 196 196 196
0.0283604910294306 0.0206964052586203 0.0184820990144609 -0.05039471 -0.3256863 0.9441339 235 235 235
0.0255787422577631 0.0216223038105612 0.0184820692121385 -0.03547686 -0.3596931 0.932396 158 158 158
0.0263235618988764 0.0226227081684713 0.0191441576063035 -0.01318303 -0.3792582 0.9251969 134 134 134
0.0294093539635432 0.0207153595356588 0.0189322034894822 -0.04403108 -0.3203426 0.9462779 229 229 229
0.0304809858719599 0.0210441387562399 0.0189294914781449 -0.03761565 -0.3057723 0.9513613 193 193 193
0.0284972836891901 0.0217409170536642 0.0190628866731523 -0.02782391 -0.3323566 0.9427433 199 199 199
0.0321585585991633 0.0205553806690817 0.0185920397817491 -0.04333211 -0.2865827 0.9570751 233 233 233
0.0345898320595515 0.0202007330326681 0.0184988479196427 -0.06076558 -0.2823016 0.9573992 214 214 214
0.0124300172249567 0.02420997985884 0.0204000870763658 -0.122653 -0.3743119 0.9191555 69 69 69
0.0153181602875483 0.0256884134678488 0.0207378367959855 -0.05047869 -0.3871753 0.9206232 136 136 136
0.0164582183281672 0.0269992388157492 0.0217219988881944 -0.03896659 -0.3729161 0.9270465 113 113 113
0.0183930447022211 0.0283137596516256 0.0222628514348863 -0.03229615 -0.3829025 0.923224 118 118 118
0.0167774012009394 0.0289289987949972 0.0222035746156571 -0.06996428 -0.3464275 0.935464 102 102 102
0.0200152447144282 0.0256264246372824 0.0208901266633866 0.03358277 -0.464874 0.8847397 95 95 95
0.02052826189201 0.0261405743031149 0.0211198727666734 0.02938902 -0.464145 0.8852715 112 112 112
0.0224321534554255 0.0260171926884298 0.0207350949823258 0.06138945 -0.4768075 0.8768615 125 125 125
0.0225803902069819 0.0268561876682882 0.0216262142240403 0.05453152 -0.4756255 0.877956 123 123 123
0.0202236821572077 0.0280883348850851 0.0220930676042436 -0.01128468 -0.4102318 0.9119115 110 110 110
0.0477644255081904 0.0208460129170065 -0.00584693745976705 0.8085893 0.5696318 0.1473195 15 15 15
0.0130152156273615 0.028677228775466 0.0215890507280229 -0.1665365 -0.3105489 0.9358552 140 140 140
0.0119891812721979 0.0325118339924459 0.0229961077749131 -0.1503894 -0.3067402 0.9398369 106 106 106
0.0162378003517878 0.0302060879139547 0.0225492815553544 -0.09810989 -0.3178267 0.9430592 87 87 87
0.0164468338410151 0.0309596098332052 0.0230437318860887 -0.1074883 -0.3057866 0.9460132 93 93 93
0.015500550500561 0.0313864982990866 0.02304337425822 -0.1315689 -0.2933542 0.946907 70 70 70
0.0163670232216608 0.0318797863392477 0.0230393211423753 -0.1323863 -0.314525 0.9399723 139 139 139
0.0165494134346735 0.034764293518508 0.0239948134004472 -0.1570054 -0.2743561 0.9487244 59 59 59
0.0143669893662226 0.0363581217198019 0.0242436627923844 -0.1285482 -0.2516954 0.9592314 78 78 78
0.0186243107239497 0.0296824015049582 0.0226843158780931 -0.05072455 -0.3600959 0.9315353 95 95 95
0.0189777662674677 0.0306264198689108 0.0232836405813096 -0.06315135 -0.3594764 0.9310148 108 108 108
0.0184723188797724 0.0325372255711203 0.0235208372651933 -0.1365605 -0.3240291 0.936139 93 93 93
0.0215657403389704 0.0297530926136618 0.0228291849672196 -0.002159704 -0.3901283 0.9207579 110 110 110
0.0226905395905268 0.0324327982334738 0.0238948266088365 0.03656808 -0.3709958 0.9279143 120 120 120
0.0223409583489191 0.03464699157759 0.0253911714136003 0.0121985 -0.3212174 0.946927 106 106 106
0.0204712202469599 0.0349588430790548 0.0252484182893632 -0.06950057 -0.3055122 0.9496483 110 110 110
0.0243018915573847 0.0245624817280417 0.0201020638524888 0.05420664 -0.4533482 0.8896837 110 110 110
0.0260074188629877 0.0248048342136984 0.0197281937181352 0.02532446 -0.4145558 0.9096715 89 89 89
0.0290445735375178 0.024861458626235 0.0196547905980943 0.01756885 -0.346499 0.9378858 77 77 77
0.0244557907501948 0.0284397638706808 0.0221222440778611 0.07389406 -0.4441507 0.8928996 115 115 115
0.026125972501446 0.0272166765598898 0.0212437908231614 0.09993412 -0.454158 0.8852987 72 72 72
0.0278132607857478 0.0274120605854635 0.021166274982631 0.1065013 -0.4320258 0.8955507 87 87 87
0.0265820076386225 0.028292421188796 0.021860102850139 0.1093518 -0.4369146 0.8928313 98 98 98
0.0304886152664912 0.0264610088734274 0.0203604201852677 0.0475147 -0.3570852 0.9328625 111 111 111
0.034826939336468 0.024896744575942 0.0198311607419847 -0.0534287 -0.3181795 0.9465237 74 74 74
0.0311878373543513 0.0274484194187765 0.0209762553750871 0.06182323 -0.3901052 0.9186925 125 125 125
0.0321455051819575 0.0275980270771627 0.0207094053804276 0.006863356 -0.3802758 0.9248477 139 139 139
0.0343344261566889 0.0259875095753317 0.0202041368066667 -0.0488968 -0.3470509 0.9365708 62 62 62
0.0318719198624384 0.0284935272602682 0.0211763183652757 0.03242809 -0.410916 0.9110963 136 136 136
0.0341429164330256 0.0289088524250631 0.0213739971696733 -0.03667128 -0.3977782 0.9167484 130 130 130
0.0245697548310053 0.0323563850788717 0.0237009625017045 0.09998772 -0.3545351 0.9296813 104 104 104
0.028603737584759 0.0305289066700583 0.0223210851728318 0.1132839 -0.4046293 0.907437 128 128 128
0.0261411716858637 0.0305908955006247 0.0231975118696092 0.1099221 -0.3984746 0.9105685 111 111 111
0.0276764681259882 0.0308164394764547 0.0229342381536363 0.1165503 -0.4047938 0.9069498 113 113 113
0.0284562756935847 0.032758358803237 0.0234405796110032 0.1037449 -0.3576393 0.9280793 113 113 113
0.0262019684235346 0.0350127256779318 0.0246240000306962 0.130155 -0.3124745 0.9409673 93 93 93
0.0284973432938349 0.0345425642399435 0.0241531233369706 0.08906705 -0.3352175 0.9379212 107 107 107
0.0342888286034357 0.0297914780048971 0.0217284659921525 -0.04347775 -0.4052348 0.9131782 143 143 143
0.0305950095574152 0.0327508486179953 0.0233483116208909 0.07588678 -0.3650182 0.9279024 98 98 98
0.0326471378723872 0.0322400368122702 0.0227580468236802 0.01223294 -0.3983725 0.9171422 124 124 124
0.0342660000244868 0.0318076647190695 0.0227300326406358 -0.02822098 -0.4004379 0.9158892 127 127 127
0.029979412786175 0.0347665584950094 0.0241664747774003 0.07064036 -0.3463018 0.9354598 96 96 96
0.034503166906048 0.0343328750996237 0.0237223009645341 -0.03658491 -0.3748627 0.9263582 84 84 84
0.031981353990246 0.0366380251316671 0.0245608191072343 0.002131942 -0.3371733 0.9414402 51 51 51
0.0391683032433283 -0.0235835277171488 0.00920457645052652 -0.2730075 -0.2117667 0.9384145 229 229 229
0.0367969920555842 -0.0209407769770975 0.008347968298137 -0.3193596 -0.1558283 0.9347336 47 47 47
0.0389403154770624 -0.0189614259333963 0.00924230619066935 -0.3083901 -0.1771362 0.934622 67 67 67
0.0388425638596308 -0.0176293813319559 0.00946260495775919 -0.3135164 -0.2189219 0.9240025 51 51 51
0.0405364086548579 -0.0171351396174784 0.0100778441011308 -0.2743856 -0.2353071 0.9323857 92 92 92
0.0406276037613642 -0.0193176232905741 0.00961626573199015 -0.2525398 -0.1778017 0.95111 85 85 85
0.0425702383438837 -0.0176935159297342 0.0105422238885758 -0.2293541 -0.2455963 0.9418488 197 197 197
0.0444308569351923 -0.0193331204982157 0.0104975800096391 -0.1618449 -0.2201764 0.96194 183 183 183
0.0408251931587946 -0.0134168826670999 0.0114352802812455 -0.2357493 -0.2267566 0.9449887 125 125 125
0.0443214228073847 -0.0168310367198343 0.0110334257661698 -0.1727691 -0.2302084 0.9576821 224 224 224
0.0440568973938715 -0.0152487718196268 0.0115946034967301 -0.1556215 -0.2136155 0.964443 222 222 222
0.0460360696236384 -0.0150256120295877 0.0116635958730577 -0.07111245 -0.1958706 0.9780479 216 216 216
0.0492008974472773 -0.0213637315364237 0.0107293526708482 0.04888163 -0.3018969 0.9520866 139 139 139
0.0523702552239191 -0.0221313201518412 0.00967956586474161 0.1176374 -0.3178855 0.940803 105 105 105
0.0544816901604426 -0.0217881166072245 0.0097386936723588 0.1116412 -0.3054698 0.9456344 58 58 58
0.057090168229748 -0.0237412416072245 0.00848493977183085 0.1138143 -0.3000876 0.9470975 69 69 69
0.04781759285133 -0.0193934403987284 0.0111557642995713 -0.0346514 -0.2312674 0.9722729 233 233 233
0.0502041628281367 -0.0176037513347025 0.0111536483346818 0.06250668 -0.2077834 0.9761757 108 108 108
0.0566341330925715 -0.0212061368556375 0.00964872046107035 0.1323244 -0.2637166 0.9554809 71 71 71
0.052679722539593 -0.0191713534922953 0.0104853908597825 0.1315897 -0.2581045 0.9571135 91 91 91
0.0542627623001826 -0.0180782043071146 0.0103733937322495 0.1570216 -0.2168661 0.9634902 53 53 53
0.0565828134934199 -0.0192962848277445 0.00989804669016581 0.1875087 -0.1926298 0.9631896 78 78 78
0.0565976550499689 -0.0176126920314188 0.0102228025972245 0.192986 -0.1921736 0.9621984 67 67 67
0.0502497603813898 -0.0159143172831888 0.0120187501489518 0.0646817 -0.18934 0.9797789 186 186 186
0.0490945031563532 -0.0155786239238138 0.0115796129285691 0.01425828 -0.1872307 0.9822125 182 182 182
0.0486406137863886 -0.0134025775523539 0.011932055193126 -0.00870618 -0.182816 0.9831086 200 200 200
0.0502193620125544 -0.0139033757777567 0.0122614602624772 0.03363788 -0.1810565 0.9828973 188 188 188
0.0526514699379694 -0.0157560073466654 0.0115347008287309 0.1401851 -0.235698 0.9616624 79 79 79
0.0539800574700129 -0.0154997073741312 0.0112248162805436 0.1755844 -0.2675299 0.9474164 68 68 68
0.0559044530312311 -0.0155491792292948 0.0110544662057755 0.178331 -0.2727555 0.9454113 77 77 77
0.0563947012345087 -0.0137072764964457 0.0104795794069169 0.1593274 -0.3321061 0.9296883 98 98 98
0.0365689446846735 -0.0135955773921366 0.00971026225680094 -0.3020348 -0.2735637 0.913202 47 47 47
0.0381422688881647 -0.013385292205369 0.0104180972158311 -0.2843519 -0.246309 0.9265397 56 56 56
0.0399131824890864 -0.0142124854655619 0.0105607013284562 -0.2803666 -0.2391812 0.9296166 67 67 67
0.0389174868981135 -0.011195179137742 0.011227230268657 -0.2410006 -0.206687 0.9482611 72 72 72
0.0385640909592402 -0.0093269311519022 0.0117367009698747 -0.1940354 -0.2015402 0.9600686 158 158 158
0.0430353929917109 -0.0114371739955301 0.0121272604047654 -0.1382164 -0.1521075 0.9786519 218 218 218
0.0422236969391596 -0.00946843257859897 0.0122110347329972 -0.1705534 -0.1452881 0.9745783 224 224 224
0.0486764957825434 -0.0117776357264872 0.0121047596513627 -0.02422471 -0.135849 0.9904333 160 160 160
0.0464039494911921 -0.00938641658738804 0.0124476353704331 -0.02780749 -0.0916433 0.9954036 176 176 176
0.0568013241211665 -0.0130314790339823 0.0111369888364671 0.1316388 -0.3672195 0.920772 58 58 58
0.0526666691223872 -0.0127196275325174 0.012137840229213 0.06580006 -0.2401067 0.9685139 99 99 99
0.0528262903610957 -0.0115697347255106 0.0123908023416398 0.03579365 -0.2379698 0.9706128 70 70 70
0.0543825080315363 -0.0114339553447123 0.012367526727855 0.05131228 -0.2973293 0.9533952 79 79 79
0.0544223835388911 -0.00953745475724888 0.0130507151662705 -0.02664213 -0.2721348 0.9618902 86 86 86
0.0561325004021418 -0.0112264119716043 0.0122267107545732 0.08118533 -0.349774 0.9333097 67 67 67
0.0568925192276728 -0.00966798892930698 0.0130612651883958 0.05183342 -0.3176519 0.9467896 45 45 45
0.0386780550400507 -0.00549912086442661 0.0119359294950364 -0.1493374 -0.1582565 0.9760395 190 190 190
0.0403175403992426 -0.00540208450273227 0.012363294798076 -0.1611772 -0.1456138 0.9761242 199 199 199
0.0424137165467036 -0.00736915698960972 0.0124288599073289 -0.1126225 -0.12042 0.9863139 215 215 215
0.0458947470108759 -0.00799059501603794 0.0127312044679521 -0.02076887 -0.1045981 0.9942977 155 155 155
0.0347357442299616 -0.00587021938279819 0.0117220978319047 -0.2136953 -0.1912944 0.9579878 205 205 205
0.0366715838829768 -0.00519764057115268 0.0120757321893571 -0.1748943 -0.1883284 0.966408 201 201 201
0.0386484315315974 -0.00387942424730015 0.0120243827878831 -0.1259357 -0.146823 0.9811133 121 121 121
0.0346992661873591 -0.000128265533005711 0.012906620937526 -0.15757 -0.194603 0.9681432 42 42 42
0.0378458549896967 -0.00229811302140903 0.0120644669114945 -0.1303934 -0.1549277 0.9792829 52 52 52
0.0398409416596186 -0.00191557041124057 0.0128107170640824 -0.1282215 -0.1614348 0.9785183 65 65 65
0.038757865659405 0.000797394600356105 0.0131877760469316 -0.1051438 -0.2180717 0.9702523 69 69 69
0.0417220642487299 -0.00487076869920444 0.012983719545543 -0.1098868 -0.1279055 0.98568 227 227 227
0.0443214228073847 -0.00511467090562534 0.0130574206888078 -0.0491559 -0.1407174 0.9888288 46 46 46
0.042488162748028 -0.00122928253129673 0.013444403845012 -0.1090283 -0.1659648 0.980086 76 76 76
0.0450145652214777 -0.00294160476640415 0.0134711961328385 -0.02094383 -0.1495746 0.9885286 34 34 34
0.0412660291115534 -0.000730630073105809 0.0134807924806474 -0.1400316 -0.1693524 0.9755567 68 68 68
0.0466992905060541 0.00072181591078091 0.0138807396470902 -0.0734975 -0.2115239 0.9746054 51 51 51
0.0488816549698603 -0.00837468734697056 0.01293675108546 -0.05138639 -0.09536208 0.9941154 83 83 83
0.0522106339852106 -0.00769865146592807 0.0131208996354936 -0.09726858 -0.1479655 0.9841977 66 66 66
0.0490185072342646 -0.00611471763566684 0.0124501089631913 -0.0707282 -0.1081832 0.9916118 38 38 38
0.0506829669396174 -0.00542342296556186 0.0132554869233964 -0.1111551 -0.1155704 0.9870603 44 44 44
0.0522367408196223 -0.00559234252885532 0.0133474568902848 -0.1233979 -0.1319146 0.9835504 56 56 56
0.0525602748314631 -0.00922286144212436 0.0133653680860398 -0.07335956 -0.1528662 0.9855203 62 62 62
0.0521650364319575 -0.0093504153819437 0.0127171377717851 -0.06160106 -0.1415584 0.9880114 40 40 40
0.0548282315651667 -0.00763237110093784 0.0133809248983262 -0.04481309 -0.1862939 0.9814715 73 73 73
0.0546914389054072 -0.00552832714036655 0.0136063794671891 -0.07718042 -0.1330112 0.9881049 70 70 70
0.0484484484116328 -0.00504052272752475 0.0130989651262162 -0.05640421 -0.1286225 0.9900883 66 66 66
0.0467991282860529 -0.00125169387773227 0.0136874417840837 -0.02531745 -0.1748057 0.9842774 41 41 41
0.0482106854836237 -0.00152170291856479 0.0137420694410203 -0.06117992 -0.1981656 0.9782574 60 60 60
0.0507787516037714 -0.00330602756456089 0.0134539703904984 -0.1179488 -0.1452999 0.9823319 57 57 57
0.0503789832512629 -0.00180017581895542 0.0136371652662156 -0.1144604 -0.2128256 0.9703628 53 53 53
0.0544223835388911 -0.0035828315348978 0.0140592555581925 -0.0915489 -0.1554339 0.983595 76 76 76
0.0562236955086481 -0.00298714271501255 0.0140862862645982 0.1890108 -0.1117118 0.9756 83 83 83
0.0480881979386103 0.0024141109852438 0.0141352812826036 -0.1002605 -0.2410326 0.9653243 72 72 72
0.0508334686676752 5.69857029562026E-05 0.0138941804944871 -0.1150432 -0.2135244 0.9701404 65 65 65
0.052490775815655 0.000230673637831691 0.0143636266767381 -0.104868 -0.2165849 0.9706151 58 58 58
0.0546731998841059 0.000157598343337062 0.0145864884435533 0.1341921 -0.1226121 0.9833406 48 48 48
0.0533203532616389 0.00181389221235562 0.0147667626916764 0.02426103 -0.1875565 0.9819542 56 56 56
0.0572269608895075 0.00096750625654507 0.0154145757734178 0.4451543 -0.03928594 0.8945917 101 101 101
0.0563807537476313 0.00248277553602505 0.0154456297933457 0.4812211 0.03502675 0.8758992 87 87 87
0.0605407407204401 -0.021754261168992 0.008367339807689 0.2479671 -0.2097274 0.9457942 79 79 79
0.0581541707436335 -0.0212825500102396 0.00959033771151285 0.1905128 -0.2395522 0.9520082 45 45 45
0.0598110606590998 -0.0211131536097879 0.00916309161776285 0.2320975 -0.2092455 0.9499195 76 76 76
0.0602214982430231 -0.0171172582240458 0.00955594583147745 0.1978362 -0.2642072 0.9439573 80 80 80
0.0582302262703669 -0.0158607923121805 0.0100810031473039 0.1727078 -0.3000332 0.9381642 80 80 80
0.0622128298203242 -0.0176236592860575 0.00899938746088724 0.2911189 -0.2514097 0.9230617 106 106 106
0.0626992633263361 -0.0171838962169046 0.00864581270807963 0.3617333 -0.2291606 0.9036783 115 115 115
0.0612855603615534 -0.0172184669108744 0.00879786415690165 0.2361545 -0.2601365 0.9362478 68 68 68
0.0629090120713007 -0.0158623420329447 0.00958604617708902 0.3237395 -0.2811953 0.9033947 103 103 103
0.0631552984635126 -0.0162379705043192 0.00882140799158793 0.3919686 -0.2521176 0.8847584 139 139 139
0.0656178047577631 -0.020157810363328 0.00743083162897806 0.5134968 -0.1465138 0.8454908 114 114 114
0.0652757933060419 -0.0195270740123148 0.00799481077784281 0.5277603 -0.1520288 0.8356771 117 117 117
0.0676547338883173 -0.0193591081233377 0.00714598103159647 0.72383 -0.04383632 0.6885844 109 109 109
0.06680351995628 -0.0175244771571512 0.00619486971491556 0.8810849 0.09483817 0.4633521 45 45 45
0.0643713524262202 -0.0173612796397562 0.00808651252382975 0.4508971 -0.1606254 0.8780042 132 132 132
0.0646145989815485 -0.0171982013316507 0.00894946857088785 0.432789 -0.1851255 0.8822824 103 103 103
0.0646031548897517 -0.015313740882432 0.00969598694437723 0.5165567 -0.1915632 0.8345494 149 149 149
0.0647969891945612 -0.0157440864177103 0.00889954968088846 0.4813646 -0.08819878 0.8720717 124 124 124
0.0661498358170283 -0.0155385696025248 0.00365299983614664 0.9264357 0.3329574 0.1756594 55 55 55
0.0653898169914973 -0.0145070516200418 0.00552488370531778 0.8931035 0.3371582 0.2978094 76 76 76
0.0646373679558527 -0.0123225413890238 0.00431788964861612 0.9143347 0.3914778 0.1036209 53 53 53
0.0650705745140803 -0.0127067529292459 0.00298033161753397 0.9052714 0.4190169 0.07006067 36 36 36
0.0656178047577631 -0.0148647986979837 0.00739345951670389 0.8440243 0.2037073 0.4961112 82 82 82
0.0657546570221674 -0.0152819120021219 0.00665698452585917 0.874141 0.268426 0.4047529 41 41 41
0.0661194374481928 -0.0139625035853739 0.00791091724032145 0.9095541 0.1737821 0.3775065 83 83 83
0.0631096413056147 -0.00943231216386509 0.0016537110387681 0.8992025 0.4288931 0.08651952 69 69 69
0.0625472714821589 -0.0073902570338602 0.000419447857081701 0.9197461 0.3758797 0.1130554 99 99 99
0.0641433646599543 -0.0110986196132059 0.00115416451090555 0.9017727 0.4241858 0.0829004 103 103 103
0.0639761736313593 -0.0103206597895975 0.0039788584291337 0.8998999 0.4340225 0.04248102 45 45 45
0.0590510418335688 -0.0132493936152811 0.010788838106334 0.1246648 -0.3947686 0.9102837 73 73 73
0.0603582909027827 -0.0138122998805399 0.010527859169185 0.1564985 -0.3584239 0.920348 104 104 104
0.0631096413056147 -0.0136510097117777 0.0104000370084641 0.4305988 -0.2390447 0.8703116 121 121 121
0.0623800804535639 -0.0115935765834208 0.011171499925792 0.5929896 -0.03361417 0.8045082 112 112 112
0.0610271742264521 -0.00957619777635288 0.0121814410268662 0.4781499 -0.08810461 0.873848 111 111 111
0.0621976306359064 -0.0102574788661356 0.0116241972028611 0.6422452 0.01101339 0.7664201 105 105 105
0.0622705867211115 -0.0070775710673685 0.0101054708539842 0.8917304 0.2780092 0.3571103 118 118 118
0.0646145393769038 -0.0116788112254496 0.0101308028280137 0.790062 0.08401835 0.6072422 136 136 136
0.064158563844372 -0.0110044442744608 0.00695053740137797 0.9201818 0.3592425 0.1555966 63 63 63
0.0609739472786677 -0.00568246475175571 0.00581882401102762 0.9195757 0.3888145 0.05660282 83 83 83
0.0605331709305537 -0.00351023307756138 0.00810603304499369 0.9368042 0.3406766 0.07960709 67 67 67
0.0598262598435175 -0.00920819869950962 0.0130890707551835 0.2543874 -0.2450574 0.9355394 94 94 94
0.0581299116532099 -0.00744127860978794 0.0135488311826585 0.1924647 -0.1708083 0.9663239 79 79 79
0.0583214213768732 -0.00563656917527866 0.0136688451349137 0.2799748 -0.01597471 0.9598745 90 90 90
0.0619240453163874 -0.00816583267167759 0.012188802200496 0.5333778 -0.06696168 0.8432225 127 127 127
0.0605103423516047 -0.00482499233201694 0.0124015311776994 0.7716494 0.1835324 0.6089935 102 102 102
0.0603393366257441 -0.00366425147966098 0.0120409528791307 0.8692952 0.183771 0.4588617 118 118 118
0.0587409784714472 -0.00319635501817417 0.0138755242406724 0.3975119 0.03151271 0.9170557 114 114 114
0.0584468295494807 -0.00193738571122837 0.0139966706811784 0.5569292 0.04893742 0.829117 110 110 110
0.0589750459114802 0.000765684929335597 0.0124101738511918 0.8650005 0.1950614 0.4623042 71 71 71
0.0571813633362543 0.00636423000379849 0.00188691421145182 0.9269742 0.3681761 0.07186901 128 128 128
0.0561096718231928 0.0100979841618185 -0.0100712378442885 0.7925968 0.6032835 -0.08854047 20 20 20
0.05704451107185 0.00898754962965298 -0.00744389490491171 0.8151271 0.5792769 0.002475633 26 26 26
0.0538067271630061 0.0122730768589621 -0.0108860631406905 0.8076261 0.5866135 -0.06020642 23 23 23
0.0530771067063105 0.0132805145649557 -0.00988881782895346 0.8236654 0.5630429 -0.06751278 17 17 17
0.0551748325745356 0.0114260948567038 -0.0100632508218886 0.796186 0.5978051 -0.09336445 14 14 14
0.0549468448082697 0.0118848122028952 -0.011945297282994 0.8143465 0.5772701 -0.05999234 17 17 17
0.0571357657830012 0.00886774429365444 -0.00510295228368063 0.8632157 0.5026218 0.04722238 25 25 25
0.0572497894684565 0.00843787559553433 -0.00431518749600668 0.871437 0.4828115 0.08654898 28 28 28
0.0569229175965082 0.00862193473860073 -0.000159641069233607 0.9178447 0.3955191 0.0335529 109 109 109
0.056618874303509 0.00914872058912564 -0.00171129898434896 0.9085671 0.4137482 0.05760464 84 84 84
0.0554028203408015 0.0114269293217306 -0.00766639904385824 0.8056359 0.5834684 -0.1025442 21 21 21
0.056178097955395 0.0112370289234762 -0.00615968303090353 0.8237961 0.5621668 -0.07299702 16 16 16
0.05321389936607 0.0130736864475851 -0.00889419512158651 0.8163052 0.567476 -0.1077812 14 14 14
0.0553116252342951 0.0114473141102438 -0.0036570628107192 0.8816872 0.4696591 -0.04525585 16 16 16
0.0556764652649653 0.012277606811965 -0.00267734126454611 0.8963459 0.438602 -0.0647478 23 23 23
0.036158566705395 0.00415516265913296 0.0139126281320451 -0.1270253 -0.2692901 0.9546452 69 69 69
0.0383930852333796 0.00271511444135952 0.0137463907777665 -0.07869388 -0.2662747 0.9606795 59 59 59
0.0357937266747248 0.00634885200544644 0.0150876740991471 -0.1283951 -0.2697128 0.9543425 113 113 113
0.0389326860825312 0.00662017234846402 0.0144994060575364 -0.06478056 -0.2658258 0.9618421 49 49 49
0.0426898648659479 0.0046794451145773 0.0144325296460984 -0.09109942 -0.2523945 0.9633265 81 81 81
0.0427526881615412 0.00675309070631314 0.0151366393148301 -0.09520682 -0.2827085 0.9544693 54 54 54
0.0466341426293146 0.00646877655073452 0.0157594780504106 -0.09185148 -0.2715676 0.9580263 60 60 60
0.0406184842507136 0.00685096153303433 0.0150371591627 -0.05090294 -0.2604246 0.9641514 35 35 35
0.0405744364182246 0.00820374855085659 0.0153169135629533 -0.0679021 -0.2648389 0.961899 86 86 86
0.040582006208111 0.00803339847608853 0.0148629645883439 -0.0679021 -0.2648389 0.961899 58 58 58
0.0439109852234614 0.00673294433637905 0.015139321523845 -0.09151912 -0.2771173 0.9564676 54 54 54
0.0569760849396479 0.00672769912763882 0.00607685251826029 0.9065356 0.399489 0.136388 87 87 87
0.0568165233055842 0.0065645016102438 0.00750113530749064 0.889617 0.4364701 0.1344453 58 58 58
0.056497340432812 0.00815487274214077 0.00736785932177286 0.8979006 0.4135776 0.1507581 43 43 43
0.048136835328747 0.00437307724043179 0.0147751371442674 -0.1007822 -0.2703383 0.9574759 68 68 68
0.0506500651757014 0.00469160446211148 0.0153978864728807 -0.01344631 -0.2300598 0.9730836 45 45 45
0.0571813633362543 0.00410139926954556 0.0127641956388352 0.8327948 0.3482833 0.4302923 75 75 75
0.0564213445107233 0.00670791038557339 0.0095531742154954 0.878997 0.4519923 0.151879 59 59 59
0.057363753549267 0.00529337295576382 0.0108254949628709 0.8965043 0.3897036 0.2107396 51 51 51
0.0524311115662348 0.00469160446211148 0.0155693690358994 0.05317946 -0.1824838 0.9817696 40 40 40
0.0546549608628046 0.00439989933058071 0.015664498048961 0.3169993 0.01850804 0.9482452 64 64 64
0.0561325004021418 0.0040308273701315 0.0157055358468888 0.4940249 0.1086817 0.8626284 89 89 89
0.0560754587570917 0.00586700805708218 0.0155891577779649 0.5660715 0.1915703 0.8017879 65 65 65
0.0562236955086481 0.00635946163221646 0.012802461820781 0.8220173 0.4071666 0.3981242 97 97 97
0.0552569081703913 0.00848031410261441 0.00985307498568277 0.8772639 0.4510569 0.1641819 72 72 72
0.0551292350212824 0.00870645412489224 0.0121190647661088 0.878064 0.4037966 0.2568108 65 65 65
0.0545364072243464 0.0104386843113546 0.00795821352595072 0.8854482 0.4313594 0.1729468 62 62 62
0.05444521211784 0.0110490358738546 0.00631312533014994 0.8821111 0.429936 0.1924448 109 109 109
0.0542969753662836 0.0106400288014059 0.0134659509240983 0.8646184 0.3213545 0.3862206 76 76 76
0.0542855908791315 0.0121429003147726 0.0101175705968736 0.9070206 0.4045669 0.1167876 84 84 84
0.0563148906151545 0.00985479721113491 0.00260437532061319 0.9104975 0.4016335 0.09841203 109 109 109
0.0543357779900324 0.0126465595631247 0.00554860635393839 0.90183 0.3867799 0.1926239 107 107 107
0.0544793655792963 0.0141555107502584 0.0022621254503129 0.9299676 0.3259726 0.1700064 104 104 104
0.0550152113358271 0.0136656797794943 -0.00229667620068807 0.9092496 0.4060423 -0.09162328 28 28 28
0.0528035213867915 0.0169594324497824 -0.00243776039487142 0.8019691 0.5415341 -0.2521637 32 32 32
0.054125969640423 0.0166344679264669 0.00211835904711466 0.9226247 0.3598487 0.1388258 84 84 84
0.0530543377320063 0.0164638794331198 0.00340990229243021 0.9117857 0.3467726 0.2199903 105 105 105
0.0523778846184504 0.0162541902928 0.00610570116633158 0.9217823 0.3219582 0.2160103 75 75 75
0.0528262903610957 0.0147048271565084 0.00942603750818949 0.9368497 0.3290291 0.1185435 96 96 96
0.0523474862496149 0.0168743170170431 0.00778282685869913 0.938179 0.3049202 0.1638409 84 84 84
0.0521878650109064 0.0182775295643454 0.0060552756368516 0.9237435 0.3192397 0.2116222 97 97 97
0.0521954944054377 0.0179510153202658 0.00787512465113382 0.9387358 0.3091324 0.1523558 77 77 77
0.0514810135285151 0.0190986431507711 0.00542450948351603 0.924628 0.3431274 0.1653074 97 97 97
0.0508816888252985 0.0225334204105978 0.00409335895174723 0.8884194 0.4463571 0.1071275 77 77 77
0.0536471655289423 0.0181692875294333 0.00393338008517008 0.9201907 0.3317348 0.2078487 95 95 95
0.0534875442902338 0.0190836227802877 0.000529716449916173 0.897918 0.4324896 -0.08182872 68 68 68
0.0522106935898554 0.0199685133366232 0.0035390357553361 0.9076383 0.3711016 0.1961539 108 108 108
0.0524386813561213 0.0198533571629171 0.00645546122187357 0.9316587 0.3152839 0.1805772 106 106 106
0.0614680101792109 -0.00327610603288364 -0.00375049309140463 0.9578881 0.2757969 0.07991549 73 73 73
0.0618783881584895 -0.00266420474961948 -0.00317375854855795 0.9579114 0.2720837 0.09152188 56 56 56
0.0621368338982355 -0.00519668689683628 5.13891755936635E-05 0.9377322 0.3256884 0.1207702 55 55 55
0.0611031701485407 -0.00449263683274936 0.002090404468715 0.9388407 0.3166513 0.1353146 83 83 83
0.0617644240776789 -0.00530528655961704 0.00247655315989237 0.9276465 0.3545215 0.1174161 53 53 53
0.0618327906052363 -0.00412630668595981 -0.00102411703473348 0.9442137 0.3136043 0.1005625 44 44 44
0.0611715962807429 -0.0031633340449686 -0.00159492091542501 0.9510581 0.2920271 0.1010373 74 74 74
0.0612855603615534 -0.00285672775224399 -0.000452776712238978 0.9492437 0.2882896 0.1257994 94 94 94
0.0611373832146418 -0.00124668708757114 -0.00230323271161337 0.9474738 0.2956492 0.1220037 71 71 71
0.0616959979454768 -0.000191327247178075 -0.00545822576886434 0.962766 0.2286643 0.1442024 44 44 44
0.0604419162194025 -0.00313543907121372 0.0040902893125413 0.9391766 0.3217031 0.1202262 79 79 79
0.0604419758240473 -0.00156724086717319 0.00177217527025919 0.9408031 0.3083038 0.140849 46 46 46
0.0603735496918452 -0.000209804687058446 0.00149850054377298 0.9374953 0.3136362 0.1507811 38 38 38
0.0600999047676813 -0.00277816883043003 0.00599722071284037 0.9473084 0.3040942 0.1006659 98 98 98
0.0600543072144282 0.000605706062758449 0.00375581784838419 0.949994 0.295797 0.1000778 112 112 112
0.0588534524361384 0.000626448479140285 0.00576252742403727 0.9571044 0.2749412 0.0914242 63 63 63
0.0589598467270624 0.00129306682630825 0.0042813818036912 0.9496493 0.2950726 0.105349 104 104 104
0.0593702843109858 0.00164711841627407 -0.00185595945721884 0.9348688 0.3294737 0.1321642 45 45 45
0.0588382532517207 0.00306856998487759 -0.000248720210850428 0.9333923 0.3414416 0.1104376 87 87 87
0.0585342099587214 0.00459945568128872 -0.00224294261342306 0.9173432 0.373501 0.1377622 101 101 101
0.0581162025849116 0.00444090732618618 0.0037020246564744 0.936478 0.3358246 0.1011473 110 110 110
0.0575005462090266 0.00677848228498745 -2.00767934920298E-05 0.9174376 0.394305 0.05321486 104 104 104
0.0593018581787836 0.0061985290913229 -0.00822403029805441 0.8834794 0.4677385 0.02617216 22 22 22
0.0585494091431391 0.00654030212446499 -0.00666480259305258 0.8729706 0.4801461 0.08591873 26 26 26
0.0582073976914179 0.00841558345838833 -0.00625654057866354 0.8422029 0.5348808 0.06779949 17 17 17
0.0587317993561518 0.00590372451826382 -0.00256781772977133 0.911131 0.3923143 0.1262135 91 91 91
0.0576601674477351 0.00697386631056118 -9.75628317000377E-05 0.9174376 0.394305 0.05321486 97 97 97
0.0580819895188105 0.00456714996382046 0.00788758202189188 0.9207774 0.3704642 0.1221687 106 106 106
0.0369337847153437 0.00993240245863247 0.0158338646470902 -0.09592681 -0.2753873 0.9565353 56 56 56
0.0388126423279536 0.00864827999159146 0.0151842038213609 -0.07406404 -0.2583994 0.9631948 68 68 68
0.0403904368798029 0.0103808678059225 0.016080598074138 -0.08269773 -0.2856742 0.954752 103 103 103
