ply
format ascii 1.0
comment File exported by Rhinoceros Version 7.0
element vertex 476
property float x
property float y
property float z
property float nx
property float ny
property float nz
property uchar red
property uchar green
property uchar blue
end_header
0.0221816273202293 -0.0468830350483878 -0.0406476409550549 0.5236518 0.3708607 -0.7669753 56 56 56
0.0255297744936245 -0.0491257161847647 -0.0387947417022197 0.5927416 0.2730363 -0.7576995 40 40 40
0.0240422287633444 -0.0480618829650585 -0.0402113241159868 0.5398219 0.3787546 -0.7517561 29 29 29
0.025460179385385 -0.0439139363490186 -0.0372415199294204 0.5393928 0.3028539 -0.7857066 47 47 47
0.0259063970600142 -0.0416946294000864 -0.0358996142254866 0.5046846 0.3542557 -0.7872714 27 27 27
0.0280724220150428 -0.0517833784706423 -0.0384277825237499 0.6476173 -0.1596391 -0.7450551 25 25 25
0.0292017791111907 -0.0514542102681015 -0.0373442195714546 0.6419926 -0.05183651 -0.7649565 19 19 19
0.0280971539157537 -0.0496071578699533 -0.0378007847280616 0.5440436 0.2348897 -0.8055081 34 34 34
0.02750154829618 -0.0515349765770987 -0.0388728583918965 0.628828 0.06048796 -0.775188 41 41 41
0.0214386122871955 -0.0486935252590375 -0.0422920543992034 0.5078698 0.4261012 -0.7486695 39 39 39
-0.0337588656462833 0.0297653899016894 0.0496518152363918 -0.8974025 0.229882 0.3765939 40 40 40
-0.0323573916208231 0.0333873203440302 0.0482217401999857 -0.5481895 0.6522739 0.523476 48 48 48
-0.0320570703319691 0.0256454151459933 0.0507618992809609 -0.9559542 -0.1405322 0.2576864 29 29 29
-0.0338057762773305 0.0354211982410979 0.0448722413044115 -0.4424343 0.6908175 0.5718593 46 46 46
-0.0315821595961165 0.035796792504883 0.0444187066753974 -0.2605123 0.8280654 0.4964283 38 38 38
-0.0342232495794379 0.0315174648920395 0.042363136809268 -0.9636348 0.1365016 0.2297284 50 50 50
-0.0333132472858066 0.0365861941367742 0.0435097181230266 -0.2020354 0.8090058 0.5519885 46 46 46
-0.0324280655989275 0.0249192994611631 0.0449355312117814 -0.9347457 -0.3498844 -0.06189742 101 101 101
-0.0317638767206425 0.0229553682863746 0.0451950313844926 -0.9323708 -0.3569883 -0.0569572 146 146 146
-0.0316601893545618 0.0251206123136842 0.0413743386332334 -0.9301094 -0.3559139 -0.09067439 122 122 122
-0.0338182313926945 0.0298938376469107 0.0388538105658549 -0.9891854 -0.135388 0.05641278 100 100 100
-0.0348503497456418 0.0336454987341528 0.0309817231606299 -0.9781322 -0.2059913 0.02872096 109 109 109
-0.0332433465055821 0.0310703216432264 0.0304141550781553 -0.935141 -0.3532193 0.02733965 116 116 116
-0.0275215578108234 0.033618681484177 0.0507055871978135 -0.2642465 0.788241 0.5557426 78 78 78
-0.0266377394472239 0.0343503233892914 0.0501992092281865 -0.2138929 0.8374503 0.5029184 101 101 101
-0.0285194951808423 0.0349930587582141 0.0478887752925698 -0.1991363 0.8711619 0.4488002 43 43 43
-0.0255158565725417 0.0364749695205453 0.0468636956195397 -0.2073691 0.8697805 0.4477499 90 90 90
-0.0232890693149792 0.0371858703322521 0.0456013577690452 -0.2510106 0.8437228 0.4744739 40 40 40
-0.0321094154832497 0.0375377920829345 0.0424553605880877 -0.2022567 0.7894408 0.5795476 36 36 36
-0.0310902738596885 0.038329217001821 0.0412320032953995 -0.1283776 0.8203414 0.5572784 36 36 36
-0.0294665238620455 0.0361507588046837 0.0444708795593393 -0.1629363 0.8692381 0.4667728 25 25 25
-0.0264548617443214 0.0377638766057544 0.0430781746709338 -0.2223112 0.8413263 0.4926944 50 50 50
-0.0241087979358836 0.0374662836114072 0.0441119400756342 -0.2582697 0.8388073 0.4792692 60 60 60
-0.0275943703523098 0.0378384525370139 0.0424797958704558 -0.1912523 0.8414043 0.5054319 55 55 55
-0.026999024444827 0.038377269650298 0.0414925111189059 -0.2160886 0.7897635 0.57409 63 63 63
-0.022796750920751 0.0387623032662794 0.0436271862318131 -0.2608308 0.827686 0.4968936 59 59 59
-0.0230192250064878 0.0396117907449398 0.042007512130646 -0.2465683 0.8133118 0.5269991 63 63 63
-0.0370014451413523 0.0444597119308601 0.0311881040765443 -0.7196093 0.6943631 0.004732655 100 100 100
-0.0352588127857296 0.04541824609095 0.0313975792857438 -0.425229 0.9009408 0.08652183 119 119 119
-0.0341519103262065 0.0381057824565916 0.0412068303539767 -0.2075351 0.7738744 0.5983707 48 48 48
-0.0343692030995788 0.0392583158820627 0.0387715263045244 -0.1383169 0.8060824 0.5754125 37 37 37
-0.0352603304126422 0.0398674020071126 0.0374759786438147 -0.15854 0.788279 0.5945429 44 44 44
-0.0313930853709508 0.0414686246957605 0.0368269359025551 -0.1751903 0.7940381 0.5820754 39 39 39
-0.028894405946708 0.0427962529100554 0.036443992118963 -0.1388566 0.8349888 0.5324589 115 115 115
-0.0298379115247167 0.0431372112360657 0.0353063583014532 -0.1138005 0.8468328 0.5195418 62 62 62
-0.0288479445138186 0.0391149098845807 0.0396662083079855 -0.1776824 0.7667149 0.6169094 58 58 58
-0.0266840232230949 0.0421244510023353 0.037920590951236 -0.1121718 0.8321678 0.54306 73 73 73
-0.0241779736963057 0.0424379303528102 0.0381381379418891 -0.09905056 0.8644916 0.4927913 118 118 118
-0.0275664787511962 0.0429917250204108 0.0364580301367176 -0.1051 0.8463561 0.522145 120 120 120
-0.0263696082766223 0.0431913587470787 0.0363541821433009 -0.08150019 0.8769078 0.4736986 120 120 120
-0.0211496396807846 0.0430255373659174 0.0364263784827517 0.04736601 0.9280893 0.3693327 23 23 23
-0.0349230547707764 0.0424364368825547 0.0342245633231043 -0.4243822 0.7861024 0.4493804 92 92 92
-0.0353638224280068 0.0424800883441061 0.0340677810237873 -0.4314609 0.7928125 0.4304531 57 57 57
-0.0314577750460145 0.0432181396011819 0.0340883977772657 -0.1181689 0.8472919 0.5178152 86 86 86
-0.0331806642680834 0.0453393572080616 0.0313897440655008 -0.3582468 0.9159831 0.1806493 135 135 135
-0.0289943848059617 0.0455446646486326 0.0305592592245962 -0.1148652 0.9115822 0.3947453 84 84 84
-0.0267897652855447 0.0438492076170176 0.0337879555126423 -0.06110822 0.9044107 0.4222643 49 49 49
-0.0245443677958161 0.0446353233379058 0.0323615357659096 0.01187842 0.9167648 0.3992508 26 26 26
-0.0212029993577572 0.0433328575695777 0.0353876325358235 0.04877466 0.9296727 0.3651433 32 32 32
-0.021088096645117 0.0440286766701448 0.0343370083648914 0.06062224 0.9299509 0.3626518 19 19 19
-0.0215341167905718 0.0435031139928288 0.0338707002413767 0.05053836 0.932091 0.3586813 34 34 34
-0.0226355861146286 0.0451749660447442 0.0314370829405081 0.02761246 0.9052765 0.4239244 12 12 12
-0.0301748474054411 0.0200157281178652 0.0488986221836556 -0.9298114 -0.3642002 -0.05299981 125 125 125
-0.029667672591466 0.0180077509386369 0.0483955434997327 -0.9181153 -0.3944957 -0.03791285 120 120 120
-0.0307140585301098 0.020751713564374 0.0446252883750297 -0.9254849 -0.3718295 -0.07225332 134 134 134
-0.0288004107421194 0.0159663942250639 0.0473872774037301 -0.910128 -0.4125457 -0.03838066 122 122 122
-0.0261802688026376 0.0127836115641369 0.0443647624010645 -0.916349 -0.3946041 -0.0677648 105 105 105
-0.029449001000295 0.0185486946799573 0.0420149194671619 -0.9124429 -0.3980692 -0.09480944 63 63 63
-0.0259350569325356 0.0103504703884101 0.0409094775656333 -0.9212967 -0.3885114 -0.01647445 59 59 59
-0.0273780341938141 0.0154933427686947 0.0434301117811759 -0.9028622 -0.4203265 -0.09036353 143 143 143
-0.0268315512302499 0.0136768882485834 0.0413739369776738 -0.9145098 -0.400307 -0.05853414 126 126 126
-0.0286071582995668 0.0170871868865015 0.0380735469499533 -0.9184695 -0.3918688 -0.05341054 109 109 109
-0.0309046688249337 0.0234841494854789 0.0410701955879093 -0.92462 -0.3689027 -0.09480798 129 129 129
-0.0249015872989289 0.0077241259111609 0.0393600161872357 -0.9337076 -0.3566004 0.0320352 59 59 59
-0.0299214602989348 0.0210169490676684 0.0393087919310466 -0.9329084 -0.3476301 -0.09399666 101 101 101
-0.0292800671175284 0.0189639117777483 0.0375908116623928 -0.9312668 -0.3558503 -0.07818336 139 139 139
-0.0292501663690103 0.0189573164068004 0.0366060979245412 -0.9362983 -0.3457574 -0.06162238 159 159 159
-0.0267456360269294 0.0138526764496545 0.0372239201607104 -0.9281951 -0.371993 0.008662699 107 107 107
-0.0272301474971144 0.0143213897355281 0.0354301400147124 -0.9287543 -0.3691085 0.0342689 146 146 146
-0.0276637632291132 0.0149804828003115 0.0341096875335029 -0.9386209 -0.3447125 0.01281 128 128 128
-0.0289044618670791 0.0176720336698031 0.0337868361242647 -0.9429284 -0.3318905 -0.02710622 160 160 160
-0.0279272577561893 0.0168329611018063 0.0338371246638105 -0.943243 -0.3319795 -0.009074921 133 133 133
-0.0271735382244511 0.0139180492616087 0.0322405202863299 -0.9530945 -0.2975638 0.05537739 62 62 62
-0.0268638716131404 0.013163097792114 0.0329908044584262 -0.9459265 -0.3200349 0.05292209 116 116 116
-0.029026165506687 0.0203911909080914 0.0330481786115277 -0.9418415 -0.3354449 -0.02028317 139 139 139
-0.0266400823441049 0.011600557410407 0.0316380794605386 -0.9478974 -0.3111938 0.06818254 28 28 28
-0.027765048453138 0.0154633261622241 0.0306449807984572 -0.9562328 -0.291196 0.02869894 78 78 78
-0.0312598006753237 0.0248277411195525 0.0372043156655516 -0.9298155 -0.35734 -0.08804065 142 142 142
-0.0305178709524747 0.0226910340606086 0.0372698412133785 -0.9288352 -0.3590857 -0.09122882 120 120 120
-0.0304780372316844 0.022999892585158 0.0347586152973486 -0.9340832 -0.3540517 -0.04621615 175 175 175
-0.0305948693168276 0.0240759395923094 0.031227999572822 -0.936479 -0.3488591 0.03611699 69 69 69
-0.0299612899811548 0.0226297981710177 0.0305863926187585 -0.936484 -0.3500414 0.02164976 117 117 117
-0.0313839282054338 0.0255418118511204 0.029052453629154 -0.9231451 -0.3730968 0.09274641 48 48 48
-0.0304186428451914 0.0219943092772472 0.0289317459187373 -0.9379085 -0.3395017 0.07117769 190 190 190
-0.0232008569469442 0.00563027481528167 0.0357383790784696 -0.9311033 -0.3603173 0.05672736 52 52 52
-0.024520585945246 0.00545079584526564 0.0325845081649026 -0.9224172 -0.3750903 0.09194458 48 48 48
-0.0262999904813124 0.00913875404178399 0.0315454917343313 -0.9402998 -0.3296272 0.08474774 37 37 37
-0.0260563076519453 0.0108800293915838 0.0296412985740767 -0.9513288 -0.3018119 0.06231534 53 53 53
-0.025244446964046 0.00733924683302067 0.0292900026098094 -0.9305139 -0.3549805 0.09018169 49 49 49
-0.0258970376784049 0.00867152464115883 0.0287597658919582 -0.9497069 -0.30927 0.04908009 46 46 46
-0.0251520210105181 0.00770305756385259 0.0304933149979228 -0.9270813 -0.3616518 0.09863207 52 52 52
-0.0176205708140631 0.0366486655747142 0.0500147668455394 -0.1445879 0.8718535 0.4679379 73 73 73
-0.0200630645517919 0.0375048743202964 0.0471070690491198 -0.1559474 0.8659298 0.4752326 83 83 83
-0.0155156410491739 0.0380894092901438 0.046115523885275 -0.1355843 0.8612728 0.4897204 25 25 25
-0.0210479785507278 0.0400353939896785 0.0427769891950605 -0.1517407 0.8536983 0.4981706 120 120 120
-0.0154443396895312 0.0398933298952382 0.0417890394221409 -0.1237877 0.8780941 0.4621984 39 39 39
-0.0202070157650125 0.0426015092311332 0.0395469902235216 -0.01233501 0.9084529 0.4178051 29 29 29
-0.0110770858864679 0.0392049942953436 0.0460632337757906 -0.1717976 0.8732127 0.4560539 46 46 46
-0.0073916772685596 0.0411146976705132 0.0447231451148591 -0.2167472 0.8514652 0.4775225 47 47 47
-0.0142271514164802 0.0408780973331127 0.0416366909929606 -0.1369198 0.8826306 0.4496846 38 38 38
-0.0169630999567159 0.0420243290054987 0.0383269228346006 -0.1052564 0.9364308 0.3346916 29 29 29
-0.011652046476132 0.0419351812791193 0.0418331504882653 -0.2814581 0.8504766 0.4443771 51 51 51
-0.0131915256761976 0.0416398427705742 0.0408278836582233 -0.2443963 0.8642381 0.4397306 48 48 48
-0.0131272146348254 0.0425576584720038 0.0396015738987636 -0.2235652 0.8916194 0.3937429 54 54 54
-0.0108829196922051 0.0426786925178315 0.0409036874375987 -0.2589865 0.8504855 0.4578214 42 42 42
-0.0129145525587866 0.0434002195427516 0.0380104696275987 -0.2917668 0.903241 0.3146869 38 38 38
-0.0106812818770323 0.0435320159191375 0.0384681747535528 -0.2788338 0.8958989 0.3458566 30 30 30
-0.0109691963479919 0.043956459007142 0.0378040738125706 -0.2950912 0.9011687 0.3175156 30 30 30
-0.00660234298812767 0.0438286536917813 0.0405227891520392 -0.1277823 0.8801532 0.4571674 23 23 23
-0.00829525747044579 0.0440041022428528 0.0392080026385288 -0.2255202 0.8922346 0.3912263 26 26 26
-0.0086563178608059 0.0452730560080645 0.0371089675900918 -0.2591691 0.8954437 0.3619558 38 38 38
-0.00562155906136974 0.0454459029851986 0.0379738401031262 -0.1394862 0.8994448 0.414177 33 33 33
-0.00279857249839965 0.045112005403648 0.0376201976318467 -0.07411388 0.8740075 0.4802271 40 40 40
-0.0164905598266745 0.0427269819885128 0.0358654923876485 -0.06138755 0.9537074 0.2944041 46 46 46
-0.0140500189140833 0.0436330906577937 0.0352559180139832 -0.2016792 0.9445462 0.2591484 20 20 20
-0.0146040838038592 0.0438290944183541 0.0327054309523087 -0.126793 0.9616983 0.2430225 32 32 32
-0.0127664417215572 0.044079926421583 0.0360592980984641 -0.2901852 0.9158478 0.2775165 32 32 32
-0.0133503111363544 0.0442382367535661 0.0344899179023146 -0.2913564 0.9266079 0.2377166 35 35 35
-0.0104790339234109 0.0445611365320877 0.0370726593269257 -0.3164488 0.8946853 0.3152749 43 43 43
-0.00547957498227447 0.0464262700917688 0.036304542493935 -0.1609809 0.8931986 0.4198588 31 31 31
-0.00592790012346001 0.0470032405537621 0.0342959556178496 -0.2302804 0.9007294 0.3683172 30 30 30
-0.00803948246202024 0.046578176623647 0.0332736401504246 -0.3562844 0.9028694 0.2405998 38 38 38
-0.0059356366547263 0.0473610061824319 0.033098307511182 -0.2693768 0.9023372 0.3364874 29 29 29
-0.00783508285979684 0.0473947737347302 0.0319693553545345 -0.3821178 0.8962463 0.2252302 27 27 27
-0.00681766607499412 0.0472369615909212 0.0328609606659566 -0.3429096 0.9059829 0.2482095 45 45 45
-0.0197961463553016 0.0446122035535372 0.0323444933985172 0.09173125 0.9211721 0.3781896 20 20 20
-0.0194149394876826 0.0448895971766696 0.0320941797735837 0.09714488 0.9217674 0.3753769 21 21 21
-0.018009003124019 0.043909011743722 0.0323885466052716 0.0547477 0.939645 0.3377425 42 42 42
-0.0188333448112208 0.0452021740425277 0.030589552741641 0.1150752 0.9227112 0.3679154 34 34 34
-0.0200345006926184 0.0458514691889644 0.0295699758746687 0.1444468 0.9037842 0.4028761 27 27 27
-0.0174287814456684 0.0460988098389938 0.0276440033613029 0.1432842 0.9064955 0.3971594 22 22 22
-0.0147909753884075 0.0455741293399838 0.0279660931706851 -0.03557924 0.9347271 0.3535807 17 17 17
-0.0123344819678524 0.0447404283017281 0.031681556981584 -0.3103167 0.9198785 0.239848 39 39 39
-0.0141703011747936 0.0444942905969941 0.030356185195749 -0.11507 0.9466903 0.3008927 13 13 13
-0.0133814408152455 0.0450793016063451 0.0293873072581668 -0.1699033 0.9435833 0.2842242 22 22 22
-0.0112959579054559 0.0455282821709662 0.029288939588359 -0.3293386 0.9156483 0.230487 52 52 52
-0.00902250897168155 0.0470602559734139 0.0295271409373644 -0.3938515 0.8995987 0.1886882 49 49 49
-0.00789414164511548 0.0477569498238624 0.0291640364001921 -0.4009439 0.8958564 0.191534 25 25 25
-0.00711704363019239 0.0475094735410895 0.0289222969348656 -0.4006022 0.8958721 0.1921746 36 36 36
-0.0120663121831757 0.0460919303927447 0.0279231463324816 -0.2151737 0.941706 0.2586312 31 31 31
-0.00907374717179943 0.0470503916712792 0.0276562695609717 -0.3700925 0.9044228 0.2122522 74 74 74
-0.0359958555958615 0.0377773863236956 0.0260969153427041 -0.9101766 0.1402414 -0.3897576 86 86 86
-0.0362904179649552 0.0368173411774171 0.0250885068164972 -0.9339311 0.08182281 -0.3479622 121 121 121
-0.0324687331693192 0.0286349091964817 0.0279670105169217 -0.8990193 -0.4077361 0.1597358 103 103 103
-0.033177704214614 0.0285086497392539 0.0256258371773784 -0.9054136 -0.3938346 0.1584947 128 128 128
-0.0341169102409897 0.0302908109601057 0.024410014340882 -0.9424324 -0.310008 0.1253643 93 93 93
-0.0352611178905509 0.0363567184996547 0.0207776176794306 -0.7753196 0.5197511 -0.358801 77 77 77
-0.0353629967030655 0.030686448173793 0.0200083084386205 -0.9958452 -0.06303004 -0.06572326 145 145 145
-0.0342697997913182 0.027939905036058 0.0197914995807915 -0.9542847 -0.2988872 -0.002691267 61 61 61
-0.0339959402093046 0.0275081128525794 0.0194780885534642 -0.9548782 -0.2962521 0.0210341 85 85 85
-0.0340207984772216 0.0360808261475574 0.0202472178491802 -0.7894259 0.5362527 -0.2987303 79 79 79
-0.0354457131383015 0.0310464528030263 0.017859537933451 -0.9776831 0.035198 -0.2071157 148 148 148
-0.0347005626277221 0.0335958072939233 0.0150520398822905 -0.814983 0.4741247 -0.3331795 128 128 128
-0.0332052688173876 0.0350136375218613 0.0142764156999795 -0.6095661 0.6803502 -0.4068817 77 77 77
-0.0317576128178412 0.0353619382995602 0.014056123688162 -0.4943024 0.7381342 -0.4591546 113 113 113
-0.0373538270991998 0.0427949669927188 0.0294482052587109 -0.850925 0.5049152 -0.1448698 99 99 99
-0.0373169164960077 0.0414088299921267 0.0283815696540741 -0.8006108 0.4735412 -0.3671254 105 105 105
-0.0361558579204995 0.0413463637174107 0.0272054222764445 -0.6879548 0.4929851 -0.5326198 104 104 104
-0.0348188132860425 0.0410417639728906 0.0262137448316287 -0.670753 0.4225889 -0.6095154 104 104 104
-0.0326568549743365 0.0429371467965161 0.0256837762530618 -0.6304867 0.5218313 -0.5746117 75 75 75
-0.0289431758272403 0.0469181188181869 0.0285171674563001 -0.2043286 0.9450034 0.2553786 54 54 54
-0.0307284842064881 0.0460225989858853 0.0266877990245741 -0.5424421 0.8158668 -0.2002948 81 81 81
-0.0294169311604238 0.0478161505979402 0.0273625988929084 -0.2728047 0.9470682 0.1692322 36 36 36
-0.0309797820209359 0.0446731184413134 0.0262002395228882 -0.6410571 0.6834187 -0.349263 82 82 82
-0.0309284591137571 0.0431090990115723 0.0234070188053732 -0.6460903 0.5094519 -0.5683539 89 89 89
-0.0288297260622037 0.0465635100304831 0.0238066587175061 -0.535602 0.7258987 -0.4315109 123 123 123
-0.0330108012620274 0.0368550205363716 0.0203840143283289 -0.7205069 0.6071777 -0.3349703 80 80 80
-0.0322588103074199 0.0378742995744112 0.0213838252675131 -0.6620545 0.6386744 -0.3921465 100 100 100
-0.0314601716339129 0.038395762543012 0.0201283923763882 -0.6221599 0.6650681 -0.4130394 106 106 106
-0.0304184454803296 0.0410303072182454 0.0219068394651809 -0.6750854 0.5252853 -0.5180107 90 90 90
-0.0317414347560288 0.0394068128860472 0.0214692318611976 -0.6820354 0.5777359 -0.4483848 100 100 100
-0.0301664100889645 0.0394645018693394 0.0197214889930112 -0.6133695 0.6253364 -0.4824233 66 66 66
-0.0312957898315793 0.0372679087776915 0.0171653106884298 -0.6090565 0.7025394 -0.3680877 95 95 95
-0.0287063711639228 0.0402528283968382 0.0178654717786108 -0.4078022 0.7093934 -0.5748551 125 125 125
-0.0283247797826927 0.0402108450871073 0.0176125022042736 -0.3901764 0.7168717 -0.5778039 132 132 132
-0.0283586838434027 0.0442943126831583 0.0222702684535807 -0.5311769 0.5654264 -0.6309866 95 95 95
-0.0292501934911678 0.0431859859031811 0.0216671070379834 -0.5739051 0.5669489 -0.5909331 87 87 87
-0.0284940020400648 0.0421535179558978 0.0197937564129921 -0.4953292 0.6353224 -0.5924647 108 108 108
-0.0281523284670842 0.0459909269226608 0.0228555813441935 -0.4685666 0.6621256 -0.5848376 105 105 105
-0.0261750113360577 0.0447997291059059 0.021459709990257 -0.3726513 0.6087989 -0.7003534 88 88 88
-0.0271005995581914 0.04396402393065 0.0212117976489852 -0.4515025 0.5831825 -0.67531 91 91 91
-0.0274816409605165 0.0428623173028959 0.0198098301886664 -0.425622 0.635069 -0.6446187 95 95 95
-0.0282143971607129 0.0414912588554937 0.0185840465481631 -0.4481393 0.6711809 -0.5904976 130 130 130
-0.0258402829813771 0.0477473574542897 0.0263580456776639 -0.1332515 0.9837744 0.1201328 47 47 47
-0.0229810023776373 0.0478083790384167 0.0270912707868667 0.08840346 0.9508159 0.2968738 25 25 25
-0.0212806982460219 0.047018398432118 0.027667209302063 0.1272239 0.9158493 0.3808334 16 16 16
-0.0252177597158121 0.048322722386883 0.0253342338254283 -0.09317464 0.9928753 0.07427678 27 27 27
-0.0265206280900045 0.0481406146656447 0.0242990521398989 -0.2793522 0.9090919 -0.3090536 39 39 39
-0.0211304195900235 0.0478067707748544 0.025106674613784 0.04448699 0.9733905 0.224793 11 11 11
-0.0251440640028413 0.0481009867463791 0.0224829687506067 -0.2596648 0.8609655 -0.437393 105 105 105
-0.0247676250493116 0.0467127377273122 0.0213383034336778 -0.2781914 0.7204988 -0.6352095 84 84 84
-0.0232868744998211 0.0453691369864493 0.0204740916662368 -0.260136 0.644735 -0.7187809 69 69 69
-0.0238411443162194 0.04496408350256 0.0205211661342904 -0.2956655 0.5997254 -0.74358 58 58 58
-0.0221801671742696 0.0474867022904588 0.0214071909322522 -0.1325603 0.8178309 -0.5599826 101 101 101
-0.030445815819657 0.0360637835644944 0.0134066748668995 -0.3601531 0.7566708 -0.5456546 109 109 109
-0.0293603950952779 0.0391026707983408 0.0167145289745236 -0.4526905 0.7198429 -0.5262105 116 116 116
-0.0280802730607279 0.0153031921801996 0.0256713451647314 -0.9492921 -0.311058 0.04568744 34 34 34
-0.0296807952657168 0.0204586354377989 0.0231829446709865 -0.9153844 -0.3946664 0.07943454 108 108 108
-0.0284909216796878 0.0175589565216774 0.0235905608556746 -0.9284979 -0.3637041 0.07490689 62 62 62
-0.0275072421953584 0.0139143031852516 0.0230625747659564 -0.951334 -0.3078996 -0.01270461 47 47 47
-0.0276177743803738 0.0141684350760738 0.021585964812469 -0.9290943 -0.3690401 0.02435533 52 52 52
-0.0305938014424347 0.020828083175586 0.019400167891818 -0.9026951 -0.4194276 0.0960319 26 26 26
-0.0280786113426168 0.0148879641907029 0.0197153368907168 -0.9234302 -0.3794922 0.05711671 37 37 37
-0.0302578359907106 0.0197284786416083 0.0168587206863702 -0.9089996 -0.4048651 0.0990146 49 49 49
-0.0292333364382964 0.0164292780870572 0.0171400264909624 -0.9217169 -0.3783557 0.0853515 25 25 25
-0.0296554265021092 0.0177094968178144 0.0151685793082253 -0.9146762 -0.3955348 0.08318418 108 108 108
-0.0312336505554063 0.0251628983121228 0.0275047245987094 -0.9142038 -0.3818976 0.1355936 18 18 18
-0.0315330657977566 0.0241270795882849 0.0249055563841805 -0.9081561 -0.3976843 0.1307657 148 148 148
-0.0321933872980376 0.0256042378960581 0.023175955095949 -0.900424 -0.4160836 0.1269292 108 108 108
-0.0309532538490203 0.0215599489403413 0.0220369515582752 -0.9000465 -0.4257379 0.09307875 107 107 107
-0.0335143797245148 0.0263398545047389 0.0206560631277145 -0.8962587 -0.4209245 0.1397962 61 61 61
-0.0322793277522289 0.0242467793442891 0.0182771716006053 -0.8981096 -0.4254924 0.1111549 107 107 107
-0.0308539265092485 0.0219623766309458 0.0175766415370227 -0.8976545 -0.4299312 0.09682788 38 38 38
-0.0266502519152301 0.0110230596097733 0.0234093026214473 -0.9528518 -0.3020533 -0.02893428 66 66 66
-0.0260866434106872 0.00810689864098513 0.0247351187861559 -0.9550535 -0.2958285 -0.01892774 92 92 92
-0.0269431395398563 0.0122922625417454 0.0210581304931872 -0.9380211 -0.3465689 0.002523812 57 57 57
-0.025594561474326 0.00926830706367654 0.0222998981384579 -0.9430396 -0.3215106 -0.08548226 74 74 74
-0.0260712758550623 0.0105283081789806 0.0203824735576482 -0.9296152 -0.365372 -0.04815497 42 42 42
-0.0251614315879705 0.00535473895567518 0.0229834962440442 -0.9305246 -0.3550607 -0.08975417 140 140 140
-0.0255411737614066 0.00884718825785158 0.0178736773210043 -0.9107072 -0.4115856 -0.03477981 123 123 123
-0.0283478189143707 0.0130033777974978 0.0150372455976685 -0.9000075 -0.4303881 0.06893968 118 118 118
-0.0266821452211938 0.0109092343149191 0.0151051652198431 -0.8840272 -0.4630449 0.06391629 133 133 133
-0.0269390190449204 0.0125909500035717 0.0177087418971551 -0.8971398 -0.4378995 0.05817331 66 66 66
-0.0249273385762607 0.0070856655151017 0.0167434602297881 -0.9240521 -0.3821374 -0.009933358 122 122 122
-0.0235869266605886 0.00518738684374798 0.0171141549820733 -0.9381258 -0.345737 -0.0196458 141 141 141
-0.0236506966906371 0.00522686093818714 0.0139103904482901 -0.9301507 -0.3649646 0.04025452 117 117 117
-0.0296253572924638 0.0340801663216908 0.0110974048801879 -0.197072 0.7793983 -0.5947276 82 82 82
-0.0319035375526857 0.0316782046285538 0.00782842776461021 -0.08260221 0.7952862 -0.6005804 117 117 117
-0.0301360911517858 0.031304002829396 0.00693095973739513 -0.06280161 0.7939984 -0.6046672 94 94 94
-0.0323718700265552 0.0306622207559495 0.0069219230328435 -0.05337601 0.8098515 -0.5842016 125 125 125
-0.032018791158094 0.0307634838412101 0.0062656142299839 -0.05337601 0.8098515 -0.5842016 101 101 101
-0.0296929170906504 0.0288723077214701 0.00418915514630283 -0.02464066 0.7726845 -0.6343119 80 80 80
-0.0259500200999456 0.0315267963727479 0.00746973970387368 -0.1423125 0.7482766 -0.6479423 106 106 106
-0.0269979899435824 0.0290235967410994 0.00440894883307147 -0.06844349 0.7620566 -0.6438829 91 91 91
-0.0270916824816183 0.0296697207871632 0.00573584327858129 -0.05754611 0.7663343 -0.6398595 50 50 50
-0.0255290814199625 0.00946456624256631 0.013678390535881 -0.8868672 -0.4578549 0.06193111 99 99 99
-0.0256108118629226 0.00892734520739702 0.0103375623671199 -0.8982738 -0.431655 0.0823286 64 64 64
-0.0244639971639846 0.00695719878138923 0.0124131388972912 -0.9115428 -0.4056197 0.06754599 88 88 88
-0.0244060851536583 0.00567570171208076 0.010900731446018 -0.9246462 -0.3700601 0.08991648 49 49 49
-0.0241434930747029 0.005170866180356 0.0122619498545964 -0.9287584 -0.3649941 0.06470717 61 61 61
-0.0254260919504579 0.00723718855621724 0.00788513194980786 -0.9249166 -0.3609961 0.1192105 23 23 23
-0.0237806228510906 0.00470357727405268 0.00966941711001737 -0.9261071 -0.360774 0.1103072 51 51 51
-0.0281556710833004 0.0136153441666496 0.00712796598395651 -0.9105297 -0.4122398 0.0315282 128 128 128
-0.0280389949708408 0.0141459647174238 0.00468032668168281 -0.9198063 -0.3897029 0.04569471 150 150 150
-0.0258111162811328 0.00620647679665565 0.00245608027821284 -0.9379431 -0.3372064 0.08096054 44 44 44
-0.0255225739050662 0.00602417355441309 0.00164753466072767 -0.9407237 -0.3281497 0.08577126 107 107 107
-0.0261797722686725 0.0393031549508318 0.0163451216338562 -0.2278697 0.7103316 -0.6659612 154 154 154
-0.0239578099587878 0.0415216436507877 0.0178272158751571 -0.2462209 0.6504144 -0.7185655 88 88 88
-0.0239179806070409 0.0400515581380718 0.0164983833360274 -0.199513 0.6758279 -0.709543 167 167 167
-0.0209737360223574 0.0427176954141339 0.0175026428224844 -0.2478367 0.6207157 -0.743834 136 136 136
-0.0176027948249682 0.0464466530427763 0.0263719951188626 0.1337797 0.929151 0.3446467 16 16 16
-0.0197097033301303 0.0474122815721605 0.0260056939747824 0.1053711 0.9487479 0.2979501 12 12 12
-0.0189096529863235 0.0483092780064198 0.0233349368616736 0.03243506 0.9991252 -0.02639711 22 22 22
-0.019250396096707 0.0481356947174145 0.0215818989020107 -0.04290572 0.9237196 -0.3806588 98 98 98
-0.0121005999123875 0.046669206560737 0.0250612357922202 -0.1458569 0.9637291 0.2234994 40 40 40
-0.0098767347511286 0.0471372872108473 0.0251358538188246 -0.3079235 0.9297059 0.2020644 42 42 42
-0.00818963943515749 0.0477180823813226 0.0258523305170779 -0.3717591 0.905212 0.2058796 66 66 66
-0.00732158980023412 0.0486070281450492 0.0251747979886024 -0.3785889 0.9167473 0.1274552 71 71 71
-0.0103637254128697 0.0479446494107481 0.0208674363448026 -0.1282173 0.9531187 -0.2740896 148 148 148
-0.00806045551790202 0.0480758916516455 0.0208083809766046 -0.23181 0.8808293 -0.4128001 61 61 61
-0.0218600475249282 0.0445088377456293 0.0190727665702657 -0.255889 0.6098936 -0.7500337 87 87 87
-0.0209926483492517 0.0459931673010956 0.0198541554183775 -0.1931826 0.7092883 -0.6779311 85 85 85
-0.0204172601549257 0.0470321261059981 0.0203096235958742 -0.1014891 0.8020481 -0.5885735 98 98 98
-0.0173763887903466 0.0470462094095987 0.0202839503462612 -0.03205171 0.8546554 -0.5182053 80 80 80
-0.0203718782329347 0.0442204673355491 0.0182788880084974 -0.2329946 0.6269833 -0.7433743 138 138 138
-0.0191189773032554 0.042992002831145 0.0165733602599379 -0.2173197 0.617964 -0.7555745 115 115 115
-0.0170705482938307 0.0421679589903796 0.0158276873250711 -0.1704304 0.6212311 -0.7648695 107 107 107
-0.0159710769551822 0.0416889781972432 0.0149450343995206 -0.1344426 0.6261302 -0.7680405 121 121 121
-0.0141144182112498 0.0438656091375991 0.0163535194296137 -0.1158805 0.6602637 -0.7420401 103 103 103
-0.0125995983712808 0.0443362280487258 0.0171594977928587 -0.1178502 0.6665541 -0.7360822 78 78 78
-0.0116029732883827 0.0429379308187408 0.0156535138568633 -0.1157516 0.6728753 -0.7306437 102 102 102
-0.0112772274405195 0.0432289726533224 0.0164393150670877 -0.1103741 0.6704937 -0.7336592 87 87 87
-0.01100674703157 0.0472229329084795 0.0194696272363298 -0.1288945 0.8410137 -0.5254353 106 106 106
-0.0116197007903991 0.0465833338389723 0.0184932033547259 -0.09337907 0.8037039 -0.5876567 123 123 123
-0.0110964651185843 0.0412319821343685 0.0140559022652912 -0.1401243 0.6748551 -0.7245246 224 224 224
-0.00872653093776066 0.0451308861508961 0.0172911835125129 -0.0898645 0.7076461 -0.7008291 85 85 85
-0.00771856333563248 0.0454698647993004 0.0169656051976057 -0.1056555 0.7128685 -0.6932932 66 66 66
-0.00546526991832108 0.0455072314969653 0.0175755569403928 -0.1610557 0.6975076 -0.6982437 87 87 87
-0.0058840432051519 0.044871203509492 0.0163061873122495 -0.135353 0.7228314 -0.6776388 66 66 66
-0.00877439628390286 0.04353308985793 0.0153976095952614 -0.125113 0.7033132 -0.6997837 102 102 102
-0.00753646158135313 0.0427243384536298 0.0147233389432204 -0.1383138 0.7136901 -0.6866701 139 139 139
-0.00558005548279494 0.0422661165671676 0.0135702311195938 -0.09190167 0.6900899 -0.7178649 223 223 223
-0.00527299388463431 0.0436978823162788 0.0145992764842822 -0.08957929 0.7190906 -0.6891184 119 119 119
-0.00177250458939637 0.0440666023240981 0.0154341373998136 -0.1086211 0.6777983 -0.7271801 138 138 138
-0.00108128879968517 0.0417845977592937 0.0131453622044476 -0.08901024 0.6771442 -0.7304471 177 177 177
0.00133048955855397 0.0431028365564272 0.0136930728169603 -0.0737481 0.7079152 -0.7024367 234 234 234
9.7401243266404E-05 0.0417917910408077 0.0128112794958644 -0.1088489 0.6842154 -0.7211111 229 229 229
-0.0282021663216474 0.0365604940037922 0.0133653153812249 -0.2510661 0.7381513 -0.6261777 102 102 102
-0.0260531218608939 0.0386028742717937 0.0148996029915372 -0.1833208 0.7285648 -0.6599901 108 108 108
-0.0233395248867554 0.0365056999439868 0.0122391670693324 -0.1314917 0.7449749 -0.6540049 220 220 220
-0.0283315807385067 0.0352818571365143 0.0118048500760366 -0.1935574 0.7622769 -0.617632 126 126 126
-0.0247296255047078 0.0344722261902952 0.0103047160030243 -0.1663612 0.7554884 -0.6336886 70 70 70
-0.0266195725952203 0.0400865931201366 0.0159217694254709 -0.2278697 0.7103316 -0.6659612 159 159 159
-0.0239521246403407 0.0391722890300674 0.0154721613214615 -0.178713 0.6952837 -0.6961625 88 88 88
-0.0230475628502562 0.0380666038731725 0.0141419017483215 -0.151055 0.7024788 -0.6954898 152 152 152
-0.0211574885452319 0.0393934628132004 0.014860452594429 -0.1913045 0.6414485 -0.7429309 163 163 163
-0.02187622487464 0.0362359095300469 0.0116899032143291 -0.1056907 0.7524946 -0.6500626 246 246 246
-0.0204930497971967 0.0348737736935731 0.00973828541315139 -0.08259824 0.7860651 -0.6126003 202 202 202
-0.0221253660761951 0.0371371669163474 0.0131680778558395 -0.138659 0.7222173 -0.6776252 159 159 159
-0.0180030495132808 0.0372278595206073 0.0122494750980709 -0.1597906 0.683619 -0.712132 117 117 117
-0.0166601694088344 0.0367225055778524 0.0116718573920662 -0.1502834 0.6969658 -0.7011802 94 94 94
-0.015309105589099 0.0377774357231209 0.011953848159164 -0.2014364 0.6505717 -0.732243 107 107 107
-0.0270512871980499 0.0326693581810411 0.00853703797358824 -0.1246319 0.761053 -0.6366044 114 114 114
-0.025885589164945 0.0333452815674733 0.00880492698886345 -0.1698519 0.7463679 -0.6434946 88 88 88
-0.0248368395674148 0.0327109698748433 0.00798799967067026 -0.165814 0.7455967 -0.6454388 101 101 101
-0.0231523017936581 0.0312413052739031 0.00588850528592724 -0.1715023 0.7261408 -0.6658127 95 95 95
-0.0200716298597428 0.0319638585521551 0.00589036580837071 -0.1130097 0.7625727 -0.636955 235 235 235
-0.0191145076329016 0.0337965724811313 0.00796986853808865 -0.08281943 0.7779235 -0.6228772 119 119 119
-0.0171407119568041 0.0412044801428717 0.0148658615730614 -0.1837778 0.6021424 -0.7769493 144 144 144
-0.0150831435772645 0.0403532868477705 0.0139206295370632 -0.1774116 0.6309504 -0.755266 246 246 246
-0.0137773748221233 0.0402737034079221 0.0136617857213952 -0.1685838 0.6370094 -0.7521958 236 236 236
-0.01468321643326 0.0389844147537761 0.0128575630620199 -0.1931982 0.6332722 -0.749427 219 219 219
-0.0130754373354192 0.0412497405646284 0.013995757696099 -0.1618744 0.6468354 -0.7452521 241 241 241
-0.0166858187933738 0.0333586689600549 0.00825582021966265 -0.1101376 0.7869603 -0.607094 86 86 86
-0.0138334936118705 0.037519385891202 0.0112072299846747 -0.2114367 0.6795561 -0.7024942 75 75 75
-0.0147534695866978 0.0362608887964093 0.0104217484153639 -0.2078477 0.6925414 -0.6907863 113 113 113
-0.0160299862460014 0.0340518320981367 0.00833189978210455 -0.1363057 0.7606866 -0.6346469 105 105 105
-0.0132560653379223 0.0353183830710107 0.00897046008335931 -0.1814398 0.7337005 -0.6548001 105 105 105
-0.0122265409035442 0.0368018577731135 0.0103062010650877 -0.1757697 0.6831453 -0.7088141 67 67 67
-0.0130165150507136 0.0364666029563097 0.00974342892184449 -0.1808496 0.6933732 -0.6975149 75 75 75
-0.0116521795333671 0.0344628814561045 0.00772347955252908 -0.1256182 0.7513649 -0.6478201 65 65 65
-0.0114090356246499 0.0353933616538029 0.00831829165598102 -0.1394068 0.730916 -0.6680776 77 77 77
-0.00900955719247909 0.0349895203154686 0.00799168264794886 -0.06022066 0.7114272 -0.7001748 81 81 81
-0.0206720792178055 0.0300264581085019 0.00437762042440726 -0.1372278 0.7124203 -0.6882048 90 90 90
-0.0191251316291376 0.0315255512956072 0.0052577707367745 -0.1271162 0.7576454 -0.640168 236 236 236
-0.0198349105690143 0.0294853062211122 0.00349596456013992 -0.1584395 0.6931295 -0.7031845 91 91 91
-0.0124797094914957 0.0348369900243894 0.00737760980579819 -0.1616765 0.7488584 -0.6427067 91 91 91
-0.0138771307154384 0.0287131797863274 0.0013414934274138 -0.1167696 0.6998541 -0.7046765 241 241 241
-0.0112555633445832 0.0292521299706363 0.00110823636911589 -0.0661499 0.6987805 -0.712271 214 214 214
-0.00946392129688434 0.0288131764421711 0.000872972116984561 0.01483337 0.6723458 -0.7400886 141 141 141
-0.0128665581926461 0.0318582063373238 0.00479853232190119 -0.1281678 0.7752668 -0.6184937 63 63 63
-0.0116772318556797 0.0317371844575991 0.00432020599459113 -0.06959656 0.7619121 -0.6439304 69 69 69
-0.0114975115121143 0.0327971842226304 0.00569763250846558 -0.0718158 0.775008 -0.6278576 78 78 78
-0.00895307483643171 0.0344044722958186 0.00674428227389295 -0.06913015 0.7410749 -0.6678541 121 121 121
-0.00903003919940781 0.031663042242932 0.00377576339791899 -0.02545029 0.7592684 -0.6502798 89 89 89
-0.00760520758870786 0.0318226772916474 0.00455582017804662 0.01160139 0.7537274 -0.6570848 218 218 218
-0.00789000837385423 0.0304447237949208 0.00271922063908361 0.04470157 0.7233504 -0.6890326 159 159 159
-0.00842018025768976 0.0299389079368237 0.00150678492619777 0.04655682 0.6884567 -0.7237816 144 144 144
-0.0134726705737704 0.0387497929504748 0.01270845780555 -0.1849003 0.6382148 -0.7473245 114 114 114
-0.0102659234836362 0.0401888452271988 0.0125867331804658 -0.1778641 0.6585809 -0.7311878 245 245 245
-0.0106626984685296 0.0383669561670739 0.0110318212981269 -0.1704464 0.6583768 -0.7331358 107 107 107
-0.0108072221168136 0.0397197926340913 0.0116006310050157 -0.1674248 0.6558154 -0.7361217 254 254 254
-0.00784081820634208 0.0398449385909059 0.0119599627034467 -0.1303148 0.6535886 -0.7455468 218 218 218
-0.00781990663782572 0.0408411416046808 0.0129388221839284 -0.1373179 0.6715255 -0.7281466 225 225 225
-0.00916715876678653 0.0370933487406269 0.00986929678451487 -0.09841777 0.6627485 -0.7423466 75 75 75
-0.0103258342371304 0.0364801336336782 0.00962633177055983 -0.1441298 0.687866 -0.7113838 82 82 82
-0.00550951522484233 0.0417832392299791 0.0125712455668907 -0.07091724 0.6713333 -0.7377549 253 253 253
-0.00772145009030156 0.0369393109238814 0.00959696018121747 -0.06526709 0.6582853 -0.7499337 141 141 141
-0.00654932365218919 0.0380855915073319 0.0101916803645861 -0.05859174 0.6345307 -0.7706736 238 238 238
-0.00301281216515559 0.0389642615881889 0.011137451281091 -0.09626067 0.6298422 -0.7707352 67 67 67
-0.00506721080770944 0.036951110981625 0.00936453239532842 -0.06121296 0.6537432 -0.7542366 207 207 207
-0.00608695070193832 0.0364755736938975 0.00869241187003802 -0.04138977 0.6790661 -0.7329093 226 226 226
-0.00291196660732584 0.0362110670895552 0.00897638307761603 -0.06975757 0.6398816 -0.7653009 99 99 99
-0.00426373647919309 0.0355627997417667 0.00859693661441824 -0.03594973 0.6768059 -0.7352832 228 228 228
-0.00418327096146998 0.0355431574730192 0.00699663076316195 -0.0308972 0.6976512 -0.715771 244 244 244
-0.0047682478107629 0.0413110907663605 0.012488209157595 -0.08052338 0.6679891 -0.7398017 239 239 239
0.000604520734285519 0.0406191823411906 0.0113267496566301 -0.1502871 0.6594463 -0.7365761 90 90 90
0.000290524924422719 0.045003422534343 0.0378470634515189 -0.03412332 0.8627932 0.504404 23 23 23
-0.00161867191200438 0.0461620924842756 0.0368575666174279 -0.05684449 0.8752491 0.4803204 46 46 46
0.00439435053470172 0.0466592516593498 0.0359976047382074 -0.06089953 0.8379797 0.5422925 14 14 14
-0.00488023111037483 0.0483835531964565 0.0304732339210744 -0.3277504 0.9132021 0.2421603 61 61 61
0.00170469117046101 0.0477264967582427 0.0338861424986195 -0.05962058 0.8529547 0.5185689 24 24 24
-0.000962998175866314 0.0482952034148585 0.0330052593372916 -0.1040322 0.8802992 0.4628722 42 42 42
-0.00148061295110891 0.0491423135900149 0.0320403233830744 -0.1177698 0.8978195 0.4243235 50 50 50
0.00295264728536671 0.0483333772689523 0.0328509682510843 -0.07118253 0.8456817 0.5289192 20 20 20
0.00896449331275706 0.0484574722047943 0.0335696730800734 -0.1204172 0.8276865 0.5481192 35 35 35
0.00698949034017549 0.049367923743092 0.0312652624516478 -0.1351281 0.8270786 0.5456018 23 23 23
0.00817110046143243 0.051374146625043 0.030486631219552 -0.1359131 0.8213957 0.5539284 35 35 35
-0.00231618527690491 0.0495303080089358 0.0306010946733884 -0.2234964 0.9075409 0.3555543 68 68 68
-0.00252571748058283 0.0501561489216875 0.028222833546327 -0.3315246 0.9038097 0.270591 39 39 39
-0.000268852027494493 0.0506355259064217 0.0279976129601795 -0.239741 0.9078629 0.3439611 35 35 35
-0.00131124351378364 0.0511829820758261 0.0261624885201337 -0.3490895 0.9044476 0.2451759 66 66 66
-0.00202435009776814 0.0511631018168666 0.0242269858332535 -0.3945349 0.9179577 -0.04118155 79 79 79
0.00303702544952023 0.0508580080467156 0.0291714079647321 -0.1327095 0.8484201 0.5124174 22 22 22
0.00119719066339385 0.0523648638030687 0.0258904485149449 -0.3073009 0.9041026 0.2969251 29 29 29
0.00636473046296393 0.0514328123857599 0.0293442883508701 -0.1576633 0.8219625 0.5472841 45 45 45
0.00969027844852377 0.0520754258241232 0.0286837235709857 -0.132845 0.8105306 0.5704318 12 12 12
0.00831056109473671 0.0528122523080994 0.027409324855389 -0.1699551 0.8362834 0.521292 13 13 13
0.00684105844723426 0.0539951842537927 0.025789570144145 -0.1911874 0.9205259 0.3407044 15 15 15
0.00494457850066032 0.0541854698968001 0.0245795461393132 -0.3141868 0.9399437 0.1333883 24 24 24
0.0106910427063576 0.0540510857913614 0.0259973219157617 -0.2147917 0.8965023 0.3874895 32 32 32
0.00814196530136346 0.0543384034653329 0.0251827821298587 -0.2308884 0.9118362 0.339478 12 12 12
-0.00751746481728333 0.0492379255450552 0.0225071156596541 -0.295615 0.9219818 -0.2501228 140 140 140
-0.00510658088345162 0.0496663190226092 0.0247547870972145 -0.4207889 0.9032363 0.08426709 73 73 73
-0.00503130256620388 0.0485632902037378 0.0206271731001218 -0.247527 0.8169401 -0.5209025 59 59 59
-0.00629937767599831 0.0492993660356422 0.0211917135818938 -0.2927141 0.8708166 -0.3949645 131 131 131
-0.00399187822100444 0.0506599517166755 0.0213870591610045 -0.3716427 0.8473263 -0.3793676 147 147 147
-0.00168223845596849 0.0500260242984312 0.0200058855364131 -0.3035139 0.7374299 -0.6033874 105 105 105
-0.000645456124106492 0.0488974583518724 0.0191058006223759 -0.2463234 0.6674752 -0.7027102 65 65 65
0.000774121600382927 0.0502398847743268 0.0199282335157848 -0.2128135 0.6959158 -0.6858656 80 80 80
0.00311709394478488 0.0541545503677767 0.0237132454591243 -0.3246728 0.9456354 -0.01900738 23 23 23
0.00402372028044029 0.0546935943626128 0.0225346673700266 -0.3321936 0.8364165 -0.4359528 79 79 79
0.00146645712333093 0.0526957226591913 0.0215361950563655 -0.3702602 0.8052985 -0.4630353 57 57 57
0.00174036367071206 0.0491132541609254 0.0187756893899176 -0.1247566 0.6177793 -0.776392 68 68 68
0.00550275069421424 0.0541630798004507 0.0215011816508036 -0.2400858 0.7540963 -0.6113081 86 86 86
0.00503079257055905 0.0529099276257514 0.0211511347426107 -0.1948393 0.7245589 -0.661099 61 61 61
0.00328860023433153 0.0510245074023958 0.0199804983586611 -0.153639 0.6411969 -0.7518388 82 82 82
0.00537461937500971 0.04813589200319 0.0179560701373366 -0.1246073 0.5772422 -0.8070096 216 216 216
0.00833014215369721 0.0520614493909646 0.0194180643313926 -0.2467199 0.549842 -0.7979994 86 86 86
-0.0033902290755714 0.0482426636905067 0.018713509883213 -0.2403907 0.698602 -0.6739196 35 35 35
-0.00244130915921348 0.0473014158825102 0.0179830087879319 -0.1793151 0.6559973 -0.7331532 86 86 86
-0.00201965021702177 0.0492475741473952 0.0188016758100966 -0.280235 0.7005773 -0.6562467 123 123 123
0.00086601616459836 0.0478301218461641 0.017848550417322 -0.1274925 0.5887308 -0.7982116 83 83 83
0.00127177972408177 0.0490060537927628 0.0181449709194565 -0.1289632 0.6125644 -0.7798291 85 85 85
0.0012983651350309 0.0447881557095791 0.0153505065429214 -0.0706292 0.6397576 -0.7653245 207 207 207
0.00212732727793341 0.0443298828109273 0.0149198944388609 -0.04853681 0.651338 -0.7572337 237 237 237
0.0029461753030815 0.0486087333775989 0.0182091510322568 -0.07736497 0.5877616 -0.8053266 72 72 72
0.00499643021339669 0.0549201760681617 0.0225321941185515 -0.250896 0.8781608 -0.4072897 95 95 95
0.00985498391516915 0.0560925248018294 0.0214980675194084 -0.2704759 0.8663422 -0.4198737 119 119 119
-0.0310532709136155 0.026443073238454 0.00104609907660627 -0.02981071 0.762238 -0.6466101 105 105 105
-0.0298646509470335 0.0259614544224809 0.000614803164941807 -0.06118674 0.7660381 -0.6398764 100 100 100
-0.0285982094913111 0.0265581409460405 0.00195543523842145 -0.05125602 0.7828546 -0.6200898 89 89 89
-0.0280387739074821 0.0256557119087157 0.000157744589338399 -0.073012 0.7652818 -0.6395413 106 106 106
-0.030479122857594 0.024453054756743 -0.00086550814693484 -0.04283449 0.7435942 -0.6672577 115 115 115
-0.0314960111820333 0.0255809250634011 0.000722957676981828 -0.03722812 0.7621087 -0.6463779 85 85 85
-0.0298415046586014 0.025487367856365 -0.00091030309797277 -0.05591601 0.7513466 -0.6575346 111 111 111
-0.0296190032545902 0.0237987430435971 -0.00187667631687427 -0.07842113 0.7325336 -0.6761987 126 126 126
-0.0268452516546502 0.0235575380701298 -0.00240121268836013 -0.05191218 0.7073749 -0.7049297 203 203 203
-0.0281741493637209 0.0287747069648316 0.00313756839020302 -0.05160294 0.7719809 -0.6335477 50 50 50
-0.0267795191887017 0.0277467555332738 0.0033833570222962 -0.06206051 0.7740805 -0.630038 95 95 95
-0.0255014342852391 0.0278310224732015 0.00237073938874038 -0.1017642 0.7717207 -0.6277668 84 84 84
-0.0265384687395858 0.0269336563102023 0.00185536437913106 -0.06506575 0.7889584 -0.610992 87 87 87
-0.0242866455555419 0.0274092352616957 0.00160512363995341 -0.07445282 0.7565102 -0.64973 79 79 79
-0.0246383607058549 0.0264513750714688 0.00101269771885329 -0.07135148 0.7548605 -0.6519928 98 98 98
-0.0246097042427511 0.026899638988044 0.000158342296006642 -0.05127747 0.7608007 -0.6469566 69 69 69
-0.0227741988341639 0.0283324959826212 0.00251258837303708 -0.1120005 0.7391417 -0.6641727 62 62 62
-0.0308482319829952 0.0224232430613569 -0.00332390685522727 -0.04224974 0.7252767 -0.6871598 116 116 116
-0.0290476067477434 0.0229877059572319 -0.00334251025171578 -0.06186057 0.7171524 -0.6941655 138 138 138
-0.0275416516489946 0.0232328347549471 -0.00254559253273459 -0.05700941 0.7011962 -0.7106854 161 161 161
-0.0269609068539052 0.0118126734465251 0.00146856379931012 -0.9331927 -0.3503539 0.08002253 116 116 116
-0.0280879186111931 0.0130638614760608 0.00173289645538027 -0.9333856 -0.3514908 0.07242594 101 101 101
-0.0293696102511518 0.0146499920887309 -0.00270630864084767 -0.9838406 -0.1506561 -0.09674936 34 34 34
-0.0250580812605512 0.0052436051698812 -0.000171193673012632 -0.9370985 -0.3384674 0.08535939 49 49 49
-0.0254574539393988 0.00478245532010546 -0.00210107173793334 -0.9363971 -0.3463611 0.0565192 30 30 30
-0.0274253461771474 0.0093029867824046 -0.00290155999426658 -0.936763 -0.3461735 0.0513696 109 109 109
-0.0251004226299374 0.00433339931248433 -0.00210320226320573 -0.940331 -0.3346259 0.06166898 57 57 57
-0.0286439259816618 0.0144786644217423 -0.00339967983312639 -0.9778473 -0.09411277 -0.1869693 96 96 96
-0.0294903240802364 0.0195584733175358 -0.0062053327202348 -0.5200775 0.4237409 -0.7415949 125 125 125
-0.0290297049852133 0.016802982827216 -0.00860321431366284 -0.7576916 0.2121205 -0.6171777 95 95 95
-0.0269796595518983 0.0172328192800955 -0.0084330374528897 -0.2179616 0.5807308 -0.7843752 108 108 108
-0.0273655826897539 0.0158154824497694 -0.00923803482517652 -0.6770986 0.1593925 -0.7184229 114 114 114
-0.0255034412611241 0.0168614649182155 -0.00848167280399062 0.02012168 0.6276515 -0.7782344 107 107 107
-0.026115567987365 0.00573970637447974 -0.00466588601074988 -0.9456072 -0.3196558 0.06039256 37 37 37
-0.0269743434119709 0.00981123314298205 -0.007784426993028 -0.9395489 -0.06739637 -0.3357167 70 70 70
-0.0266189197834636 0.00756145120022067 -0.0090281099478598 -0.9423826 -0.1478906 -0.3000723 76 76 76
-0.0201627106021869 0.0140141918005041 -0.0103410800853714 0.0392989 0.6188675 -0.7845117 60 60 60
-0.0254451204917086 0.0232985847642329 -0.00256028310296463 -0.01435599 0.689508 -0.7241358 187 187 187
-0.022480635144202 0.0261060048258033 -0.000102373175129011 -0.04863341 0.7367895 -0.6743708 74 74 74
-0.0194805611783746 0.0270951818468717 0.000865479591191487 -0.111421 0.7157912 -0.6893681 86 86 86
-0.0207933608154423 0.0255549432855264 -0.000313179378503503 -0.06617539 0.7181829 -0.6927006 71 71 71
-0.0184638301406777 0.0266138591248328 0.00012221670908516 -0.1282657 0.6969908 -0.7055153 83 83 83
-0.0228450782991492 0.0248799027501554 -0.00146277556945126 -0.04234148 0.7133115 -0.699567 133 133 133
-0.0222489916173276 0.024554619504862 -0.00157597584214689 -0.03205123 0.7074879 -0.7059982 101 101 101
-0.0194643112315203 0.0246656979744249 -0.00156466573657552 -0.0694693 0.6830415 -0.7270683 69 69 69
-0.0204838394988958 0.022644340253287 -0.00299009447412507 -0.02054804 0.6525047 -0.757506 70 70 70
-0.0165704206465542 0.0255503130032966 -0.00127944018044027 -0.1276326 0.6680297 -0.7331073 78 78 78
-0.0187810207453643 0.0222181802173289 -0.00368682482505306 -0.03171321 0.6159127 -0.7871759 98 98 98
-0.0143442924819306 0.0215842889410063 -0.00427700894310742 -0.05190467 0.5714101 -0.8190216 70 70 70
-0.0151894536552293 0.02447836691911 -0.00235225871392689 -0.06833795 0.6114566 -0.7883215 73 73 73
-0.0141808415689395 0.0231325747618047 -0.00373551207973752 -0.0478035 0.5832902 -0.810856 57 57 57
-0.0267203269075837 0.0215361413427764 -0.00455692456332549 -0.01087015 0.6840045 -0.7293968 183 183 183
-0.0272018270052654 0.0209477989185369 -0.00490870338445948 -0.008372525 0.6830041 -0.7303665 183 183 183
-0.0234289077462138 0.0229206778125761 -0.0035147011227854 0.01520077 0.6756744 -0.7370435 129 129 129
-0.0247501997683419 0.0207432993118164 -0.0051072212924437 0.008509714 0.6751971 -0.7375883 174 174 174
-0.0231190433689008 0.0215952370479511 -0.00406197298572178 0.0288851 0.6612773 -0.7495852 127 127 127
-0.0276301751428472 0.0195598279568203 -0.00654366997662836 0.006690369 0.6738375 -0.7388493 141 141 141
