ply
format ascii 1.0
comment File exported by Rhinoceros Version 7.0
element vertex 475
property float x
property float y
property float z
property float nx
property float ny
property float nz
property uchar red
property uchar green
property uchar blue
end_header
0.00520806057961565 -0.0580018353721139 -0.0246588731838424 0.3555099 -0.8157865 0.4561854 65 65 65
0.0623058532050429 -0.0100001883765695 -0.00903259168397968 0.9533601 0.2890761 0.0868306 105 105 105
-0.0334223057457628 0.0143098044136527 0.0291395043300431 -0.210932 -0.5306567 0.8209209 110 110 110
-0.0495297457405748 -0.00896926644053431 0.0103742336200517 -0.05472013 -0.5542036 0.8305806 99 99 99
0.0638180230429946 -0.0179203343650338 -0.00342668543588703 0.958854 0.2331707 0.161958 71 71 71
0.0604087565711318 -0.0324589801093575 -0.0175010407997329 0.2882949 -0.7895676 -0.5417277 47 47 47
0.0362773392966567 -0.0487910104056832 -0.0127902473045546 0.2024091 -0.9776877 0.05618943 68 68 68
-0.00995989100424666 0.0491825747231009 0.0222199713157457 -0.2258697 0.7773978 0.5870568 50 50 50
0.00841586335213762 -0.0262451958915231 0.00622709144819195 -0.08074006 -0.696249 0.713245 115 115 115
0.0667050336173354 -0.0177217316886422 -0.0268126274181563 0.9493911 0.03601476 -0.3120247 132 132 132
-0.0193998362251939 0.0209544110039237 0.0360361789630693 -0.16009 -0.5226204 0.8374002 100 100 100
0.0381790850928603 0.0412778067329886 0.0429327939914506 -0.09526496 0.5002527 0.8606229 125 125 125
-0.0756957079598131 0.0237727570274833 0.00608961333501751 -0.7845368 0.5697734 0.2446638 56 56 56
-0.0180251146980943 0.00161639926228552 0.0218075369762223 -0.1108474 -0.5838642 0.8042485 92 92 92
0.0633140061667739 -0.0193026852866647 0.000338599579219168 0.9658236 0.225462 0.1278738 62 62 62
0.0670258258155165 -0.0276656937858102 -0.00871182928812092 0.9237632 0.188958 0.3331012 49 49 49
-0.0479487921425523 0.0393531727531913 0.014383897678737 -0.4028971 0.7908662 0.4606566 96 96 96
0.04356353028329 -0.0157970977088449 0.0205244277881425 -0.09126237 -0.6346618 0.7673823 93 93 93
-0.0479487921425523 -0.0465913605948922 -0.0231924797130782 -0.9251791 -0.3744415 0.06194486 163 163 163
-0.0163753773400011 -0.0596514535209176 -0.0527494991852004 0.2701176 -0.6059338 -0.7482518 54 54 54
0.0246607516578017 0.0313108372429374 0.0451323841975969 -0.0901705 0.3757961 0.922305 32 32 32
0.0368730281165419 0.0374514269569877 0.0037983809875291 0.7890528 0.5456356 -0.2822718 106 106 106
-0.0221493984886827 -0.0418256116172311 -0.0121486927105147 -0.06242484 -0.6954256 0.7158815 61 61 61
-0.00371248976675886 -0.0470190835258004 -0.0150509322715957 -0.1042572 -0.7094132 0.6970389 97 97 97
0.04049317582162 0.0371306347588065 0.0105804656909745 0.8294008 0.493023 -0.2627215 96 96 96
0.0327762816718398 -0.0403500390311715 -0.00377188573610371 -0.08845183 -0.7160727 0.6923989 68 68 68
0.0237213824561415 -0.048286874320173 -0.0230091656280715 0.3685068 -0.8759106 -0.3114214 98 98 98
-0.00519414202658552 -0.0433606696387765 -0.0109114194942672 -0.1075138 -0.6870688 0.718594 135 135 135
0.00200037701638323 -0.0247329068442819 0.00778512706029827 -0.02229058 -0.649271 0.7602304 117 117 117
-0.0763142849632921 0.0160512137154105 -0.00225050698053425 -0.9181123 -0.3348936 -0.2119342 93 93 93
0.0390726779273329 -0.0109625649711129 0.0236863349841874 -0.1568573 -0.5686364 0.8074952 146 146 146
-0.000565841359776442 -0.0289717507621285 0.00256107796895916 -0.01796491 -0.7348861 0.6779526 227 227 227
-0.0684783007332506 0.0257202791908744 0.0177749549316209 -0.5547552 0.7008985 0.4483169 76 76 76
-0.00313205973593611 -0.0492492509147164 -0.0165937090946395 -0.116128 -0.6711282 0.7321894 110 110 110
0.022621557550746 -0.00812144997324915 0.0223116134570878 -0.1264904 -0.5879734 0.798929 227 227 227
-0.07335860983817 0.0156388687828544 0.0240300153659623 -0.7107766 0.0810715 0.6987303 167 167 167
0.00319175465615373 0.0429962086418632 0.0336303566860002 -0.1823319 0.6056548 0.7745562 30 30 30
0.00234405739815813 0.0113311218956473 0.0322097693847459 -0.1388485 -0.520337 0.8425974 128 128 128
0.0630848859122572 -0.021708447959089 0.00948064078557903 0.9049953 -0.09623405 0.4143941 99 99 99
-0.0647893692681016 0.0326626705864432 0.00987015713918621 -0.4970898 0.732922 0.4644643 29 29 29
-0.0233407761284532 -0.0652879071494576 -0.0347632313801009 -0.1920349 -0.7491863 0.6339105 73 73 73
0.00924067242653948 -0.0399926495810983 -0.00742872010004109 -0.005932736 -0.7522931 0.6588018 225 225 225
-0.0479945685097398 0.0336021589973929 0.0270315860675615 -0.4216781 0.7764144 0.4683677 46 46 46
-0.0432745958992662 -0.0404737782737252 -0.0131568456722457 -0.1660892 -0.6144148 0.7713034 92 92 92
0.0474433158210097 0.021595995400286 0.000147656099681204 0.8319459 0.5514858 -0.06106852 85 85 85
0.0451214764884291 -0.00479908707346888 0.0272835945056718 0.01420917 -0.4815296 0.8763146 101 101 101
-0.0524854208656969 0.00152472731862097 0.0163543676303666 -0.09360763 -0.473143 0.8759985 87 87 87
0.0608394597342787 -0.00356181385722132 -0.0108655835224349 0.9446691 0.3242591 0.04956209 31 31 31
-0.0254334952065172 -0.0208836388846871 0.00650201787221844 -0.1159171 -0.5477514 0.828572 143 143 143
-0.0419915463158311 -0.045995671775007 -0.0183808649612624 -0.1925761 -0.7288879 0.6569908 63 63 63
0.0128379319480239 -0.0217542243262765 0.0119781052039903 -0.1075217 -0.6637846 0.7401547 120 120 120
0.000946328478175218 -0.0178591799994943 0.0127342199252885 -0.09227297 -0.5347422 0.8399622 117 117 117
-0.0757185961434068 -0.0012248349448678 0.00975559701192791 -0.9492489 -0.2989595 0.09772325 42 42 42
0.0110736344626723 -0.0259701800605294 0.00741852869260723 -0.04161003 -0.7162665 0.6965852 144 144 144
0.0413181041053114 -0.0359600377341744 -0.0258045042587478 0.40495 -0.7954918 -0.4507864 54 54 54
-0.026227786702794 -0.0635007214805123 -0.0417057121826369 -0.969552 -0.2177769 -0.1119914 38 38 38
-0.0252425219246568 -0.058895308997297 -0.0292298937870223 -0.06922553 -0.681214 0.7288041 43 43 43
-0.0294202114769639 -0.04833276989665 -0.0192515398098189 -0.03754894 -0.7316377 0.6806588 87 87 87
0.0265166018775282 0.0561479735115531 0.021395102636699 0.3919509 0.8647019 0.3141101 75 75 75
0.0131816123297988 0.04936591861043 0.0295061026977342 -0.171686 0.7511893 0.6373685 62 62 62
-0.00998289839712996 -0.0112604689857003 0.0142693375514787 -0.1945753 -0.5112143 0.8371382 97 97 97
-0.0655455137917222 -0.0123602938910958 -0.0118279005123336 -0.8242086 -0.01199222 -0.5661594 53 53 53
0.0147396777442275 -0.0358225894233224 -0.00229634295236653 -0.126923 -0.7141655 0.6883736 213 213 213
-0.0525999809929552 -0.0289717507621285 -0.00527496586572712 -0.06004573 -0.6414079 0.7648466 58 58 58
0.0210634921363173 -0.00383682968821497 0.0247403239177507 -0.1065965 -0.5481921 0.8295316 59 59 59
0.0364835713675795 -0.0390073848029611 -0.0250254715515334 0.4553787 -0.7771265 -0.4344015 30 30 30
-0.0489110495278062 0.00244120833668737 0.0172708784507554 -0.1477689 -0.4685016 0.871017 64 64 64
0.0403099511435805 0.0199921536186698 0.0437576328681749 -0.12205 -0.5670568 0.814586 74 74 74
-0.0088601853081407 0.0549107002953055 0.0140172993110459 -0.2444972 0.79892 0.549498 82 82 82
-0.0506982351967515 -0.0313088488837716 -0.00697047959100788 -0.08558705 -0.6264371 0.7747589 100 100 100
0.028074667291957 -0.0436127972861764 -0.0082993949485976 -0.1358462 -0.7300204 0.669788 64 64 64
-0.0323224808403673 -0.0555272889396188 -0.026995941503163 -0.2390892 -0.7751338 0.584811 72 72 72
0.033711120920497 0.0380471157768729 0.0433910345004838 -0.2704994 0.3465913 0.8981673 107 107 107
-0.0535393501946153 0.0308984923103812 0.0258859549926561 -0.478629 0.7282387 0.4904923 112 112 112
-0.0175897623726549 -0.0289488625785348 -0.000944509608860666 -0.02114141 -0.6322048 0.7745128 122 122 122
0.0468171094229994 0.0207711863258842 0.0433452283309739 0.5407151 -0.2575928 0.8007953 60 60 60
0.0193220828345595 0.0338082718590262 0.042634949581508 -0.09943869 0.5502896 0.8290316 45 45 45
0.0407070372870741 -0.00629599812235804 0.0266955350803178 -0.07980254 -0.5679925 0.8191557 66 66 66
0.0285634253791152 -0.0126963448783395 0.0199592565463823 -0.1508602 -0.6086438 0.7789698 114 114 114
-0.0198123003670396 -0.012818534400129 0.0120239411758226 -0.09965499 -0.5004628 0.8600034 86 86 86
0.0510558341315566 0.0152264046410087 0.0126311038898271 0.9204238 0.3851124 0.06714465 79 79 79
-0.0169482971855821 -0.0393740725776193 -0.0099032665325362 -0.09432101 -0.6485341 0.7553191 244 244 244
-0.0649191881844224 -0.0146362376471993 -0.0130957509113509 -0.832442 0.01291915 -0.5539615 42 42 42
0.0201011155417739 0.059263985131121 0.0194246326850694 -0.07571229 0.7673239 0.6367744 58 58 58
-0.0532339359947862 0.0411020922401908 0.0083961342738908 -0.416825 0.7405221 0.5271469 81 81 81
0.0371480439475356 0.0376805472115043 0.00274439205396587 0.7850324 0.5476667 -0.2894569 112 112 112
-0.0306269671150865 -0.0560772013923165 -0.0374898458553511 -0.769111 -0.4026251 -0.4963479 36 36 36
-0.0149853970238389 -0.00472279312815638 0.0174083565639299 -0.1540042 -0.5575864 0.8157083 96 96 96
0.0454422686866103 0.026086847756243 0.00870163788068706 0.9018208 0.4179206 -0.1098256 108 108 108
-0.0720984484383287 -0.00310357334818812 -0.000325873000736887 -0.934585 -0.003487965 -0.3557227 49 49 49
-0.078239038152379 0.00940660712513952 0.0117719029353898 -0.981348 -0.03968835 -0.1880981 102 102 102
0.0589148257544814 -0.0015455079337594 -0.00137983213197773 0.9358385 0.3065016 0.1739626 61 61 61
-0.0303061749169053 -0.0581392836829659 -0.0361150945259291 -0.7774913 -0.436851 -0.452403 39 39 39
0.0498873446753798 -0.0312095475455758 0.00618125547635967 0.03393453 -0.6373929 0.7697914 118 118 118
-0.00762291209189314 -0.0544884991904733 -0.0220010424686629 -0.125908 -0.6099176 0.7823987 90 90 90
-0.0633229757973375 -0.0133454394599435 0.00682281007039959 -0.04524803 -0.6370237 0.7695151 65 65 65
0.0403328393271742 -0.027734477545881 0.00824336756933147 -0.1341059 -0.6700728 0.7300808 236 236 236
0.000937149362879808 -0.00453336956706019 0.0210101758407396 -0.1514621 -0.5671235 0.8095864 237 237 237
-0.0141987349220933 -0.064921338584089 -0.0415453458858687 0.5220998 -0.8275777 -0.2062207 35 35 35
-0.0680200602242174 0.0243454384544852 0.0204327856468003 -0.5497117 0.6871874 0.4749638 73 73 73
-0.0158713604637803 -0.0359142613669869 -0.00559572826158589 -0.08323409 -0.6883972 0.7205424 147 147 147
-0.0567012573906602 -0.0362349343558785 -0.0161812747551162 -0.637906 -0.725893 -0.2572071 16 16 16
0.0543323014548598 -0.0256036114951608 -0.0319450343681533 0.4474025 -0.6891491 -0.570004 57 57 57
-0.0716173197457017 0.00218919989857702 0.0165834878848832 -0.13195 -0.5721523 0.8094634 73 73 73
-0.0422206665703477 0.019396345589495 0.0308350180553239 -0.1661951 -0.6055616 0.7782508 115 115 115
0.0296785090735732 -0.00878592255320521 0.0230448101924699 -0.1463093 -0.5739824 0.8056909 241 241 241
-0.0237532402702989 -0.0469121527930734 -0.0178767884803969 -0.04608239 -0.6899062 0.7224305 102 102 102
-0.00730211989371199 0.019923369858599 0.037067220108394 0.02884271 -0.5274346 0.8491059 139 139 139
-0.0377298142143907 -0.0492034745475289 -0.0207179332805831 -0.1448232 -0.6974812 0.7018164 68 68 68
0.0668424819281874 -0.02271660092082 -0.0148981655670363 0.9312865 0.329543 0.1552641 40 40 40
0.0138689730933486 -0.0079609942695138 0.0218075369762223 -0.1579073 -0.5569123 0.8154226 123 123 123
-0.00473590151755232 -0.0279864859839913 0.00407330741155559 -0.1086704 -0.718987 0.6864753 114 114 114
-0.0252654101082506 -0.0640506339332101 -0.0470214034153182 -0.9019789 -0.3430291 -0.2622312 51 51 51
-0.046688630742711 -0.0430628848334786 -0.0260450686050612 -0.9537449 -0.1720734 -0.2464983 155 155 155
0.0187722895911513 0.0397426295021537 0.0389918540881913 -0.168974 0.5277983 0.8323922 49 49 49
0.0310074542334853 0.0488617825249198 0.0358299468921464 -0.1959793 0.7082086 0.678257 71 71 71
-0.0521188523003282 -0.0211586547156808 0.00132383455503399 -0.06716409 -0.6677909 0.7413125 85 85 85
-0.0108764912316026 0.0451499628761771 0.0273981844352525 -0.220755 0.7771981 0.5892625 84 84 84
-0.0457338835426988 0.0069778370598319 0.0204938804076951 -0.2210173 -0.4919305 0.8421139 48 48 48
-0.0248071695992174 -0.0317899775763986 -0.00289206157457417 -0.09784993 -0.6751728 0.731141 75 75 75
-0.0335597540566148 -0.0163927865287301 0.00801424731481487 -0.1304392 -0.5181732 0.8452705 251 251 251
-0.0336514260002794 -0.0498908353110787 -0.0390937174392897 -0.640976 -0.5716985 -0.5121627 18 18 18
0.00229816182168108 0.0341978478172782 0.0394500945972245 -0.09744333 0.5430532 0.8340251 44 44 44
0.0125400279334364 -0.0444835019370553 -0.0450967694355208 0.5635369 -0.6827143 -0.4651099 41 41 41
-0.064949824971837 0.0256972717979911 0.0222428893016618 -0.5071731 0.7030044 0.4985582 44 44 44
-0.0774141098686876 0.0122477221230033 0.0186456297801774 -0.8424382 0.0212351 0.5383743 102 102 102
0.0350629542640029 -0.0430857730170724 -0.021061613662358 0.477306 -0.7243805 -0.4974453 47 47 47
-0.019583180112523 -0.0558938575049874 -0.0255753840042311 -0.1636304 -0.7181842 0.6763406 31 31 31
-0.0111513878533067 -0.0007665944358346 0.0207993840144914 -0.1486035 -0.5417506 0.8272988 89 89 89
-0.0121290232369127 0.0360919642189506 0.0362576400207322 -0.1281035 0.6090527 0.782716 93 93 93
-0.00338406817404646 -0.0162324500342843 0.013169572250728 -0.1445915 -0.5193218 0.8422578 240 240 240
-0.0119304205605211 0.0495491432884696 0.0202953075336259 -0.224055 0.7820782 0.5815092 38 38 38
-0.0400210167595567 0.045974771950579 0.00938899864423687 -0.3443131 0.7699753 0.5372025 70 70 70
-0.00922675387350935 0.0472579407433036 0.0239612912105363 -0.222654 0.7791166 0.5860055 43 43 43
-0.0203622128197374 -0.032843906905317 -0.00335030208360737 -0.02125071 -0.657582 0.7530832 249 249 249
0.0607477877906142 -0.0312858414908883 -0.0193737293316085 0.2828314 -0.7950011 -0.5366374 52 52 52
0.0266541693976698 0.0577060389259818 0.0184623156951707 0.5450586 0.8171262 0.1876593 158 158 158
-0.0130912806221666 0.0177925038078788 0.0352342282699388 -0.1074455 -0.5685843 0.8155779 104 104 104
0.0561653827002822 -0.0296819997092721 -0.0231466437412459 0.312328 -0.7784514 -0.5444857 62 62 62
-0.0542726065346422 -0.0343561959525582 -0.0105448211265761 -0.2138725 -0.7875476 0.577951 98 98 98
-0.0732440497109117 0.00974265811238317 -0.00119654784929341 -0.9147498 -0.3638213 -0.1756896 45 45 45
-0.0377527023979845 0.0298903393486503 0.0372276162074845 -0.3028214 0.37841 0.8747028 132 132 132
-0.0289772297569932 -0.00628848793711634 0.014613047735576 -0.1089631 -0.5387554 0.835386 82 82 82
0.0209260438254653 0.0215043234566215 0.0417413567470353 -0.1317287 -0.5224941 0.8424057 78 78 78
-0.0740230824181261 0.0198547053078177 0.0166751598285478 -0.7480291 0.5435149 0.3808466 55 55 55
-0.061680987043065 0.0227568554619315 0.0288645779060167 -0.4100123 0.4346066 0.8018772 59 59 59
0.0346276019385634 -0.03705986263957 -0.0304328049255568 0.4783229 -0.7464105 -0.4626863 22 22 22
0.0331612084677992 -0.0481494260093209 -0.0116904223991591 -0.02656634 -0.9157002 0.400983 98 98 98
0.0169667456916152 -0.0490475487967965 -0.0194256747795302 0.04246224 -0.9060151 0.42111 180 180 180
0.023240134554225 0.00358680960927038 0.0301705752776902 -0.1502418 -0.5572925 0.8166103 82 82 82
0.044709131555873 0.0315857338646415 0.0263900016711991 0.9509865 0.3085214 -0.0209592 79 79 79
-0.0521646286675157 0.0064738201836112 0.0191038702892106 -0.08126276 -0.5010864 0.8615734 59 59 59
-0.0256473566719713 -0.00204964401926966 0.0179429804252427 -0.1103223 -0.5385141 0.8353631 69 69 69
0.00177125676186662 0.00267032859120397 0.0255651627944749 -0.1544395 -0.5613765 0.8130221 106 106 106
0.0106382821372328 -0.0294987750312325 0.00260691394079143 -0.1008103 -0.7318181 0.6740026 227 227 227
-0.025036289853734 -0.0666856360694406 -0.0466777230335433 -0.753979 -0.5781744 -0.3118175 31 31 31
-0.0555098797508897 0.0236580776909354 0.0317056929038804 -0.3177682 -0.1212045 0.9403897 100 100 100
-0.0148632075020494 0.0245745587090018 0.0389002119468492 -0.0874757 -0.4138221 0.9061453 191 191 191
0.0380186293891249 0.0111478972176078 0.037433818476085 -0.1294408 -0.5175737 0.8457911 42 42 42
0.0389352296164809 -0.0367390704413888 -0.0263085807396132 0.4230816 -0.7894158 -0.4447749 68 68 68
-0.0761310602852525 0.0139432358482841 0.00123216261136944 -0.872548 -0.4513319 -0.1869746 69 69 69
-0.029573037786168 -0.0582538438102242 -0.037237777812596 -0.8333102 -0.366511 -0.4138402 29 29 29
0.028212115602809 -0.0380680156013009 -0.0373065317703444 0.4974582 -0.7058921 -0.5042337 70 70 70
-0.00285704390494246 0.039376060936785 0.0347759877609056 -0.1381264 0.6836966 0.7165753 95 95 95
-0.053951814336461 0.0316316294411185 0.0241675232814592 -0.4696502 0.7342983 0.4901374 83 83 83
-0.000932409925145095 -0.00988562824931116 0.017499998705272 -0.1292981 -0.5362821 0.8340765 122 122 122
-0.0490027214714708 -0.0229457211753366 -0.000738307340260203 -0.06580712 -0.6814069 0.7289404 66 66 66
0.0263333771994887 0.0102773117760184 0.0359215890334886 -0.1067166 -0.5414643 0.8339232 165 165 165
0.0251418803504286 -0.0238164258262155 0.00975559701192791 -0.06578876 -0.6999905 0.7111154 90 90 90
0.0582732413581191 -0.0232207370063302 0.0114969467090409 0.2344166 -0.5786854 0.7811351 109 109 109
0.00908033593209367 0.0313337254265311 0.0430931900905412 -0.2843736 0.3625853 0.8875041 168 168 168
-0.00409431712119002 0.00413672206196813 0.0257026409076493 -0.1891956 -0.5670155 0.8016847 84 84 84
-0.0781244780251207 0.0157075333336356 0.0147275780605119 -0.9003709 0.322256 0.2923753 74 74 74
-0.0695093418785753 0.00775686976704626 0.0203869794772905 -0.06217425 -0.5410635 0.8386803 64 64 64
-0.0587634588905992 0.0311733889320853 0.0206619059013169 -0.5048883 0.7332914 0.4553807 67 67 67
-0.0616198326775255 -0.0186229539176461 0.00248472441900188 -0.09367351 -0.634352 0.7673479 127 127 127
0.0641388152411757 -0.0324315619727609 -0.0152189577652175 0.5923352 -0.6809934 -0.4305658 41 41 41
0.00516228421242815 0.0432253288963798 0.0338594769405168 -0.1889669 0.5856417 0.7882355 80 80 80
-0.0252654101082506 -0.0570394587775704 -0.0505499089790541 -0.8435543 -0.2863371 -0.4543426 75 75 75
0.0052997325232802 -0.0100231957694528 0.0176833127902787 -0.1378036 -0.5227304 0.8412865 49 49 49
0.036918923693019 -0.0347227645179269 0.0010794257091325 -0.09686688 -0.6383959 0.7635885 65 65 65
-0.0191707159706773 -0.0236332011481759 0.00398166527021343 0.05632215 -0.6681936 0.7418525 216 216 216
-0.00982244269339461 0.00294522521290808 0.0240529631542009 -0.1547919 -0.5557131 0.8168368 79 79 79
0.0552946780494032 -0.0267492127677438 -0.0289664114547927 0.4083927 -0.7398859 -0.534588 49 49 49
0.0629932139685927 -0.010481436278486 -0.0157688404155928 0.9423366 0.3045718 0.1387005 77 77 77
-0.0679283882805528 0.0245745587090018 0.0199745451377671 -0.5491308 0.6954303 0.4634998 63 63 63
-0.0131982113548936 -0.00420339825358362 0.0186303411887925 -0.1740122 -0.5617146 0.8088241 108 108 108
0.0590522740653334 -0.0153388571998117 0.0180499111579698 0.6077207 -0.2545143 0.7522619 129 129 129
0.0562569354346572 -0.00264533283915491 0.0207077418731492 0.9429486 0.3085423 0.1250982 87 87 87
-0.0483611370751085 0.032731454346514 0.0299185370372575 -0.4513139 0.7393329 0.4997025 44 44 44
0.0523159955313979 -0.0314691853782174 0.0056313728259843 0.09244777 -0.6641557 0.7418562 93 93 93
-0.0212329174706163 -0.0617594313880441 -0.0305702830387313 -0.08226673 -0.6649793 0.7423171 79 79 79
0.00209204896004778 0.00729862925801306 0.0293686245845597 -0.1346975 -0.5611779 0.8166615 95 95 95
0.0341922496131239 -0.0125894141456124 0.0210514222549241 -0.1665643 -0.5885273 0.7911333 198 198 198
0.0645283911994277 -0.0146514964362618 -0.0173727119995314 0.9466609 0.2989775 0.1201896 87 87 87
-0.0666453386971178 0.0307609247902396 0.0109928702281755 -0.5632967 0.7096746 0.4231534 37 37 37
-0.0355072762200059 -0.0393052888175485 -0.0110947037769515 -0.1541201 -0.5793492 0.8003758 95 95 95
0.0484896157553969 0.0199004816750052 -0.000898673637028391 0.8157765 0.5781111 -0.01721325 69 69 69
-0.0736717726418199 0.00516013381276159 0.00249998320806438 -0.9219257 -0.109581 -0.3715442 50 50 50
-0.0291605736443223 -0.0433377814551827 -0.013202681644078 0.00491268 -0.6895743 0.7241983 48 48 48
-0.042953803701085 -0.0223500323554513 0.00114052047002727 -0.1124909 -0.7442924 0.6583119 222 222 222
-0.0352400089928331 -0.0503336978217599 -0.0212678457332808 -0.08970015 -0.7022556 0.7062513 93 93 93
-0.00345285193411726 -0.0573602509757516 -0.0408808733059127 0.5434042 -0.7688268 -0.3370714 38 38 38
0.0438842032721816 0.0345186400154593 0.0295977746413987 0.952141 0.3056588 -0.0003309441 75 75 75
-0.0082186009117784 -0.0421005082389352 -0.0105448211265761 -0.1447627 -0.6685036 0.7294839 134 134 134
0.0220257495215712 -0.0466830325385568 -0.0132026518417556 -0.2197201 -0.8090672 0.5450994 73 73 73
0.0410430882743178 -0.0340811801215646 -0.0290580535961348 0.4377221 -0.7509456 -0.4944492 37 37 37
-0.00899763361899275 -0.0182258677741525 0.0100305532382768 -0.2105284 -0.5623946 0.7996187 126 126 126
-0.0111056114861192 0.0152262854317191 0.0333554004596513 -0.04181065 -0.6336536 0.7724862 73 73 73
0.0101571534446059 -0.0218917918464181 0.0106262718604844 -0.1815286 -0.6501523 0.7378004 110 110 110
0.0458089564612685 0.0291570830086234 0.0299185370372575 0.95382 0.3003635 -0.003001911 70 70 70
0.0144876693061171 -0.0206545186301705 0.0124592636989396 -0.06996213 -0.6381114 0.7667589 102 102 102
0.0365752433112441 -0.0308734965583322 0.00462321986425335 -0.1317955 -0.6487901 0.7494674 65 65 65
0.0242025111487685 -0.0104355407020089 0.0205015396045488 -0.1571015 -0.5963267 0.7872189 232 232 232
-0.0360037829109849 0.019442241165972 0.0321181272434037 -0.1604467 -0.5476755 0.8211628 107 107 107
-0.0110368277260484 0.0414839195946219 0.0311329220699113 -0.1633322 0.7249026 0.6692076 91 91 91
0.0494748805335341 0.0184798645714286 0.015758649008159 0.9163395 0.3949066 0.0661114 70 70 70
0.00777427895577532 0.0354808974007133 0.0392209743427079 -0.1627925 0.6508281 0.7415669 75 75 75
0.00901155217202287 0.0058780121544364 0.0292769824432176 -0.157022 -0.5405325 0.8265402 93 93 93
0.00658278210671526 -0.0499823880454537 -0.0171894277168471 0.1919995 -0.6909355 0.6969537 96 96 96
-0.0113576199242296 0.0158907580116752 0.0341115151809495 -0.05419492 -0.6168141 0.7852409 92 92 92
0.00280229790719133 0.0421255039909842 0.0339740370677751 -0.1618823 0.6203852 0.7674088 90 90 90
-0.0631626393028917 0.0374972033241752 0.0056313728259843 -0.4742095 0.7319096 0.4893197 76 76 76
0.0643526767066298 -0.0217237067481515 -0.00177697788011616 0.9723343 0.1648783 0.1654727 66 66 66
-0.0612380053230943 -0.00830479386057825 0.0106262718604844 -0.02282147 -0.5756923 0.8173479 77 77 77
-0.0119761969277086 -0.041642267729902 -0.010819777352925 -0.09032696 -0.6575195 0.7480034 102 102 102
0.00662867768319231 -0.0538775515815255 -0.0215886081291396 0.2922629 -0.6734695 0.6789854 69 69 69
-0.0355760599800767 0.0446000504234794 0.0143380915092271 -0.3657584 0.760483 0.5365504 57 57 57
0.0311449025443373 0.0345186400154593 0.0436659907268327 -0.1712975 0.4412736 0.8808716 46 46 46
0.0468171094229994 0.0254452633598807 0.0145213757919114 0.9420076 0.3337735 -0.0348838 104 104 104
-0.0755811478325548 0.00335768935475378 0.00650204767454082 -0.9348417 -0.04438985 -0.3522792 46 46 46
0.0125400279334364 -0.00406594994273157 0.0239154850410264 -0.1498383 -0.5511326 0.8208541 245 245 245
0.00268773777993303 -0.0425588679572579 -0.0104989851547438 0.02384378 -0.6935656 0.7199988 99 99 99
-0.0336055304238023 -0.000629146124982549 0.0184165095256608 -0.1081138 -0.653237 0.749395 69 69 69
-0.0510801817604722 -0.0287043643256661 -0.00513748775255268 -0.04904665 -0.6384393 0.7681079 98 98 98
-0.0375464703270616 -0.0442084861060617 -0.0418431902958113 -0.5788859 -0.6028711 -0.5490334 48 48 48
0.0228964541724501 -0.0363266062995431 -0.0428513432575423 0.4845667 -0.6860526 -0.5427034 21 21 21
-0.00754649893729109 -0.0564285111686227 -0.049190446241017 0.5211062 -0.7702038 -0.3677424 45 45 45
0.0172600005439101 -0.0356851411124703 -0.00160895238649433 -0.1430705 -0.7167856 0.6824583 232 232 232
-0.0625668312737169 0.0333729195335868 0.0118864630626481 -0.4773904 0.7555759 0.4485571 59 59 59
0.0572345708182631 -0.000873525168561651 0.0102902208732408 0.9407487 0.3201288 0.1118459 74 74 74
-0.0095475460716905 0.000287454102373408 0.0223116134570878 -0.1498511 -0.5439975 0.8255976 84 84 84
0.0223465417197524 -0.0147201609870431 0.0170875643657487 -0.09218263 -0.5970264 0.7969077 159 159 159
-0.0466656233498277 -0.0491118026038644 -0.0271792257858474 -0.8303576 -0.5253398 -0.1858075 159 159 159
0.060335442858058 -0.00296612503733606 -0.0246588731838424 0.892464 0.4510481 -0.007971953 97 97 97
-0.0771392132469835 0.0185257601479056 0.0126883839534562 -0.828602 0.4857337 0.2783549 70 70 70
-0.0419915463158311 0.0401091980675223 0.0181873594688218 -0.2964575 0.8698824 0.3942302 19 19 19
-0.0471009756752672 -0.0325460028907296 -0.00781823645364826 -0.0499945 -0.6190189 0.7837832 82 82 82
-0.00995989100424666 0.0173801588753226 0.0352800344394487 -0.03321791 -0.6053374 0.7952756 98 98 98
0.00465814812691789 -0.00223298790659876 0.0235488866733354 -0.1549023 -0.5577269 0.8154422 50 50 50
-0.0381880547234239 -0.0487451148292062 -0.0354735399318892 -0.5920787 -0.5758929 -0.5637289 16 16 16
-0.0282440926262559 0.0500990557411674 0.0109928702281755 -0.3177864 0.8172678 0.4807132 125 125 125
-0.00670643107382674 0.0525736021736625 0.0184165095256608 -0.2246062 0.7938154 0.5651629 33 33 33
-0.0440995241829576 -0.047278721358442 -0.0210386956764418 -0.4020626 -0.7332267 0.5483833 77 77 77
0.0207274411490737 -0.040603597190046 -0.00701631556284016 -0.1742115 -0.7595996 0.6266249 129 129 129
-0.053333237332982 -0.0328210187217233 -0.00859726916086262 -0.08648112 -0.6281453 0.7732751 98 98 98
-0.0470169331261339 0.0331591772774222 0.0289562200473588 -0.4074669 0.7661341 0.4970003 97 97 97
-0.0458865906426134 0.0325709986427787 0.0302163814472001 -0.3604253 0.7643078 0.5347216 48 48 48
0.0331612084677992 0.0490451264122489 0.00847248782384807 0.7632734 0.58892 -0.265682 59 59 59
0.0207426999381362 0.0306234764793876 0.0461405371593278 -0.1191499 0.3704973 0.9211596 131 131 131
0.0286245797446547 -0.0376097750922677 -0.038543804986592 0.4967465 -0.7037229 -0.5079537 67 67 67
0.0154270385077773 -0.0241829943915841 0.00888492216337139 -0.004371879 -0.7402492 0.6723184 80 80 80
-0.0109222675987901 -0.062630136038923 -0.0309368814064223 -0.08103441 -0.7784142 0.6224989 88 88 88
-0.0333458925911607 0.0326397824028495 0.0359368776248735 -0.1239856 0.6477293 0.7517143 177 177 177
-0.0675770785042467 0.0174106764534476 0.0266955052779954 -0.3860878 -0.05417239 0.92087 155 155 155
0.0321072791388808 0.0459289955833915 0.0373879825042527 -0.2189567 0.6470384 0.7303419 41 41 41
-0.0492777373024644 -0.0141245913764474 0.00714360226858074 -0.09977387 -0.5495391 0.8294889 106 106 106
-0.0231575514504136 -0.00168307545390101 0.0184165095256608 -0.1164472 -0.530065 0.8399233 105 105 105
0.00878243191750627 0.0157304215172294 0.0362423812316697 -0.1317066 -0.5412947 0.8304538 143 143 143
-0.058923795385045 0.0232456135490897 0.0303309713767808 -0.3943883 0.191011 0.898873 84 84 84
-0.0279233004280748 -0.0551606011649606 -0.0255295480323989 -0.06130393 -0.7066787 0.7048737 97 97 97
0.0190471862128554 -0.0457665515204904 -0.035015299422856 0.5432337 -0.7385488 -0.3993029 55 55 55
-0.0767726446816148 0.0207711863258842 0.00984723915327007 -0.8237934 0.5032972 0.2608762 67 67 67
-0.0730608250328721 0.00908581492695837 -0.00247962723505085 -0.916524 -0.3532324 -0.187645 51 51 51
0.0204678033164321 -0.0491118026038644 -0.0190224195553023 0.1106011 -0.9539006 0.2790002 169 169 169
0.0146022294333754 -0.0427879882117745 -0.0432179416252333 0.5731062 -0.6759259 -0.4633287 53 53 53
0.066407129602748 -0.0227853846808908 -0.0275229359699447 0.7790161 -0.2866182 -0.5576593 60 60 60
-0.0589925791451158 -0.00301190140452356 0.0139256571697038 -0.04854032 -0.4400382 0.8966662 90 90 90
-0.0399752403923692 -0.0470038247367379 -0.0188391054702956 -0.1791522 -0.7197098 0.6707625 98 98 98
0.00652174695046526 0.0213821339348319 0.0392668103145402 -0.1456163 -0.5148638 0.8448142 139 139 139
-0.0755811478325548 0.0100939678886893 0.00691445221174175 -0.9104114 -0.2473751 -0.3315972 64 64 64
-0.0345679070183458 0.00619880435261755 0.0238238428996843 -0.204812 -0.5255614 0.8257344 83 83 83
0.0376062844565688 -0.0388928246757028 -0.0239715124202926 0.4535596 -0.7698627 -0.4489935 42 42 42
0.0593272898963271 -0.0313317370673654 -0.0200305725170333 0.2875498 -0.7843882 -0.5495911 46 46 46
-0.06327719943015 -0.00851090672221155 0.010420069591884 -0.01414514 -0.5931209 0.8049892 87 87 87
0.00364999516518694 -0.0518154692908761 -0.0184267009330947 0.1357157 -0.6588676 0.7399154 107 107 107
0.0656511042884169 -0.0213418793937203 -0.0124694551063735 0.9467677 0.291009 0.1376393 84 84 84
-0.0750923897453966 0.0134085821846488 0.0222963248657029 -0.6811099 -0.1427547 0.7181298 125 125 125
-0.0168795134255113 0.0157304215172294 0.033378288643245 -0.129634 -0.5574796 0.820007 194 194 194
0.0583191369345961 -0.0171947074195382 0.0166064356731218 0.4102763 -0.4174861 0.8107889 94 94 94
-0.0685699726769151 0.0245745587090018 0.0197454248832505 -0.5836066 0.6772814 0.4479879 65 65 65
-0.0552348639198961 -0.0323856663962838 -0.0205346489978988 -0.6333674 -0.4690583 -0.6154917 43 43 43
0.0323363993933974 0.0429504322746757 0.0402291273044389 -0.2052774 0.5676069 0.7972977 163 163 163
-0.0574345137306871 -0.0312858414908883 -0.0195723022056777 -0.6598472 -0.4626731 -0.5920601 58 58 58
-0.05738861815421 -0.00456996681895228 0.0135590588020127 -0.0435484 -0.4531342 0.8903779 60 60 60
0.0658802245429335 -0.0216626715919015 -0.0064664031101424 0.9642026 0.1651419 0.2074645 59 59 59
0.0567151759436904 0.006015579674578 -0.00726069460641926 0.9243872 0.3722352 0.08336198 77 77 77
-0.056151464147252 0.0146305966118339 0.0243737255500596 0.005194372 -0.6433915 0.7655197 112 112 112
0.000854775743800218 0.056972782585955 0.0144297336505693 -0.2396766 0.7597777 0.6043947 88 88 88
-0.0600922848412218 -0.0274824691077706 -0.0196639741493422 -0.7572438 -0.3567117 -0.5471185 103 103 103
0.00224475605996233 -0.0565200639029977 -0.0353971565796096 0.5096194 -0.8164749 -0.2713978 32 32 32
-0.0513398195931138 -0.0274365735312936 -0.00412933479082173 -0.05153587 -0.6300986 0.774803 91 91 91
-0.00253637091605086 -0.0579559397956368 -0.0406059170795638 0.5456817 -0.7695529 -0.3316922 48 48 48
0.00273351414712053 -0.0563978743812081 -0.0226884032322127 0.1592961 -0.7088435 0.6871431 70 70 70
0.0461296294501601 0.0282634901741508 0.0361965154575151 0.9505836 0.3083226 0.03644077 53 53 53
0.0295869563391982 -0.0329813552161691 0.00301934828031475 -0.01396443 -0.6054336 0.7957733 77 77 77
0.0326228593161879 0.0198316979149344 0.0421881531642717 -0.1156171 -0.5410084 0.8330321 71 71 71
0.00740771039040666 -0.0224417042991158 0.00970976104009563 -0.1212124 -0.6442568 0.7551428 113 113 113
0.0305721019080458 -0.0428108763953683 -0.00681008349191731 -0.1129301 -0.7344251 0.6692284 76 76 76
-0.0292636896797838 0.0187089848259452 0.0329200779365342 -0.1590124 -0.5172825 0.8409125 48 48 48
-0.0231116558739366 0.0423088478783133 0.0249694441722673 -0.2695257 0.8051646 0.5282669 43 43 43
-0.0469864155480089 -0.0185924363395211 0.00462321986425335 -0.1019926 -0.6330526 0.7673603 67 67 67
0.00649122937234026 -0.0501199555655953 -0.0428971792293746 0.54241 -0.7195436 -0.4336455 40 40 40
0.000121519403773362 -0.0573144746085641 -0.0229633594585616 -0.01396828 -0.7036325 0.7104268 71 71 71
0.0285329078009902 0.0522528099754813 0.0288645779060167 -0.0064901 0.8643543 0.5028416 43 43 43
0.0135481808951674 -0.0441168141623971 -0.0425305808616835 0.5729428 -0.6871902 -0.4466611 47 47 47
-0.071685984296483 0.0261326241234305 0.0116344248222154 -0.7012234 0.6397404 0.3146711 26 26 26
0.0106612895301161 0.0138515639046195 0.0351884221004289 -0.1501443 -0.5372339 0.8299617 114 114 114
-0.0111513878533067 -0.0254661631843087 0.00343178261983806 -0.3993353 -0.5730913 0.71561 148 148 148
0.00857619984658342 0.0554147171715262 0.020547375576381 -0.2810676 0.713909 0.6413539 39 39 39
-0.0274191643425645 -0.0535567593833444 -0.0460132504535872 -0.9103802 -0.3507553 -0.2194963 30 30 30
-0.0013906504341783 0.0476818489769462 0.0270086680816453 -0.1995998 0.7310008 0.6525319 85 85 85
-0.0430913712212266 -0.0525486064216134 -0.029149695737477 -0.6183779 -0.7121615 -0.3323174 55 55 55
0.0123568032553969 0.0597680020073417 0.0169271980689805 -0.2399348 0.7274259 0.6428708 94 94 94
-0.0317725683876695 0.0449667381981376 0.0179582690166276 -0.3630192 0.7523949 0.5496536 56 56 56
-0.0263194586464586 -0.0399467540046212 -0.0103615070415694 -0.01173604 -0.6928245 0.7210107 52 52 52
0.0231255744269667 0.00111226317677526 0.0288187419341844 -0.143015 -0.5473561 0.8245896 73 73 73
-0.0297562624642076 -0.0369910788794992 -0.00809319267999714 -0.112165 -0.6144606 0.7809336 60 60 60
0.0367355798056899 -0.0306901526710031 -0.03716905365717 0.4596517 -0.714195 -0.5278692 39 39 39
0.0221174214652358 0.0264076399544242 0.0448116218017381 -0.1333582 -0.3710023 0.9190065 65 65 65
-0.041808202428502 -0.0177675080558297 0.00586049308050091 -0.1068275 -0.5707517 0.814144 216 216 216
0.00992803319008928 -0.0310109448691842 0.00136964072454387 -0.1009878 -0.7207147 0.6858366 149 149 149
-0.0387837435433092 -0.0248932433387277 -0.00121946583520954 -0.3014781 -0.6969662 0.6506528 170 170 170
-0.0112888361641588 0.0390094923714164 0.0335845207141679 -0.1508312 0.68421 0.7135171 110 110 110
0.0262874816230116 0.044875066254473 0.0374796544479173 -0.2031273 0.5809749 0.7881672 99 99 99
0.0407834504416762 0.0159901785591605 0.0408706818984788 -0.1257121 -0.5491178 0.8262361 74 74 74
0.0285329078009902 0.0213210987785819 0.0426120315955918 -0.1303563 -0.5474113 0.8266487 98 98 98
-0.00993700282065291 -0.013299663092756 0.0130779003070634 -0.1916288 -0.5218902 0.8312094 89 89 89
0.0309157822898207 -0.0399467540046212 -0.0313951219154555 0.4913779 -0.7504301 -0.4420435 32 32 32
-0.0102349068352403 0.0521611380318168 0.0170188402103227 -0.2401735 0.7936778 0.5589206 41 41 41
-0.0237073446938219 -0.0520903659125802 -0.0222759688926894 -0.097432 -0.6818017 0.7250196 66 66 66
0.0659718964865981 -0.0229304623862741 -0.00952140937578266 0.9526289 0.2341605 0.1940799 63 63 63
-0.0753520275780382 -0.00365348580088587 0.0116344248222154 -0.8038192 -0.4087132 0.4322363 37 37 37
0.0521671031287489 0.015283625099993 -0.00606544266473835 0.8396568 0.5431098 -0.002861668 65 65 65
0.0550655577948866 -0.0357309174796578 -0.000280037028904612 0.1977002 -0.7804778 0.5931011 107 107 107
-0.059313371343297 0.0180216240623954 0.02803970922697 -0.1753036 -0.3931483 0.9026091 85 85 85
-0.0183459068962755 -0.0638674092551705 -0.0510539854599196 0.2967067 -0.7054387 -0.6436779 33 33 33
0.0494748805335341 -0.0270242285987374 0.00934316267240459 0.04000527 -0.6870731 0.7254862 73 73 73
0.0480084870627699 -0.0388928246757028 -0.00264002333414143 0.1145224 -0.7787098 0.6168433 60 60 60
-0.0589773203560533 0.0302569079140189 0.0211048876212876 -0.5055479 0.7300704 0.4598028 76 76 76
0.0231408332160292 0.0381540465096 0.0409164880679887 -0.1508856 0.5001021 0.85272 90 90 90
-0.0676992680260362 -0.0166678023597238 -0.00889511357080525 -0.8634697 -0.09662205 -0.4950598 46 46 46
0.0450528119376479 -0.0194630217811105 0.0174083565639299 -0.03804786 -0.6818436 0.7305078 80 80 80
-0.056105568570775 -0.0190964532157418 0.00311099042165691 -0.1095269 -0.6268567 0.7713977 150 150 150
0.0161601756385146 0.00331191298756628 0.0286812638210099 -0.1034117 -0.5738961 0.8123727 101 101 101
0.0208801482489882 0.0118352579811576 0.0352800344394487 -0.150837 -0.5317576 0.8333559 136 136 136
0.00154213650735002 -0.0108937812110421 0.0169959222244065 -0.1381464 -0.5353971 0.833226 130 130 130
0.0130441640189467 0.0375888752678397 0.0383502994941514 -0.2336366 0.6033089 0.7625171 51 51 51
0.053782389002162 -0.0386179280539987 -0.0120570207668502 0.3197286 -0.817844 -0.4784399 70 70 70
-0.0215994860359849 -0.0669376445075509 -0.0475254798961837 0.08167876 -0.8336423 -0.5462317 25 25 25
-0.072740032834691 0.00367848155293493 -0.000142558915730173 -0.9411797 -0.1322679 -0.3109438 50 50 50
-0.0231575514504136 -0.0559396338721749 -0.0261252666546065 -0.08014406 -0.7121525 0.6974351 46 46 46
0.0242139552405654 -0.0323971104880807 0.00277875413167888 -0.1178291 -0.5915471 0.7976142 79 79 79
0.0637951348594008 -0.0128414225837228 -0.0146232391430098 0.9447662 0.3002868 0.1313195 78 78 78
-0.0252196337410631 -0.0633174968024728 -0.0493584717346389 -0.7137368 -0.3756194 -0.5911767 68 68 68
-0.00747008578268904 -0.0257105422278878 0.00613544930684978 -0.2699508 -0.5833334 0.7660605 127 127 127
-0.070586278600377 0.0208627390602592 0.0217617010043901 -0.6460443 0.5988415 0.4733028 63 63 63
0.0464504216483412 -0.0380680156013009 -0.0023421789241988 0.07752077 -0.7604935 0.6447016 38 38 38
-0.0016045118996324 -0.0404049945136544 -0.00787170182001179 -0.05655342 -0.7096539 0.7022771 71 71 71
0.0676215146354018 -0.0243663382789132 -0.0240173185898024 0.8722069 -0.2647541 -0.4112911 86 86 86
-0.0215230728813829 -0.0219987225791451 0.00627289761770183 -0.02382448 -0.5922971 0.8053673 248 248 248
-0.0731523777672471 0.0231196093300345 0.0146359657214921 -0.740697 0.5770441 0.3440758 82 82 82
0.0329092000296889 0.00709251639637976 0.0342718814777177 -0.1209264 -0.5160549 0.8479765 248 248 248
-0.0109527851769151 0.0250024008491996 0.0399083649085801 -0.009215886 -0.2261541 0.974048 175 175 175
0.0319239352515517 0.0125685143211844 0.0372505043910783 -0.1000393 -0.5346014 0.8391624 72 72 72
-0.0143132950493516 0.047028820488787 0.0225407337116044 -0.2579222 0.7534063 0.6048595 52 52 52
-0.0717776562401475 0.00381592986378698 -0.000738307340260203 -0.936095 -0.1410468 -0.3222296 64 64 64
0.022575661974269 0.0474870609978202 0.0336761628555101 -0.221643 0.6703784 0.7081435 63 63 63
0.0148771260550795 0.0211072373131278 0.0402596746848863 -0.1429482 -0.5314916 0.8349146 82 82 82
-0.0289200092980089 -0.0173437190314767 0.00810588945615703 -0.1438038 -0.5261133 0.8381678 104 104 104
0.0136856292060195 0.0228790449837211 0.0410539661811631 -0.1201383 -0.5423483 0.8315198 115 115 115
0.0231714700034438 -0.0340354037543771 0.00104887832868511 -0.1347 -0.6594333 0.7395969 39 39 39
0.000992224054652269 0.0417589354256156 0.0330346380637925 -0.1829695 0.6357297 0.7499133 57 57 57
-0.0433662678429307 -0.0416423869391915 -0.0138213182522017 -0.1614943 -0.6299358 0.7596713 80 80 80
-0.0231575514504136 -0.0689997267982003 -0.0447301710678298 -0.1810232 -0.9122001 -0.3675888 67 67 67
0.0634285662940322 -0.0084880185386178 -0.0220697666240889 0.9290975 0.3660755 0.05259825 92 92 92
0.0219799731543837 0.00752774951252966 0.0324389194415849 -0.1319277 -0.5769032 0.8060879 125 125 125
-0.0473683621117296 0.0369320320824149 0.0201272820400041 -0.3870967 0.8519555 0.3526017 58 58 58
0.0482987616828261 -0.0300485682746408 0.00674642671811992 -0.001622119 -0.6319793 0.7749835 91 91 91
0.0373771642020522 0.0462038922050956 0.0209368621276658 0.804887 0.5575435 -0.2032292 81 81 81
-0.0401126887032213 0.0265908646324637 0.0359674250053209 -0.2479008 -0.231777 0.9406512 192 192 192
0.00190870507271867 -0.0443918299933908 -0.0117362881733138 0.01815601 -0.6608747 0.7502766 76 76 76
-0.0752145792671861 -0.00117893936839075 0.00572301496732647 -0.9430413 -0.1345962 -0.3042319 49 49 49
0.020811483698207 0.00135282752308874 0.0281428252624314 -0.1511589 -0.5478028 0.8228384 94 94 94
0.0213383887580214 -0.0223959279319283 0.0106721078323167 -0.006785173 -0.7169968 0.6970435 120 120 120
-0.0193998362251939 -0.0308047127982614 -0.00176934848558491 -0.01113532 -0.6322384 0.7746939 225 225 225
-0.016237929029149 -0.0426046443244454 -0.0118279005123336 -0.09912028 -0.668303 0.7372559 239 239 239
-0.0719151045509996 0.0153179573753837 0.0248319660590928 -0.516606 -0.1840868 0.8361999 190 190 190
-0.0413652207085313 0.0139279770592216 0.0256873821185868 -0.2573557 -0.5487867 0.7953623 97 97 97
0.0603812192252455 -0.0377472234031198 -0.00605396877061909 0.3149996 -0.9098575 0.2700639 209 209 209
-0.0704029347130479 -0.0203796220084664 -0.000371708972569162 -0.6829137 -0.6486827 0.3359161 106 106 106
-0.0136832739540758 -0.0588380885383126 -0.0268470192981917 -0.1659001 -0.718945 0.674978 53 53 53
-0.0245322729775133 0.00141016719136267 0.0201578592227739 -0.06825314 -0.6263149 0.7765765 67 67 67
-0.0754436995217027 0.0136224436501029 -0.00078411350977009 -0.8804547 -0.441991 -0.1715913 109 109 109
0.0560278151801405 -0.0263368678351876 -0.0290580535961348 0.3948632 -0.7377744 -0.5475143 56 56 56
-0.0258612181374254 -0.0605221581717965 -0.048075362546559 -0.9503263 -0.237855 -0.2007606 33 33 33
0.0250808451941786 -0.0266575408240792 0.00673113812673504 -0.08203688 -0.6389424 0.7648677 104 104 104
0.0677131865790663 -0.0238623214026925 -0.0207179332805831 0.9594546 -0.07423412 -0.271912 81 81 81
-0.0089059616753282 0.0125685143211844 0.0307433759139817 -0.0765726 -0.6396012 0.7648836 55 55 55
-0.0677909399697008 0.00972739932332067 0.0220824932025712 -0.0968434 -0.5308233 0.8419311 104 104 104
0.0601063226035414 -0.0081901145240304 0.00430242766607219 0.9540266 0.2761989 0.1163935 92 92 92
0.0242253993323622 0.0350685524681571 0.0428067897723954 -0.1183999 0.4753103 0.8718151 62 62 62
0.0401037190726576 0.0416901516655448 0.0166064356731218 0.8203626 0.5313845 -0.2112715 114 114 114
-0.015229776067418 0.0377263235786918 0.0342718814777177 -0.1956783 0.6854854 0.7012987 94 94 94
-0.0264569069573106 -0.0584600758811471 -0.028783097369786 -0.06627767 -0.6790815 0.7310647 63 63 63
0.000579759912806566 -0.056122977759504 -0.0406059170795638 0.5016029 -0.7977749 -0.334589 22 22 22
-0.0276025082298936 0.0166011261681083 0.0320723210738939 -0.1555889 -0.5362315 0.8296071 88 88 88
0.0183369372657118 0.00521353957448034 0.0303309415744584 -0.1058916 -0.5978246 0.7946023 92 92 92
-0.0302603985497178 0.013759891960955 0.029712334768657 -0.1788199 -0.5287638 0.8297182 75 75 75
0.0507733081153212 -0.0268561435004708 0.00934319247472698 0.0418511 -0.6841859 0.7281059 90 90 90
-0.0556473280617418 -0.0247788024207589 -0.0255753840042311 -0.6693962 -0.3343751 -0.6634018 30 30 30
0.00163368924172502 -0.0391677212974069 -0.00710795770418232 -0.03427659 -0.729596 0.6830189 145 145 145
-0.0663245464989366 -0.00204964401926966 -0.012973531587239 -0.7615813 -0.03984178 -0.6468436 71 71 71
-0.00812692896811384 0.0331896948555472 0.0385336135791581 -0.1390249 0.4444493 0.8849502 131 131 131
0.0102946017554579 -0.00571556809153528 0.0224490915702623 -0.178473 -0.5620821 0.8075958 107 107 107
0.0620919917395888 -0.0271005225440499 0.00909878362882549 0.455283 -0.5279934 0.7168964 130 130 130
-0.0311768795677843 -0.0250079226752755 0.00256110777128155 -0.1631237 -0.6097254 0.7756453 237 237 237
-0.0357592846581163 -0.0340811801215646 -0.00701628576051777 -0.2029875 -0.5831861 0.7865685 98 98 98
-0.0102349068352403 -0.00942738774027796 0.0155753647254747 -0.2081802 -0.5238692 0.8259674 131 131 131
0.0529804681113539 0.0133704352119925 -0.0088722253872115 0.8678753 0.4967652 0.004097521 56 56 56
-0.0013448740669908 0.0467080282906058 0.0280626272128862 -0.1996373 0.7236547 0.6606579 79 79 79
-0.0381880547234239 0.0443251538017753 0.0135132228301805 -0.3646097 0.7565879 0.5428025 150 150 150
0.0498873446753798 -0.0363266062995431 -0.0206262911392409 0.393013 -0.7703776 -0.5020549 59 59 59
0.0632682297995864 -0.0087171387931344 -0.0190453375412185 0.9395825 0.3279163 0.09826324 78 78 78
-0.0494151856133165 -0.0407716822883126 -0.0152647639347274 -0.2801186 -0.713892 0.6417879 85 85 85
0.0467483256629286 0.00942949530873327 0.0368380998538774 0.2189248 -0.5480721 0.8072725 91 91 91
0.0261958096793471 -0.0444376063605783 -0.0272250617576796 0.4455578 -0.7707356 -0.4554612 45 45 45
0.0527742360404311 -0.0310339522620675 -0.0237881983352858 0.413319 -0.7340497 -0.5388306 87 87 87
-0.0534935738274278 -0.0248703551551339 -0.00165478835832661 -0.05702535 -0.6582659 0.7506225 79 79 79
-0.0532032992073717 -0.0225944113990304 2.54367755692653E-05 -0.05700983 -0.6611758 0.7480618 91 91 91
-0.0270068194100084 0.0404758858421805 0.0254277144836229 -0.198975 0.8241865 0.5302128 33 33 33
0.0444800113013564 -0.0423296284934518 -0.00605396877061909 0.2399586 -0.8255166 0.5108251 73 73 73
0.0169392083457289 0.0370940375069144 0.0401283358501237 -0.1667546 0.5387416 0.8258029 114 114 114
-0.0602298523613634 -0.0218917918464181 -0.000371708972569162 -0.1042132 -0.6353527 0.7651578 84 84 84
-0.0216223742195787 -0.01827164414134 0.0087245558666032 -0.1078959 -0.5405791 0.8343457 156 156 156
-0.023019983930272 -0.0340811801215646 -0.0046334112716872 -0.05344107 -0.6920298 0.719888 115 115 115
0.0444341157248793 0.00702373263630895 0.0354633485244554 -0.02612694 -0.5484924 0.8357472 65 65 65
0.0612519238761244 -0.0138265681525704 0.00366090287435467 0.9563676 0.2600547 0.1331639 74 74 74
0.0166643117240248 0.0427213120201591 0.0364715014861863 -0.2123507 0.5900202 0.778963 80 80 80
0.0381103013327895 -0.0191881251594064 0.0171792363094133 -0.1372273 -0.670203 0.7293809 240 240 240
-0.0144507433602037 0.00972739932332067 0.0274898265765947 -0.06540298 -0.6262943 0.7768385 94 94 94
0.0504601453116713 0.0150201725700858 0.0157815669940751 0.9194379 0.3827651 0.09013779 68 68 68
0.0122192357352553 0.00523654696736364 0.0299643730090898 -0.1136741 -0.564406 0.8176332 108 108 108
0.0103176091483412 -0.00397427799906702 0.0232739304469865 -0.1678392 -0.5570641 0.8133324 139 139 139
0.0544697497657118 0.00186828849110632 0.0225178455280107 0.9432646 0.3184841 0.09391348 76 76 76
-0.0295844818779649 -0.0548742604514596 -0.0255180741382796 -0.04978262 -0.7055233 0.7069361 81 81 81
-0.0432288195320787 -0.0368612599631783 -0.0109419668747145 -0.1436629 -0.5750797 0.8053846 129 129 129
-0.0414645220467271 -0.0491346907874581 -0.031830474240895 -0.6120005 -0.5300363 -0.5869556 33 33 33
-0.0420373226830186 -0.0399009776374337 -0.0124236489368636 -0.1653374 -0.592634 0.78832 73 73 73
0.0267687295249281 0.0257660555580619 0.0449949358867448 -0.1006872 -0.4058374 0.9083821 105 105 105
-0.0523020769783678 -0.0343561959525582 -0.0223218048645217 -0.6425995 -0.443615 -0.6247173 55 55 55
-0.0689060236641588 0.00117341754231481 0.0163085614608567 0.01494063 -0.5121226 0.8587824 64 64 64
0.0131358359626113 0.0309747862556937 0.0441242312358659 -0.1808873 0.1544164 0.971306 87 87 87
-0.00315494791952986 0.0494002508858207 0.0243966435359758 -0.2083132 0.7834162 0.5855465 65 65 65
0.0249280188849745 -0.0202574324866769 0.013238296406154 -0.05796443 -0.6613157 0.7478647 99 99 99
0.0359336589148818 0.0495491432884696 0.0367922638820451 -0.002492359 0.7741827 0.6329573 105 105 105
2.98474601088117E-05 0.0213668751457694 0.0380753730701249 -0.16141 -0.5044023 0.8482482 109 109 109
0.0342953656485854 0.0135536598900321 0.0386710916923326 -0.1029162 -0.5292593 0.8421953 35 35 35
-0.0396544481941881 0.0453333067635062 0.0117719029353898 -0.3495792 0.7598299 0.5481358 83 83 83
-0.0198123003670396 0.0521153616646293 0.0124134277271074 -0.2672948 0.8054495 0.5289655 72 72 72
0.0427462313941298 0.00137190100941686 0.0318890069888871 -0.02511756 -0.5118383 0.8587146 79 79 79
-0.0192623879143419 -0.0512884450217721 -0.0206492091251571 -0.117309 -0.6762935 0.7272315 76 76 76
-0.0425414587685289 -0.00713618519511194 0.0125050996707719 -0.07426946 -0.5344808 0.8419111 53 53 53
-0.00326950804678816 -0.0114436936637399 0.0159877692626756 -0.1422629 -0.5234845 0.8400746 192 192 192
-0.00171144263235945 -0.0233124089499948 0.00860996593702251 -0.09595659 -0.5950626 0.7979304 224 224 224
