ply
format ascii 1.0
comment File exported by Rhinoceros Version 7.0
element vertex 472
property float x
property float y
property float z
property float nx
property float ny
property float nz
property uchar red
property uchar green
property uchar blue
end_header
-0.0612924150297819 0.0198323070533276 -0.0246160756903449 -0.5509271 0.07606896 -0.8310793 74 74 74
0.025115660015172 0.0376671625492068 -0.00599189964250966 -0.1019493 0.9712025 0.2153417 102 102 102
-0.0261658355595092 0.00610413513928557 -0.0237062744056703 0.007638748 -0.02733723 -0.9995971 114 114 114
0.00823168205573722 -0.00794918981788748 -0.0220780466427459 0.02708539 -0.04071559 -0.9988036 85 85 85
-0.0309461511418924 -0.0090323849683743 -0.0235114149521534 0.02909173 0.003914357 -0.9995691 111 111 111
-0.0377834398049174 0.0312641113031686 -0.0244660818340559 0.02960224 0.04317535 -0.9986289 113 113 113
-0.015132321341396 -0.0160135000067679 -0.0227442405244923 0.03043506 -0.003539863 -0.9995305 188 188 188
0.0628651429744577 0.00981423316176713 -0.0109716016726705 0.888105 -0.3676514 0.2758658 38 38 38
0.0545298560150714 -0.0122640737008669 -0.0010599267837477 0.4711125 -0.8781956 -0.0826157 92 92 92
-0.0250877628800729 -0.0235272232384634 -0.0228759946574123 0.01910427 -0.00877407 -0.999779 105 105 105
-0.0133957535238979 0.0277182413267131 -0.0235526881457636 0.02847693 -0.03866836 -0.9988462 87 87 87
-0.0428346878434181 0.0334159855865671 -0.0102517962323028 -0.06980909 0.9739015 0.2159688 40 40 40
-0.0304032414007657 0.0315459393518297 -0.000820741187939851 -0.03571224 0.9812669 0.1893143 61 61 61
-0.0587947829586531 -0.0215551664472574 -0.00197559240866425 -0.9570695 -0.2319599 0.1738178 26 26 26
-0.000310983653985513 0.00569239787682765 -0.0228650321861912 0.02285323 -0.04319881 -0.9988051 136 136 136
0.0339957196564292 -0.0247678997645376 0.0074055972182509 0.2304138 -0.920808 -0.3146777 58 58 58
-0.058366195897403 -0.0201593882169596 -0.0103602275056925 -0.9851622 -0.1707166 -0.01764158 20 20 20
-0.0303724170731486 0.0353192201559908 -0.0169847054430148 -0.06808694 0.9629413 0.2609756 125 125 125
-0.00531568077891575 -0.0380742724689441 0.0185805458660815 0.1017829 -0.9946477 0.01777817 83 83 83
-0.0203188940444007 0.0304102788314044 0.00413253573686777 -0.07963941 0.9597343 0.2693837 85 85 85
0.066870583913648 0.0388774593180884 -0.0172572551648664 0.9625399 0.262881 0.06641199 46 46 46
-0.0423621580325849 0.0112549262590557 -0.0243288139411081 0.03751397 -0.03047634 -0.9988313 237 237 237
0.0307811775573029 0.0358530295701073 -0.0227741143883573 0.01319691 0.08992217 -0.9958614 108 108 108
-0.0559875157370974 0.0211691995828524 0.00227638468338175 -0.9324737 -0.016596 0.3608564 16 16 16
0.0593419184452225 0.0241071813209292 -0.0216881093146617 0.01352999 -0.02680519 -0.9995491 82 82 82
0.0199003437781881 -0.02522490070657 -0.021163539024806 0.2539826 -0.5576845 -0.790241 191 191 191
-0.0123041753636065 -0.038141758088838 -0.00573777742139598 0.1981752 -0.9424722 -0.2692077 30 30 30
0.060043776236682 0.0397990195487223 -0.00691857950508477 0.3491527 0.8713929 0.3446257 45 45 45
0.00484501607228894 -0.0325713846792953 -0.00534276034654666 0.3681908 -0.9256527 -0.08719342 40 40 40
0.00779360059210766 0.00306367694711587 -0.0224613612586033 0.01902655 -0.01218478 -0.9997447 229 229 229
0.00696926816203603 0.0178790474070562 -0.0228243588824379 0.03467612 -0.009393685 -0.9993545 234 234 234
0.0395736779933277 -0.0208447143790203 -0.00306109799436614 0.003597342 -0.9027674 -0.430114 65 65 65
0.0208266145779025 0.0219225885824005 -0.0226606616226353 0.01231904 -0.03723914 -0.9992304 112 112 112
-0.0463690897024466 -0.040346707774452 0.00860202697594627 -0.7905979 -0.5944842 0.1467773 51 51 51
0.0251091713166353 -0.0182906553040479 -0.0215682015675064 0.2371079 -0.2128309 -0.9478834 121 121 121
0.0335876828728102 0.0394846889575819 -0.0133475067539529 -0.1360425 0.9658198 0.2206458 68 68 68
-0.0136538084090513 -0.0399725416944109 -0.000542856407141253 0.2829376 -0.9226108 -0.2621749 33 33 33
0.00354617513905587 -0.0366567154820275 0.0092847404842164 0.4657729 -0.854224 -0.2309914 97 97 97
0.00926648785011797 -0.034874293208002 0.0145103775806795 0.3579187 -0.8981924 -0.2552344 48 48 48
0.0203197511454772 0.0367322576154422 -0.0230081665126617 0.00410611 0.1861243 -0.9825176 100 100 100
0.0273093913863242 -0.0309053710800383 0.0256728004948954 0.3036364 -0.9395065 -0.1585318 48 48 48
0.0367916728454768 0.0139422699705275 -0.0220791288322893 0.04766998 -0.01978498 -0.9986672 139 139 139
0.0377578099825772 0.0307852071013421 -0.0223455588225638 0.01473761 -0.02936939 -0.99946 88 88 88
0.0465771132339327 -0.0144362110560377 -0.0126703891103929 0.3532336 -0.8698466 -0.344373 52 52 52
-0.0264933799167858 -0.0405042273568287 0.0105475716696325 0.3034029 -0.9528582 0.002835964 43 43 43
-0.0607390836845901 -0.0155330363433697 -0.00961704016612273 -0.9711699 -0.1943896 -0.1379914 40 40 40
-0.0200290381909952 0.0292419281075091 0.00986711126085543 -0.08556949 0.9822176 0.167112 91 91 91
-0.0129038065405463 -0.0159772281647684 -0.0225903701320835 0.01192593 -0.002785728 -0.999925 207 207 207
-0.0301489171570973 0.0316891449023306 -0.0241988396098204 0.00950432 0.1128288 -0.993569 124 124 124
0.0125252554211045 0.0121969376396231 -0.0227194261779563 0.037937 -0.0344209 -0.9986871 94 94 94
0.0464094153196101 -0.0197625309302075 0.0197673133803384 0.5772729 -0.7698401 0.2722173 30 30 30
-0.0474413704019144 0.0193614060460158 -0.0244271857229713 0.02639497 -0.04915731 -0.9984422 79 79 79
0.0312832284816765 -0.0203964478312629 -0.00738425536740584 0.4873111 -0.8348287 -0.2561035 54 54 54
0.0380992508640735 0.0379467359066713 -0.0226512277243391 -0.04239577 0.1679257 -0.9848876 98 98 98
-0.0574818469927417 0.0330957318163935 -0.012274627225882 -0.3240566 0.8948494 0.3069721 175 175 175
0.0167896319473454 0.0125955100436938 -0.0224427048136466 0.04208903 -0.02456942 -0.9988117 92 92 92
-0.00795840683005255 0.0101734240938488 -0.0230278741205292 0.02804423 -0.02267693 -0.9993494 234 234 234
-0.0101874245948424 -0.0362797086868919 -0.00885753046122385 0.1721858 -0.9486583 -0.2653289 56 56 56
-0.0570669651246688 0.0230275087290691 -0.0248099226284654 -0.1545616 0.03794863 -0.9872541 79 79 79
0.0047513683562156 -0.0376824423842353 0.01825245108246 0.238921 -0.9698846 0.04733448 50 50 50
0.0427959155356962 0.0371378967807758 0.00214340445803878 -0.184296 0.9761531 0.1147176 71 71 71
-0.0521976379778056 -0.0126011328920797 0.0102637336149394 -0.9312987 0.1388375 0.3367595 5 5 5
0.0651289370908247 0.0373260034055404 -0.0217417150706772 0.5264813 0.03000649 -0.8496571 94 94 94
0.0565418531412846 -0.0103507434773987 -0.00704234356686379 0.4995732 -0.8525775 -0.1534218 59 59 59
-0.0159615854394975 -0.0358967910941475 -0.0188426385667244 0.1001069 -0.9744941 -0.2008479 79 79 79
-0.038646065411298 0.0309599950385421 -0.0248808399746192 0.01975723 -0.02500703 -0.999492 77 77 77
0.0546431655346035 -0.0141130393361793 0.0076235890792429 0.399637 -0.8982141 -0.1830348 23 23 23
-0.0105865560254362 -0.00802780882882778 -0.0226081630352613 0.006736746 -0.03073318 -0.9995049 81 81 81
0.0583645964722984 0.0246601814424125 0.0225999645150187 0.9993954 -0.03045997 0.01676293 92 92 92
0.0601031266437923 -0.0058558757716943 0.0148831741857935 0.9664851 -0.01524685 0.2562694 29 29 29
0.033781234026452 -0.0237422228949243 0.00541598861405731 0.2391525 -0.9265909 -0.2902334 41 41 41
0.0522755263189502 0.0379321295462848 0.00305263928058099 -0.003739574 0.990469 0.137685 44 44 44
-0.05216103862845 -0.0315788832893485 0.0135780466297728 -0.8886147 -0.4261114 0.1696852 22 22 22
-0.0337638990733405 0.0049185615560722 -0.0238045639282174 0.03451608 -0.0187636 -0.999228 131 131 131
-0.0587735496355107 0.0356937528140086 -0.0225862919593041 -0.5009542 0.7985532 -0.3337032 26 26 26
-0.032359434294177 -0.0445306219016791 -0.00462893907977577 0.3843424 -0.8915095 -0.2397743 88 88 88
0.0431844326104854 0.0434747668069368 -0.020794623826917 -0.1971675 0.9624166 -0.1867599 30 30 30
-0.00436336791947844 0.0173814656897392 -0.0234229887045693 0.02606769 -0.03921045 -0.9988909 138 138 138
-0.0247021600071074 -0.0296643620908222 -0.0226136656605388 0.009141697 -0.02858263 -0.9995496 90 90 90
0.0407910214513426 0.0413823871349454 -0.0173384409669361 -0.12924 0.9874903 0.09033236 100 100 100
-0.0206027977025499 -0.0402094427851934 0.0167120190060381 0.2440826 -0.9321988 -0.2672624 52 52 52
0.0318676952084364 0.0382308800753152 -0.0106295367784487 -0.1275709 0.9665888 0.2223327 80 80 80
0.0495543180496713 -0.0154334524282887 0.00296497813598464 0.5029699 -0.8594982 -0.09101728 55 55 55
0.051011427793661 -0.013807846753017 -0.0049284065082943 0.4668775 -0.8733942 -0.1385928 80 80 80
-0.035290735189616 -0.0446215751714237 0.00390678039011024 0.02780383 -0.9895754 0.1413061 38 38 38
-0.014872585415913 -0.0363534306652823 -0.014515528722329 0.1508236 -0.9763874 -0.1546605 36 36 36
-0.0517663565358898 0.0106887709748708 0.0107570631798408 -0.9856853 -0.1627717 0.04392863 10 10 10
0.0319885211000696 -0.028653143478016 0.0193356451364365 0.2093569 -0.9686428 -0.1337937 54 54 54
-0.0122901467435329 0.0341722073580825 -0.0237558771866668 0.009567948 0.246014 -0.969219 54 54 54
-0.0124153439960976 0.0219466789878101 -0.0234627417573281 0.01339013 -0.01891471 -0.9997314 68 68 68
0.0616179858659051 0.016048587179523 0.00311172213025073 0.908955 -0.3274353 0.2580443 73 73 73
0.0649976502516753 0.0103293053352963 -0.0151281552725035 0.9371157 -0.2894024 0.195091 38 38 38
-0.054444369187629 -0.0254670353215985 0.0121430093032537 -0.9687961 -0.1409965 0.2038481 20 20 20
0.0145581453539913 -0.0346430628118487 0.0205533574347866 0.2421953 -0.9616101 -0.1290246 58 58 58
-0.00373046383392183 -0.0327579889442689 -0.0219061228468102 0.229214 -0.7021353 -0.6741416 198 198 198
0.0516824342514918 0.0424937039955998 -0.0157578067491126 -0.1058377 0.9301581 0.351574 66 66 66
-0.0119475387175746 0.0313093895295872 -0.0238613049406081 0.02284526 -0.02149256 -0.999508 96 96 96
-0.0613465972412336 0.00761458519783168 -0.0115191991426032 -0.9967347 0.08035856 0.007897955 33 33 33
0.0647245987101172 0.0250432687674088 -0.00980285540562754 0.9686524 0.07453895 0.2369736 64 64 64
-0.00670781254761976 0.00125915755777509 -0.0229255309071917 0.04489829 -0.01717904 -0.9988438 226 226 226
0.0617689317986822 0.0229758564546919 0.00537419283408216 0.9513006 0.06938293 0.3003553 57 57 57
0.0629893405279832 0.0113865766651113 -0.00528229157015037 0.8263898 -0.4251424 0.369234 51 51 51
-0.0212830972064143 -0.0172525665647575 -0.0228093190883734 0.01427209 -0.01620487 -0.9997668 54 54 54
0.0123687866622998 -0.0351563001933518 0.0226059764139204 0.2094075 -0.9769807 -0.0407101 53 53 53
0.0447418634792746 -0.0100605485685562 -0.0211622438707816 0.0814357 -0.385103 -0.9192736 123 123 123
0.0067799797067899 -0.0297455823563671 -0.0216643018945877 0.2101468 -0.6823672 -0.7001523 213 213 213
-0.042477479436627 -0.0446442569062538 0.0065706126136297 -0.3231642 -0.9377478 0.1272554 32 32 32
0.0469752296156495 0.0383688194390369 -0.00435415389414915 -0.1744539 0.9668977 0.1862115 33 33 33
-0.0280791361371769 0.0257786286139205 -0.0238713492592928 0.02033972 -0.05729168 -0.9981503 107 107 107
0.0203993928055116 -0.0259611344286853 -0.00935131218690406 0.4245016 -0.9054261 -0.00141494 71 71 71
-0.052118835579764 0.0320984055698078 -0.00932648806997825 -0.01406929 0.9837687 0.1788888 65 65 65
-0.0176832561552603 0.0323958937671772 -0.0241120285120101 0.02026337 0.01261608 -0.9997151 115 115 115
0.0255805162766559 -0.0256744860876233 0.00448490645479113 0.2478553 -0.9208134 -0.3011155 42 42 42
-0.00594338057099841 -0.0328606518863733 -0.0220565907815654 0.2134585 -0.5481048 -0.8087129 162 162 162
-0.0520493934276768 -0.00732246587682192 0.0096769026932309 -0.9797416 0.1436912 0.1394966 16 16 16
0.00493298226325146 0.0383830123123766 -0.023007565555895 -0.1271637 0.7274094 -0.6743182 73 73 73
-0.0133843270873964 -0.0365924420499429 -0.0123731278156725 0.2110094 -0.960901 -0.1792885 46 46 46
-0.0175988748586885 -0.0372415570980299 -0.0130894337671258 0.2028592 -0.9582293 -0.2016053 31 31 31
0.00435826054967737 0.0337404871439663 0.00584915285051473 -0.1532279 0.9653627 0.211178 135 135 135
-0.0152983330894084 -0.00166945673282312 -0.0236873941689905 0.02875944 -0.02461743 -0.9992832 163 163 163
0.00523565738480081 -0.0358710969314132 0.011906441139092 0.4310205 -0.8653346 -0.2557682 67 67 67
0.0311323945688066 -0.0273702986173177 0.0127968302281027 0.2220534 -0.9156817 -0.3349917 56 56 56
-0.0423361810314659 -0.0429456608083672 0.0148003180853183 -0.6823812 -0.7286399 -0.05864954 24 24 24
0.0558490289992123 0.041308803029655 -0.00742762638162953 -0.03690241 0.9526102 0.301947 72 72 72
-0.0117060834085193 -0.0388556047723466 -0.00214766221452093 0.1557953 -0.9317597 -0.3279508 41 41 41
0.0140910863942821 -0.0344601179893621 0.021192316790697 0.2489351 -0.9602521 -0.1262821 68 68 68
0.0224564098692192 0.0260537621757061 -0.0226404274239581 0.02005489 -0.02570385 -0.9994684 224 224 224
0.025499962679656 0.0319107391879244 0.0190882165120142 -0.1144828 0.9683722 0.2216957 15 15 15
-0.00347041633812572 -0.0387512298747058 0.0244704824202548 0.1599386 -0.9822813 0.09768853 98 98 98
0.0107546732086631 -0.0291894653088037 -0.0196264412691191 0.327648 -0.8718795 -0.3639685 148 148 148
-0.0108825654354162 -0.0225017397398933 -0.022277574752544 -0.003806731 -0.03554214 -0.9993609 81 81 81
-0.028256874927376 -0.0424202629129259 0.0157113552707316 0.243586 -0.9086361 -0.3391849 32 32 32
-0.0047863883835858 -0.039073118939522 0.00593757734239669 0.2227846 -0.9748665 0.001539451 51 51 51
0.0485537578232079 -0.016898652167682 0.0205377473544489 0.5569183 -0.7739892 0.3013018 34 34 34
-0.044890807415264 -0.0413952023946883 0.0228297069792868 -0.8410174 -0.5394019 0.04165662 32 32 32
0.0496003333475247 0.0411261517982039 -0.0111500130566446 -0.1060265 0.9672635 0.2305639 38 38 38
0.0609888487625155 0.00544657488013103 -0.00283848621304184 0.9977585 0.06122683 0.02700488 53 53 53
0.0163173258598449 0.00242485458159517 -0.0222139337891503 0.01657575 -0.02331661 -0.9995907 115 115 115
-0.0190646796162656 -0.0237468165590858 -0.0231384817895601 0.02987783 -0.02863448 -0.9991433 152 152 152
0.0182289241331431 -0.0322744568295167 0.0159134240599999 0.3860371 -0.8717958 -0.3015749 25 25 25
-0.0466286852462633 0.0316624703586376 -0.000123575261395288 -0.04420055 0.9942191 0.09785012 107 107 107
-0.0415290080085974 -0.0453109402533519 0.0080636390766442 -0.2338569 -0.9655837 0.1138379 27 27 27
-0.0517931545966953 0.00502149003543542 0.0184462778520236 -0.9859276 -0.08039819 -0.1465703 9 9 9
-0.00982706717832148 -0.0172170555123393 -0.0225774761635696 0.02638948 -0.008261165 -0.9996176 159 159 159
0.0666287483443427 0.0351114431044671 -0.0218417812609816 0.6112532 -0.02910115 -0.7908999 101 101 101
0.013867191403581 0.000357989189138015 -0.0220837736001166 0.042262 -0.01738518 -0.9989553 45 45 45
0.0183362733391445 0.0317790208387893 0.00927850153166029 -0.08333647 0.9597189 0.2683182 30 30 30
-0.0172661767152559 0.0340524361829758 -0.00592629732091924 -0.1180935 0.969161 0.2162888 111 111 111
0.0201764912995773 0.00773798772429682 -0.0222626620439643 0.002915458 0.002242449 -0.9999933 98 98 98
-0.0364404615463253 0.030732860776831 0.00241154182194275 -0.0140327 0.9893374 0.1449638 103 103 103
0.0410767680750089 0.0019028919882377 -0.0215377686164189 0.007936886 -0.02436298 -0.9996717 119 119 119
-0.0471245702657107 -0.0389533619023333 -0.0076664223532349 -0.6360565 -0.739303 -0.2210502 22 22 22
-0.0149688096149733 -0.0257117994996624 -0.0222639320824925 0.02920388 -0.0174178 -0.9994217 60 60 60
0.0146245898377485 0.0329609890673294 0.0126004766399427 0.04986269 0.9637579 0.2620771 146 146 146
-0.00914413034652594 0.0231640104366408 -0.0236163305626556 0.00942277 -0.008934931 -0.9999157 121 121 121
-0.0602397477154971 0.0223732220504204 -0.0249911748863236 -0.4339854 0.09178678 -0.896232 109 109 109
0.0144176150127927 -0.0187242032457465 -0.0219776386694807 0.0262081 -0.03000265 -0.9992062 114 114 114
0.0616154390093146 -0.0083033833490492 -0.00178615847685871 0.892934 -0.4230987 -0.1538066 58 58 58
0.0296551211776214 0.0355999804398119 0.00492877975398797 -0.0999966 0.98621 0.1318729 122 122 122
0.0350732771851009 -0.0165111573465032 -0.014750663459579 0.4029768 -0.9026501 -0.1511048 16 16 16
-0.0102340504259176 0.0365614047330506 -0.0166840810921629 -0.05331179 0.9648264 0.2574255 62 62 62
0.012815272857294 -0.0290419676626335 -0.0141774435034945 0.3355903 -0.938993 -0.07530778 74 74 74
-0.0371527907159573 0.0185257344898854 -0.0239401674587231 0.03015735 -0.009275 -0.9995021 97 97 97
0.043956854223883 -0.0204258855155578 0.00563391265803023 0.6997247 -0.7070088 -0.1025854 56 56 56
0.0359750537064102 0.0358226469290127 0.00629213796409952 -0.1061698 0.987635 0.1153476 53 53 53
0.0309163296371892 0.0324554352050511 0.0159436932683468 -0.1091969 0.9699887 0.217251 26 26 26
-0.0112220453547293 0.00848013702099495 -0.0231443804161918 0.03762812 -0.01359613 -0.9991993 111 111 111
-0.0174287104143599 0.0325654694355516 -0.00416146924726827 -0.1350653 0.9722186 0.1911761 79 79 79
0.00751848557593305 -0.00576812697714843 -0.0227083010325061 0.0176369 -0.04899859 -0.9986431 83 83 83
0.0605726526527254 0.00660461715684116 -0.00489150552630902 0.9800592 -0.130822 0.1495644 39 39 39
-0.0225196093061853 -0.0432025797669878 -0.000366798225150462 0.2305319 -0.9537802 -0.1927649 30 30 30
0.0363525166017805 0.039498863955085 -0.00928573740933897 -0.09055546 0.9600359 0.2648222 93 93 93
-0.053631356126611 0.0191869302502751 0.0108122665857849 -0.983766 -0.09109734 0.1546146 15 15 15
-0.0608009667068828 0.0329874096625854 -0.0184015700370936 -0.823139 0.5674853 0.02006466 43 43 43
-0.0318208649391364 0.0276787646326945 -0.0242272453935744 0.03079253 -0.03143568 -0.9990314 80 80 80
0.0401661458089785 -0.0218152518316287 0.0234883579505406 0.6985034 -0.6745515 0.2389002 39 39 39
0.0156366806384934 -0.0291705424121696 0.00459570984843748 0.36212 -0.9114378 -0.1953209 82 82 82
0.0122936052367552 0.038802201864666 -0.0219796462436346 0.0166641 0.7170953 -0.6967759 11 11 11
0.0601674424742417 0.0396613709250059 -0.00214036835902085 0.3132281 0.9227494 0.2245477 90 90 90
-0.00965019972018665 -0.034086985013308 -0.0220013624988835 0.2138474 -0.6331288 -0.7439201 162 162 162
0.0271801591563797 -0.00278790961684358 -0.0219905917307059 0.04117157 -0.05873772 -0.9974241 240 240 240
-0.0454617033344963 0.00131766505336231 -0.0240626746374435 0.02877357 -0.009257963 -0.9995431 223 223 223
-0.00328850495754095 -0.0384541617141406 0.0173492661353366 0.05772192 -0.9967518 0.05616113 47 47 47
0.0498142921823798 0.00352068747313075 -0.0215004608607143 0.03154509 -0.02811709 -0.9991068 89 89 89
0.0599759516019441 -0.00647390010170942 -0.0189476978054751 0.6227911 -0.6651112 -0.4120176 85 85 85
-0.0537111837062943 -0.0182618873188288 0.0205467170620762 -0.9783718 0.1540707 -0.1380249 14 14 14
-0.0605644968345839 0.0333550550924932 -0.015749296303107 -0.6780996 0.7080767 0.1969983 95 95 95
0.0323836308112214 -0.0168820304006946 -0.020632627840582 0.353642 -0.6570812 -0.6657189 96 96 96
0.062844714356825 0.0331782190365907 -0.0217805732838846 0.119568 -0.01679911 -0.9926839 89 89 89
0.0546186129992919 0.0134219892869409 -0.0213784809181952 0.02305313 -0.01440931 -0.9996304 84 84 84
0.0594862199019063 0.0338037411570672 0.0103669272898087 0.8775323 0.3743571 0.2996562 75 75 75
-0.0201421269785625 0.029770890379271 0.00793127531003528 -0.09128596 0.9805524 0.1737349 97 97 97
-0.0392615817775991 0.0280896316953364 -0.0244367330015946 0.0253377 -0.04499601 -0.9986658 94 94 94
0.0498387712535494 -0.0149560770207767 -0.00302048921640977 0.4948346 -0.859767 -0.1262516 62 62 62
-0.0110647264031577 0.0355313917696853 -0.0106048301065588 -0.1168923 0.9683228 0.2206517 65 65 65
-0.0595239292366568 -0.017701073264759 -0.0139400657201668 -0.9927483 -0.1089602 -0.05077916 16 16 16
-0.0343333785598449 -0.0120720390429024 -0.0233642756928375 -0.008308119 -0.0145508 -0.9998596 158 158 158
-0.0523210448754531 8.38879899003961E-06 0.021568643301462 -0.9752432 -0.003049579 -0.2211138 11 11 11
-0.0442653637580567 0.0173273918104183 -0.0243483790575641 0.03583151 -0.02771566 -0.9989734 87 87 87
-0.0616385087990253 -0.00433560883283465 -0.00883539536154938 -0.9976516 0.03857419 0.05659692 45 45 45
0.0280580716003117 0.0179491054660629 -0.0226790245732799 0.02388529 -0.01163528 -0.999647 234 234 234
0.0340690933809374 -0.0281674149681178 0.0172165731364015 0.2488592 -0.9432468 -0.2198967 72 72 72
0.0597685538473277 0.0145756667027172 0.00935229597668843 0.9891461 -0.07363841 0.1271512 71 71 71
0.0232277047277761 -0.0252709391546496 0.00314103610922483 0.3257599 -0.9259554 -0.1910164 39 39 39
-0.0493865228281586 0.0017592361294955 0.0161778240478328 -0.9936181 -0.02603907 -0.1097499 10 10 10
-0.0433172873418289 -0.00857091855650557 -0.0236855757150196 0.04961115 -0.02563656 -0.9984396 125 125 125
-0.0589889534903064 -0.0113015999362823 -0.018141808334943 -0.9855217 -0.1636553 -0.04431577 33 33 33
-0.0585968205012984 0.00222754364172043 -0.0241829462288324 -0.3411039 -0.09602799 -0.9351079 107 107 107
-0.0520387127378886 -0.00323335328417026 0.0192770456464352 -0.9900247 0.05145322 -0.1311629 19 19 19
0.0138975007998724 -0.024429485948367 -0.0215440259108907 0.1499848 -0.2812099 -0.9478531 98 98 98
-0.0315838696303577 0.00182950311013111 -0.0238132312668444 0.04626976 -0.01036063 -0.9988753 93 93 93
0.0246508851690376 0.0374849115238151 -0.0140334353029053 -0.08906114 0.9610323 0.2616966 64 64 64
0.0540625531805269 -0.0150307255325362 0.0116074679426227 0.4190769 -0.884926 -0.2031762 60 60 60
-0.022627521930945 -0.0142631651047876 -0.0226559121066064 0.02521303 -0.04370215 -0.9987264 113 113 113
0.0566504941231291 0.0153829709123369 0.0231924433314284 0.9726204 -0.007491748 0.2322788 38 38 38
-0.00940340886037682 0.0169376362406516 -0.0232528023803754 0.01554152 -0.03365312 -0.9993127 92 92 92
0.00435453157194499 -0.00722407788152432 -0.0218395242247666 0.05631731 -0.03863055 -0.9976653 88 88 88
-0.00597678222424391 0.035113406251042 -0.00864576730704709 -0.06120486 0.9690921 0.2389864 74 74 74
0.0259231435264985 -0.0237369652997109 -0.00537708576302035 0.4125841 -0.9004251 -0.1378728 31 31 31
0.0394723300910652 -0.0261178153906803 0.0152735043838695 0.5248591 -0.8440563 -0.1099626 87 87 87
-0.0574371452303896 -0.0229458798229501 0.00234679169104609 -0.9483011 -0.1661383 0.2704127 30 30 30
0.00527097702039881 0.0334309770835538 -0.023244728493145 0.03903129 -0.02979277 -0.9987937 102 102 102
-0.0223764665976746 -0.0378432173667259 -0.0213126915366833 0.2744535 -0.7691273 -0.5771641 153 153 153
-0.0439190662123335 0.0301087695490176 -0.00462127409598063 -0.06989396 0.9901264 0.1215097 67 67 67
0.0494785016951297 -0.00413643159062324 -0.0211524528292578 0.05541797 -0.04855645 -0.9972818 97 97 97
-0.00536946549240713 -0.0258223718712923 -0.0220720277987294 0.03574524 -0.02321267 -0.9990913 73 73 73
-0.00680611908892936 -0.0385041235415993 0.020015532367197 0.1084931 -0.9916986 0.06901522 50 50 50
0.016469836530408 -0.027797273128009 -0.00926098060126147 0.3676502 -0.9275565 -0.06687498 36 36 36
0.00451680197410787 -0.0320123262743387 -0.0136504797319559 0.3594809 -0.9245767 -0.1262197 47 47 47
0.0394044793527614 0.0398076206493367 -0.0103087797023474 -0.09310333 0.9556866 0.2792758 57 57 57
-0.0470111215201133 -0.0405752404583398 -0.00333217872087411 -0.7035048 -0.6740959 -0.2251126 42 42 42
0.00397745993187615 -0.0330945962441348 -0.0020596732929818 0.3861023 -0.9114029 -0.1423721 57 57 57
0.0569634210800084 -0.0118993785214062 0.00549410877138206 0.383917 -0.8997638 -0.2074436 29 29 29
0.0060881018121034 -0.0319331247372293 -0.00777181737410188 0.3532023 -0.9300594 -0.1011807 57 57 57
-0.0186251430533096 0.00840503391371486 -0.0233815190180374 0.02821481 -0.01980833 -0.9994056 80 80 80
-0.00541357875395742 0.0327483456287788 -0.0233625061675082 0.05221918 0.02789093 -0.9982461 128 128 128
0.046636248435633 0.0224519892199228 -0.0217867763587621 -0.004532774 -0.01384777 -0.9998938 86 86 86
0.0339631652397469 -0.0159936709344789 -0.020970962162062 0.2394581 -0.5323125 -0.8119749 189 189 189
0.0179253849357527 -0.0223759326552236 -0.0216993628642158 0.1092812 -0.2771909 -0.9545799 156 156 156
-0.051223506195403 -0.00542340241794834 0.0142269585090085 -0.9924187 0.1179753 -0.0344515 18 18 18
-0.0428735411019104 0.00126843265085644 -0.0240139095740506 0.01454918 -0.01337318 -0.9998047 238 238 238
-0.0227370301175419 0.0309398815256293 0.00658126990821053 -0.0413192 0.9735481 0.2247151 143 143 143
-0.0103349523714783 -0.0393769485741039 0.0202337540448731 0.206968 -0.9776714 -0.03637025 73 73 73
0.0539778978186153 -0.00870391873733042 -0.017804510879596 0.3361848 -0.8632652 -0.376501 90 90 90
0.0525093154481949 -0.0158497754154477 0.014493433530356 0.4552823 -0.8840643 -0.1055857 41 41 41
0.031055587544926 -0.0209239754960083 -0.00593732204941131 0.4584095 -0.8435845 -0.2796888 31 31 31
0.0410452869484611 -0.0240222949537459 0.0156130614943968 0.6338938 -0.7726581 -0.034324 43 43 43
0.0140241338086727 -0.0345588792384156 0.0192455897058567 0.2828437 -0.9424403 -0.1783418 57 57 57
-0.0448799022352014 -0.0420393549244954 0.0152221865325899 -0.8441792 -0.5351501 0.03123875 39 39 39
0.0136239332986824 0.0395789761493734 -0.0223039471355012 -0.06428624 0.734044 -0.6760523 28 28 28
-0.0112665436321903 0.0289953189356006 -0.0238228942074971 0.02518109 -0.03202401 -0.9991698 123 123 123
-0.0175900928908249 -0.0151473410716695 -0.0227507498778141 0.02060519 -0.01342461 -0.9996976 217 217 217
-0.0385768755299692 0.0324772930565439 -0.00703452015070486 -0.05608582 0.9887116 0.1389381 138 138 138
0.0529509288101618 -0.011514212398409 -0.00988696301332809 0.4097433 -0.8901798 -0.1992246 26 26 26
-0.0389935402674671 0.0332916638307278 -0.00898426729858027 -0.05836755 0.9733886 0.2216032 74 74 74
-0.0166309078156547 0.0303153305543244 -0.0238288530113196 0.02444519 -0.02632096 -0.9993546 108 108 108
0.0264894729685531 0.0403699746686303 -0.0230313257271613 -0.07183497 0.6214039 -0.7801903 90 90 90
0.0177051660242796 0.0335124637770444 0.00797967215727498 -0.06588779 0.945791 0.3180222 66 66 66
0.060659210260484 0.0431967571863047 -0.02171621660583 0.2086651 0.6271429 -0.7504336 89 89 89
0.0615577659786376 -0.00525171881249484 -0.0129725878760815 0.9179509 -0.3894543 -0.07544234 71 71 71
-0.0512972184819483 -0.0181590024178507 -0.023592793596509 -0.05121829 -0.06396457 -0.9966369 68 68 68
0.013848920013643 0.0314883308438564 -0.0232347878276574 0.01508449 -0.03477411 -0.9992813 102 102 102
0.0298241861856253 -0.020628407494678 -0.00984103204736992 0.5030301 -0.8301393 -0.2404774 50 50 50
0.0191137449973035 0.00457140170924744 -0.022318051655596 0.01717727 -0.004685635 -0.9998415 112 112 112
-0.00731509086426684 0.0342794139159261 -0.00678144616740545 -0.04926191 0.9763072 0.2107072 60 60 60
0.0452780798319702 0.0401763029952706 -0.0130854041454288 -0.06105774 0.9562048 0.2862593 92 92 92
0.00679183320744959 0.0345847631259241 -0.00501502552523853 -0.1300853 0.9795538 0.1534671 82 82 82
-0.0133506292399449 -0.0387802586710618 0.0138081262901659 0.1600581 -0.9870805 -0.00732401 53 53 53
0.032692712305158 -0.0191276110062223 -0.00715720479778268 0.4616462 -0.8402404 -0.2843919 81 81 81
0.0577202925961214 0.0237729747551127 0.0184539768215792 0.9965433 0.03107505 0.07704392 75 75 75
0.00604677346329131 -0.0360747860353508 0.024589944152741 0.1542524 -0.9747068 0.1617185 45 45 45
0.0593355570977564 0.00308885290106034 0.0165567525125348 0.9862704 0.0163954 0.1643225 42 42 42
-0.0441631344449144 0.0328419129740087 -0.0105725745602037 -0.03502278 0.9746346 0.2210447 44 44 44
0.0431229694979761 -0.0192758537221727 -0.00505172689991724 0.352034 -0.8400561 -0.4127684 92 92 92
0.00349139033646451 -0.0354969579874867 0.00607512451120192 0.4762357 -0.8486664 -0.2301412 81 81 81
0.0654165056808683 0.0206900270354832 -0.0147248024278494 0.9832574 -0.02786481 0.1800794 26 26 26
0.0603532623226598 0.0148781276763072 0.0063718725933291 0.9557828 -0.1870582 0.2269109 49 49 49
-0.0414076132934541 0.0316475039923875 -0.0039427225828172 -0.07778063 0.9842485 0.1587609 93 93 93
0.0057170849753111 -0.0272275805473635 -0.0218424178429701 0.1882014 -0.3044633 -0.9337464 74 74 74
-0.046458588946534 -0.00382521302302416 -0.023892154758306 0.02602089 -0.005102216 -0.9996484 219 219 219
-0.0513613315309226 -0.00422654609974868 0.00852281704867158 -0.981526 0.1189006 0.1498977 21 21 21
-0.0203791855554573 -0.0391212426853412 -0.0117590502940483 0.3078766 -0.923587 -0.228471 57 57 57
-0.0591467413245946 -0.023655389833411 -0.00614285491592226 -0.9765552 -0.1933364 0.09466232 30 30 30
0.0476767980663225 0.00966003535495444 -0.0215751154698342 0.00673538 -0.004278982 -0.9999682 92 92 92
0.0459347854085453 -0.0163516995387821 -0.00651304685584193 0.4717566 -0.8344362 -0.2848893 22 22 22
-0.0265465589272219 0.0350327091238131 -0.0140049655934212 -0.08637439 0.9690256 0.2313629 109 109 109
-0.0538907162934764 0.0322550220474486 -0.0250572887407858 -0.1665 0.3818268 -0.9091128 126 126 126
0.0477374589731064 -0.0183948022601085 0.0120376105133531 0.5420439 -0.8208805 -0.1798435 70 70 70
0.0495124864311621 0.017809261151344 -0.022158611122993 0.0429616 -0.05185772 -0.99773 65 65 65
0.0431944542712369 -0.0197567779626985 0.00094779029742844 0.5566157 -0.816736 -0.1520567 37 37 37
-0.0348215726012072 -0.0265629892398685 -0.0232081553684664 0.03646765 -0.008068652 -0.9993023 98 98 98
-0.0058206002901423 -0.0390110020799169 0.0158996827435992 0.04041246 -0.9991202 0.01120676 35 35 35
0.0157092946387026 -0.0269152039563512 -0.0195712759266157 0.3187239 -0.7857186 -0.5301522 159 159 159
-0.0208437432315341 0.0162144877269132 -0.0236950286987588 0.03016129 0.001819692 -0.9995434 149 149 149
-0.0345292026489451 0.0362086191208721 -0.0223660769431912 -0.06140265 0.9155171 -0.3975653 122 122 122
-0.0126859901187756 -0.0372967538587932 -0.00733413219838631 0.2282256 -0.9407446 -0.2508241 40 40 40
0.0315235208720083 -0.0194494561683881 -0.00999348478537915 0.4903801 -0.8397152 -0.2332505 97 97 97
-0.0520363978201809 0.00644437653305188 0.0151326404602592 -0.9817001 -0.165476 -0.09424748 7 7 7
-0.036144017710681 -0.00618963492718869 -0.0233083641486234 0.01940069 -0.03433385 -0.9992221 90 90 90
0.0481783938179682 -0.0165104340910594 0.0211930087281152 0.5298879 -0.7772165 0.3393426 35 35 35
0.0562370772893665 -0.0107632794059308 -0.00544840501130298 0.4854743 -0.8634667 -0.1368934 52 52 52
-0.0335265283756486 0.0124073063940783 -0.0239482907476909 0.03514839 -0.02467945 -0.9990773 88 88 88
0.0602083831748407 0.0126349635820752 0.00440819067808181 0.9789018 -0.1390865 0.1496868 45 45 45
-0.0299562695474499 -0.00370843530690665 -0.0235206537107313 0.03097643 -0.03094128 -0.9990411 81 81 81
0.00189061966086491 0.00602594797800662 -0.0225968605306735 0.01975263 -0.03989701 -0.9990085 91 91 91
0.00624303690214368 -0.0368840685019745 0.0188827773206853 0.2470421 -0.9684879 0.03164453 59 59 59
-0.0225457185948284 0.0300317002437897 -0.024004760760675 0.04419631 -0.004409595 -0.9990131 124 124 124
0.00814686160510559 0.00721296134149477 -0.0224530055063875 0.03737315 -0.02873917 -0.998888 23 23 23
-0.0105877145999046 0.0280862946388822 -0.0236365272697783 0.01804691 -0.04255037 -0.9989313 76 76 76
-0.00322626183811436 -0.0362454524486238 -0.00800766854498192 0.2971951 -0.9101838 -0.2885142 37 37 37
-0.0150403932781747 0.0249122002798593 -0.023570630291572 0.02661871 -0.0350033 -0.9990326 72 72 72
-0.025397079828071 0.0319682752278364 0.00279588966634513 -0.08320393 0.9736223 0.2124543 145 145 145
-0.0510171264128528 0.0297890000495626 -0.00301087861005628 -0.1976789 0.974427 0.1068411 59 59 59
-0.0421615498883802 -0.046198605561429 0.00170857052707881 -0.2040753 -0.9755211 -0.08192579 74 74 74
-0.0591891598604967 0.019248254048211 -0.0253674512144275 -0.4193152 0.04667941 -0.9066399 57 57 57
-0.0349940251195026 -0.0460218766117116 -0.00597365510736179 0.1996507 -0.9556502 -0.2165 8 8 8
-0.0531218515850139 0.00837532949312073 0.0211451679040464 -0.9821717 -0.1368655 -0.1288666 12 12 12
0.0244109667756282 0.0325029419148423 -0.0227622379078002 0.02605113 -0.01986874 -0.9994631 102 102 102
-0.0095718805091044 -0.0160558005854124 -0.0224955353562583 0.0260332 -0.0087941 -0.9996224 215 215 215
-0.0498038880613069 0.0359336638855753 -0.0228567969857239 -0.008600508 0.9456789 -0.3249883 25 25 25
0.0446422527470159 -0.0192293446954415 0.00257089165036403 0.7006313 -0.7093225 -0.07731461 47 47 47
0.0212271910396115 -0.0335531100641669 0.0250327763569599 0.3250942 -0.9296547 -0.1733663 33 33 33
0.0171531707714611 -0.009746755682258 -0.0216384920575791 0.01217169 -0.03536962 -0.9993002 82 82 82
0.0645891455463922 0.0133939529154525 -0.0208299251882755 0.5321091 -0.1703601 -0.8293595 85 85 85
0.00347256854644285 -0.0108747714745388 -0.022261715789514 0.05267796 -0.02499988 -0.9982986 51 51 51
0.0578065113722431 -0.00137743644846763 0.0216892881191288 0.9715937 -0.004152065 0.2366189 59 59 59
0.0661916070310135 0.0131485352775708 -0.0123907935369715 0.9576629 -0.2219487 0.1833589 12 12 12
0.00933251488427723 0.0305935970801851 0.0162085152414701 -0.0540202 0.9662675 0.2518112 132 132 132
0.0236715007303469 -0.0297814464086839 0.0167019058911698 0.2890272 -0.9200185 -0.2646303 34 34 34
0.049649395858837 -0.0118113455151422 -0.0150240802972306 0.3693233 -0.8966527 -0.2441603 35 35 35
0.0132074074490919 -0.0338730513287265 0.022899821185923 0.1856763 -0.9805515 -0.06358466 33 33 33
-0.0435416661631324 0.034975106310882 -0.024099794686946 0.04003463 0.555146 -0.8307889 124 124 124
-0.00510730068310116 0.0311941706992593 -0.0236335828563757 0.02730964 -0.03411755 -0.9990447 73 73 73
0.0108565972077926 0.0384849536274058 -0.0232609598455162 0.07162248 0.599556 -0.7971216 83 83 83
-0.0319549246663605 0.0229001132983554 -0.0244040723410232 0.03492336 -0.042044 -0.9985052 123 123 123
0.0581605983458348 0.0147466876525208 -0.0215010346696844 0.05386271 -0.01637962 -0.998414 95 95 95
0.0602340179574875 -0.00852567678370439 -0.00395348237482188 0.6775199 -0.720071 -0.1498819 34 34 34
0.0248811176787079 -0.0239864370330543 -0.00350159825416466 0.3804191 -0.9190862 -0.1027714 49 49 49
-0.00415600752619382 0.0336073953347617 -0.00186629437854708 -0.05925339 0.9766298 0.2065995 33 33 33
0.0637752698748414 0.00577287954882003 -0.0209107045240549 0.6474773 -0.2580648 -0.7170604 97 97 97
0.0325202754048412 -0.0181469391653573 -0.0133259304744941 0.4824571 -0.8607425 -0.1623497 99 99 99
0.0101010328251375 -0.0311748449130756 0.00408404405135073 0.41942 -0.8953329 -0.1498861 97 97 97
0.0158027773630584 -0.000923992871261075 -0.0221329603314715 0.03664665 -0.01921664 -0.9991435 143 143 143
-0.0555724313886484 0.00975689404114424 -0.0242570824651238 0.02901924 -0.03543629 -0.9989505 92 92 92
-0.0178452690099115 0.0317996143193585 -0.0237624070330758 0.01826149 0.005122861 -0.9998201 130 130 130
0.0454467589977049 -0.00471998785594282 -0.0215074379027781 0.02334437 -0.0287538 -0.9993139 133 133 133
-0.026520673427841 -0.0381011753001624 -0.0224324857453681 0.2975487 -0.6334415 -0.7142945 166 166 166
0.0365061593607715 -0.0165502632981274 -0.0110368562018919 0.3394113 -0.9166444 -0.2110995 47 47 47
-0.0171879767572859 -0.0384665312714892 -0.00694172427674167 0.2490138 -0.9122998 -0.3251173 60 60 60
0.0614987794503038 0.0149055458017059 0.00198192408604902 0.8836958 -0.3752027 0.2798296 59 59 59
0.0296456745121213 -0.0291170989945427 0.0171755274038493 0.1990047 -0.9589415 -0.20206 77 77 77
-0.0258484621452263 0.0298598372368807 0.00784788721863421 -0.05678641 0.9722673 0.2268734 100 100 100
-0.0171204802490242 -0.0360442190877111 -0.0221663281552648 0.1084797 -0.6407127 -0.7600785 118 118 118
-0.0437901746985937 0.0139208148373819 -0.0243814258191153 0.02301238 -0.00791129 -0.9997039 114 114 114
-0.00164869106467502 0.000445832389269236 -0.0225277891910826 0.02601484 -0.009080643 -0.9996203 229 229 229
-0.00498598884724621 -0.029149082598824 -0.021982064101125 0.06108816 -0.1070851 -0.9923714 134 134 134
-0.0208753102155147 0.0307814268073278 0.00522573326827116 -0.0749879 0.9609561 0.266346 133 133 133
-0.0538995406266584 -0.0321478032287935 0.00365398230476831 -0.8470154 -0.4474701 0.2869414 34 34 34
0.0616122504678357 -0.00377736647796509 0.00220603858082063 0.9995872 0.008188249 0.02754015 43 43 43
0.0615756602030168 0.0335161644797572 0.00180275326748993 0.9814014 0.07778316 0.1755021 44 44 44
-0.0593519965439472 0.0234723159439513 -0.0179207930783078 -0.9958158 -0.08559832 0.031996 18 18 18
0.0581004028003643 0.0217952594332965 0.0169333971644803 0.9830303 0.06587312 0.1712079 68 68 68
-0.0310356079049402 0.0347689773966126 -0.0166431131237069 -0.06764436 0.9601025 0.2713438 141 141 141
-0.0417267382938168 0.031236627950002 0.00021219128941135 -0.02842457 0.9880372 0.1515736 102 102 102
0.0410365585673019 -0.0163607387476695 -0.00906927235489594 0.04987026 -0.9192387 -0.3905294 39 39 39
0.0169926165690592 -0.0274067591907968 -0.0115697964133246 0.3626606 -0.9295895 -0.06588417 40 40 40
-0.0267525840576809 -0.0431513952581493 -0.00471297056632337 0.2512819 -0.9294644 -0.2700987 32 32 32
0.0125258120977844 -0.031060238556272 0.00676956350488494 0.3923662 -0.8768602 -0.2777857 105 105 105
0.0267555245887797 -0.0254438889958049 0.00505399434655034 0.2211749 -0.9232742 -0.3140804 105 105 105
0.0359182823412835 0.0358726836631917 0.010830680969742 -0.1205469 0.9632083 0.2402047 90 90 90
0.023098316140831 -0.0253990320579874 0.000495268181226576 0.3676145 -0.9208437 -0.1300246 44 44 44
0.000750080856939512 -0.017770649760276 -0.022188664882677 0.0100318 0.00467445 -0.9999387 102 102 102
-0.0148213135095506 0.0349537629522482 -0.00977973869272503 -0.1036048 0.971495 0.213222 74 74 74
-0.0181140331257467 -0.0373451572241855 -0.0159835990885492 0.2380689 -0.9581794 -0.1587935 36 36 36
-0.0316305537616531 -0.034375572664954 -0.0229983468361386 0.03450875 -0.01612146 -0.9992744 128 128 128
-0.0613049336581456 0.00476525403740782 -0.01765111370901 -0.9977767 -0.02996295 0.05952969 22 22 22
-0.0082786735540975 -0.0253889547047424 -0.0226201063879731 0.02922182 -0.03573756 -0.9989339 132 132 132
0.0264055532191577 0.0232286557571299 -0.0226599753137811 0.01307082 -0.02651207 -0.999563 234 234 234
0.0241641200593069 -0.0235051766582897 -0.018547737427952 0.5721548 -0.7664849 -0.2917873 131 131 131
-0.0255968423587237 -0.0434229345790636 -0.000287060900706883 0.236182 -0.9588059 -0.1578268 39 39 39
0.0440187873752614 0.0351030674140088 0.010433098245487 -0.1374271 0.9552548 0.2619199 101 101 101
-0.0394742257035999 -0.036997430509894 -0.0228068653487527 0.04305252 -0.008490556 -0.9990367 88 88 88
0.0423084826673273 0.0363238034126489 0.00788250341544691 -0.1403656 0.985011 0.1002531 73 73 73
0.0244636355698377 0.030806236501819 0.0193660868197865 -0.1543267 0.9648765 0.2125948 16 16 16
-0.0305828739794135 0.036882421302156 -0.0225967430637069 -0.03990385 0.9554846 -0.2923299 111 111 111
-0.00711911162771261 -0.0344014951481607 -0.0215258586912027 0.2860747 -0.7616259 -0.5814527 161 161 161
0.0557994748772789 -0.00260248709193131 -0.0210892400502616 0.09366596 -0.1179084 -0.9885972 102 102 102
0.0586963443239538 0.0391027855142409 0.0010552068023504 0.3296961 0.9319082 0.1511536 119 119 119
0.0458180651272581 -0.0156437314777077 -0.00867331698066404 0.4272074 -0.8484153 -0.3125465 68 68 68
0.0435683619146633 0.0371330913622846 0.00597536956481614 -0.1964076 0.9744586 0.1088783 69 69 69
-0.0467810930459999 -0.0384110939482066 -0.01133717810143 -0.640486 -0.7670766 -0.03702829 10 10 10
0.0618357683222294 0.0144580280254697 -0.000187756157525483 0.8562853 -0.3714687 0.3588684 79 79 79
0.0408834497125513 -0.023569428496515 0.0190729152535975 0.6534721 -0.7458375 0.1292313 42 42 42
0.0649215008500096 0.0370429622204854 -0.0115022153371476 0.9235288 0.1271734 0.3618308 27 27 27
0.00144335936058194 -0.0368859939713496 0.0077825002183533 0.4351842 -0.8725542 -0.2219545 47 47 47
0.00967367824850841 0.0344367450679709 0.00825800864178421 -0.05997064 0.9599125 0.2738093 114 114 114
0.0621172913853042 -0.00154014345114825 -0.00108393903882312 0.9961489 0.0863033 -0.01546218 39 39 39
-0.0278378709876493 -0.0425972623957188 -0.00500911034933189 0.2572973 -0.9299416 -0.2626913 31 31 31
-0.0330708890661578 -0.0280001042283732 -0.0227324975087496 0.03207131 -0.01549537 -0.9993654 85 85 85
0.0550925032112001 -0.00548963044359749 -0.0210260833823281 0.1243463 -0.3788088 -0.9170834 123 123 123
0.0171067097109253 -0.0275579282812123 -0.00320755564423431 0.3938403 -0.91754 -0.05486512 64 64 64
-0.0326848691177654 -0.0440475822728722 0.016431981573339 0.3418201 -0.8725233 -0.3490876 42 42 42
0.0669955215081123 0.0353969265708511 -0.0191196375164148 0.9786193 -0.1128975 -0.1719258 71 71 71
0.0179664765707807 0.036133343912567 -0.00404765727677318 -0.1131604 0.9743172 0.194681 86 86 86
-0.0323462746554045 -0.0426261062373175 0.0111055188066108 0.3432807 -0.9358384 0.07978027 42 42 42
0.00246797537943977 0.0373762207937775 -0.0127605092169976 -0.05377644 0.9706969 0.2342126 54 54 54
0.0491256438427082 0.0363766698981746 0.0121159933974952 -0.102245 0.9673203 0.2320291 128 128 128
-0.00740666940957079 0.0305842280377166 0.0110960026808075 -0.09599082 0.9637119 0.2490886 105 105 105
0.0614681609322806 0.0396036333018267 -0.0218800375860676 0.1022232 0.2327431 -0.967151 105 105 105
-0.010811013330691 0.0304582839773476 0.00165272956749043 -0.06532817 0.9725243 0.2234475 61 61 61
-0.000481194852240179 -0.0185792826803413 -0.0222175353150514 0.009271662 0.0003435468 -0.999957 84 84 84
0.0525754832788238 0.0155107758347534 -0.0214151774291322 0.02466222 -0.02579566 -0.999363 111 111 111
-0.0389191937897316 -0.0455295517261179 -0.00516544003609604 -0.2361186 -0.9508924 -0.2001291 41 41 41
-0.0449911241600648 0.0262527805201157 -0.0245896021106002 0.02726181 -0.01277482 -0.9995467 141 141 141
0.0625602547461589 0.0218150911444027 0.00327014723339569 0.9645081 0.04305771 0.260519 68 68 68
0.06455443707732 0.0135921300333165 -0.00651503046422287 0.9218714 -0.2956978 0.2504314 41 41 41
-0.019890016482245 -0.0256869051613405 -0.0225342897038292 0.05250688 -0.00148611 -0.9986194 80 80 80
0.0673579333821929 0.0256894625097547 -0.0173241431409925 0.9890639 -0.08592518 -0.1198729 13 13 13
0.0370229763399942 0.0355671058165425 0.00928786079043119 -0.1152818 0.9782094 0.1726745 88 88 88
-0.0390234703826308 0.029338807915066 -0.0249955348868309 0.01208402 -0.04149127 -0.9990658 98 98 98
-0.0017125339630154 -0.0374514206369977 0.00305088115910806 0.4224536 -0.8805122 -0.2150143 15 15 15
0.0162933523760379 0.0351551149979636 0.00383893699599502 -0.03486942 0.9783804 0.2038526 69 69 69
0.0381201453571088 0.0379816513468531 -0.004572703193648 -0.01179198 0.9494142 0.3138051 49 49 49
0.0122943061083244 0.0093098840278826 -0.0226079461811176 0.0289498 -0.03904548 -0.998818 103 103 103
0.00659766561743703 -0.0306917672672654 -0.0120020176135585 0.3550947 -0.9289251 -0.1049087 22 22 22
-0.0534884515089139 0.011528361293682 0.0180437197224228 -0.9942093 -0.1031281 -0.03020711 10 10 10
0.0440049096761134 -0.0204541525085609 0.010983665025862 0.6784446 -0.7269033 -0.1064169 36 36 36
0.00386176658959781 0.0348358746487007 -0.000194225265625687 -0.1444154 0.9812835 0.1273848 144 144 144
-0.0408649988130255 -0.0335273087581572 -0.0230227931476776 0.04843837 -0.02534563 -0.9985045 94 94 94
0.00534808902444584 0.0273472141168226 0.0232400372765888 -0.1115758 0.9562389 0.2704773 25 25 25
-0.0193462927823432 -0.0365955395804015 -0.0210456837020608 0.175457 -0.7863621 -0.5923255 108 108 108
-0.0296638866733753 0.0312627760139229 0.00287565263049027 -0.04732955 0.9849495 0.1662359 130 130 130
0.0607232553893239 0.00682592029566434 -0.00177184391282393 0.9961117 0.05743333 0.06680527 40 40 40
-0.0538511683830313 -0.0357946332745366 -0.000648909229003382 -0.6619851 -0.731012 0.1655211 30 30 30
-0.0060993879004515 -0.0380266176233289 0.020593300843099 0.09350672 -0.9943098 0.05103477 40 40 40
0.0301935780600547 0.0213595387751179 -0.022378968825123 0.03020583 -0.03140697 -0.9990501 200 200 200
-0.0158496032133203 0.0265024748512722 0.0168011653644682 -0.02708476 0.9683014 0.2483122 79 79 79
0.063535188426192 0.00627877046945216 -0.0137350743253141 0.8916698 -0.3918605 0.2266501 39 39 39
0.0525432395681699 0.00976193575568921 -0.0214844586674238 0.0229123 -0.01789392 -0.9995773 90 90 90
-0.0293002153622951 -0.0444049310311732 -0.00194363762310307 0.2513975 -0.9402875 -0.2294748 18 18 18
0.051363522659385 0.0430758211152113 -0.017816389000886 -0.08230072 0.9937214 0.0757916 28 28 28
-0.035536967918074 0.0350906481386407 -0.0148749695940731 -0.04401488 0.9653323 0.2572863 136 136 136
-0.00386501878703426 0.0364873406566221 -0.0142853574902621 -0.08200396 0.9778543 0.1925521 92 92 92
-0.0423880586023578 0.0187662945169177 -0.0242674443381852 0.04962954 -0.03785632 -0.99805 92 92 92
-0.00606686976177284 -0.0168669594161065 -0.022464599817897 0.04684514 -0.01556738 -0.9987808 108 108 108
0.0232057173511532 0.0360138680888523 -0.02273722549092 0.01615948 0.126557 -0.9918277 95 95 95
0.0384066682757972 -0.0210302248480355 -0.00177151149182959 0.04992672 -0.916005 -0.3980479 50 50 50
0.0621752459302273 -0.0027903471272975 -0.00175494407304289 0.9994224 0.03173616 -0.0121528 49 49 49
-0.00339180531482685 0.0328088042179568 -0.00295150117581434 -0.06228017 0.9772635 0.2026753 64 64 64
0.0372914642663093 -0.0270432585908559 0.0153101636020709 0.3457194 -0.9138149 -0.2131209 59 59 59
-0.0499863144566149 -0.0365806159836711 -0.00722193251013343 -0.4594986 -0.8850313 -0.07470328 18 18 18
0.0613181423629566 0.00156006305990522 -0.00861500034619864 0.9992972 0.03747305 -0.0009333572 51 51 51
-0.00267044552143491 0.0305604975209323 0.0138832231438779 -0.1256873 0.9501272 0.2854137 134 134 134
0.0597844701279625 0.00962632543922806 0.0131120370539564 0.9865523 0.08709633 0.138307 44 44 44
0.0159386931798521 0.0300671184663867 0.0198148402804319 -0.01982803 0.9638186 0.2658206 35 35 35
-0.0497450629024815 -0.0361891684743239 -0.0158653204291734 -0.6237267 -0.7793403 -0.05994636 38 38 38
0.0100082677215451 -0.00637196818166016 -0.022131748575937 0.02033305 -0.04591868 -0.9987382 73 73 73
-0.00731697471764813 -0.0385883499426257 0.01381088530179 0.01191867 -0.999929 0.0002270995 34 34 34
0.0438811760348395 -0.0212342547794056 0.0137442852764387 0.6490927 -0.7588517 -0.05312884 42 42 42
0.0578110318996147 0.0281273764277227 0.0189865134164233 0.9995435 -0.02836089 -0.0104173 35 35 35
-0.0404778974729497 -0.0334242554189533 -0.0228638679482929 0.0523224 -0.02744926 -0.9982529 99 99 99
-0.0154494856965152 -0.0396374091918604 0.0167831887237155 0.1835673 -0.9758996 -0.1179955 31 31 31
0.0330685191196586 0.00603235967601848 -0.0218678969065329 0.05100697 -0.0260817 -0.9983577 237 237 237
-0.00718654914300909 0.0278305321781026 -0.0233622232089369 0.0145928 -0.02607093 -0.9995536 52 52 52
0.011341908853007 -0.033816175085097 0.0123238303293414 0.3616636 -0.8837863 -0.2968521 57 57 57
0.0105687047799942 -0.0311663917187182 -0.00193003519734315 0.371279 -0.9281191 -0.02732962 71 71 71
-0.0595786870801386 -0.0215456499015026 -0.0115343356085425 -0.9837919 -0.1793014 0.002117178 17 17 17
-0.0417430387453027 0.00207232404688132 -0.0237522783012255 0.009573426 -0.007208928 -0.9999282 245 245 245
-0.00064678316311128 0.0254417667436954 -0.0232977648669165 0.02677333 -0.003289122 -0.9996361 119 119 119
0.0562507075529323 0.00688336596411668 -0.0212241566666547 0.03418291 -0.01758118 -0.999261 109 109 109
0.00726804792346914 0.0279108022424403 -0.0231443397289847 0.03224133 -0.007861027 -0.9994492 93 93 93
0.00733970277861674 -0.0368310066106309 0.0206279445948942 0.2013245 -0.976002 0.08299653 40 40 40
