ply
format ascii 1.0
comment File exported by Rhinoceros Version 7.0
element vertex 469
property float x
property float y
property float z
property float nx
property float ny
property float nz
property uchar red
property uchar green
property uchar blue
end_header
0.0202082711977116 -0.00422246423662015 -0.0390696116300071 0.04018285 -0.1295807 -0.9907544 68 68 68
-0.04751319374722 0.00969828759178792 -0.00567755781748672 -0.5872692 0.5986047 -0.5447817 81 81 81
-0.013901677349792 0.0593970947982544 0.0075514612299418 -0.5457013 0.4590755 -0.7010419 137 137 137
-0.0144574979405441 -0.0515030109676782 0.000410151527275776 -0.7150381 -0.6986446 -0.02482446 28 28 28
0.00309196045311744 0.061998180469069 0.00302857130939002 -0.1914766 0.555554 -0.8091332 102 102 102
0.0360677857603857 -0.0557197301963075 -0.0224083648955871 0.404978 -0.04895346 -0.9130149 20 20 20
-0.0835893987222467 0.0056149523316914 0.0413101649646752 -0.7933505 0.5389003 -0.2831632 66 66 66
-0.0414393162756439 -0.00601576504629725 -0.026390082952948 -0.6353514 0.5377309 -0.5542329 168 168 168
0.0225749766299983 -0.068197308690743 0.00507500836081892 0.5124707 -0.7347168 0.4444829 35 35 35
-0.0125172819702564 -0.0545639676472957 0.00307367507634035 -0.7595543 -0.6439815 -0.09146053 89 89 89
-0.0112070546915191 0.0228346433154231 -0.0261328042899423 -0.08366712 0.7528298 -0.652876 170 170 170
0.0278039195069386 -0.0628080614029113 -0.0259036390361436 0.4824853 -0.1322558 -0.8658617 91 91 91
-0.0647308667619422 0.0149753327359005 0.0208996879830349 -0.6332747 0.5822237 -0.5098811 133 133 133
0.0360408250012445 0.0338180785230239 -0.0349091514101146 -0.4399683 0.6665082 -0.6018261 58 58 58
-0.0410539464153308 0.0275362965603489 0.00702331712076004 -0.5857553 0.5773508 -0.5688205 85 85 85
-0.0125132834636061 -0.0408306289709942 -0.0405656737042327 -0.1979761 0.003821646 -0.9801994 63 63 63
-0.00184328472774631 0.0336953878631254 -0.0168350250104132 -0.2636428 0.6596709 -0.7037945 67 67 67
0.000927714394200585 -0.0653914726179131 -0.0116388459719718 -0.7277876 -0.6184378 -0.2964118 101 101 101
0.0685451547814906 0.0273815259925692 -0.0292639424674513 0.8182348 0.310163 -0.4840359 127 127 127
-0.017940674987353 -0.046947821052078 -0.0078947241570477 -0.7334332 -0.6570789 -0.1741353 166 166 166
0.047913107019407 0.0363995051432912 -0.0439325011568549 -0.3944134 0.291877 -0.8713472 130 130 130
-0.028281926645465 0.0325586030978519 -0.00321566294012496 -0.6539583 0.5447078 -0.5250065 144 144 144
0.00846090124062293 -0.0797769697460286 0.00484941845493328 -0.2730555 -0.9426905 0.1917689 132 132 132
0.0404334081795374 0.030542705778682 -0.0429963856892482 -0.327836 0.4147023 -0.8488496 53 53 53
0.0391328555270185 -0.0299244266790455 -0.0246200294366397 0.3346471 -0.3573521 -0.871958 34 34 34
-0.0160979977684099 -0.0514035196679941 0.00969439970133593 -0.7189793 -0.6700353 -0.1847199 36 36 36
0.0330180580740884 0.0481739008932722 -0.0179764361102897 -0.1908051 0.5906675 -0.7840315 72 72 72
-0.0758764523999216 0.0175654185419072 0.0385172877869842 -0.7660357 0.3752849 -0.5218721 89 89 89
-0.0393248985810413 -0.0197491068806785 -0.0309263536605665 -0.7725328 -0.600774 -0.2055816 143 143 143
0.00335026432312402 -0.0673518082809418 -0.014588232265386 -0.7504109 -0.619707 -0.2298844 87 87 87
-0.0223101373840264 0.0284760375719806 -0.0119677516097285 -0.4764825 0.6129338 -0.6302989 183 183 183
-0.0545649828125034 0.0420433713114293 0.0374150473509536 -0.6348075 0.5133718 -0.5774677 79 79 79
-0.0592507138553744 0.0128052816204802 0.0113303018412048 -0.6495277 0.5856577 -0.4848906 59 59 59
-0.020968550784167 0.0604045578775755 0.0161520796231252 -0.6686875 0.511584 -0.5395727 183 183 183
-0.0670832100516567 -0.0214640102826905 0.0267777208582371 -0.2995572 -0.6176315 -0.7271842 88 88 88
0.0800212006205698 -0.00960242294071023 -0.0178202521695235 0.8885751 -0.3961627 0.2312779 10 10 10
0.00215093204084704 -0.0609835335348627 -0.0334888804998705 -0.3227199 -0.7039361 -0.6327131 171 171 171
0.054525476392115 -0.0503115762176061 -0.0151907815228997 0.4902294 -0.1239624 -0.8627331 145 145 145
0.0672043882114997 0.0405887338114729 -0.0217610578707871 0.8024657 0.3415992 -0.4892431 17 17 17
0.0131434792704765 -0.0527222695448306 -0.0350222880548864 0.4289759 -0.3607914 -0.828136 48 48 48
0.0110438492716467 0.0788019274356443 0.0127016824528075 -0.1414067 0.565137 -0.812788 97 97 97
0.0569082428988326 -0.0433827145490244 -0.0142451851121801 0.4514455 -0.2455011 -0.8578614 136 136 136
-0.00406802229125125 -0.063072377162195 -0.00195064037778617 -0.7781459 -0.6101556 -0.1489937 70 70 70
-0.0641386321013599 -0.000811794755503581 0.00507285851733202 -0.8008078 -0.4193377 -0.4276246 152 152 152
-0.021677673331403 -0.044642836780184 0.00306747537268853 -0.753996 -0.6528731 -0.07243498 119 119 119
-0.070144878499494 0.00175114564018475 0.010891925004612 -0.7149222 0.3367518 -0.6127678 24 24 24
0.000985504614342769 0.040692397106191 -0.0133002881730601 -0.2688155 0.6773196 -0.6848184 145 145 145
-0.00754815855153046 -0.0647673625197823 0.0223279065373092 -0.7940698 -0.5821355 -0.1748472 57 57 57
-0.00248712612900093 -0.0675580850689642 0.00455882905103536 -0.7706781 -0.6214725 -0.1408088 67 67 67
-0.00980568262054193 0.0300202455615034 -0.018153266427507 -0.1669631 0.7084325 -0.6857454 149 149 149
-0.0648336573274673 0.00884815972133729 0.013180605003429 -0.6286424 0.5829135 -0.5148016 124 124 124
0.0132655488776563 -0.0547523918485168 -0.0332229440986887 0.3363405 -0.4423703 -0.8313745 122 122 122
-0.0231212544754644 -0.041097975800455 -0.00706870503984683 -0.7611397 -0.6336228 -0.1385229 129 129 129
-0.0303909645856204 0.0427371592891025 0.0100673685995015 -0.7041986 0.4594792 -0.5412792 141 141 141
0.00752551023444159 0.050770872827501 -0.00709694375334086 -0.2982357 0.7474696 -0.5935863 65 65 65
0.0388583049096392 0.0667334674097197 0.00261232923763446 -0.182268 0.6640234 -0.7251561 111 111 111
0.0540308830615239 0.0709530594840841 -0.00615859867563959 -0.6507287 0.6317286 -0.4212731 24 24 24
0.0560657598858949 -0.042845892043425 -0.00360411072493599 0.6791717 -0.5726483 0.4591293 39 39 39
-0.0168008808516631 -0.0163570501595752 -0.0393442231914737 -0.009984114 -0.04930868 -0.9987337 118 118 118
-0.048009585831438 -0.0139598677615343 -0.00892959493689927 -0.7251796 -0.6630411 -0.1857179 182 182 182
0.0545724839733914 -0.0475818127818702 -0.0153319145562469 0.4750242 -0.1068512 -0.8734614 124 124 124
-0.0140784430334331 0.0324704953542518 -0.014917074548621 -0.2791303 0.6879826 -0.6699002 163 163 163
-0.0430443270133982 -0.00103548415613941 -0.0203231992632634 -0.6112157 0.5208464 -0.5959316 133 133 133
-0.0757641851179183 0.0145115338466387 0.0358853522516275 -0.7751628 0.3754737 -0.508077 151 151 151
0.000521730773454188 -0.0708580748087585 0.00898842208364115 -0.7698343 -0.6217934 -0.1439726 48 48 48
-0.0254530257238836 0.0328589030179203 -0.00635978484781249 -0.5091897 0.5848777 -0.6313826 143 143 143
-0.0411362469794527 0.0329219946521557 0.0122972776603396 -0.6135303 0.5677034 -0.548902 126 126 126
-0.0146885311677134 0.0433075019996509 -0.00338133329419418 -0.3541533 0.5908868 -0.7248643 21 21 21
-0.0132569355764973 -0.0582183524974841 0.0237715602195593 -0.7720519 -0.6211345 -0.1346398 48 48 48
0.0272095844820628 -0.0727157842461545 -0.0210050543011682 0.4055693 -0.4853227 -0.7745808 117 117 117
0.0290935269711512 0.0417376056323917 -0.0215519836445217 -0.3793198 0.6469196 -0.6615221 46 46 46
0.0267563532769413 -0.0311671907891415 -0.0307960008652962 0.4368346 -0.3407667 -0.8324984 65 65 65
0.0372471547131368 -0.0548422839997133 0.0054934672778871 0.5722749 -0.5925462 0.5669131 23 23 23
-0.017604994289889 -0.0494307230439356 -7.24944724698195E-05 -0.700053 -0.7137258 -0.02283236 134 134 134
0.0507481416316522 -0.0431848396501917 -0.0169717199109579 0.3163973 -0.1850736 -0.930398 150 150 150
-0.0535567187862611 -0.00754612267582377 -0.00564528016581808 -0.7552749 -0.6360813 -0.1579887 106 106 106
0.0233355227065517 -0.0764975397169706 -0.00823640034129883 0.5432891 -0.6505868 0.5306352 24 24 24
-0.0569796057849108 -0.00502360029877291 -0.0015484679324986 -0.7521687 -0.6086738 -0.2525045 156 156 156
-0.0315364486194891 -0.0397148339745057 0.0297537990388942 -0.5444152 -0.7258143 -0.4204826 100 100 100
-0.0322003023994926 -0.000865639372060745 -0.0323552784470501 -0.5871012 0.5664814 -0.5782828 115 115 115
0.0528376820946534 0.0325892227082634 -0.0442076105486569 -0.07517245 -0.1643158 -0.9835392 97 97 97
-0.0843831557423718 -0.00353181490282106 0.0244881251836957 -0.673632 0.3929476 -0.6259489 63 63 63
-0.0656412585289061 0.0305972924238104 0.0389365486360771 -0.62626 0.5514379 -0.5511031 36 36 36
0.0350373595761657 -0.017943941081466 -0.0316828437183171 0.4029243 -0.3347103 -0.8518339 42 42 42
-0.0663979067378486 -3.73183674505229E-05 0.00875567128264909 -0.7141266 -0.2614544 -0.6493571 124 124 124
-0.00565341453997581 0.0712957075813296 0.0114531847741386 -0.3079806 0.536991 -0.7853589 135 135 135
-0.080759410466225 -0.0101566720944948 0.0236506124602117 -0.4229234 -0.5712256 -0.7034466 79 79 79
-0.0235429047427718 -0.0440179173670863 0.00937272875819858 -0.7104257 -0.6914696 -0.1310159 146 146 146
0.0568297240278226 -0.0287935058127474 -0.0193583136636309 0.2895746 -0.3032694 -0.9078404 79 79 79
0.0031359766090322 0.0787883463293202 0.0151050267362491 -0.2577589 0.6674053 -0.6986634 72 72 72
-0.0287078505538303 -0.00556731251981302 -0.0405078631294304 -0.3766649 0.3615216 -0.8528925 152 152 152
0.0678436925882986 0.0312551394063333 -0.0285793836711347 0.8112355 0.3510264 -0.4676296 73 73 73
0.0565411851264059 -0.0350889242457474 -0.0168009675889519 0.3020997 -0.2862463 -0.9092848 104 104 104
-0.0385251906046751 0.0532135878525392 0.0305249488241514 -0.5844345 0.5947738 -0.5519786 75 75 75
0.0227676005495328 0.00463870120277221 -0.0409730830990614 0.2273177 -0.1895336 -0.9551982 38 38 38
0.0503134069329776 -0.047797610631406 -0.0162042902989133 0.2757965 -0.06674182 -0.9588962 121 121 121
0.0800467223599233 0.0121249815562861 -0.0200300881345806 0.8047956 0.08662844 -0.5871963 115 115 115
0.0575005645219675 -0.0266789797482096 -0.0197696721432241 0.285595 -0.287746 -0.9141322 82 82 82
0.00996617232792474 -0.0120439329137446 -0.0411672192360122 0.213713 -0.1333284 -0.9677553 190 190 190
-0.00188967440708643 -0.0571363762849622 -0.0366591264205343 -0.5130621 -0.7596494 -0.3996249 161 161 161
0.0245904430055601 -0.00276137864594544 -0.0400641703587106 0.1042708 -0.2104168 -0.9720352 160 160 160
0.0514077559049588 0.0149527409126164 -0.0407837734020661 -0.05791877 -0.1940142 -0.9792874 143 143 143
-0.0325082272278228 -0.0293326937154517 -0.0122095301288223 -0.7158573 -0.6936839 -0.07969327 110 110 110
-0.0431275786351364 0.0322883964066709 0.0135288351238728 -0.6209121 0.5727407 -0.5351974 169 169 169
-0.00548326542119781 -0.0508582233560863 -0.0421611897192549 -0.2172612 -0.3262218 -0.9199874 199 199 199
0.00846468341240803 -0.0709717289169075 0.020033165430948 0.365003 -0.7763006 0.513936 111 111 111
-0.0682454192371549 -0.00466373844860585 0.0136955132737092 -0.3134548 -0.5135984 -0.7987257 129 129 129
0.0389587596825605 -0.0173690035010985 -0.0294258242158179 0.3898005 -0.3650207 -0.8454676 72 72 72
0.0495625829296094 0.0649604719683256 -0.00829983067455808 -0.57333 0.677425 -0.4608557 89 89 89
0.0578679804998248 -0.000183342132034081 -0.0388577907616475 0.0979267 -0.3587681 -0.9282757 50 50 50
0.0237051052141575 0.0557199014620426 -0.00634508788158619 -0.1266476 0.6734881 -0.728268 33 33 33
-0.0176361597451509 0.0353223619494698 -0.00918501163935034 -0.5056622 0.6026968 -0.6173024 95 95 95
-0.0328153713056407 -0.0345703765703581 0.0166426830145795 -0.6407135 -0.7410319 -0.200893 147 147 147
-0.0279992278899308 -0.0379475089168111 0.00843428057581463 -0.7633563 -0.6263528 -0.1580171 116 116 116
-0.00718516501078748 0.0602830275284498 0.00541385268076952 -0.3396332 0.516513 -0.786043 156 156 156
-0.0449567085666729 -0.00556506643997118 -0.0226978110055197 -0.5825385 0.555784 -0.5930877 172 172 172
0.036554693855297 -0.0530279780747557 -0.0217220596108791 0.3906749 -0.07833784 -0.9171893 38 38 38
-0.0402600863658935 0.0306814993541769 0.00970914433222544 -0.6087193 0.5615569 -0.5604594 143 143 143
-0.00157197640043361 -0.0462222019046946 -0.0416275527042217 0.2162663 0.02300968 -0.9760633 57 57 57
0.0445637634095033 0.0207013110531065 -0.0417703910547871 0.03025557 -0.1893409 -0.9814452 87 87 87
0.0323693691055484 -0.00828351166278435 -0.0352009864387033 0.3631941 -0.2204292 -0.9052629 65 65 65
-0.0889006383928104 -0.0150321872508161 0.0440542609992449 -0.7582025 -0.619421 0.2035844 19 19 19
0.00766564730070929 -0.0340834186477929 -0.0383817947075749 0.2975576 -0.01537614 -0.9545801 200 200 200
-0.0280930754506206 -0.0365575178669826 0.0049343019133393 -0.7687714 -0.6200473 -0.1566267 138 138 138
-0.032594417483649 0.0493624260114511 0.0197769860437025 -0.6503578 0.5756353 -0.4956599 101 101 101
-0.0570271236993687 -0.00310436786575818 -0.00767573095862095 -0.8756099 -0.1383624 -0.4627777 55 55 55
0.0121496398312639 -0.0820430039602358 -0.00559186026605873 -0.5520467 -0.8107839 -0.194612 115 115 115
0.0251115085927274 -0.0273376348545965 -0.0330413429614962 0.3879259 -0.2830322 -0.877158 166 166 166
0.0104795736385355 0.0161796336723287 -0.0390423482556387 -0.2639987 0.7082601 -0.6547307 134 134 134
0.0555210481075381 0.032444720312674 -0.0445906742283989 0.1734989 -0.09283297 -0.980449 103 103 103
-0.0959592232344653 -0.00984090391149456 0.043200484675737 -0.9202619 0.3883376 0.04808328 32 32 32
0.0113339216302029 -0.0712318335912756 -0.0286127872857842 -0.1503347 -0.3417558 -0.9276866 132 132 132
0.0646895392083637 0.0619647198367063 -0.00885600804765202 0.7993273 0.3882982 -0.4585852 35 35 35
-0.0331860200818093 -0.00516042413256262 -0.0346515317088532 -0.6027507 0.608297 -0.5163974 126 126 126
-0.0417459650899916 -0.0255740930499656 0.0137654927185944 -0.6964252 -0.6578419 -0.2867683 183 183 183
-0.0695609729088984 0.0219625638855844 0.0340224927382403 -0.6045979 0.5549476 -0.5713969 77 77 77
-0.0481161722514223 0.0313384908326137 0.0190627384402508 -0.6085166 0.5702288 -0.5518575 119 119 119
0.0728447697934436 -0.0057106141871171 -0.0325881608146318 0.1153686 -0.6233379 -0.7733951 102 102 102
-0.0370753116974609 -0.0323656745362496 0.023359406244211 -0.666815 -0.7194816 -0.1941752 154 154 154
0.0718847854265645 -0.0165928300503443 -0.0229649828192008 0.2386752 -0.7215251 -0.6499505 83 83 83
0.0754457778697972 -0.0146543391390422 -0.0247032174065074 0.1144966 -0.7955104 -0.5950241 180 180 180
0.0484805929778838 -0.0400848017391082 -0.0182355515502908 0.3037477 -0.2073599 -0.9299135 39 39 39
0.0522523477406471 0.0348449265852616 -0.0445707677587952 -0.120181 -0.01670516 -0.9926115 109 109 109
-0.0812723324152222 0.00125872828741835 0.0256703811075334 -0.6480206 0.5920822 -0.4790699 103 103 103
0.0225292654554048 -0.0373333422458477 -0.0309498535788711 0.5037965 -0.2000266 -0.8403443 35 35 35
0.0207319348573538 0.0169301103423389 -0.0431481026962462 -0.1052879 0.3934386 -0.913302 96 96 96
-0.0435300629542668 -0.0236493628416165 0.0144920527935208 -0.7121296 -0.6333594 -0.3028653 170 170 170
-0.0114250966199223 -0.0252532911296682 -0.0401774746624488 -0.1135402 -0.01826661 -0.9933655 97 97 97
0.076002432305327 0.0169432702221226 -0.0248938613996727 0.7986109 0.2801604 -0.5326638 117 117 117
0.0251794295592731 0.0302577410911909 -0.0319272491338485 -0.3994181 0.6539085 -0.6425487 193 193 193
-0.0143288829269075 -0.0513113386197555 -0.00516873307458202 -0.7039484 -0.7030076 -0.1011772 99 99 99
-0.0413303416681949 -0.0280023187424668 0.0195517595232198 -0.674206 -0.7262402 -0.134244 132 132 132
0.0644127844877955 -0.000157071730816805 -0.0368650738162921 0.2189664 -0.3626285 -0.9058445 31 31 31
0.0746104602975177 -0.0143315927502642 -0.0142940830642655 0.8576919 -0.4881356 0.1615187 13 13 13
0.0508874881989376 -0.0196855122169146 -0.0240351855450678 0.3033862 -0.3668755 -0.8794084 109 109 109
-0.0740815051767285 0.0179634914437066 0.035390856551175 -0.7081423 0.4645288 -0.53174 79 79 79
-0.0713811551791417 0.0236585543300328 0.0374249965365794 -0.6096879 0.5897411 -0.5296096 90 90 90
0.0321188987068464 -0.0667126510030476 -0.0217138613442937 0.4782554 -0.4335634 -0.7637373 130 130 130
0.0519563040163336 0.0694886689171765 -0.00531004147039343 -0.608823 0.655511 -0.4468108 54 54 54
0.0681081879302754 0.0213012015913043 -0.0346747258266961 0.8044639 0.3489431 -0.4807043 188 188 188
0.0607741608943093 0.0287496001878241 -0.0417504840877344 0.6478008 0.2575071 -0.7169688 160 160 160
-0.0353150613386277 0.0482313452371251 0.0219482068627291 -0.6191778 0.596774 -0.5103722 66 66 66
-0.0241728425335941 0.0460786022648304 0.00561143359526189 -0.6229934 0.5542747 -0.551959 146 146 146
0.0457698764098593 0.055697029968177 -0.0183310107829726 -0.4857129 0.6930392 -0.5327097 86 86 86
0.0618988430167189 0.0524921744293287 -0.02174818322018 0.8121212 0.3601648 -0.4590648 108 108 108
0.00820565422251729 0.0733436560258581 0.00919371707662028 -0.1419774 0.5919969 -0.793336 170 170 170
0.0419270627994242 0.0505234242338453 -0.0212420954887029 -0.4750108 0.6810846 -0.557215 74 74 74
0.0308938940164798 -0.0282467658531588 -0.0294178500232012 0.4747508 -0.3128372 -0.8226449 47 47 47
0.0656305474069905 -0.00384656301419417 -0.034894798706481 0.1824648 -0.4840701 -0.8557937 68 68 68
-0.0518180554316232 0.0405650146726536 0.0320851913765436 -0.6381031 0.5554348 -0.5332135 82 82 82
-0.0154163628746451 -0.0514057851177752 0.00131534305275913 -0.714651 -0.6994709 -0.003785925 158 158 158
0.00593010568819219 0.0202696802405579 -0.0331023387501809 -0.2334457 0.6956193 -0.6794239 193 193 193
0.00512833586008599 0.0491692794064186 -0.00931712377252991 -0.2170093 0.4776105 -0.851349 49 49 49
0.0603340584291736 0.0131419870695049 -0.040530604497507 -0.01777499 -0.2167005 -0.9760763 69 69 69
0.0107347414380059 -0.078194091105523 0.00656636499034771 0.1290098 -0.9282153 0.3489597 34 34 34
0.0661961085644784 -0.0254404542728107 0.000176377291200069 0.8429105 -0.2955264 0.4496288 8 8 8
-0.018457990026489 -0.0486689055244652 0.0254411396729726 -0.6919556 -0.7218943 0.008119577 120 120 120
0.0477086916902385 -0.0507881560187139 -0.000907156842613693 0.6561568 -0.6204247 0.4295711 100 100 100
-0.000513432253117951 0.0131007078223365 -0.0378178425181208 -0.1772562 0.7310111 -0.6589409 83 83 83
0.0220733263268085 -0.049802747085496 -0.030625677733552 0.601087 0.01688513 -0.7990052 3 3 3
0.0146816187912706 0.0600335393664287 -0.00129052888072009 -0.2126014 0.603917 -0.7681699 81 81 81
-0.0300828854445552 -0.0330085292395484 -0.00280124935465728 -0.8032508 -0.5885542 -0.09160774 176 176 176
-0.00583885235875803 -0.0601513117978177 -0.00800570829777505 -0.703689 -0.684421 -0.1907608 101 101 101
0.0249284588022123 -0.0721254915925922 -0.0216082484024861 0.4184906 -0.5466966 -0.7252506 104 104 104
-0.0577525550569193 -0.00833878211303246 0.0107607331530823 -0.4609504 -0.7544989 -0.4671789 108 108 108
0.00711094030348214 0.0763314834909208 0.0118003055563476 -0.1957168 0.5994578 -0.776109 90 90 90
-0.0100554624965059 -0.0331181655376765 -0.0401931241241151 0.02553394 0.06738825 -0.9974 193 193 193
-0.058441403929546 0.000299383336816672 -0.00184385742010948 -0.7401347 0.446738 -0.502619 36 36 36
0.0389734880833092 -0.0586385631890425 0.000281551510069894 0.5715606 -0.6506403 0.4999858 62 62 62
-0.0226981925697611 0.0221316104575023 -0.0181722535586955 -0.5785369 0.5891799 -0.5640586 143 143 143
0.0119727069072297 -0.010102784342426 -0.0402804633843717 0.2359351 -0.09203516 -0.9674007 195 195 195
-0.000788028302667776 0.0192345723201995 -0.0316138160597909 -0.1659228 0.67767 -0.7164028 148 148 148
-0.00246122806393778 0.0713828999614682 0.0110035939125413 -0.2233671 0.5459171 -0.8075157 131 131 131
-0.041087631009753 -0.0188437193760659 -0.0293550180626139 -0.7917777 -0.5832335 -0.181457 140 140 140
0.0241771603587622 -0.066873048694252 0.00763357574304663 0.5177535 -0.7302246 0.4457616 27 27 27
-0.0193342785509034 -0.0397040608004436 -0.0360544221566532 -0.7015929 -0.6630744 -0.2609591 166 166 166
-0.0181357425380355 0.0632619632107724 0.0155264230881971 -0.6489639 0.5436344 -0.5322663 171 171 171
-0.0305775904564611 0.0157378888660339 -0.0154225707908287 -0.5750586 0.5763446 -0.5806328 143 143 143
-0.0169899410084406 0.0362324354221893 -0.00833227109159582 -0.4462711 0.6148426 -0.6502389 21 21 21
-0.0405052653614653 0.0236225227023379 0.00315663590283813 -0.6060893 0.5823309 -0.5417994 97 97 97
-0.0321599601599831 -0.0314415475067806 0.00346224966431719 -0.7370045 -0.6492388 -0.1879186 170 170 170
0.0472924401507773 0.00261265102849056 -0.0392977996053889 -0.0002233513 -0.06273913 -0.9980299 185 185 185
0.0240201237678677 0.0324166677278079 -0.0290724473276017 -0.4048381 0.657033 -0.6359354 99 99 99
-0.00960263719995691 -0.0324880050835044 -0.0396216650206412 -0.03511288 0.04726802 -0.9982649 179 179 179
-0.0259302513662556 0.0454555342573894 0.00631351403482433 -0.6580795 0.5218829 -0.5427427 183 183 183
0.00978085746105029 0.0463089115643271 -0.00999960311422546 -0.4023564 0.3365146 -0.8513914 103 103 103
-0.0168530203652728 -0.0535721305982226 0.0231805110572505 -0.8126667 -0.5827055 0.005217272 31 31 31
-0.017146799548744 -0.00720487794703373 -0.0402369543785361 0.1014575 -0.1779539 -0.9787946 103 103 103
0.00174630684159771 0.0325979358295738 -0.019856476285177 -0.2995 0.6430938 -0.7047908 108 108 108
0.0686256074893379 0.0471350487800683 -0.0150819656820619 0.8006445 0.3869706 -0.4574082 20 20 20
-0.047987625421074 -0.0172571441935178 0.0124045342326987 -0.764227 -0.5794294 -0.2832288 172 172 172
0.0174614050267072 0.0693862108545494 0.00495411204872628 -0.09238409 0.5961143 -0.7975669 137 137 137
-0.0283768920930205 0.0474809770099513 0.0123749352692171 -0.6722245 0.5479802 -0.4978272 178 178 178
0.0594461522178134 -0.040376234789397 -0.0137353004811079 0.5006816 -0.3025251 -0.8110465 157 157 157
0.0572900711085791 -0.00891428730596544 -0.0315527010679121 0.0596705 -0.6895331 -0.7217919 75 75 75
0.00638585708759498 -0.0682581141625179 -0.0285618178557047 -0.5026749 -0.6626309 -0.5551921 135 135 135
0.0762912919394414 0.0175156539949642 -0.0240340219173539 0.8016919 0.2877108 -0.5239394 119 119 119
-0.021373499334242 -0.027416840327412 -0.0389994560796305 -0.0824613 0.1642226 -0.9829705 71 71 71
0.00118673672885627 0.0483335307180595 -0.00480653075639784 -0.4242343 0.5075909 -0.7499178 36 36 36
0.0676326410655035 -0.0106119673115144 -0.0294450660376882 0.06613962 -0.6592285 -0.7490283 87 87 87
0.0377411943318702 0.0550937495187712 -0.0122945156816086 -0.4198408 0.7932886 -0.4409387 57 57 57
-0.0222404514893806 -0.0375979367421117 -0.0316057970938731 -0.6925451 -0.7142038 -0.10146 128 128 128
-0.0237178004165179 0.028682199661422 -0.010713730235642 -0.4602143 0.6000165 -0.654357 215 215 215
0.0304734753784843 -0.0331913803456026 -0.0278646201178277 0.4511891 -0.3013121 -0.8400235 27 27 27
-0.0129227928804743 -0.0436786033732026 -0.0407566220858801 -0.3985278 -0.1230894 -0.908859 174 174 174
0.0345936907502926 -0.000517884095868393 -0.036879735729055 0.03224697 -0.5419219 -0.83981 180 180 180
0.0604538488242738 -0.0131051086034518 -0.0268922534377717 0.02988381 -0.715491 -0.6979825 74 74 74
0.0071747599409453 -0.0753944129545254 -0.00898110321459075 -0.7175704 -0.60281 -0.3488736 82 82 82
-0.00288851715655492 -0.0160063157504959 -0.0402874373565023 -0.1144746 0.04367578 -0.9924656 88 88 88
-0.0294964636037305 0.0591529269426753 0.025629917094429 -0.6840767 0.5155573 -0.5159842 83 83 83
-0.0277914836510962 -0.0432090197932188 0.0309561366775378 -0.6650106 -0.6892501 -0.2875679 84 84 84
0.0172368615647511 0.0458805502756066 -0.0140398176734729 -0.3374176 0.6462059 -0.6845197 33 33 33
0.0166139268932306 0.000979594507840131 -0.0402476518807161 0.03236617 -0.2560966 -0.9661092 173 173 173
-0.0447326622727306 -0.0192844599284245 0.000988236919929553 -0.7016852 -0.6975418 -0.1451665 119 119 119
-0.0787480995556451 0.00579018719924396 0.0323745574463124 -0.7398379 0.5971429 -0.3099359 93 93 93
-0.0313650419777169 -0.0365972127965429 0.0198959161490001 -0.6575589 -0.7203307 -0.2207716 145 145 145
-0.0493198445247605 0.0399683089711448 0.0295921356190305 -0.6361597 0.5530322 -0.5380114 148 148 148
-0.0173681339181417 0.0654521726743585 0.0184838238207456 -0.6369765 0.5581602 -0.5317124 122 122 122
-0.00375121014197033 0.0706146860643865 0.0106196833775815 -0.254721 0.5197608 -0.8154544 161 161 161
-0.00572092044550487 -0.0653252647370381 0.0137071028680949 -0.7571244 -0.6448206 -0.1047335 46 46 46
-0.0527597679016214 0.0241352253862452 0.0177002136066444 -0.6128541 0.5767243 -0.5401842 67 67 67
-0.0451812733157753 0.0483698703519361 0.0326960341588578 -0.615487 0.5505731 -0.5639548 41 41 41
0.000153015281572078 0.0111579651442808 -0.0407437259052731 -0.1171266 0.5519537 -0.825608 138 138 138
-0.0593074618166067 0.0133667383722292 0.0125661417564863 -0.631198 0.5866958 -0.5073234 48 48 48
-0.0182190179776001 -0.0483666456091401 -0.00238294847553674 -0.7274181 -0.6786213 -0.1016665 122 122 122
0.0156082515764679 -0.000463414285235997 -0.039970482013928 0.1450315 -0.1837472 -0.9722154 138 138 138
0.0272677230278062 -0.0604934576461286 -0.0258226169167157 0.5164742 -0.04090307 -0.8553253 75 75 75
-0.0336986734029749 -0.0263501969274009 -0.0273145468121847 -0.7025852 -0.7108392 -0.03288966 199 199 199
-0.00324519058817918 0.0531015521369678 -0.000636282060905102 -0.3030985 0.5556232 -0.7742184 65 65 65
0.0102561770135825 0.0585108554846704 -0.00150220491801567 -0.2258477 0.6004783 -0.7670845 148 148 148
0.022599436647492 -0.00844594569236784 -0.0387910788281704 0.1945531 -0.2075344 -0.9586858 186 186 186
0.00937275144316319 -0.0571074362067704 -0.0334041284626491 0.2649024 -0.4591239 -0.8479576 123 123 123
-0.0285908886610557 0.0332895817678496 -0.00234459279221122 -0.6398813 0.5473782 -0.5393783 135 135 135
0.0243300004221774 0.0505758077806961 -0.0126056484491313 -0.4469487 0.7169836 -0.53495 76 76 76
0.0230462016527939 -0.072425249395975 -0.0240023759890327 0.491298 -0.5448096 -0.6795651 31 31 31
-0.0247819873539616 -0.00337126300351709 -0.0408860672931523 -0.3831652 0.3284558 -0.8633083 86 86 86
0.0198588625247149 0.0305158879616605 -0.0282478365013832 -0.37162 0.6589139 -0.6540115 220 220 220
-0.0244238779249191 -0.0410779713847753 0.00314020810095442 -0.7855672 -0.6123783 -0.08875276 133 133 133
0.0514318383854939 0.0655482667333274 -0.0105150830862878 -0.6594191 0.6437556 -0.3882593 114 114 114
0.011546103512531 0.000753793680457582 -0.0411217077592932 0.1036468 -0.1007966 -0.9894935 61 61 61
0.0156786074461972 0.0210228448301753 -0.0359276958796739 -0.3107394 0.6840119 -0.6599763 158 158 158
-0.0491754134541273 0.0205292467040638 0.00842678651710296 -0.5942259 0.5719322 -0.565499 43 43 43
0.0505352194644093 0.0528738691722119 -0.0273014919159093 -0.5814789 0.6206867 -0.5259566 140 140 140
0.0596173432593758 -0.0344547300725526 -0.0160822016982947 0.2535932 -0.3389698 -0.9059746 127 127 127
0.0331892076106777 0.0510593991869409 -0.0163670904009024 -0.165332 0.7131189 -0.6812685 54 54 54
-0.077399078790978 0.0224270847657063 0.0431400997898042 -0.6981031 0.469427 -0.5406387 130 130 130
0.0671881782677204 -0.0241799497485126 -0.00169743146438181 0.8369069 -0.2989656 0.4584827 16 16 16
0.00497717087294669 -0.0690636947116617 -0.0146636823805344 -0.7513092 -0.6223406 -0.2196058 65 65 65
-0.0186926797443454 0.0547867626690917 0.00790228810128024 -0.5850945 0.5370196 -0.6076795 146 146 146
-0.00271404450630497 -0.0216865927094115 -0.0409029692312259 -0.01071063 -0.02954664 -0.999506 99 99 99
0.00128817282892957 -0.0665372128624564 -0.0107554733274804 -0.7268609 -0.6239161 -0.2870573 117 117 117
-0.0499697127121204 0.0307583067605409 0.0216552596772871 -0.6157898 0.5514251 -0.5627906 125 125 125
-0.0273208142556833 -0.03932760127922 0.0111286048815136 -0.7855304 -0.6085228 -0.1124359 113 113 113
0.0704137863631824 0.0163696951280788 -0.0340300076203983 0.8099567 0.3450215 -0.4742683 150 150 150
-0.0272890902699663 0.0293244813257476 -0.00750174841169923 -0.6003648 0.5545284 -0.5762468 236 236 236
0.0157296360778316 -0.00747562178137151 -0.0396816403916245 0.1866715 -0.06209068 -0.9804583 208 208 208
0.0313852049949714 0.0181559728694658 -0.0423414956168982 0.03450866 -0.1164352 -0.9925986 58 58 58
-0.00968167921595553 0.0470268819840775 -0.00271898301410731 -0.2771094 0.5790817 -0.7667299 14 14 14
0.000733744162314753 -0.0693553467025644 -0.00367872526146035 -0.7775999 -0.5961648 -0.1998149 104 104 104
0.0342891911986851 -0.0658588121000927 -0.00187075214608076 0.6189409 -0.6541818 0.4346935 63 63 63
0.0462257753346287 -0.0531482268752491 -0.0170185134877633 0.3406352 -0.01370642 -0.9400956 106 106 106
-0.0404409985803809 0.0486044168361837 0.0279401661176157 -0.6189284 0.5406246 -0.5697831 64 64 64
-0.0885712864601698 -0.0129056372833263 0.0305352721292853 -0.4142984 -0.5664182 -0.7124095 63 63 63
-0.0703849841759925 -0.0168677610951241 0.0241680266864534 -0.2601627 -0.6023048 -0.7546816 113 113 113
-0.0485607930693286 0.00381433920247853 -0.00990619747133123 -0.5987024 0.5586172 -0.5740228 113 113 113
0.0168348342952491 -0.0593739454979876 -0.0309477332376809 0.1512728 -0.2077801 -0.9664078 133 133 133
0.0124872610213944 -0.0462752301460174 -0.0353137767338297 0.4843873 0.04375444 -0.8737588 217 217 217
-0.0644750465931025 0.00270217290491093 0.00641826664818071 -0.7430318 0.4463329 -0.498689 216 216 216
0.019145443816071 0.0699684479855586 0.00475451141823049 -0.0563639 0.6036009 -0.7952918 113 113 113
-0.0349740425930372 0.0529909445594645 0.026879134943172 -0.6001232 0.5732618 -0.5578737 69 69 69
-0.0028923703971917 0.0356545299252409 -0.0145500952520435 -0.3243814 0.6087988 -0.7239757 45 45 45
0.0117876635805985 0.0275891008458481 -0.0271368351470636 -0.2678868 0.6865457 -0.6759377 216 216 216
-0.0313104870750869 -0.0360306468403397 0.0166519884424937 -0.6865953 -0.7043808 -0.1800958 113 113 113
-0.0208240464125171 0.010543129702058 -0.0309885559440322 -0.5345804 0.5655711 -0.6279754 94 94 94
-0.02625131656117 0.05136843642759 0.01323763274092 -0.6341984 0.5770891 -0.5145488 126 126 126
-0.00479384380851977 -0.0620667811151078 -0.00312831195677721 -0.7643119 -0.6308053 -0.1338356 36 36 36
0.0491256883948621 0.0171111784467149 -0.0406647126727371 -0.06031324 -0.1873496 -0.9804399 54 54 54
-0.00797033260632585 -0.0597107260873037 0.00552850953805678 -0.7536497 -0.6352125 -0.1688704 62 62 62
0.0391830591757114 -0.0505254452756357 0.0097789582075189 0.5399948 -0.6353242 0.5520586 25 25 25
-0.0619724239906345 0.00413364539844058 0.00533876705185238 -0.630816 0.5684103 -0.5281864 90 90 90
-0.0264018115161262 -0.039183413042032 -6.11127153528901E-05 -0.7652536 -0.6377484 -0.08754399 134 134 134
0.0409596096372713 -0.0115954901726528 -0.0317365894094322 0.3193361 -0.3588058 -0.8770877 42 42 42
0.023743038807654 -0.0470586370594041 -0.0282694822191815 0.5558694 0.01747958 -0.8310858 23 23 23
0.0148815456198501 -0.0816333286462386 -0.0113929181955774 -0.5551388 -0.8253381 -0.1031407 102 102 102
0.0164837827924864 -0.0773020431789032 -0.0245381515204276 0.03889273 -0.7822662 -0.621729 71 71 71
-0.000344861405384034 -0.0400135611594468 -0.040864988345416 0.1367488 0.1343164 -0.9814575 176 176 176
0.0193409704987233 0.0713309329150559 0.00564350958935086 -0.07096991 0.6108726 -0.7885417 114 114 114
-0.04271790712852 -0.0263000337653948 0.0170560185398411 -0.6736128 -0.7159076 -0.1836358 165 165 165
-0.0372019272426001 -0.0100913991782972 -0.0359683912515853 -0.6510158 0.5135988 -0.5589228 72 72 72
0.0528993728458236 -0.000959052330186561 -0.038744612778236 0.06593618 -0.3570065 -0.9317719 77 77 77
0.0140414309930299 0.0743557531360239 0.0086195581715606 -0.1292887 0.6201528 -0.7737538 90 90 90
0.0158508761914304 -0.0218593845759224 -0.0374982099670382 0.3480715 -0.1707758 -0.9217819 190 190 190
0.0734476251475455 0.00365314175942894 -0.0364646564476 0.5352048 -0.0174524 -0.844542 96 96 96
0.0780984541574523 -0.00977853905974724 -0.0134136166452162 0.8072688 -0.5101352 0.2967814 7 7 7
0.0595210369776629 -0.0433060432928955 -0.0134942733063024 0.4435393 -0.2778944 -0.8520843 153 153 153
-0.0188361349453698 0.0115365957751555 -0.0320304939597416 -0.5674538 0.5306684 -0.6295929 211 211 211
0.00737975162548654 0.0200432586179256 -0.0336761652244884 -0.2215717 0.7046235 -0.6741006 167 167 167
0.0333189110084011 -0.0215470112326066 -0.0307577265004335 0.4212213 -0.3383006 -0.8415018 43 43 43
0.00550666117649135 0.0805121897404968 0.0155411152150412 -0.2733944 0.6395442 -0.7184975 101 101 101
0.0243709836052179 0.0478302639545912 -0.0165469025177181 -0.466244 0.586557 -0.6622442 41 41 41
0.0186875629141623 0.0237353386845504 -0.0346169299370239 -0.3431305 0.6814769 -0.6464137 170 170 170
0.0261276318326482 0.0595706018261549 -0.00309654478792357 -0.045316 0.6463876 -0.7616624 170 170 170
-0.0360292962362747 -0.0306978109572835 0.014243504230034 -0.6556793 -0.7262595 -0.2064748 172 172 172
0.00416154390418511 0.0346491053931023 -0.020516341973729 -0.3432073 0.6534396 -0.674704 75 75 75
0.0113831596395499 -0.0427668093360354 -0.0363173282723035 0.4731995 -0.07130908 -0.8780645 144 144 144
0.0778565093196262 0.0015325805854946 -0.0276656366509027 0.9294536 0.2078381 -0.3048269 106 106 106
-0.0232576972459788 -0.014569721765511 -0.0382897855130269 -0.1161012 -0.1859771 -0.9756705 120 120 120
-0.0494317239647719 -0.0179145599242787 0.0148454742318315 -0.6519846 -0.5982454 -0.4658524 162 162 162
-0.0948653759568168 -0.00751299605682998 0.0323039764268712 -0.8088574 0.4111046 -0.4204079 57 57 57
0.0114285357601953 -0.0696687014851087 0.0165709918116355 0.5521052 -0.6531633 0.5182254 86 86 86
-0.0269729272223458 -0.0423811331308919 0.02454764524351 -0.7024046 -0.6811047 -0.2066984 153 153 153
-0.00692736841602448 -0.0100810944044446 -0.0395511437419341 -0.09070306 0.04328271 -0.9949369 45 45 45
0.0659559665996396 -0.031121767228731 -0.00849518890033146 0.8922874 -0.402104 0.2052696 44 44 44
-0.0380732870117138 -0.00218068495480639 -0.0266964544516833 -0.6323622 0.5410873 -0.5543848 108 108 108
0.0767272796434217 -0.00955866115689852 -0.00779077398288902 0.797005 -0.4187982 0.4351909 14 14 14
-0.0290571166151827 -0.0373268847321892 0.0112644993944845 -0.7486787 -0.6515366 -0.1223937 103 103 103
-0.00750220000915602 0.0631996560482031 0.00691658828324054 -0.3084294 0.5107883 -0.8024753 191 191 191
0.0537687967781078 0.0681750861676615 -0.00980266544807537 -0.7342157 0.5998496 -0.3179744 106 106 106
-0.00546141879003814 -0.0446362455892732 -0.0420454818215011 -0.002970599 0.09768619 -0.9952129 43 43 43
0.0609247660498071 0.0364947512460565 -0.0357932819016247 0.8091103 0.3491215 -0.4727099 147 147 147
-0.0522716624451691 0.0373220111628857 0.0305776823746629 -0.6358846 0.5581909 -0.5329857 76 76 76
-0.0256165063317364 -0.0368225463268476 -0.0114110722562487 -0.7442896 -0.6409082 -0.1878023 172 172 172
0.0371583363205636 -0.0140768510705377 -0.0320483094904224 0.3645917 -0.3657129 -0.8563452 69 69 69
-0.00764343966492431 -0.0636580044367456 0.0206708867785746 -0.8126094 -0.5545197 -0.1793707 46 46 46
-0.0282614446411329 -0.0331752122143828 -0.0146660659744822 -0.7433647 -0.6649067 -0.07285561 139 139 139
-0.0316455182766591 -0.00291026961283647 -0.0347924135553711 -0.5982549 0.5974696 -0.5339674 177 177 177
-0.0703840800870683 -0.0232936962841018 0.0297107508091171 -0.3012489 -0.6426557 -0.7044451 40 40 40
0.0281059883424573 -0.00855443426834784 -0.0370180153232054 0.3385384 -0.2967103 -0.8929472 81 81 81
0.0022158076737564 -0.0189939704059912 -0.0406737198986108 0.01907444 -0.05991777 -0.9980211 59 59 59
-0.0972554323882804 -0.0123378134846896 0.0401537416269705 -0.8935479 0.4252236 -0.1440733 65 65 65
0.0274140204667983 -0.0583281829545839 -0.0257431302133104 0.5378913 -0.009356041 -0.8429623 52 52 52
0.0095353686873243 0.0681589388876802 0.00582369096294863 -0.241623 0.4881816 -0.8386281 142 142 142
-0.0806967065169912 0.00981756869534928 0.0396963038597871 -0.8179263 0.4475339 -0.3615383 103 103 103
-0.0208022404822374 0.0572266281464093 0.0137441456398793 -0.655246 0.524282 -0.5438575 123 123 123
-0.0343174661942047 -0.0255253099154845 -0.0317750743021964 -0.7481881 -0.6543074 -0.109983 187 187 187
-0.0329362474456825 0.0405834700788182 0.0113115676097254 -0.6577225 0.5464979 -0.5184025 115 115 115
0.0102985072660045 -0.0734618244448292 -0.0206630832509206 -0.7422142 -0.6507416 -0.1601668 95 95 95
0.0265262797816925 0.00936516763265982 -0.0410763262269946 0.1027968 -0.1489745 -0.9834833 161 161 161
0.0652931743080543 0.0503954131216923 -0.0178998009505227 0.8099654 0.3639514 -0.4598863 28 28 28
0.0391318894213346 -0.067161417189771 -0.0175463009246692 0.4851893 -0.4729077 -0.7354928 143 143 143
0.0446842942105721 -0.0583983279801544 -0.00649969688688434 0.619472 -0.6403005 0.4541694 123 123 123
-0.0318061501695341 -0.0386626156820252 0.0270163720086553 -0.6574854 -0.6970382 -0.2860954 152 152 152
-0.0762399501043309 0.0205617907686371 0.0397775966528047 -0.7154132 0.4677328 -0.5190472 59 59 59
-0.0341161313860243 -0.0103807590459541 -0.0400321573171147 -0.4174484 0.3389085 -0.8431358 98 98 98
0.0350390636080706 -0.0155737144260716 -0.0322306172539239 0.3835161 -0.3440004 -0.8570759 51 51 51
0.0189593282511846 -0.00250162446660246 -0.0391759932667423 0.02496269 -0.1905641 -0.9813573 98 98 98
-0.0166082121150515 0.0565703598167647 0.00729913354905032 -0.566981 0.4991136 -0.6553001 110 110 110
-0.0940255115483426 -0.0133992947570422 0.0331121735615083 -0.4750557 -0.3969157 -0.7853534 118 118 118
-0.00832897638256913 -0.0621238266667137 0.0136955200257347 -0.7915884 -0.5999802 -0.1158079 39 39 39
-0.0464212349099116 -0.0241489936065061 0.0216783354686571 -0.4014784 -0.7407393 -0.5386283 135 135 135
-0.00290153785182978 -0.00695785820478451 -0.0398559332488416 -0.1053827 0.01741088 -0.9942793 126 126 126
0.00576048178225497 -0.0113050447956679 -0.04150178130677 -0.005727077 -0.02682227 -0.9996238 61 61 61
-0.0395716616230617 0.00178685326491101 -0.0206544373318996 -0.6033553 0.5398156 -0.5869937 85 85 85
0.0165661476608108 0.0560545734899182 -0.00394831235201096 -0.1555775 0.5811827 -0.798763 34 34 34
0.0217703909064637 -0.0567667572024894 -0.0303296898017597 0.4481215 -0.09595555 -0.888808 24 24 24
0.0612285667928836 -0.0167620985359863 -0.0231285323359241 0.03404865 -0.5843351 -0.8107979 176 176 176
-0.0595556948498328 0.0065873842592154 0.00495105190379444 -0.6201712 0.5718634 -0.5369915 54 54 54
-0.0568208767103875 -0.00148742349077802 -0.00818270446442179 -0.7772502 0.2897099 -0.5585251 30 30 30
-0.0743056543355451 -0.0128621814645404 0.0216680864090094 -0.3039142 -0.6321532 -0.7127542 172 172 172
-0.0363354321971947 0.0431769888939036 0.0174735808287671 -0.6162944 0.5345798 -0.5782781 161 161 161
-0.0331805714442868 0.0280407018210098 -0.00192295210743459 -0.6187418 0.5699316 -0.5406816 90 90 90
-0.0286302321716718 0.0509684595512611 0.0162686409646874 -0.6683471 0.5473665 -0.5036886 161 161 161
-0.0442890317156373 -0.0254240864428126 0.0207558984316227 -0.5183125 -0.7689644 -0.3742272 105 105 105
0.0581969921063923 0.0305996422530789 -0.0445758385846884 0.3388357 0.005501921 -0.9408295 140 140 140
0.0600520354426028 0.0175867359673166 -0.041400239252311 -0.04730841 -0.2197597 -0.9744062 73 73 73
0.0374953419707058 -0.0353973282360431 -0.0235320195492783 0.4324143 -0.2211509 -0.8741339 39 39 39
0.0723678446880145 0.0083478006863093 -0.0362701745435454 0.742291 0.2293002 -0.6296232 147 147 147
0.0223665953552894 0.0737976304811576 0.00754416514250345 -0.0598558 0.6063838 -0.7929161 130 130 130
0.0574712716160737 -0.0161922326315449 -0.0242939924558442 0.1085809 -0.6120136 -0.7833578 120 120 120
-0.0251328139032676 0.0435213592337563 0.00378355743958836 -0.6464165 0.5229629 -0.5555678 205 205 205
-0.0128528624064712 -0.0524077299081332 -0.0103827716305414 -0.7376832 -0.6671551 -0.1035734 143 143 143
-0.050212365129501 0.0110834544094302 -0.000370259919681787 -0.5698732 0.5944055 -0.5673858 85 85 85
-0.00239311511620421 0.0744135959603603 0.0128135254621131 -0.2379005 0.6107461 -0.7552434 135 135 135
0.0807346894127585 0.0127621038926307 -0.0202694795471712 0.8195032 0.1173799 -0.5609246 133 133 133
-0.0294590246104041 0.0106462896863713 -0.0250067489053356 -0.5414042 0.5638336 -0.6236771 109 109 109
0.0617666474805287 -0.00386396921192311 -0.0355762027557156 0.1366511 -0.5539566 -0.8212542 67 67 67
0.0535212673656855 0.0337395872914072 -0.0444395417150255 0.1212003 -0.06358718 -0.9905893 104 104 104
0.0172470739354624 -0.00313851862068931 -0.0395586662711122 0.1167945 -0.1107659 -0.9869599 46 46 46
0.0139743288174521 -0.0649463388091756 -0.0298050664688821 0.03676368 -0.3355953 -0.9412886 121 121 121
-0.0733289356871203 0.00281545622476481 0.0165943511669044 -0.6118119 0.5241957 -0.5923725 84 84 84
0.0570467079705566 -0.0400087475614802 -0.0150509967984943 0.3492249 -0.2400258 -0.9057757 155 155 155
-0.0058926874321279 -0.0105015307083404 -0.0397553096426194 -0.09710094 0.06139117 -0.9933794 92 92 92
0.0694071584406419 0.00679565553047279 -0.0379627250191225 0.3385959 -0.1028004 -0.9352993 54 54 54
-0.0306510891548499 0.0436200739673622 0.010812829282711 -0.712828 0.4753022 -0.515717 103 103 103
0.0172758941702278 -0.0367023895769745 -0.0341927555540558 0.5097985 -0.2223128 -0.8310731 211 211 211
0.00736953478581981 -0.0532200472686722 -0.037457806130744 0.3759171 -0.4877784 -0.7878823 74 74 74
0.0733660269309531 -0.0186998328558658 -0.0203013918319988 0.3594855 -0.6968354 -0.6206372 121 121 121
0.0121191406268411 0.0716951216341394 0.00700580836914752 -0.1695207 0.5816945 -0.7955465 116 116 116
-0.0457266746905525 0.0375708715312356 0.0223814344053455 -0.6060361 0.5749397 -0.549695 84 84 84
0.01207961170915 -0.0744513851039392 -0.0259997889215549 -0.3377546 -0.7643743 -0.5492302 120 120 120
0.00205636369557816 -0.0100062109902697 -0.0408183244548468 -0.1247339 0.06078744 -0.9903264 72 72 72
-0.0338619574362111 0.054307920057833 0.0268077318627934 -0.6225839 0.5638781 -0.5426148 118 118 118
0.0318306619902704 -0.0633248760224318 0.00294648712549164 0.6029147 -0.6218512 0.499795 27 27 27
0.0308238501630425 0.0245040032651502 -0.0420783390914248 -0.3276042 0.4742217 -0.8171837 93 93 93
-0.0650391368970276 -0.0123846321783597 0.0188656330306916 -0.3151296 -0.6142235 -0.7234797 130 130 130
0.0348058980533499 -0.0705233929421729 -0.011977734535099 0.7409752 -0.644731 0.1878235 101 101 101
0.0199751908939634 -0.068514244573483 -0.0273902224536749 0.3131311 -0.3380446 -0.8875104 83 83 83
0.0364192718571053 -0.00322520148046035 -0.0348890854538227 0.1126319 -0.4986446 -0.8594577 175 175 175
-0.0381858080304944 0.0370997514249102 0.013516466214496 -0.6023709 0.5680531 -0.5607718 86 86 86
-0.0161859249053009 0.0346627287914075 -0.0114436163304683 -0.4055182 0.6659213 -0.6261819 152 152 152
-0.00149331494361959 -0.021759029019447 -0.0404345312980494 -0.003173902 -0.03985964 -0.9992002 72 72 72
-0.0389883837203961 -0.0219864969571137 -0.0168056290230411 -0.7114237 -0.7008075 -0.05239478 149 149 149
0.0457793553277765 0.0621559736041686 -0.00821279612084053 -0.4971893 0.7146457 -0.4920207 135 135 135
-0.0924814850463993 -0.0193629993434105 0.036574191403706 -0.320182 -0.5207296 -0.7914065 120 120 120
0.0810596552922167 -0.00577053213369561 -0.013293939375432 0.8922812 -0.3928717 0.2224548 18 18 18
0.0553130795115289 0.0125508313089177 -0.0403647473136703 -0.0166166 -0.156218 -0.9875828 201 201 201
0.0583745004395007 0.0333121242094929 -0.0420966273182214 0.615431 0.2607817 -0.7437994 169 169 169
0.0275923266833731 0.0560465554687095 -0.00661695924530595 -0.1319888 0.7449971 -0.6538794 125 125 125
0.00456554372566886 -0.00808809555511547 -0.0409001572604646 -0.1099325 0.04286548 -0.9930143 165 165 165
0.0153486062415027 -0.0317253835682396 -0.0362174993213285 0.3824732 -0.1075749 -0.9176829 40 40 40
-0.0452916540401342 -0.0146623308400957 -0.017205666119954 -0.7758328 -0.6144002 -0.1435129 147 147 147
-0.0193767364732347 -0.0468735101785906 0.00800542903752463 -0.677941 -0.7122111 -0.182075 99 99 99
-0.0327144356603646 0.04342779091497 0.0152007326785993 -0.6946055 0.4918431 -0.5249891 100 100 100
0.0163701741455031 0.0527821113240954 -0.00711361667630173 -0.07227015 0.6140808 -0.7859274 91 91 91
-0.00112133650341484 0.037826734678024 -0.0142227197817212 -0.3489406 0.5642281 -0.7482561 106 106 106
0.0331449471610776 -0.0695855538806973 -0.00818952307753329 0.6106564 -0.6644501 0.4308188 79 79 79
-0.0059065234203528 -0.0490578759456521 -0.0422356443829645 -0.1844279 -0.3158448 -0.930714 152 152 152
0.00448906556220141 0.0163911554532294 -0.0362951439397643 -0.2501698 0.6945518 -0.6745464 154 154 154
-0.0629706647989443 0.0209919412718457 0.0247856502662029 -0.6384527 0.5683694 -0.5189743 128 128 128
0.0460303443023089 -0.0094106673244404 -0.0311103070325127 0.02072156 -0.5845949 -0.8110607 79 79 79
0.0536469367144261 0.0513635616576319 -0.0332776582385883 -0.3944896 0.6851493 -0.6123303 137 137 137
-0.0101428484830826 -0.0592489488528473 0.0125672323226442 -0.7885754 -0.5994502 -0.1371432 100 100 100
0.0797205094861497 -0.00449223979796459 -0.0236721622531379 0.9645426 0.1119159 -0.2390237 43 43 43
0.011466965317493 -0.0747808190460847 -0.0249580545486098 -0.4773667 -0.7631698 -0.4355375 123 123 123
0.0494413502247557 -0.0488693431822513 0.000432951999075504 0.6515913 -0.6213264 0.4351808 92 92 92
0.0257910414484672 0.0421085797116042 -0.019318239946189 -0.3548898 0.5508847 -0.755367 46 46 46
-0.0454036153590138 -0.0335019875202782 0.0297993499317175 -0.215068 -0.6983702 -0.6826602 89 89 89
-0.011088616416302 0.0249712514434232 -0.0233017857706219 -0.1139866 0.7592713 -0.6407138 165 165 165
-0.0216065907769849 0.0191812115808064 -0.0221636925852581 -0.5757828 0.5673254 -0.5887411 145 145 145
0.0664966866507428 -0.0334395655359739 -0.0128640903353002 0.815869 -0.4756908 -0.3287491 130 130 130
0.0136107046064025 0.00681058321185724 -0.0421154339835891 0.05673631 -0.2066795 -0.9767623 232 232 232
0.0249445209096502 0.0353303391352663 -0.0264308742068852 -0.3965196 0.6829805 -0.613441 54 54 54
-0.0331895527561459 0.0237551468833595 -0.00610581563480164 -0.6168711 0.5722627 -0.5403568 88 88 88
-0.0245317174224908 -0.034288258034644 -0.0387609171593445 -0.5613995 -0.5401331 -0.6269664 231 231 231
-0.0514265131780043 0.0342148286446334 0.0254880548724306 -0.6170752 0.566397 -0.5462715 57 57 57
-0.0798950201841548 0.000791922259809896 0.0228381287817059 -0.6315934 0.5695758 -0.5259972 56 56 56
0.033690922848022 0.0263117435853722 -0.0419070714679089 -0.3186579 0.4635377 -0.826795 76 76 76
0.0224916161056949 -0.0132947794067224 -0.0380343703744485 0.2577032 -0.2628238 -0.9297917 150 150 150
0.0292764134798116 0.0335122512920415 -0.0308517652128517 -0.3973663 0.6593419 -0.6382542 112 112 112
-0.0307684205384149 0.0185171100346662 -0.0144603310908199 -0.5940631 0.559152 -0.5783062 100 100 100
0.043871990597673 -0.0165869556119359 -0.0279407703897276 0.3301663 -0.3680263 -0.869222 77 77 77
-0.0255540078873349 -0.0389143536822024 -0.00648033705502862 -0.7551589 -0.6312963 -0.1766352 142 142 142
-0.0263777754578238 -0.0341710638845266 -0.0241726372171573 -0.6973208 -0.7148379 -0.0524452 154 154 154
0.0264053920195111 -0.059772176840682 -0.0261682721517494 0.5248919 -0.05223983 -0.8495643 67 67 67
0.0379563106719978 -0.0225145232407895 -0.0282183394132352 0.3937708 -0.3399808 -0.8540244 81 81 81
0.0643347409768418 0.0239019356579056 -0.0389274154257104 0.7693195 0.2795992 -0.5744318 157 157 157
-0.0425455871003755 -0.0120769314913271 -0.0312738860128877 -0.8558729 0.1819882 -0.4841093 101 101 101
-0.0453682970004086 -0.0221856411860755 0.014101688394251 -0.6957672 -0.6368016 -0.3322526 144 144 144
-0.0314033478048064 -0.0421713068030747 0.0318282591719366 -0.5300604 -0.6889308 -0.4943787 105 105 105
