ply
format ascii 1.0
comment File exported by Rhinoceros Version 7.0
element vertex 468
property float x
property float y
property float z
property float nx
property float ny
property float nz
property uchar red
property uchar green
property uchar blue
end_header
-0.146245439911805 -0.00225926114536379 -0.0420614891310501 -0.6935704 -0.09517622 -0.714074 145 145 145
-0.144599737536684 0.000423015554569695 -0.043506559141971 -0.4581124 -0.00656132 -0.8888701 199 199 199
-0.142188658703582 0.00496088353742419 -0.0439724493380144 -0.2323684 0.003778295 -0.9726205 171 171 171
-0.147757760009177 0.00389755980185336 -0.0406030709435111 -0.8851581 0.1545422 -0.4388757 83 83 83
-0.13862473337706 0.00894226874283754 -0.0446107965058488 -0.1650078 -0.02968145 -0.9858456 125 125 125
-0.127638522152592 0.0164075585603212 -0.0462594045127168 -0.120252 0.008890953 -0.9927036 152 152 152
-0.135068601881745 0.0118488051204437 -0.0451703426576371 -0.1254135 -0.02238423 -0.991852 125 125 125
-0.136415937876499 0.017408356819075 -0.0449603461721804 -0.09176221 -0.05866719 -0.9940512 125 125 125
-0.133496955611555 0.0212861782371543 -0.0454871068130034 -0.1038574 -0.07680882 -0.9916219 132 132 132
-0.146708043486272 0.008531737475167 -0.0392300050339277 -0.8994081 -0.02549971 -0.4363655 81 81 81
-0.144077759354959 0.00940373200478462 -0.0430047873403209 -0.5872142 0.04381867 -0.8082447 143 143 143
-0.145622160736631 0.012120314933739 -0.0412310770799797 -0.7508464 -0.1233058 -0.6488646 140 140 140
-0.147310003074101 0.0168235214202506 -0.0392495846490013 -0.9104826 -0.1280069 -0.3932374 99 99 99
-0.140826242104203 0.0133813229239621 -0.0446534799740139 -0.2622868 -0.04306424 -0.9640286 142 142 142
-0.142062820599625 0.0148715313024461 -0.0442051368058529 -0.3154185 -0.09401407 -0.9442841 193 193 193
-0.140808605243833 0.0168961484979677 -0.0447441819512885 -0.131113 -0.06285729 -0.9893727 159 159 159
-0.145367098315863 0.0203723418420216 -0.044392597455889 -0.5081232 -0.151316 -0.8478881 183 183 183
-0.103245074672909 0.0171975573022993 -0.0490193810061507 -0.1075487 -0.04268121 -0.9932832 150 150 150
-0.103558056219414 0.0191307685399982 -0.0487509283705327 -0.09735512 -0.07406124 -0.9924902 118 118 118
-0.10286827691497 0.0212946469970023 -0.049274742968679 -0.1001158 -0.1078519 -0.9891132 130 130 130
-0.109554672910687 0.0178035862672015 -0.0483476841175431 -0.1098387 -0.04217081 -0.9930544 131 131 131
-0.105564749571005 0.0303154092105027 -0.050061983976292 -0.1440336 -0.1517269 -0.9778718 132 132 132
-0.113738439986696 0.0273666304978351 -0.0488732892300854 -0.08782336 -0.1591026 -0.9833481 145 145 145
-0.116251368949876 0.0182861005938253 -0.0476841371382818 -0.09982989 -0.06713595 -0.992737 134 134 134
-0.119431164879555 0.0209075781203727 -0.0481817936175883 -0.1257517 -0.08835991 -0.9881189 148 148 148
-0.124572334607162 0.0238836364675616 -0.0470765903280485 -0.1372075 -0.1154637 -0.9837897 125 125 125
-0.131252230464934 0.0245221427009927 -0.0463371100085712 -0.1263223 -0.08829925 -0.9880516 127 127 127
-0.059950477745712 0.035138213082506 -0.0337150962308556 0.5495991 0.2113839 -0.8082436 129 129 129
-0.0596575768205775 0.0421483978179682 -0.0330258415524597 0.5442132 0.1140285 -0.8311615 46 46 46
-0.0643183312792364 0.0383835035821205 -0.0368550645563301 0.5993167 0.1487636 -0.7865677 147 147 147
-0.0656564150447084 0.0411453498553578 -0.0364185347614646 0.6077707 0.2177484 -0.7636755 131 131 131
-0.0699659376913027 0.045010302850754 -0.0396051181179363 0.5530531 0.1739368 -0.8147873 110 110 110
-0.0711298629236372 0.0397817899036315 -0.0404560607700662 0.4777567 0.08277093 -0.8745842 129 129 129
-0.0593595132454117 0.0494145045013012 -0.0312205630764886 0.4557866 0.06197183 -0.8879291 200 200 200
-0.0617802898618616 0.0509167272106372 -0.0324760979353877 0.4214742 0.08506761 -0.9028416 62 62 62
-0.0705084511867048 0.0483754405486216 -0.0387998693063002 0.5958058 0.2267942 -0.7704414 62 62 62
-0.0632555194035267 0.0553279430746989 -0.0329415143824949 0.4514621 -0.0503774 -0.8908671 37 37 37
-0.0666086582765625 0.0531432921547115 -0.0344448597692703 0.5192869 0.01359303 -0.8544919 72 72 72
-0.0630774471526733 0.0606895571083892 -0.0341944348924045 0.5082337 -0.08668756 -0.8568453 30 30 30
-0.0688583240023901 0.0806465108964525 -0.026938809380283 0.06897841 0.9903122 -0.1205149 48 48 48
-0.0747556429326061 0.0382888114258011 -0.0438898218053926 0.5749585 0.2317509 -0.7846746 97 97 97
-0.0784630539703092 0.0360636558577774 -0.0463939980182668 0.491565 0.2031935 -0.8468035 133 133 133
-0.0791792972987171 0.0424571580059581 -0.0454098431049493 0.5399094 0.2573919 -0.8014033 112 112 112
-0.0819832974720169 0.0432362589616224 -0.0469460172650062 0.5723957 0.2130665 -0.7918118 151 151 151
-0.149872532715648 0.017300311578524 -0.0316533136958599 -0.9317372 -0.1583672 -0.3267806 71 71 71
-0.0761332511017789 0.0472255716446521 -0.0419259979339045 0.4132546 0.1669813 -0.8951748 120 120 120
-0.0769753895480679 0.0502656672334822 -0.0418817878225199 0.390289 0.2219653 -0.8935356 137 137 137
-0.0788458945792323 0.0474734009457174 -0.0433394479177512 0.4851332 0.2348767 -0.8423056 143 143 143
-0.0795810401705342 0.0500953812688707 -0.0431729058322702 0.4614883 0.22604 -0.8578662 112 112 112
-0.0779216530285856 0.0552249470463193 -0.0404694013870121 0.4103771 0.1914699 -0.8915884 92 92 92
-0.0816163860856971 0.0537731810626998 -0.0428164232262063 0.4891607 0.2109667 -0.8462948 114 114 114
-0.0827267914917568 0.0573479643129122 -0.0429070285706982 0.4951918 0.09304125 -0.8637872 101 101 101
-0.0860524822955243 0.0376073770406591 -0.0498945500362449 0.4873436 0.1581064 -0.8587774 117 117 117
-0.0901707865684238 0.0347807318083291 -0.0526180628672972 0.226698 0.02959708 -0.9735153 165 165 165
-0.0922561582758915 0.0344672468628622 -0.0525909047646387 0.01460814 -0.06225348 -0.9979535 144 144 144
-0.0890714298565455 0.0389966070725907 -0.0516333918570889 0.4782789 0.1413813 -0.8667529 85 85 85
-0.0844070224653478 0.0432908348737844 -0.0486784191973004 0.4736879 0.1713158 -0.8638695 126 126 126
-0.0924863214314213 0.0408615851581036 -0.0526669161307115 0.2933497 0.05539081 -0.9543992 115 115 115
-0.0949191344496711 0.0342072433240241 -0.0521155814713473 -0.08626647 -0.1568599 -0.9838461 167 167 167
-0.0961397866924463 0.0342590612381213 -0.0523743702728466 -0.09572829 -0.1557654 -0.9831446 151 151 151
-0.0964951427423617 0.0383056257465166 -0.0529816646130366 -0.06602798 -0.1013822 -0.992654 161 161 161
-0.100735153342651 0.0375876419065189 -0.0522370696975563 -0.1311593 -0.119822 -0.9840934 169 169 169
-0.0998242885540436 0.0412464959144592 -0.0525274055833146 -0.112837 -0.1090321 -0.9876132 148 148 148
-0.101888510931821 0.0425929769247593 -0.0524132264094282 -0.1088941 -0.1114596 -0.9877848 139 139 139
-0.0856905029930795 0.0484580795147458 -0.0476502689847486 0.508414 0.2813036 -0.8138694 125 125 125
-0.0869886720036369 0.0466772257039314 -0.0489107293431517 0.4721957 0.2283251 -0.8514099 135 135 135
-0.0906027920131238 0.0474345873295017 -0.0505881623025356 0.488023 0.1739177 -0.8553281 134 134 134
-0.0855628784744332 0.0534164631141167 -0.0451955992278694 0.5023679 0.2704721 -0.8212621 53 53 53
-0.0881334642125505 0.0527538156311671 -0.0478353974421981 0.5405833 0.28733 -0.7907029 144 144 144
-0.0958496953215557 0.0433568755703835 -0.0534272173131428 0.09177499 0.006066476 -0.9957613 184 184 184
-0.100184603973061 0.0432368052394567 -0.052617009306977 -0.1195219 -0.1123495 -0.9864543 151 151 151
-0.0930832275760496 0.0506557833768615 -0.051193090499135 0.4590253 0.2388179 -0.855723 99 99 99
-0.09395173892811 0.0548483046984534 -0.0498949622895816 0.4514618 0.2946831 -0.8422257 137 137 137
-0.0940766805160169 0.0570463154641401 -0.0497010255487242 0.4470006 0.1995601 -0.8719898 98 98 98
-0.0966668829500965 0.0499080650238364 -0.0532803212861739 0.2628716 0.1476485 -0.9534665 164 164 164
-0.0966945869449 0.0519474320892581 -0.0525530953174793 0.3029481 0.2013031 -0.9315039 144 144 144
-0.104630906684849 0.0453688347780612 -0.0523941621149546 -0.1079201 -0.1128688 -0.9877317 148 148 148
-0.107415212876428 0.049854570925765 -0.0529427512453342 -0.1391741 -0.1174682 -0.9832761 155 155 155
-0.0995676619441685 0.0534813012716495 -0.0533750142805543 0.224726 0.1925386 -0.9552105 186 186 186
-0.105951558094412 0.0542996355016587 -0.0534906867183372 -0.07180195 0.01296131 -0.9973347 187 187 187
-0.0654857500230642 0.0601301797782012 -0.0359970635073625 0.512246 -0.002196091 -0.858836 50 50 50
-0.0712648842804669 0.0632991252252619 -0.0367839457619998 0.3638027 0.2976559 -0.8826373 30 30 30
-0.0712574277983556 0.0612709657331607 -0.0382177193829431 0.3387733 0.3476405 -0.8742875 19 19 19
-0.0634368280971351 0.0700180846674434 -0.0322927575612155 0.4298688 0.218077 -0.8761594 31 31 31
-0.0689702941204595 0.0675110927925384 -0.0344840456819378 0.3992536 0.09924383 -0.9114534 25 25 25
-0.0734457534358144 0.0704079122214827 -0.037378856533323 0.4545532 -0.01369111 -0.8906144 85 85 85
-0.0771207687306733 0.0613037469685791 -0.0396574525991837 0.3758591 0.1335936 -0.9169965 62 62 62
-0.0750862782740555 0.0642364906681547 -0.0379153946215353 0.3901564 0.1371984 -0.9104695 90 90 90
-0.0779937200055778 0.0648983373730494 -0.0393509186051819 0.4947948 0.07924776 -0.8653889 120 120 120
-0.0834177564138701 0.0618813419133604 -0.0434023977035776 0.5382848 0.01450337 -0.8426382 123 123 123
-0.0826559158408594 0.0639822193104977 -0.0427950313997506 0.5768567 0.04388538 -0.8156657 81 81 81
-0.0764477731630099 0.0676559792162303 -0.0390592001382961 0.4172062 -0.004921236 -0.9087985 70 70 70
-0.0806181942783882 0.0702173110549213 -0.0400317101077326 0.3902466 0.2085302 -0.8967847 92 92 92
-0.0853496396757733 0.0693074789490067 -0.0441838502910633 0.3421493 0.4888669 -0.8024606 190 190 190
-0.0657715809306062 0.076009806977847 -0.032420602514446 0.4217842 0.3591991 -0.8325107 98 98 98
-0.0675740126241979 0.0761992955501083 -0.0328224082614945 0.4300633 0.4372294 -0.7898582 113 113 113
-0.0717875842253246 0.0812117610768346 -0.0285929451580905 0.07785359 0.9924964 -0.09428585 176 176 176
-0.0751288823196681 0.0798656480284474 -0.0317674686057039 0.07192827 0.9391354 -0.3359331 102 102 102
-0.0725374934744855 0.0765645427038066 -0.0357511479125374 0.3869797 0.5093785 -0.7686223 113 113 113
-0.08729156765306 0.0799129173160882 -0.033402926457825 -0.1135408 0.9657734 -0.2332172 126 126 126
-0.0783493137425034 0.074903376434845 -0.038432256760881 0.2261625 0.4073505 -0.8848255 189 189 189
-0.079938324705156 0.0766045794306889 -0.0383652559664448 0.2753526 0.4625989 -0.8427237 162 162 162
-0.0852502884020045 0.0734656753689285 -0.0408188564297084 0.1792709 0.4018778 -0.8979734 193 193 193
-0.0830775015169731 0.0748648509705641 -0.0394016230238106 0.2521658 0.3701646 -0.8940864 103 103 103
-0.0805544359145657 0.078584105730418 -0.0368873537847597 0.189334 0.7119806 -0.6761925 178 178 178
-0.0856481066450564 0.0796710875121964 -0.0367198902899317 -0.01755448 0.930383 -0.3661685 119 119 119
-0.0834265294709886 0.078718328054693 -0.0379007408231094 0.2352894 0.730555 -0.6410369 128 128 128
-0.08794191353798 0.0790590196201455 -0.0392735665055594 -0.01796035 0.8511266 -0.5246531 149 149 149
-0.0863944635743346 0.0641597539403105 -0.0453600787775994 0.4787995 -0.01929699 -0.8777122 94 94 94
-0.0938088122077236 0.0786704773267748 -0.0331463927265808 -0.202432 0.894316 -0.3990242 149 149 149
-0.0902742455560938 0.0720541697550143 -0.0420350003202553 0.2937587 0.5253586 -0.7985638 103 103 103
-0.0931021460261038 0.0743610204155292 -0.0420689719719168 0.2417404 0.4634359 -0.852519 68 68 68
-0.094588244470367 0.0782474752874331 -0.0382301151546315 -0.01479454 0.9948586 -0.1001877 133 133 133
-0.103006449671647 0.0782575191420929 -0.0381964681494611 0.1095565 0.9841384 0.1395311 121 121 121
-0.105456201506529 0.0779391278772494 -0.0376046851598773 -0.08743236 0.964928 0.247527 94 94 94
-0.111000562716484 0.0773007037673377 -0.0383563270624641 -0.2182273 0.9598559 0.1762204 92 92 92
-0.0915172195835652 0.0622270537676599 -0.0480628547468498 0.4618477 0.0344351 -0.8862906 91 91 91
-0.0964150290230195 0.0587281461587705 -0.0503797645406964 0.4179853 0.1866744 -0.8890674 110 110 110
-0.095880994442775 0.06517485007774 -0.0490686407788562 0.2616777 0.2678937 -0.9272312 110 110 110
-0.090753621992137 0.0668635433187839 -0.0474802852501193 0.3478792 0.2579753 -0.9013483 119 119 119
-0.092781582210654 0.0701429698097329 -0.0466101928907331 0.2030786 0.6666132 -0.7172071 137 137 137
-0.0937270254205464 0.0650164983003483 -0.0485551697899904 0.3218386 0.1788909 -0.9297408 115 115 115
-0.0966939011345779 0.0686715926654629 -0.0482171884600371 0.275688 0.546674 -0.7906603 107 107 107
-0.101535112243657 0.0618292911409883 -0.052154541938853 0.3191063 0.182438 -0.9299933 128 128 128
-0.0990908055855539 0.0617096333703164 -0.0507635905443251 0.370208 0.1792691 -0.911487 84 84 84
-0.107572189580426 0.057647766376496 -0.052985385939168 -0.09310926 0.07541388 -0.9927958 163 163 163
-0.100721379049172 0.0684019290671982 -0.0491764410735231 0.3188123 0.4259317 -0.8467236 216 216 216
-0.104695743470002 0.0693788958150694 -0.0500838565963946 0.2211625 0.3733726 -0.9009329 225 225 225
-0.10751915686164 0.0626776310305621 -0.0525943040278172 -0.06891382 0.161416 -0.9844774 220 220 220
-0.106606057097033 0.0668671078385761 -0.0514150804288966 0.03900236 0.3219085 -0.9459671 174 174 174
-0.110885645229363 0.0684590916665009 -0.050507929052483 -0.0148492 0.2847375 -0.9584905 154 154 154
-0.0931121903573203 0.0737615007499173 -0.0427156666797379 0.2414514 0.4845911 -0.8407572 172 172 172
-0.0939317720589838 0.0704421758209868 -0.0457403464114509 0.2079623 0.6455691 -0.7348416 78 78 78
-0.0966423102600014 0.0749342112448741 -0.0429597558126442 0.3006243 0.5826654 -0.7550669 92 92 92
-0.0978396171978714 0.0753461429494013 -0.0436245888307181 0.3401783 0.5760407 -0.7432737 159 159 159
-0.0990601951252202 0.0740297834776447 -0.0447085716029705 0.4288317 0.4991663 -0.7529517 187 187 187
-0.101048437222174 0.0722764826125519 -0.0473195421054365 0.4546417 0.4867284 -0.7459198 184 184 184
-0.101806736828862 0.0744792986951042 -0.0461880567701412 0.4583242 0.5346463 -0.7099946 188 188 188
-0.101042487212789 0.0778381135895161 -0.041967584716772 0.3726163 0.8833838 -0.2842362 148 148 148
-0.106945357547499 0.0791615570767479 -0.0424488086150472 -0.1732253 0.9796628 -0.1012605 153 153 153
-0.105419172009114 0.0794341846230682 -0.044052899553234 0.116127 0.9119888 -0.3934347 226 226 226
-0.112317994371802 0.0770656480466123 -0.0431413828615165 -0.2361105 0.9499566 -0.2045343 91 91 91
-0.111004040249681 0.0759773028198296 -0.0454826447144706 -0.2621447 0.8220887 -0.505421 166 166 166
-0.150093588356466 0.0175475305852097 -0.0320668661536382 -0.9303153 -0.155131 -0.332337 123 123 123
-0.152248931269569 0.0267488848167363 -0.0307414013026832 -0.9315338 -0.135258 -0.3375651 79 79 79
-0.154441028805304 0.0330709951414068 -0.0281169252095245 -0.8850228 -0.1868018 -0.4264266 77 77 77
-0.150613899816963 0.0202926338250069 -0.0338985459318385 -0.9231645 -0.1707564 -0.3443973 72 72 72
-0.149030550548119 0.0223347309865909 -0.0375005188772941 -0.9307197 -0.1707151 -0.3234458 82 82 82
-0.150417191944979 0.0257489131863373 -0.0346013780628581 -0.9374362 -0.147285 -0.3154689 109 109 109
-0.149605008815968 0.024928852214938 -0.0373088140048334 -0.9278678 -0.1610551 -0.3363371 107 107 107
-0.14711531418784 0.0219157197719986 -0.0430554944563054 -0.7878427 -0.1541102 -0.5962834 125 125 125
-0.150815931344655 0.0303075921452514 -0.0362373768294577 -0.9414145 -0.134904 -0.309095 73 73 73
-0.15254728442724 0.0309572383760814 -0.0314962088822973 -0.9358342 -0.1055584 -0.3362614 90 90 90
-0.151956810834661 0.0334607791956487 -0.0334789769693684 -0.9447479 -0.1272694 -0.3020828 73 73 73
-0.151349738776201 0.0338606527507663 -0.0368790117001074 -0.9463778 -0.1309439 -0.2953349 103 103 103
-0.152181818331987 0.0381600270232254 -0.0346726379666029 -0.9505591 -0.0982483 -0.2945925 95 95 95
-0.156170977974294 0.0407074003087329 -0.0261169524791848 -0.875004 -0.1233529 -0.4681368 107 107 107
-0.153853149130889 0.0418898428531351 -0.0315142526033404 -0.8803332 -0.08996502 -0.4657465 105 105 105
-0.15336438547216 0.0426275588826441 -0.0326038232320693 -0.9127034 -0.09728862 -0.396872 113 113 113
-0.152088631599719 0.0442309376983991 -0.0379669879020826 -0.972231 -0.1138718 -0.2044508 125 125 125
-0.155120739291449 0.0510456726366122 -0.0316689053440619 -0.8557425 -0.2589515 -0.4479385 92 92 92
-0.157328981325141 0.0524304742725539 -0.0285735851541015 -0.7628329 -0.3082002 -0.5684177 71 71 71
-0.158207095653869 0.0581421045412516 -0.0312808995394629 -0.8146782 -0.1892867 -0.5481514 111 111 111
-0.158881670280351 0.0617085302058316 -0.0317780290489128 -0.8324724 -0.2137574 -0.5111727 158 158 158
-0.115489816054921 0.0289484957300792 -0.0490845696101545 -0.08298381 -0.1580918 -0.9839312 123 123 123
-0.106162493062075 0.0359890961274478 -0.0515764813830432 -0.1593458 -0.1863924 -0.9694673 135 135 135
-0.108694618807527 0.0341039977747633 -0.0500678988243686 -0.1428649 -0.174237 -0.9742849 129 129 129
-0.107085933064765 0.0380744686416246 -0.0518035644431699 -0.1664665 -0.167418 -0.9717305 125 125 125
-0.108484471123987 0.0410647922022589 -0.0514903394034792 -0.1620231 -0.1154601 -0.9800089 175 175 175
-0.117016016464986 0.0349759731320001 -0.0493360829060791 -0.09945488 -0.1111687 -0.9888126 113 113 113
-0.11730971774864 0.0387734650984952 -0.0501514672562061 -0.09798056 -0.1270799 -0.9870413 183 183 183
-0.11777925476546 0.040556712392358 -0.0503121674418352 -0.1260346 -0.106321 -0.9863119 156 156 156
-0.118694860982281 0.0325471316099712 -0.0492048486606567 -0.128728 -0.1467763 -0.9807578 147 147 147
-0.125993338626941 0.0273143324263805 -0.0469923004310211 -0.1520448 -0.1055796 -0.9827183 160 160 160
-0.125627665131549 0.0321301209503959 -0.0478095869615479 -0.2100217 -0.0660442 -0.9754635 92 92 92
-0.128012129498383 0.0372866609294547 -0.0471380647946955 -0.1903296 -0.07881781 -0.9785511 170 170 170
-0.117797759175581 0.0362956219478041 -0.0496351168197157 -0.09852152 -0.1117998 -0.9888349 112 112 112
-0.123278457722843 0.0378645572796303 -0.0488520672518416 -0.2639473 -0.1060733 -0.9586868 130 130 130
-0.1100992120273 0.0434043153291839 -0.0515620218000104 -0.1664002 -0.1035908 -0.9806018 146 146 146
-0.1171238743853 0.0410774051750142 -0.0501700178066687 -0.1121121 -0.1128711 -0.9872644 124 124 124
-0.123730520827067 0.0398072525397437 -0.0488457127189701 -0.2779714 -0.1063805 -0.9546806 137 137 137
-0.122505692364337 0.0439659155270693 -0.0496798016657171 -0.2714984 -0.1121988 -0.9558766 168 168 168
-0.12792093438668 0.0409788001223839 -0.0479082389773374 -0.1966405 -0.1174373 -0.9734172 137 137 137
-0.126493138637792 0.0435507781647291 -0.0483868867595892 -0.2591014 -0.109039 -0.9596754 136 136 136
-0.130409380566639 0.0422104625107509 -0.0474916125756256 -0.1376615 -0.1043326 -0.9849691 127 127 127
-0.125392025299712 0.049564598980135 -0.0495102344122942 -0.258478 -0.06384242 -0.9639052 176 176 176
-0.129798337816459 0.0493907258534623 -0.0482836498275832 -0.1996563 -0.06768402 -0.9775256 113 113 113
-0.108943006127412 0.0477432773003788 -0.0522022128516711 -0.153708 -0.1176575 -0.9810864 148 148 148
-0.118507534323712 0.0473280768888176 -0.0511296888694798 -0.1771937 -0.09120015 -0.9799413 161 161 161
-0.110248295162004 0.0556673459097645 -0.0527619244882077 -0.1462135 0.01361345 -0.9891594 166 166 166
-0.116748295997959 0.0508419165750054 -0.0519535422418023 -0.160203 -0.08221389 -0.9836543 194 194 194
-0.120263748174257 0.0544116318682282 -0.0510374251117163 -0.2613302 -0.03563168 -0.9645916 146 146 146
-0.12113670609427 0.050478663036255 -0.050560007322166 -0.2665876 -0.04643093 -0.9626917 147 147 147
-0.129198621433703 0.0251340416200507 -0.0464400002190565 -0.1216128 -0.1019951 -0.9873233 129 129 129
-0.133995114781661 0.0295267819515039 -0.0462578694301175 -0.09277912 -0.07913475 -0.992537 145 145 145
-0.137048946418741 0.0271470093178048 -0.0459339601108543 -0.09857502 -0.09567268 -0.9905199 184 184 184
-0.139859728391509 0.0260912318117459 -0.0456279855802474 -0.09392347 -0.06650849 -0.9933555 134 134 134
-0.136081085315079 0.0297886729760957 -0.0463307816863669 -0.0943495 -0.08708335 -0.9917231 164 164 164
-0.147054478375244 0.030417601475442 -0.0445124313290701 -0.5538064 -0.1215989 -0.8237185 226 226 226
-0.142072986598726 0.0380851089962919 -0.0458529873978266 -0.1242163 -0.1081663 -0.9863419 128 128 128
-0.134895144556821 0.0423086796484979 -0.0469527003275115 -0.0198104 -0.0810936 -0.9965096 101 101 101
-0.136987249702086 0.0435674426142421 -0.0471331488918335 -0.01514754 -0.06224917 -0.9979457 78 78 78
-0.135307185001625 0.0481457871956485 -0.0475881519514207 -0.06855533 -0.04459828 -0.99665 91 91 91
-0.139514000936051 0.0473055683293275 -0.047117540872707 -0.09069113 -0.02437501 -0.9955807 111 111 111
-0.146599429686468 0.0368499804277549 -0.0452482789436871 -0.4760571 -0.1308982 -0.8696179 168 168 168
-0.148360538441512 0.037947402492476 -0.0453767473850746 -0.5511591 -0.1140376 -0.8265706 163 163 163
-0.150286978883919 0.0381378855198802 -0.041506997760767 -0.8867769 -0.1708646 -0.4294556 135 135 135
-0.151072339926729 0.0401507406812496 -0.0412447426034433 -0.9201398 -0.122911 -0.3718005 126 126 126
-0.151716148411052 0.0429896947820572 -0.0404301966751025 -0.9403458 -0.1165577 -0.3196311 145 145 145
-0.143352004557876 0.0406934948218791 -0.0461921285082536 -0.1722901 -0.0716553 -0.9824366 178 178 178
-0.130548728750181 0.0508180320762768 -0.0480485502966178 -0.179214 -0.05516578 -0.9822623 82 82 82
-0.11222913168629 0.0573872369899957 -0.0523316861055088 -0.1049511 0.02936941 -0.9940436 168 168 168
-0.113231403810748 0.0608163806646356 -0.0524557318417982 -0.0899175 0.08074405 -0.9926708 141 141 141
-0.117907140007272 0.0545636653889801 -0.0519033281772601 -0.2004914 -0.0137488 -0.979599 243 243 243
-0.119699707463751 0.0585184355021757 -0.0509401532974649 -0.2062349 -0.001195889 -0.9785018 139 139 139
-0.117603671845141 0.0630911233538973 -0.0511222274095285 -0.1202438 0.06264875 -0.9907656 171 171 171
-0.12112690461545 0.064223284224592 -0.0513548217312174 -0.1538796 0.004862968 -0.9880776 110 110 110
-0.112817017160119 0.0677462700345028 -0.0514291772009133 -0.03439362 0.204237 -0.9783171 203 203 203
-0.120348534316752 0.0663293870088593 -0.0514250547472105 -0.08731474 0.09097976 -0.9920176 136 136 136
-0.122208205602449 0.0563692741651873 -0.05022640675869 -0.2417946 -0.03985704 -0.9695085 199 199 199
-0.126887621019936 0.0530121429574095 -0.0494439527114434 -0.2220826 -0.07293735 -0.9722959 136 136 136
-0.126302439323848 0.0633724617848406 -0.0495374535320063 -0.2180765 0.02945922 -0.9754869 83 83 83
-0.129726407864115 0.0612620505707766 -0.0490177549300759 -0.1662027 -0.04070378 -0.9852512 170 170 170
-0.114382320657613 0.0762696400435039 -0.0429041557412377 -0.09123695 0.986372 -0.1369166 111 111 111
-0.116221246369495 0.0761367475816046 -0.0470049614377368 0.1217829 0.8838561 -0.4516274 169 169 169
-0.118865687562277 0.0769635162918056 -0.0451048664492538 0.06736486 0.9923443 -0.1035126 138 138 138
-0.122838095821454 0.0767398874758207 -0.0436534450776166 0.1557824 0.9841294 -0.08497708 100 100 100
-0.119024176965809 0.0767396317515114 -0.0473474424485175 0.01739302 0.9012973 -0.4328517 215 215 215
-0.112026412363683 0.0732758693878066 -0.0486494110836369 0.003063719 0.6019313 -0.798542 171 171 171
-0.1151356330637 0.0729779900731917 -0.0503347638687318 0.03503795 0.4163709 -0.9085195 219 219 219
-0.119617996394331 0.0729473541783645 -0.0496586471843488 -0.06328645 0.462253 -0.8844869 228 228 228
-0.126074900874243 0.065784793616841 -0.0496791929409582 -0.2248365 0.05979766 -0.9725599 151 151 151
-0.129248143359117 0.0712011826471206 -0.0487486292193319 0.04639735 0.1449225 -0.9883546 121 121 121
-0.130482558692491 0.0686997760944501 -0.0487498193897282 0.02448036 0.02331872 -0.9994283 79 79 79
-0.12564861488576 0.0713561390776369 -0.0490171478621955 -0.1347281 0.2328341 -0.9631389 224 224 224
-0.129249343200992 0.0768366779947449 -0.0477409620618782 0.2212358 0.6441221 -0.7322305 192 192 192
-0.135651578811711 0.0722066638914916 -0.0499406470133534 -0.06214593 0.08626992 -0.9943316 142 142 142
-0.137591706306893 0.0497374018173029 -0.0473190746077334 -0.07360332 -0.02753069 -0.9969075 115 115 115
-0.137460927783505 0.0558969016570063 -0.047755722838735 -0.06613269 -0.06506739 -0.9956871 124 124 124
-0.142809233258455 0.050759368677638 -0.0466980067968055 -0.1272811 -0.06951409 -0.9894277 174 174 174
-0.153447936825283 0.0524734412668386 -0.0377217891584203 -0.9419187 -0.2178285 -0.2556168 90 90 90
-0.153846920394435 0.0559442598471822 -0.0404401497700209 -0.9460153 -0.2109013 -0.2461212 118 118 118
-0.149486619483712 0.0561021865180122 -0.0458401232931068 -0.4967262 -0.2083679 -0.8425235 139 139 139
-0.15305079757711 0.0555929774290274 -0.0427032602773346 -0.8406047 -0.2478459 -0.4816182 161 161 161
-0.157468319143437 0.064166089943245 -0.0364214491643256 -0.9024193 -0.142647 -0.4065601 158 158 158
-0.15361230767963 0.0589694355282082 -0.0425187412573353 -0.8879185 -0.1523092 -0.4340538 131 131 131
-0.153441700596242 0.0581707155541116 -0.0437587563872122 -0.7990835 -0.167887 -0.5773036 206 206 206
-0.15273819064856 0.0621789462310465 -0.0455392686015289 -0.6817205 -0.04809139 -0.7300304 212 212 212
-0.155073631898704 0.0657316640427772 -0.0417606092788249 -0.8463868 0.09718172 -0.5236269 166 166 166
-0.137070984070063 0.0599374907230583 -0.0480831786109928 -0.09872293 -0.09729373 -0.9903473 101 101 101
-0.140579605424445 0.0655920984723146 -0.0486786794152886 -0.1286992 -0.1018638 -0.9864382 121 121 121
-0.140161172283288 0.0716288347161107 -0.0488201882055881 -0.1457432 0.1026587 -0.9839818 157 157 157
-0.147661672131948 0.0687504976458939 -0.047500674839545 -0.3283844 0.1862614 -0.925997 143 143 143
-0.139587183361927 0.0714882429494477 -0.0491688850448085 -0.1633104 0.09076816 -0.9823903 175 175 175
-0.148830175885467 0.0664686414359867 -0.0471312048779889 -0.3727913 0.03693497 -0.9271799 177 177 177
-0.152971475710235 0.0693023937298831 -0.0438705075929254 -0.7135437 0.4444058 -0.5416261 218 218 218
-0.150349587772493 0.0720044384819651 -0.0444992584922592 -0.5667856 0.6809449 -0.4637544 127 127 127
-0.136003561404919 -0.0823451230865673 -0.00800909262257299 -0.1871411 -0.8206847 -0.5398656 100 100 100
-0.141370349865899 -0.076684643244959 -0.00536114676556404 -0.9507712 -0.2591919 -0.1698641 73 73 73
-0.142135992624254 -0.0743794835326894 -0.00151629135085779 -0.9784009 -0.1918349 -0.07701334 90 90 90
-0.142480566525198 -0.0722372831505944 -0.00379964530909288 -0.9844126 -0.1096423 -0.1375154 97 97 97
-0.14011542682649 -0.0777740977641552 -0.010662316057899 -0.7350208 -0.5745346 -0.3600757 172 172 172
-0.136067966152053 -0.0781580313013623 -0.0142376304309434 -0.2364578 -0.9285564 -0.2861307 78 78 78
-0.141197335836732 -0.0714983979100932 -0.0114448561996492 -0.9718432 -0.2336242 -0.03066709 81 81 81
-0.137536743967092 -0.077635160940176 -0.0232237095620899 -0.6051902 -0.7942874 0.05340674 109 109 109
-0.137735781669671 -0.0779032977209562 -0.0266533348062702 -0.7254654 -0.6836777 -0.0792767 125 125 125
-0.139775716186442 -0.075979691546783 -0.0169929401094564 -0.7149876 -0.6949683 -0.07623399 144 144 144
-0.141316218615674 -0.0727510449812849 -0.0178216473439092 -0.9256911 -0.3598221 -0.116722 91 91 91
-0.142284618587916 -0.0699927587761204 -0.0163699380817238 -0.9674826 -0.2444524 -0.06496563 103 103 103
-0.140763883344298 -0.0722866817538248 -0.0222478605241865 -0.9058841 -0.3686088 -0.2085701 159 159 159
-0.14116383860084 -0.0696231957609674 -0.0207136628808512 -0.947901 -0.2744045 -0.1618207 100 100 100
-0.141756625115822 -0.0680859077308831 -0.0236907081569962 -0.9299751 -0.3277608 -0.1664907 116 116 116
-0.142563282208616 -0.0710638886506139 -0.00103986650275362 -0.993136 -0.09900234 -0.06228403 71 71 71
-0.142591166536053 -0.0687355306805617 -0.00484081016055865 -0.9848803 -0.1460498 -0.09316814 92 92 92
-0.14406880078373 -0.0605205079798306 -0.0015317452156749 -0.9829401 -0.168319 -0.07414432 72 72 72
-0.14250317423632 -0.0655562782684096 -0.0045690982804234 -0.983104 -0.1765092 -0.04848767 43 43 43
-0.142759954993947 -0.0655276322197389 -0.0102964281782196 -0.9710495 -0.2376715 -0.02398033 100 100 100
-0.144510161173472 -0.0592460989076737 0.00368976837317836 -0.9854674 -0.1215663 0.1186412 60 60 60
-0.143618339115081 -0.0515257065598134 0.00666502818544107 -0.807053 -0.07397111 0.5858274 122 122 122
-0.146650907980155 -0.0487970578542436 0.001431718018088 -0.9582403 -0.2439393 0.1492282 123 123 123
-0.145732074379926 -0.0511188564266436 -0.00494299726999475 -0.9636093 -0.2611003 -0.05730338 129 129 129
-0.14432257772605 -0.0574746853767494 -0.0101346737430555 -0.9872341 -0.1575982 -0.02305757 85 85 85
-0.14325685709178 -0.0625296848942734 -0.0168384190542227 -0.9803323 -0.1919383 -0.04591532 71 71 71
-0.143593547928878 -0.0606597758616592 -0.0210838785278328 -0.9821323 -0.1862997 -0.02662022 78 78 78
-0.14433147493536 -0.056237484402307 -0.019471296158671 -0.9789416 -0.20414 0.0003913118 79 79 79
-0.14567651415249 -0.0504323150062287 -0.00941117404823649 -0.9666369 -0.2561127 0.004398161 114 114 114
-0.146364505225203 -0.0475904546316273 -0.00751298745130297 -0.9514883 -0.3060698 -0.03148463 104 104 104
-0.146062219281674 -0.0499164180331528 -0.0165233052096673 -0.9576965 -0.2862863 -0.02928481 151 151 151
-0.148384065050934 -0.043216711700331 -0.0129730410392167 -0.9550087 -0.2964153 0.009808744 89 89 89
-0.137297823544611 -0.073629858549785 -0.0352064886620682 -0.9426609 -0.2919557 -0.1617167 102 102 102
-0.139199768957268 -0.0703316214698675 -0.0285742730109914 -0.9177279 -0.371057 -0.1417466 106 106 106
-0.139510307002144 -0.0696963912182977 -0.0303062307921725 -0.913711 -0.3827239 -0.1365824 130 130 130
-0.142572344269993 -0.0640812466150344 -0.0250517738626355 -0.9471986 -0.3075959 -0.09055121 103 103 103
-0.138267977863801 -0.0715320514783198 -0.0337310408222342 -0.9340551 -0.3168453 -0.1647731 162 162 162
-0.139207328930091 -0.067233387225101 -0.0357417855956407 -0.8856661 -0.3507358 -0.3042694 106 106 106
-0.1350354750648 -0.0777643001620374 -0.0404402472575451 -0.7545643 -0.4284385 -0.4970646 133 133 133
-0.135988239534963 -0.0706596193245539 -0.0415763141255319 -0.7295764 -0.1304903 -0.6713349 206 206 206
-0.138449088784048 -0.0670891055818699 -0.0372567829362135 -0.8820586 -0.3193078 -0.3464321 89 89 89
-0.139692672342427 -0.0645800490994277 -0.0374296473076619 -0.834394 -0.3456375 -0.4293267 101 101 101
-0.138789178450728 -0.0603831167403719 -0.0410325030789835 -0.5551321 -0.2091869 -0.8050274 164 164 164
-0.144131998667709 -0.0590133005303106 -0.0247001005054807 -0.9787732 -0.2016862 -0.03640873 84 84 84
-0.145135105148402 -0.0530612209086065 -0.0217961934605491 -0.9699104 -0.2411608 0.03339562 77 77 77
-0.14333515309256 -0.058984420246184 -0.0290498111534248 -0.969853 -0.2129505 -0.1184783 165 165 165
-0.145182752204786 -0.0512182910993286 -0.0301004257028235 -0.9737111 -0.1404624 -0.179324 70 70 70
-0.145703375729577 -0.0488500779536385 -0.0242423967652244 -0.9820407 -0.1690805 -0.08371273 91 91 91
-0.147308128281526 -0.0459947299040222 -0.0188020429037977 -0.9656059 -0.2506457 -0.06915241 100 100 100
-0.146521624037718 -0.045209817140649 -0.0239010921773285 -0.9738207 -0.1763854 -0.1433921 101 101 101
-0.146974553974671 -0.0450111675372145 -0.0255244493217557 -0.9741604 -0.1532018 -0.165954 137 137 137
-0.142616930776404 -0.0576884263734636 -0.0359513465399426 -0.928925 -0.2228759 -0.2956766 150 150 150
-0.14402661792229 -0.0518468054469947 -0.0356223051510142 -0.9634621 -0.1723129 -0.2050588 61 61 61
-0.142312950722952 -0.0543785740334481 -0.0398348442396541 -0.7691353 -0.1907396 -0.6099585 189 189 189
-0.143675793507068 -0.0505703692788368 -0.0381044881245479 -0.9089546 -0.1792502 -0.3763921 104 104 104
-0.143325474913226 -0.0451380500773721 -0.041314660936053 -0.7580998 -0.1616814 -0.6317783 177 177 177
-0.144636067582808 -0.0465368325839339 -0.0336116054487559 -0.9747413 -0.1822918 -0.1290316 73 73 73
-0.146214864075439 -0.0399144711289128 -0.0325977476844036 -0.9880967 -0.09274476 -0.1227333 75 75 75
-0.14547623126744 -0.0408811351002296 -0.0378068348860315 -0.9227068 -0.08503485 -0.3760069 110 110 110
-0.145557841131654 -0.0387435304671655 -0.0380164200133538 -0.9300155 -0.08679625 -0.3571241 98 98 98
-0.144616125617513 -0.0350271639573057 -0.0416035960991447 -0.7335687 -0.07117769 -0.6758777 211 211 211
-0.147259435203519 -0.0440234517697466 0.00284127829834224 -0.8794673 -0.107478 0.4636656 131 131 131
-0.143699693414101 -0.0370181944624475 0.00685224260478412 -0.6621396 -0.07445179 0.7456729 107 107 107
-0.148422696352508 -0.0440955055708976 0.000318783552619495 -0.9466627 -0.1597656 0.2798299 143 143 143
-0.15007057469747 -0.0373765304988074 -0.000980798566141028 -0.9593103 -0.1393734 0.2455583 114 114 114
-0.149424210135946 -0.0339929665684298 7.13399513830315E-05 -0.9043328 -0.1321353 0.4058601 130 130 130
-0.148622270111477 -0.0439472886188017 -0.00497088654803507 -0.9543133 -0.2950023 -0.04753622 98 98 98
-0.149232110108167 -0.0399419566174715 -0.00606113563630095 -0.9741297 -0.2205093 -0.04946654 76 76 76
-0.150111706836639 -0.0371773372660953 -0.0068392205374892 -0.9846022 -0.1592225 -0.07215695 100 100 100
-0.148785382829939 -0.0415583512836837 -0.0140665504003649 -0.9746786 -0.222362 -0.02359733 96 96 96
-0.149242078867837 -0.0349050927208108 -0.0111170557301982 -0.9943998 -0.07352478 -0.07591463 110 110 110
-0.150425680154657 -0.0329944880292943 -0.00709455341907139 -0.9890487 -0.1059709 -0.1027272 139 139 139
-0.149443506152352 -0.0360189525532923 -0.013077775002448 -0.9981933 -0.0506468 -0.03232694 152 152 152
-0.150803269110073 -0.0312308618509938 -0.00505827456195207 -0.9916426 -0.1257154 -0.02899363 155 155 155
-0.151179014832319 -0.0250870716692184 -0.00182885630395796 -0.9684452 -0.08424685 0.2345558 157 157 157
-0.150840467223147 -0.0273464838010613 -0.00545061417547493 -0.9909471 -0.06658078 -0.1165801 138 138 138
-0.150330779098019 -0.0305321500494264 -0.00855697105212738 -0.9884508 -0.1045775 -0.1096747 93 93 93
-0.151072291141179 -0.0211561882266509 -0.00540400726331136 -0.9879685 -0.03863968 -0.1497507 91 91 91
-0.150881880709692 -0.0232755659947896 -0.00777848578456564 -0.9921421 0.00179556 -0.1251031 92 92 92
-0.151777123147695 -0.0238061222078028 -0.00411633528958327 -0.9966562 -0.01460569 -0.08039257 114 114 114
-0.149412885335355 -0.0187226334079735 0.00290462363757527 -0.7742966 0.007488785 0.6327785 132 132 132
-0.150952670376845 -0.00943865169059044 0.00174888509707793 -0.8573585 -0.2240333 0.4634065 81 81 81
-0.150725008256588 -0.0179506601232415 -0.00750032153699193 -0.9792177 -0.1190671 -0.164182 77 77 77
-0.150514275617639 -0.00804441881383644 0.00254915528939342 -0.8143336 -0.2235503 0.5356174 82 82 82
-0.152544880348443 -0.0053707902714546 0.0014222931345082 -0.9229729 -0.222704 0.3138854 31 31 31
-0.154987170803254 -0.00326789594108501 -0.00128258783121904 -0.9543926 -0.2838793 0.09245132 125 125 125
-0.149943791195746 -0.036838803209168 -0.0201117792602538 -0.9784269 -0.05349079 -0.1995486 84 84 84
-0.14915376247029 -0.0314169471393511 -0.0170345771270207 -0.9897243 -0.0001070271 -0.1429885 48 48 48
-0.147689684376486 -0.0334403902520048 -0.024519892382247 -0.9853475 -0.03224216 -0.1674836 49 49 49
-0.148529146752061 -0.0276105224935619 -0.0215346287947777 -0.9894828 -0.01002547 -0.1443027 83 83 83
-0.15033497451895 -0.0222207941218808 -0.00993809565295084 -0.9905844 -0.001557698 -0.1368942 73 73 73
-0.150419020387443 -0.0174303737910992 -0.0102556555599688 -0.9829324 -0.08415262 -0.1635919 76 76 76
-0.148735180984145 -0.0258656998257341 -0.0188838043061332 -0.9862961 -0.03642094 -0.1609148 62 62 62
-0.149905801373895 -0.0163101911028276 -0.0160627998269584 -0.9839371 -0.02690526 -0.1764763 108 108 108
-0.147133125592409 -0.0353534540224272 -0.0308077889630357 -0.9865882 -0.07589156 -0.1445136 79 79 79
-0.147655657594491 -0.0271542582058966 -0.0255203772158039 -0.9919708 0.03494037 -0.1215449 41 41 41
-0.146366190613306 -0.0340297462172348 -0.0325784776128803 -0.9820058 -0.04290285 -0.183913 80 80 80
-0.146597691747412 -0.0274941468913923 -0.0334916220798014 -0.970966 0.01257502 -0.2388869 98 98 98
-0.147793801371183 -0.0253280603180204 -0.0297092352891836 -0.9816088 0.08182545 -0.1724783 62 62 62
-0.147892406741908 -0.0224403122415462 -0.0240960513399704 -0.9783377 -0.01322121 -0.2065927 96 96 96
-0.147011824932894 -0.0211023930334218 -0.0268345274291621 -0.9858274 0.003712022 -0.1677219 51 51 51
-0.147378056083656 -0.0168555206211511 -0.0266766723634799 -0.986198 -0.01283904 -0.1650716 58 58 58
-0.147033784742798 -0.0146253372039624 -0.0314907481453023 -0.9920476 -0.01423173 -0.1250562 94 94 94
-0.150462883308066 -0.0147443286762325 -0.0112755647574761 -0.9740117 -0.1080178 -0.1990814 107 107 107
-0.15253021321292 -0.0117325290693935 -0.0074265019104961 -0.9277028 -0.1604597 -0.3370759 122 122 122
-0.151217116925802 -0.00982621933343553 -0.010893198362686 -0.9337075 -0.1402986 -0.3294033 125 125 125
-0.152754941489769 -0.00605602336023003 -0.00823585112311104 -0.9285496 -0.1750668 -0.3273335 63 63 63
-0.149939425242781 -0.0117788446018456 -0.0152684346533435 -0.9708358 -0.03565001 -0.23708 115 115 115
-0.151374862437249 -0.0055473681824274 -0.0124638387749089 -0.9231541 -0.2135064 -0.3196898 103 103 103
-0.156303702870303 0.000231105059552705 -0.00469779262938774 -0.9104794 -0.3262925 -0.2540877 90 90 90
-0.154251355499887 0.000380716375527834 -0.0104301339713458 -0.8944262 -0.2932744 -0.3376268 122 122 122
-0.154825445413609 0.00295789765137777 -0.0105686250870961 -0.8907527 -0.2849287 -0.3540837 119 119 119
-0.148060209197523 -0.0127736256997379 -0.023920752414447 -0.980962 0.006436171 -0.1940931 120 120 120
-0.149214899658659 -0.00862015916108527 -0.0175372801884078 -0.9589927 -0.0608469 -0.2768223 138 138 138
-0.148697048741172 -0.00682746598379924 -0.0216999792400146 -0.979533 -0.08667639 -0.1816655 143 143 143
-0.149129805295102 -0.00294176837057591 -0.021260319584251 -0.9470204 -0.171491 -0.2715572 112 112 112
-0.148066546185693 -0.00746239734569998 -0.0249170562257289 -0.987689 -0.07311422 -0.1382921 95 95 95
-0.147993236525597 -0.0059485888391928 -0.026367037469784 -0.9862716 -0.07339592 -0.1479233 108 108 108
-0.151118510856583 -0.00175529553204634 -0.0171361604774734 -0.9074602 -0.2405116 -0.3444853 111 111 111
-0.151420378883165 0.00170705553187944 -0.0176373597246109 -0.8861947 -0.2321154 -0.4009755 143 143 143
-0.153906483741809 0.005771993765181 -0.0149185580339037 -0.8877259 -0.2574249 -0.3816742 144 144 144
-0.152123152597342 0.00564775519781846 -0.0191215468566477 -0.8777926 -0.2694777 -0.396058 127 127 127
-0.150587668722584 0.00392446576691752 -0.020755093818177 -0.8965922 -0.2507858 -0.3650053 106 106 106
-0.152484648025094 0.00747367624482997 -0.0201607124997217 -0.8695509 -0.2849459 -0.4033448 109 109 109
-0.151762274341797 0.00946572477796748 -0.0225142077797917 -0.8888719 -0.2540632 -0.3812592 113 113 113
-0.158231791997105 0.00805567025482579 -0.00401338147579783 -0.9344574 -0.05512949 0.3517815 104 104 104
-0.155731069810327 0.0117817226751664 -0.00265145069459666 -0.817831 -0.05376163 0.5729417 108 108 108
-0.157666359532103 0.0116287321602135 -0.0101867955223056 -0.9246681 -0.2348496 -0.2997243 105 105 105
-0.158543420453333 0.0125211455901499 -0.00559857344327458 -0.9176885 -0.1835583 0.3523551 59 59 59
-0.162330693604371 0.0215866350667511 -0.00504759140007655 -0.8880233 -0.3454732 -0.3034188 136 136 136
-0.15597118706674 0.0101559421322279 -0.0133177858263839 -0.8828855 -0.2521049 -0.3961772 116 116 116
-0.156384806607038 0.0134582887198671 -0.0143189113462407 -0.8861942 -0.2428846 -0.3945464 62 62 62
-0.168543672801382 0.0485301136542402 -0.00557507079025166 -0.9832966 -0.1709072 -0.0625983 149 149 149
-0.160301076436333 0.0195397220700804 -0.00931038330605499 -0.9033991 -0.2270438 -0.3637597 121 121 121
-0.155598280470242 0.0149295953381727 -0.0165207044805903 -0.8929023 -0.2410855 -0.3802673 69 69 69
-0.156914817406439 0.0178029824080645 -0.015923050532471 -0.8992168 -0.2082068 -0.3847845 92 92 92
-0.160101048896965 0.0209777175115275 -0.00977254249978254 -0.8930459 -0.2445128 -0.3777334 55 55 55
-0.159661244354585 0.0209294010277445 -0.010895467741811 -0.8991638 -0.22026 -0.37814 92 92 92
-0.162129605448067 0.0273696543908974 -0.0109228043471805 -0.8108642 -0.4109117 -0.4167143 147 147 147
-0.157195706128422 0.0244425121917178 -0.0184735781145773 -0.9049601 -0.2106826 -0.3696756 99 99 99
-0.163729247003441 0.0307664199449105 -0.0120361666808352 -0.842109 -0.2882864 -0.4557887 109 109 109
-0.163946870802879 0.0318714303762493 -0.01359851498382 -0.8289899 -0.2600355 -0.4951336 150 150 150
-0.162489109476166 0.0532244982900949 0.00316828391309643 -0.533391 0.3719987 0.7596782 43 43 43
-0.165886632589385 0.036059971120989 -0.00823670303952695 -0.9343978 -0.2045621 -0.2916422 163 163 163
-0.165959327441185 0.0369241171987547 -0.00942352824263915 -0.9145814 -0.2145739 -0.3427813 120 120 120
-0.166809929148136 0.0394904613727352 -0.00793751490342093 -0.9463961 -0.1867437 -0.263555 108 108 108
-0.166280482232842 0.0428046081180695 -0.0118089323853089 -0.9106507 -0.206889 -0.3576483 119 119 119
-0.168867877456613 0.0475511096457355 -0.00389408955058157 -0.9896916 -0.1426232 -0.01300807 51 51 51
-0.168405624346842 0.045471523718448 -0.00661029846776345 -0.9829004 -0.127647 -0.1327144 103 103 103
-0.166773345635802 0.0457596717261548 -0.0107160621713674 -0.9459848 -0.1809904 -0.2689892 123 123 123
-0.167513870462982 0.0488095153330281 -0.0108453406510174 -0.9548358 -0.1482206 -0.2575251 80 80 80
-0.169264546753197 0.0536173411863701 -0.00578250427209781 -0.9983804 0.03896904 0.04144916 108 108 108
-0.145511427806474 -0.0328976487555015 -0.0391372422094759 -0.9167016 -0.008455256 -0.3994831 96 96 96
-0.1447883192576 -0.02914318730479 -0.0410599784079425 -0.7711847 0.003425374 -0.6366023 125 125 125
-0.144899628769038 -0.0228697887860716 -0.0395904035929925 -0.9139132 0.007656824 -0.4058374 80 80 80
-0.146207765063275 -0.0175596022995297 -0.0344039744710215 -0.9860521 -0.03755086 -0.1621457 77 77 77
-0.145990071878292 -0.0141181033132223 -0.0387333517662348 -0.9557342 -0.1271682 -0.2653308 77 77 77
-0.149240283956648 0.000418393974213505 -0.0384251014564313 -0.983146 -0.1027539 -0.1512135 72 72 72
-0.153753297423411 0.0171054002396074 -0.0224303212130871 -0.8998382 -0.2313839 -0.369801 94 94 94
-0.153378100041496 0.0193826771209906 -0.0252323657535017 -0.9068763 -0.2064209 -0.3673769 112 112 112
-0.15578803296967 0.0251659714677812 -0.0219573376630281 -0.8981228 -0.1530925 -0.4122355 104 104 104
-0.156226223028171 0.0290079177738849 -0.0223807771755148 -0.8817946 -0.163278 -0.4424687 113 113 113
-0.159315248966574 0.0347205160358897 -0.0192905560601623 -0.7981703 -0.2672648 -0.5399015 66 66 66
-0.153661351787594 0.0259870586501529 -0.0257723448566554 -0.9007418 -0.1194011 -0.4176213 111 111 111
-0.15564000942354 0.0348981662881422 -0.0267261237536524 -0.8921314 -0.1572881 -0.4235114 80 80 80
-0.160255504801972 0.0368033327504904 -0.0196846392532959 -0.8013884 -0.2533452 -0.5418421 119 119 119
-0.164301843988437 0.0401126016795077 -0.0143385575353238 -0.8563089 -0.2185548 -0.4679411 83 83 83
-0.158709883127713 0.0387290699310867 -0.0224254891548853 -0.8052048 -0.2126904 -0.5535413 101 101 101
-0.156768629971903 0.0393816447852786 -0.0244700236131045 -0.8693544 -0.1603841 -0.4674396 103 103 103
-0.161282302654856 0.0442469219717012 -0.0205079127547792 -0.8251433 -0.1599008 -0.5418213 102 102 102
-0.158200008031604 0.0448386471018067 -0.0254655114653559 -0.8172082 -0.2255903 -0.5303582 80 80 80
-0.160991522080189 0.0483731530085865 -0.0223497434315272 -0.8279776 -0.2382034 -0.5076537 71 71 71
-0.167611543320513 0.0509128651588378 -0.0130963872945572 -0.9215026 -0.1779859 -0.3451869 131 131 131
-0.166595988859222 0.0506420576565167 -0.0149444685033845 -0.8782749 -0.1919103 -0.4379539 113 113 113
-0.16804302365604 0.057275941071683 -0.0124647543403502 -0.9579839 -0.03621675 -0.2845261 123 123 123
-0.162793197635977 0.0516052606518771 -0.0209005032442438 -0.8235552 -0.2615625 -0.5033308 118 118 118
-0.163916485247033 0.052230756461553 -0.0197738856521235 -0.8195086 -0.2630226 -0.5091412 164 164 164
-0.164885677350936 0.0498442635005476 -0.0172959078145024 -0.8129148 -0.2196427 -0.539376 71 71 71
-0.16744920720379 0.0560806786143606 -0.0152416115093438 -0.9323056 -0.07634246 -0.3535225 115 115 115
-0.158309384311643 0.0473843952544151 -0.0258230771105593 -0.8154485 -0.2258379 -0.532955 112 112 112
-0.160656144498222 0.0562103021928406 -0.0269142553830486 -0.8591565 -0.1839171 -0.4775191 110 110 110
-0.160694673755942 0.056466139039441 -0.0290261262184481 -0.8352094 -0.1715667 -0.5224846 113 113 113
-0.160573933713457 0.0620231110759593 -0.028296314452506 -0.8484082 -0.1707979 -0.5010306 192 192 192
0.0305907897454825 0.0782519694097943 0.0446090781300141 -0.2339846 0.8992303 0.3696432 111 111 111
0.0274950048400831 0.0794046806184052 0.0402558275556772 -0.140679 0.8831732 0.4474533 125 125 125
0.0221086579572642 0.0783483242042937 0.0416517665327158 -0.09447747 0.9072196 0.4099104 114 114 114
0.029872205869241 0.0823743487466111 0.0351216085760521 0.05310974 0.9551851 0.2912059 24 24 24
0.0229224983994351 0.080917642600925 0.0350263763768398 -0.1750196 0.8365806 0.5191348 35 35 35
0.0193297853204982 0.0771417173754307 0.0430391472746549 -0.03580878 0.9085981 0.4161336 117 117 117
0.0120524401214373 0.07720281753269 0.0450479785823839 0.08211301 0.8981512 0.4319513 121 121 121
0.00928680913546115 0.0777280732355208 0.0425037096059155 0.05248363 0.9302419 0.3631741 112 112 112
0.0167023823090426 0.0795251518011881 0.036485930914218 0.06530314 0.9464995 0.3160287 13 13 13
0.0121882360747428 0.0802307993773206 0.0370307894143051 -0.01185003 0.9767194 0.2141934 32 32 32
0.00745360928166283 0.0799928503606036 0.035321790222813 -0.04510789 0.9796391 0.1956335 40 40 40
0.0275774231510623 0.08267582898637 0.0324694900252315 0.1046871 0.9432687 0.3150949 21 21 21
0.0202664920674924 0.0812518183345841 0.0336153037443733 -0.1480955 0.8206095 0.5519671 68 68 68
0.0189850763115614 0.0837802624454709 0.0313027089307545 -0.1346229 0.8084991 0.5728926 60 60 60
0.0299858257535808 0.0849945969630843 0.025697300815444 0.320746 0.8904994 0.3226962 50 50 50
0.0260885401333458 0.0878931455292604 0.0244061932095807 0.1064052 0.917102 0.38419 110 110 110
0.0214498724258367 0.0860330489018883 0.0254229686281154 -0.1385249 0.9476243 0.2877829 70 70 70
0.00823290131982807 0.0804630705140035 0.0342133737494801 -0.05579349 0.9715192 0.230299 30 30 30
0.0180341040858867 0.0857839855603857 0.0279369967617656 -0.1735964 0.9405501 0.2919414 65 65 65
0.00982773075089871 0.0835640946832485 0.0285534592519128 -0.2421965 0.8966002 0.3707409 69 69 69
0.00941291946921041 0.0839062584710157 0.0257384575150883 -0.1908617 0.9369327 0.2927951 47 47 47
0.00794350893470258 0.0842656828359627 0.0230893893108147 -0.1751238 0.9501463 0.2579798 103 103 103
0.00374257165197556 0.0774131426923823 0.044479872509891 0.183458 0.9183457 0.3506912 121 121 121
0.0046761190779156 0.0787029557638752 0.0418409502190343 0.1651976 0.9433441 0.2877702 95 95 95
-0.0021812078885769 0.0791023421009265 0.0446687302136526 0.04973112 0.9304398 0.3630546 81 81 81
-0.00483591134860417 0.0803263929352931 0.0420113305637418 -0.09967909 0.9683737 0.228728 51 51 51
0.00541034925972006 0.0805805029303142 0.0359944418831725 0.0004721082 0.9864157 0.1642673 59 59 59
0.00171626045622275 0.0803449741069351 0.0360984959107124 0.2012566 0.9684876 0.1467225 64 64 64
