ply
format ascii 1.0
comment File exported by Rhinoceros Version 7.0
element vertex 472
property float x
property float y
property float z
property float nx
property float ny
property float nz
property uchar red
property uchar green
property uchar blue
end_header
-0.141928555658483 0.0885236823621993 0.0691600281545232 -0.3707296 0.9270701 -0.05568327 117 117 117
0.143634604127756 0.0823833687860871 -0.0583011023234693 0.5658323 0.1624684 -0.808355 241 241 241
0.159683267463368 0.0753724955440596 -0.0413411237031376 0.7759064 0.3804266 -0.5032344 244 244 244
0.000527208668377188 0.0948021377750761 -0.0518030890174179 0.2255129 0.971752 -0.06958425 73 73 73
0.0599966119300306 0.071709270909242 -0.0637324537181256 -0.03438479 0.06886229 -0.9970334 191 191 191
-0.00723114496548627 0.0403391670499764 -0.0624495614554796 -0.05897896 -0.0189187 -0.99808 135 135 135
-0.106410660475869 0.072044239582929 -0.0371610008245063 -0.6769451 0.5614515 -0.4759386 166 166 166
0.175234869748908 0.0713878062054065 0.0548396450010762 0.7866923 0.6173452 0.0002241398 130 130 130
-0.0870461197384791 0.106949424212475 0.0304448601196752 0.1520175 0.968733 -0.1960794 116 116 116
-0.143540786967744 0.0885421172124776 0.0692522147513411 -0.3721445 0.92778 -0.0270684 149 149 149
0.1119849055799 0.0927592088214793 -0.0520377011295861 -0.1618388 0.9339859 -0.3185571 130 130 130
0.141120017427995 -0.0384321913614083 -0.0581347193109112 0.7646136 -0.1000757 -0.6366718 138 138 138
0.00924774404771878 0.0957059760494965 -0.0244502080304687 0.2098175 0.9569244 -0.2006797 115 115 115
-0.104461831193832 0.071473500008544 -0.0430618269083398 -0.6047147 0.7492815 -0.2699951 145 145 145
-0.104291435774849 0.065912326051601 -0.0595942486820297 -0.3908598 0.7973137 -0.4599123 158 158 158
-0.040885895819502 0.112502658005662 0.00162119801541571 0.3161822 0.9403799 -0.1253572 109 109 109
-0.0909798923328418 0.0712393499107895 -0.0575118974778732 -0.4852649 0.7710361 -0.4123363 94 94 94
0.0285676361325953 -0.0672497651571793 -0.0705910784669366 -0.07473326 0.09804403 -0.992372 170 170 170
0.0241991274750948 -0.139311571768455 -0.0404743618550179 0.2938876 -0.7729009 -0.5623648 142 142 142
0.0392689762540703 0.0619505470078143 -0.0645498038559119 0.09831801 0.06589463 -0.992971 209 209 209
0.0585929074309366 0.0804162298153603 0.0737713801524819 0.3360054 0.8984632 0.2826024 85 85 85
0.0277589586032199 -0.106084153941265 -0.0681486901308069 0.1000871 -0.3988199 -0.911551 231 231 231
-0.0211630509534482 -0.0565759883818149 -0.0700156347718759 -0.06040958 -0.003977743 -0.9981657 170 170 170
-0.0211922382059133 0.0879134273800986 0.0680957961038333 -0.03089667 0.8332313 0.5520607 45 45 45
0.0385163963659614 0.0843479782760228 0.0726832754383272 0.1929187 0.7625989 0.6174344 87 87 87
0.157201100364154 0.0919782554213326 0.0106776423903905 -0.009711891 0.9829994 0.1833518 127 127 127
0.0120750771052172 0.0930634363905849 0.0614197455728664 0.0330873 0.9325671 0.3594772 90 90 90
0.0525300799703587 0.0911063466487438 0.056648613067247 0.4706862 0.7860869 0.400652 49 49 49
0.128110256327749 -0.00978864831377835 -0.0751251032974822 0.1206785 -0.1466706 -0.9817965 201 201 201
-0.152001777079725 0.0796583051540327 0.0196415165813542 -0.9853939 0.1540983 0.07247435 79 79 79
0.104657235201568 0.0376167363041537 -0.0698247074267915 -0.1919472 0.1844417 -0.9639178 173 173 173
-0.142221872578034 -0.13002195677696 0.0369847019553831 0.5112213 -0.6645367 0.5450172 53 53 53
0.0725052583947297 0.0867416035497266 -0.0518046275144785 0.0862077 0.9889751 -0.1204015 64 64 64
-0.149743066050204 0.0416292328085457 0.0538386948725968 -0.9625137 -0.0699863 0.2620482 87 87 87
0.0171219525156028 0.048237369023691 -0.0642239765906054 0.1102163 -0.1831481 -0.9768875 171 171 171
0.0962414476905473 0.0360404097532463 -0.0685527586271859 -0.1324217 0.2634729 -0.9555347 178 178 178
0.034247026413436 -0.0887822402753333 -0.0712896826239129 0.06308705 -0.0559823 -0.9964367 182 182 182
-0.0618959674284629 -0.123250770297603 -0.0181500250413262 0.4192285 -0.7795241 0.4653919 101 101 101
0.107851502407776 -0.0162830966252092 -0.0731176770536068 -0.08092689 -0.03155051 -0.9962206 185 185 185
0.11584820059533 0.0809288514048536 -0.0673024960538915 0.04215496 0.07719448 -0.9961244 157 157 157
-0.107915368736256 0.0443224862608489 -0.0647122580401766 -0.09627534 0.1433214 -0.9849823 193 193 193
-0.129358534956335 -0.10364812956055 -0.0554975024647321 -0.1732813 -0.6171668 -0.7675146 235 235 235
-0.0347905901389152 0.086487196925491 0.0721696532961153 0.2635236 0.8586379 0.4396547 26 26 26
0.169519181704655 0.0294077348312614 0.012280102286422 0.9803911 -0.1455114 -0.1328902 127 127 127
-0.0540077481192669 0.0332055353846499 -0.0612621329312746 -0.0263459 0.1061966 -0.9939961 131 131 131
-0.0124066306244921 0.0999925161165984 0.0510360990916741 0.2484687 0.8756483 0.4141296 61 61 61
0.0903984394932476 0.0983454519665752 -0.00596667461815767 0.2173557 0.9758818 0.02027903 99 99 99
0.149644557059561 0.0932388616788196 -0.0117649276120383 0.1684848 0.9748859 0.1456374 148 148 148
-0.0782935969657439 -0.0342609047722648 -0.0638527310568313 -0.28661 -0.1269546 -0.9495984 176 176 176
-0.117205161459308 0.0925925748737233 -0.0165252021610765 0.1186817 0.9830878 -0.1394739 108 108 108
-0.0976994847703874 -0.0527439667230987 -0.0591843720343872 -0.08421953 0.09114508 -0.9922699 147 147 147
0.136418593538858 -0.0764382631681364 -0.0516126071913565 0.5245605 -0.2856045 -0.8020388 188 188 188
0.0259457044226283 0.0796193403851906 0.0822048656563048 0.05583536 0.7019107 0.7100731 51 51 51
-0.156023319380595 -0.00940153608759986 0.0222058712125802 -0.9553317 -0.1591385 0.2490306 31 31 31
0.149656186162529 -0.025807983607953 -0.0483566303665671 0.9054876 -0.2129411 -0.3670808 139 139 139
-0.13315967293941 0.017388953335792 -0.0618272287096975 -0.2970324 0.01881872 -0.9546819 185 185 185
0.0750120879482949 0.038999849570881 -0.0668804463231161 -0.03190918 -0.08974384 -0.9954536 233 233 233
-0.124629802652505 0.0942490470774009 -0.00801807130267415 0.1645055 0.9834452 -0.0759828 107 107 107
-0.131441252707013 0.0202078966799397 -0.0630338439915464 -0.2472685 -0.002221834 -0.9689444 172 172 172
-0.0902388210292444 0.0949088330401902 -0.00708176998753579 0.3026359 0.9394932 -0.1605115 112 112 112
-0.0533444029500174 0.0994051135972687 -0.0481427310899893 -0.5915238 0.7659786 -0.2517465 161 161 161
-0.0249690580843094 0.087930368294626 0.0677829639733639 -0.004208173 0.8338706 0.551944 86 86 86
-0.125842833888292 -0.00549205162897248 -0.0584998438026498 0.117251 -0.4620067 -0.8790916 173 173 173
-0.0335236402748857 0.0736163009909581 -0.0619060896994315 0.1477085 0.07210894 -0.9863988 110 110 110
-0.153971654367283 -0.111135870955458 0.0513573195795566 -0.972679 -0.1002928 0.209373 74 74 74
0.0928028600789834 -0.116962319061698 -0.044977765972248 0.2176923 -0.71957 -0.6594157 118 118 118
-0.0603849926682334 -0.00123266057144678 -0.0621147865732878 0.08734706 0.1001913 -0.9911267 175 175 175
-0.0370895971017093 0.0774718411448063 -0.0613077738058653 0.2186671 0.2282501 -0.9487289 129 129 129
0.0810125952029987 -0.109555880821843 -0.0535175539796653 0.2410674 -0.02286629 -0.9702389 133 133 133
0.0841700719796492 0.0877262064516324 -0.059891353741909 -0.09543532 0.9785831 -0.1823931 134 134 134
-0.14325187934231 0.080694933482498 -0.0305606216960186 -0.02093317 0.147375 -0.9888591 162 162 162
-0.107927440570896 -0.11974765690025 0.0139007410904523 0.5094354 -0.496107 0.7031027 45 45 45
0.152668287651593 -0.0444446516670387 -0.0351828324152423 0.9569094 -0.2789191 -0.08080031 117 117 117
-0.148424487052643 -0.152128601258972 0.0236192404049915 0.2318066 -0.8322804 0.5035623 72 72 72
0.0850528502714467 -0.0354931555019256 -0.0720620893595806 -0.07892101 -0.04929163 -0.9956615 191 191 191
0.178857113228341 0.0602514516372417 0.0458512981941026 0.9901304 0.1014181 -0.09672703 144 144 144
0.054434524401739 0.068328083037831 -0.0634912919168261 -0.005184565 0.04442195 -0.9989994 197 197 197
0.036045204479827 0.0909425449205166 -0.062978787660368 0.007198783 0.2821932 -0.9593306 154 154 154
0.152911773091365 -8.87244985192659E-05 -0.0591035432224402 0.8994585 -0.1867588 -0.3950892 201 201 201
0.144544972272185 -0.112272128423711 -0.0140321387031373 0.7169768 -0.6083619 -0.3403528 176 176 176
0.0500748257018522 0.072572838966249 -0.063313093514323 0.03497408 0.006168669 -0.9993692 184 184 184
0.0608792611667095 -0.00753445379476325 -0.0698081983687131 -0.1913897 0.2381238 -0.9521906 217 217 217
-0.112378715776541 0.0954639453785213 0.051975165426793 -0.3472266 0.9148422 -0.2061492 160 160 160
0.125601267532777 0.0172551410933692 -0.0754024526684933 -0.09202947 0.08885968 -0.9917835 139 139 139
0.160637008755259 0.0612117944231578 -0.0497860315569563 0.9424566 0.1972746 -0.2699228 198 198 198
-0.0329974015458143 -0.0461071928107148 -0.0690357374299604 -0.08832776 -0.08838629 -0.9921623 182 182 182
0.0357238607675723 0.0535493924611672 -0.0655653681961131 0.01438707 -0.1075318 -0.9940975 181 181 181
-0.0849807615552907 0.0935413509233587 0.0668773838814035 0.09928965 0.9400578 0.3262405 61 61 61
0.00794937377467075 0.0465946555457626 -0.0635928248326177 -0.1354143 -0.08781741 -0.9868896 183 183 183
0.130878551263288 0.0771240545653742 0.0691806531678509 0.115105 0.8673704 0.4841688 51 51 51
-0.0236501117893275 -0.00366794797492664 -0.0638655454159452 0.01993134 0.07336348 -0.9971061 149 149 149
-0.0839338861561081 0.05652656803361 -0.0663381625236235 -0.005843983 -0.02784227 -0.9995952 213 213 213
-0.048758789819455 0.0892224420472705 0.0736292192714423 0.1286277 0.856122 0.5005097 37 37 37
-0.143566405925848 0.0609638162663824 0.0881842833004783 -0.9780843 -0.03511579 0.2052265 50 50 50
-0.153138294144523 -0.118428333834827 0.0490450515503479 -0.9730094 -0.1002068 0.2078732 80 80 80
-0.0871688416818373 -0.0513506597879323 -0.0611155905719627 -0.188738 -0.06341991 -0.9799775 168 168 168
0.166673425161714 0.0421767979776266 -0.0210920962410278 0.973886 -0.0984462 -0.2045836 188 188 188
-0.139592704505416 -0.0696577152768039 -0.0530907097559673 -0.2726358 0.2054581 -0.9399238 152 152 152
-0.152850291496195 0.0457017753179854 0.0205849735264341 -0.9826477 0.1180905 0.1430324 112 112 112
-0.0377573062795902 0.0723150305646922 -0.0626484982561558 0.1718203 0.03030729 -0.984662 93 93 93
-0.14142470422948 0.0594546323132281 -0.0328722947523559 -0.0001338092 0.07471217 -0.9972051 155 155 155
-0.0356372470870805 0.107139357273598 -0.00724944271921998 0.02515211 0.8942083 -0.4469439 161 161 161
-0.124183263137577 -0.0782615784445302 -0.0578817987817346 -0.1958472 0.2691733 -0.9429685 167 167 167
-0.147460158721869 0.0744233779832375 0.0471663196775056 -0.9545667 0.1166489 0.2742179 54 54 54
-0.0155077547588194 0.100765351312353 0.0537263593504701 0.2079634 0.8701614 0.446733 97 97 97
0.0131634374156135 -0.0159946548183987 -0.0641989237776508 0.05065003 0.34126 -0.9386033 172 172 172
-0.156951888561021 -0.0987971931679379 0.0323363927953856 -0.97813 0.05210168 0.2013629 67 67 67
0.115207706887974 -0.0356714700892105 -0.0717191555822204 -0.1185189 -0.1803354 -0.9764386 197 197 197
-0.152991613170016 0.0469521012805281 0.0400156264756892 -0.9883223 0.1320296 -0.07607332 93 93 93
0.0887006782937072 0.0645715278459484 -0.0662961501028369 -0.05046465 -0.03086438 -0.9982488 193 193 193
-0.109142758065113 0.0901526627870859 0.0204650530997476 -0.3104181 0.946815 0.08474673 74 74 74
0.172415433278832 0.0804047215024375 0.0282986962931863 0.8348133 0.5431321 0.08996847 168 168 168
-0.107345185735413 0.1012713662777 0.0317749624993342 -0.8833183 0.4687578 -0.003857974 87 87 87
-0.0223832725715516 -0.0114683208162991 -0.0642693251048374 0.1369341 0.08946584 -0.9865318 161 161 161
-0.0763289111448522 -0.052126454580798 -0.0635786338029033 -0.2739328 0.01161857 -0.9616786 116 116 116
0.13221850139433 0.0884117257052504 0.0453246296352999 -0.02153393 0.9842271 0.1755944 113 113 113
0.0181630761030811 0.107901274604763 0.0181761417972841 0.1875602 0.98118 0.04590327 104 104 104
-0.0539317278272864 0.113043462543055 0.0153463911357105 -0.1959462 0.9550984 -0.2222435 119 119 119
0.0709986164933238 0.101709747493086 0.0097723468492813 0.1932496 0.9811471 -0.002248697 125 125 125
0.0799905589919412 0.0998088352995279 0.00361915951303357 0.1397482 0.988714 0.05399114 153 153 153
0.0458391923308779 0.10285203246082 0.0337254861079355 0.08407735 0.9720473 0.2192145 122 122 122
-0.062241142450735 -0.109357538610133 -0.0624800220197857 -0.1117066 -0.398142 -0.9104969 197 197 197
-0.0842793482180895 0.106236594418209 0.0223724102974552 0.03573152 0.9947829 -0.09555241 105 105 105
-0.149718050408823 0.0914988848913814 -0.0062693649485713 0.09947036 0.9537753 0.2835811 60 60 60
0.0295537034232787 0.105826403089479 -0.0202250094959054 -0.1288648 0.9507931 -0.2817556 169 169 169
-0.0940687886345182 -0.0818952665142041 0.0325651795955623 0.4464047 -0.4355268 0.78169 29 29 29
-0.0848978993822196 -0.000982999256720962 -0.0583777582980486 -0.1066392 0.1683778 -0.9799373 125 125 125
0.15951833587544 0.00351796285129868 -0.0418733480350195 0.951169 -0.03989181 -0.3060819 98 98 98
0.161942516593722 0.0205929139935566 -0.0398437461763243 0.9584424 -0.106407 -0.2646991 136 136 136
-0.0722142363073752 0.0999931451728748 -0.0032024360257738 -0.4855629 0.8382159 -0.2482392 139 139 139
-0.0340255908968254 -0.121346232227189 -0.0589323601827819 -0.175117 -0.6512424 -0.7383883 175 175 175
0.15822224924796 -0.0427153102291438 0.00183364755627599 0.9337448 -0.3166972 -0.1668039 163 163 163
-0.102574792301015 0.100910946817082 0.0069979424988697 -0.1605555 0.9831303 -0.08761767 136 136 136
-0.109670806662392 -0.0912813810765354 0.0390498131021768 0.5839494 -0.5387443 0.6072542 83 83 83
0.104177234569215 0.0458804650583462 -0.0686158393192899 -0.1866564 0.06624742 -0.9801891 169 169 169
0.0477879955202343 0.0207495593580951 -0.0626420992209453 -0.06265464 0.08305195 -0.9945737 175 175 175
0.154718046922119 0.0558922720131252 -0.063632597845879 0.6338994 -0.01390817 -0.7732905 197 197 197
-0.118094594089416 0.0872309586377025 0.0827178288802791 0.04573887 0.8188153 0.572232 68 68 68
-0.0778259466704196 0.0951625938666394 -0.0123869277969336 -0.4380178 0.8829381 -0.168999 100 100 100
0.159751688967418 0.0431618954568638 -0.0518457594196077 0.9027599 -0.1661459 -0.3967622 140 140 140
-0.0347784315650093 0.0994633447412794 -0.0372145017579599 0.3334318 0.8799292 -0.338449 127 127 127
0.00715334558179048 -0.0629775499366028 -0.0680957742991837 -0.09767956 0.09625202 -0.9905525 97 97 97
0.130332954691859 -0.0508276650500923 -0.0647079634311518 0.2997536 -0.4502548 -0.8410817 186 186 186
-0.14202406985417 0.0245044418529279 -0.0574010801359341 -0.4117891 0.2558504 -0.8746258 177 177 177
-0.154914718436225 0.0728664905909688 0.00164078798102127 -0.991362 0.07904848 0.1046551 150 150 150
0.16949364105731 0.0252094517702308 0.0119596701317711 0.9819145 0.006302918 -0.1892201 139 139 139
-0.0908037102670289 -0.138843997618275 -0.024461810754734 -0.06146599 -0.7494636 -0.6591861 195 195 195
0.0412073809129541 0.0943616463799328 -0.0547131814499324 -0.2408648 0.9656289 -0.09769884 115 115 115
-0.151320649910914 0.0660638676964524 -0.0146083653744499 -0.9445647 -0.1679597 -0.2821118 97 97 97
-0.0816278651132598 0.100917249374393 0.00844654485405205 -0.4855552 0.7603873 -0.4313321 158 158 158
0.153470539032426 0.0118430764235649 -0.0583207157984333 0.9384968 -0.02687007 -0.3442409 155 155 155
-0.0357993941989876 0.101289270927596 -0.0331589340670568 0.2727258 0.889837 -0.3658015 139 139 139
-0.149345938021155 -0.0423962034781269 -0.0535221399213166 -0.06472876 -0.06353118 -0.9958785 193 193 193
-0.161277207915134 -0.081210621671064 -0.0460071514612238 -0.1994722 -0.2564158 -0.9457599 174 174 174
0.127117136865192 0.0833834725115326 -0.0660299457727405 0.2479934 0.1902943 -0.9498881 143 143 143
-0.159398068653744 -0.106873633509147 0.0200297351431095 -0.9868017 -0.0336321 0.1584025 94 94 94
0.13621195856466 -0.0469636498519366 -0.0627686237471986 0.6477951 -0.1869555 -0.7385182 207 207 207
0.0597586095312157 0.104553144076486 -0.0131416467452112 0.2295403 0.9708256 0.06934645 72 72 72
-0.163302523163005 0.00433447549514732 -0.0452569704703329 -0.8527284 0.4199896 -0.3105852 115 115 115
0.164502786765002 0.0851043559734688 0.0303366769899072 0.191043 0.9389905 0.2860059 110 110 110
0.156683226864713 -0.00785104307195805 -0.0463426451808954 0.8930025 -0.2913956 -0.3429797 190 190 190
-0.0937239246436934 0.0247505412562568 -0.0637746713183741 0.7090112 0.005296403 -0.7051774 153 153 153
0.0844438521687469 0.0746810744330564 0.0694434326827293 -0.02883648 0.9464844 0.3214585 48 48 48
-0.161175741661523 -0.120279522714831 0.0108546548628984 -0.9826015 -0.03018443 0.1832575 73 73 73
0.071129933870572 -0.0164553203142188 -0.0730905549541539 0.07022606 0.03452013 -0.9969336 210 210 210
-0.16133882800812 -0.12062723711484 0.00880705671660773 -0.9826579 -0.02377525 0.1838972 97 97 97
-0.138168156162077 0.0638192346294009 -0.0328071816811511 -0.04424796 0.05282667 -0.9976229 148 148 148
-0.013773239749777 0.0935785953394779 -0.0554761155706231 -0.02818401 0.9557824 -0.2927212 130 130 130
0.0443153288434965 -0.107690094314183 -0.0673067450361156 0.1848109 -0.3467159 -0.919583 173 173 173
0.0412149461000184 0.102138660509466 0.0343051592156677 0.06432365 0.9386244 0.3388905 74 74 74
0.169978971022386 0.0401750935172636 -0.00126438974197868 0.9947595 -0.05945101 0.08318089 114 114 114
-0.0865274782448755 0.0842689830142926 -0.0329663450375013 -0.440591 0.7737279 -0.4552194 156 156 156
0.075001328874575 0.100331192752931 -0.00503002372985825 0.1442164 0.9891354 0.02850876 163 163 163
0.0506701040307638 0.102202495183036 0.0277015408480475 0.1184798 0.9911571 0.05975043 112 112 112
-0.159637019208947 -0.131656879426238 0.0138750743690124 -0.9863783 -0.08770164 0.1391628 79 79 79
0.178124668812266 0.0364900117298637 0.0530087632213289 0.9987728 0.0288787 -0.04023558 84 84 84
0.00216750744658611 -0.0417992361169019 -0.0679336509480771 -0.205661 -0.2184437 -0.9539318 182 182 182
-0.156095962156332 -0.0901998854358157 0.0355920361928719 -0.9556118 -0.0001493233 0.2946287 27 27 27
-0.0682216538955882 0.102159237192483 0.0470330330557551 -0.1113724 0.8679617 0.4839821 66 66 66
-0.000548662625909024 -0.141352478579408 -0.0449410311484442 -0.1210412 -0.723941 -0.6791601 212 212 212
0.0804635905424438 0.0442492707198501 -0.0666914097269089 0.03823788 -0.0523867 -0.9978945 182 182 182
0.0076741340120372 0.0807714986619037 -0.0643371768469932 0.1319612 0.1074195 -0.9854173 208 208 208
-0.158188190708771 -0.103287069911495 0.0270307263839399 -0.9821475 -0.02025169 0.1870193 44 44 44
0.00101381657467892 0.0949985554082076 -0.0462582261622453 0.250273 0.9648858 -0.07974236 82 82 82
-0.0331641315956688 0.0490785887445373 -0.0599139851781754 0.1269324 -0.0578096 -0.9902253 165 165 165
0.130355698098505 0.0917340844839656 0.0234101192274749 0.1660229 0.9829151 0.07946221 111 111 111
0.165007271624681 0.0113284011084736 -0.0216562876156026 0.9588428 0.07945092 -0.2725951 167 167 167
-0.158226898528701 -0.134783492673442 0.0217929500989639 -0.9773117 -0.07572861 0.1978057 113 113 113
0.00322407245394896 -0.148786335799352 -0.0339924314432267 0.1737887 -0.8874165 -0.4269537 192 192 192
-0.0473524016150209 0.106590911896654 -0.0281142016998653 0.1366008 0.9605069 -0.2424187 75 75 75
-0.146724057160219 0.0658611342105191 0.0761155371764173 -0.9818609 -0.1041155 0.1584584 47 47 47
-0.0342292986900352 0.0532286377971083 -0.0605153393042561 0.04048022 0.01903566 -0.998999 129 129 129
-0.115828170331408 0.0104440690810073 -0.0632518356367248 0.1095145 -0.3737734 -0.9210321 201 201 201
0.115275653897072 -0.148104236213957 -0.00122937367543197 0.388254 -0.7828829 -0.4861617 178 178 178
0.03260299753267 0.070248627933039 -0.0635439163379946 -0.1501682 -0.01243766 -0.9885823 151 151 151
0.0454587614379371 0.104415436355051 0.00590817045386283 0.08661111 0.9948195 0.05322215 121 121 121
0.0642817739485406 0.0174607547434864 -0.0659148345190353 -0.1798886 0.1317907 -0.9748186 185 185 185
-0.0627535841230036 0.0972318293741024 -0.0398465826392449 -0.4452677 0.8772252 -0.1794789 166 166 166
0.152994235102687 -0.101520137662937 0.0002339543019311 0.9599644 -0.2090771 -0.1864274 165 165 165
-0.0224041729435189 0.0656105856565319 -0.0598908336229812 -0.1391833 -0.06312885 -0.9882524 178 178 178
-0.0695485462262626 0.031390111711058 -0.0602520711900927 0.01510985 -0.08356978 -0.9963874 159 159 159
0.067687863504585 -0.110679720305918 -0.0560604181124449 0.2353703 0.04319759 -0.9709453 192 192 192
0.0664590238210589 0.100520767713943 0.0256898762237023 0.07708164 0.9833776 0.1643985 137 137 137
-0.0590285300518345 -0.0915334208234575 -0.0640440849118897 0.05880999 -0.1886406 -0.9802837 157 157 157
-0.077424774477024 0.0781131815373579 -0.0603543063924513 -0.1609137 0.6730656 -0.7218653 175 175 175
0.00514141327048678 0.0436671325674804 -0.0627724501617531 -0.131479 -0.1214147 -0.9838555 171 171 171
0.107013852898345 0.0654674782694067 -0.0680926985763901 -0.0008762488 0.04312111 -0.9990695 207 207 207
-0.091458643403826 -0.136272008562321 -0.0278501930142822 -0.07902026 -0.7738643 -0.6284027 243 243 243
0.173909466914635 0.0574218907466222 0.00604695670935829 0.957262 -0.02867689 -0.2877969 148 148 148
0.160878203865921 -0.0455149608706871 0.0247637325624819 0.9936957 -0.03165485 0.1075493 127 127 127
-0.0400172926944702 0.10458405786479 -0.0285103231116287 0.1981285 0.9314888 -0.30508 100 100 100
-0.156736404685215 0.0245527390215587 0.0127080030166692 -0.9709442 0.2273108 0.07481357 69 69 69
-0.107587448900257 -0.0013183001145447 -0.0576273748824852 0.03515323 0.002190837 -0.9993795 129 129 129
-0.0906828148457652 0.0743236196224819 -0.053083282071626 -0.5909116 0.7326276 -0.3377577 110 110 110
0.0196041006979812 -0.0183554505143935 -0.0645110276412831 0.01660431 0.2691809 -0.9629465 223 223 223
-0.133467035041434 0.0974543793233362 -0.014342332128079 -0.02405062 0.9957823 -0.08853889 62 62 62
0.114373029847601 -0.130803785373579 -0.0251000884693617 0.3532412 -0.71478 -0.6035811 167 167 167
-0.0980839759296819 0.097982443592092 0.0654529808090434 0.1627378 0.8682088 0.4687535 53 53 53
0.0618342924708801 -0.0420232712469975 -0.0718427648814648 0.1241956 -0.1248391 -0.9843732 169 169 169
-0.150501786005152 0.014473219531504 0.046428039475484 -0.9608427 -0.09272187 0.2611207 53 53 53
0.00598923724713352 0.110003442665619 0.0129870131754431 0.09088435 0.9931988 -0.07277521 87 87 87
-0.0260308818204553 0.0255979276708875 -0.0625450303038807 -0.03430057 0.183791 -0.9823667 224 224 224
0.0439379605228516 0.106711552069381 -0.0118004304167718 0.144115 0.9873151 0.06663233 89 89 89
0.171142283965763 0.0749339419109174 0.0535981154259972 0.5185179 0.8433997 0.1407699 181 181 181
-0.144526496628938 0.0861836233891975 0.0755219291939929 -0.8967828 0.4336759 0.08778299 154 154 154
-0.0696929054696627 0.0914055493700716 0.071933794723968 -0.08012415 0.8761939 0.475252 64 64 64
0.146234899137826 0.089134440443045 0.0189598773212353 0.107631 0.9893788 0.09769985 132 132 132
0.148718405042332 -0.0665920448934636 -0.0349505253473737 0.9660582 -0.2301428 -0.1173278 105 105 105
-0.144853851232845 0.0899130931064571 0.00123172989835649 -0.003776305 0.9995854 0.02854405 140 140 140
0.0925269543796854 0.0539209671708907 -0.0671771888267963 -0.1034551 -0.0451217 -0.9936101 210 210 210
-0.153911694450659 0.0298632285971003 0.000878944181484959 -0.8800077 0.458851 -0.1226467 136 136 136
-0.116222821759647 -0.0924121664411528 0.0449546948363127 0.6050544 -0.4448543 0.6603134 40 40 40
-0.150549075858322 0.0520413292633934 0.0379263744040404 -0.9801482 0.09953013 -0.1714739 112 112 112
0.0441288203075132 0.0860889551050643 0.0704662240844895 0.1773246 0.7973326 0.5769026 119 119 119
0.0685213281211023 0.0799936354244912 0.0626993836750236 0.3147311 0.8874648 0.3366758 64 64 64
0.011429156336463 0.109192755929742 0.0239477935144057 0.2065176 0.975628 0.07416569 137 137 137
0.0122902341198858 0.0703874855689941 -0.0644343058406815 0.1800068 0.02766899 -0.9832761 222 222 222
-0.102664346890214 0.0677592973698173 -0.0579668029509882 -0.2621986 0.9214677 -0.286617 169 169 169
-0.0408381220848733 -0.135024409273014 -0.0427954725145274 -0.3097383 -0.7069399 -0.6358444 201 201 201
-0.15239907569117 0.0253521661444494 -0.041652340516569 -0.8137254 0.5641935 -0.1397736 147 147 147
0.0695358116262725 0.00540315003061687 -0.0672809372674007 -0.1214173 0.235107 -0.964356 150 150 150
-0.168761994343621 -0.0281883657870137 -0.0446104540194271 -0.7005271 0.02224378 -0.7132791 190 190 190
0.148326087325862 -0.112532089790436 -0.0085771315141577 0.8717624 -0.4100643 -0.2681 131 131 131
-0.14966892391924 0.0423342410708134 -0.0127176977713591 -0.9577369 -0.1224485 -0.2602814 132 132 132
0.103808961790295 -0.0958368667752714 -0.0503858043310473 0.03460521 -0.2005418 -0.9790738 213 213 213
-0.123587967798208 -0.146910609581385 0.00197585369612582 0.4115119 -0.767005 0.4923019 128 128 128
-0.00315168459607085 -0.00307109554574758 -0.0623275123084839 0.06913657 0.06090328 -0.9957464 140 140 140
-0.00601008043989637 0.0895386693560696 -0.065043765356364 -0.0561358 0.3581365 -0.9319801 203 203 203
-0.120398493017275 0.093408441827991 0.053534980009768 -0.167302 0.9853823 0.03212066 117 117 117
0.0962548474226748 -0.122974278351448 -0.0390892261540477 0.2205247 -0.6984894 -0.6807947 164 164 164
-0.025123184068117 -0.0474052067644795 -0.0696257272199123 -0.04511199 -0.05176455 -0.9976399 188 188 188
0.159880482520464 -0.00890573306229769 -0.0346946642177529 0.8964588 -0.3822845 -0.2240985 112 112 112
0.114581215563822 0.0896412480555751 0.034492728914956 0.04496115 0.9276283 0.3707887 71 71 71
-0.115226303441025 -0.0987241099517935 -0.0610804026475857 -0.1995324 -0.3885018 -0.899585 198 198 198
-0.0748064166961857 -0.0619803425984187 0.032511179867235 0.4816346 -0.4592814 0.7463837 18 18 18
-0.112785813938085 0.0930445903562303 -0.0104339225957437 -0.2004622 0.9727389 -0.1165933 85 85 85
-0.105060088661292 0.0965572635054823 0.0511256007652461 -0.2803554 0.9308765 -0.234243 75 75 75
-0.0484004580747688 0.0735669296413981 -0.0641292886084323 0.1260554 -0.05519949 -0.9904863 134 134 134
-0.073619567794756 0.00498800064790994 -0.0613802572092929 -0.1535374 0.07314732 -0.9854317 169 169 169
-0.0839115434910336 0.0842063872430328 0.0832189761308177 0.101654 0.8810059 0.4620553 36 36 36
0.0432708006716216 0.00579364259761572 -0.062865530743577 -0.131816 0.1018628 -0.9860266 137 137 137
0.0851755238152219 0.0202782316949437 -0.069847076583649 -0.326407 -0.0202682 -0.945012 126 126 126
0.103905264321748 -0.0381957027096107 -0.072184910374783 0.01934218 -0.167831 -0.985626 218 218 218
-0.0377247555847018 -0.135864328708985 -0.0435815542642577 -0.2780677 -0.6426091 -0.7139552 182 182 182
0.149340808885075 -0.0838512669234606 -0.0246678782000945 0.9199038 -0.107478 -0.377128 197 197 197
0.117459160559808 -0.0168700614952277 -0.0735531247001213 -0.06851891 -0.1206402 -0.9903288 189 189 189
0.0552547090289974 -0.124071006898516 -0.0491302462982779 0.1915722 -0.8192238 -0.5405298 138 138 138
-0.0573676101858531 -0.121003957936789 -0.017987956318749 0.2673005 -0.9019345 0.3392118 77 77 77
-0.111405953023041 0.0648552038031145 -0.0396571476360845 -0.6012651 0.7766994 -0.1876656 179 179 179
0.0879781193710483 0.0991487452451867 0.00491357260966349 0.1415715 0.9883628 0.05564509 122 122 122
0.159224478198307 -0.0169941306856465 -0.0271257699138574 0.9105235 -0.278713 -0.305395 129 129 129
0.0620836511487477 0.100419261085656 0.0267586260666547 0.1457628 0.9861131 0.079587 101 101 101
-0.148332766540377 0.0957607093292989 -0.0268099328132753 -0.2252191 0.5517677 -0.8030123 172 172 172
-0.126230944386076 -0.0521676197004675 -0.0534283331864185 -0.1286725 0.1053088 -0.9860798 177 177 177
-0.0780165492492579 0.0518440095793966 -0.0658754298638466 0.2215467 -0.2914439 -0.9305791 228 228 228
-0.0324481173588111 0.101305114419829 -0.0317416465027849 0.2436901 0.8849956 -0.3967341 107 107 107
-0.135531347096592 0.0933718074521408 -0.000291789701692968 -0.3527244 0.9162155 0.1900911 100 100 100
-0.0922791026903087 0.102806523459692 0.0213076444688969 0.08689111 0.9735495 -0.2113087 127 127 127
-0.157558210629243 -0.12924591899309 -0.0157118620730714 -0.6237893 -0.4521578 -0.6375267 176 176 176
0.0202205373422615 0.108270142901336 0.00341161987689387 0.1159901 0.9923648 0.04193232 114 114 114
-0.0892990484081109 0.100268543487789 0.00870640950483839 0.06983129 0.9607497 -0.2684837 131 131 131
0.00486268224066766 0.0388710693524779 -0.06209017802268 -0.05520993 -0.1449185 -0.987902 179 179 179
0.0084458910537708 0.0305184373930654 -0.0615971220140675 0.01094718 -0.08429226 -0.9963809 152 152 152
0.08157376277043 -0.0730594409759506 -0.0658721488391771 0.1889024 -0.4825759 -0.8552405 156 156 156
-0.0464869253972324 -0.00825315300513441 -0.0638868991391582 -0.1075217 0.08949539 -0.9901665 158 158 158
0.111140213754943 -0.0141653588357942 -0.0741279317255046 -0.07507502 -0.05271278 -0.9957837 208 208 208
0.081207024996941 -0.10249541731461 -0.0526551007357766 0.12074 0.07561185 -0.9898003 212 212 212
0.0568078323066099 0.0814203829699993 0.073838441282108 0.2892473 0.9071946 0.3055062 61 61 61
-0.13226726309452 0.0899661324997769 0.0621497595529401 -0.1254387 0.9804483 0.1516122 53 53 53
-0.0201191843378883 0.0821612972524677 -0.0614365700275808 -0.2808684 -0.1401613 -0.9494566 219 219 219
-0.0490656470559365 0.115447850819986 0.0205388209213914 0.07220978 0.9950843 0.06777085 138 138 138
-0.125178765834732 -0.119432781047136 -0.0412502979964581 -0.1199445 -0.7792962 -0.6150697 135 135 135
0.159138899711906 -0.0580896994174744 0.0287048126463399 0.7234963 -0.3868016 0.5717847 163 163 163
0.0516799143207773 0.105066780340233 -0.00802050645890323 0.07412266 0.9880626 0.1350486 80 80 80
-0.118260442264564 -0.100867502197725 -0.0577557427999673 -0.09545264 -0.4228556 -0.9011559 206 206 206
0.125545657266101 0.0818092773860184 0.0619768378048649 0.01276747 0.9213272 0.3885784 51 51 51
0.016455101652173 0.0299177825829815 -0.0613816822826591 -0.05815186 -0.05824896 -0.9966069 227 227 227
0.123610326057461 -0.142537505604913 -0.00320076943313116 0.4640988 -0.7103887 -0.5291128 245 245 245
0.160385238000281 -0.0322785647915773 0.0296409658645063 0.9855567 0.1227324 0.1166826 133 133 133
-0.049831939277261 -0.127198425590754 -0.0483908956823975 -0.2587789 -0.6817228 -0.6843154 110 110 110
0.16498662949841 0.0469347628635974 -0.0274072391096192 0.9897484 -0.02016781 -0.1413911 150 150 150
-0.153026613213224 0.0475526736784666 0.0464044478719143 -0.9622962 0.0436998 0.2684704 120 120 120
-0.167355828108227 -0.00177472875676155 -0.0244475430645565 -0.9865228 0.1385393 0.08706143 91 91 91
-0.151168997946519 0.0647619565233204 0.0221326606664435 -0.9851499 -0.05088742 0.1639823 95 95 95
0.169939054484315 0.0825676584345847 -0.00381995856826869 0.9029681 0.3296503 -0.2756435 173 173 173
0.139835149469854 -0.0529883382911762 -0.0566597709037284 0.7710442 -0.2887139 -0.5675695 161 161 161
-0.104686614276677 -0.0648003103611434 -0.0589221812188212 -0.1550426 0.05415945 -0.9864221 172 172 172
-0.144245536031259 0.0420397212070369 0.0760314032489181 -0.9758129 -0.03553203 0.2157005 54 54 54
0.0283619450223287 0.0488455628233295 -0.0648875724996044 -0.1767546 -0.1196846 -0.9769511 166 166 166
-0.0463913954828392 0.0604986827561482 -0.0615480858872374 0.1046964 -0.1561671 -0.9821662 158 158 158
-0.0451126214760795 -0.0601860085284642 -0.0671773706954418 -0.0326115 -0.02011795 -0.9992656 172 172 172
-0.132645849515555 0.0879189504184077 -0.0306575514018962 0.05213737 0.1218649 -0.9911764 195 195 195
-0.109682764543109 0.0653576305382249 -0.0570231588335985 -0.5287272 0.8159815 -0.2337129 156 156 156
-0.0110378508999132 0.0097481049035073 -0.0626704753560439 0.1011089 0.0021797 -0.994873 159 159 159
0.00385553218357115 0.109410742033476 0.00344498563091331 -0.1897852 0.9068345 -0.3763413 97 97 97
0.105339165064915 0.0830354466808725 0.0587074235704036 -0.148186 0.9169964 0.3703492 50 50 50
0.101951260251643 -0.113842465846243 -0.0462554733313511 0.2668331 -0.5749284 -0.773471 231 231 231
0.172818850813475 0.0783778453372086 -0.00268334471406723 0.9279122 0.24918 -0.2772874 107 107 107
0.0735039584609432 -0.135246073515179 -0.0265396442355152 0.1182745 -0.8183874 -0.562364 127 127 127
-0.163347339317004 -0.0542051098159648 -0.0112683722401137 -0.9717114 -0.05681192 0.2292366 87 87 87
0.0799020410604978 -0.132988833904345 -0.0276762519992372 0.09266771 -0.7952207 -0.5991967 190 190 190
0.0532464183760424 0.104445497363638 -0.000568309077762286 0.09341102 0.9916103 0.08934921 209 209 209
0.168447756232707 0.0259284761159877 -0.000764061765574059 0.9801875 -0.1574428 0.1201839 195 195 195
-0.0633229594447293 0.0430461390092891 -0.0606741075564096 0.05439908 -0.06880205 -0.9961461 163 163 163
-0.0633682893622205 0.10026846500313 -0.025437099109008 -0.3969488 0.8852211 -0.2425188 151 151 151
-0.160829556822752 0.01130367522944 0.00319096856771783 -0.966745 0.1903476 0.1707981 75 75 75
-0.156308754503989 -0.0454731353910669 -0.0519089832910464 -0.3381078 0.04562332 -0.9400009 142 142 142
0.0307146691620721 -0.0105824269649433 -0.0643269273609818 -0.2092643 0.1940796 -0.9584057 192 192 192
0.132489411062529 -0.0942617365163954 -0.0456994972737831 0.3929648 -0.5048418 -0.7685788 198 198 198
0.0629742086957297 -0.00492454583489876 -0.0694914253241061 -0.2012172 0.2053079 -0.9577893 181 181 181
0.0778218111116491 -0.0970782911629837 -0.0527501767004539 0.2192175 -0.00567863 -0.9756595 194 194 194
0.164291577340324 0.0900770901483054 0.00318318776867554 0.5512162 0.8334706 -0.03856677 39 39 39
0.103106086993089 -0.082284225459589 -0.052808719195505 0.1322866 -0.121395 -0.9837497 184 184 184
0.125955425234173 -0.118519266523918 -0.0328925373797589 0.5233197 -0.612362 -0.5925785 225 225 225
-0.158248680477752 -0.00394258880881915 0.0178564875894261 -0.9379548 -0.008898782 0.3466433 76 76 76
-0.157667223613402 -0.0448746881680224 0.0136221785430425 -0.9508151 -0.09320601 0.2954036 50 50 50
-0.094149923308033 0.0677904321548968 -0.0600992625736336 -0.2730844 0.8460407 -0.4578647 157 157 157
0.0976600661057514 -0.0966523592895741 -0.0510475120027888 0.1269652 -0.1178058 -0.9848866 227 227 227
0.13903743893133 -0.116736000399977 -0.0161346780884178 0.6403435 -0.6629573 -0.3878762 152 152 152
0.012277101261541 0.0225458057872152 -0.0612218173013891 -0.130589 -0.0774393 -0.9884077 148 148 148
0.099949712054495 0.0519961502395696 -0.0668905465259118 -0.1040896 0.02709859 -0.9941987 159 159 159
0.0713004457429109 -0.12466963399628 -0.0437700213935678 0.1687298 -0.8413813 -0.5134276 125 125 125
0.163400871443652 0.0126547431984252 -0.0313665665636859 0.9586235 -0.05675511 -0.2789623 119 119 119
0.0488636074334421 0.0813128080502492 0.0769119681538014 -0.00461408 0.8538471 0.5205034 37 37 37
-0.118430857430259 0.0916794397767449 -0.0287645952185644 -0.04286618 0.8442596 -0.5342174 86 86 86
-0.0300451913855215 0.0613907023014351 -0.0596633181956184 0.1232758 -0.07886589 -0.9892337 159 159 159
-0.0492866923937934 0.109479201330051 -0.0042031720858362 -0.04080842 0.8765394 -0.4795971 160 160 160
-0.0329549453510736 -0.016983197399393 -0.0654227870159144 0.05020185 0.01996031 -0.9985396 185 185 185
0.171778517011936 0.011244874576948 0.0518653434209164 0.9391831 -0.3375552 -0.06317846 171 171 171
-0.0895312969531115 -0.0658119862366386 -0.0506343874096536 -0.06856155 0.02662163 -0.9972916 193 193 193
-0.084664166018189 0.0782660303759497 -0.0568125346505366 -0.6350963 0.6488209 -0.4191468 140 140 140
-0.14342330312028 0.0136084796577702 0.0752444458710202 -0.9223198 -0.06527963 0.3808737 80 80 80
0.112162403255099 -0.028766640639535 -0.0722986100457175 -0.000799884 -0.04264049 -0.9990901 161 161 161
0.0135099392447251 0.0471647294850255 -0.0644304627950912 0.04626831 -0.1803318 -0.982517 195 195 195
0.131545071221321 -0.0225153582487199 -0.0700831379369377 0.4189233 -0.1447538 -0.8964093 184 184 184
-0.149903383793037 0.0601011022304159 -0.0244081286128628 -0.9937803 -0.1106343 0.01267645 73 73 73
0.0917801699228953 -0.0997235244641754 -0.0516301823242221 0.09366515 0.05384462 -0.9941466 161 161 161
-0.0985480775338683 -0.0938912293396188 0.02769511520217 0.4893197 -0.5539708 0.6735596 35 35 35
-0.163414401226376 0.00122731278380961 -0.0456814172337882 -0.8480413 0.4249238 -0.3166477 106 106 106
-0.121096158603823 0.00560747634760994 -0.062383194933311 0.2943949 -0.2650166 -0.9182036 197 197 197
-0.00490973619168944 0.105411051626974 0.00107255354237501 -0.002790341 0.8427241 -0.5383384 156 156 156
-0.11673629613957 0.0930107272979537 -0.00871592004720254 0.1183884 0.9912994 -0.05753014 78 78 78
-0.0525629842440805 0.105679650321263 -0.0295455260025358 -0.3503091 0.9061043 -0.2371886 148 148 148
-0.0472571651897167 0.10698492807705 -0.0272405036167215 0.1550588 0.9604188 -0.2314143 112 112 112
0.132538267381157 0.0901909269408112 0.0310204135592628 0.1494119 0.9805099 0.1275788 75 75 75
0.0674565498914963 0.0989701296847927 0.039848784046533 0.2713233 0.8781418 0.3940187 66 66 66
-0.00228779401483781 0.0112717433125695 -0.0607466458164584 0.191556 0.1088101 -0.9754315 137 137 137
0.0352764101446783 0.0794299542279762 0.0795045064398855 0.1931092 0.831836 0.5203439 44 44 44
-0.160418878042806 0.0101777633545812 0.00326297041814258 -0.9729897 0.150105 0.1753839 61 61 61
0.17349098352954 0.0680221313905236 0.000712596584795971 0.9713933 -0.04169971 -0.2337863 141 141 141
-0.148243302463335 0.0901286833157446 0.025620800102533 -0.4657003 0.8849424 0.0004290367 143 143 143
-0.122802753835178 0.0528826851717141 -0.051927257635737 -0.6523871 0.7542428 -0.07422178 157 157 157
-0.0562344670864796 0.109963141517351 0.00842015225573017 -0.33055 0.9073717 -0.2596408 203 203 203
0.0409751490811567 0.104155374363006 0.0282438967196102 0.1316642 0.985807 0.1041588 108 108 108
-0.143179250913576 0.0908572432938322 0.0225939629369649 -0.04457534 0.9990059 -0.0004474414 195 195 195
0.00270016593645428 -0.0869305682459487 -0.0693995328789097 -0.07813243 -0.04436329 -0.9959554 137 137 137
0.0651696727361308 -0.1034565083971 -0.0600973665234619 0.6302282 -0.4114545 -0.6584206 162 162 162
0.024152528288647 0.0864128722299611 0.0745660764728726 -0.009389069 0.8742942 0.4853056 90 90 90
0.0234661051266136 0.0869776367759751 0.0736930429751524 -0.01975913 0.8864173 0.4624651 46 46 46
0.13491750045841 -0.0136278087077255 -0.0715759234074137 0.4916221 -0.3925841 -0.7772937 215 215 215
-0.125279108583537 -0.0602884201509277 -0.0533776179817668 -0.242046 0.1531975 -0.9580941 125 125 125
-0.00644712238680567 -0.125289056740986 -0.0595723916533289 -0.06365591 -0.7502262 -0.6581098 239 239 239
-0.153449586130226 -0.0492501730401724 -0.0522726607780572 -0.04753585 1.257123E-05 -0.9988695 172 172 172
0.0661044781714044 0.088657631097141 -0.0546977856858323 0.2986629 0.9523845 -0.06135352 42 42 42
0.00934271974432255 0.0935148008595135 -0.0371426709203888 0.1865863 0.9809839 -0.05344257 81 81 81
-0.0170792387311156 -0.0260411531391689 -0.0659031211242018 -0.1609605 0.3013061 -0.9398438 154 154 154
-0.118581202010414 0.0890904181997929 0.0802988058401357 -0.07188299 0.8290921 0.5544719 54 54 54
0.0789836812209543 0.0894292315524834 0.0472519252050422 0.1069363 0.9253485 0.3637236 116 116 116
-0.0756779799051968 0.102274239593611 0.00314631932238899 -0.3271061 0.8514858 -0.4098457 88 88 88
-0.0267843643505934 0.0785148093351822 -0.0600732919515009 0.0110127 0.08321749 -0.9964706 176 176 176
-0.0734027821068004 -0.100305143979393 -0.0625917240830751 -0.1738647 -0.3306271 -0.9276081 187 187 187
0.132724121307198 0.0936625375039928 -0.00802096786648124 0.07846028 0.9951124 0.05996026 115 115 115
0.165771481112317 0.00104002358140876 0.0232821117313116 0.9126229 -0.4088012 -0.0009646403 124 124 124
-0.0763666016025568 0.0214741759834025 -0.059978200306893 -0.04325087 0.0259484 -0.9987272 170 170 170
0.0291632946999538 0.0836061111579471 -0.0632999010535041 -0.04345633 -0.01834511 -0.9988869 223 223 223
0.0718653621865597 -0.0101451363197644 -0.0728894170418292 -0.09727693 0.1528148 -0.9834555 231 231 231
0.147989868442084 0.0965876237460963 -0.0377692550467666 0.350732 0.9286973 -0.1204505 105 105 105
0.0341160234613045 -0.115351917921704 -0.0635061198180621 0.01835614 -0.4444101 -0.8956354 211 211 211
0.00138638811784952 0.0218167795823498 -0.0615062549413372 -0.03098424 -0.1160919 -0.9927551 113 113 113
-0.107311358051072 0.0135714898232655 -0.063385812690167 0.2729429 -0.6409721 -0.717396 147 147 147
0.0243817777431361 0.0923026572892913 -0.0496170806646492 -0.0499302 0.9954404 0.08127303 92 92 92
-0.0957168810050195 -0.0517221970299808 -0.0591868907773132 -0.2342011 0.002639154 -0.9721846 159 159 159
-0.129440200918437 -0.115233440539336 -0.0453230711690309 -0.1455876 -0.7506717 -0.6444349 197 197 197
-0.0315979245239877 0.103295190582729 -0.0250104305251835 0.2506412 0.9447132 -0.2114143 112 112 112
0.0204318551461462 0.107986062555 0.0167164613144196 0.1836406 0.9816555 0.0512707 144 144 144
-0.161125245394795 -0.106185982353397 0.00486570991685234 -0.9830698 -0.02803677 0.1810736 69 69 69
-0.135334474512431 -0.0352214484952658 -0.0553429017322223 -0.001834214 -0.2590249 -0.9658689 176 176 176
0.0914966160931181 -0.0675403269187571 -0.0654053813446552 0.329923 -0.5371884 -0.77626 189 189 189
-0.0413485697498133 -0.0549972538711554 -0.0679071679905312 -0.07978446 -0.03835744 -0.9960738 155 155 155
-0.0834685528645478 -0.102259970907165 0.00911855674597201 0.3473741 -0.6832415 0.6422712 71 71 71
-0.147556298264639 0.0531081437207828 0.0610286552492395 -0.969937 0.0976847 0.2228898 52 52 52
-0.165548486290886 -0.0860702682546453 -0.0222819825614358 -0.9695736 -0.04693675 0.2402582 94 94 94
-0.0391973781116128 0.0631079606904503 -0.0610135368796041 0.1185533 -0.2057277 -0.9714017 121 121 121
0.0844780879291744 0.0132708768016916 -0.0694440762694223 -0.3388723 0.1740934 -0.9245848 160 160 160
-0.0967062297400352 -0.0815184597473479 -0.0612740501496619 -0.0534507 -0.006955979 -0.9985462 123 123 123
-0.148201245604021 -0.0824688842382573 -0.0530228840292513 -0.601472 -0.1767549 -0.7790951 155 155 155
0.150138411692689 -0.0246886116611271 0.0508161160061479 0.5936539 -0.2062909 0.7778297 65 65 65
-0.0597264664660542 -0.13140502432495 -0.041245781806053 -0.2893587 -0.7171525 -0.6340061 251 251 251
-0.156625718070937 0.0124196743188096 0.0242735361652525 -0.9842672 -0.008496855 0.176482 93 93 93
-0.146109793424482 0.0981643776142691 -0.0243638414478091 0.2282673 0.9702554 -0.08061401 72 72 72
0.168208706289413 0.0577542943760354 -0.0213250094932101 0.9588863 -0.2506086 -0.1331632 142 142 142
-0.151828171020617 0.0832185722959393 0.00851263760153179 -0.9558116 0.2895868 0.05063273 82 82 82
-0.0852319262641354 -0.140245366707082 -0.0235432112613985 -0.04220092 -0.9540009 -0.2968188 219 219 219
0.0196150303247871 0.0483189980741126 -0.0638300327810553 0.09647869 -0.1690597 -0.9808724 168 168 168
0.0168632851570556 0.102233040151796 0.0401363369108638 0.06964415 0.858107 0.508726 44 44 44
0.126574785736408 0.0939436243392182 -0.00175468856286443 0.1045404 0.9939269 0.03436135 95 95 95
-0.080589937239901 0.0121862951555596 -0.0598085919650656 -0.1726326 -0.08702665 -0.9811342 156 156 156
-0.0717795444629927 0.0617941609317139 -0.0668770126436502 0.2291258 -0.08817144 -0.9693952 201 201 201
-0.153011027544959 0.059531789321557 -0.00798589593093124 -0.9670243 -0.05920775 -0.2477066 121 121 121
-0.124605767446039 -0.0839352422608863 -0.0591561951905199 -0.1771209 0.1940787 -0.9648635 149 149 149
0.0797223225702837 0.100832414007713 -0.0204832462726586 0.119388 0.9910433 0.05983131 104 104 104
-0.153577518409398 0.0216178357835095 -0.0437262542839517 -0.8594472 0.455916 -0.2312814 106 106 106
0.160890268796263 -0.0292310527936919 0.0234368189891224 0.9540706 -0.036679 0.2973278 120 120 120
0.0164591259266578 0.108546488808185 0.0181939740215582 0.1989862 0.9793614 0.03543591 145 145 145
0.0984232764105895 0.0814970802505413 -0.0666340354688435 -0.1492471 0.2483592 -0.9571013 190 190 190
-0.105076847281389 0.104186610827768 0.0363325721898722 -0.5800679 0.7970564 -0.1679946 133 133 133
-0.00776437193735768 0.0947613624646024 -0.0547652935678288 -0.1069838 0.9608969 -0.2554047 130 130 130
-0.0979446050891983 -0.0670640063115597 -0.059814213281206 -0.1593776 0.07959963 -0.9840034 146 146 146
-0.128725577505299 0.0888088823583462 0.028405340520491 0.1639716 0.9861178 0.02617401 91 91 91
0.127683819815927 -0.00768300037387348 -0.0753209372019195 0.08047771 -0.1534771 -0.9848696 220 220 220
0.150506394441032 0.0753111623105034 0.0700250803391223 0.04393088 0.9665273 0.2527748 88 88 88
0.0528010420474696 0.103741539513424 -0.0271417348722282 -0.02331399 0.9308812 -0.3645774 135 135 135
0.134224716723163 0.0962811749681565 -0.0369825834441472 0.1086877 0.9938511 -0.02114337 155 155 155
0.0467185079798189 -0.12526613257441 -0.0510605631450974 0.2446775 -0.8525786 -0.4617819 177 177 177
-0.0199259784715706 0.0995706624306298 -0.0301908443130326 0.04724583 0.9356616 -0.3497216 83 83 83
0.163537800963562 -0.00123717560865422 -0.0322497616898324 0.9075196 -0.151622 -0.3916873 166 166 166
0.153861412350303 -0.0705213990385498 -0.0131356125932688 0.958853 -0.02247424 -0.2830121 142 142 142
-0.11965200285694 0.0918620473675673 0.0664514996705746 -0.2653741 0.9557685 -0.1268195 130 130 130
0.170611036600045 0.0122492284482598 0.0308056092033304 0.9769868 -0.1543365 0.1472312 107 107 107
-0.0334281064168231 0.0952237794455055 -0.0495311787921784 0.3339286 0.9245394 -0.1836264 110 110 110
-0.111172839328285 -0.129194136802861 -0.0307608334630433 -0.1452676 -0.8107165 -0.5671298 132 132 132
0.000254670164312021 0.0326023620420328 -0.061588339080468 0.00735918 -0.04989478 -0.9987274 139 139 139
0.159609604886063 -0.0373659449612369 -0.00480728175225728 0.9533589 -0.2953466 -0.06226582 81 81 81
-0.120565873866495 0.00296408125986525 -0.0613871003051225 0.3636673 -0.3487968 -0.8637632 172 172 172
-0.149757583385636 0.0885683331906262 0.0133041827095517 -0.7955115 0.5907321 0.1348961 77 77 77
-0.156054668804306 -0.109380280904315 0.0376222400005564 -0.9752449 -0.1306164 0.1784285 63 63 63
0.0251484770584036 0.093437342677305 -0.061711850022385 -0.04794706 0.8219988 -0.5674673 121 121 121
-0.161974841149884 -0.0859908626235195 -0.00751754156398976 -0.9699872 0.02766567 0.2415773 90 90 90
0.168862820527792 0.00745777518879676 0.0280421779676004 0.9615248 -0.2732404 0.0284554 109 109 109
-0.0364621952915738 -0.0228637190529868 -0.0656954736610567 0.02982234 -0.009417611 -0.9995108 156 156 156
-0.0748097610195302 0.106492071436299 0.0369393539095136 -0.5039822 0.8347003 -0.2219847 177 177 177
-0.151243134225706 0.0408867697057245 -0.00653867865222027 -0.9557242 -0.110961 -0.2725415 114 114 114
-0.113029255654376 -0.133187999624847 0.00488518747316058 0.4315487 -0.645027 0.6306393 47 47 47
0.0169896655989192 -0.0574030290117391 -0.0693573995753588 -0.08106985 -0.09152936 -0.9924969 168 168 168
-0.110914081730872 0.0942922796685819 -0.01119664209534 -0.4852598 0.8650335 -0.127436 145 145 145
-0.152119042648369 0.0571403501078116 0.0432267013094567 -0.9792621 0.1627855 0.1206091 61 61 61
0.0839468095764948 0.100058502153889 -0.00880727479413226 0.1631941 0.984376 0.0661189 138 138 138
-0.139609896220926 0.0904091489355756 0.0187281364365156 0.02839462 0.9943764 -0.1020259 138 138 138
-0.162584134821919 -0.000414719516571127 -0.000315168697577278 -0.9790343 0.02204446 0.202499 73 73 73
-0.147461714403076 0.0921630976859371 -0.00820293973749728 0.02584182 0.9380753 0.3454662 101 101 101
-0.0905669703636502 0.0831267604442825 0.0873817828020226 0.03770493 0.8845269 0.4649629 31 31 31
-0.133814392288508 0.0897348965658205 0.0663913455667138 -0.09806686 0.9947476 -0.02932885 117 117 117
