ply
format ascii 1.0
comment File exported by Rhinoceros Version 7.0
element vertex 480
property float x
property float y
property float z
property float nx
property float ny
property float nz
property uchar red
property uchar green
property uchar blue
end_header
-0.0359109586708306 0.0389924946289512 0.0157106325996912 -0.8145238 0.5241441 0.2486442 94 94 94
-0.0369571018825932 0.0306239785375935 0.0216146284586073 -0.8604503 0.3057954 0.4075715 111 111 111
-0.0361456154562694 0.0315911371822374 0.0221459109775471 -0.8665112 0.332422 0.3723625 113 113 113
-0.0356208843895414 0.0349931627610037 0.0207765763514767 -0.8502817 0.3474554 0.3953427 73 73 73
-0.0362784007827783 0.0336540820620436 0.0214177580654852 -0.8626974 0.305055 0.4033542 112 112 112
-0.0341008609120053 0.0341849282993105 0.0253176335223 -0.865508 0.3366159 0.3709255 105 105 105
-0.0327017470257309 0.0385353801833854 0.0245564991744495 -0.8672928 0.3331471 0.3698866 88 88 88
-0.0345391507320043 0.040915790909123 0.0154538922011184 -0.7594446 0.6170262 0.2062102 65 65 65
-0.0326440363830902 0.0403470937399845 0.0244731844923748 -0.8590977 0.3677814 0.3559326 71 71 71
-0.034554165659793 0.0307511139010151 0.0277416168450494 -0.8449896 0.351088 0.4033979 100 100 100
-0.0342648326010013 0.0322278354664465 0.0268592100815934 -0.8382087 0.3872584 0.3839755 92 92 92
-0.0342725190291566 0.0304241692524889 0.028945111381253 -0.8380964 0.3473748 0.4206248 139 139 139
-0.0333741625700728 0.0306593042726671 0.0304872932976316 -0.787885 0.372564 0.4903399 113 113 113
-0.0305571445096837 0.044249504315768 0.0141645806054504 -0.6806479 0.7260377 0.09791685 63 63 63
-0.0288954575770757 0.04530885820952 0.0170727977924311 -0.6954861 0.714731 0.07388368 60 60 60
-0.0254594760786868 0.0489277409363381 0.0167557423201741 -0.7738685 0.6294188 0.07042333 63 63 63
-0.0256912858799105 0.047648424110987 0.0183256255767987 -0.7450352 0.6646392 0.05636639 78 78 78
-0.0315343342841796 0.0431881085106849 0.0217902989699113 -0.7892779 0.5701688 0.227921 87 87 87
-0.0319488634244922 0.0405937046608132 0.0238451393408331 -0.8592883 0.3721119 0.3509365 88 88 88
-0.0315330306281538 0.0400480224518132 0.0262826479178201 -0.8548104 0.3658407 0.3680485 106 106 106
-0.0294217801676324 0.0446074369454299 0.0248841553373206 -0.8024302 0.5749556 0.1597868 68 68 68
-0.0280947827166296 0.0460922308819249 0.0205177919915875 -0.7306269 0.6800482 0.06098236 71 71 71
-0.0272443851144204 0.0459368170545101 0.0227795521680095 -0.7488462 0.65759 0.08249044 83 83 83
-0.0275683801123727 0.0469358212440514 0.0248210898093007 -0.7680143 0.6317798 0.1049207 77 77 77
-0.0317794939587239 0.0368596539374695 0.026999509108948 -0.8525153 0.3039795 0.4252224 64 64 64
-0.0312510445113285 0.0342778326111012 0.0307167736764119 -0.7524713 0.3700613 0.5448316 113 113 113
-0.0297149572188222 0.0385884636961578 0.0308868947725383 -0.6993853 0.3237457 0.6372197 96 96 96
-0.0312152047092695 0.0305669970225331 0.0332968328030526 -0.6116673 0.2985245 0.7326297 144 144 144
-0.0310773192190985 0.0324707736279521 0.032681287482173 -0.6357644 0.3528567 0.6865098 112 112 112
-0.0235193058306784 0.0289157485280154 0.0360906597922951 -0.07420243 0.1945659 0.9780788 100 100 100
-0.0212471818085449 0.0308731196370473 0.0358224951509837 -0.09537352 0.211527 0.9727077 104 104 104
-0.0253033296089979 0.0317663885686852 0.0357248729570271 -0.1541927 0.3273309 0.9322441 99 99 99
-0.0213482279345856 0.0321293131887135 0.0356071510449431 -0.1387718 0.2560652 0.9566467 73 73 73
-0.0280971037804862 0.0340467019236553 0.0333841802424543 -0.342035 0.2941149 0.8924733 63 63 63
-0.024874339104934 0.0349928698981233 0.0337509661709187 -0.1862762 0.2293242 0.9553594 41 41 41
-0.0248657466624906 0.036102610151778 0.0334820201739402 -0.2304344 0.1569972 0.9603395 38 38 38
-0.023286594513765 0.0344237097436511 0.0342415213502256 -0.2088504 0.2500138 0.9454494 43 43 43
-0.0215483733420032 0.0341709963528042 0.0347203485241429 -0.146009 0.2268986 0.9629114 77 77 77
-0.0194142416995211 0.0304221176517299 0.0361567854573393 -0.08178899 0.168803 0.9822505 107 107 107
-0.0179393887945016 0.0284594575090844 0.0366271579571516 0.01567197 0.06509259 0.9977562 115 115 115
-0.020012277439506 0.0326324527818076 0.0349385403040304 -0.1312257 0.2326051 0.9636777 81 81 81
-0.0189982253033962 0.0330552518140023 0.0356918102564651 -0.1113677 0.2062216 0.972147 119 119 119
-0.0177556568730766 0.0324895867255971 0.0357818497674287 -0.06927971 0.1742658 0.9822585 102 102 102
-0.0153834719917745 0.0325330054845034 0.0360000803811391 -0.01620021 0.1284399 0.991585 91 91 91
-0.0130849094634438 0.0328221174625747 0.0356891088186131 -0.0006271778 0.08564755 0.9963253 95 95 95
-0.0172860653989666 0.0387877244522141 0.0340196292408002 -0.04682434 0.2648403 0.9631548 68 68 68
-0.0154905018390199 0.0386300799102388 0.0343364631976805 -0.0635813 0.2907667 0.9546791 71 71 71
-0.0197861071307948 0.034396270892106 0.0348192785045649 -0.1613335 0.2092161 0.9644688 86 86 86
-0.0181151427573316 0.0347091214003198 0.0352350195970609 -0.1140537 0.2196783 0.9688824 93 93 93
-0.0178451277641174 0.0356106181160875 0.0355151377693761 -0.1010709 0.211656 0.9721041 112 112 112
-0.0133245956464267 0.0352511994733709 0.0353027616120595 -0.03559814 0.1771038 0.9835482 132 132 132
-0.00958968855525022 0.0349769529583062 0.0356758113677005 -0.004449717 0.09585834 0.9953851 119 119 119
-0.0129389909420734 0.0390743997507236 0.0348631759102283 -0.1425275 0.2182239 0.9654347 91 91 91
-0.0115597223544737 0.0392795931654333 0.0346667030745343 -0.146562 0.1970491 0.9693767 79 79 79
-0.00967822259313289 0.0387481175706772 0.0351511542959414 -0.07254276 0.1363214 0.988005 90 90 90
-0.0304959273078524 0.0407368184102936 0.0281457100352103 -0.819844 0.3494869 0.4535578 120 120 120
-0.0271093192867182 0.0461762244398436 0.0289744362997656 -0.7143165 0.4848132 0.5046861 95 95 95
-0.0255775550313611 0.0467519259752618 0.030341156584603 -0.62088 0.4851288 0.6157581 78 78 78
-0.0264146446613553 0.0460489517190358 0.0306030738564242 -0.6516059 0.3904551 0.6503496 120 120 120
-0.0274281359164705 0.040911218335832 0.0327576505934924 -0.5166882 0.2585547 0.8162002 130 130 130
-0.026333591177496 0.0420491252511161 0.0331446109603786 -0.4688825 0.2424253 0.8493404 119 119 119
-0.0215876504621448 0.0446490508550038 0.0330720621376471 -0.1224874 0.235692 0.9640778 102 102 102
-0.0211827165079455 0.0427236946256034 0.0335764324165652 -0.02304029 0.1691739 0.9853169 89 89 89
-0.0214220515796013 0.0431796932141609 0.0331125101326837 -0.02504288 0.1723274 0.9847214 95 95 95
-0.0237994072649972 0.0478426048445421 0.0322557113368458 -0.3767448 0.3369588 0.862857 116 116 116
-0.0210740581111373 0.046528404621162 0.032661077363149 -0.1667052 0.2012433 0.9652515 106 106 106
-0.0204586656740009 0.0412794513249662 0.0333404501376504 -0.0342972 0.1885415 0.9814662 113 113 113
-0.0194083196806507 0.0429171793366461 0.0334265208693619 -0.01291714 0.1509301 0.9884601 87 87 87
-0.01694975161681 0.0423311971699109 0.0336941747053566 -0.03620927 0.1400492 0.9894822 75 75 75
-0.0192520121413784 0.0447182826242678 0.0329231428686358 -0.03079825 0.09804785 0.994705 58 58 58
-0.0158652186630359 0.0429466915007015 0.0329291875605742 -0.04441566 0.1279129 0.9907904 60 60 60
-0.0170676340506208 0.0431808910024505 0.0330081446647464 -0.03324235 0.1153551 0.9927679 75 75 75
-0.0173275509037656 0.0451357996244058 0.0330017572141978 -0.0134727 0.06841642 0.9975659 62 62 62
-0.0145378165663201 0.0412344025136245 0.0333620345818892 -0.09179278 0.2178629 0.9716532 63 63 63
-0.0141302558768586 0.0415075908330573 0.0331399455209618 -0.1245598 0.214702 0.9687042 68 68 68
-0.0144050656064478 0.0410021036754741 0.0340836734963504 -0.1010677 0.2369509 0.9662503 88 88 88
-0.013067551928537 0.0445827463070411 0.0329675024183008 -0.08957148 0.1082307 0.9900824 56 56 56
-0.0105630678381825 0.0439181115073116 0.0340331509734789 -0.1747762 0.2023312 0.963595 72 72 72
-0.0104746422963493 0.0400939340870822 0.0345874884864003 -0.1604868 0.1860007 0.9693543 111 111 111
-0.0196262726722289 0.0502688576930975 0.0322171826736463 -0.1654959 0.1992087 0.9658815 52 52 52
-0.0158614312140974 0.0505663649655947 0.0326782340032089 -0.1513418 0.1298676 0.9799133 65 65 65
-0.00911357077417874 0.0467057903732895 0.0331364328357256 -0.1034391 0.1179504 0.9876174 79 79 79
-0.0110580043432891 0.0481044787701245 0.0334126818638456 -0.07541244 0.05693929 0.9955254 83 83 83
-0.00916045814532929 0.0464077025298725 0.0336308258125788 -0.1034391 0.1179504 0.9876174 70 70 70
-0.0137002880680681 0.0507302698185153 0.0329061572720266 -0.1217651 0.06996951 0.9900897 66 66 66
-0.0094966144440729 0.0486971888089741 0.0328361041162623 -0.09481821 0.03313389 0.994943 70 70 70
-0.0115773039588993 0.0502412842275899 0.0332713222474105 -0.07513646 0.01952348 0.9969821 83 83 83
-0.0238416688579814 0.0513917379734455 0.0192693422478371 -0.8002401 0.5949439 0.07521647 72 72 72
-0.0206077621087846 0.056729038253188 0.0205787389946796 -0.7578086 0.6229471 0.1940697 64 64 64
-0.0196466783794182 0.0577910191270503 0.0214654773085833 -0.6841564 0.7062469 0.1820586 84 84 84
-0.0244987407202784 0.0511082121375284 0.0258183011593618 -0.7292406 0.6428607 0.2343893 62 62 62
-0.0194784998775646 0.0544531665972391 0.0309738300880608 -0.4731882 0.3665408 0.8010873 97 97 97
-0.0175541788991187 0.0579423593310926 0.0299720349248621 -0.5820505 0.574723 0.5752483 57 57 57
-0.0166016870162622 0.0605720361868856 0.0290494780325634 -0.5103305 0.7140831 0.4792162 82 82 82
-0.0191427307925678 0.0518695034448788 0.0318111640680419 -0.2066413 0.2177748 0.9538729 75 75 75
-0.0148398418931097 0.0564349615980158 0.0318039598644892 -0.2746815 0.2244636 0.9349685 83 83 83
-0.0132943585156169 0.0528754525326461 0.033107292995138 -0.153977 0.1016482 0.982832 72 72 72
-0.0107872329664445 0.0515842911167824 0.0334668539638714 -0.1064459 -0.02107975 0.994095 91 91 91
-0.00885833391220281 0.050787117075954 0.0333238814558793 -0.0824318 -0.02903252 0.9961737 88 88 88
-0.0127732149000579 0.0546642508700194 0.0327181470557185 -0.1986006 0.1328445 0.9710356 76 76 76
-0.0111259110671544 0.055246505202719 0.0333395614969059 -0.1947512 0.1090285 0.9747742 85 85 85
-0.00914630981431186 0.0542783460595901 0.0337979357191213 -0.1654116 0.02671112 0.9858629 99 99 99
-0.0145565391364513 0.0583753084302954 0.0321565240844629 -0.3030743 0.3788518 0.874424 85 85 85
-0.0137662105641096 0.0583290836475783 0.0322946439036473 -0.2612107 0.2067154 0.942888 97 97 97
-0.0112962325223438 0.0587034810657319 0.0325632341265185 -0.2502592 0.150425 0.9564218 83 83 83
-0.00695269691844214 0.0299383735232596 0.0355735469441658 0.07882544 -0.08592781 0.9931782 116 116 116
-0.0073298165166622 0.0319181673504876 0.0357326662956266 0.05748331 -0.01697631 0.9982021 93 93 93
0.00211509528414089 0.0323254637282222 0.0340236032996563 0.3268281 -0.03226249 0.944533 82 82 82
-0.00283940467421351 0.0293285542429496 0.0355608699802474 0.09463378 -0.06805121 0.9931835 140 140 140
-0.00206970431655362 0.0304622313753204 0.0351442722884567 0.1594073 -0.02441937 0.9869108 101 101 101
-0.00112252008753 0.0308305693240017 0.0356708293302653 0.1824557 -0.02052656 0.9829998 96 96 96
-0.00521236343378551 0.0357472130338472 0.0354954159662565 0.05182736 0.05021708 0.9973927 92 92 92
-0.00726842358414892 0.0365162153098619 0.0354041422869957 -0.01246369 0.08726737 0.996107 86 86 86
-0.00318892505234292 0.0366649127545732 0.0352398034880938 0.07134699 0.03974504 0.9966594 104 104 104
-0.00719271114239239 0.0372404247758704 0.0352977978544916 -0.01161278 0.08450148 0.9963557 91 91 91
-0.00817158229365056 0.0391853752876525 0.0351304411418511 -0.03179896 0.1194226 0.9923341 115 115 115
-0.000636893231936941 0.0347903826791349 0.0346828921754319 0.2131281 -0.002801343 0.9770203 97 97 97
-0.00262725977016176 0.0382065506601039 0.0351122955651218 0.06425015 0.0647325 0.9958321 86 86 86
0.00293750304734353 0.0387422713160545 0.0341992302277023 0.255463 -0.0343046 0.9662101 110 110 110
0.0127127823618203 0.0286973088319223 0.0303548726235157 0.2936601 -0.1490245 0.9442222 81 81 81
0.0107295530936646 0.0330093736186505 0.0308449081668949 0.2710715 -0.1266238 0.9541942 99 99 99
0.0123812673157189 0.0328562032082179 0.0302847063592473 0.2688253 -0.1891088 0.9444421 109 109 109
0.0121814934206332 0.036417619088597 0.0313397585242846 0.1857889 -0.1707254 0.9676442 86 86 86
0.0104635455196709 0.0295006941115734 0.0314986355971992 0.3075652 -0.1550681 0.9388064 128 128 128
0.00417350334324063 0.0352680324914877 0.0335147051264373 0.2971473 -0.08760337 0.9508045 141 141 141
0.00541798875778943 0.0361985598546505 0.0330755095765755 0.2816314 -0.0997728 0.9543213 154 154 154
0.00817731780802022 0.036689924439994 0.0324685723280398 0.2462652 -0.1241284 0.9612209 88 88 88
0.00410287070849069 0.0391490632660341 0.0342039102230233 0.2306606 -0.06257343 0.9710202 124 124 124
0.00887860759723358 0.035023185290542 0.0322644383041817 0.2531666 -0.109971 0.961152 114 114 114
0.0110510075410262 0.0344498134405792 0.0315216750980388 0.241367 -0.1211806 0.9628381 108 108 108
0.0138080645702363 0.0356929877328483 0.0315202369374443 0.1921433 -0.2048682 0.9597448 104 104 104
0.0110853788566514 0.0386362272002572 0.0319246923860652 0.176329 -0.1888149 0.9660523 85 85 85
-0.00749262978841614 0.0426529659093517 0.0348620850395013 -0.08757618 0.1917935 0.9775202 90 90 90
-0.00343525219708107 0.0424218493853756 0.0346227549428803 0.02945091 0.1330781 0.9906679 97 97 97
0.000333523203052355 0.0425088391157695 0.0346681926943014 0.1109673 0.09056765 0.9896887 76 76 76
0.0027247639499719 0.0428334961035797 0.034118151474268 0.1300948 0.0845714 0.9878882 101 101 101
0.00200106771126096 0.0441887117246736 0.0341951701842629 0.09189151 0.07276192 0.9931071 71 71 71
-0.00152641542795884 0.0413581097199737 0.0348125986522085 0.08758546 0.09982082 0.991143 104 104 104
0.00211316268068895 0.0401635533590429 0.0344766319277838 0.1900977 0.03770718 0.9810408 104 104 104
0.00100417961265054 0.0403627134973836 0.0349488578703237 0.1496183 0.08596624 0.9849996 119 119 119
-0.0027908033908397 0.0446605324600687 0.0344753146592798 0.04518699 0.1622874 0.9857084 129 129 129
-0.00769234139339092 0.0472873428755969 0.0338361008116917 -0.06901398 0.1074504 0.9918122 74 74 74
-0.00371449352969488 0.0507015897189447 0.033666162066431 -0.0258912 0.009953446 0.9996152 73 73 73
0.000941100528954131 0.0453007332217256 0.0336586042576371 0.0713494 0.08095292 0.9941609 38 38 38
0.00200445958851247 0.0460268396795167 0.0333299416609583 0.04303636 0.02393907 0.9987867 49 49 49
0.000806481474128873 0.0473824371577077 0.0333599908611447 0.008725068 0.05056312 0.9986827 50 50 50
0.000330327317525025 0.0479967668392366 0.0337478176649782 -0.02191118 0.05641019 0.9981672 99 99 99
0.000419481921700271 0.0469687523708687 0.0341459106722096 0.02855345 0.06477381 0.9974914 69 69 69
-0.0032843123482964 0.0488276245535808 0.0334704972697477 0.01195291 0.1056428 0.9943323 65 65 65
-0.000957752274344248 0.0503393362650485 0.0337636090949027 -0.05367836 -0.04152946 0.9976943 85 85 85
0.00150664328210448 0.0482406147497672 0.0334379302391759 0.002170316 0.02409437 0.9997073 91 91 91
0.00227490497084215 0.0480594685093891 0.0334843886633804 -0.02638929 -0.00436077 0.9996423 49 49 49
2.78995095781553E-06 0.0505093722771901 0.0337121604723311 -0.05146233 -0.04212921 0.9977859 90 90 90
0.00394633865223382 0.0426106983706497 0.0337591365562867 0.1132682 0.03605173 0.9929101 107 107 107
0.00652349353657833 0.0402847776779161 0.0335674727921196 0.2204629 -0.1133722 0.9687842 92 92 92
0.00721368412348777 0.0404231733587965 0.0332548695008571 0.2078542 -0.1249547 0.9701458 89 89 89
0.00469142764877484 0.04403299464799 0.0339325915409145 0.06539842 0.03954116 0.9970755 106 106 106
0.00910100265773739 0.0426387447251507 0.0331758584693187 0.1548942 -0.146438 0.9770178 114 114 114
0.010140233682371 0.0446044305479746 0.033234651553144 0.1477353 -0.1361729 0.9796077 87 87 87
0.0115433249496588 0.0422358736117754 0.0327444650995881 0.1676375 -0.1570952 0.9732516 83 83 83
0.0128760366668272 0.0437264130490074 0.0328755035838454 0.1622757 -0.1543571 0.9745976 114 114 114
0.00304000065463228 0.0501309410188653 0.0343642142277316 -0.05775546 -0.07724264 0.9953381 70 70 70
0.00700616648235508 0.0500866832139637 0.0342881397578125 0.001443913 -0.1348722 0.990862 128 128 128
0.00846752426556563 0.0451231768078162 0.0333459983596353 0.1220081 -0.1152831 0.9858112 87 87 87
0.00864705233587282 0.0453915352246107 0.0336654174694992 0.1220081 -0.1152831 0.9858112 69 69 69
0.0103956259683984 0.0458459372464431 0.0334047008759292 0.1291614 -0.1348961 0.9824054 91 91 91
0.0126945579064732 0.0463802429752318 0.0330563345750428 0.1677327 -0.1611607 0.9725703 95 95 95
0.00898498768046885 0.0480333231291731 0.0339384654868034 0.09856397 -0.1297295 0.9866384 119 119 119
0.0124418455034379 0.0492296940408483 0.0341200032722341 0.1250563 -0.1722761 0.9770782 67 67 67
0.0128835391561548 0.050192323368099 0.0338815046272795 0.1360788 -0.169066 0.9761656 75 75 75
0.0347870142008939 0.0318934842240237 0.0204118405378541 0.5141052 0.1783388 0.8389822 50 50 50
0.0364964846408595 0.0325004011657753 0.0195082309511817 0.4765153 0.2282994 0.8490068 42 42 42
0.0351978915138331 0.036909713308534 0.018934452072194 0.5845044 0.282104 0.7607706 90 90 90
0.0262997789309094 0.0306750767203671 0.0248405866786321 0.4370129 -0.02317556 0.8991566 83 83 83
0.0288729782485357 0.0307912460567894 0.0236383137152185 0.4467028 -0.009317497 0.8946339 69 69 69
0.0308029120411257 0.0302220621423651 0.0232788863778658 0.4666622 0.02163848 0.8841709 110 110 110
0.0303554266692307 0.030651722435042 0.0241021196891389 0.4730428 0.0121525 0.8809556 83 83 83
0.0256729171812542 0.0319517100821933 0.0252939336049104 0.4687933 -0.06242865 0.881099 96 96 96
0.0272224563264793 0.032791532869114 0.0248889606959095 0.4658394 -0.0786972 0.8813628 105 105 105
0.028930931427972 0.0325711322124747 0.0242605758000264 0.4591976 -0.02866 0.8878717 81 81 81
0.0305600648265907 0.0330956400658968 0.023740143434355 0.5120994 0.02641277 0.85852 81 81 81
0.0326142138129559 0.0286636287886869 0.022322736342274 0.4626602 0.03740171 0.8857464 50 50 50
0.0352428322746978 0.0304883737936125 0.0204350942345461 0.4822991 0.1710981 0.859135 31 31 31
0.0322381110371324 0.0330867979279992 0.0221869221341387 0.5763718 0.09793321 0.8112981 88 88 88
0.0315560682758091 0.0285344792072462 0.0232969929597567 0.447087 0.04101545 0.8935496 91 91 91
0.0274803308763474 0.0345271067151043 0.0254136558067992 0.4895638 -0.05084492 0.8704838 114 114 114
0.0311517870551996 0.0372417651613944 0.0225583815248431 0.6464758 0.1788647 0.7416714 109 109 109
0.0331020446571118 0.0363987550201123 0.0207728435477423 0.6421343 0.2134445 0.7362778 95 95 95
0.0314966655829623 0.0389054808411619 0.0209696878395999 0.6626594 0.1966647 0.7226379 52 52 52
0.0328362868334757 0.0408040731834609 0.019236107032293 0.6785594 0.190631 0.7093779 75 75 75
0.0323657698376434 0.0432518689345333 0.0201447672152417 0.6927038 0.1391278 0.7076757 99 99 99
0.0304503807141177 0.0400646311647554 0.0227839492823946 0.6736637 0.1564256 0.7222937 89 89 89
0.030203884869898 0.0423600360130748 0.022177941848137 0.6971077 0.1299879 0.7050843 96 96 96
0.0284655478468143 0.0448271737105668 0.0229314077591968 0.7318457 0.009036339 0.6814104 55 55 55
0.0301365102849949 0.0447377157954185 0.0220667516106063 0.7246787 0.00452365 0.6890721 84 84 84
0.0289127652765351 0.0404469924855646 0.0229850092790033 0.6924443 0.1477025 0.7061905 91 91 91
0.0261677562944156 0.0435633397819039 0.0258045380269517 0.7117438 -0.1385155 0.6886467 47 47 47
0.0317485389875909 0.0399527532088615 0.0200984362129497 0.6879244 0.1849796 0.7018138 72 72 72
0.0319731977646778 0.0443347071713517 0.0203637552174808 0.7026117 0.06943773 0.7081774 43 43 43
0.0297973263568432 0.0464889611027617 0.0220921680400561 0.7252289 -0.03415828 0.68766 52 52 52
0.0276230190275082 0.0452115071552234 0.0234288552047917 0.767682 -0.0506354 0.6388274 37 37 37
0.0273784288270864 0.0453994871682589 0.0243185076776832 0.7747098 -0.09454191 0.6252092 59 59 59
0.0280549876517084 0.0478218508687243 0.0247039012631478 0.7813269 -0.1217159 0.6121385 94 94 94
0.0144476066421566 0.0306915598848815 0.0297385098930923 0.2505037 -0.1973112 0.9477955 110 110 110
0.0165744247031845 0.0299372803619212 0.0290090544423642 0.2463898 -0.2015868 0.9479741 162 162 162
0.0162921252390547 0.0326936171617604 0.0299512694738946 0.2314967 -0.2385304 0.9431397 170 170 170
0.0192626072928688 0.0331816569431485 0.0293036597819886 0.3102286 -0.2182475 0.9252709 152 152 152
0.0187639096930092 0.033245638157933 0.0297317668379034 0.2795572 -0.2122525 0.9363742 178 178 178
0.0230905546059814 0.0302642817750098 0.0269870985246468 0.4441622 -0.09892299 0.8904685 124 124 124
0.0204473351567409 0.0326293057924411 0.0287256563898859 0.3539952 -0.2149151 0.9102191 125 125 125
0.0148056012832898 0.0346725593479786 0.0306335942432233 0.1880594 -0.2121172 0.9589786 125 125 125
0.0169000631772858 0.0351294704793661 0.0305173158917476 0.2478873 -0.1977649 0.9483886 147 147 147
0.0146015422451038 0.0362529502932405 0.0308049141258852 0.1951575 -0.1977285 0.9606336 105 105 105
0.0193755877290549 0.0336336251494542 0.0293080485302239 0.3075185 -0.2107258 0.9279154 137 137 137
0.0169735278388803 0.0386131415251492 0.0309926455612356 0.2684514 -0.1681349 0.9485065 122 122 122
0.0249446470067363 0.036369345995291 0.0266407928367829 0.5390659 -0.05032795 0.8407586 109 109 109
0.020339848396445 0.0346434186217225 0.0292752992248635 0.3895139 -0.1582276 0.9073274 114 114 114
0.0228095471018488 0.0373833401426641 0.0295345316800976 0.481067 -0.07612962 0.8733721 92 92 92
0.0267094415796651 0.0364197407897925 0.0260602074067471 0.5703745 -0.02933976 0.8208606 87 87 87
0.0188616220954811 0.0427284482729107 0.0312662983423356 0.3950083 -0.1961487 0.8974932 128 128 128
0.0248979654550436 0.0406241204390669 0.0269763062308394 0.6125365 -0.02217492 0.7901312 81 81 81
0.0230414794149523 0.0406632091141658 0.0279144149997814 0.5628775 -0.06209181 0.8242048 92 92 92
0.0234044294211291 0.0419663820486894 0.0274978256910131 0.5980485 -0.1189547 0.792583 110 110 110
0.0242184674277017 0.0421931545014523 0.0274124297930207 0.6442289 -0.08391584 0.7602152 75 75 75
0.0253942752115686 0.0453142859623515 0.0271504157911619 0.7131141 -0.2439889 0.6572196 95 95 95
0.0225411809274618 0.0427801174347562 0.0287560403671891 0.5793931 -0.1735886 0.7963483 85 85 85
0.0213148767618097 0.0443370057506 0.030313238519198 0.4838972 -0.2381775 0.8420897 106 106 106
0.0195478309910193 0.0453661540838863 0.0314908908784317 0.3633881 -0.1814327 0.9138005 98 98 98
0.0210248620167106 0.0469193440941411 0.0313442913516587 0.4027127 -0.1650897 0.9003154 97 97 97
0.0252603586982652 0.0487588792650292 0.0291553790583244 0.6249346 -0.1554089 0.7650522 100 100 100
0.0248888794638518 0.0503572648871935 0.0293397961319434 0.6174176 -0.09308188 0.781109 129 129 129
0.0243812219710939 0.0502372966043761 0.0301278475342909 0.5420977 -0.08720706 0.8357781 106 106 106
0.0172644240269242 0.0433069024978683 0.0317807249760659 0.2834525 -0.1707513 0.9436623 153 153 153
0.0148871446696717 0.0451725299245574 0.0329182609037735 0.2002374 -0.1672039 0.9653745 83 83 83
0.0144704047103792 0.0483073436307188 0.0331431247025273 0.1953105 -0.1763171 0.9647622 81 81 81
0.0167271894760241 0.0466089200891432 0.0323501270797756 0.2722346 -0.1411977 0.9518148 75 75 75
0.018190667062536 0.0462369703778929 0.0318249620341526 0.304528 -0.140001 0.9421584 90 90 90
0.0161739977890063 0.0505711553898367 0.0332303535278191 0.2547487 -0.1588255 0.953875 83 83 83
0.0159692337701092 0.0507260589825937 0.0336038424964491 0.2547487 -0.1588255 0.953875 90 90 90
0.01860115668106 0.0501013638287046 0.0321316227967369 0.3606233 -0.1240639 0.9244236 73 73 73
0.0265494648058691 0.0464500986811722 0.0264866903453186 0.7630793 -0.2203269 0.6075904 108 108 108
0.0265801168611253 0.0481512016911779 0.0283624469286772 0.7450224 -0.1738556 0.6439844 113 113 113
0.0269780905368138 0.0504713647271743 0.0266592043114323 0.7712363 -0.0827995 0.6311408 72 72 72
-0.00351586173965268 0.0592278034710372 0.0226679698473265 -0.2117537 0.8801093 0.424933 79 79 79
-0.00730752924017475 0.0510408899736797 0.0336105912387024 -0.04478424 -0.02328956 0.9987252 86 86 86
-0.00744400603379924 0.0524402379545275 0.0338182438789077 -0.05805515 -0.04037583 0.9974965 96 96 96
-0.00296711413214767 0.0522558595671291 0.0332215535901215 -0.06570932 -0.06706812 0.9955823 60 60 60
-0.0073879983614269 0.0558065742733915 0.033923359731523 -0.1141893 -0.03357051 0.9928917 86 86 86
-0.00134071487109777 0.052580070278719 0.0333750758685197 -0.08099966 -0.1141736 0.9901533 96 96 96
0.00114273016153676 0.0527549699313461 0.034063820178662 -0.09800275 -0.1334229 0.9862017 62 62 62
-0.00273114852801459 0.0566827114397144 0.0345509872082428 -0.06180499 -0.00965648 0.9980415 84 84 84
-0.00124458293548102 0.0566123054281849 0.0348685131552338 -0.07850835 -0.009225091 0.9968708 84 84 84
0.00177199013488005 0.0549616366698095 0.0349895111707965 -0.09686092 -0.09577955 0.9906787 87 87 87
-0.00868695048200774 0.0570957302513406 0.0337942526559438 -0.1964689 0.0731716 0.977776 76 76 76
-0.00107643374967603 0.058914375156297 0.0352170463177525 -0.06840368 0.06613246 0.9954634 90 90 90
0.00893662616446322 0.0615267236322798 0.0286102865363653 0.3474135 0.830987 0.4344704 88 88 88
0.0107986796554642 0.0608798882170363 0.0302236141493007 0.3424856 0.8312034 0.437955 82 82 82
0.00441787015079154 0.0512142395192553 0.0345370262066785 -0.05293512 -0.1281454 0.9903417 115 115 115
0.00511612409074536 0.0547650238296717 0.0351056592554312 -0.01179419 -0.08079939 0.9966606 96 96 96
0.00631495077178235 0.0541270693229043 0.0348408636349597 0.02056474 -0.06163023 0.9978872 89 89 89
0.0109723226286631 0.0512848565097036 0.0342681888560298 0.09430359 -0.1445393 0.984995 68 68 68
0.00938918606674211 0.0522989625799982 0.0345876286889775 0.06055584 -0.1302258 0.9896334 114 114 114
0.0108350729109841 0.0549193278462934 0.0347289949041371 0.1266557 0.1129444 0.9854957 70 70 70
0.0109471743135123 0.056423921946047 0.0349610858379181 0.1275362 0.1861101 0.9742164 86 86 86
0.00490111607381793 0.0607513446365389 0.0345276682575949 0.1301969 0.3479076 0.9284444 116 116 116
0.00308483797673142 0.0613857714996455 0.0343276174571079 0.07015739 0.3121859 0.947427 89 89 89
0.0064369043082726 0.0624428078163772 0.0323605750602603 0.2625757 0.7199958 0.6423862 73 73 73
0.00779316950470177 0.0616301921616456 0.032268078746369 0.2637514 0.74942 0.6072931 58 58 58
0.00658880559790953 0.0605298320523289 0.034039318421274 0.2502519 0.4489644 0.8577907 83 83 83
0.00425649073683321 0.058484575009883 0.0353008725549361 0.08469363 0.2294091 0.9696383 101 101 101
0.00641081500101626 0.0577915747349582 0.0353178497019934 0.1296564 0.2617611 0.956384 85 85 85
0.0104572479509031 0.0594549174704433 0.0329368536449147 0.3146225 0.5950113 0.7395771 63 63 63
0.0131659492209231 0.0584527794601069 0.0338420983408335 0.248823 0.5098594 0.8234868 84 84 84
0.0161157536542142 0.0593033089398172 0.0245042800495497 0.4836675 0.851245 0.2035873 63 63 63
0.0229140936844177 0.0525529629064027 0.0304636490990337 0.5033405 0.003573046 0.8640807 88 88 88
0.0147233158837485 0.0590444277508542 0.0282483751459045 0.4432204 0.8226852 0.3560122 65 65 65
0.014229493358191 0.0602725294936808 0.0273533372707067 0.4231123 0.8719302 0.2464016 74 74 74
0.0144075347780697 0.0601758274421511 0.028076335171987 0.4212234 0.8598098 0.2886138 87 87 87
0.0163588951385942 0.0540058543539259 0.0341312781922912 0.3031002 0.03123556 0.9524466 110 110 110
0.0185031624381917 0.0526766785130988 0.0328167994336296 0.3985517 0.0006941482 0.9171456 79 79 79
0.0153121614980982 0.0570051483661731 0.0339955501241018 0.2902248 0.3364431 0.8958659 64 64 64
0.0160275309765412 0.0560551903827033 0.034102863610985 0.295366 0.2588605 0.9196467 70 70 70
0.0199077644235879 0.0515999586363655 0.0319085674364678 0.4296959 -0.05404067 0.9013551 81 81 81
0.0201339507144787 0.0557142941613906 0.0317647514134253 0.4251942 0.2567298 0.8679284 74 74 74
0.0168997039900378 0.0579226234262331 0.032472719245402 0.3887075 0.5911485 0.7067177 57 57 57
0.0257512987792734 0.0511343584101845 0.0283554376079287 0.6649324 -0.01016588 0.7468343 122 122 122
0.0629338836069149 -0.00741840928393633 -0.00363438240039024 0.6712748 -0.7392659 -0.0536296 62 62 62
0.0582740557089365 0.0128738302988914 0.0156877627684092 0.6089157 0.1262041 0.783131 63 63 63
0.0468568016498163 -0.000111308187844772 0.0170907117473803 -0.02265729 -0.3569475 0.9338496 110 110 110
0.059577865208797 0.0177028914444645 0.0113732898514598 0.5836778 0.5079734 0.6334693 67 67 67
0.0427049846065128 -0.0245152032225249 0.0115124082146221 0.2692111 -0.588029 0.7627236 158 158 158
0.0453063370344196 0.00261653438110432 0.0183564201233138 0.1246825 -0.356303 0.9260143 117 117 117
0.0450393312198942 0.00492865186013991 0.0196141966607527 0.1679604 -0.2638213 0.9498356 112 112 112
0.0443382430262025 0.0223227267198893 0.0184083764152172 0.3722206 0.1322577 0.9186728 95 95 95
0.0594944087357767 0.00394217411516384 0.0136778204974393 0.5388206 -0.03511458 0.8416884 59 59 59
0.0421575838310031 0.0337026325547263 0.0164662562343606 0.342314 0.3480898 0.8727282 80 80 80
0.0384214336269655 -0.0265939162110757 0.0103994913973323 0.1319575 -0.4680776 0.8737795 106 106 106
0.0552628456993292 0.00820491844691307 0.01719495341323 0.5256458 -0.09171418 0.8457452 121 121 121
0.0695458639037816 0.00863043885126813 0.00486713833413288 0.761944 0.2285949 0.6059586 81 81 81
0.048742229156542 -0.0206015626603345 0.00853331417670011 0.6081257 -0.7841128 0.123896 64 64 64
0.0430436713748783 -0.0278719466432644 -0.00255771258195919 0.8055989 -0.5909237 -0.04265695 105 105 105
0.0430710917661865 -0.0190105107222581 0.0143192643491574 0.05696559 -0.4420123 0.8951983 142 142 142
0.0381532888271621 -0.0348722925820517 -0.0122195714157929 0.8302708 -0.548268 0.100263 94 94 94
0.04966808709269 -0.0212564788755708 -0.00952609462036019 0.6095551 -0.7822201 0.1287416 113 113 113
0.0444999125530972 -0.0256623265265024 -0.0174034307139161 0.7096574 -0.7041254 0.02436733 55 55 55
0.0619278894823609 -0.00119228463560572 0.0116228757191647 0.5342056 -0.2113557 0.8185067 105 105 105
0.0565849446004902 -0.0144540855758123 -0.00998305847252023 0.8590772 -0.4904779 0.1463484 95 95 95
0.0429799985360768 0.0283092261510051 0.0181545794491345 0.3316048 0.2252056 0.9161445 61 61 61
0.0582811436296948 -0.0123691079784867 0.00789524829603491 0.6938717 -0.6831154 0.2278058 87 87 87
0.0406304313210475 0.0306011304566828 0.0179249183001148 0.34045 0.2853515 0.8959176 71 71 71
0.0446418769138486 -0.0206435680396131 0.0132862372741412 0.2078973 -0.5335848 0.8197963 158 158 158
0.0390970861008419 -0.0332418762041296 -0.0138741226324227 0.8687832 -0.4929562 0.04700949 120 120 120
0.0386752888792836 0.00428945840861494 0.0202968483379001 0.2624693 -0.3685238 0.891796 99 99 99
0.0448716990537807 -0.0252736641786917 0.000100994149185629 0.809036 -0.5856524 0.0497194 72 72 72
0.0510880954942712 -0.0190020454032288 -0.0059431950964654 0.6158358 -0.7716656 0.1589919 77 77 77
0.0395146789960812 -0.0318336362492275 -0.0198264985737236 0.8472821 -0.5271543 -0.0649725 48 48 48
0.0427787164053668 0.00650854054527472 0.0198343704123021 0.2153251 -0.2315393 0.9486963 108 108 108
0.0391035436205152 0.0347684318594524 0.0173230569056044 0.4320195 0.3596885 0.8270329 81 81 81
0.0526888491265098 -0.0131099284923153 0.0137212749460486 0.4690744 -0.1798538 0.8646513 108 108 108
0.0630166452968446 -0.00168916469081171 0.0105648808780187 0.544558 -0.2484083 0.8010929 97 97 97
0.0589406436743634 -0.0106476216662976 -0.00542096244265808 0.6643191 -0.7468684 -0.02945771 88 88 88
0.0611427474172901 -0.00740175549559507 0.0101416462100948 0.6349985 -0.4552762 0.6240998 122 122 122
0.0453575881995829 0.0044358849793138 0.0191138506541393 0.1619814 -0.2772862 0.9470345 104 104 104
0.0685312617697105 0.000784185130824344 0.00792224019566437 0.7008137 -0.282636 0.6549634 106 106 106
0.0692131759978958 0.00498812850164931 0.0068497913686448 0.7283511 0.08910967 0.6793852 96 96 96
0.0406331608874573 -0.0132569222118819 0.0162189285755237 0.02281795 -0.2802284 0.9596621 109 109 109
0.0489479821413465 -0.0204072838138221 0.00185382963008604 0.659161 -0.7516933 0.02153979 63 63 63
0.0585627122394818 0.0200348159197012 0.0108928011425474 0.5567886 0.4722002 0.6833838 60 60 60
0.039993762666497 0.0378522418389383 0.0148674901799903 0.4654666 0.4462362 0.764339 71 71 71
0.056445828034672 6.43891993566958E-05 0.0151616888218509 0.5259272 -0.2030517 0.8259362 142 142 142
0.0576984356750625 -0.0113316329660023 -0.00559731936756336 0.6932033 -0.7205316 0.01742001 75 75 75
0.0577266723394856 -0.00991159047874346 0.0111238984500281 0.5844601 -0.392576 0.7101341 91 91 91
0.0523061973528214 -0.0193936927933369 -0.014034928637693 0.649896 -0.759734 -0.02096088 88 88 88
0.044491104004484 0.0146334199138725 0.0210985521018964 0.3882258 0.09492921 0.916662 111 111 111
0.0576349362771991 -0.0106503375641017 -0.0128385146355227 0.8539901 -0.5156484 0.0693373 81 81 81
0.0583210176250812 -0.0112636054685007 -0.0150561095428024 0.8601208 -0.5095045 0.02444013 63 63 63
0.0507311383585471 -0.01765357487036 0.0125516523668456 0.4996355 -0.609718 0.6153116 110 110 110
0.0609900998576967 0.0158252216900158 0.0124618873151312 0.6495329 0.3478063 0.6761196 70 70 70
0.0384397828906087 0.0347299606666389 0.0178368271802198 0.4679058 0.3399656 0.8157742 86 86 86
0.0474443572954741 0.0202745973078732 0.0169555475288388 0.4475622 0.2203756 0.8666734 60 60 60
0.0609292081795676 0.0068973215108894 0.0127569172008916 0.5868807 0.01828667 0.8094669 86 86 86
0.0602145530981355 -0.00802015216934271 -0.0138002239319878 0.8366675 -0.1262503 -0.5329618 51 51 51
0.0410634755208945 0.0245798682647087 0.0190488340427569 0.3158229 0.1389314 0.9385915 53 53 53
0.0410891179123718 -0.0293876653946221 -0.0178330089839032 0.8089849 -0.5878255 -0.00214007 67 67 67
0.0543571319454612 -0.0146635281865971 0.0117928577361281 0.6853934 -0.5000358 0.5293393 118 118 118
0.0504030528185937 -0.0209420137253229 -0.0157354907217834 0.6427644 -0.7640409 -0.05563567 148 148 148
0.0426352806056189 -0.028099376057079 -0.0204149101139858 0.7504957 -0.6608742 0.00122731 49 49 49
0.0514782575936668 -0.0146392795457702 0.014155337260233 0.4362931 -0.3539377 0.8272705 133 133 133
0.0559292583899293 0.017090606123263 0.0141567330179713 0.4103064 0.5381914 0.7362056 34 34 34
0.0532052333459134 0.0106501130591911 0.0187274953499181 0.315905 0.05385321 0.9472612 131 131 131
0.0642798913759592 -0.00641496638769679 -0.000979654312238815 0.6970933 -0.7169366 -0.007920812 71 71 71
0.0664870207436481 0.00074874268801306 0.00908550534768499 0.6215138 -0.1967609 0.7582913 94 94 94
0.051457363389821 -0.0198378156421679 -0.016648475684421 0.6504672 -0.7517568 -0.1084166 129 129 129
0.0389420878540827 -0.0153080071771369 0.0155832001557984 -0.08517592 -0.3269275 0.9412032 152 152 152
0.0656899363447914 -0.0020481017224786 0.00873656578239834 0.6516272 -0.4051939 0.6412488 114 114 114
0.0699761340999778 0.0012086599719181 0.00591545588657391 0.7846092 -0.340001 0.5184475 106 106 106
0.0522870055454701 -0.0180819066699043 -0.0210142894508663 0.6881467 -0.6614261 -0.2982778 76 76 76
0.0452116482830789 -0.0247109631554694 -0.00220550776125608 0.7937304 -0.608133 -0.01290025 85 85 85
0.0676835954395671 0.00960289506920575 0.00735471992570161 0.6730055 0.2061599 0.7103251 85 85 85
0.0465372140798741 0.00123713309271034 0.0179420848012187 0.02324681 -0.3642275 0.9310198 118 118 118
0.0390574754940451 -0.031250387457493 -0.0244786016575354 0.8089908 -0.5488912 -0.2103623 54 54 54
0.0463815385120907 -0.00951237800946858 0.015334025399717 0.2637509 0.06181865 0.9626079 92 92 92
0.0582502483659515 0.0139107144421102 0.0159905852832271 0.559545 0.2312856 0.7958746 76 76 76
0.0526410500298566 -0.00116810860804106 0.0173741021201502 0.2321538 -0.2822611 0.930824 116 116 116
0.0459575800518954 -0.0242339527526921 -0.0204891702724665 0.7083961 -0.7057372 -0.01048297 90 90 90
0.0387201361998732 -0.0248918918151197 0.0114867815606806 -0.003737368 -0.4295321 0.9030439 118 118 118
0.048142890670734 -0.0210197394056216 -0.000467228734255143 0.6973307 -0.715112 0.04842294 59 59 59
0.0707131306698585 0.00234006682618293 -0.00110486896763184 0.9199828 -0.3355949 -0.2025038 100 100 100
0.0526980869604441 0.0141477286791367 0.0181265483372177 0.3159366 0.2951134 0.9017162 102 102 102
0.0390599841483898 0.0155644331585284 0.0231205482531382 0.3616433 0.02709838 0.9319227 134 134 134
0.0427096298920504 -0.0284478083844455 -0.00389738185642682 0.7944617 -0.6003609 -0.0916371 134 134 134
0.0469658521122622 -0.0230253872902689 -0.0242866141191589 0.7064406 -0.6180283 -0.3449387 71 71 71
0.0509347218518359 -0.0191582582237514 -0.0219779499270268 0.7248127 -0.6270339 -0.2854381 69 69 69
0.0587730019028014 0.00664497137337983 0.0143467366621529 0.6348398 -0.05159572 0.7709192 80 80 80
0.0463854778593218 0.0182910150722718 0.0180792385491876 0.4456049 0.358489 0.8203182 52 52 52
0.0550035863420621 -0.0149701773046297 0.00810883000973192 0.6982426 -0.6961045 0.1670205 91 91 91
0.0689297274201404 -0.00190753562608892 0.00047836822371769 0.7726284 -0.6348363 0.005313389 71 71 71
0.04067658378785 -0.0152870209199257 0.0157786893663469 -0.01842162 -0.2896695 0.9569495 160 160 160
0.0560971188207975 0.0224923067001642 0.0115380371146611 0.5939704 0.3156351 0.7399822 82 82 82
0.0555048075803928 -0.0139807320581146 0.000955291656912272 0.7149336 -0.6989927 -0.01671022 76 76 76
0.0631857334496608 0.0129644138824639 0.0105540939001161 0.7446781 0.1180521 0.6569005 95 95 95
0.0388905024606392 0.0266768965726464 0.0199970610565248 0.374958 0.1198159 0.9192663 72 72 72
0.0548954463584996 -0.0169907495565366 -0.0114240938851574 0.774257 -0.6185001 0.1341032 91 91 91
0.0667498134711075 -0.0032193550455879 -0.00585783643666846 0.746556 -0.6033525 -0.2803922 75 75 75
0.0496889783991281 0.0267112647343433 0.0148734416604843 0.5454147 0.3144486 0.7769459 79 79 79
0.0491459018978282 -0.0212912751546757 -0.0210089386488267 0.6866092 -0.7248752 -0.05589138 105 105 105
0.0483843781586297 0.0267892858904655 0.0162761067423834 0.490776 0.2792266 0.8253311 105 105 105
0.0638266260948339 0.00206341350965444 0.0114777130064558 0.53216 -0.07291307 0.8434983 104 104 104
0.0398958084533763 -0.00305125548494223 0.0172650520525025 0.2785249 -0.1810343 0.9432129 50 50 50
0.0376576705488998 0.0371316166748505 0.0171350484129327 0.5550392 0.3775085 0.7412279 91 91 91
0.0638265050266051 0.00133992094374813 0.0115165558908542 0.5279102 -0.1440655 0.8369922 94 94 94
0.0667266675218223 0.00246566325924191 0.00944674913503271 0.6309742 -0.03723881 0.7749095 80 80 80
0.0592351930087109 -0.00898735085002256 -0.0117557809460299 0.8167418 -0.5729633 -0.06816065 58 58 58
0.0457502372055614 -0.0241445912812451 -0.0255213272383045 0.6992649 -0.6972388 -0.1577553 79 79 79
0.0502360160228448 -0.01653634411903 0.0139984732094313 0.4175276 -0.4346153 0.7979851 116 116 116
0.0384197358604235 -0.0307113904476887 -0.0292447493218254 0.8161478 -0.4815418 -0.3194061 96 96 96
0.0388442810618534 -0.0310618459044655 -0.0279354704688742 0.8138574 -0.4940129 -0.3059206 83 83 83
0.0388158299549208 -0.0308721770900657 -0.0263745372688307 0.8153285 -0.5435109 -0.1995877 60 60 60
0.0405463179723409 -0.0296062824954925 -0.0238258438755742 0.7714379 -0.61162 -0.1755122 52 52 52
0.0403647218123036 -0.0303315670913822 -0.0235842803269667 0.8169241 -0.5488431 -0.177218 58 58 58
0.040150936550714 -0.0287883819366788 -0.0268936774928684 0.7780556 -0.5971866 -0.1949298 78 78 78
0.040710420180015 -0.0278493081987934 -0.0274558670003955 0.7680224 -0.6054688 -0.2086847 97 97 97
0.0410072691149046 -0.0273024818319307 -0.0262446571946119 0.7539728 -0.6247849 -0.2029011 61 61 61
0.0422269900460082 -0.0263096845885016 -0.0260506061335249 0.7207898 -0.662076 -0.2052255 70 70 70
0.0419460572085617 -0.0281405727964722 -0.0234461821564098 0.7493017 -0.633662 -0.1924043 70 70 70
0.0449217898873786 -0.0262141508042761 -0.0214746445488636 0.7086789 -0.6995558 -0.09162901 58 58 58
0.0463920684581858 -0.0243800837984478 -0.0218598843350565 0.6869852 -0.7209094 -0.09132934 106 106 106
0.0479595567099813 -0.0220778354565588 -0.0240937994622845 0.7618725 -0.5030305 -0.4080571 92 92 92
0.0383551008543148 -0.0353761793885192 -0.0178957515649083 0.8369078 -0.5444684 -0.05603096 78 78 78
0.0383467666175905 -0.034943862237182 -0.0156546237227138 0.8557993 -0.5170584 0.01606573 102 102 102
0.0388150645522667 -0.034732977445185 -0.013933462188905 0.8440847 -0.5323887 0.06390027 97 97 97
0.038766836213274 -0.0330419220834388 -0.011939065692127 0.8543545 -0.5131022 0.08248997 145 145 145
0.0396440154302606 -0.0314275455075024 -0.012025601481096 0.8505731 -0.5223678 0.06047582 155 155 155
0.0374239806882 -0.0351695168154552 -0.0105525154287471 0.8170228 -0.5710468 0.07986984 99 99 99
0.0394897616964109 -0.0313432735511693 -0.0100366495506541 0.8340201 -0.550428 0.03794081 144 144 144
0.0421738352940979 -0.0288650776475983 -0.0117111965199577 0.7869921 -0.61577 0.03835021 105 105 105
0.0418851011880097 -0.0288561986021124 -0.0191587583344235 0.7706693 -0.6371801 0.00838664 45 45 45
0.0602015981751061 0.0183747631294322 0.0107826159501455 0.6215962 0.5314777 0.575456 78 78 78
0.0421098199367074 -0.0279998817827944 -0.0188792200022845 0.7463517 -0.6655359 0.004599513 41 41 41
0.0423934003413069 -0.0282504337723155 -0.0160780173490697 0.7802784 -0.6254299 -0.001777612 61 61 61
0.0433134823186951 -0.027386226081895 -0.018402293979693 0.74244 -0.6695172 0.02301007 69 69 69
0.0441178114284915 -0.0264833262714734 -0.0199884234353053 0.7297609 -0.6829199 0.03270209 80 80 80
0.0459965887940594 -0.0247008664804111 -0.0187906207982655 0.6919968 -0.721421 0.02630827 91 91 91
0.043502846521021 -0.0265274000096166 -0.0166915432685634 0.7265517 -0.6870821 0.006392031 42 42 42
0.0447937364978399 -0.0252727305714862 -0.0154402952449054 0.698538 -0.7149933 -0.02879658 90 90 90
0.0469152342830768 -0.0232678926676905 -0.0203475594214797 0.6863304 -0.7265056 -0.03376531 75 75 75
0.0468776124074419 -0.0231657853099058 -0.0178569584620662 0.6695496 -0.7425585 0.01761333 73 73 73
0.041368722059445 -0.0289238539369971 -0.0140311625420858 0.8053588 -0.5921452 0.02758959 79 79 79
0.0412164380607813 -0.0289411591458161 -0.00948936731627156 0.8006937 -0.598799 -0.018147 138 138 138
0.0433158813424841 -0.0271902576735386 -0.0119860527265441 0.7333074 -0.6792992 0.02851063 114 114 114
0.0435627435793173 -0.0263650805349672 -0.0145881400662265 0.7242291 -0.6895069 -0.008512095 62 62 62
0.0441718121328853 -0.0260516687121852 -0.0142441246029097 0.7093113 -0.7048953 0.0001827137 74 74 74
0.0462038672383445 -0.0240213650433407 -0.0138119598054364 0.6568903 -0.7535458 0.02576611 117 117 117
0.0472730341964427 -0.0232393001936136 -0.0136504647870169 0.6399379 -0.7682361 0.01711338 129 129 129
0.0492336365675112 -0.021531866639208 -0.0141985590500011 0.621048 -0.7835544 -0.01848913 127 127 127
0.0483750252806709 -0.0222547063265495 -0.0142403720793093 0.6196361 -0.7848489 -0.007960024 107 107 107
0.0485575374808067 -0.0226498990201193 -0.0117007178697503 0.6098558 -0.7899202 0.06404613 108 108 108
0.0515532688447622 -0.0199603098398676 -0.0181407651583068 0.6586162 -0.7448756 -0.1067003 126 126 126
0.0492390458064627 -0.0215868480981559 -0.0156550804750832 0.6230079 -0.781154 -0.04073776 127 127 127
0.0529501530119738 -0.0182521510517829 -0.0170583897369773 0.6719623 -0.7325451 -0.1088321 118 118 118
0.0533522208120703 -0.0186700376713758 -0.0157949987073183 0.6716554 -0.7344071 -0.09759746 122 122 122
0.0505133446508226 -0.021008867563076 -0.0119841454710495 0.6119168 -0.7895066 0.04729898 133 133 133
0.0529386483123853 -0.0190508458175709 -0.0118976680635739 0.6578537 -0.7524734 0.03181773 89 89 89
0.0522949508405448 -0.0202037722625882 -0.010998667382945 0.6125271 -0.7862291 0.08157509 130 130 130
0.0539194983902727 -0.0181759227331184 -0.0102968383772001 0.7073029 -0.6987251 0.107265 78 78 78
0.0380900000780295 -0.034338588367727 -0.00737880202271121 0.8068166 -0.586773 0.06887936 65 65 65
0.0387265761524724 -0.0328227382114959 -0.00841777398742577 0.8318253 -0.5527176 0.05069416 141 141 141
0.0402059475822871 -0.0311036615341729 -0.00515038693658151 0.7808896 -0.6218144 -0.0596509 134 134 134
0.0393047474677002 -0.0316850982129698 -0.00585941897471337 0.7948272 -0.6064708 -0.02104453 122 122 122
0.0387329889349624 -0.0330118470823523 -0.00404262180927259 0.7635563 -0.6457331 0.003264016 122 122 122
0.0392903652195131 -0.0324423287869081 -0.00197899293198522 0.7492367 -0.6621874 -0.0123382 94 94 94
0.0409583190968008 -0.0307799949185732 -0.000828210297391468 0.768449 -0.6398802 -0.006282187 124 124 124
0.0373160202749196 -0.0340211573126763 0.000214582742728342 0.7230197 -0.6893119 0.04573351 90 90 90
0.0385839954844971 -0.0331970612095924 0.00160509642610057 0.7120954 -0.698793 0.06788582 90 90 90
0.0430184598252001 -0.0271162421585491 -0.00797506601066492 0.7668979 -0.6417682 -0.001101197 138 138 138
0.0414913001182349 -0.0290129221055947 -0.00646062556317598 0.8004997 -0.5957959 -0.06501884 120 120 120
0.0443596463826323 -0.0252922625815142 -0.00807460930068074 0.7434503 -0.6681883 0.02839009 143 143 143
0.0433887931875692 -0.0264231644235946 -0.00626509913912793 0.7742131 -0.6318557 -0.03677667 134 134 134
0.0438282322921832 -0.0257996102557898 -0.00692091473787582 0.7588797 -0.6511899 0.007294493 142 142 142
0.0434012460255722 -0.027182190163526 -0.00389725996744772 0.801655 -0.5940232 -0.06697532 124 124 124
0.0456764707493273 -0.0238896614076342 -0.00565430245620593 0.7525296 -0.6584514 0.01186923 109 109 109
0.0445866291529091 -0.0250271539360349 -0.00428976903635253 0.771049 -0.6358309 -0.03467825 116 116 116
0.0461217331872694 -0.0241995021170819 -0.00382479897341115 0.7659021 -0.6428945 -0.008980674 107 107 107
0.0476951790880329 -0.0219057523660646 -0.00766335188695061 0.6594968 -0.7426461 0.1163645 114 114 114
0.0457593515003976 -0.0237039581177162 -0.00364100311938778 0.7607269 -0.6488422 0.01727183 89 89 89
0.0473940606215488 -0.0222547409136099 -0.00567123967042416 0.6770703 -0.7314011 0.08141422 55 55 55
0.0490559000069322 -0.0208358900419381 -0.00595392476749965 0.6574737 -0.7448553 0.1136615 53 53 53
0.0475895526644758 -0.0219644640890695 -0.00355112867350993 0.7211885 -0.6906978 0.05313738 64 64 64
0.0486158156844394 -0.0209646228404712 -0.00365153857523376 0.6844432 -0.7245782 0.08077092 50 50 50
0.0418145101591492 -0.0297012181256636 -0.000137568734941723 0.792644 -0.6089414 0.03009918 95 95 95
0.042335648733113 -0.0291329166110517 -0.000514842298094315 0.7999104 -0.5998437 0.01819046 103 103 103
0.0440282422869585 -0.0271042113811446 9.68373768556741E-05 0.8194191 -0.5711822 0.04799135 83 83 83
0.0468880720591072 -0.0229834063673223 -0.00333668018592342 0.7297674 -0.6824352 0.04149232 96 96 96
0.0484070821764715 -0.0211158787179315 -0.00201356039281286 0.6980719 -0.7132255 0.06328517 53 53 53
0.0465296444442385 -0.0228309634484156 -0.000104940066205567 0.7622929 -0.6459095 0.04135651 71 71 71
0.04576215794755 -0.0230502278040519 0.00169826558959721 0.775157 -0.6306789 0.03709124 65 65 65
0.0512207054414513 -0.0193058262065217 -0.00775172686512332 0.618187 -0.7680157 0.1673224 83 83 83
0.0525905785341583 -0.0184504700692995 -0.00786342568474652 0.684895 -0.7062767 0.1791429 63 63 63
0.0505738796610338 -0.0191838838008841 -0.00191105959500382 0.6607479 -0.7483664 0.05796621 53 53 53
0.0493411218544613 -0.0197982119553424 -0.00058764450368351 0.6639215 -0.746739 0.03986515 40 40 40
