ply
format ascii 1.0
comment File exported by Rhinoceros Version 7.0
element vertex 471
property float x
property float y
property float z
property float nx
property float ny
property float nz
property uchar red
property uchar green
property uchar blue
end_header
0.080597102096461 0.0282016523573478 -0.00191518973431883 0.9967629 -0.08038627 0.001307209 58 58 58
0.0758745068816172 -0.00284348647855914 0.0310974164692372 0.9880559 -0.1482778 0.04194369 37 37 37
-0.0236684089394582 0.0869010217878898 0.000733927526852515 -0.1182883 0.9924577 0.03217985 130 130 130
0.0293585652617442 0.0930153258535942 -0.0133123540493041 -0.224045 0.9724742 0.06401347 116 116 116
0.0321078295020091 0.093084646055468 0.0146514816967458 -0.1982565 0.9792083 0.04295842 120 120 120
-0.0395063167305959 -0.0984610192086617 0.0120890780178517 -0.9007236 -0.4328063 0.03709009 75 75 75
-0.0366683607789052 -0.0858253113534371 0.00142017442860308 -0.9369186 0.0996436 -0.3350444 110 110 110
-0.0359588866921438 -0.0903501979615609 0.0081613703457326 -0.7443422 0.5614582 0.3615513 68 68 68
-0.0352494126053823 -0.0832452646996895 0.00669250328221026 -0.9795945 -0.1077137 -0.1696832 82 82 82
-0.0395950084420217 -0.0855108968522469 0.0219319580880612 -0.9133365 0.3996694 -0.07797933 68 68 68
-0.0376882558556569 -0.0780503622796456 -0.00174118887505827 -0.8185742 -0.4058572 0.406468 139 139 139
-0.0387524967881215 -0.0787517301347176 0.00265751097478571 -0.7195348 0.5345489 0.4433138 128 128 128
0.0440361494330394 -0.10270600240492 0.00972566444554034 0.232291 -0.9696497 0.07629067 124 124 124
0.0510202044753062 -0.10125188749098 0.00886695522942248 0.3185059 -0.946981 0.04220138 124 124 124
-0.0352050667496694 -0.0365228525903145 -0.028917494526723 -0.8604796 0.5081897 0.03630587 53 53 53
-0.0399497752877248 -0.0256554357316414 -0.0227534690114051 -0.6921657 0.7043343 -0.157543 121 121 121
-0.0383533840867055 -0.0423686377313057 0.0171716554848165 0.03419359 0.2250852 0.9737389 110 110 110
-0.0396837001534475 -0.0309992901589791 0.00323299009480181 -0.6088521 0.7577103 0.234892 121 121 121
-0.0152062779160512 -0.0590820185449044 0.0615000023333043 -0.07525776 0.1281029 0.9889014 167 167 167
-0.00567251498422749 -0.0646937958505074 0.0659943117586583 0.05963143 -0.01039217 0.9981664 158 158 158
-0.00101649815759786 -0.065282749345533 0.0651972858993024 -0.01461809 -0.03031058 0.9994336 188 188 188
0.00412732308187358 -0.0650626293923775 0.0656376301137418 0.03275177 -0.07777312 0.996433 153 153 153
-0.0395063167305959 -0.0476647488381783 0.0352860062209577 -0.8720207 0.3021065 0.3851123 99 99 99
-0.0399054294320119 -0.0445543996598641 0.0440085201350659 -0.6249586 0.7650948 -0.1551027 91 91 91
-0.0397280460091604 -0.0371069781091133 0.0346273599950284 -0.8482583 0.4162132 0.3274515 89 89 89
-0.0358110671731008 -0.0625640622880379 0.0672784491268605 0.09963407 -0.006329209 0.995004 177 177 177
-0.0367127066346181 -0.0601585380341927 0.0675509690133542 0.1425038 -0.1092079 0.9837511 171 171 171
-0.0298727756234182 -0.0606649390962044 0.0668094127265424 0.1008289 0.05362089 0.9934577 188 188 188
-0.0287752752991689 -0.0608712903764168 0.067608107515952 0.06398007 0.04971465 0.9967121 175 175 175
-0.0311033135148061 -0.0579524509217659 0.0668499289838285 0.1305777 -0.0504107 0.9901556 183 183 183
-0.0291152601929677 -0.0549104086663643 0.0668488784519643 0.170876 -0.1700311 0.9705106 180 180 180
-0.0353381043168081 -0.0561108462121407 0.0687604292122335 0.156572 -0.2514584 0.9551198 147 147 147
-0.0348946457596792 -0.0543272964265267 0.0687774910418004 0.196287 -0.2850682 0.9381938 151 151 151
-0.0388855343552602 -0.0529992453362862 0.0698573185888738 0.1795456 -0.2526614 0.9507501 144 144 144
-0.0373778348656667 -0.0506791941430489 0.0701881988731832 0.1040331 -0.268918 0.9575282 139 139 139
-0.0252721911164296 -0.0614482037331978 0.0666059969750852 0.05971784 0.004634578 0.9982045 165 165 165
-0.0171425944062246 -0.0610823504235665 0.0666961937037915 0.05611546 0.08502918 0.994797 167 167 167
-0.0275114780159963 -0.057275461366407 0.0668977468100995 0.05243202 0.03537485 0.9979978 167 167 167
-0.0238827472420705 -0.0570000879075447 0.0665933682409734 0.01707855 0.01399891 0.9997562 176 176 176
-0.0265138154717458 -0.051341520955793 0.0685105814424962 0.2197213 -0.230755 0.947879 170 170 170
-0.0211187010499013 -0.0528207890298287 0.0663705511776418 0.08360308 -0.114802 0.9898642 182 182 182
-0.0217838292809499 -0.0508645049836556 0.0664307593194455 0.1641417 -0.267194 0.9495603 163 163 163
-0.0357815032692922 -0.0474194757249276 0.0617514892307729 0.07807986 0.7706225 0.6324908 155 155 155
-0.0346729164811147 -0.0426117054726998 0.0616364671675176 -0.9559252 0.05980932 0.287454 166 166 166
-0.0279771095009816 -0.0503393880631844 0.0679336606351346 0.2538719 -0.2478111 0.9349539 165 165 165
-0.0209265356751455 -0.0474670402314583 0.0674219771114797 0.182192 -0.2700984 0.945438 147 147 147
-0.035323262760259 -0.0490792862679879 0.0702770097938985 0.1204881 -0.2613944 0.9576824 148 148 148
-0.0358258491250051 -0.0446405283715645 0.0727407677856893 -0.03354014 -0.07353583 0.9967284 155 155 155
-0.0315688853951467 -0.0481664411332527 0.0697789384809941 0.18514 -0.4053582 0.8952139 145 145 145
-0.0374665265770925 -0.0402636997010628 0.0637380971399755 -0.9514236 0.2332567 -0.200959 168 168 168
-0.0360586648674978 -0.0411594979073922 0.0722162022081822 -0.1285578 0.09181395 0.9874427 132 132 132
-0.0395506625863088 -0.0405199400689522 0.0711082785216779 -0.1775407 0.1552288 0.9717939 144 144 144
-0.0387081509324086 -0.0397170058991829 0.0714191018430203 -0.1860742 0.144711 0.9718205 161 161 161
-0.0333315139504445 -0.0376186243798653 0.0720937593666524 -0.1004238 0.1857737 0.9774473 138 138 138
-0.0313471561165822 -0.0371351115014473 0.0722513242451161 -0.002674785 0.1625372 0.9866988 124 124 124
-0.0235427623482717 -0.0434661976601998 0.0699521346775502 0.2100871 -0.2956859 0.9318976 130 130 130
-0.0256712442132009 -0.0383152238633553 0.0708377553907842 0.1960744 -0.05350734 0.9791281 119 119 119
-0.0256357794495595 -0.0354103915002266 0.0710341824976415 0.1422107 0.06238754 0.9878684 122 122 122
-0.0150584583970083 -0.0633416048791329 0.0666639252392262 0.05658695 0.02333976 0.9981248 171 171 171
-0.0083774333687795 -0.05917869727873 0.0660764469591588 0.0671412 0.007732605 0.9977135 184 184 184
0.0103649491576182 -0.0506420604493538 0.0654197602359265 -0.05869456 -0.006076099 0.9982575 131 131 131
-0.00702494437418111 -0.0551767818238655 0.0656659795729131 0.01586 -0.03407592 0.9992934 165 165 165
-0.00629329735956319 -0.0541565291192452 0.0653317539779157 0.005934899 -0.02836322 0.9995801 152 152 152
-0.0154989367218984 -0.050973998716108 0.0659506811586827 0.07229272 -0.03878212 0.9966292 162 162 162
-0.0136321192475332 -0.0536832086350838 0.0658676667896718 0.03026824 0.0273106 0.9991686 169 169 169
-0.009885132858373 -0.0535010568406502 0.0667634947983235 0.008876322 0.02254355 0.9997064 153 153 153
-0.00546556765756734 -0.0511104337479988 0.0664376064030141 0.02459683 0.02425502 0.9994032 152 152 152
-0.00057303960046895 -0.0627127758767525 0.065697570034644 -0.02880062 -0.03796903 0.9988638 159 159 159
0.00164413397588603 -0.0633540622498909 0.0655448331324071 0.005842712 -0.02291906 0.9997203 159 159 159
0.000402509620569869 -0.0609390608575264 0.0659361227241963 0.04830899 -0.08712361 0.9950255 145 145 145
0.0049587482718455 -0.061356591394178 0.0654426558701009 -0.006561371 -0.04321685 0.9990442 177 177 177
-0.00132685954294331 -0.0532373062875191 0.0658719210711926 -0.02436562 0.04231558 0.9988071 138 138 138
0.00164413397588603 -0.0545218459870735 0.0667625187722653 0.03076004 0.03551335 0.9988957 135 135 135
-0.0133438711853994 -0.0490902535226265 0.0657919465390653 0.06728268 -0.03656486 0.9970637 149 149 149
-0.0167139774056447 -0.046807932069532 0.0669719098893613 0.1802642 -0.1574092 0.9709414 144 144 144
-0.0112153893204702 -0.0510851017739693 0.0661339430896253 0.006228062 0.007719751 0.9999508 148 148 148
-0.00589424426279195 -0.0470945112016121 0.0655299021688909 0.02358845 0.04038329 0.9989058 144 144 144
-0.00746101195535787 -0.0448944441583077 0.0661306350318402 0.0449805 -0.01559875 0.9988661 133 133 133
0.00426036064901225 -0.0512186757829109 0.058546733745715 -0.6828791 0.3465885 0.6430805 158 158 158
-0.0046082740517629 -0.0446960799004952 0.0577976598230809 0.4925345 -0.4409862 0.7502939 161 161 161
-0.00385445410928853 -0.0477626196648995 0.0662814571348638 0.04288599 0.02848767 0.9986737 155 155 155
-0.00148207003793843 -0.047360705545179 0.0659264667717427 0.01654375 0.01743951 0.999711 151 151 151
0.00106763785161845 -0.0497417918946663 0.0652703313914746 0.01699923 0.06094982 0.9979961 152 152 152
0.00317394678869121 -0.047274994065992 0.0658947571007222 0.005924389 -0.007327732 0.9999556 150 150 150
0.000712930610560103 -0.0446187726762215 0.0658528922883481 -0.0009498334 -0.02668067 0.9996436 127 127 127
0.00505852644719951 -0.0445107094552437 0.0656179978338689 -0.00694419 0.004786452 0.9999644 138 138 138
-0.0136838560791982 -0.0395327679421822 0.0682684375730962 0.2734702 -0.323702 0.9057765 100 100 100
-0.0105946069451345 -0.0399700872208992 0.0669204040256948 0.2267201 -0.2817499 0.932317 131 131 131
-0.014408112117864 -0.0366976730134407 0.0691962285725087 0.2426821 -0.2036881 0.9484812 123 123 123
-0.00378793532571919 -0.0430710188653389 0.0656819387165517 0.00710146 -0.03374045 0.9994054 129 129 129
-0.00560599620065816 -0.0396435729768196 0.06586514849343 0.06859563 -0.1644361 0.9839997 155 155 155
-0.000129640647984819 -0.0428521506097237 0.0654519541946858 -0.006784813 -0.04752755 0.9988469 127 127 127
-0.0396837001534475 -0.0381196610238472 0.0508368431416959 -0.6814569 0.4013591 -0.6119863 111 111 111
-0.0356484657021535 -0.0299228898789803 0.0601669370023221 -0.8653177 -0.3086013 0.3949563 209 209 209
-0.0390037899704946 -0.0290917031075875 0.0681727572170705 -0.1926251 0.2390844 0.9517007 165 165 165
-0.0294477945061696 -0.0332196227815071 0.0711705281225652 -0.0151324 0.246619 0.9689944 130 130 130
-0.0301410561295522 -0.0307594410684029 0.0700919746247739 -0.1065089 0.2897847 0.951147 126 126 126
-0.0264694696160329 -0.0337513558175484 0.0720168991772145 0.08333667 0.1723764 0.9814996 126 126 126
0.0810626739768016 0.024169040510424 -0.0614482549192697 0.8941165 -0.4398257 0.0843153 52 52 52
-0.0192710762711538 -0.0331629983689705 0.0703622518865079 0.1150938 -0.01069043 0.9932971 116 116 116
-0.0242966418953908 -0.0220749251153389 0.0613587244240254 0.3917225 0.7663826 0.5091278 143 143 143
-0.00930863673410542 -0.034847962072126 0.0685237987724752 0.2555469 -0.2302469 0.9389793 125 125 125
-0.00589424426279195 -0.0313602558877388 0.0680483548728436 0.2272132 -0.1405393 0.9636508 113 113 113
-0.00158184821329244 -0.0370987526681343 0.0660336284724683 0.09931143 -0.1396518 0.9852079 163 163 163
-0.00487434918604024 -0.033108996560804 0.0667456730095357 0.2217814 -0.1814069 0.9580734 135 135 135
-0.00576120669565328 -0.0338316432740609 0.0692258669821233 0.2244422 -0.1715944 0.9592607 155 155 155
0.00206536000051372 -0.031302081754438 0.0666393979279012 0.1724831 -0.08290741 0.9815172 108 108 108
-0.00487434918604024 -0.0283182136323372 0.068414208182475 0.2395386 -0.1015783 0.9655585 116 116 116
0.000461637428187056 -0.0292047731187264 0.0668538852421254 0.2107961 -0.0873565 0.9736189 133 133 133
-0.00966340357980855 -0.024194406678907 0.0621079771605939 0.0767176 0.006002406 0.9970348 166 166 166
0.00918245260991923 -0.0648054353501717 0.0644417523232907 0.0537083 -0.04642622 0.9974768 149 149 149
0.0123160475996958 -0.0649962894227425 0.065341730305335 -0.06315769 0.09949762 0.9930314 162 162 162
0.0155678386000621 -0.0627485386636177 0.064701747783801 -0.08050898 0.03448318 0.9961572 158 158 158
0.0221750134734141 -0.0650263301637093 0.065219049045226 -0.001011433 -0.006879179 0.9999758 139 139 139
0.0281524652747142 -0.0647618643548409 0.0652603923169583 0.04771044 0.0378073 0.9981455 151 151 151
0.038927852561854 -0.0629575125482003 0.0649303464976758 0.06470858 0.1816487 0.9812322 156 156 156
0.0441359276083934 -0.0632251970078865 0.0641412704078168 0.2017993 0.2057456 0.9575729 166 166 166
0.0067435497549998 -0.0630646816995064 0.0650250061241597 0.08770858 -0.039653 0.9953566 152 152 152
-0.0197736030312551 0.0853102334234794 -0.0414494595663935 -0.1342985 0.9909297 -0.004719838 86 86 86
0.0161443347243296 -0.0590274206902901 0.0649349956599683 -0.02025448 -0.03255826 0.9992646 120 120 120
0.00683224146642558 -0.0562081209924141 0.0655513747421712 0.04948324 -0.008062117 0.9987424 139 139 139
0.00802951996602885 -0.05535869519972 0.0656156956044644 0.06314982 -0.0005474574 0.9980039 133 133 133
0.0135723943022715 -0.0564616791512886 0.064865444490096 0.05577242 -0.09703543 0.993717 132 132 132
0.0163438910750376 -0.0531490914132515 0.065234464296481 0.06406866 -0.0599081 0.9961457 141 141 141
0.0138384694365489 -0.0535965434815804 0.0659159018484563 0.02150928 -0.06628186 0.9975691 116 116 116
-0.0283318763466848 -0.0118844382073799 0.0663741498080701 -0.07334834 0.271006 0.959779 153 153 153
0.0220419759062754 -0.0603093973901192 0.066150490829131 0.007489131 0.007111498 0.9999467 140 140 140
0.0243921274451243 -0.0627145640160958 0.0655376880256146 0.04861384 0.005691308 0.9988014 147 147 147
0.0263812536505686 -0.0609933606889168 0.0651601149527043 0.08605059 0.01833162 0.9961221 149 149 149
0.020489930560969 -0.0551859609391609 0.066222634801051 0.007994885 0.005101908 0.999955 152 152 152
0.0268088573721873 -0.0571843258645455 0.0651440887538404 0.08903988 0.07359852 0.9933051 125 125 125
0.0227514499930369 -0.0528913609292427 0.0651873319236249 0.0611315 -0.01697825 0.9979853 135 135 135
0.0265871280936228 -0.0549679867532173 0.0648119344202489 0.08828004 0.02604862 0.995755 142 142 142
0.00687658732213847 -0.0463791362550179 0.0657125755039662 -0.004993702 0.01533943 0.9998699 136 136 136
0.00763040726461284 -0.0460128657128731 0.0654624967662305 -0.02684803 -0.01469498 0.9995315 144 144 144
0.0113109344748484 -0.0489299170281807 0.0652797638265103 -0.05421978 -0.001812524 0.9985274 141 141 141
0.0120204085616099 -0.0468391052987496 0.0663757069794148 -0.04958979 0.02852021 0.9983624 144 144 144
0.0162995452193248 -0.0475599042680184 0.0657134397713155 0.05882735 0.00029765 0.9982681 149 149 149
0.0161221617964732 -0.0437505714204232 0.0653942717997045 0.02580105 0.01204025 0.9995946 158 158 158
0.0224632019309031 -0.0512297026421944 0.0652930258599729 0.04703223 -0.04288054 0.9979725 139 139 139
0.0215098256377207 -0.0486364833619515 0.065670047589919 0.03894311 -0.0495604 0.9980116 146 146 146
0.0211550587920176 -0.047600077798597 0.0654187097040624 0.04239307 -0.03419326 0.9985157 144 144 144
0.0249464506415354 -0.0497814885880867 0.065015573689124 0.07830179 -0.08333457 0.9934406 142 142 142
0.0248799318579661 -0.0462344161775032 0.0654526619998426 0.01714219 -0.02741038 0.9994773 163 163 163
0.0267571205405223 -0.0476447216775338 0.065091211983344 0.09817918 -0.09416405 0.9907038 157 157 157
0.0261658424643504 -0.0458531252648751 0.0654607831326932 0.06644271 -0.02670223 0.9974329 167 167 167
0.0249907964972483 -0.0445223323609749 0.0656796141354054 0.02747265 -0.0304927 0.9991574 143 143 143
0.00652188008108012 -0.0434514157082955 0.065753762313506 0.01326524 0.0002803261 0.999912 143 143 143
0.00898289625921123 -0.0413195363786141 0.0661236240354985 -0.03012775 0.03704626 0.9988593 149 149 149
0.0109030002860057 -0.0409703127648751 0.0654555975285977 -0.02650008 0.08003496 0.9964398 144 144 144
0.0136610860136973 -0.0433460346963326 0.0663798644033879 0.001975757 0.04377969 0.9990392 139 139 139
0.0125082129744517 -0.0390053860452095 0.0651877417055577 -0.03795336 0.06176846 0.9973686 172 172 172
0.0205431575087535 -0.0428885690476815 0.0657131044951886 0.02157387 -0.01196163 0.9996957 154 154 154
0.022307991435908 -0.0428846351411263 0.0658500014630765 0.02656643 -0.006307458 0.9996272 155 155 155
0.0242739314345347 -0.041393326928846 0.0653865008441419 0.0264928 0.01638166 0.9995148 153 153 153
0.0260328048972117 -0.040488945653669 0.0656101449219197 0.0591821 0.04079653 0.9974132 132 132 132
0.0262656802443492 -0.0395287744309822 0.0656793757168263 0.07997665 0.08914157 0.9928029 135 135 135
0.0305312270430552 -0.0613598100449959 0.064970527478835 0.06163544 0.0538527 0.9966449 157 157 157
0.0322408670691477 -0.0610622636582772 0.0648121057836026 0.07420031 0.08002762 0.9940271 165 165 165
0.0339850181845652 -0.0568600169923226 0.0644393979398221 0.1186993 0.1116087 0.9866377 151 151 151
0.0331277245787608 -0.0535134546067635 0.0634428231803388 0.1459305 0.1050746 0.983699 148 148 148
0.0362871879843699 -0.0552883021142403 0.0639299421397656 0.1523772 0.1498891 0.9768902 154 154 154
0.0341919655112254 -0.0534633867051522 0.0635160698381871 0.1529907 0.1109762 0.9819766 146 146 146
0.0402965540198313 -0.0606031886842171 0.0644359855739087 0.1495777 0.2105831 0.9660649 186 186 186
0.040965377738856 -0.0584727994706551 0.0634734227148503 0.1633949 0.2029009 0.9654705 156 156 156
0.0404000276831614 -0.0566028229501168 0.0632435425011128 0.1693363 0.1804452 0.9688987 157 157 157
0.0464528793601023 -0.0550455323960701 0.0628110660997838 0.1992028 0.1461545 0.968998 141 141 141
0.0485739702490794 -0.0551382772233406 0.0618496804324597 0.3209498 0.1572823 0.9339451 130 130 130
0.0331277245787608 -0.0516914598252693 0.0635947628704518 0.177751 0.06731582 0.9817704 152 152 152
0.0351453418044078 -0.0522683731820504 0.0636933713046521 0.1738533 0.1125657 0.9783169 157 157 157
0.0386928314475047 -0.0508288018014351 0.0623613341537923 0.2027032 0.1640135 0.9654071 153 153 153
0.0304006332663523 -0.047306584527723 0.0647081999865979 0.2787225 -0.07595515 0.9573634 130 130 130
0.0332607621458995 -0.0486056677606026 0.0634742869821996 0.2478446 -0.0002786865 0.9687998 126 126 126
0.0349457854536998 -0.0480929486062447 0.0631241767493695 0.2838535 0.07024984 0.9562908 142 142 142
0.0366456503180491 -0.0472656361367623 0.0626845328895062 0.2724414 0.1116201 0.955676 150 150 150
0.0340441459921824 -0.0451108090188423 0.0632714225737065 0.3501813 0.0478923 0.9354568 144 144 144
0.0392692679671275 -0.0424772373940865 0.0610076903192014 0.3358122 0.1480504 0.9302211 154 154 154
0.0380054706839549 -0.0431511871125618 0.0617900981394261 0.3401355 0.1254795 0.9319671 140 140 140
0.0402004713324534 -0.052818047216169 0.0623773380009145 0.1806525 0.1579866 0.9707754 124 124 124
0.044368743350886 -0.0513546339776436 0.0618075548497647 0.140503 0.2031792 0.9690083 147 147 147
0.0416859382895457 -0.0493897072579781 0.0615396990267247 0.1490539 0.1928545 0.9698402 152 152 152
0.0504955047873484 -0.0488456956651131 0.058483426162383 0.450833 0.3383058 0.8260138 160 160 160
0.0466635221747386 -0.0489806405808846 0.0612738027063817 0.2924024 0.2970678 0.9089838 170 170 170
0.0445017809180247 -0.0472099653985421 0.0612325562921971 0.2045774 0.2438309 0.9479951 151 151 151
0.0487808579710948 -0.0462555758263985 0.05913106043019 0.4593471 0.3082857 0.8330427 156 156 156
0.0440804952887522 -0.0427000395562569 0.0592268227426023 0.2963862 0.2577999 0.9196165 159 159 159
0.0303636783865916 -0.0393524638917366 0.0649415149179906 0.3026544 0.08395802 0.9493953 133 133 133
0.00836211388387553 -0.0373718015458504 0.064985056110999 0.03252164 0.06812565 0.9971465 129 129 129
0.00771909897603862 -0.0366367570664803 0.065825518855235 0.05643488 0.002974048 0.9984019 128 128 128
0.0133285517004954 -0.0347893111016671 0.0655036314217061 -0.02569672 0.0345708 0.9990718 124 124 124
0.0628598326949107 -0.0627830497529427 0.00689524848141375 0.990609 -0.1022207 0.09080014 99 99 99
0.0164991015700328 -0.0330774657037178 0.065151636191985 0.04028746 0.1076318 0.9933742 127 127 127
0.0102688664702403 -0.0313606135156075 0.0652564137069196 0.07269199 -0.01631921 0.9972209 131 131 131
0.00904941504278056 -0.0295309893395821 0.0655373751012296 0.1036247 -0.05217607 0.993247 123 123 123
0.00873899405279033 -0.0251442066934029 0.0659067078319997 0.08656876 0.1129131 0.9898265 117 117 117
0.0148435825613963 -0.0289587847497383 0.0646454660979718 0.04567389 0.03882998 0.9982014 133 133 133
0.0182727569846141 -0.035679387262098 0.0656550048676938 -0.01104089 0.08304717 0.9964845 148 148 148
0.0219532841948497 -0.0372155181672493 0.0657643346873731 0.05267789 0.08680946 0.9948312 134 134 134
0.025024055889033 -0.0351968280579964 0.0650838433591336 0.1118367 0.1257686 0.9857357 151 151 151
0.0206496114043223 -0.0286662451531807 0.0647750242439717 0.02759531 0.06382337 0.9975796 120 120 120
0.0207116598395335 -0.02756248634123 0.0644884674636334 0.04523356 0.02261849 0.9987203 123 123 123
0.00638884251394145 -0.0240942112710396 0.0600528462616414 0.2904408 -0.5929627 0.7510255 138 138 138
0.0143350953368174 -0.0232772104051033 0.064724889287135 0.05848922 0.07040313 0.9958024 119 119 119
0.0257667893675791 -0.0212162606027047 0.0639135657636136 0.1769991 0.08460122 0.9805682 143 143 143
0.0634584421423899 -0.0326062313821236 0.00803532887377444 0.9830498 -0.1820449 -0.02174239 47 47 47
0.0384045833853709 -0.0371916763093392 0.0607275037852735 0.4122698 0.02984912 0.9105727 175 175 175
0.0505989188460337 -0.0428044072892586 0.0570294304577321 0.3659799 0.1682023 0.915296 170 170 170
0.0492686623839366 -0.0416040889527718 0.0571360259143323 0.336227 0.1463794 0.9303357 162 162 162
0.0445572132376658 -0.0416338316705147 0.0591564892617673 0.3105402 0.1964742 0.9300337 153 153 153
0.0421737427023875 -0.0387744180467049 0.0590519129125089 0.3473557 0.1288138 0.9288439 168 168 168
0.0485591882971751 -0.0383556954171578 0.0572535886255712 0.3301379 0.103329 0.9382601 165 165 165
0.04106515591421 -0.0341777078416268 0.059125755616805 0.4096054 0.02361229 0.9119571 157 157 157
0.0487365121153819 -0.0329727403428475 0.0568800090638608 0.3665777 0.07964923 0.9269719 147 147 147
0.0297281140593516 -0.0371413699891487 0.0650603963819951 0.2193112 0.05009188 0.9743682 126 126 126
-0.0393067603798879 0.0601533778402885 0.0537219612685651 0.05169434 0.02784409 0.9982747 190 190 190
0.0337485665587413 -0.0322916380669991 0.0639322965232343 0.3295308 -0.03987709 0.9433023 129 129 129
0.0190044636038768 0.0912677176687797 0.000955872872254279 -0.1540868 0.9880227 0.008271399 142 142 142
0.0638353819159495 0.0882744320128044 0.018786360212943 0.8049117 0.5328129 0.261204 202 202 202
0.0319747919348704 -0.0293174855019966 0.0637269808737248 0.2214906 0.1038448 0.9696175 154 154 154
0.0343250030783641 -0.0305848590638558 0.063679639884612 0.3263801 0.02432278 0.9449256 122 122 122
0.0404887193945872 -0.0351579658296028 0.0600099458185643 0.3999091 0.0290414 0.9160946 172 172 172
0.0447899693755137 -0.0326637498643318 0.0581188320008725 0.3357287 0.03512831 0.9413035 157 157 157
0.0460315937308299 -0.0304541460778633 0.0577375559894055 0.3682232 0.02718786 0.9293398 140 140 140
0.0303636783865916 -0.0231568686273018 0.0628671838728398 0.1960409 0.1174922 0.9735315 156 156 156
-0.0178225045891774 0.083301497289904 0.0385928942648381 -0.0246184 0.9931947 0.1138343 96 96 96
0.0363204473761546 -0.0215837232377449 0.0620256184426755 0.2427267 0.1408342 0.9598174 140 140 140
0.0363869661597239 -0.01914362828993 0.0609858005134076 0.2262662 0.1706948 0.9589927 145 145 145
0.0406328434256541 -0.0269263855721871 0.0603088333097905 0.4876136 -0.02797706 0.8726112 124 124 124
0.0493130082396495 -0.0289080611970345 0.0563059269277066 0.3864799 0.04385949 0.9212543 122 122 122
0.04549950306692 -0.0257463924195687 0.0574760629621953 0.419644 0.006341657 0.9076666 138 138 138
0.0447456235198008 -0.0227321259286324 0.057565551885745 0.4557374 -0.001801646 0.8901124 131 131 131
0.0484113687781321 -0.0208058230187813 0.0560353739944905 0.40732 0.0179668 0.9131088 146 146 146
0.0400896066931712 -0.0257394186761299 0.0603171854106397 0.4864871 -0.003335637 0.8736814 118 118 118
0.0416859382895457 -0.0194445125367562 0.0600994794455976 0.4041687 0.06205319 0.9125772 138 138 138
0.0443465704230296 -0.0154588095452706 0.0585053979245633 0.3760413 0.02220196 0.9263369 144 144 144
0.0501111740378367 -0.0172178022172371 0.0557330592361897 0.4187105 0.009711779 0.9080678 144 144 144
-0.0380430227013601 -0.011365102937452 0.0566764964548558 -0.00796087 0.9052275 0.4248526 149 149 149
0.0488547677306163 -0.0133079163339058 0.0559806196776837 0.4500425 -0.01717396 0.8928419 137 137 137
0.0532152051238047 -0.0999023787286202 0.0107644467441052 0.4073003 -0.9132562 0.008335877 100 100 100
0.0538359874991404 -0.0994443766381661 0.0143446295348615 0.4874842 -0.8726422 -0.02923544 58 58 58
0.0564965600279795 -0.0977856985833565 0.0108761756507367 0.6488445 -0.7568975 0.07814655 109 109 109
0.0584920043257701 -0.0969925395753304 0.0092069550243825 0.7228937 -0.6876048 0.06800307 148 148 148
0.0587137336043345 -0.0954512230660836 0.0150811790315122 0.8051308 -0.5930651 -0.006179789 149 149 149
0.059135019233607 -0.0932451359536568 0.0132794200269193 0.9150089 -0.4031238 0.01580831 147 147 147
0.0606796139983165 -0.0894470087792794 0.00274782691278162 0.9795325 -0.1772035 -0.09547209 88 88 88
0.0612856144217478 -0.0868712536599556 0.0035842179147214 0.9847571 -0.1512886 -0.08582141 74 74 74
0.0619286293295848 -0.0853417388703743 0.00452651519455614 0.9915103 -0.1143015 -0.06198707 81 81 81
0.0608422154692637 -0.0889994375016609 0.00962844554462138 0.9767675 -0.2072734 0.0544327 123 123 123
0.0615516895560252 -0.0849314801003853 0.00658211548008623 0.9902578 -0.1367249 -0.02637808 83 83 83
0.0593788618353831 -0.0931382052209297 0.0195693193761319 0.9676657 -0.249083 0.03975967 170 170 170
0.0589576358107554 -0.0932683817651192 0.0250009043899983 0.9812077 -0.1914882 0.02374531 168 168 168
0.0589798087386119 -0.089586960485212 0.0264604656783551 0.9936863 -0.03241389 0.1074095 148 148 148
0.0599110121039378 -0.0867737404611031 0.0204496054736585 0.9891027 -0.08807771 0.1179758 113 113 113
0.059423207691096 -0.0857735149171273 0.0226482643572301 0.9862862 0.01131661 0.1646553 113 113 113
0.0617734188345896 -0.0782564751412789 0.0128973244515866 0.9889712 -0.02460313 0.1460501 101 101 101
0.0598888391760813 -0.0771162382867256 0.0203072770325154 0.9609564 0.006169839 0.2766311 113 113 113
0.0612856144217478 -0.0731469265725533 0.0155831991521329 0.9795722 0.04846098 0.1951661 113 113 113
0.0616847271231639 -0.0798392168786446 -0.00443945016584692 0.9834527 -0.1250613 -0.1310743 107 107 107
0.062128126075648 -0.078664051702253 -0.000516697129824731 0.9894538 -0.1063892 -0.0982982 93 93 93
0.0620505804327952 -0.0773551933076302 0.000495717564007667 0.9906626 -0.09189829 -0.1007092 73 73 73
0.0614629978445994 -0.0703261367585579 -0.0105596737178355 0.9884028 -0.0744607 -0.1323461 92 92 92
0.0615073437003123 -0.0693259112145821 -0.00909489329777059 0.990332 -0.0597273 -0.1252005 82 82 82
0.0602213734892832 -0.0669793955590645 -0.0137578875931293 0.986258 -0.0916815 -0.13744 31 31 31
-0.0377706294747365 0.0850378401968559 -0.00561728637538252 -0.1525316 0.9861012 -0.0658683 75 75 75
0.0615516895560252 -0.0669755212571541 -0.00124945800624189 0.9880049 -0.02870388 -0.1517316 103 103 103
0.0620837802199351 -0.062658774068586 -0.00570067327342329 0.9931516 -0.09011473 -0.0743586 59 59 59
0.0621577495841014 -0.0710522405412117 0.008926474192521 0.9806752 0.08036749 0.1783738 113 113 113
0.0613521332053172 -0.0710725657250801 0.0146499692288846 0.9869441 0.07559581 0.1422205 95 95 95
0.0630593294409739 -0.074118243863813 0.00566848058380785 0.9991826 -0.02353338 0.03286614 73 73 73
0.0626159304884898 -0.0734797589089791 0.00888376001395884 0.9872683 0.04175837 0.153485 117 117 117
0.0630150431899058 -0.0698515645768563 0.00334558699407282 0.9999672 -0.007302231 -0.003517469 85 85 85
0.0626159304884898 -0.0670348278787056 0.00723465222992602 0.9882129 -0.04119794 0.1474377 93 93 93
0.062239050319575 -0.0608608595635811 -0.00190789189062414 0.9904882 -0.08450799 -0.1085883 90 90 90
0.0631036752966868 -0.0652956835534493 0.00270448688544932 0.9948049 -0.06341764 -0.07963335 88 88 88
0.0632071489600169 -0.0611141196992318 0.0048964737740964 0.997588 -0.06839466 -0.01185119 117 117 117
0.0633254045752513 -0.0592010490205208 0.00439553026237192 0.9975361 -0.06774268 -0.01823715 103 103 103
0.0636801714209544 -0.055261301210157 0.00363825697579089 0.9980536 -0.02233318 -0.05822648 90 90 90
0.0581151241568553 -0.0845047108437935 0.0305610566226453 0.9745513 0.0983837 0.201421 126 126 126
0.0586989516524302 -0.0807902089860359 0.0250444679347486 0.9676877 0.07871003 0.239552 100 100 100
0.0574721092490184 -0.0865197650697151 0.0340580387798757 0.9836321 0.05204194 0.1725097 136 136 136
0.0577825302390086 -0.0824438802506844 0.0328319712368459 0.9879797 0.06454657 0.1404628 116 116 116
0.0581372970847117 -0.0788867346551338 0.0280940054742307 0.9727435 0.09235071 0.2127006 121 121 121
0.0579599136618602 -0.0774676672723213 0.030722577759406 0.993431 0.01571877 0.1133483 127 127 127
0.0588689440993296 -0.0756811968591133 0.0243747128931493 0.9631146 -0.031351 0.2672589 126 126 126
0.0600883955267894 -0.0747208468224922 0.0211415855971784 0.9535633 0.04490295 0.2978265 122 122 122
0.0576716655997264 -0.0753450862672249 0.028601948806426 0.9809839 -0.08535965 0.1743108 118 118 118
0.0595118994025218 -0.0677671901490609 0.0259778021661252 0.9660172 -0.2373018 0.1024629 131 131 131
0.0572503799704539 -0.0806414357926766 0.0406219853846044 0.997534 -0.06936357 0.01070266 109 109 109
0.0573834175375926 -0.0745338670518318 0.0346257059661359 0.990844 -0.1347866 -0.00779518 128 128 128
0.0574277633933055 -0.0767197481896797 0.0426692261187047 0.9848272 -0.164238 -0.05604736 117 117 117
0.0580190414694773 -0.0734980575349251 0.0385540841905088 0.9834077 -0.1768277 -0.04051264 127 127 127
0.0591571325568186 -0.0677370898034493 0.0330987914291829 0.9642501 -0.2643401 0.01859898 122 122 122
0.0605317944792735 -0.0644277803208748 0.0287448360411138 0.9622026 -0.2676164 0.05047346 125 125 125
0.0587580794600474 -0.0696391336228768 0.0362501262513608 0.9663925 -0.2532264 -0.04429304 124 124 124
0.0603987569121348 -0.0642853252198616 0.038232211658141 0.9727908 -0.2304003 -0.02436601 134 134 134
0.0607978696135508 -0.0605541936662117 0.0358722700563878 0.9743766 -0.2242537 0.01733592 140 140 140
0.0604209298399913 -0.0664043299462715 0.0185768275348157 0.9912316 -0.09113625 0.09567698 113 113 113
0.0615073437003123 -0.0643263928201119 0.0168625830499143 0.9865047 -0.1488358 0.06823844 117 117 117
0.0602066511420237 -0.06511770408415 0.0242222889152974 0.968486 -0.2355532 0.0809299 125 125 125
0.0623350734023081 -0.0582692496087471 0.0188655673352689 0.9774293 -0.1960416 0.07873848 99 99 99
0.0625937575606333 -0.0591957442071358 0.016473401972434 0.9765964 -0.1941767 0.09249336 104 104 104
0.0623942012099253 -0.0615287296082894 0.00963631708302203 0.9778507 -0.1676253 0.1253386 133 133 133
0.0628820056227671 -0.0573302380349556 0.0122462480155438 0.9808062 -0.180788 0.07304107 131 131 131
0.063414096286677 -0.0550035707261483 0.0102279006329984 0.9986306 -0.04231073 -0.03076877 96 96 96
0.0636358255652415 -0.0514969102647225 0.00702791351952257 0.9989281 -0.01207943 -0.04468535 105 105 105
0.0632810587195384 -0.0554645530488411 0.0130126817909688 0.98782 -0.149583 0.04285433 128 128 128
0.064145743301295 -0.0492693058755318 0.0143396599976033 0.9943441 -0.06457765 -0.08431841 98 98 98
0.061839937618159 -0.059018420388929 0.0268766476599187 0.9734209 -0.2246835 0.04437552 130 130 130
0.0536586040762889 -0.0577250592019478 0.0331349341956586 0.9758765 -0.2092151 0.06240287 127 127 127
0.0612856144217478 -0.0598890058305184 0.0320889397350759 0.9739076 -0.2256258 0.02443196 105 105 105
0.0621724719313609 -0.0577023498322884 0.0252262024966687 0.9752672 -0.2171947 0.04099102 146 146 146
0.0601438278464305 0.100546551534899 -0.00548768352589903 -0.2497993 0.9682952 -0.002171942 68 68 68
0.0630150431899058 -0.0538485519196907 0.0267022817222089 0.975361 -0.2142055 0.05279016 120 120 120
0.0645670289305674 -0.0484036676194588 0.0197356163350553 0.9898508 -0.136962 0.03790468 119 119 119
0.0642566079405772 -0.0489513150956551 0.0224721698848218 0.9871659 -0.1507801 0.0526202 104 104 104
0.063857554843806 -0.0498570672776619 0.0250774293033093 0.985496 -0.1585306 0.06054552 90 90 90
0.0647887582091319 -0.0449789039399544 0.0185782431451291 0.9932303 -0.1157468 0.009808559 129 129 129
0.0606648320464122 -0.0624635688569466 -0.0168952674778491 0.9867607 -0.1191927 -0.1099838 34 34 34
0.0615073437003123 -0.057004796674482 -0.0170789727183372 0.99484 -0.0521679 -0.0870162 60 60 60
0.0605761403349864 -0.0533582441117684 -0.0132329792889148 0.9840013 0.007860547 -0.1779877 51 51 51
0.0622611636427867 -0.0629907719399849 -0.0112194151791125 0.9871457 -0.1151773 -0.1108039 35 35 35
0.0625715846327769 -0.0555045477654854 -0.0104786784561664 0.9898485 -0.05919482 -0.1292125 52 52 52
0.0611082906035411 -0.0530238024499337 -0.0229654883208066 0.981114 -0.08970153 0.1713739 152 152 152
0.0622611636427867 -0.0506970755364815 -0.0249838282527715 0.9707586 -0.1024498 0.2170988 104 104 104
0.0617290729788768 -0.0447649232652108 -0.0224301622422725 0.9664644 -0.07554145 0.2454385 144 144 144
0.0626381034163462 -0.0490754119660775 -0.009123443922618 0.9834402 -0.04483911 -0.1755985 52 52 52
0.0627341861037242 -0.0563325158860604 -0.00309391256294546 0.9947593 -0.0810724 -0.06229906 62 62 62
0.0629706973341929 -0.0531042091157357 -0.000358420720913979 0.9969231 -0.06605912 -0.04219584 97 97 97
0.0635471338538157 -0.0472575299050728 -0.0054785416635066 0.9956911 -0.0424671 -0.08243727 71 71 71
0.0635249609259593 -0.045148061921827 -0.00380466442427931 0.9985838 -0.01743763 -0.05026297 52 52 52
0.0624828929213511 -0.0447565786149422 -0.0106228658171683 0.9841907 -0.0368335 -0.1732395 57 57 57
0.0808409446982371 0.0303300150129875 0.00863241840281191 0.9974394 -0.06649911 0.02631649 100 100 100
0.0619286293295848 -0.0426789991166512 -0.0234249991538316 0.9644527 -0.07333089 0.2538771 131 131 131
0.0630593294409739 -0.0438161365296761 -0.030004781967619 0.9847548 -0.01742064 -0.1730736 75 75 75
0.0631480211523997 -0.0420639387872139 -0.0272815370174437 0.9993336 -0.02977541 0.02111131 125 125 125
0.0632367128638255 -0.0357608668115059 -0.0300821581097632 0.9706207 -0.002204451 -0.2406046 68 68 68
0.0631923670081126 -0.0350918046739022 -0.0246593964459687 0.980988 0.01350894 0.193598 53 53 53
0.0612856144217478 -0.0360947124268929 -0.0357607037933856 0.9596651 -0.08158243 -0.2690486 29 29 29
0.0612856144217478 -0.0338948838021675 -0.0359204833569318 0.9561557 -0.065956 -0.285335 37 37 37
0.0620837802199351 -0.0270518533494393 -0.0310892493637591 0.9610301 -0.06625984 -0.2683856 53 53 53
0.0635471338538157 -0.0332851878907601 -0.0286583577456265 0.9900407 0.02637707 -0.1382887 80 80 80
0.0646113747862803 -0.028360473325483 -0.0282089051964074 0.9788004 -0.1922794 -0.07055858 27 27 27
0.06292635147848 -0.0248580447938362 -0.0290165723475009 0.9449975 -0.2337334 -0.2287976 57 57 57
0.0618177646903025 -0.0395018927361885 -0.0192047537478 0.9904405 -0.105502 0.08886467 166 166 166
0.0611525768546092 -0.0374796859528939 -0.0209615075202971 0.9840552 -0.0659359 0.1651903 154 154 154
0.0629706973341929 -0.0324700347688118 -0.0228252274157792 0.9934258 -0.09955103 0.05652163 78 78 78
0.0626381034163462 -0.0282294027116219 -0.0219623123469144 0.9619725 -0.2266076 -0.1525055 80 80 80
0.0642122620848643 -0.0242861382272164 -0.0246013303460866 0.9023396 -0.4135905 -0.1213516 26 26 26
0.0712184900549876 -0.0189603440072457 -0.0245868203403741 0.7026287 -0.6852088 -0.1918381 70 70 70
0.0639905924109446 -0.0492211453225533 0.00595710862555208 0.9999385 0.00713505 -0.008492294 153 153 153
0.0640348786620127 -0.046311961820356 -0.00118423189840612 0.9994925 -0.02924975 -0.01262019 91 91 91
0.0630593294409739 -0.0447196833398262 0.003742367663762 0.9989864 0.02091739 0.0398591 156 156 156
0.0715732569006907 0.0721276529524406 0.0250603823749036 0.8729502 0.3408722 0.3489472 161 161 161
0.0639019006995188 -0.0454233757760445 0.0106931968418569 0.9911994 0.01822251 -0.1311168 117 117 117
0.0633697504309642 -0.0352599493768135 -0.00717405538878736 0.9942801 -0.1067984 -0.001074261 35 35 35
0.0633697504309642 -0.0368571750428597 -0.00039165031037626 0.999938 -0.004625305 0.01013183 39 39 39
0.0635693067816722 -0.0375729076173226 0.00492967728652659 0.9996816 -0.02515976 0.001929954 62 62 62
0.0630815619734751 -0.0311428181435982 -0.00303190138063726 0.9585729 -0.2800803 0.05189398 67 67 67
0.0651878113059031 -0.0430018178727547 0.0166375531641454 0.9924157 -0.03579301 -0.1176011 93 93 93
0.0649217957762706 -0.0413888565804879 0.0178987054912061 0.9911509 -0.04922307 -0.1232765 102 102 102
0.0629706973341929 -0.0374428502824227 0.0143986909476728 0.9685795 0.03848829 -0.2457079 92 92 92
0.0650547737387644 -0.0355253688599984 0.0164989798156232 0.9725527 0.02263542 -0.231579 74 74 74
0.0644339913634288 -0.0339149705674568 0.0153187780467481 0.9739012 0.0007879165 -0.226971 78 78 78
0.00808864777364604 -0.00352184694074786 0.0629725350824803 -0.1408911 0.1479062 0.9789144 137 137 137
0.0633697504309642 -0.032598959615461 0.00427163455762568 0.989835 -0.1422187 -0.0006848165 44 44 44
0.0635471338538157 -0.0279946796204964 0.0013423680154294 0.7852536 -0.6166037 -0.0563617 59 59 59
0.0663703078536021 -0.0276496283318917 0.00103511724748316 0.7151723 -0.698637 -0.0208545 42 42 42
0.0631923670081126 -0.0340961090829293 0.0112004994241208 0.9870551 -0.04301742 -0.1545046 45 45 45
0.0693117374686228 -0.0265446178224007 0.010071039834401 0.6306778 -0.7758353 -0.01803112 51 51 51
0.0635471338538157 -0.0307271949555794 -0.0098934241744071 0.8995873 -0.4300067 0.0763996 69 69 69
0.063314318111323 -0.0312659017350594 -0.00690792437515554 0.9360268 -0.3504972 0.0317098 64 64 64
0.0662077063826548 -0.0285148493554512 -0.0111357153566867 0.7522565 -0.6584659 -0.0230836 90 90 90
0.0682474965361582 -0.0259639493729988 -0.0118036673577815 0.8125675 -0.5614548 -0.1565327 129 129 129
0.0632367128638255 -0.0294430724885384 -0.0050248944374114 0.8411406 -0.531372 0.10063 79 79 79
0.0664294356612193 -0.0263824335839669 -0.00298035081348715 0.6479465 -0.7562423 0.09090011 49 49 49
0.0695334667471873 -0.0246863238122383 -0.00419226970396337 0.6695296 -0.7426546 0.01393873 30 30 30
0.0713515276221263 -0.0229828826692025 -0.00696630712471304 0.7986327 -0.5969238 -0.07660141 38 38 38
0.0697108501700389 -0.0205845109727303 -0.0157993019732028 0.7895395 -0.5501193 -0.2720222 41 41 41
0.0711741441992747 -0.0182400218751351 -0.0140174322935134 0.8270435 -0.5303927 -0.1862329 25 25 25
0.0704646701125132 -0.023564683606855 0.00153898511209193 0.7382644 -0.6745009 0.003752091 85 85 85
0.0730143780020701 -0.0210923425462166 0.00238782603420916 0.8788334 -0.4765726 0.02303273 93 93 93
0.071883677890681 -0.0228146783616463 0.00483919743575754 0.8101859 -0.5861703 -0.00178381 68 68 68
0.0739234084395396 -0.0151496402528206 -0.01704056497536 0.8730992 -0.47006 -0.1293887 49 49 49
0.0755197996405589 -0.0131918064858834 -0.0179479190321952 0.9329745 -0.3430212 -0.1090646 54 54 54
0.0743890399245249 -0.0169607869889656 -0.0112396844836265 0.9005489 -0.4298115 -0.0653732 63 63 63
0.0748102659491526 -0.0134125820901314 -0.0145754286261588 0.9228554 -0.3699783 -0.1070233 81 81 81
0.0761849278716075 -0.0125856272485176 -0.0132071220489531 0.9625548 -0.2678934 -0.04148894 65 65 65
0.0746329421309458 -0.0185437671449105 0.00731917906679812 0.9462953 -0.3217021 0.03213978 139 139 139
0.0748102659491526 -0.0125456921365181 -0.00630761992059049 0.9859534 -0.1606938 0.04553442 64 64 64
0.0766283864287364 -0.00944917123579181 -0.00767040934286413 0.9718058 -0.2294479 0.05428896 48 48 48
0.0760371083525645 -0.0103829376008431 -0.00316665630660352 0.9840623 -0.1777152 0.006217944 54 54 54
0.0751206869391429 -0.0102245680596749 -0.00440242078028021 0.9814115 -0.1911433 0.01719426 53 53 53
0.0588245982436167 -0.0731800667550484 0.0474204464642018 0.9788748 -0.1868939 -0.08291427 89 89 89
0.059423207691096 -0.0694106094148079 0.0473969175306767 0.9773712 -0.2041377 -0.05543747 97 97 97
0.0596005911139476 -0.0718830100800911 0.0528976290313214 0.9804617 -0.1928379 -0.03883943 107 107 107
0.0600883955267894 -0.0658711067941109 0.0482553734270543 0.9773623 -0.2061392 -0.04764061 129 129 129
0.0600883955267894 -0.0662423841264168 0.0436226396647901 0.974888 -0.2178075 -0.04640324 112 112 112
0.0610195988921153 -0.0623507968690316 0.0385488911358327 0.9723954 -0.2324403 -0.02046262 119 119 119
0.0609752530364024 -0.0625182263162056 0.0489191083995313 0.9811248 -0.1883347 -0.04386522 134 134 134
0.0613299602774607 -0.058067607095472 0.0454503713933438 0.9819424 -0.1888391 -0.01135927 117 117 117
0.0519735807684886 -0.0672631732728401 0.0624150975433797 0.275079 0.1915719 0.9421421 151 151 151
0.0561085933951365 -0.0673810712602059 0.0617706893769712 0.356764 0.1646604 0.9195686 183 183 183
0.0565409058836924 -0.0644124619271675 0.06079061765351 0.3480198 0.1977469 0.9163942 198 198 198
0.0585585231093394 -0.0642388932015816 0.060081449040553 0.5025124 0.1181915 0.8564532 185 185 185
0.0524613255766856 -0.0612451903130928 0.0616347609845609 0.3195095 0.2258278 0.9202801 186 186 186
0.0545602435378062 -0.0570580832269112 0.0591692968098134 0.3139776 0.2436565 0.9176326 173 173 173
0.0571839207915293 -0.060987459829084 0.0599284290162534 0.2916933 0.252175 0.9226716 142 142 142
0.058735906532191 -0.0612219445016304 0.0593099414197415 0.3184774 0.238208 0.9175125 198 198 198
0.0618621105460154 -0.0574608318116585 0.0579766674725026 0.3705058 0.2587296 0.8920675 93 93 93
0.0524281257895457 -0.0556139222886483 0.059816364833495 0.4293083 0.1875111 0.8834783 187 187 187
0.0601326817778575 -0.0563818685319344 0.0576694278804273 0.3758921 0.2470936 0.8931125 173 173 173
0.0581483835486399 -0.0531452171113411 0.0578486739484281 0.3240321 0.26802 0.9072863 153 153 153
0.0584033126143443 -0.0513331763055245 0.0562756999222249 0.3321787 0.2888742 0.8978914 139 139 139
0.0608200425414073 -0.0505878202226082 0.0552834763018102 0.346263 0.2617585 0.9008798 178 178 178
0.0624828929213511 -0.0560656062867562 0.0551445602265805 0.8225101 0.06451192 0.5650799 81 81 81
0.063414096286677 -0.0467243067529122 0.0534909113136739 0.6428601 0.3202528 0.6958226 145 145 145
0.062128126075648 -0.0530095569398323 0.0412983714429349 0.9809512 -0.1898847 0.04096895 138 138 138
0.0632810587195384 -0.0495002142693917 0.0350358827797383 0.984899 -0.1710434 0.02679617 103 103 103
0.0639462465552317 -0.0488135091569344 0.0381645454851598 0.9822309 -0.1799927 0.05315173 97 97 97
0.0639795059470164 -0.0453389159943978 0.0367852642027349 0.9847656 -0.1672164 0.04770043 104 104 104
0.0640348786620127 -0.0468602053430001 0.0285616188136548 0.9883357 -0.1498684 0.0270556 129 129 129
0.065631269863032 -0.0398394934441963 0.0233915640799016 0.9892993 -0.1425499 0.03108663 107 107 107
0.064345299652003 -0.0433490745332161 0.0329564853397817 0.9878243 -0.1547717 0.01577242 106 106 106
0.0650104874876963 -0.0394809715058724 0.0346107228485555 0.9874523 -0.1574057 0.01270166 102 102 102
0.065232157161616 -0.0384295455720345 0.0296239523974866 0.9866009 -0.1628214 0.01038225 112 112 112
0.0649661416319834 -0.0420170299317757 0.0432423769322843 0.9766797 -0.2146844 0.002714874 83 83 83
0.0645226830748545 -0.0426931850221077 0.0454760833469838 0.977758 -0.1696338 0.1233438 108 108 108
0.0599997038153636 0.0994106062147697 0.0175985365001172 0.472409 0.8060135 0.3566118 202 202 202
-0.0160931354256643 0.0361204870436271 0.0542661442247838 0.04810805 0.1919915 0.9802167 125 125 125
0.0661966199187266 -0.0329589716699044 0.0324257506815404 0.9883663 -0.1493803 0.02859335 117 117 117
0.0657643074301707 -0.0368100277688423 0.0447340800253362 0.9836134 -0.118105 0.1362202 87 87 87
0.0663850898055064 -0.0331632963921944 0.0419753982511968 0.9929733 -0.09191744 0.07453305 79 79 79
0.0525056714323985 -0.048465179612867 0.057310764381072 0.3622557 0.307572 0.8798695 154 154 154
0.0546045893935191 -0.0486553780343453 0.0567963166920156 0.3161491 0.3150322 0.8948768 163 163 163
0.0542351002005564 -0.0447850696351448 0.0560685737816304 0.3414482 0.1922977 0.9200189 174 174 174
0.0593345159796702 -0.0485579244401375 0.0556021525351018 0.3177276 0.2949812 0.90113 158 158 158
0.0509448045996653 -0.0412598125245491 0.0569009451953382 0.3521955 0.1350915 0.9261256 164 164 164
0.0561122888831126 -0.0413377753999153 0.054537859448573 0.3947455 0.1974001 0.8973345 158 158 158
0.0575608009604441 -0.0424988142754952 0.0540957121936292 0.3735656 0.2244453 0.9000406 191 191 191
0.0580929512289988 -0.0404711238648812 0.05394606728234 0.3788718 0.228996 0.8966699 180 180 180
0.0563856953886973 -0.0371482841279427 0.0538516833273381 0.4467994 0.2259999 0.8656179 157 157 157
0.0606426591185557 -0.0393933526780526 0.0524315132585973 0.3248616 0.2199155 0.9198381 183 183 183
0.058536350181483 -0.0374997131135384 0.0523895292369336 0.3511584 0.2188362 0.9103837 175 175 175
0.0527591103819834 -0.0348180405404488 0.0551101459948033 0.4772438 0.1386483 0.8677644 137 137 137
0.0534812206534373 -0.0335808865334908 0.0541809766379804 0.5052611 0.1626467 0.8475006 164 164 164
0.0552992815283763 -0.0344989768769661 0.0534655346361608 0.4809932 0.1822611 0.8575701 172 172 172
0.0631480211523997 -0.0450692049767891 0.0530050664035291 0.7033954 0.257494 0.6625192 142 142 142
0.0516188139227854 -0.0292171112801949 0.0550671710459203 0.5002698 0.07660507 0.8624742 170 170 170
0.0530378217009532 -0.0272012225892464 0.0538516907779187 0.5269343 0.02560376 0.8495203 168 168 168
0.05815499966421 -0.0295728914048592 0.0511648400513143 0.3360125 0.06917541 0.9393138 185 185 185
0.0590862030295359 -0.0269879571702401 0.0506883679715604 0.2994044 0.03259422 0.9535694 155 155 155
0.0584033126143443 -0.0243055097367684 0.0510152025906056 0.3725717 -0.04011243 0.9271361 161 161 161
0.0664294356612193 -0.0322731606271187 0.0501199482766599 0.4587333 6.417983E-05 0.888574 121 121 121
0.0657643074301707 -0.0307932369019905 0.0493778108445615 0.553788 0.01961281 0.8324267 141 141 141
0.0624385470656382 -0.0270464889314095 0.050067913421771 0.2526545 0.07099886 0.9649481 158 158 158
0.0644007319716441 -0.0246463290955941 0.048845064529559 0.4147646 0.05077261 0.9085112 166 166 166
0.064592360904597 -0.0230773560311714 0.0488034679380864 0.4138037 0.0104513 0.9103062 174 174 174
0.0537916416434275 -0.0229167811181465 0.0531275390473813 0.4801568 -0.04889194 0.875819 155 155 155
0.0509536856917369 -0.0226663224008004 0.0551848604170293 0.4581052 0.02157424 0.8886361 129 129 129
0.0524761671332347 -0.018821465184919 0.0541970698920697 0.4352764 -0.00277738 0.9002926 159 159 159
0.0510867232588755 -0.0180992357041756 0.0549925758329839 0.4094271 0.00457316 0.9123313 156 156 156
0.0657643074301707 -0.0383069388177315 0.0240633084265203 0.9889759 -0.1475317 0.01268571 122 122 122
0.066562473228358 -0.0308660737779061 0.0218280522910565 0.973504 -0.2041056 -0.1031062 84 84 84
0.0660525554923045 -0.0347452036645333 0.0258193730203122 0.9895558 -0.1440693 0.004825666 133 133 133
0.0666955107954966 -0.0314128867890755 0.0257453515020818 0.9904559 -0.123859 -0.06046546 114 114 114
0.0667398566512095 -0.0257245175149361 0.0251901118842572 0.9615434 -0.2543482 0.1036401 99 99 99
0.067937075546168 -0.0254123083856026 0.014559981116435 0.6626996 -0.7478877 0.03864171 77 77 77
0.0675823683051097 -0.0244490377213875 0.0248560874549359 0.9380059 -0.3133732 0.1481292 94 94 94
0.0723270768431651 -0.0206060282494942 0.0181778489438504 0.8606985 -0.4654772 0.2062255 55 55 55
0.066762029579066 -0.0290356747414986 0.0326864688483686 0.9929789 -0.1169213 0.0179555 90 90 90
0.0669837588576304 -0.0264911524560372 0.0336605577556104 0.9931117 -0.1169601 0.007040785 72 72 72
