ply
format ascii 1.0
comment File exported by Rhinoceros Version 7.0
element vertex 474
property float x
property float y
property float z
property float nx
property float ny
property float nz
property uchar red
property uchar green
property uchar blue
end_header
-0.124833914909695 -0.0589150915355274 -0.0963290658704615 -0.4239498 -0.7321327 -0.5331494 96 96 96
-0.0371327134707911 -0.111311031362493 -0.0194216993562555 -0.1172538 -0.9775115 -0.1752796 97 97 97
-0.0302064153293116 -0.131055069944341 0.037921485591712 0.1761975 -0.6713743 0.7198688 209 209 209
0.0962183740993994 -0.050414873144109 -0.0992974218837595 0.9489757 -0.1142442 -0.2939274 88 88 88
-0.100376579437588 -0.105968071004827 0.0472133430727148 -0.9735687 0.03530141 0.2256498 47 47 47
0.113758828963901 0.0924035777836254 0.106306073356452 0.2284335 -0.2553638 0.9394719 206 206 206
-0.109902236137722 -0.0737568865031788 -0.0845905867330408 -0.4922195 -0.7442659 -0.4514291 143 143 143
-0.0452730390170557 -0.118372155210454 0.0464217635877752 0.1301249 -0.4108941 0.9023489 95 95 95
0.0985572603603857 0.15210788152508 0.0165583464391851 0.3472047 0.9334785 -0.08981524 166 166 166
-0.00214192596468754 -0.13618226148792 0.0204711529501104 0.005189439 -0.9056036 -0.4240933 129 129 129
-0.108665439758633 0.0878047218113354 -0.00280341775339604 -0.9642423 0.1662242 0.2064128 140 140 140
-0.0955102178195459 -0.065942479154546 0.064546731401267 -0.9890293 0.01536021 0.1469185 109 109 109
0.00698783668484859 -0.113424850484807 0.0380564305074835 0.3105524 -0.4153826 0.8549939 102 102 102
-0.0123963090518457 -0.115111423513372 -0.0424264696351862 -0.2687483 -0.8789206 -0.3940468 98 98 98
0.107585933532383 -0.0101171264857838 -0.0489141073934412 0.8724367 0.1002203 -0.478341 99 99 99
0.117446687545444 0.0232543220310619 -0.0123156634084559 0.9970377 -0.001833072 0.07689211 59 59 59
0.0346474913021582 -0.0954797992915699 -0.0988027033321238 0.0007816436 -0.9037529 -0.4280539 112 112 112
-0.108035776291226 -0.0517864952296803 -0.109574231218514 -0.2958679 -0.7332843 -0.6121735 133 133 133
-0.0683183404544336 0.128612922647517 0.0534648868330145 -0.1496248 0.9092814 0.3883552 212 212 212
-0.00423333374056645 0.131531762102168 0.0615333887823248 -0.2040411 0.9533202 0.2225934 201 201 201
-0.0963647100070459 -0.0187073478908131 0.0653113099821234 -0.9943276 -0.06544442 0.08384319 107 107 107
0.0717160967251318 -0.117706490537603 -0.0610236552469111 -0.1429202 -0.8661062 -0.4789925 158 158 158
-0.0790943833926661 -0.0073736438960621 0.103090343166175 0.1025309 -0.4830117 0.8695902 147 147 147
-0.0121135446170313 -0.124032569906194 -0.0069379237405634 -0.5090303 -0.8270423 -0.2385146 163 163 163
0.0607106951138037 -0.0986955890864918 -0.0853776362649775 0.07091302 -0.9309818 -0.3581121 131 131 131
0.0400896337887304 0.122019576051753 0.100166973758521 -0.1065342 0.8541567 0.5089861 169 169 169
0.0620374945065039 -0.126827550909002 0.0224050852544928 0.01535698 -0.4474415 0.8941813 127 127 127
0.0682888296505468 -0.13190968134113 -0.0290913608781672 0.2728808 -0.9453194 -0.1786259 150 150 150
-0.130534503136013 -0.0180890093059132 -0.0947774377576685 -0.9876733 0.06156475 0.1439141 85 85 85
0.1202502516171 0.00159137151531485 0.0418493124731207 0.9821948 0.1171972 -0.1468267 137 137 137
-0.0461275312045557 0.141898559549372 0.0248787376173162 0.01497384 0.9383576 0.3453416 202 202 202
0.0693683889767187 0.134567545869868 0.0743063065298223 -0.141758 0.8654491 0.4805232 135 135 135
0.0418885019680517 -0.0839999447078297 -0.121054115604577 -0.08909295 -0.8686212 -0.4874009 106 106 106
0.0794878271481054 -0.115898562452275 -0.0632274177781916 -0.07246619 -0.8539999 -0.5152017 120 120 120
-0.0617563459018213 -0.119766307851751 0.012915370155158 -0.07313373 -0.9443332 -0.3207589 96 96 96
0.0349624422451513 -0.111535979291875 -0.0644867298118448 -0.07397852 -0.8029809 -0.5913957 169 169 169
0.113983657683994 0.057435320833247 -0.0276071754209375 0.9122431 0.0998713 -0.3972887 115 115 115
-0.0132508012393457 0.13393800161175 0.0467365953214788 0.06838766 0.9867536 0.1471068 146 146 146
0.111375120010044 0.0595942010670116 0.0900925668962622 0.2520685 -0.362215 0.8973638 118 118 118
-0.0982987615207178 -0.00202162363239022 0.057440665651145 -0.9933609 -0.05817932 0.09924331 151 151 151
-0.0333771440127832 -0.00995977022357675 0.0928585502393866 0.2472225 -0.3588458 0.9000615 187 187 187
-0.0985686513522608 0.0208256711750439 0.076262709785285 -0.9931385 -0.08787885 0.07715737 129 129 129
0.0621724394222753 0.144911812761348 0.0398104461916113 -0.167504 0.8599805 0.4820539 54 54 54
0.0433726576229589 -0.0864848623485157 -0.115308540772614 -0.01900864 -0.952202 -0.3048772 120 120 120
-0.0278377267459375 0.131524251916926 0.047306296516242 -0.1343293 0.8833408 0.4490709 140 140 140
-0.000657770309780314 0.0421437492161205 0.10875719516355 0.119353 -0.4452966 0.8873927 175 175 175
0.117716577376987 0.00396006009868888 0.0187846097238684 0.9913025 0.1238605 -0.0444746 68 68 68
0.121336963500644 -0.118147207281072 -0.0047823217622614 0.9294018 -0.2234334 -0.2937513 174 174 174
0.0960610178371923 -0.122195077917058 -0.0563687411062098 0.1703005 -0.8528913 -0.4935322 195 195 195
0.0708976057430761 -0.1154487858028 -0.0643967715017176 -0.2005105 -0.806588 -0.5560678 171 171 171
-0.100693676147793 -0.0839775333613941 0.0449600788839483 -0.9615762 0.09452263 0.2577533 150 150 150
0.0689184931179541 -0.0589150915355274 0.0498398813493872 0.1535396 -0.3757152 0.9139276 146 146 146
0.062936809386875 -0.067010594388921 0.0457021865137243 0.0766396 -0.6238461 0.7777805 253 253 253
-0.0683002206424219 -0.128086758634526 0.0468265387304449 0.1988637 -0.6807873 0.7049694 89 89 89
-0.0727078649142725 0.0400075187473705 0.120922979999366 0.1722397 -0.6927747 0.7002833 176 176 176
-0.105179879341458 -0.0976386795253346 0.0270600291975164 -0.9823101 -0.00985351 0.1870025 36 36 36
-0.0996479722598536 0.0890977849750927 0.0642768713720465 -0.7870511 0.3785979 0.4870463 251 251 251
0.0995915201565283 -0.00323600866504403 -0.0632724043838358 0.9773846 0.03110884 -0.2091687 93 93 93
0.0234039095303076 -0.0299961099834034 0.0741264197118902 0.2511484 -0.4442553 0.8599777 90 90 90
-0.109437558327053 -0.084595871946294 0.00696363775807857 -0.9711583 0.03991522 0.2350712 105 105 105
0.0976801184078711 0.139177488306086 0.0750034424551153 0.07361197 0.9455532 0.3170338 74 74 74
-0.0320954057315332 -0.0650766620845387 0.0761952671297216 0.1988675 -0.3394524 0.9193605 176 176 176
0.00734784873929195 -0.0283320675105641 0.0801530751474523 0.263161 -0.4127053 0.872021 126 126 126
0.0115080145260351 -0.0921293029994557 -0.105346563171563 -0.07221471 -0.8097141 -0.5823642 53 53 53
-0.0182130071261866 -0.0116014013499806 0.0897927257307196 0.0005288954 -0.2740657 0.9617108 105 105 105
-0.0945739480594141 -0.0880671272487232 0.0711744102724218 -0.9250623 -0.2287966 0.3031697 93 93 93
-0.131850096855496 -0.0456250438899586 -0.111957910370049 -0.3995761 -0.6889477 -0.6047231 79 79 79
-0.103320810470913 -0.0262631902904102 0.0210408541448736 -0.9597674 0.2195881 0.1750076 136 136 136
0.126981523360874 0.09840767286114 0.0648615631349707 0.9970495 0.07646421 -0.006754403 119 119 119
-0.0153646203616602 -0.100562048932988 0.0498398813493872 0.1356536 -0.3197625 0.9377366 251 251 251
-0.0351986619571192 0.109741376855891 0.0947699817903662 -0.1388317 0.8637905 0.4843468 222 222 222
-0.0665013524631006 -0.121722770711858 0.0152990195043707 -0.09658095 -0.933288 -0.3458982 160 160 160
0.105258491363193 -0.0633226165980885 -0.0859398272744989 0.8772342 -0.1128891 -0.4666007 173 173 173
0.112229612197544 -0.123319459936101 0.0128253969438696 0.22609 -0.417731 0.879991 171 171 171
-0.116243693504666 0.0308101644306591 -0.0336788025609827 -0.9204154 0.1106311 0.3749616 198 198 198
-0.0955326291659815 -0.0816950330943653 -0.0862321582547999 -0.2986632 -0.702427 -0.6460624 151 151 151
-0.118762347374294 -0.0323647985667774 -0.0372468260042048 -0.9608717 -0.266023 0.07718366 50 50 50
-0.0863353940585596 -0.0362027416438648 0.0921164426096105 0.05807741 -0.08975627 0.994269 138 138 138
-0.0571465226748926 -0.127996755620916 0.0443529161699438 0.1916359 -0.4483877 0.8730545 142 142 142
-0.132603380356167 -0.0537766943187306 -0.088863211583314 -0.9854977 -0.1131095 0.1264933 182 182 182
-0.0396063062289698 -0.0204164514751026 0.0910370322950506 0.1815818 -0.3502841 0.9188738 157 157 157
-0.0946669313052637 -0.0223615894527027 0.0835262212045813 -0.9976922 -0.04795884 0.04806377 149 149 149
0.116412189330723 0.140234517076533 0.0293762358911657 0.8152399 0.5320749 -0.2286484 148 148 148
-0.0796789857486231 0.117094801881831 0.0687069269903326 -0.6180855 0.7657177 0.1778953 194 194 194
0.00377967628445797 0.107537554719966 0.114663955856147 -0.1653762 0.8570923 0.487897 120 120 120
-0.0542380544284327 0.1180317868977 0.0767649683244848 -0.06232744 0.9779516 0.1993136 141 141 141
0.111824777450229 0.139649795511287 0.0625678273924017 0.5273142 0.8182781 0.2288245 168 168 168
-0.126255128059719 -0.0299062261790821 -0.0666185495368815 -0.9830441 0.1827927 -0.01453208 83 83 83
-0.10455033508334 -0.0831342468471119 -0.0462718334905481 -0.4795416 -0.7337729 -0.4812662 121 121 121
-0.116621467743252 -0.0302479992122242 -0.020204278539834 -0.907642 0.04576345 0.4172429 96 96 96
-0.103425953064297 0.0879134406834057 0.0424939665086889 -0.9960048 -0.007408084 0.08899206 148 148 148
0.0858292845150488 0.019296573617976 0.0819970640428686 0.4516842 -0.2773734 0.8479654 123 123 123
-0.11921212402377 -0.0298612842769215 -0.0245938328019953 -0.907967 0.0801639 0.4113024 120 120 120
0.121044662322666 0.0793382396488598 0.0189420255907202 0.9953127 -0.0293757 -0.09213988 76 76 76
-0.129196498070095 -0.0461197624415943 -0.0730094936601496 -0.9366623 0.3454793 -0.05751407 55 55 55
-0.0852558347323877 0.111585306146663 0.0681897076852941 -0.8764375 0.4525384 0.1645183 222 222 222
0.12614944251981 0.0981828441410473 0.0494351062067175 0.98024 0.09020894 -0.176045 115 115 115
-0.118241879616116 -0.0340343246669361 -0.0226374295465326 -0.9035931 0.08771693 0.4193153 113 113 113
-0.053008768234585 -0.10937709905811 -0.0177126553766108 -0.1851209 -0.945384 -0.2682897 18 18 18
-0.0901581975558741 0.0690389146595409 0.112220284629645 -0.7630544 0.5685768 0.3073571 142 142 142
0.0701778200527685 -0.131819797536809 -0.0334089425317621 0.2724819 -0.9596808 -0.06903914 102 102 102
-0.0763058396914942 0.137266086557429 0.0275772187002325 -0.3955124 0.8710704 0.2912152 184 184 184
-0.0658766957858545 -0.0604092607707569 0.084730533052268 0.002304462 -0.3417488 0.9397885 207 207 207
0.0900287893673437 -0.138043118497808 -0.00673312218111516 -0.07218497 -0.9362242 -0.3439092 172 172 172
0.0232689646145361 -0.118596983930547 -0.0518487271777964 0.02627079 -0.879218 -0.4756948 148 148 148
-0.120426389847134 -0.0438035259456226 -0.0431685474626398 -0.9137686 -0.01445477 0.4059779 32 32 32
-0.0974666806796534 -0.0848208198756764 -0.0787438181154108 -0.4352663 -0.8394573 -0.3253532 141 141 141
-0.108987781677578 -0.0574309358806202 0.0032307180650854 -0.9796993 0.04478679 0.1954058 109 109 109
-0.103335830841397 0.072591947534602 0.0431835624464178 -0.9985691 -0.05147998 0.01447446 149 149 149
-0.0539307328799707 -0.104812217733342 0.053505358386817 0.08936214 -0.2687697 0.9590502 102 102 102
-0.10625931945834 -0.0243550071925709 0.00920814006406306 -0.9515185 0.2631729 0.1592248 120 120 120
0.0868187216183203 -0.0916569957942555 0.0268576118238592 0.2340615 -0.2646804 0.9354996 113 113 113
-0.0338270398715479 -0.118552042028386 0.0460394891985083 0.05867036 -0.2676776 0.9617206 118 118 118
-0.0171186658481104 0.121120022752803 0.0810975405462408 -0.1583606 0.8584832 0.4877792 65 65 65
0.090416696395542 0.144462155321162 -0.0111912813894129 0.8600313 0.2961335 -0.415513 91 91 91
-0.080646011505459 -0.098200870534856 -0.0404550460092402 -0.4736045 -0.8625278 -0.1781699 162 162 162
0.0183215406795996 -0.114729119321782 -0.0591796663514948 0.09748777 -0.8612645 -0.498718 197 197 197
-0.10365078178439 -0.0781493911952564 0.0314300927408361 -0.9597902 0.003209284 0.2807001 70 70 70
-0.0966233941653711 -0.0893969068736622 0.0591272386797094 -0.9739638 0.06887414 0.2159882 149 149 149
-0.0240597459414942 -0.116138411542852 -0.0287165668718195 -0.4223129 -0.8947346 -0.1452647 150 150 150
0.0193336275478857 -0.130830241224248 -0.0265052941552973 -0.316074 -0.8977061 -0.3069544 69 69 69
0.0968032148739355 -0.00400061704822274 -0.0710081037990427 0.9215939 -0.01342636 -0.3879232 56 56 56
-0.105164858970974 -0.038481427213628 0.0188220712431097 -0.9704118 0.0491413 0.2364025 189 189 189
0.0301950243374365 -0.131414962789495 -0.0301707413904047 -0.06447923 -0.9232144 -0.3788371 120 120 120
-0.0076739522555811 -0.133483720800359 0.0135899755247259 -0.2018694 -0.9286196 -0.3113106 78 78 78
-0.127487513695095 -0.0253637562007496 -0.0694789615384913 -0.9846109 -0.07575093 0.1574905 80 80 80
-0.0635330411532862 -0.0527085790843556 0.0867644223459387 -0.01339494 -0.1846014 0.9827222 191 191 191
-0.0852110120395166 -0.0973238477916309 -0.0397054579965448 -0.434298 -0.853723 -0.2873016 78 78 78
-0.0496356221774561 -0.0561941395015308 0.084403214145484 0.1850218 -0.2584315 0.9481456 184 184 184
-0.125688526306484 -0.0226877460689137 -0.068422051977334 -0.9891383 0.007211159 0.1468107 59 59 59
-0.0934862825015528 -0.0439946184367725 0.0896203192957067 -0.9337147 -0.09791694 0.3443675 118 118 118
-0.0298466416934473 -0.0827968845576832 -0.113554525088487 -0.2177129 -0.5801589 -0.7848673 145 145 145
-0.0132508012393457 -0.138296080610234 0.0226299735792303 -0.180355 -0.8794964 -0.4404069 230 230 230
-0.0924968453982813 -0.0579705963344166 0.0883835229166174 -0.4664592 -0.07045237 0.8817325 192 192 192
0.116906907882358 -0.0588252077312061 -0.0440230694524622 0.9912845 -0.1050401 -0.07950815 54 54 54
0.0641286638638037 -0.133596254369695 0.017930087734046 0.07205653 -0.3649914 0.9282182 116 116 116
0.0217848089596289 -0.0436236391276905 0.0672002705820227 0.1738223 -0.5638264 0.8073943 84 84 84
-0.100097629700039 0.0581100454121044 0.0739915045984411 -0.9875206 -0.0925616 0.1274179 156 156 156
0.0573375490566748 -0.133326364538152 -0.0333864715806818 0.1385977 -0.9252156 -0.3532234 187 187 187
-0.0513896676639063 -0.0896330604762623 -0.0939004150144434 -0.4858389 -0.7643957 -0.4238631 88 88 88
-0.00272676673922367 0.00868241689495353 0.0952647003420019 0.02258875 -0.3154227 0.9486824 106 106 106
0.0527725485226171 -0.113469911596257 0.026587781596961 0.01000186 -0.3547257 0.9349169 130 130 130
-0.0518955918887598 -0.110355330488164 -0.015002909015832 -0.2633563 -0.9158773 -0.3030051 151 151 151
0.0305547979733007 -0.0771749744624683 -0.128081458520112 -0.2278648 -0.6361787 -0.7371257 94 94 94
0.0963533190151709 0.146216200807612 0.0531230541952276 0.03408085 0.9560572 0.2911926 131 131 131
-0.00425574508700199 0.0413119067936352 0.108914611030402 0.1694606 -0.412244 0.8951749 168 168 168
0.0301275518795507 -0.136789394399602 -0.0157562521211481 -0.04916756 -0.960179 -0.2750253 105 105 105
-0.060654613647793 0.140504287698787 0.0148043009527349 -0.1109168 0.9902194 0.08463512 35 35 35
0.110565450515415 -0.10245092012592 -0.0581452426425791 0.9803788 -0.004030113 -0.1970816 117 117 117
0.0440624025722998 -0.00232143499561044 0.0830314728506231 0.09824778 -0.6020782 0.7923694 202 202 202
0.110070731963779 -0.0069689283580372 0.0617582771070623 0.3479801 -0.3556231 0.8674342 132 132 132
0.0404944685360449 0.149207042673152 0.0169631215818548 -0.07519175 0.8748385 0.4785434 153 153 153
-0.0236401292422754 -0.0285568962306568 0.0864945623167181 0.1063446 -0.2412791 0.9646114 136 136 136
-0.130703184280728 -0.0498414764613697 -0.0827578482143259 -0.9276548 0.3248014 0.184284 49 49 49
0.012010124053623 -0.0838013420314381 0.0506494316347265 0.2993191 -0.4557444 0.8382751 82 82 82
0.121944215621616 -0.0838312635631153 0.0229148241766119 0.6396975 -0.2673316 0.7206393 107 107 107
0.108148124541904 -0.0701251754970142 0.0313663753755712 0.2104942 -0.5541604 0.8053561 75 75 75
0.0239136484524267 -0.0239544639796803 0.0773496302850866 0.2683952 -0.4654819 0.8433805 110 110 110
-0.0836817952731592 0.0890977849750927 0.107048151183906 -0.5103648 0.6198436 0.5960887 145 145 145
-0.105337235603665 0.0938652028828075 0.0297585102804327 -0.993268 -0.06490617 0.09594794 117 117 117
0.0792627600094336 0.130452321985286 0.0932633253820562 -0.007044504 0.9067596 0.4215891 170 170 170
-0.0977203580478174 -0.0963150987834522 0.0570872995145941 -0.9801368 0.07100918 0.1851744 68 68 68
-0.0966963502505762 -0.0521407852382252 0.0549164387472296 -0.9878407 -0.008576814 0.1552327 153 153 153
0.123068597640659 -0.014299822828252 0.026632753301444 0.9572042 0.2894071 -0.001896009 130 130 130
-0.0940260621646387 0.109741376855891 0.0203362378366613 -0.7435089 0.6681647 -0.02739265 124 124 124
0.116022374953892 0.0442276468067577 0.0829565200098181 0.3143885 -0.3690444 0.8746234 111 111 111
0.0718419817348974 0.117297100046199 0.114446547914329 -0.1819551 0.8315304 0.5248329 188 188 188
-0.0971743795016748 -0.0242617855281422 0.0572382780798101 -0.9900888 -0.01843153 0.1392284 137 137 137
0.0399847296139257 -0.108102870962102 -0.0706782963983393 -0.05866171 -0.8085879 -0.5854438 148 148 148
-0.0804435941318018 0.114778565385859 0.0726422342546606 -0.6462107 0.6465515 0.4054415 203 203 203
0.111510064925815 -0.126062942525823 -0.0456871417276239 0.6301998 -0.591658 -0.5027813 143 143 143
0.0743155744930761 0.0116057863026073 0.0847180458791876 0.2253735 -0.3138329 0.9223425 189 189 189
-0.0481290551761133 -0.123971534749944 0.0192118558176184 -0.2830212 -0.8570549 -0.4305297 136 136 136
0.0772390631100195 -0.0899928341121266 0.0281619104631567 0.1271947 -0.3152079 0.9404603 76 76 76
0.0157130030056494 0.0284039249210766 0.101471242595496 0.009827106 -0.4200942 0.9074273 147 147 147
0.0416636732479589 -0.129900766393621 -0.0386110869161463 -0.171037 -0.886972 -0.4289838 114 114 114
-0.0772652360537989 -0.0824369917125294 0.0794784399755621 0.2306324 -0.3688504 0.900421 230 230 230
0.0652756956478613 0.0383209457188061 0.0981880697496557 0.1293944 -0.3580971 0.9246749 164 164 164
-0.110531899605129 -0.105149460813482 -0.0188820091001368 -0.280606 -0.8885615 -0.3629307 224 224 224
-0.0990183087924463 0.042413758256953 0.074621138263526 -0.9930055 -0.06906653 0.09575918 113 113 113
0.104269054259922 0.0821716060429027 -0.0223900702707148 0.7946238 0.4041876 -0.4529961 24 24 24
-0.100484583053921 -0.0498616228313038 0.0368331047781134 -0.9728456 0.02089002 0.2305105 167 167 167
-0.0750016900638086 -0.0832916031093189 0.0771847340353155 0.2497933 -0.6496375 0.7180352 185 185 185
0.0842101839443701 -0.122015071889837 0.020358738590064 0.2126599 -0.1961381 0.9572386 90 90 90
0.0544367102047461 0.138660358408015 0.0589248511083746 -0.2864036 0.9542683 0.08570247 112 112 112
-0.0967919561007959 0.00596134565166739 0.0844706866033697 -0.9965472 -0.07524724 0.03509377 126 126 126
-0.0223657819369776 -0.12784690954395 0.0387909981496954 0.1379395 -0.6469459 0.7499558 184 184 184
0.038170602645542 -0.0836513767451832 -0.121395173381982 -0.06040047 -0.8677345 -0.4933443 111 111 111
0.118706014480259 0.0918863286762646 0.0109364661462927 0.9947106 0.06922513 -0.07588586 70 70 70
0.122978713836338 -0.0554970035762379 -0.0115960565320826 0.9844519 -0.1705373 0.0420887 188 188 188
0.0716171530148046 -0.0991677770824024 -0.0859848138801432 -0.1974838 -0.8643706 -0.4624539 172 172 172
-0.130680772934292 -0.0521014461726734 -0.0801380452625132 -0.9766549 0.1215144 0.1771425 44 44 44
-0.0637354585269434 -0.0818523893565724 0.0769373449571752 0.07920843 -0.5880207 0.8049582 148 148 148
-0.10535976615939 -0.0700689087123463 0.024249074149909 -0.9613487 0.05611247 0.2695554 178 178 178
-0.0161292287448389 0.0856796970158031 0.131851908851447 0.1579284 -0.1098523 0.9813211 179 179 179
0.105438258971836 0.00818769834331778 -0.050364556621728 0.7692816 -0.1173235 -0.6280454 111 111 111
-0.101446840439175 -0.0826019773692677 -0.050409528326211 -0.5383582 -0.8143957 -0.2166336 160 160 160
0.0354571607967871 0.134477662065547 0.064501759696784 -0.0003726977 0.9618221 0.2736752 79 79 79
0.0252478388210791 0.0505092611103466 0.112939891506019 0.18487 -0.4811156 0.8569428 208 208 208
0.0854695108791845 0.119770812013667 0.113254723239722 -0.2370035 0.7699705 0.5924312 218 218 218
-0.127217623863552 -0.0630977878779957 -0.0679498043767786 -0.5096828 -0.8073926 -0.2972214 228 228 228
0.0489497450253027 0.105603622415583 0.128546235252204 -0.02077545 0.6071506 0.7943151 219 219 219
0.0595639017483252 -0.122195077917058 0.024294045854392 0.001889544 -0.3358886 0.9418998 86 86 86
0.116951968993809 0.043268250444453 -0.00543445618074895 0.9997413 -0.01001016 0.02042674 136 136 136
-0.133559081230496 -0.022507740041692 -0.0970037010423517 -0.8941819 0.1253436 0.4297996 68 68 68
0.125452306594517 0.0484403838901928 0.062208023954215 0.9616901 -0.1378201 -0.2369765 83 83 83
0.116637256469394 -0.121340466520269 -0.0164533582441187 0.9837742 -0.1296467 -0.1240162 147 147 147
-0.0717782708743555 -0.122899604818303 0.0270075473077917 -0.1913315 -0.9463905 -0.2602638 167 167 167
-0.0899781915286524 -0.104564858457525 0.0636472377069616 0.1237531 -0.3467956 0.9297408 160 160 160
0.00213053497281246 0.0556363334446361 0.115728345800223 0.04356339 -0.4932977 0.868769 128 128 128
-0.0770253869632227 0.121165083864253 0.0613085302599096 -0.5474173 0.7825934 0.2964487 212 212 212
-0.0299815866092188 0.100566433885615 0.115334806133094 -0.1570772 0.8294589 0.5360268 169 169 169
0.0685138967892187 -0.0677302608699391 0.0434983941801214 0.1522566 -0.6227215 0.7674867 34 34 34
-0.118897292290066 -0.0394409427852223 -0.0380413857213831 -0.9402325 0.03020446 0.3391909 19 19 19
0.0207953718563574 -0.0111516247005055 0.0842457982786322 0.1356938 -0.3778638 0.9158636 120 120 120
0.112859275664951 -0.0877441892833302 0.0248337361105108 0.1551782 -0.3952687 0.9053631 125 125 125
-0.0380921098330957 0.0321294536381176 0.111260828662696 0.2545901 -0.4788653 0.8401618 193 193 193
0.06860378059354 0.0561310519962719 0.105968770671668 0.2365654 -0.4638135 0.8537645 220 220 220
0.0617676046749609 -0.0482559929103443 0.0564062568433905 0.07722856 -0.4448883 0.8922501 167 167 167
0.120954778518345 -0.121790243169744 -0.0026010301820612 0.9458149 -0.1851792 -0.2667261 168 168 168
0.0680489805599707 0.154341625192683 0.0110713812597418 -0.05511258 0.9612374 0.2701579 134 134 134
0.121224668349888 -0.0791089067668507 0.008192983556571 0.9980785 0.03362466 -0.05204611 40 40 40
-0.115434143219326 -0.0193970928401539 -0.0185971883050776 -0.9392901 0.01568196 0.3427654 140 140 140
-0.0362331601718409 0.0348129739551952 0.112490144658866 0.217946 -0.5567921 0.8015499 207 207 207
0.104898717727329 -0.107982946416814 0.0180425020940924 0.265105 -0.1377902 0.9543234 80 80 80
0.0451717642208593 0.0382760038166454 0.103090343166175 0.1798825 -0.4320149 0.8837451 216 216 216
0.0206153658291357 0.137580918291133 0.055191901613059 -0.02921832 0.9549779 0.2952348 166 166 166
0.0761146810909765 -0.0862375030726978 -0.11265501649302 0.1565026 -0.8303674 -0.5347868 115 115 115
-0.0989732476809961 -0.023070050260503 0.0440830859430456 -0.9797511 -0.002492348 0.200204 80 80 80
-0.0985235902408106 0.0858746042042187 0.0698387893922949 -0.8305908 0.5187523 0.2025218 202 202 202
0.0597286489864843 0.0801178684025219 0.116927680660071 0.4301577 -0.2912548 0.8544794 174 174 174
-0.050175401840542 -0.114054513952214 -0.00408521563929082 -0.1421222 -0.9294346 -0.3405181 99 99 99
-0.0137006970981104 0.103699730852168 0.115338561225715 -0.2534157 0.8962423 0.364047 161 161 161
0.0292954710384863 -0.128806305906255 -0.0359725383035517 -0.09360692 -0.90771 -0.4090236 26 26 26
0.107821967925693 -0.0981558094234058 0.0200888785608435 0.1340806 -0.4036509 0.905035 99 99 99
-0.131939980659817 -0.0190221796245167 -0.0546821680776453 -0.7005214 -0.7130328 -0.02922216 62 62 62
-0.00793263641390629 -0.10548682310291 -0.0751120773069239 -0.0709446 -0.88996 -0.4504865 118 118 118
-0.0954801770785791 -0.00768859483905526 0.093060908008399 -0.9984824 -0.05468081 0.006549427 91 91 91
0.0633416441341894 0.144821928957026 0.0535728010423803 -0.05040492 0.8694839 0.4913828 84 84 84
0.057539966430332 -0.116168333074529 -0.0605289217941141 -0.09190442 -0.7826568 -0.6156312 121 121 121
0.106787708129551 0.0572554340153149 -0.0392107394449091 0.8309105 0.1947723 -0.521202 59 59 59
-0.100847217712734 -0.0902027616710255 0.0434534224756384 -0.9759812 0.08276416 0.2015213 65 65 65
-0.109317633781765 0.0879734029560497 -0.00894251735132695 -0.9884701 0.1513492 0.0045001 169 169 169
-0.00847217765841313 -0.102698398611028 -0.0809138742200708 -0.0928648 -0.8771209 -0.4712061 154 154 154
0.11246946128812 -0.134158445379216 -0.0314000573865748 0.5330847 -0.7028126 -0.4710363 174 174 174
0.10184934410062 -0.106228900930364 0.0191578838117742 0.2621131 -0.1710129 0.9497638 108 108 108
-0.0567416879275782 -0.0733071098537037 -0.110586169075189 -0.4881535 -0.7132438 -0.5029805 148 148 148
0.0640163687130468 0.0203309526234081 0.090677228856864 0.2533839 -0.4915993 0.8331427 183 183 183
0.0538220671078222 -0.0701438913554737 0.0436783108003759 0.1645974 -0.5340544 0.8292729 47 47 47
-0.0990183087924463 0.049654649713557 0.0806477936990881 -0.9877458 -0.02468093 0.1541073 149 149 149
0.0423383978268164 -0.0827968845576832 -0.123943763684449 0.003834522 -0.7031617 -0.7110197 123 123 123
-0.0158593389132959 -0.0578057298869679 0.0747860643156195 0.2095443 -0.3242706 0.922464 139 139 139
-0.0734724732974512 -0.121340585729558 0.0233495804556036 -0.1824721 -0.9377284 -0.2955831 161 161 161
-0.100727293167446 -0.0321819315166065 0.0371839079149389 -0.9824707 -0.005919075 0.186323 134 134 134
0.128015783157017 0.0574803819446972 0.0788488063104772 0.9664147 -0.2238923 -0.1261539 82 82 82
0.0760920313259619 -0.0776247511119434 0.0357401940115118 0.145389 -0.690088 0.7089715 46 46 46
-0.121730658684109 -0.0675503740520069 -0.0880086895934916 -0.4410196 -0.810168 -0.386173 173 173 173
-0.104580137405728 -0.0342688093394825 0.0188820335157537 -0.9629918 0.01593663 0.2690593 109 109 109
-0.0700993272403223 -0.100382162115056 0.0583401593454504 0.2686527 -0.4383681 0.8577057 117 117 117
0.122483995284702 -0.055946780225713 0.0364373001344824 0.3518027 -0.4979386 0.7926487 97 97 97
0.0285311010738867 0.0656208267002514 0.118336913276496 0.1851951 -0.3720691 0.9095424 159 159 159
0.12050488265958 -0.057655764600713 -0.029720994543252 0.9619064 -0.08516136 -0.2597762 98 98 98
-0.0971293183902247 -0.109467102071721 -0.0102917876951075 -0.07997002 -0.9812703 -0.1752524 56 56 56
0.0639264849087255 0.0165530910282543 0.0882485780008459 0.2303003 -0.4523902 0.8615712 180 180 180
-0.0404381486514551 -0.0646270046443531 0.0785564753301763 0.2850433 -0.3148068 0.9053436 141 141 141
-0.0745968553164942 0.0415591468601635 0.12260955302793 0.139651 -0.7040375 0.6962964 162 162 162
0.104269054259922 -0.101911259672124 0.0192568275221014 0.234679 -0.2918257 0.9272344 94 94 94
0.0426757601162451 -0.142838550588567 0.00976711242276668 0.0839055 -0.9785009 -0.1884034 72 72 72
-0.0763282510379297 0.0633271207600048 0.133291122604194 0.114747 -0.198482 0.9733643 171 171 171
0.0293855932613867 0.130564855554621 0.0783540579565191 -0.1642648 0.8820468 0.4416 134 134 134
-0.0960318776706202 0.000146078088801183 0.0892740163095617 -0.9957548 -0.08756858 0.02835726 125 125 125
0.111510064925815 -0.0843485126704762 -0.0594045546762323 0.9720858 -0.1786165 -0.1521361 102 102 102
0.0468807485958593 -0.116033388158757 -0.0577854392043924 -0.0421847 -0.8658879 -0.4984561 121 121 121
0.0936908987423437 0.0076029767780712 -0.08064176411551 0.9545343 -0.2487708 -0.164248 111 111 111
-0.0641627046206934 -0.0882389078349659 0.0673801573999548 -0.05494053 -0.7626851 0.6444322 142 142 142
0.0311396387478369 -0.141579223653753 0.0178176435716772 0.08757409 -0.6215549 0.7784601 140 140 140
0.117581632461216 0.0355325212269237 0.0194817158468389 0.999976 -0.006907403 0.0004925136 61 61 61
-0.0730228158572657 -0.0335042009563038 0.0912619206197882 0.2026936 -0.1005448 0.9740667 192 192 192
0.122011688079502 0.122806595781367 0.0332665714510107 0.9972112 0.01809628 -0.07240433 185 185 185
-0.0621387693027002 0.137333559015315 0.0319622728117132 -0.06936983 0.8553208 0.5134337 199 199 199
-0.0964772435763819 0.0852749814777782 0.0827391418703222 -0.7733309 0.5323567 0.3443192 235 235 235
0.0200755861660498 0.00593893430523185 0.0914567980058813 0.08846927 -0.4796294 0.8729999 172 172 172
-0.0977589818576319 0.0282465686588695 0.0770947608240271 -0.9940386 0.05539712 0.09390684 142 142 142
0.0366266039272802 0.0186443795948437 0.0949498686082983 0.1907185 -0.3833174 0.9037114 155 155 155
-0.0460076066592676 0.125137852647822 0.0606938573606634 -0.1262807 0.9104457 0.3938804 131 131 131
0.101915386047031 0.137970732667964 0.00478985636312007 0.8199001 0.2359729 -0.5216134 47 47 47
-0.0931265088656885 -0.0944903621882984 -0.034353437732873 -0.3586847 -0.7882469 -0.500012 207 207 207
0.0136893061062353 0.0612133016376903 0.118876603532615 0.04978337 -0.3451499 0.9372263 153 153 153
-0.112623188171719 -0.0056195984096119 -0.0150366452447748 -0.9142975 0.09704884 0.393245 178 178 178
-0.113916251335476 -0.0100947151393482 -0.0149579373113489 -0.9048726 0.1276247 0.4061004 149 149 149
0.12315848144498 -0.114414287588079 0.00266104667264461 0.9853172 -0.1184512 -0.1229607 201 201 201
-0.1012332173923 -0.0361915359706471 0.0348407003172064 -0.9786882 -0.01322871 0.2049253 147 147 147
0.110138204421665 -0.144176555654485 0.00116562573987483 0.1518268 -0.812178 0.5633078 184 184 184
-0.125553581390713 -0.0213459263057301 -0.039060833763299 -0.8736261 0.02776013 0.4858054 99 99 99
0.0340628889462011 -0.140619827291448 0.00128179519254207 0.03501583 -0.9670348 -0.2522254 82 82 82
0.123315837707187 -0.00793583490558358 0.0528981956728125 0.8899947 -0.01650147 0.4556722 187 187 187
0.126441743697788 -0.0375744829387257 0.0285441848524237 0.9700472 -0.1213056 -0.2104598 80 80 80
0.110700395431186 -0.122779680273015 0.0139947506673956 0.3142167 -0.4107467 0.8558943 192 192 192
-0.0305213662723047 0.126337217309993 0.0588349076994085 -0.0638096 0.9007731 0.4295767 103 103 103
0.126666572417881 0.0970583429127148 0.0513690385110998 0.9768845 0.08604366 -0.1956861 85 85 85
0.0935948160549658 0.114658640840571 0.119401303220572 0.2356404 0.185985 0.953878 154 154 154
0.0495343473812597 -0.135732484838445 -0.028382989477334 -0.05193308 -0.9557605 -0.289525 154 154 154
0.100985792007114 -0.0547323951930592 -0.092416244458375 0.6860804 -0.06938608 -0.7242094 129 129 129
-0.134089800987576 -0.00185079672046395 -0.0763961252681589 -0.9641525 0.1235575 0.2348265 37 37 37
-0.0390665265658838 -0.0823471079082081 0.065716085124793 0.217483 -0.6342689 0.7418922 124 124 124
-0.0982794496158106 -0.0281586179942677 0.0494672331102514 -0.9834554 -0.003519046 0.1811161 86 86 86
0.109576013412144 -0.0111066827983448 -0.0458220866433954 0.8414944 0.0306205 -0.5393974 96 96 96
0.00397470268216304 -0.058375431081731 0.0666380795725012 0.4727339 -0.2948982 0.8303961 228 228 228
-0.0736748906711084 0.121153758981746 0.0651313933618689 -0.3475656 0.864291 0.3635921 182 182 182
-0.132659647140835 0.00243084333233146 -0.0633173760883188 -0.9582427 0.2826771 0.04318124 44 44 44
0.0697732237240332 0.0460117330341747 0.100481805492225 0.1782796 -0.3292887 0.9272461 191 191 191
-0.103628132019375 0.0779664983539989 0.0333452793844366 -0.9938093 -0.07143314 0.08509089 163 163 163
-0.118447515640591 -0.0733071098537037 -0.0392107394449091 -0.9566692 -0.211641 0.1999803 119 119 119
0.0105860498806494 -0.0922866592616627 -0.104649457048593 -0.04738766 -0.8173921 -0.5741295 40 40 40
0.0034799841305273 -0.131624771139104 0.0286266478784704 0.1935714 -0.3813998 0.9039161 100 100 100
-0.101653787765835 0.0143312682896068 0.0285756859071875 -0.9789106 -0.1079202 0.1734566 160 160 160
-0.0550777646640284 -0.121025634786565 0.0144444975145483 -0.1474059 -0.9080552 -0.392055 124 124 124
-0.0343217584231836 -0.10676856138416 -0.0475985881797648 -0.2269623 -0.9720206 -0.06053131 154 154 154
0.117806461181309 0.0599539747028759 0.00131177632886409 0.9928801 -0.04456261 0.1104682 63 63 63
0.00159099372830562 0.0676447620182445 0.122564551521125 0.1624255 -0.4488654 0.8787137 106 106 106
0.12828567298856 -0.0388562212199757 0.0420142087228918 0.8065027 -0.3262098 0.4930928 223 223 223
0.0941045549770849 0.0995769967823437 0.113929358411613 0.2701307 -0.3993719 0.8760887 225 225 225
0.103954103316929 -0.0326946506709644 0.0529431673772955 0.08629126 -0.3376245 0.9373172 129 129 129
-0.0235502454379541 -0.102203680059392 0.0499523255117559 0.05381824 -0.3337896 0.94111 134 134 134
0.00419953140225582 -0.114999009153325 0.0378315421827459 0.2624886 -0.4458613 0.8557497 112 112 112
-0.0255739423373682 -0.120470953962285 -0.000217351030526169 -0.2338406 -0.894721 -0.3805166 141 141 141
-0.0551676484683497 -0.0335942039699146 0.0903174254186773 0.06269841 -0.2045868 0.9768384 165 165 165
-0.0376274320224268 0.0549167861729076 0.122159776378455 0.06517574 -0.3624853 0.9297078 182 182 182
-0.0880331727603418 0.111675309160273 0.0485131117590094 -0.7801536 0.4905548 0.388222 192 192 192
-0.0477466317752344 -0.123139453908879 0.0161085995920324 -0.1836884 -0.9268529 -0.3274177 83 83 83
0.101930406417515 -0.118102265378911 -0.0605738934985972 0.2896374 -0.7914457 -0.53826 133 133 133
-0.00209710327181645 0.126044796922725 0.0777019235380316 -0.1452352 0.9257818 0.3490485 114 114 114
0.0930702951809423 0.0994420518665722 0.114424076963248 0.261929 -0.3941158 0.880946 226 226 226
0.127296235885288 0.0746608247547558 0.0637371811159277 0.9791097 -0.09387959 -0.180363 62 62 62
-0.02783176628146 -0.110204649946172 -0.0347132411710596 -0.3595104 -0.885317 -0.2949 77 77 77
-0.082467529449795 0.121682332971614 0.0517513129003668 -0.7246656 0.4400405 0.5303056 205 205 205
0.0651855734249609 -0.144052935621221 0.00203138320523738 -0.364023 -0.9185516 -0.1541109 61 61 61
0.120999839629795 -0.0935009250850269 -0.0169930485002375 0.9931006 0.03130517 -0.1130097 152 152 152
0.0599684980770605 -0.101671410581548 0.0295411321409368 0.2259132 -0.1561085 0.9615578 221 221 221
0.121134546126987 -0.0106793174953053 -0.000824513744530686 0.9872284 0.1487699 0.05698801 123 123 123
-0.0520868035891993 0.0662729015140942 0.130749997783484 0.1534253 -0.5051272 0.8492981 170 170 170
-0.0647473069766504 -0.114459348699529 -0.00642392308634282 -0.05034834 -0.9335701 -0.3548405 157 157 157
-0.0961549016574366 -0.0937596092433521 0.0632911595590734 -0.9660442 0.08641719 0.2434967 63 63 63
0.0587091711422461 0.115790533044856 0.112849948097053 -0.06852924 0.8341419 0.5472761 153 153 153
0.107687023009922 -0.0162788162440846 -0.0490602728835917 0.91991 0.03089449 -0.3909107 101 101 101
0.0039520529171484 0.0702757110386303 0.123306629348578 0.1911123 -0.4469 0.8739316 183 183 183
-0.104865047607754 0.0602238645344189 0.0129603418596411 -0.9795948 -0.06930251 0.1886563 147 147 147
-0.06294820037875 -0.127277208349187 0.0282068821676397 -0.1500116 -0.9270979 -0.3434908 226 226 226
-0.117008301887844 -0.0785241852016041 -0.0531080392114496 -0.2168417 -0.9761268 -0.01248976 209 209 209
0.0878756311794775 0.151905464151423 0.0266777250059271 -0.01377538 0.9845601 0.1745037 122 122 122
0.0619473722836035 -0.0218107233256886 0.0701686116941595 0.1842169 -0.5044369 0.8435683 161 161 161
-0.0059649678805811 -0.125927997610051 -0.00913742453974248 -0.2871139 -0.9158466 -0.2806967 71 71 71
-0.0721530648807032 0.0853648652820995 0.11497878758985 -0.5010104 0.7893189 0.3549144 187 187 187
0.117977407302524 -0.135543657323796 0.00680774180966853 0.2029277 -0.5715872 0.7950525 133 133 133
-0.130838129196499 -0.056666446706731 -0.0825891819707728 -0.9857705 -0.06028762 0.1569141 176 176 176
0.0132844713589209 -0.136452151319463 0.00432511894780635 -0.467437 -0.8295049 -0.3056538 121 121 121
0.0667822626492041 -0.115336252233464 -0.0628676143400049 -0.1874692 -0.8148062 -0.5485856 191 191 191
0.0777786043545263 0.0700508823185375 0.106575933385673 0.407842 -0.2501575 0.8781151 150 150 150
-0.0621387693027002 -0.0733520517558643 0.080512878585639 -0.04642643 -0.3766643 0.9251857 175 175 175
-0.118708345566128 -0.0522768030376026 -0.0348481562845087 -0.9896066 -0.02606541 0.1414191 26 26 26
-0.0653769704440577 -0.0255885849208424 0.0921614143140936 0.02906385 -0.361123 0.9320652 195 195 195
-0.0995194646457178 -0.0424221286983082 0.0429458293207312 -0.982397 0.009145907 0.1865809 120 120 120
-0.0718083116153223 -0.0738918314189503 -0.103704976748643 -0.2112044 -0.7804511 -0.5884631 93 93 93
0.0143189695736425 -0.103125644704778 0.0393157276399755 0.3973771 -0.337658 0.8532752 113 113 113
0.121471908416416 -0.080458236715276 0.00517964093762874 0.9979706 0.00919307 -0.06300983 59 59 59
-0.0966796609500391 0.00346534154705314 0.0748010548837805 -0.9977969 -0.05604409 0.03550186 123 123 123
0.104044225539829 -0.143895460149724 0.00490981071073054 0.2486255 -0.7917724 0.5579263 195 195 195
-0.0676705571750147 -0.0340889225215504 0.0898676785715246 0.1140521 -0.1575623 0.9809007 194 194 194
0.0877182749172705 0.149184512117427 0.0351030501611853 -0.1386419 0.9086937 0.3937692 140 140 140
0.0565505293270605 -0.0594774017543385 0.0502221557386541 0.0708805 -0.4310578 0.8995361 115 115 115
0.102087762679722 -0.0799859295100758 -0.084388199161706 0.7979267 -0.1864134 -0.5732041 135 135 135
0.100895908202793 -0.0731721649379322 -0.0863446024171686 0.7535257 -0.1788103 -0.6326341 104 104 104
0.0367615488430517 -0.0183026323527882 0.0748909982927465 0.1826856 -0.4330061 0.8826844 111 111 111
-0.0985686513522608 -0.111967755338628 0.0551649305112982 -0.9440596 0.02515709 0.328814 84 84 84
-0.0618014070132715 -0.0615911016673634 0.0846281024702215 -0.02905021 -0.3075123 0.9511006 185 185 185
-0.100082609329556 -0.0839212665767262 -0.0604689595214701 -0.7253145 -0.668835 -0.1630295 184 184 184
-0.0916423532107813 -0.00247140028186532 0.106013742376151 -0.2555116 -0.2434444 0.9356542 219 219 219
-0.0244946214297754 0.104569243410151 0.109206971813025 -0.0506032 0.8739012 0.4834625 220 220 220
-0.115704033050869 -0.0908474455089161 -0.0303956297151423 -0.6809787 -0.4240645 -0.5970238 238 238 238
0.00674059661832027 0.105176376321833 0.121665057826819 -0.1686409 0.8963456 0.4100303 109 109 109
0.0428331163784521 -0.0207312832088062 0.0734068128355169 0.08430228 -0.3553021 0.9309423 140 140 140
0.0583195951839941 -0.095404935857732 -0.0931358513347483 -0.007699578 -0.940798 -0.3388802 105 105 105
-0.0778350564578516 -0.0107918510646412 0.100796637225928 0.09558449 -0.5248681 0.8457997 179 179 179
0.0821712282558935 -0.10612387754627 -0.0791186121217585 -0.1699487 -0.7735614 -0.6105082 164 164 164
0.00788738998379879 0.122964071252864 0.0869892808683538 -0.05710168 0.9023097 0.4272898 147 147 147
0.0570452478786962 -0.08769912817188 0.0349081727750921 0.2866912 -0.2847141 0.9147382 73 73 73
0.0956561830898779 -0.126805020353276 -0.0448775914422846 -0.1909192 -0.9143355 -0.3571281 89 89 89
-0.0539982053378565 -0.0732172260493824 0.0803779634721899 0.1372971 -0.357415 0.9237987 187 187 187
0.11357882293668 0.047225998857539 -0.0251335528604364 0.965934 -0.07412258 -0.2479464 75 75 75
0.0654106405636328 0.136096762636225 0.0739915045984411 -0.1410677 0.8144953 0.5627587 154 154 154
0.0414612558743017 0.0505991449146679 0.109386858630958 0.1789122 -0.4190189 0.8901762 209 209 209
-0.134278747711514 -0.00750858881183358 -0.0707382586709833 -0.9767809 0.2076895 0.0525752 28 28 28
-0.106708976898525 -0.072272611638982 0.0131852003820562 -0.9828492 -0.02852302 0.182192 89 89 89
-0.0905630323031885 -0.113874627134282 0.00288590519505977 -0.09419085 -0.9424198 -0.3208942 150 150 150
0.109414127196934 0.02397398851208 -0.0448865917436457 0.9481387 -0.01250954 -0.3176107 60 60 60
0.129072692718174 0.103422330835383 0.0830539438017034 0.9735222 -0.01534272 -0.2280769 63 63 63
0.0407641199490087 -0.144232822439153 0.0142871114500189 0.06905399 -0.9660102 0.24911 233 233 233
0.0756724146267431 -0.101866317769963 -0.0829115089885569 -0.2048285 -0.8331679 -0.5136892 140 140 140
0.0176470545193212 -0.138161135694463 0.0220902833231115 0.1286695 -0.5805629 0.8039844 116 116 116
-0.0269682141879541 -0.00804836847491952 0.0923863026388311 0.2547172 -0.34103 0.9048855 147 147 147
0.0638363626858252 -0.10505957700916 -0.0769897875301218 -0.04340022 -0.7940522 -0.6062982 150 150 150
-0.11604878631625 -0.0458423624248097 -0.0168581333867884 -0.9063643 -0.3514511 0.2344906 116 116 116
-0.103021118316982 0.0997119416981151 0.0399453613050604 -0.8894963 0.4371337 0.1330807 174 174 174
0.0116877821346777 0.0353975763111523 0.105935034442725 -0.07789203 -0.4128916 0.9074433 151 151 151
-0.0263836118319971 -0.0309406051845142 0.0862247022874975 0.1307661 -0.2464733 0.960287 151 151 151
0.120336320724155 -0.081953598043401 0.0250248882063055 0.3232041 -0.2571323 0.9107261 105 105 105
-0.0980467530826075 -0.034052921316106 0.0495250496156835 -0.9879097 0.009487545 0.1547396 138 138 138
-0.109227630768154 0.0573903789310863 -0.00772819192331792 -0.9792721 -0.03306258 0.1998324 139 139 139
-0.074821684036587 -0.112300468465764 0.053932604480567 0.2704211 -0.3908244 0.8798459 47 47 47
0.0793302324673193 -0.0937820205897877 0.0272174450643682 0.1149297 -0.2471777 0.9621301 92 92 92
0.0302849081417578 -0.130065752050359 0.0223826143034124 0.1567831 -0.3010396 0.940635 119 119 119
0.011777665938999 -0.129762006780584 -0.0206135538331843 -0.3568743 -0.9228253 -0.1450312 134 134 134
0.116997030105259 0.0367918481617382 -0.0142045942060328 0.9911964 0.07215676 -0.1110094 49 49 49
-0.0101024839023096 -0.00226445295520517 0.0917746397741461 0.01719706 -0.258866 0.9657601 133 133 133
-0.103434774551724 -0.0982683429927418 0.0354928347356939 -0.9687595 0.01861844 0.2473021 107 107 107
-0.083711836014126 0.113204525926631 0.0653562816866064 -0.7560738 0.6531139 0.04236288 177 177 177
-0.0845362874606592 -0.111850811025579 -0.0079980519525385 -0.2237419 -0.9403189 -0.2563979 66 66 66
-0.0217961999515039 -0.137441588422734 0.0302307578809881 0.03791201 -0.9198324 0.3904754 220 220 220
-0.0975341531375391 0.0317321290760448 0.0850553485639715 -0.9974675 0.007722102 0.07070339 140 140 140
-0.0341193410495264 0.132513689020198 0.044892636228385 -0.05915581 0.9170964 0.3942522 124 124 124
-0.0994231435397608 0.00820259950451163 0.0365272733457708 -0.9847612 -0.1080276 0.1362918 159 159 159
0.131523874129917 0.0781689157276562 0.0869443091638708 0.9590717 0.1298306 -0.2516456 100 100 100
0.0018158224483984 0.0178573598652294 0.09769335119802 0.08676299 -0.3879738 0.9175776 126 126 126
-0.00798866477999516 -0.0997749099940846 -0.0869742658845759 -0.01466127 -0.901899 -0.4316982 175 175 175
0.0642862585445898 -0.120351029416997 0.0244439515360022 0.0507785 -0.3122053 0.9486566 128 128 128
-0.00193950859103031 -0.040520263692815 0.0772297057397985 0.3686116 -0.4526593 0.8119267 104 104 104
-0.0810281964877588 0.0978229512958935 0.0978732380159521 -0.31862 0.7854562 0.5306032 228 228 228
-0.00807878700289555 -0.107960415861089 -0.0701760676614618 -0.1378702 -0.9170109 -0.3742763 139 139 139
-0.103965494308804 0.102635311105769 0.0259581181295538 -0.8091803 0.5617977 0.1720777 167 167 167
0.000601556625034139 -0.0199217329234669 0.0861347588785314 0.2841007 -0.3086127 0.9077693 99 99 99
-0.11549410549197 -0.094258023282964 -0.0168056514970636 -0.9846556 0.01729242 0.1736503 38 38 38
0.102132585372593 0.0318221320896557 0.0816597315557623 0.2725536 -0.4384443 0.8564351 153 153 153
-0.100434991989468 -0.0405128727168629 0.038648602653327 -0.9772024 0.01101785 0.212024 146 146 146
-0.132254812393521 0.0056421031742504 -0.0732118961326456 -0.9520184 0.290678 0.09574565 39 39 39
0.0237410334011572 0.0922235717564037 0.127939102340522 0.02506167 -0.432992 0.9010493 181 181 181
0.120145109023716 -0.00393302538104745 -0.0261229899637079 0.9731112 0.04899934 -0.2250639 126 126 126
0.0392799642941015 0.0349477996616772 0.101606187511268 0.2032003 -0.3966434 0.8952004 180 180 180
-0.123816463623379 -0.0360227356166432 -0.0487960454933024 -0.8825502 0.180071 0.4343727 52 52 52
-0.103914949570034 -0.100129200002629 0.0335814031847143 -0.9717555 -0.003591832 0.2359625 78 78 78
-0.100382539902065 -0.0102821121425221 0.0236194106825018 -0.9983557 -0.04196114 -0.03905401 98 98 98
-0.0283286306003077 -0.0501561889857838 0.0813111933954382 0.1904361 -0.3864297 0.9024445 163 163 163
0.0641513136288183 0.14684574506573 0.0370894643552923 -0.1076581 0.9610258 0.2546355 82 82 82
-0.127365443382595 -0.0440347919673512 -0.0572328892461634 -0.9413366 0.01959013 0.3369 46 46 46
0.0939247873684423 0.0105714072971752 0.0745761665590429 0.396765 -0.3711096 0.8395565 143 143 143
-0.0475668641665918 0.0491149892597607 0.120720592428031 0.1776879 -0.37949 0.9079727 188 188 188
0.111060169067051 -0.0935909280986378 -0.0572007623426294 0.9715839 -0.08050672 -0.2225835 98 98 98
-0.00365612236056156 -0.108147812864263 0.0433035167940283 0.2399058 -0.3233527 0.9153624 104 104 104
0.122079160537388 -0.0275899896831104 -0.0167906609289026 0.9873518 0.15651 -0.02531867 118 118 118
-0.12752351490054 -0.0176369676799366 -0.0434473779908991 -0.8801355 0.1156794 0.4604127 142 142 142
-0.00457069602999516 -0.103890133878667 0.0444878312833929 0.3009439 -0.2830955 0.9106535 102 102 102
-0.0987484189609034 0.0284713973789623 0.0495700213201666 -0.9837787 -0.1020923 0.1475015 186 186 186
0.122438934173252 -0.125028444311101 0.005854276109519 0.9886355 -0.1373219 0.06117548 159 159 159
0.0363340643307226 -0.0562166700572559 0.0569909188039923 0.1470893 -0.5146413 0.8446946 195 195 195
-0.0984897348025782 0.0495310296802929 0.0817946764715338 -0.9854267 -0.01813426 0.1691314 173 173 173
0.0165226725002783 0.0476757755070141 0.112355229545417 -0.05553985 -0.4390032 0.8967673 186 186 186
-0.107068869743679 0.0321144332676342 0.00356054036695003 -0.9898071 0.04902959 0.1337083 126 126 126
-0.115434143219326 -0.0701475868434498 -0.0114611414186335 -0.9173183 0.0009348156 0.3981535 190 190 190
0.091930892791416 -0.138356042882879 0.00990202753621577 0.04725347 -0.6790181 0.7325991 122 122 122
-0.122165414963101 0.0020560493259838 -0.0382662740461207 -0.9078814 0.09733503 0.4077711 98 98 98
-0.011316988144253 -0.107173396131475 -0.0719525840989924 -0.1768466 -0.9030349 -0.3914759 75 75 75
0.026177194442417 -0.0779020319194386 0.0491652461774969 0.2377257 -0.5041162 0.8302731 233 233 233
0.0460486677547949 -0.0460971126765797 0.0598468455560827 0.2148797 -0.3652111 0.9057856 165 165 165
-0.0478367539981348 -0.132944060346563 0.0336488458402777 -0.4168564 -0.8986025 -0.1369096 211 211 211
-0.0213913652041895 -0.0726325044841358 0.0700786682851934 0.2492056 -0.7735282 0.5827098 167 167 167
-0.102481338653897 -0.090184045812566 0.0374492379911566 -0.9564484 0.07703023 0.2815541 119 119 119
0.101570394363071 0.0101665725498608 -0.0569196668378687 0.9595821 -0.003943301 -0.2814013 79 79 79
0.103639390792515 0.0339583625584057 -0.0582801726571894 0.882664 0.1662784 -0.4396087 50 50 50
0.0641062525173681 -0.144255233785588 0.00551694362241267 -0.3724558 -0.9203355 -0.1194124 91 91 91
-0.0251242848971827 0.0745258798389843 0.130030420709434 0.2104082 -0.3783315 0.9014398 206 206 206
-0.0910577508548243 -0.0706985721797535 -0.0977682796232081 -0.2009405 -0.9192579 -0.3385081 55 55 55
0.0880780485531347 -0.112457943937261 -0.071682738970933 0.07720068 -0.8197721 -0.5674626 175 175 175
-0.00812360969576664 -0.121625376722295 -0.0205161002389765 -0.3122127 -0.9340202 -0.1735788 190 190 190
0.118481185760166 0.0062987079410961 0.0270825001485968 0.9891453 0.1173933 -0.08837567 69 69 69
-0.039111587677334 0.11743216417126 0.0801530751474523 -0.06231605 0.9243028 0.3765384 186 186 186
