ply
format ascii 1.0
comment File exported by Rhinoceros Version 7.0
element vertex 463
property float x
property float y
property float z
property float nx
property float ny
property float nz
property uchar red
property uchar green
property uchar blue
end_header
0.120771307319151 -0.00847434215432508 -0.00761790750253823 -0.9959818 0.08952115 -0.00251713 205 208 214
-0.0459526945558038 0.0555537847642343 -0.0129397104818683 0.03361946 -0.001482214 0.9994336 202 205 217
0.0424410756854811 0.0158060160204355 -0.016113672520907 0.03906481 0.0009661963 0.9992362 207 208 220
-0.0679856484338174 -0.121827370457669 -0.0151613927639442 -0.004255975 0.01886116 0.9998131 190 193 200
0.1097848392421 0.115828488226489 -0.01610999476327 0.04222239 -0.01388765 0.9990117 204 210 220
-0.0974972264544458 -0.128819521329304 0.00731170047480881 0.9488696 -0.2968251 0.1074305 101 108 93
-0.0231378789409208 -0.0228005663860087 -0.0148885395901726 0.007940948 -0.004840861 0.9999567 191 196 203
0.120669680737086 0.1089116966966 0.00776215967104371 -0.992735 0.1062434 0.05647646 211 215 224
-0.00706543443453417 0.000779006922840941 -0.0149361280366509 0.05690724 0.003905846 0.9983718 200 203 213
-0.0591969199338608 0.115297571787576 -0.0115020105517623 0.02551794 -0.003716569 0.9996675 196 200 211
-0.0573819585525172 -0.153318707058635 -0.0161256498905175 0.01331357 -0.01938753 0.9997234 191 193 203
0.059844699865328 0.135976277883247 -0.0144510946233929 0.03197462 0.004090792 0.9994803 206 211 220
0.0733158258384496 0.143564578943679 0.00901579363259317 0.1260101 0.9910582 -0.04387559 215 217 224
0.0847559216477491 0.0173258568182583 -0.0172158004965205 0.05297621 -0.004406384 0.9985861 202 206 216
0.095503002294658 0.140723181306533 -0.0153079905795986 -0.1013378 0.5060588 0.8565251 211 215 223
0.11453840192077 0.0417158880367062 -0.0175664504008309 -0.08922181 0.01728948 0.9958617 211 216 227
-0.102074219338878 -0.107033331668101 0.00367560182606316 0.9477139 -0.2881147 0.1372166 117 124 112
-0.101141291124334 -0.0696962987327887 -0.0139529271716371 0.0008726064 0.002490965 0.9999965 192 194 201
0.11600498453044 0.130591205867025 -0.0159194097477873 -0.1110523 0.0397752 0.9930183 199 204 214
0.0208397983081038 -0.0652624448836475 -0.0166098941436647 0.02683412 0.001425371 0.9996389 199 203 211
-0.00687363687041453 0.110721389317665 -0.0132947653107842 0.03397229 0.002303658 0.9994201 198 202 215
-0.059265746246747 -0.183598589196 -0.0160914855946921 0.06738605 -0.01079005 0.9976686 189 192 198
-0.0426224997458434 -0.0835839229052509 -0.0153643988677637 0.03529466 -0.01004827 0.9993264 202 205 213
-0.0925352385767624 -0.148031568164553 -0.00384392916340839 0.9680978 -0.21323 0.131604 109 114 102
0.0610819380738172 0.144683494344994 0.00868994013813417 0.04407339 0.9706672 -0.2363531 222 225 226
0.117779361450955 0.139571522357385 -0.00557955321675895 -0.3763407 0.926111 0.02619107 186 188 200
0.0936747982291725 0.142865305320586 -0.013274865774115 -0.1697407 0.8919619 0.4190372 195 198 201
0.00991782808171254 -0.113982206619881 -0.00535331573652717 -0.7667551 -0.6419392 -0.0007810905 178 181 177
-0.0306722468335323 0.0793502280008058 -0.0129788586106469 0.03785803 -0.01320381 0.9991959 196 200 210
-0.0698806591223525 0.0459718979954736 -0.0123023959967531 0.02583401 0.001340651 0.9996653 201 205 218
-0.0804338790135152 -0.203697206199043 -1.09870749900425E-05 0.4458611 -0.8911583 0.08393309 157 162 158
-0.0348429020178735 0.0591627953554028 -0.0131615219443769 0.05834254 0.002761759 0.9982928 190 194 202
-0.0175074199278644 -0.0454095308779187 -0.0154488823400659 0.05333484 0.01077825 0.9985185 200 202 212
-0.0810557903164282 -0.198810694328923 -0.00792345164155781 0.9438785 -0.275596 0.1820444 114 125 113
0.00687474379167641 -0.0918041101962171 -0.0167509328178017 0.04221191 -0.01944933 0.9989194 194 198 205
0.0964703964645896 0.14255520198977 0.00284392125532186 -0.08009827 0.9936463 -0.07906526 180 184 181
0.0786979227549872 0.0250593288409789 -0.0169057012508803 0.02252207 0.001298951 0.9997455 205 209 219
-0.0242079504266898 -0.0367811452698544 -0.0151331413314288 0.02409136 0.004457921 0.9996998 193 197 205
0.0181549308360431 0.115842478546323 -0.0133298380556367 0.02888161 0.009415491 0.9995385 198 201 211
0.0030479562332883 0.0580389605420131 -0.014138807503772 0.02846813 0.0005531288 0.9995946 195 199 208
0.0591704279740723 0.143767810566881 0.00987287163964993 0.08333894 0.9699163 -0.2287292 209 208 205
-0.0431955986147955 -0.174661049826662 -0.00592335585093618 -0.8989676 -0.4378939 0.01030786 183 183 176
0.0146792786968232 0.0404205463976465 -0.0148005747130997 0.01049675 -0.01153413 0.9998784 197 201 209
0.0608035617642784 -0.02050009999004 -0.0171195744359209 0.02367284 -0.01108179 0.9996583 200 204 214
-0.0626819687308413 -0.081443484208884 -0.0147458574393089 0.03078907 -0.0008144917 0.9995255 197 201 208
0.103774122808935 0.0810366080189808 -0.0164606440056287 0.03468188 -0.008086105 0.9993657 203 208 217
0.120391733269224 0.0517479048148016 -0.012036608299389 -0.9894989 0.06392933 0.1296342 197 203 210
0.0295825858870824 0.142340117466648 -0.001973886985177 0.4661451 0.8792121 0.09846269 183 188 195
0.0766207260174306 0.144411388627492 0.00234329505783698 0.05749698 0.9983366 -0.004270617 184 188 189
-0.0766007032361755 -0.123377107949058 -0.0152848430541179 0.02610628 -0.02525352 0.9993401 184 188 192
-0.0453548535732667 0.145837538455695 -0.00905657495684716 0.1223697 0.8391645 0.5299327 217 221 229
-0.0882606656633144 -0.129280860755748 -0.0137799007333246 0.08577601 0.01119123 0.9962516 173 179 183
0.0121957517032151 -0.111598051317385 -0.00955922388443789 -0.7538028 -0.6570969 0.002218925 164 170 157
0.0340954937098696 0.0761878031168822 -0.0147364333719126 0.0320126 0.0001104956 0.9994875 195 199 208
0.0860851464087727 -0.00248311671726531 -0.0175779790521367 0.01848362 0.0115319 0.9997627 206 208 221
-0.0184305597694628 -0.0863122748143618 -0.0159666526492374 0.03313588 -0.007343893 0.9994239 196 200 207
-0.0675255831037206 0.120575687613973 -0.0110494734086442 0.03100809 -0.01031119 0.9994659 203 208 218
-0.0209926793214318 -0.0598102479162934 -0.0153801953411298 0.07395626 -0.008912915 0.9972216 199 203 211
-0.0909478110942768 -0.164130544128045 0.00367109874075713 0.9722663 -0.2162046 0.08918499 100 108 90
0.0472982957202463 0.138845194168368 -0.0141218699308157 0.02574596 0.0002820742 0.9996685 208 211 222
-0.0593309103837497 0.125307263984204 -0.0113391137309483 0.02933498 0.004374456 0.9995601 198 203 213
-0.0914658166569605 -0.160618126849386 -0.000385668008487263 0.9807587 -0.1894586 0.04709291 118 124 116
0.120739756700304 0.0734216830416052 0.00462142704157996 -0.9969479 0.07236893 0.02928573 202 206 213
-0.107157798800858 -0.0913183764516413 0.0111824452602775 0.9382585 -0.2939005 0.182465 107 114 103
-0.0537223100503225 -0.15032463832874 -0.0163252768016297 0.03667919 -0.0333208 0.9987714 188 190 200
0.0702724469181057 -0.0689100475024617 0.00271411839698868 -0.6483582 -0.7263848 -0.2280283 185 188 185
0.0818466477066492 0.135260853729546 -0.0151243732873891 0.01787362 -0.01580317 0.9997153 204 209 219
0.0545991337465741 0.084149138548982 -0.0149092108203056 0.05275111 -0.01123639 0.9985445 204 208 218
0.0541231638538959 0.105030211952795 -0.0142724639385226 0.01480113 0.0070298 0.9998658 198 203 214
-0.0947104499013276 -0.0560752584034171 -0.0133595995803097 0.007398997 -0.01187141 0.9999021 201 204 212
-0.0324941078233242 0.0533539712311326 -0.0131642718706139 0.04721341 -0.004880996 0.9988729 193 197 205
0.0135623418893651 -0.108308024061502 -0.017115872832462 -0.3855129 -0.3311723 0.8612228 189 194 198
0.0534678776506652 -0.0508174152407191 -0.0174243287365983 0.02699469 -0.01264962 0.9995555 205 209 217
0.0781263783339448 -0.0323283172715204 -0.0178397673368014 0.01797718 0.003060452 0.9998337 198 202 212
-0.00939778566330129 -0.0753946129350395 -0.0160893141241943 0.03019667 0.001069047 0.9995434 199 201 210
-0.0386547100030576 0.10429688958332 -0.01230119650647 0.02762258 -0.00410427 0.99961 198 202 213
0.0705574503910735 -0.0462625061508067 -0.0179517895511363 0.03734616 -0.009073453 0.9992612 208 211 222
0.12020811387777 0.131822264202623 -0.00118161180054136 -0.9942086 0.09014636 0.05850587 201 205 213
0.0306961672624746 0.0976662270322927 -0.01431522312071 0.02537903 0.007327184 0.9996511 195 200 209
-0.0657842773608769 0.0715077226384685 -0.0120955040302452 0.0272109 0.003101298 0.9996249 198 202 213
0.114024637172807 0.139824284006091 -0.0127845745542876 -0.1615901 0.9255409 0.3424363 188 192 197
0.0168268401095739 -0.0972821988652157 -0.0172654150894419 0.03655341 -0.008488504 0.9992957 201 203 213
0.00560430203962031 0.0561221074255113 -0.0141665960323672 0.05477024 0.004920405 0.9984869 200 203 212
-0.104645425825036 -0.0324811637296848 -0.00782367895669679 0.8405287 0.1789991 0.5113422 164 173 174
0.0950461419527722 0.142568678233473 0.00317529901736491 -0.1090845 0.9939431 -0.01333218 181 183 182
-0.0274747664446128 0.145528147939272 -0.0113992935254672 0.0890756 0.7133289 0.6951456 216 221 228
0.0200540219424633 0.0756915971162689 -0.0148526001738434 0.03854326 -0.00925346 0.9992141 196 202 217
-0.0640378428988732 -0.119479632389675 -0.0152126761026542 0.02545612 -0.00736841 0.9996488 189 192 199
-0.0360442023150158 0.0473244547654254 -0.013255745272933 0.02227892 0.002306574 0.9997491 196 200 208
0.0628313317531178 0.0881685961291195 -0.0156281914659767 0.05680356 0.00238619 0.9983825 197 201 209
-0.0364368724211875 0.139512521817547 -0.0116915136249004 0.03451416 0.01981329 0.9992078 215 219 229
0.0222864929220907 -0.0149469810487055 -0.0160495824202699 0.02193468 -0.003140712 0.9997545 198 202 210
-0.0653066206838037 -0.0555486149801705 -0.0140538447255358 0.06421095 -0.006568535 0.9979147 198 201 207
0.120831564967516 -0.0127216216185002 -0.00721454071451014 -0.9947044 0.1025496 -0.006831705 199 203 208
-0.0703460791191458 -0.0603821007077231 -0.0142262487319999 0.02840113 -0.006570323 0.999575 194 197 205
0.0343817142381355 -0.00793695264205074 -0.0162162651773288 0.02334226 -0.005946013 0.9997098 196 200 211
-0.0305632001337413 0.1468552798422 0.000339552737031153 -0.03513481 0.9888014 0.1450426 200 204 209
-0.0786681003205036 -0.114326922307244 -0.0151268488900712 0.05540601 -0.01666381 0.9983249 187 190 197
0.0224638805054284 0.12360743849795 -0.0135603785077852 0.04542899 -0.009448864 0.9989229 192 197 205
0.0507786047281053 0.119765738740353 -0.0145480088049996 0.03905733 -0.003823052 0.9992297 195 200 209
-0.028708633374504 0.109624359658056 -0.0124550750631578 0.0288201 -0.008006346 0.9995525 199 203 213
0.120825576118476 -0.00826078530834107 -0.00520554479771573 -0.9966924 0.07704336 0.02585505 201 204 209
0.076531927186696 0.0451967116732143 -0.0165150130591943 0.0319442 0.006167582 0.9994707 199 203 213
0.119825617453839 0.134376108775843 -0.0133918344954883 -0.9384468 0.08289538 0.3353297 203 208 215
-0.029649431280667 -0.118859268878064 -0.0163955297381818 0.03336729 0.02604476 0.9991037 192 194 200
0.118422465083354 -0.00188313222664638 -0.0174742156977669 -0.5523736 0.02782411 0.8331321 184 187 193
-0.0512343475771081 0.0738865186226326 -0.0126073508991874 0.03244451 -0.01872913 0.999298 196 199 211
-0.0789548531467838 -0.110724559008964 -0.014633355643134 0.06623636 0.01544048 0.9976845 189 192 199
-0.0145490783057761 0.13428406729187 -0.0125104790659886 0.0285491 -0.004746635 0.9995811 200 204 216
0.0768730826359381 -0.0109413831781253 -0.0174768549442198 0.04024192 -0.0002561099 0.9991899 204 207 220
-0.0928013826708638 0.125953135202899 0.0137845971649972 0.9989479 0.04094259 0.02066214 162 165 165
-0.101297156207611 -0.107197249552674 -0.00229750684305173 0.945398 -0.2832707 0.1611842 87 98 77
-0.0445247904429735 -0.110163847444142 -0.015805702998628 0.01523781 -0.01248905 0.9998059 190 193 201
-0.0927413445955502 0.0324700970941567 -0.0122179766871507 0.009532928 -0.009161621 0.9999126 198 198 204
-0.0910962511229353 0.126638027295561 -0.00771684191199581 0.7970783 -0.0188383 0.6035821 169 173 179
-0.0213498128396293 -0.0338449986920403 -0.0147186092853277 0.01929982 0.03300728 0.9992688 191 198 199
-0.0111722222100458 0.00440384929919135 -0.0147158253474869 0.01579767 0.0004355098 0.9998751 192 197 205
-0.0347733437614138 0.114554321840658 -0.0124282950538116 0.0347789 -0.008854259 0.9993558 204 209 220
-0.0901708538857916 -0.169846782279138 0.00330905180406963 0.9512692 -0.3017433 0.06354425 99 108 89
-0.0798453405229635 -0.116641159720407 -0.0150387162695975 0.05043243 0.01455582 0.9986214 192 194 201
0.108280754565526 0.141370063986762 -0.00415554084548927 0.02270624 0.9979406 0.05999191 168 171 172
0.0863165905871682 -0.00861181976741032 -0.0176216078423372 0.02741626 -0.01504655 0.9995109 202 207 216
0.0706844456324335 0.119707261487264 -0.0152105457011822 0.04377815 0.01337875 0.9989517 201 204 216
-0.0555028742513419 0.0652586948631957 -0.0123956297771393 0.02611361 -0.005627458 0.9996431 193 198 205
0.120721922908692 0.027988343466988 -0.00446091053166425 -0.9964972 0.07775413 0.0307848 204 208 217
0.0251820567177761 -0.0207209759446613 -0.0161659317944517 0.02417389 -0.01151776 0.9996414 202 205 215
0.056052079191331 0.142321945602794 0.013009913221915 0.1779739 0.9236622 -0.339372 181 183 163
-0.0464368984951323 0.134176779411129 -0.0115865282673514 0.03223528 0.005719206 0.9994639 199 203 214
-0.0120516942174784 0.054739794389271 -0.0137391362758583 0.03383034 -0.0004252083 0.9994275 196 201 210
0.0500289907554772 0.0812276434332549 -0.0151128353709663 0.009919149 -0.002930273 0.9999465 200 205 215
0.0145736222195357 -0.100337504277748 -0.0171378140562365 0.0423645 0.007962446 0.9990705 196 198 206
0.0130606036507747 0.034494915737229 -0.014724705917618 0.02261799 -0.01374922 0.9996496 197 201 210
0.0878949675828135 0.00193122254244482 -0.0175177118995305 0.03134249 -0.001575035 0.9995075 205 209 220
0.108347952534104 0.0974529044934189 -0.0164277219370176 0.02649663 0.002332659 0.9996462 203 207 220
-0.0101107228329682 -0.00504831262281225 -0.0149237920035972 0.03980917 0.008849767 0.9991681 193 197 207
0.00214327127648573 -0.0927859790116063 -0.0167201327497347 0.01695862 -0.01563971 0.9997339 199 202 212
0.039535535740569 -0.0563416945219053 -0.0171197089632179 0.02873664 -0.00468585 0.999576 201 204 215
0.0384178810323447 0.126467543485322 -0.0139591754680357 0.01492011 -0.01021596 0.9998365 201 205 214
0.0706861200775373 -0.0640563535271501 -0.0181129362429762 0.02363416 -0.004334768 0.9997113 206 208 217
-0.0706277303544303 -0.172427433087352 -0.0160749694952227 -0.02226428 -0.05163871 0.9984176 183 186 191
-0.0933982116187327 -0.14180470148762 -0.00544531292988893 0.9563437 -0.2626323 0.1281837 100 107 92
0.0809442555290118 -0.063665920698271 -0.00825727788043166 -0.5495933 -0.8302944 -0.09251193 173 175 173
-0.00135203891889452 -0.0286065226012767 -0.0154158117213126 0.02397347 -0.005399304 0.999698 199 201 211
-0.0618773554647287 -0.182763325558924 -0.0156936847258457 0.02736724 -0.02175647 0.9993886 188 190 198
-0.000374289864305655 -0.0344356581318233 -0.0157463118142515 0.02981643 -0.003019793 0.9995508 193 196 205
0.0456433491155798 0.111270639307793 -0.0143946982273718 0.02515855 -0.002900614 0.9996793 201 206 215
0.00760605610698262 0.108032899510529 -0.0134510235740634 0.03285028 -0.0138027 0.999365 197 200 210
0.0910877305546758 -0.0502583215056953 -0.018649859170425 0.03181181 0.003164707 0.9994889 205 208 219
-0.0363514306511892 -0.033115859618207 -0.0147054971951795 0.02211211 -0.003495664 0.9997494 190 194 201
0.060580405454369 -0.0310230939401793 -0.0175866822630831 0.03299207 -0.002652684 0.9994521 201 206 215
0.0587332909089647 0.0694199295343063 -0.0155040718162944 0.05447419 -0.003365854 0.9985095 203 207 217
-0.0849477672023776 -0.194493924295137 0.00849191803575756 0.9153327 -0.317226 0.2480601 109 117 105
-0.0361201580939254 -0.146208518906128 -0.0167609727274767 0.02420305 0.01311637 0.999621 186 188 195
0.107036676500964 0.114789038049683 -0.0161584365800772 0.03149021 -0.009380323 0.99946 199 203 214
0.12080649979252 -0.00449281881339814 -0.0012508855389078 -0.9975387 0.06295814 0.03086847 204 205 212
-0.0406845240545413 0.0866830598327963 -0.0124418302612125 0.03214559 -0.008842062 0.9994441 197 202 211
0.0977630595689658 0.106896016655967 -0.0159251711493383 0.01462934 -0.01125388 0.9998296 205 209 218
0.00171278741778719 -0.111170903871243 -0.017055470224463 0.02358602 -0.01140491 0.9996567 199 201 209
-0.0498290342334259 0.147117692511268 -0.00554817302773232 0.3194492 0.9460145 0.0548526 217 218 224
-0.0187625474840718 0.0864149802226041 -0.0131151987442995 0.01502278 0.008155594 0.9998539 196 200 210
-0.0479364363732329 0.0139615360953095 -0.013517308594549 0.03312913 -0.0140253 0.9993527 191 196 203
-0.0390039131526755 -0.0556941984504162 -0.0148462940528273 0.03676213 0.001044825 0.9993235 193 196 202
0.0668062378714406 0.105141625767835 -0.0153280902870105 0.05908409 0.01326017 0.998165 211 216 226
-0.0543486515923531 0.147123497293596 0.00369791139924839 -0.02766887 0.9658993 0.2574354 217 220 226
-0.0551213968645548 0.0610323469514434 -0.0124305377851884 0.03079612 -0.006952751 0.9995015 199 203 213
0.0541075862236928 0.143292632764557 -0.0155604992225314 -0.002084963 0.2859036 0.9582561 196 201 208
-0.0752390506346258 0.0602798901407604 -0.0118772448961619 0.03056974 -0.001218152 0.9995319 203 205 219
-0.00129818847609275 0.00708572968728149 -0.0148503284476191 0.02393145 0.002750701 0.9997098 199 202 212
0.0849296285930504 0.010664058222968 -0.0173303060668157 0.02989074 0.002611605 0.9995497 197 201 211
0.0535874643083491 0.143027573109029 0.0109114238858295 0.2152995 0.9254687 -0.3116949 215 218 218
0.0613483923142583 0.138353895308593 -0.0144901366855502 0.0254781 0.04615433 0.9986094 193 197 207
-0.00400307949856177 -0.12521965910782 -0.0169537078663657 -0.4783109 -0.3482958 0.8061692 189 189 194
-0.0967116100471015 -0.0160326051694424 0.0135708834605768 0.8754912 0.4814809 -0.04112514 153 164 164
0.0470281434932331 -0.0452692359225115 -0.0172762314457599 0.02779577 -0.006385497 0.9995932 211 213 224
0.111128107955295 0.13958654262697 0.00121714387871202 -0.1308457 0.9509226 -0.2804026 174 179 169
-0.0584501579410716 0.0513411892130771 -0.0125198023499887 0.03139592 -0.004009313 0.999499 204 207 219
-0.0816437261306721 0.0922155383123324 -0.0112278321445168 0.03390456 -0.004105625 0.9994166 192 197 207
0.043429543560476 0.00288586897015741 -0.0162281211211519 0.03132274 0.01425674 0.9994076 203 208 217
-0.0385578301678586 0.0302177058116769 -0.0138107051892614 0.02948342 0.007359369 0.9995382 193 194 206
0.0629237308603161 0.143860660060296 0.00849987037592985 0.04040742 0.9645392 -0.2608282 208 208 207
-0.0460603431302495 0.145554732263792 -0.000246939106051364 0.2192905 0.9746822 0.04366032 222 225 233
-0.0276216371380328 0.0695532365241501 -0.0130807153820453 0.02614055 -0.007867909 0.9996273 195 199 209
0.119647104499747 0.092056425329845 -0.0148293424259779 -0.8107039 0.07092011 0.581145 197 201 208
0.0962241984229355 0.106813273946759 -0.0160480663828658 0.02515442 -0.005572295 0.9996681 200 205 214
-0.103863685916077 -0.0277832219779762 -0.00631733626995598 0.9230349 0.2408612 0.2999874 156 164 160
-0.0192599605669967 -0.126253221484595 -0.0167005199365616 0.03221086 -0.008107302 0.9994482 187 192 198
0.0282616920666898 -0.048269030640977 -0.0170907201885114 0.02811493 -0.01009099 0.9995537 188 192 200
0.0231293381576419 0.142507260045299 0.00839451586702676 -0.01720758 0.9643674 0.2640063 199 205 212
0.0521972027625849 -0.0549658429491678 -0.0173702810985173 0.02731328 0.002240537 0.9996244 201 205 215
0.0248144219688775 -0.100697509490306 0.000559894148033915 -0.6950462 -0.7183473 -0.02979786 187 183 179
0.0860808647276058 0.0274006510550038 -0.0170800021830041 0.02794883 -0.003682 0.9996026 202 205 215
-0.0322643978330109 -0.115271141570402 -0.016014054998925 0.03346946 -0.01655255 0.9993027 188 191 199
0.0891465433185972 0.04228458937076 -0.0166637688430778 0.0285878 -0.005178887 0.9995779 206 210 218
0.0325473828031868 -0.0214187045419645 -0.0166569151909326 0.04360512 -0.00330018 0.9990434 196 201 209
0.018495286333135 0.0714213499620976 -0.0144541901282963 0.03281987 -0.00443389 0.9994515 231 232 245
-0.0920869059941041 -0.146101124837334 -0.00964965679627266 0.9732488 -0.1812562 0.1411844 109 118 107
-0.0885979833688974 0.102876807572387 -0.0109024387630302 0.0338974 -0.003066821 0.9994206 199 204 210
0.120606760348603 0.0831441289666617 0.00900983654977882 -0.994357 0.1031239 0.02489344 208 209 220
-0.113348286836154 -0.0595066671854276 0.000391127157111109 0.9143877 -0.2942297 0.2780718 106 113 97
-0.0835054903423171 0.0894502096557386 -0.0112750192165132 0.02302674 -0.003738528 0.9997278 197 200 209
0.0149019070208763 0.0867577570746008 -0.0141977071096888 0.05792766 0.0008857783 0.9983204 190 194 203
-0.019856742587731 0.1056031086365 -0.0127070691465628 0.03901017 -0.007815908 0.9992083 200 205 215
0.0901464581118883 0.0521719459822056 -0.0166830746907155 0.03316193 0.002598461 0.9994466 203 208 218
-0.0559277238585273 0.0195211792614403 -0.0132170264735207 0.01444984 -0.002288815 0.999893 200 204 212
0.120944591803608 0.0650975497668915 0.00891119539428611 -0.9963641 0.08118326 0.0258446 203 207 212
-0.0805175681414004 -0.114490358917981 -0.0149194797369928 0.05814196 -0.001007084 0.9983078 187 191 197
-0.0497752766819632 -0.148742984540752 -0.0161807186075109 0.03794085 -0.006894788 0.9992562 187 189 196
-0.0301992690817685 -0.00330602099136001 -0.0143571703931441 0.04357574 0.0031883 0.999045 192 195 204
-0.0978931034806849 -0.0939211498586843 -0.0139492324228325 0.01889503 0.002088713 0.9998193 189 192 200
-0.0318780431422693 0.148152501586994 0.00482165549183104 0.0948398 0.969807 0.2246772 216 219 222
-0.0818561561832611 -0.0347474491778013 -0.0134192415453724 0.009817741 0.006601035 0.99993 199 201 210
0.076431910936979 0.105945033448708 -0.0162578996878741 0.03022663 -0.004033683 0.9995349 190 195 201
-0.00589764770979789 0.0212524164749346 -0.0141845932025561 0.02774148 -0.005193126 0.9996017 199 203 213
0.00390372548254858 -0.0339002659931057 -0.0157541760807593 0.02448853 -0.003982048 0.9996922 194 198 204
0.11991256672343 0.132334351455628 -0.0111179225533727 -0.9936371 0.08119591 0.07805386 196 199 207
0.0113688084227992 0.084520585167674 -0.0140909348580439 0.01183165 -0.001653485 0.9999287 194 197 206
-0.0341424158507282 -0.161172018271564 -0.00119623023513446 -0.7762282 -0.6304268 0.005637996 151 151 143
0.0335343883645569 0.143521370134773 -0.00836879847092936 0.3972193 0.9023411 0.1673242 173 180 187
-0.0628489491648137 -0.0499545154676818 -0.0140971309128237 0.0489388 0.02370775 0.9985204 198 201 210
-0.0270175746462711 0.0334606633347743 -0.0137268346969796 0.02379058 -0.01252936 0.9996384 226 228 240
-0.072152242954043 0.0705485863780582 -0.0120354490231821 0.04440188 -0.01497704 0.9989015 198 203 211
0.0912479618872543 -0.0456367214639584 -0.0184270533980037 0.02847098 0.006023849 0.9995764 204 206 219
-0.0582320064565524 -0.0801230451219315 -0.015443190906195 0.01437216 0.01417667 0.9997962 201 203 214
-0.029144496607603 -0.0451438990208041 -0.0150689009249291 0.0273906 0.002402976 0.9996219 200 202 212
0.0217868046377947 -0.06537659223396 -0.0167659824703955 0.02015827 0.005396555 0.9997823 196 198 209
-0.0867879601001183 -0.0555447298332831 -0.013621177118802 0.03379043 0.002066291 0.9994268 198 201 209
-0.101139959846162 -0.104938508369333 -0.00468060631551672 0.940685 -0.292207 0.1724146 105 118 102
-0.014076895143832 0.14388863330005 -0.012302611612845 0.05985276 0.5946721 0.8017373 226 226 243
-0.0587614721985941 0.00310407350830089 -0.0133392432064567 0.02453865 -0.01583564 0.9995735 193 196 205
-0.0549058413533851 -0.103197069799885 -0.0152711241159055 0.02873766 -0.006155301 0.999568 195 198 205
0.0370479475047282 -0.0223013099826892 -0.0165115379422253 0.02420747 -0.001515251 0.9997058 194 199 206
0.016722309865552 -0.0724940042204421 -0.0166188197308171 0.02724896 -0.001227835 0.9996279 206 211 219
-0.0987738207881418 -0.0775082175862872 -0.0136827959932726 0.02670109 0.00532604 0.9996293 196 199 206
-0.0821017376630049 -0.202127274405782 0.00197002164783692 0.8234167 -0.555675 0.1149358 124 132 118
-0.10952248739073 -0.040625785441239 0.000995972529245284 0.9379888 0.3464418 0.01245254 174 175 176
0.0685231268795928 0.0988072492520573 -0.015301730887655 0.04311096 -0.02638274 0.9987219 201 206 215
0.0174692254134389 0.0266013023187347 -0.0151617671796745 0.02385467 0.0006326139 0.9997152 201 204 214
0.088490361559762 0.13018958635819 -0.0153931717284338 0.02489488 -0.003384799 0.9996843 203 207 216
-0.080085134276981 0.149832272041341 0.0135991848231466 0.2127394 0.9595652 0.1843274 211 214 220
-0.0849507479371612 -0.0207598052310711 -0.0130193538028212 0.02930576 -0.00426237 0.9995614 197 200 210
-0.0309066903418937 -0.0769469960253993 -0.0155388065315811 0.02109762 0.02856034 0.9993694 202 204 212
-0.0704916382542788 -0.132465290338098 -0.0154572635928452 -0.008084516 0.01885227 0.9997896 190 192 199
0.108838058831068 -0.0157649976825996 -0.0185974708614905 0.02624658 -0.000762216 0.9996552 208 208 219
0.120327887213346 -0.0147492517590582 -0.00339136513440382 -0.9914821 0.1196645 0.05141638 197 199 202
0.0142653774732592 -0.00751168148290637 -0.0155727585652845 0.02552552 -0.004152945 0.9996656 200 203 211
-0.0500903987507449 0.0377960601634699 -0.0130698866783153 0.01293745 -0.001503205 0.9999152 193 197 204
-0.0210996157153757 0.129397999700934 -0.0124710822083516 0.02204584 0.0008011599 0.9997566 198 203 211
0.082056269913353 -0.0263372424194075 -0.0178000475930331 0.01542216 -0.006133105 0.9998623 200 206 217
-0.0908420728142235 0.0247189032629662 -0.011792164414795 0.02350967 0.01815426 0.9995587 194 199 208
-0.000310874916115866 0.145000026662075 0.00611290818825888 0.03195623 0.998643 0.04112202 201 204 212
0.062221092561359 0.0502084508395861 -0.016103511430829 0.0164802 0.01017308 0.9998124 196 200 209
-0.0723455814774588 -0.203619515731877 0.00335211024825037 -0.4112487 -0.8498396 -0.3296167 165 165 153
0.0715075412880154 -0.0473901460605595 -0.0178590586867043 0.03652158 -0.008979649 0.9992925 206 209 220
0.0511589780535437 -0.0427256322552249 -0.017271767516765 0.03061353 -0.005004341 0.9995188 202 206 215
0.120260141962696 0.0961097291002839 -0.0124221569566634 -0.9823076 0.08247512 0.1681356 199 203 212
0.0430273584412016 -0.00673014463537824 -0.016941600705986 0.02252635 0.002109693 0.999744 192 196 203
0.0299809825745158 0.0932937464241747 -0.0150801156246629 0.0163441 0.001239266 0.9998657 190 196 203
-0.0775298839965811 0.04157015568911 -0.012257971927653 0.03079217 -0.02782282 0.9991385 203 206 217
-0.0373473692749418 -0.165255589343187 -0.015910329504991 -0.464054 -0.3838337 0.7983267 165 167 165
-0.0613676555130037 0.143749375270227 -0.00588328583443278 0.1499601 0.9879811 0.03748799 206 211 220
-0.0112652330228215 -0.0159057795527588 -0.0152338256188471 0.05802114 -0.003317069 0.9983099 218 222 232
-0.042836368682866 0.0825114383524885 -0.0126193663958079 0.03489296 -0.0009745869 0.9993906 194 199 207
0.120140183867656 0.110279947843706 -0.00793881234221087 -0.9956331 0.08717933 0.03338368 201 205 213
0.00807329401796281 -0.115758681086518 -0.0127355442588692 -0.7523271 -0.6318529 0.1864557 183 185 184
-0.0954731726143096 -0.130515290919119 -0.00876960922829195 0.9599825 -0.249672 0.1268759 121 126 118
-0.0958925387902946 -0.132138720379447 -0.00968778785776074 0.9569751 -0.24394 0.1571367 128 129 121
-0.0666924084745079 0.146434581094777 0.00269960301648997 -0.04510878 0.7977431 0.6013079 216 221 232
-0.083090156272102 -0.0304210275529447 -0.0132322939522545 0.0224743 0.008627481 0.9997102 195 198 206
-0.0102387029611978 -0.133452428282988 -0.00909268271399519 -0.7130204 -0.6976022 0.0703779 167 166 165
-0.0760407588334362 0.0383115815171122 -0.0122326728779827 0.03495228 -0.007648154 0.9993597 200 204 213
0.0414035752068028 0.144828747454438 -0.00712213118570182 0.2316115 0.9713258 0.05368722 178 181 188
-0.0509045940951208 -0.166560231282005 -0.0166705965605191 0.01084285 -0.0140887 0.9998419 187 190 196
-0.0173848805583126 0.0889806726634167 -0.0129176080073544 0.01700782 0.01159788 0.9997881 197 200 210
-0.00155516156429136 -0.121202502380018 -0.0172199404009728 -0.3565512 -0.3312188 0.8735933 194 195 199
-0.0639449503379588 -0.16759837142079 -0.0159912019369378 0.02906695 0.001882169 0.9995757 185 188 194
0.121374665845156 0.0200295791502332 0.004969062064994 -0.9946804 0.09553453 0.03852363 203 208 214
0.0996892936463784 -0.0231273669883169 -0.0182792020178466 0.03067386 -0.006037408 0.9995112 210 213 225
0.0263664885260081 0.0997695645109195 -0.0141673703336098 0.02270548 -0.01946442 0.9995527 194 200 208
0.0214773671338511 0.0311210101895265 -0.0151912109387745 0.02355172 0.00362724 0.999716 193 195 204
0.00162426462401616 -0.116810677768494 -0.0167330775314968 -0.1194976 -0.2152693 0.9692159 193 197 206
0.119936141322185 0.137930827858683 -0.0144045758390271 -0.6549459 0.5028003 0.5641256 194 197 201
-0.0469162517216496 -0.0243676026561673 -0.0143134194544457 0.01919977 -0.0007078914 0.9998154 192 194 203
-0.0389834328002763 0.147101773860518 -0.00522766770144812 0.1622306 0.9683328 0.1897703 215 219 226
-0.0687216867294244 0.0264721048117192 -0.0126972412350025 0.02163807 0.002746013 0.9997621 194 196 206
0.0413014957768863 0.08291864673704 -0.0148450046059781 0.03188819 -0.001285416 0.9994906 198 202 211
-0.009607597681286 -0.0314759319725566 -0.0156095008797735 0.02889767 -0.01250118 0.9995042 192 197 205
-0.0703059875290787 -0.11594481577532 -0.015156232821229 0.01340079 -0.001546044 0.999909 194 196 203
-0.0637563808476867 0.12734460998179 -0.0112687662048826 0.02537067 0.0057133 0.9996618 203 206 218
0.0304734356637184 0.037731312901214 -0.0152650704614755 0.02709786 -0.003492695 0.9996267 194 199 209
-0.0112195625821079 -0.0733620567208497 -0.0160425928573174 0.02702791 0.007175226 0.9996089 195 200 207
0.0583917655925209 -0.0661705726352453 -0.0179258529107907 0.02354904 0.001483264 0.9997216 203 206 215
0.0284321191821075 0.0414477227809116 -0.0152463939737321 0.01200417 -0.004554932 0.9999176 199 204 213
0.00852280008012085 0.0638879521545509 -0.0143957463547556 0.03621057 1.377582E-05 0.9993442 220 224 234
0.0661984043394785 0.108801007339091 -0.0152040331563095 0.05343138 -0.004807458 0.99856 205 211 221
0.0746877412699629 0.0132670724481814 -0.0168132845269236 0.02176595 -0.01042455 0.9997088 202 205 217
-0.042736320174166 -0.10393920816164 -0.0157224693204989 0.0255431 -0.001573529 0.9996725 194 198 205
-0.0201317361564141 -0.0640740206277063 -0.0155498403183116 0.06091312 -0.01190468 0.9980721 197 200 208
-0.0537150641785701 0.0958419411289233 -0.0120018644045498 0.02502471 -0.007223287 0.9996607 199 203 213
0.118615995930562 0.120250319567492 -0.0151862073398853 -0.569701 0.05355954 0.820105 183 187 190
-0.0587952872103505 0.00912927903154548 -0.0132816200207407 0.02994985 -0.001555031 0.9995502 187 191 199
-0.0716172591904212 0.0683277045169157 -0.0119359601101536 0.03794327 -0.00772802 0.99925 201 206 215
0.0889907736609801 -0.0126262366781187 -0.0177828477686885 0.02982241 0.006967451 0.9995309 214 215 226
-0.0318871024356445 0.0335428333875984 -0.0138024350587651 0.03748911 -0.005875432 0.9992797 201 203 210
0.0954797499526577 0.0289782589854335 -0.0172675698325001 0.01888214 0.0004167642 0.9998216 202 206 216
-0.108364954935295 -0.0608151080613923 -0.0105229517182046 0.6035064 -0.03292121 0.7966782 141 146 133
0.0665452515154778 0.142938030801219 0.00927316348160685 0.06369139 0.9647806 -0.2552289 225 225 234
-0.0573775304265678 -0.016483322555389 -0.0137633943220602 0.04128497 -0.02466426 0.998843 186 190 198
-0.013549052818809 -0.0956457369523699 -0.0164354304240276 0.01949474 -0.004933257 0.9997978 193 197 205
0.0374820159894518 -0.0257465653371822 -0.0164924992978687 0.02697562 0.001541447 0.9996349 196 200 209
0.0694741765219756 0.120720249140692 -0.0148436080062876 0.04161214 0.01506438 0.9990203 207 210 221
-0.0622271567757987 -0.0916286265384776 -0.0148730928648464 0.01844375 0.01028472 0.999777 194 197 205
0.111629729610078 0.0556467779266192 -0.0174236955864547 0.02680391 -0.006173929 0.9996216 203 210 219
0.0423391640711767 0.023276113540343 -0.0157329971561089 0.03510847 -0.008728798 0.9993454 202 205 217
0.0604703704103479 -0.0106653105067791 -0.0168954045870816 0.03098283 -0.0003737528 0.9995198 203 207 217
-0.019050745594526 0.146039893799198 -0.00636777461973729 -0.1203795 0.9599901 0.2528395 204 207 214
-0.0633539578477191 0.143021294999009 -0.0107040697606264 -0.05272528 0.605467 0.794122 227 230 238
0.012444395774716 0.142371815703521 0.00467432609306075 -0.1152881 0.9818535 0.1505732 193 198 204
-0.0415242264398568 0.147799472286517 0.0127777967304546 0.02447283 0.9994308 -0.02322094 205 209 211
0.120403849840655 0.0255693786468101 -0.00823062096705303 -0.9969935 0.07350539 0.02451384 203 202 212
0.0147907436343311 0.0845344105595291 -0.0140730166906215 0.04957217 -0.004504266 0.9987604 196 201 207
-0.0720719303258051 -0.0699840663328662 -0.0142352594889051 0.03950934 0.004049351 0.999211 195 198 206
0.121154381462433 0.00160725479485824 0.00270619139999036 -0.9963011 0.08044963 0.03020092 205 207 213
0.0911065504417644 0.012117029306816 -0.0174567687894825 0.02719834 0.001283755 0.9996293 203 208 218
0.120616609605426 0.093811182972368 0.00533671180058338 -0.9963429 0.0801613 0.02958064 206 209 218
0.120053582201398 0.118465430401909 -0.0121518747415592 -0.9647601 0.05049265 0.258241 203 209 217
-0.0226413210251842 -0.147276651675509 -0.000725254322619828 -0.8343138 -0.5454406 0.08009461 170 171 168
-0.00980218845954373 -0.132893875728595 -0.0099887671779019 -0.711773 -0.6987134 0.07196389 166 168 163
0.0667006039419588 0.0665840708130302 -0.0159110557470504 0.04017741 -0.01757663 0.999038 197 201 210
0.120856123211215 0.0713317952103163 0.00891619254540247 -0.9965788 0.07499559 0.03473168 200 204 209
-0.0688262493119838 -0.00153436802803308 -0.0130992117793602 0.0268102 -0.01055705 0.9995848 190 193 200
0.0975115015892988 0.138291148628502 -0.01542703363377 0.04121431 0.2890269 0.9564334 197 201 210
-0.0207326624245576 0.0802432031490897 -0.0132261597827673 0.02764595 -0.02048798 0.9994078 194 199 206
-0.0299785869484358 0.148887014587485 0.00811669485362943 0.1512176 0.9800476 0.1289958 206 208 210
0.041439554240209 0.145243681492574 -0.00968247326145326 0.2618372 0.9441723 0.1999499 149 157 161
0.119245937619798 0.0440165136602214 -0.0164272062073528 -0.8476586 0.07648393 0.5250002 207 209 218
-0.0211923172307826 0.00401527132158608 -0.0144367354580772 0.02749681 -0.005262101 0.999608 193 196 205
-0.0669792305546332 0.00261046774624374 -0.0131087448928884 0.02467751 -0.00661961 0.9996735 195 198 206
0.0398795254475984 0.104413758121996 -0.0145052395790667 0.02610224 -0.003576751 0.9996529 195 199 209
0.0717968436928203 0.137229337119102 -0.0145895594709361 0.04539261 0.003977288 0.9989613 203 207 216
0.0133747510525407 0.0565530244719472 -0.0144528274784286 0.0419878 0.003936086 0.9991103 212 216 227
0.120441418316033 0.020126428646558 -0.0143725338216022 -0.9281281 0.1264798 0.3501159 203 204 212
0.0232513159580894 0.139985942459208 -0.00789016110581597 0.4320698 0.8984076 0.07860882 196 201 209
-0.0924010869535982 -0.14372867577833 -0.00777577598872205 0.9746512 -0.213503 0.06686916 92 96 83
-0.0892412539466892 0.0855081762193916 -0.00269190671120333 0.9810855 -0.1203748 -0.1515952 121 122 116
-0.00460138481496314 0.1431974754159 0.0128082369822118 0.03528296 0.9475046 -0.3177894 193 198 203
0.051507502753514 0.0855642429340232 -0.0151641959596467 0.01664863 -0.0277591 0.999476 200 204 214
-0.0477712419212851 0.0816194468686405 -0.0123701134257488 0.02387586 0.002760838 0.9997111 194 200 209
0.109021086551734 -0.0189213348340079 -0.0184988854443736 0.02717919 -0.001254447 0.9996298 200 204 215
0.112176240461104 0.107731967065057 -0.0166405260744628 0.01254356 0.008639303 0.999884 188 190 201
0.0291109223463749 -0.0508729048773244 -0.0170029465404355 0.03705785 -0.01868825 0.9991384 196 199 208
0.0922433338129586 0.0764183281777592 -0.0163834239452361 0.02089712 -0.0101162 0.9997305 202 206 216
-0.0798375514672826 0.0639219463747694 -0.0117704376558261 0.01390176 0.00282436 0.9998994 202 205 215
0.0993795551306332 0.0814792364159035 -0.0162693702863985 0.04663002 0.01437654 0.9988087 201 208 214
-0.0496609635522725 -0.120166359130102 -0.0157600255742109 0.02966151 0.008847136 0.9995208 194 197 205
-0.0736886383516579 0.0680918530317484 -0.0120602139244745 0.03651775 0.001040055 0.9993325 198 202 209
-0.0728540822717081 0.0564239620600011 -0.012172342371259 0.03130814 -0.001439494 0.9995087 199 202 213
-0.046927878615598 0.0803199118677217 -0.0124338727520288 0.02221623 0.001503604 0.999752 200 204 213
-0.0150150880239202 0.115839493614218 -0.0126050193791593 0.02359144 0.003483733 0.9997156 198 203 212
0.0319654189317256 0.136697080186406 -0.0140217457737975 0.0514349 0.04172998 0.9978041 200 206 214
0.01878261945182 -0.0672646721878939 -0.0168642914317989 0.04240016 0.003621517 0.9990941 202 205 213
0.0379088414386601 0.129935854839394 -0.0138667079576369 0.008232676 -0.00129336 0.9999653 200 205 213
-0.0276513915780642 -0.153431931175268 -0.0066425415689947 -0.8575257 -0.5136547 -0.02843483 171 173 165
0.0365177491838893 0.00503982699158279 -0.0159854966888205 0.03369406 -0.004391634 0.9994226 185 187 193
-0.0233176720229993 0.119852030798132 -0.0124766470386394 0.034678 -0.01198335 0.9993267 197 201 211
-0.0299305086221381 -0.0354801166565651 -0.0148797680536141 0.03803103 -0.005865945 0.9992594 188 192 202
-0.0385029281138977 0.127021795757312 -0.0119134885479032 0.02784512 -0.00274997 0.9996085 198 203 213
-0.089145717959966 0.0881476900155413 -0.000502226854370997 0.9793199 -0.1178453 -0.1644536 101 116 96
-0.0927262937394393 -0.00807254556022285 0.00232272118591639 0.9153422 0.3875461 -0.1093463 145 152 145
0.120317850585697 0.129927054691696 0.00297001092673384 -0.9970702 0.07097184 0.02853053 199 202 209
0.0601947585104316 0.144366255983572 -0.00283468391072446 -0.03995672 0.9987402 0.03035544 192 195 202
0.00469724817203809 -0.0949689179286001 -0.0168877912673132 0.03093837 0.001455157 0.9995202 196 200 208
0.0436513981253744 0.0290546740702533 -0.0158967668885617 0.03611124 0.006748197 0.999325 198 202 212
0.0596732732482296 0.0276636251178103 -0.0163140192004454 0.03198081 -0.001183015 0.9994878 196 201 210
0.120502934453679 0.0759019281016592 -0.00689892709202219 -0.996197 0.08207057 0.02925639 207 211 220
-0.0344359607946879 0.073655888397347 -0.0125485332243167 0.02861899 0.003124476 0.9995855 192 198 204
-0.0316069883378317 0.0410320268938322 -0.0134359660290361 0.02397782 0.004849429 0.9997007 194 198 207
0.0725122987797904 0.0707008473401606 -0.0159653853545047 0.04016998 -0.01650136 0.9990566 200 205 213
0.0514339847297146 -0.0285688725756718 -0.0169036137643539 0.02056999 -0.003765194 0.9997813 206 209 220
-0.038827149845153 -0.137611477195864 -0.0163152436139466 0.02832969 -0.008496614 0.9995625 186 190 195
-0.0937400271332651 -0.00135376787522712 -0.0122385734828701 0.2921346 -0.1067476 0.9504011 192 192 198
-0.0656810473021359 -0.0971349350980972 -0.0153594635381286 -0.0004284532 -0.003626411 0.9999933 196 198 207
-0.0771654860425618 0.0883147410656153 -0.0113895779421606 0.02293094 -0.004255709 0.999728 206 210 219
-0.0473101963592181 -0.156553820508209 -0.0163324386872454 0.06530279 0.01365814 0.997772 183 185 191
-0.0804948964360127 -0.0806944308580847 -0.0141667593495607 0.0243287 0.01883148 0.9995266 196 199 207
-0.0962174136669437 -0.0895912709360329 -0.0138921157860888 0.01520023 -0.002204663 0.999882 191 193 202
-0.0789405554177951 -0.204785780269099 -0.00421376206574546 0.03912503 -0.9989308 0.02462817 168 169 170
-0.0704158851045314 -0.112081309258329 -0.0148418210415809 0.02310865 -0.02453051 0.999432 191 193 202
-0.054173249834825 0.0168548253973437 -0.0132356490918793 0.01284165 -0.00246388 0.9999145 193 196 205
-0.0168328617286002 0.0363164131617332 -0.0140168412571792 0.02934401 -0.006843243 0.9995459 198 202 212
-0.0515246198527515 -0.00199056610280435 -0.0138241206837938 0.05206675 0.00281872 0.9986396 226 229 244
0.0606409671641053 0.0919358087845135 -0.0150755736719565 0.05187847 0.009800304 0.9986053 209 213 224
0.0872142522354092 0.145159258851008 -0.00536773982853066 -0.1656029 0.9841832 -0.06292186 203 204 209
-0.0917962005759832 -0.147952386045357 -0.00992303861360584 0.9636404 -0.1715406 0.2048684 104 111 98
-0.0627392207193512 -0.188851236055405 0.00834962930030353 -0.6495749 -0.5530927 -0.5216714 158 157 146
0.120561495857238 -0.0204408497419003 -0.0140798475151313 -0.9845392 0.1252492 0.1224548 194 200 205
0.0249915654844652 -0.01866651006839 -0.0161377654737299 0.01790446 -0.00606669 0.9998213 199 202 211
-0.0310768722874027 0.113438836750714 -0.0123639693921284 0.03258703 -0.003100942 0.9994641 200 204 214
0.0615428373227601 0.0241929284733357 -0.0163555696678644 0.03215655 0.002670958 0.9994793 200 204 214
-0.0712611517512116 -0.0198475731238267 -0.0134375554699616 0.02386391 0.003650491 0.9997085 194 197 205
-0.0664986574367384 0.0226040340655699 -0.0128468302885838 0.02165539 -0.01011361 0.9997143 196 199 208
-0.0630703829094881 -0.137582748468884 -0.0157413114302071 0.02890333 0.01375337 0.9994876 181 185 190
-0.100799451374323 -0.029029031326301 -0.0109116259054429 0.5996775 0.03275187 0.7995713 154 164 160
0.105512174522626 -0.0459604339779428 -0.00757988895490638 -0.6748912 -0.7102104 -0.200307 179 181 180
-0.0163362963878096 -0.141341748644122 0.00860071212349865 -0.7873523 -0.611104 0.08141395 168 168 165
0.0212186594756354 0.110753858065381 -0.0137482529422234 0.03607845 -0.01424813 0.9992474 194 199 209
-0.101150541121544 -0.0223224507171177 -0.00587949852862615 0.9052352 0.4228674 0.04162129 153 157 156
0.0985931112489598 0.0705093000332513 -0.0167347266117714 0.04599701 0.01105713 0.9988804 204 207 219
0.0050236697592011 0.132574337644306 -0.0131395214272917 0.01328185 -0.009494072 0.9998667 196 201 212
0.120863765051313 -0.0198215101709016 -0.013738445459816 -0.9909676 0.1133056 0.07172862 194 194 202
0.090469795301015 -0.0562277118374175 -0.000423005174207118 -0.6104581 -0.7264482 -0.3156169 174 177 173
0.112570715170143 0.140385120194646 -0.00652431880049793 -0.1006695 0.9889922 0.1084436 203 206 212
-0.0807776855471794 -0.168617807287087 -0.0154141740774589 0.02947365 -0.01692669 0.9994223 184 188 194
0.0186148541917178 -0.10565575330773 0.00708749212757748 -0.7070363 -0.7044195 0.0623934 185 187 185
-0.032692168322946 -0.160061307706913 -0.0147853816995827 -0.766661 -0.5159817 0.3820914 153 153 150
0.0415151535349685 -0.0218982814057932 -0.016646246352794 0.01920189 -0.0001665769 0.9998156 204 207 218
-0.0823231392851015 -0.145303906580494 -0.0151696823899908 0.02848926 -0.02517677 0.999277 185 188 194
-0.0470043155798402 0.148143203031411 0.0153259499662139 -0.04720198 0.9945357 0.09311617 209 212 215
-0.0752440422614114 0.147204367226216 -0.00458546511236764 0.1885658 0.9819609 -0.01398965 223 224 233
0.0722419549996886 -0.0656693598385981 0.00653089015573344 -0.6255417 -0.7092568 -0.3250419 187 189 187
-0.000499032181627279 0.143130662776558 -0.00215916002054083 -0.07685802 0.9685732 0.2365562 199 203 208
0.100569259956047 0.0983879593682099 -0.0163553488283371 0.02380814 0.009033212 0.9996758 199 204 214
-0.0562035158086874 0.0213664656370401 -0.0131660022876206 0.02399501 -0.0004154652 0.999712 195 199 207
0.0477123224581043 0.0532072550064396 -0.01563184942054 0.02713847 0.003203385 0.9996266 199 203 213
-0.0761557052385445 -0.0582457967604044 -0.013931398681158 0.02559672 -0.007817194 0.9996418 201 204 211
0.0587653255803683 0.00791143598995403 -0.0166981963598257 0.02327979 -4.601149E-05 0.999729 194 198 206
-0.104134663140083 -0.106834628437064 0.0114593144925211 0.9097822 -0.3342483 0.2461186 129 135 123
0.0154855381570527 -0.0858187039947086 -0.0168660043138795 0.0529522 -0.003519436 0.9985908 202 204 215
-0.0113342803578674 0.00855525687050984 -0.0147075642832451 0.01551077 -0.0184996 0.9997085 204 209 216
-0.0913072096289791 -0.00592651381004128 0.00458826086779387 0.9084635 0.397871 -0.128034 123 130 118
0.113469111708342 0.0835902806174034 -0.0169653918140576 -0.0170712 -0.004880686 0.9998423 205 208 219
0.000360769961590901 0.0994522066908433 -0.0134598615076691 0.02757069 -0.006104884 0.9996012 196 200 210
-0.102457355436085 -0.103110546011721 -0.0028609719773822 0.9392904 -0.3059677 0.1552975 123 124 115
0.120704717894291 0.0237762868320947 -0.00265685963799499 -0.9980882 0.05767332 0.02221876 201 205 214
0.0056328337262998 0.0579919243548032 -0.0140245866861672 0.04325917 0.005780187 0.9990472 199 204 212
0.080197514915891 0.13195340426443 -0.0151285302588411 0.01870093 -0.007667261 0.9997957 206 211 221
0.00632072080126128 0.0853868869618866 -0.013376573380886 0.0247536 -0.003326907 0.999688 192 199 205
0.0265919368896079 -0.032671366509179 -0.0162245238020545 0.02782163 -0.008495648 0.9995768 198 201 210
0.0714211346421412 0.11196527046832 -0.0155331983838714 0.04318169 -0.004861529 0.9990554 185 190 198
0.0467813807247214 0.0945633778374433 -0.0148158027136454 0.02954468 0.009373688 0.9995195 197 201 209
-0.00998457032561489 0.104935652861991 -0.0132086589709862 0.03269029 -0.008186352 0.999432 197 203 211
-0.0761801335706854 -0.146365807590333 -0.0153239581656205 0.03063732 0.01763022 0.999375 190 192 199
0.0588424016778208 -0.0521291281668573 -0.01764869800588 0.02083426 -0.01367565 0.9996894 206 209 219
0.0801851561379206 0.137637508452612 -0.0150473425114457 0.03635595 -0.01393495 0.9992418 193 198 206
-0.0874550440432942 -0.0494556057044659 -0.0134501262606816 0.02348091 0.001927376 0.9997224 198 201 211
-0.113506093613551 -0.0513040285244653 -0.00262654484055145 0.9551014 0.1065976 0.2764386 145 156 144
-0.0528490687150727 0.00353839617880736 -0.0135539536408245 0.03056547 0.01266243 0.9994525 192 197 205
0.0519797751807285 -0.0224175506735791 -0.0169279692762672 0.0281776 -0.01194545 0.9995316 204 207 219
-0.072404690058854 -0.0320026821115176 -0.0135747456190603 0.02304257 -0.0009062333 0.9997341 197 199 208
-0.00019252359944083 0.144143106215769 0.00392867694189843 0.05466668 0.9914331 0.1186253 204 206 214
0.119848600314461 0.104056564729248 -0.015644660579159 -0.8395594 0.1192701 0.5300139 197 200 211
-0.088834525974792 -0.176669205192586 0.00903731289851206 0.9730044 -0.2266739 0.04337468 109 118 104
-0.0746030883014439 0.134103338893427 -0.0107395649716275 0.03360842 5.094466E-05 0.9994351 203 208 218
0.071816125220905 0.0842164977634708 -0.0156398303802576 0.0288985 -0.02168604 0.9993471 200 204 214
-0.0629049636696246 0.103960846096057 -0.0115541988318275 0.03203471 -0.005155334 0.9994735 212 215 227
-0.0388069680740542 -0.106367099647337 -0.0157716302984305 0.0338648 -0.01383157 0.9993307 197 199 207
-0.0566436083287936 0.0516552861733968 -0.0126038378619525 0.03309033 0.001266435 0.9994516 199 202 211
-0.0602015815240878 -0.0551322157488348 -0.0141112680649003 0.05558162 -0.01789293 0.9982938 199 202 210
-0.00521593130101278 0.0370379367014714 -0.0142766382337889 0.02359688 0.001674565 0.9997202 194 198 207
-0.0867779142463704 -0.0590979622449955 -0.0137478971881145 0.02603452 -0.004288495 0.9996518 201 203 211
-0.0729873093489863 0.146811302514785 -0.00467804189692053 -0.04752498 0.998822 -0.00979174 216 221 229
-0.103259586335093 -0.107139598837114 0.00506878046263143 0.9420171 -0.2979477 0.1543724 123 129 125
0.0840828316034001 0.129743502794738 -0.015123248980214 0.02192818 -0.009897768 0.9997106 203 209 218
0.0085446674756901 0.118699603520138 -0.0134087224777762 0.02211392 0.002966781 0.999751 197 201 211
