ply
format ascii 1.0
comment File exported by Rhinoceros Version 7.0
element vertex 468
property float x
property float y
property float z
property float nx
property float ny
property float nz
property uchar red
property uchar green
property uchar blue
end_header
0.00130682920892733 0.032796379841632 0.0136525386827133 -0.003755267 -0.00847405 0.999957 124 124 124
0.0321647395115741 0.0253680029227294 0.0135344373654865 0.08616854 0.1567148 0.9838778 136 136 136
-0.0411602746632049 -0.000516509443665658 0.00875412295682015 -0.862557 0.4940188 0.1092741 67 67 67
0.0342144983551509 -0.017278756224256 0.013091144210407 0.007755564 -0.01879695 0.9997932 219 219 219
-0.0349954384785303 -0.0313795577138463 -0.00722095920123425 -0.03834439 -0.9990865 -0.01886339 64 64 64
-0.0556209233370704 -0.0262886955756001 -0.00778300818804484 -0.9867337 -0.06537121 -0.148604 67 67 67
0.0307852092242831 -0.00888391648370335 0.0132548385746976 0.001570926 -0.01629515 0.999866 112 112 112
0.0369829821583307 -0.0348169758168093 -0.0120001928851173 0.1396041 -0.985222 -0.09923901 89 89 89
-0.0129419050419908 -0.032551176249658 -0.00494440052146991 -0.03841535 -0.9991267 -0.01643148 90 90 90
0.0348766496454922 0.0340114945733958 -0.0103343290909254 0.4130569 0.8841537 0.2183031 86 86 86
0.0197854902325418 0.0358646144941099 0.0118154369405432 0.3779922 0.7495291 0.543441 105 105 105
-0.0371692045003094 0.0079947051633833 0.0127920573742827 -0.6035012 0.07551408 0.7937783 71 71 71
0.0523143931659122 0.014044373736986 -0.0122749760852305 0.7292929 -0.3934347 0.5597687 59 59 59
0.0171572067224535 0.033508229087349 0.0137207865809612 0.1325309 0.3196125 0.9382342 105 105 105
0.040029068293304 -0.0345027495804087 -0.0100630143091248 0.553176 -0.8305685 -0.0644379 120 120 120
0.0428698132866479 0.0258753576523962 0.00809626697176952 0.5146906 0.8446929 0.1469266 82 82 82
0.0442580766192182 0.0110561113936143 -0.00058575088339291 0.8928234 -0.3748418 0.2497198 30 30 30
-0.0168779772807439 0.0273501540086694 0.0135714398016092 -0.01687906 -0.004184096 0.9998488 128 128 128
-0.0529318783002086 -0.0222660148834775 0.0126916892827632 -0.7676914 0.2625953 0.5845456 70 70 70
0.0169530853818909 -0.0147492176546451 0.0132459649335296 -0.005939963 -0.01111145 0.9999206 109 109 109
-0.0478803673853867 -0.0155901402839842 -0.00734185615629335 -0.8194217 0.5706511 0.0539014 51 51 51
0.0173728541827911 -0.0134408910407904 0.0133120757055698 -0.003059096 -0.01016298 0.9999437 123 123 123
-0.041316556043794 -0.0311582655271656 -0.00512694023948759 -0.05592146 -0.9984342 -0.00135476 88 88 88
-0.0208449337471204 -0.0224189129078309 0.0131019686233666 0.000760256 -0.02526526 0.9996805 120 120 120
0.00143171901892414 -0.0332758893362393 -0.00462825002596179 -0.03124724 -0.9995012 -0.004568359 89 89 89
0.012748302189511 0.0393855999258503 0.0113277950421213 0.3947636 0.8590028 0.3259999 80 80 80
-0.0526968507831371 -0.0227855129751087 0.00636269558327038 -0.8993993 0.4352839 -0.04010907 54 54 54
-0.00390578595556024 -0.0238362342311247 0.013101977594947 0.0004777825 -0.0331707 0.9994496 93 93 93
-0.0211020798033275 -0.00458418000196636 0.0131875965627403 -0.0009978794 -0.01591335 0.9998729 117 117 117
-0.0115390041636849 -0.00619642991160174 0.0132573306202492 -0.005188108 -0.01459043 0.9998801 138 138 138
0.0538940668851375 0.0206473119125796 -0.00984243414207564 0.7404169 -0.3109529 0.5958952 71 71 71
-0.0320212890985592 -0.0315790572387737 -0.0062409541110377 -0.06396629 -0.9977717 -0.01897115 83 83 83
-0.036594167549268 0.00745211928893141 0.00628589362300222 -0.8746405 0.4621461 -0.146373 74 74 74
-0.00283898960565399 0.0269442031660418 0.0136593180117524 0.001535315 0.008160544 0.9999655 127 127 127
-0.00710274892877694 0.0448386859387635 0.00866667225911538 0.2285781 0.9662176 -0.1190613 82 82 82
0.0107191424858932 0.0404250318263237 0.0133933473737571 0.3288393 0.8065593 0.4912502 66 66 66
-0.0244554481941615 0.0282210722040497 -0.00785211303672317 -0.8714378 0.4495344 -0.1962525 43 43 43
0.0215841170857707 0.0352209064525941 0.00743455995825432 0.4509066 0.8889695 0.08010297 70 70 70
-0.020048349375057 0.0376714997075727 -0.00136637362637737 -0.8701263 0.4926113 0.01464258 64 64 64
0.0427006915629926 -0.0162916709375061 -0.00856745314901777 0.9869884 -0.07754744 0.1408556 37 37 37
-0.0116370829834689 0.0181038580192496 0.0140544196649239 0.003052043 -0.009652088 0.9999487 251 251 251
-0.0309968735200854 0.0132913686630696 0.0134860211687716 -0.2689251 0.1161364 0.9561337 136 136 136
0.0256711669636425 0.032529092313164 0.00986712036039367 0.4130649 0.8495541 0.3280782 93 93 93
0.0363419823963187 0.0334218022376187 -0.0119964194958986 0.3909914 0.8973283 0.2047626 63 63 63
0.0252051568937723 -0.0027375676241217 0.0133923556049114 0.006652194 -0.02256794 0.9997232 202 202 202
-0.00711867855546888 0.0259753354575196 0.0138720146044525 0.003688889 -0.01449236 0.9998882 144 144 144
-0.00472381516614373 0.0424375428480193 -0.00527365106137395 0.05808496 0.9936688 -0.09616922 48 48 48
-0.0556528728771191 -0.0282071273214191 -0.000635702736940968 -0.9224561 -0.3622311 0.1336536 67 67 67
-0.0133284632174444 0.0114686235671577 0.0135378834380329 -0.007653471 -0.01324551 0.999883 113 113 113
-0.0530821813507747 -0.0305381450756184 0.000976750015356853 -0.5833496 -0.7949901 0.1664152 77 77 77
-0.041578856163059 -0.0310130831613793 -0.00262691290388162 -0.055664 -0.9982176 -0.02152206 98 98 98
-0.00327455405372623 -0.0330121371600833 -0.0108726305968234 -0.04595613 -0.9989135 -0.007731109 87 87 87
0.0110246687714488 0.0405527442239788 -0.00692871576492729 0.1275747 0.9513386 -0.2804988 59 59 59
0.0263082493951923 0.00214926318734388 0.013344964401484 0.00468773 -0.007734851 0.9999591 125 125 125
-0.0282328485498293 0.0252356043580508 0.0101469366007794 -0.8068705 0.5376323 0.2447682 65 65 65
0.0404639702602889 -0.0255385785387388 0.00363228837528354 0.9968159 -0.001512547 0.07972378 38 38 38
0.00171332223016663 -0.0104654310169232 0.0133686144981784 0.003668541 0.001653401 0.9999919 113 113 113
0.0173668559732758 0.0373899035629588 0.0032595731365653 0.382651 0.9186513 0.09827434 75 75 75
0.00495592690302482 -0.0332978751320481 0.00888767276532107 -0.02832096 -0.9963729 0.08024289 64 64 64
-0.0296654592324022 -0.0319310677727658 -0.0121888299697622 -0.04997926 -0.9986637 -0.01314823 58 58 58
0.0129142126972304 -0.00269803502128152 0.0132880532552628 -0.00638403 -0.01538116 0.9998613 215 215 215
0.0240532869985564 -0.0339791594990999 0.0032000968944533 -0.03545761 -0.9993352 -0.008475806 89 89 89
-0.0204753397695412 0.0221221869930617 0.0136934533719379 -0.008114209 0.004364186 0.9999576 247 247 247
0.0271122155072741 -0.0344259522275623 -0.00495235565125338 -0.04622985 -0.998777 -0.01752806 86 86 86
0.00300280699873223 -0.00146913710023 0.0133992488011773 0.01027702 -0.02102047 0.9997262 241 241 241
0.00282716146357531 -0.0331727670356281 -0.00891711489318719 -0.0358036 -0.9993035 -0.01051392 90 90 90
-0.0249245289678397 -0.0320139401482988 -0.00121907380951247 -0.0588896 -0.9982644 -0.0003846441 94 94 94
0.0186173590887813 0.0371555884938759 0.00769684470465234 0.3977731 0.9168285 0.03467014 41 41 41
-0.0244402364045246 0.0295277560465006 -0.00131954767230852 -0.8564191 0.5119733 -0.06655634 42 42 42
-0.00735350111882171 -0.0298080061638255 0.012298731127011 -0.01360689 -0.5106419 0.8596858 76 76 76
-0.0240465160362646 -0.0322892956181666 0.00699608720570821 -0.04531942 -0.9968215 0.06552159 74 74 74
0.0267663157976172 -0.0272670408859845 0.0130371505213861 0.002160656 -0.04959102 0.9987673 88 88 88
0.0264445261913893 0.0360994880307677 -0.003225913270134 0.2787051 0.9286856 0.2446764 143 143 143
-0.0272221875126972 0.0236856326294461 -0.00217005172903612 -0.9053627 0.3875665 -0.1735239 42 42 42
-0.00128395147369842 0.0324058944672299 0.0138193393624359 0.001032836 -0.01520937 0.9998838 145 145 145
0.0295355761479335 -0.00464498371522226 0.013180536084554 0.004426529 -0.01691071 0.9998472 138 138 138
0.0119043305951436 -0.0161983498875518 0.0127749227875228 0.01215781 -0.008749179 0.9998878 97 97 97
-0.0070030271684689 -0.0328730150954735 0.00238392489448899 -0.04789852 -0.9987643 -0.013254 120 120 120
0.0179444198767569 0.0203127329485708 0.013443216599458 0.0004106406 -0.008500978 0.9999638 108 108 108
0.0329827376264751 -0.0345665216942677 -0.00248626010192515 -0.04585525 -0.9983173 -0.035494 77 77 77
0.0253677541942889 0.0324832711707919 0.0112332769071889 0.3016509 0.7818931 0.5455729 77 77 77
-0.042506278382721 -0.00727302475775526 -0.00568225227047997 -0.8111554 0.5843087 0.02470373 31 31 31
0.0187239905594172 -0.0338894806416554 0.00788445808128357 -0.02486536 -0.9961803 0.08370491 59 59 59
0.0398506794461877 -0.0151738074060925 0.0131615286389402 0.525275 -0.199432 0.8272322 131 131 131
0.0106764638885064 0.0397176471925078 -0.00879598059499559 0.1180677 0.9156359 -0.3842797 68 68 68
-0.0377442310887846 0.00206768798932488 -0.00382213176223872 -0.8741399 0.4211071 -0.2419674 80 80 80
-0.0247445560553401 0.00550934779097867 0.0136394970669266 0.001584095 -0.02877632 0.9995846 128 128 128
-0.0274375065917478 0.0200702611189822 -0.0126301594395943 -0.9072727 0.4112898 -0.08773211 48 48 48
0.00113902506012975 0.0394283984267398 0.0137835395415222 0.06535564 0.08191752 0.9944939 125 125 125
0.0302626138607298 0.0305425695693329 0.01308338940565 0.2246771 0.6235956 0.7487648 77 77 77
-0.0367594383380041 0.00174173413902445 -0.0112721439780632 -0.8673608 0.4967489 -0.03042757 62 62 62
-0.0398170932403523 -0.0315467117136499 0.0105482114746278 -0.06990132 -0.8990445 0.4322416 103 103 103
0.0389445122334604 0.00106626451782788 0.013318557214173 0.07645155 0.01792358 0.9969122 129 129 129
-0.0205912958748176 0.0255813538667284 0.013570316634662 -0.001880968 -0.009308988 0.9999549 139 139 139
-0.0191026133983914 0.0353854595781249 0.0139125945204591 -0.2811381 0.1767637 0.9432476 146 146 146
-0.0450545978369656 -0.0104409819872981 -0.00311509847457825 -0.8819225 0.4648329 -0.07837728 54 54 54
-0.00566454920092685 0.0416218220615792 -0.00455958525937089 0.06648119 0.9926545 -0.1010806 29 29 29
-0.0370276699022454 -0.0312854846820814 -0.00686916387743927 -0.03522983 -0.9989972 -0.02762941 57 57 57
-0.0236788246857751 0.0310707466193005 -0.000680464074579723 -0.8512053 0.5195903 -0.07399701 46 46 46
0.00440143635487367 -0.0330419850495396 -0.00076874625230694 -0.05474759 -0.9983034 -0.01982677 93 93 93
0.0503147615429422 0.0253214925773921 -0.00237152348521205 0.29171 0.899219 0.3260528 72 72 72
-0.0108909035015352 0.0153036946530676 0.0135426695530482 -0.006469802 -0.0152854 0.9998623 237 237 237
-0.0504403976796357 -0.0187770900866493 0.00244338281279335 -0.8453699 0.5309933 -0.05827375 53 53 53
-0.0382282780863721 0.00518308981242654 0.0124472357610945 -0.6691457 0.2961401 0.6815754 76 76 76
-0.0479589173130273 -0.0123723881114761 0.0122866802938685 -0.723673 0.300667 0.6212059 67 67 67
0.0134469557065575 -0.00884323179366775 0.0131064137797267 -0.0007057012 -0.01684726 0.9998578 82 82 82
-0.0416350314938405 -0.0185421706480213 0.0132567508096144 -0.001258845 -0.01314877 0.9999127 111 111 111
0.00732882415898661 -0.0180436643341249 0.0133434315162662 0.009681021 -0.01807717 0.9997897 118 118 118
-0.0353154195769894 0.00839057093845863 0.00230194743593617 -0.8765175 0.4736346 -0.0859494 58 58 58
0.0193517736127138 0.0387913756814002 -0.0105165470155737 0.1038313 0.9767302 -0.1876626 52 52 52
0.0436333382505314 0.00851635537582718 -0.00249425804887754 0.9256982 -0.2786716 0.2557829 22 22 22
-0.000925802155780087 -0.00918546347505167 0.0133220358075702 -0.000995099 -0.004169762 0.9999908 112 112 112
0.0186377796409616 0.0365796300066283 0.00589644763847771 0.4014966 0.9147423 0.04524337 66 66 66
-0.0301319198807291 0.0186286367208643 -0.000187539165967643 -0.8613198 0.4432862 -0.2482449 85 85 85
-0.0461529743438267 -0.0107717033119148 0.00419790026866293 -0.9133837 0.3795705 -0.1471618 66 66 66
-0.0440718034321623 -0.00695909953611928 -0.0107401762134074 -0.8277253 0.5466614 0.1266181 73 73 73
0.0284061199496533 0.0240430319996581 0.0136257703034918 0.01225658 -0.003566692 0.9999185 120 120 120
0.0235689853917034 0.0380850528593459 -0.0122371826188557 0.2537957 0.9669159 0.02571821 62 62 62
-0.0166452727883089 0.0338867428346037 0.0138508813559191 -0.03210863 0.007832936 0.9994537 138 138 138
-0.0451710313185123 -0.031172280335019 0.00441754439560396 -0.09913505 -0.9950736 -0.0009563753 86 86 86
0.0410790858355181 -0.0195858090079324 0.00165022626115249 0.9733137 -0.1360703 0.1847844 45 45 45
-0.0299140317091522 -0.0118339533938454 0.0131065546978125 0.01820373 0.001655675 0.9998329 240 240 240
0.0268900577125275 -0.0343028025589938 -0.00669540208325203 -0.026243 -0.9995083 -0.01716377 79 79 79
0.0211158128761904 -0.0339275946532778 -0.00663739106345598 -0.02529477 -0.9996381 0.009157594 89 89 89
0.0410503781743907 -0.00309719697074828 0.0132596397372764 0.4555066 -0.04584627 0.8890511 108 108 108
0.013510957163398 0.0176386211066619 0.0135823341301102 0.004404069 -0.01591841 0.9998636 115 115 115
-0.041257979077451 -0.00523700154622286 0.0134570037343256 -0.298871 0.3172632 0.9000112 107 107 107
-0.0271160855887593 -0.030700624071538 0.012005225696899 0.009726506 -0.7214093 0.6924406 61 61 61
-0.0307090319616059 -0.0313696255590585 -0.00285673273379539 -0.02983376 -0.9993623 0.01961604 77 77 77
0.044541441625412 -0.00287094768830931 -0.00663510037307055 0.9907405 -0.130362 0.03793481 43 43 43
0.00230619798000342 0.00280421335511472 0.0133731490964055 0.01413902 -0.01379984 0.9998048 234 234 234
-0.0435052888356038 -0.00434650108895496 0.00476072360047791 -0.8413433 0.5302247 -0.1048965 50 50 50
-0.0298741974503398 0.0145115968413101 -0.0108117481333292 -0.8787271 0.4507019 -0.1571829 41 41 41
-0.0360754792521332 0.00728986082189897 0.00179555911047119 -0.8690621 0.4868163 -0.08798295 50 50 50
-0.0309904432602079 -0.0317558128882081 -0.00712393462206842 -0.05620709 -0.9982485 -0.01845856 79 79 79
-0.00706656029021246 0.00602443212186232 0.0135139568765535 -0.001125141 -0.01034091 0.9999459 175 175 175
0.0403660980421261 -0.0298447095629606 0.00244971036023409 0.988884 -0.1470203 0.02221527 27 27 27
0.00909280020206982 -0.0128327051845254 0.0131402364150709 0.01796727 -0.01264088 0.9997587 191 191 191
0.0388419786131364 0.0302294914307559 0.00306511127637482 0.4032066 0.8984129 0.1740078 113 113 113
0.0137581706277814 0.0398790285799595 -0.00159175939580602 0.3112596 0.9233633 0.2247613 64 64 64
-0.0372956818164862 0.00733566766744786 0.0112816068840848 -0.8569611 0.2509818 0.4501396 66 66 66
0.0286065000849955 0.0073314446669559 0.013360345860912 0.007585919 -0.01651069 0.9998349 217 217 217
0.04506580800218 0.000577543355911425 -0.0108123431684805 0.9495091 -0.186965 0.2519456 20 20 20
0.0417048253265699 -0.0078246270832103 0.0028090077891422 0.9941472 -0.01036444 0.1075361 31 31 31
0.0525390665106782 0.0123055057823398 -0.0122635563693914 0.7325455 -0.4070963 0.5455728 38 38 38
-0.00130503911031266 -0.0328645119272626 -0.00318015038072356 -0.04395118 -0.9989774 -0.01060549 75 75 75
-0.0153786059995502 0.0114634201328485 0.013585968113321 0.001218646 -0.02176573 0.9997624 116 116 116
-0.0392844427078594 -0.0310892012536703 -0.00496461490965722 -0.04863172 -0.9987794 -0.008641794 83 83 83
-0.0413445778667558 -0.000957548989779289 0.0107349932340668 -0.7719572 0.4883977 0.4068783 51 51 51
0.0307678960387618 -0.011472522255338 0.0131679261158446 -0.0004977917 -0.01640386 0.9998654 110 110 110
-0.0132403803184693 0.00730723699116731 0.0134834422387985 0.00596319 -0.004024923 0.9999741 121 121 121
-0.0166591895083603 0.042694080907268 -0.00663224951725461 -0.4983282 0.85012 -0.1701908 65 65 65
-0.0166109118107789 -0.0259874573677761 0.0130037181083168 0.006877916 -0.09006631 0.995912 97 97 97
0.0432401526629973 -0.0168256263064837 -0.0101316013996839 0.988557 -0.11855 0.09327906 50 50 50
0.0398512503195319 -0.0189141908575432 0.0111584159143146 0.815077 -0.2916496 0.5005896 25 25 25
0.00524653424377108 0.015771047567412 0.0132924378967512 -0.00717581 -0.02514027 0.9996582 97 97 97
-0.0435425384208821 -0.00844032364519332 -0.005097983694027 -0.8429406 0.5370439 0.03217313 57 57 57
-0.00134685002336576 -0.0229344387699781 0.0130904365901707 0.003109877 -0.02235479 0.9997452 101 101 101
-0.0164253692192204 0.0433892256144719 0.0026975099487585 -0.6668123 0.7299507 -0.1501108 61 61 61
0.0455491902568057 0.0149702819903137 0.00350175619420595 0.926345 -0.3433967 0.154802 30 30 30
-0.00225995717492955 0.0450125519682048 0.0131365813571779 0.1479889 0.7937807 0.5899249 74 74 74
0.0391262274267987 0.0312749387685092 -0.00448909807372869 0.4383858 0.8867346 0.1466955 71 71 71
0.0123066466024611 0.00850066176928865 0.0136138182196069 -0.001440999 -0.01394888 0.9999017 173 173 173
-0.0272894660672949 -0.0319107236598382 0.00263338450860084 -0.05549063 -0.9982699 -0.01944513 66 66 66
0.0212470914086205 0.0182147589190582 0.0136769540421903 0.00670172 -0.009085204 0.9999363 78 78 78
-0.0171711177262481 -0.0285974709114571 0.0127094027236281 -0.02717984 -0.3137293 0.9491234 71 71 71
-0.0214559795049514 -0.016234998574131 0.0133281708046561 -0.001049549 -0.01106183 0.9999382 124 124 124
-0.0214275459597508 -0.0320949536255328 -0.000555979681662794 -0.0555439 -0.9984435 -0.005035974 62 62 62
-0.0390578102883008 -0.0206473330956511 0.0133537283313872 0.003544725 -0.0194733 0.9998041 115 115 115
-0.034065339351655 0.0101865351406616 -0.00145585562168818 -0.8929216 0.4369294 -0.1085533 47 47 47
0.0430172500012858 0.0267348369659555 -0.00227155044092756 0.4902552 0.8373011 0.2420263 71 71 71
0.0421784923365558 -0.0153588086425518 -0.00109715027074495 0.9873155 -0.1409563 0.07307141 35 35 35
0.0482558833515934 0.0130899787128664 -0.00739331323830836 0.7761461 -0.405116 0.4831958 67 67 67
0.0115713265924624 0.00107129648214888 0.0131964676175206 0.003712587 -0.01944094 0.9998041 145 145 145
-0.0258726143004908 0.0261262383744247 -0.00591798249032685 -0.9177741 0.3676928 -0.1499754 52 52 52
-0.0308238111406818 -0.0313890192001265 -0.0092992942508657 -0.06219897 -0.9979855 -0.01249856 66 66 66
0.0422645257303844 -0.012540453571374 -0.0024504501826402 0.9854278 -0.1638681 0.04559933 37 37 37
0.0293584989041267 -0.0304830481553788 0.0126260772468669 0.01202875 -0.4155149 0.9095068 106 106 106
0.00268003073469414 -0.0330681005891988 -0.00700693820548651 -0.03500143 -0.9993768 -0.00456709 75 75 75
-0.0212984707143673 -0.000429214294179081 0.0135400129615373 -0.005231362 -0.01669748 0.9998469 93 93 93
-0.0112371078291287 -0.0326528693656705 0.00508742874535417 -0.03753022 -0.999216 -0.01260403 79 79 79
-0.0542043589596926 -0.023779554506935 -0.0106105196653071 -0.9392571 0.3298365 -0.09488907 80 80 80
-0.0253825759626474 -0.031412298420078 -0.00938136239356369 -0.02797182 -0.9994504 -0.01778876 68 68 68
0.00670028305618908 -0.0271053637907106 0.012948334323033 0.003352476 -0.1003906 0.9949424 87 87 87
0.00777500605509696 0.0408984759917004 0.00106406252028643 0.2910954 0.9514472 0.1000585 81 81 81
0.0290454999072787 -0.0344004465700596 -0.0123019171794898 -0.0403336 -0.9991574 -0.007590092 83 83 83
-0.0168357515728652 0.042924452073408 0.00819380333411066 -0.8414375 0.5402344 0.0113884 74 74 74
-0.0223737159009865 -0.0184786045801082 0.013338199604771 -0.01135352 -0.01807533 0.9997722 104 104 104
0.0230470631041775 0.000801261018153587 0.0134567755335543 0.003709203 -0.009706922 0.999946 242 242 242
0.0351142431209142 0.0298226323670532 0.00831778409017606 0.2780348 0.9395234 0.199981 69 69 69
0.00167744997542529 0.0143512244596553 0.0133362314533029 0.001752663 -0.0152081 0.9998828 110 110 110
-0.0158782622772189 0.0215764353316248 0.013770207024651 0.0001475589 -0.00145424 0.9999989 203 203 203
-0.0328271648228984 -0.000485225498737307 0.0134953142434738 0.0108611 0.002668264 0.9999375 159 159 159
0.019918097947881 -0.033848391559286 0.00731363100270138 -0.0278468 -0.9979544 0.05754588 67 67 67
-0.00921465777647024 -0.00259601501991602 0.0134329302452972 0.007833438 -0.003808203 0.9999621 117 117 117
-0.00146831807905601 -0.0330965448347664 0.00287027143930785 -0.04212511 -0.9990186 -0.01368527 90 90 90
-0.0168754047629966 0.0348599325921084 0.0138385260587048 -0.1114437 0.06258655 0.991798 120 120 120
-0.0356600300413312 -0.0313117791894113 -0.00541531261893113 -0.03576133 -0.9992243 -0.0164895 83 83 83
-0.0132879619527722 0.0456630988621751 0.00344043911330721 -0.1515965 0.9652183 -0.2130072 66 66 66
0.0472762743505704 0.0146455811124404 -0.00433299512123336 0.8511328 -0.3579523 0.3839831 61 61 61
0.0393698198203705 -0.0329585294213703 -0.000334270199809417 0.7844334 -0.615958 0.07252596 44 44 44
-0.0433621533059236 -0.00650092714759265 -0.00919882771918465 -0.788581 0.5988486 0.1397156 75 75 75
0.0348868489859 0.000966170156094792 0.0133545812942814 0.001819781 -0.01154067 0.9999318 215 215 215
-0.0161785505050589 0.0426763205374681 -0.00882350957817435 -0.3853814 0.8729586 -0.2990392 63 63 63
-0.0296434773098244 0.000244850566975652 0.0135146726506837 0.01112157 -0.006019618 0.99992 237 237 237
-0.0343972430534942 0.00839583980796332 -0.00588638773303479 -0.8773367 0.4483346 -0.1711036 50 50 50
-0.00616708132730892 0.0269377207412909 0.0141873940580687 0.001203981 -0.01050386 0.9999441 123 123 123
0.0463414328298319 0.0263326568054414 0.000772225269410343 0.3485299 0.9156236 0.2004002 72 72 72
0.00303811045914903 -0.0280875480055847 0.0130885291038042 0.007644351 -0.2534389 0.9673212 81 81 81
-0.0331131052238967 -0.0315006136131324 0.00255485649144852 0.001362051 -0.9999516 0.009745801 65 65 65
0.0415898338007805 -0.0221489510992621 -0.0136730785302375 0.9861903 -0.1654413 -0.007604101 51 51 51
-0.0230847345781369 0.0295317589029953 -0.0091158919318981 -0.8650529 0.4574374 -0.2059963 33 33 33
0.0420928885899015 0.00123564159770906 0.00692167802412055 0.9913914 -0.01832818 0.1296423 63 63 63
-0.0552720445696473 -0.0260762531135568 -0.00889865504215168 -0.9866453 0.02128008 -0.1614874 66 66 66
-0.0138511078914823 0.0466729590600747 0.00699204632870676 -0.2424956 0.9596387 -0.1424413 80 80 80
-0.035267786924825 0.00570367154476492 -0.00782475348743408 -0.8828848 0.4383302 -0.1684669 56 56 56
-0.0416320935469381 -0.00236746119137865 0.013167588767404 -0.4401085 0.3414893 0.8304755 89 89 89
-0.0430708501878097 -0.00690548987041106 0.0133140754229188 -0.3884072 0.2518431 0.8864056 125 125 125
0.0308124641297169 -0.0285654734064975 0.0131127570075997 -0.0003728646 -0.1031518 0.9946656 107 107 107
0.0125395600756906 -0.0315964735279179 0.0120491219166923 -0.08417583 -0.5850533 0.8066146 59 59 59
-0.00208350870018936 0.0326916838999471 0.0134650986601111 0.002670568 -0.01613955 0.9998662 116 116 116
0.0416588576513011 -0.00170113583504539 0.00242913955275634 0.9908388 -0.04493887 0.1273534 59 59 59
0.0270336812086662 0.00885273411854226 0.0135298827696483 0.001244195 -0.01966529 0.9998059 209 209 209
-0.021525399093675 0.032652260388057 -0.00817173325757428 -0.8781226 0.4539459 -0.1511086 45 45 45
-0.0170855056547943 -0.00202449785015468 0.0133970300203785 0.0005032405 -0.01150259 0.9999337 115 115 115
-0.0011782918648553 -0.0107956176653092 0.0133507298552201 -0.0007920492 -0.003143733 0.9999948 111 111 111
-0.0132878007703576 -0.0327026056317343 0.00898427207730165 0.01073779 -0.9787987 0.2045426 69 69 69
-0.0331522958656256 -0.0318160331296045 -0.00343935832588491 -0.03835482 -0.9990099 -0.02254128 69 69 69
0.0428222945758248 -0.0130485879965783 -0.00882623758588336 0.9906766 -0.08447927 0.1068785 45 45 45
-0.0304311906266157 0.0135927338620665 -0.00871416645440348 -0.866296 0.4648514 -0.182878 33 33 33
-0.0153096855678201 0.00104965121301892 0.0135138855591959 0.003646977 -0.009267848 0.9999504 107 107 107
0.0366941472414699 -0.0347616379330102 0.003571305120525 0.2578574 -0.9630669 -0.07753473 88 88 88
-0.0428930830868675 -0.0311816672448268 0.00262314083184201 -0.06850494 -0.9976507 -0.0002842307 90 90 90
0.0417436424120621 -0.0212334740803721 -0.00185607350904918 0.9841879 -0.07649514 0.1597581 51 51 51
-0.0412515131354785 -0.0311377501996533 -0.00756180324356215 -0.03937184 -0.9991894 -0.008395724 92 92 92
0.0472644612400832 0.0246142546549053 0.0069922289349601 0.4947035 0.8547546 0.1570446 64 64 64
-0.0512785431887437 -0.0289464400247728 0.00639348486043761 -0.5923617 -0.7770958 0.2126727 31 31 31
-0.0356631746292446 0.000773376637310363 0.0133797864994771 -0.1725472 0.06918703 0.9825684 120 120 120
-0.0272692970517567 -0.0319526476738095 0.00519065352720344 -0.05916652 -0.9979534 -0.0242557 53 53 53
-0.00298011582853919 0.0404176495635522 0.0136878322514635 0.01017627 0.02144558 0.9997182 118 118 118
0.0259929296914385 0.0184293229719663 0.0136821660168232 0.01407537 0.003088999 0.9998962 103 103 103
0.0110470897433004 -0.0336190190039698 -0.00258634931108626 -0.05589763 -0.9982684 -0.01832285 67 67 67
-0.030425024550812 0.0218399443268713 0.00675790620396466 -0.8793839 0.472105 -0.06165083 79 79 79
-0.0370254979067755 -0.0108084085870497 0.0132789638385297 0.005242152 0.003667203 0.9999796 132 132 132
-0.0113619266268841 -0.0251394083232672 0.0129718914945159 0.004712292 -0.1000802 0.9949682 98 98 98
-0.0350049025989514 -0.0169988375551706 0.0132001750388294 0.003679594 -0.01495203 0.9998814 113 113 113
-0.0469233877707689 -0.0099345944405882 0.0124309298285706 -0.727598 0.2764325 0.6278425 49 49 49
0.0331303409445507 -0.0345925704353685 -0.0139080035023486 0.001197812 -0.9995063 -0.03139656 75 75 75
-0.00333002035563235 -0.0109229364808026 0.0133003325516059 -0.00644135 -0.009280136 0.9999362 117 117 117
-0.00298104855459469 0.0436854527353201 0.00502427730493954 0.1712559 0.9748574 -0.1425639 83 83 83
0.00745023591242955 -0.0246035833819636 0.0131900606677413 0.002807684 -0.03674584 0.9993207 102 102 102
0.0420232067155064 -0.019784597319662 -0.00941490291201244 0.9906127 -0.1295847 0.043522 42 42 42
0.0405752088549614 -0.0169688094337335 0.0077843264115727 0.9589839 -0.2403721 0.1502371 50 50 50
0.00143151020329313 0.0424747149599178 0.000882752332478337 0.1414217 0.9869069 -0.07755378 83 83 83
-0.000909888297401906 -0.0333934166537435 0.00931172896567992 -0.09061209 -0.8682124 0.487849 102 102 102
0.0130383652107935 0.00765133242392291 0.0134364074547791 -0.002539948 -0.01446467 0.9998922 136 136 136
-0.0163094848555749 0.0389043915646474 0.0138883136626194 -0.2507284 0.1325251 0.9589434 145 145 145
-0.0213409527496591 0.0353811827173831 0.00479753619801754 -0.8400761 0.5382271 -0.06770293 65 65 65
0.0313418634765488 0.0208260549265347 0.0135146692211117 -0.00643457 -0.0149823 0.9998671 107 107 107
-0.0200893544318617 0.0371022525024922 -0.00677440965901194 -0.8821946 0.4627335 -0.0872374 52 52 52
-0.0115531836046663 -0.0326248558301934 0.00288987294966034 -0.04416544 -0.9988956 -0.01603199 90 90 90
0.0223593996750173 -0.0342112118634272 -0.00492033616854123 -0.04424417 -0.9990206 0.0005819842 77 77 77
0.0356251062377972 0.0315448312145552 -0.000410369081031176 0.3411686 0.9267837 0.1570859 46 46 46
-0.0274574793011 0.0198708442501305 -0.0112691822287359 -0.9070257 0.4127373 -0.08338065 47 47 47
0.0410683019417233 -0.0198517996156551 -0.00205458773853956 0.9890711 -0.05778751 0.1356429 15 15 15
-0.0367127449553684 0.00449859800761376 -0.00512570270034066 -0.8864191 0.4229201 -0.1881482 52 52 52
-0.0052073467058058 -0.0329011531490913 0.0052081894353283 -0.0542057 -0.9984565 -0.01209705 109 109 109
-0.00935064112773842 0.00545504663805874 0.0137227246239304 0.007902861 -0.00950808 0.9999236 128 128 128
0.013068761183523 -0.0150094037365889 0.0132514007366198 0.005110558 -0.0008985122 0.9999865 108 108 108
0.0260758550231865 -0.0329769690750075 0.0119793788891102 -0.00236725 -0.638643 0.7694995 72 72 72
0.0412445282257319 -0.0293574805679411 -0.0118513534410631 0.9594671 -0.2251381 -0.1695162 50 50 50
-0.0483707034518714 -0.0143031660022856 0.0101624278804871 -0.8722845 0.3662916 0.3239603 60 60 60
-0.0230096073494348 -0.0320605165440238 0.00530348426543398 -0.05536773 -0.998373 -0.01362932 55 55 55
0.0202428341702308 0.0236706371566426 0.0136448270280266 -0.003826149 -0.01721991 0.9998444 110 110 110
-0.0196850522340859 0.0196656847599241 0.0136071870537165 0.001447177 -0.01291742 0.9999155 200 200 200
-0.0290670740721215 0.0118724206469349 0.0138669106877028 -0.02280473 0.03101894 0.9992586 135 135 135
0.0485364702282856 0.00697798528287707 -0.0120455026864513 0.721479 -0.4198439 0.5506352 58 58 58
-0.0369174652502977 -0.00889295674164337 0.013319805533959 -0.002383642 0.0005987791 0.999997 147 147 147
-0.0302702168954314 -0.0286015432885358 0.0130502055636461 -0.01338052 -0.3765058 0.9263176 38 38 38
-0.0331471706468662 0.0152147934437843 0.0127174615147704 -0.4336097 0.2448356 0.8672013 85 85 85
-0.00552744803760152 -0.021451221242321 0.0132316775297813 0.001542052 -0.0188488 0.9998212 93 93 93
0.00279903975243689 -0.0333671025118949 0.00697171359282542 -0.02676257 -0.9996256 0.005698593 81 81 81
-0.0477639630605271 -0.0156114558607867 0.00150585649872118 -0.8530648 0.5099027 -0.1108134 46 46 46
0.00546940417558783 0.0344844208871089 0.0137146382785298 -0.0006663504 -0.02052344 0.9997892 144 144 144
-0.030896758485546 -0.0314632069365273 0.00356422127954459 -0.01686091 -0.9998191 -0.008804273 47 47 47
-0.0131563705567737 -0.0324864611929805 -0.0033458044133558 -0.03750505 -0.9991764 -0.01548914 96 96 96
-0.0236271844513865 0.0293079073339297 0.0137559545633088 -0.3546853 0.1101125 0.9284792 119 119 119
-0.0368036292133431 -0.0312555732595579 -0.0111153463192097 -0.03534493 -0.9992805 -0.01375426 60 60 60
-0.0371595781617453 -0.031518342818599 0.0070356694109073 -0.03920493 -0.9990832 0.01719991 43 43 43
-0.00923394144287482 -0.0326202334047507 -0.0113228487837572 -0.06516532 -0.9978693 -0.003211146 71 71 71
0.00221468563726823 0.0424437072710597 -0.000909176561908226 0.1003705 0.991738 -0.07988416 76 76 76
-0.0453346157965571 -0.0309437722440358 -0.00763074451763737 -0.04638351 -0.9989159 -0.003965614 65 65 65
-0.0408026171571241 -0.000157524948596333 0.000107536943520503 -0.8678173 0.4594864 -0.1891176 69 69 69
0.00157287916440252 0.0414752725692664 -0.00480056802688641 0.06832727 0.9866861 -0.1475874 92 92 92
-0.0344531419264134 -0.0316000719119081 0.0103123869748395 0.04469911 -0.9252002 0.3768377 97 97 97
-0.0510019660972836 -0.0307592154626108 -0.00517585873775725 -0.2721548 -0.9621274 0.01557884 64 64 64
-0.0354765717684389 0.00787910864768304 -6.85921813986801E-05 -0.8710819 0.4829302 -0.08941353 61 61 61
0.0207859369550438 0.00956959878601893 0.0133955056251476 0.01032991 -0.01152078 0.9998803 154 154 154
-0.0265710491122519 -0.0315587848746073 -0.00928797134770826 -0.03217927 -0.9993961 -0.0131116 81 81 81
-0.0171353636326188 -0.0216663718965706 0.0137201078176657 -0.005222623 -0.02404948 0.9996971 96 96 96
-0.0207364761245294 -0.00872838778151097 0.0131969492414259 0.001877096 -0.002953471 0.9999939 104 104 104
-0.0108594565343525 -0.0171896963175864 0.0133388788526683 0.005201416 -0.008331844 0.9999518 105 105 105
-0.0322663972340376 0.00495657900291624 0.0135010738123529 -0.00765663 -0.02708624 0.9996037 118 118 118
-0.0160292234386703 -0.0207173677047772 0.0131164916271063 0.001375441 -0.01743487 0.9998471 84 84 84
-0.00235125773712497 0.0359175711664304 0.0139123380991983 -0.002230847 -0.005004881 0.999985 102 102 102
-0.0353166643639005 0.0100726233894635 0.0137206773660727 -0.3776481 0.1484587 0.9139704 137 137 137
0.0432727024376849 0.0256412010978073 0.00974694603659018 0.5436715 0.792644 0.275929 55 55 55
-0.0357244220766977 -0.0133466109885321 0.0139521137165422 0.01144658 -0.009942778 0.999885 230 230 230
-0.0456069698806256 -0.0101060916951841 -0.0128855443723946 -0.8724538 0.4623081 0.1584159 74 74 74
-0.0127881682908884 0.0158412270112605 0.0137853835864217 -0.003264771 -0.01640719 0.99986 134 134 134
0.0227685626224163 0.0342065077843945 0.00964373870968288 0.4909873 0.8181973 0.2991399 72 72 72
-0.0254235380117116 0.0254431945146307 -0.00790049721548325 -0.9042463 0.3943627 -0.1637579 54 54 54
-0.0361860319122538 0.00327927313726417 -0.00960435835487894 -0.8800048 0.465558 -0.09405971 52 52 52
0.041587813672447 -0.021854546455502 -0.0122157090901158 0.9848763 -0.1731975 -0.004621088 40 40 40
0.0189720627508945 -0.033850702650235 -0.0102980207429831 -0.04357414 -0.999009 0.009080559 76 76 76
-0.0124063348858567 0.0436478913858529 -0.00140200750707734 -0.02819594 0.9742149 -0.2238535 93 93 93
-0.0509633290336287 -0.0179367516047695 -0.0132815039628147 -0.8049526 0.5647473 0.1819666 80 80 80
-0.0257054305423088 0.0243514280354571 -0.00867060956280308 -0.9052338 0.3974179 -0.1503688 35 35 35
-0.0121747862435768 0.0427781812300876 -0.00665331049725593 0.1162217 0.9654707 -0.2331498 85 85 85
-0.0214094366320516 0.0320207176875715 -0.0100482424879011 -0.8711922 0.4560623 -0.1817451 28 28 28
-0.0268420479812523 0.0231412537310101 0.0137509844477308 -0.3433892 0.1711372 0.9234695 131 131 131
0.0187047492507508 -0.0172156531074656 0.0131575122835499 0.0005675792 -0.01107259 0.9999385 201 201 201
0.0536496243325031 0.0163395113707017 -0.012448569362495 0.7250777 -0.4189585 0.5465675 46 46 46
0.0366093430879517 0.0320162570886591 -0.00797888021229071 0.3730429 0.9133816 0.1630124 49 49 49
-0.00504311279894543 -0.00669201554162213 0.0132858554241382 0.01062148 -0.003503424 0.9999375 157 157 157
-0.000984429489752081 -0.033369209584309 0.00609826137763297 -0.04884054 -0.9987286 -0.01247816 66 66 66
-0.050859574376517 -0.0187743727465595 -0.00972496647124196 -0.7945819 0.5986987 0.1009916 73 73 73
0.038370905625372 -0.00528111951274779 0.0132026724540761 0.09839421 -0.08491354 0.9915181 161 161 161
0.0109271187596978 -0.0335587465683609 -0.00641911337038906 -0.04755192 -0.9982692 -0.03460346 81 81 81
-0.0511433494629965 -0.0308573076117609 -0.00121298268787595 -0.3547319 -0.9347989 0.01778433 79 79 79
-0.0489694376895204 -0.0307178734210918 -0.00324763523223304 -0.03378833 -0.9994143 -0.005420525 56 56 56
-0.0153392424029342 0.0458385023310857 0.00783087541073962 -0.543913 0.8368112 -0.06249597 73 73 73
-0.0357481829937223 0.00567444334121348 -0.00565846058949654 -0.8863078 0.4251868 -0.1835066 44 44 44
0.0220686611921583 0.0202880058297383 0.0136704057147209 0.0118821 -0.01134556 0.9998651 142 142 142
0.0318981185962568 0.0334085651410394 -0.000985632567655631 0.3395807 0.929867 0.1415358 61 61 61
-0.0511562260676304 -0.0199189587016719 -0.00770763368013722 -0.7847543 0.6197978 0.003371546 54 54 54
0.0202054836247925 0.0378350855926719 -0.00404202023391964 0.3383848 0.8881155 0.3110411 99 99 99
0.0247884461395791 -0.0340226119972538 -0.00202118416607922 -0.05919894 -0.9981896 -0.01062794 83 83 83
-0.0512687597991812 -0.0224587900190274 0.0131452702081241 -0.4310672 0.1185166 0.8945026 92 92 92
-0.0153431214017261 0.0368425178181901 0.0138439997501465 -0.09582843 0.06039588 0.9935639 144 144 144
0.00702501253545984 0.0209606047367283 0.0136235690199636 0.01076492 -0.01597849 0.9998144 117 117 117
-0.0547639603591372 -0.0248570122939231 0.00812950838381205 -0.9929277 0.1178019 0.01474302 59 59 59
-0.0473886820366021 -0.0157775524675923 -0.00348649758273389 -0.8367829 0.5454095 -0.04819651 64 64 64
-0.00110269337587221 0.0433684866714863 0.00278544059626576 0.1587883 0.9775715 -0.1383482 30 30 30
-0.01119850928246 0.0466112696715533 0.0107479097096776 0.09428124 0.9711657 0.2189708 83 83 83
-0.0284112208460419 0.0244021742388709 0.00538932879594575 -0.8179637 0.5694827 -0.08139331 67 67 67
-0.0311482912330725 -0.0227946514915713 0.0132163564124727 0.003360998 -0.0462597 0.9989238 108 108 108
-0.0228218257297894 -0.00805831193678808 0.0133830372870364 -0.00272289 -0.01257488 0.9999172 114 114 114
-0.0329749689261927 -0.000829951973307042 0.0137233143458681 0.005915319 -0.0001882001 0.9999825 173 173 173
-0.0311013292771383 -0.0318382394630956 0.00502853221314517 -0.01951279 -0.9996709 -0.01665489 61 61 61
-0.0209111694752782 0.0029181259420461 0.0135583241678252 0.00380207 -0.01584629 0.9998672 132 132 132
0.0446206013782318 0.000563080788509307 -0.0065838264451975 0.9904308 -0.1049607 0.08961032 32 32 32
-0.00650087925234821 0.0418885514873468 -0.00338030844643633 0.1233141 0.978669 -0.1643184 40 40 40
-0.0278926192938387 -0.0290647083544016 0.012410412967837 -0.07325076 -0.4846405 0.8716409 71 71 71
0.0272723423727079 0.0348312294528634 -0.000578845949573581 0.2670785 0.9358729 0.2298063 75 75 75
-0.0361064232590025 0.0109258483416146 0.0129362432931617 -0.6421317 0.3109419 0.7007011 90 90 90
0.0205792346834315 -0.0341849574987552 0.00562055418564919 -0.04865653 -0.9987841 -0.007936482 60 60 60
0.0472718785390986 0.0181599646898063 -0.00101294895406709 0.9081006 -0.2348451 0.3467003 44 44 44
-0.0338884508155326 0.007144793824722 -0.0108076043370539 -0.857584 0.4857458 -0.1691172 54 54 54
0.030918552826416 -0.0345025651541555 -0.0127442938417575 -0.0374735 -0.9992624 0.008393654 87 87 87
-0.0306203943097507 0.0174776042663909 -0.00149849324545442 -0.8578363 0.4637511 -0.2214763 42 42 42
-0.0324411900372787 0.0157921822487883 0.00589480319320365 -0.922004 0.3784318 -0.08184099 70 70 70
0.0381643993974583 -0.0348804578921234 0.00384223313454846 0.4999115 -0.8616807 -0.08714813 93 93 93
0.0412856043497807 0.0307522236387578 -0.00887505642756259 0.3518146 0.9018342 0.2508414 68 68 68
0.007381163406047 -0.0333119157968649 -0.0089482154845773 -0.04475688 -0.9989837 -0.005332297 86 86 86
-0.0494197924693129 -0.02245027307085 0.0132422391114587 -0.2821866 0.04929331 0.9580923 104 104 104
0.0461682329573025 0.0173729051672993 0.00181957191928162 0.9420398 -0.2579425 0.2145379 37 37 37
-0.0142561155206118 0.0450556487716789 0.0138166781378139 -0.2907534 0.595891 0.748583 130 130 130
-0.00871415327757497 0.0423897486353753 -0.00666851630027676 0.07456925 0.9791722 -0.188842 89 89 89
-0.0103534538344601 0.0310754150414114 0.0136946783461211 -0.0008213318 0.008365352 0.9999647 103 103 103
0.0412054797501371 -0.0252728600584957 -0.00626698495490077 0.9822792 -0.1834568 0.03835427 43 43 43
-0.0232402949970054 -0.0320656872302818 -0.011137922909267 -0.04714429 -0.9986043 -0.02381017 84 84 84
0.03364946754072 0.034316620636762 -0.00890469537052205 0.4142113 0.8837161 0.2178873 76 76 76
0.0422539447823516 -0.0111912232580644 0.00426486315964714 0.9925162 -0.09712095 0.07402107 56 56 56
0.00679047779259312 -0.0207521533417776 0.0131431448790678 0.0002540534 -0.02225433 0.9997523 113 113 113
0.00741300564587144 -0.0104577873001279 0.0132435843928678 0.01389527 -0.006308017 0.9998835 216 216 216
0.0423176296496868 -0.00884287043804388 0.00951895848847301 0.9621295 -0.07370733 0.2624386 41 41 41
0.0144421657488882 -0.00300025983532826 0.0133405765983145 -0.005192257 -0.01868379 0.9998119 130 130 130
-0.0244386979631384 0.0269781771208244 -0.00973289261410448 -0.8838657 0.4148293 -0.2160976 60 60 60
-0.0391448806579111 -0.00226927035929103 -0.0089208950180143 -0.8312955 0.5518746 0.06619847 39 39 39
-0.0172618452070146 -0.0168122288287371 0.0133510847983273 0.001087171 -0.0007735401 0.9999991 120 120 120
0.0228952903693522 0.034228807775784 0.0125341042647148 0.4265907 0.7537934 0.4998159 77 77 77
0.0477037956983724 0.00897568120484138 -0.0108217284979191 0.7265714 -0.4394891 0.5281508 49 49 49
0.0170261154748363 0.0252148245811119 0.01375987276065 -0.003198992 -0.01730697 0.9998451 132 132 132
-0.0132934637010025 0.0314020550140861 0.0137580894169566 -0.002759894 -0.01186146 0.9999259 140 140 140
0.0163680600087828 -0.0336413779378946 0.00333106307354775 -0.03010712 -0.9993673 -0.01893527 65 65 65
0.0314707172614725 -0.0346613288288848 0.0033974929221007 -0.04697393 -0.9988857 -0.004559245 92 92 92
0.0425756491833651 0.0274257520277412 0.00263962425802161 0.5446656 0.8290163 0.126773 88 88 88
-0.0527533766988582 -0.0212247689033853 -0.013043906049757 -0.8117892 0.5755321 0.09879831 60 60 60
0.0200967584218552 0.0354207454387752 0.00963360620335718 0.4494395 0.8528946 0.2656593 100 100 100
0.00721379937174715 0.0174169413298551 0.0136947364123748 0.002105257 -0.009714004 0.9999506 111 111 111
0.00835907795637425 -0.033559010878484 -0.000752672419929656 -0.05798839 -0.998076 -0.0219443 88 88 88
-0.00976627397567853 0.00646312780435299 0.0134129385304764 0.004846573 -0.007192299 0.9999624 121 121 121
-0.0127779752401231 -0.0323536897981918 -0.0128103454677085 -0.05075222 -0.9985522 -0.01782346 83 83 83
0.0269538420114732 -0.0342667034637996 -0.00264350781152611 -0.0658104 -0.9978281 -0.002824513 67 67 67
0.0568702438609652 0.0271470608017004 -0.0101526169064514 0.5580143 0.403273 0.7252523 86 86 86
-0.0371984729814472 -0.0316274116857345 0.00112794544453021 -0.03208297 -0.9993212 -0.01810951 93 93 93
0.0049360297536083 -0.0332140242657464 -0.00469037437337566 -0.03761972 -0.9992509 -0.009071412 73 73 73
-0.000662165313638052 0.041128294283713 -0.00982298129604708 0.1184433 0.9551193 -0.271511 60 60 60
0.00856120580310193 -0.0334389490642168 0.0100061661717882 -0.07897836 -0.8966223 0.4356959 91 91 91
0.0256579750419732 0.0107621965326963 0.0133491399267509 -0.009621126 -0.009161755 0.9999117 100 100 100
-0.00731684488863404 -0.0228773939319691 0.0132429848413331 0.004479669 -0.03080664 0.9995153 99 99 99
-0.0294814983298022 -0.0107734435662166 0.0132608692972053 0.005659978 -0.001618385 0.9999827 156 156 156
-0.015091622080313 0.00746123624999218 0.0136298295937687 0.00792645 -0.002694695 0.999965 117 117 117
0.0202906214961942 0.0357512312744301 0.0025454056797834 0.3822792 0.9168174 0.1153626 77 77 77
-0.0338487472361912 0.0105575487834577 -0.00322697792648166 -0.885408 0.4461961 -0.1302369 54 54 54
-0.0256758097842242 0.0048810555170542 0.0137562015779324 -0.008650997 -0.03536903 0.9993369 98 98 98
-0.0254569446333837 0.00145153693831057 0.0133073378671193 -0.00586637 -0.02285694 0.9997215 118 118 118
0.0134340656827607 0.0391835434647716 0.00151197413051776 0.348401 0.9219424 0.1692304 87 87 87
-0.0135204919280549 -0.014555227764423 0.0132832432783693 0.005376291 -0.004142501 0.999977 149 149 149
-0.0492462183587037 -0.0180640964365801 -0.00938061628509609 -0.7868571 0.6066132 0.1134739 56 56 56
0.0249223139851327 0.000617970369057197 0.0132829635779133 0.001265735 -0.009122686 0.9999576 225 225 225
-0.0487901604170373 -0.0171569458157426 -0.00929197261299089 -0.7934773 0.5939704 0.1326383 69 69 69
0.0390198829392578 0.0304701436003394 -0.000589644351393276 0.4625502 0.8719477 0.1604823 60 60 60
-0.0428800914900676 -0.0246142645323295 0.0132405293667045 -0.01099076 -0.06783645 0.9976359 107 107 107
0.0469998030360208 0.0110886125947289 -0.00680224684294653 0.7784822 -0.4534504 0.433991 44 44 44
-0.0264562189364741 -0.0319216566100946 -0.00281338479218074 -0.04636645 -0.9989234 -0.001487358 110 110 110
0.0309372506189916 -0.000949102856848238 0.0132226255760041 0.005372216 -0.01062138 0.9999292 186 186 186
-0.0200495207775822 0.0367937714548303 -0.00289541637543581 -0.8841255 0.4658685 0.03589774 70 70 70
-0.00199149191455206 -0.0210000486929878 0.0133786740696382 0.005152666 -0.009550774 0.9999411 81 81 81
-0.0143594472270019 -0.00934967491770955 0.013168072695587 0.002184338 -0.009206482 0.9999552 112 112 112
-0.0211394252430401 -0.0120563780138858 0.0131647121420498 -0.00476066 -0.009193796 0.9999464 150 150 150
-0.00727100557115934 -0.0209471843933826 0.0132185496390225 0.0005170186 -0.01317362 0.9999131 90 90 90
-0.00561945792258545 -0.0247997534692002 0.0130133666941915 0.00279233 -0.07861944 0.9969008 100 100 100
0.0548308672910864 0.0181181632171994 -0.0126165846124548 0.7047303 -0.4506066 0.5480045 80 80 80
-0.0228281893826447 -0.0322331799368425 -0.00727663238423529 -0.0516464 -0.9986405 -0.007056558 93 93 93
-0.0454947301752715 -0.00925921786316075 -0.0119727946276744 -0.8664078 0.4676261 0.1751094 59 59 59
-0.0257170001323939 0.0277407756116581 0.00787398424191105 -0.8476148 0.5150116 -0.1277197 69 69 69
0.0248503437814014 -0.0229482541215995 0.0131708872930162 0.0002839321 -0.0145193 0.9998946 223 223 223
0.0285632616168727 0.0171029194601233 0.0135382204454017 0.004305062 0.008191299 0.9999572 102 102 102
0.000975741330772273 0.000972941739675104 0.0134221281286133 0.004184152 -0.02546916 0.9996669 198 198 198
-0.0390258277392532 -0.000912758782349865 -0.012300051399268 -0.8134572 0.5627599 0.1469309 80 80 80
0.0195276195638714 0.0360792955604414 0.00997643849427185 0.4561156 0.8460048 0.2761056 85 85 85
0.00506591563463044 -0.0151448145303237 0.0132397776089352 0.008910145 -0.02072928 0.9997454 193 193 193
0.00261386237665429 0.0418353384675414 -0.00266411439784228 0.07247286 0.9874422 -0.1403766 97 97 97
0.0129954952136475 0.0354154766151416 0.0137308210921868 0.08873791 0.1156536 0.9893178 120 120 120
0.00295450730502456 0.0213125324451733 0.013789120666322 0.006065327 -0.02142878 0.999752 115 115 115
-0.0328347393464763 -0.0318321044200223 0.00457838163575339 -0.006555653 -0.9996974 -0.02370809 51 51 51
-0.0270070832122735 -0.00279818978064861 0.0134232802570228 0.0157207 -0.01724068 0.9997278 122 122 122
-0.0312058458885305 0.0110570652983026 -0.0115177070761439 -0.864987 0.4594218 -0.2018145 53 53 53
0.0453954140538149 0.0260766389474552 -0.00306391892526331 0.299865 0.9127002 0.2775955 90 90 90
-0.0550269021718905 -0.0269693942451044 -0.0035682633833708 -0.9749959 -0.2221883 -0.003915683 69 69 69
-0.0377290987757464 0.000323836901148233 -0.00932867257512451 -0.8858691 0.4636987 -0.01480989 52 52 52
0.0444041249052005 0.00452711925711413 -0.00776212440379148 0.9492919 -0.1336625 0.2845685 22 22 22
-0.00953517792589631 -0.0253007420617024 0.0128692346484416 0.01436932 -0.09086198 0.9957598 107 107 107
6.6459015358511E-05 0.0433980332677553 0.00753899181933684 0.1961223 0.968794 -0.1515726 52 52 52
0.00728877233198943 -0.0332611303724013 -0.00630637396403494 -0.04842727 -0.9986702 -0.01768368 66 66 66
0.0502776857150269 0.0154183592402353 -0.00832540220004729 0.753094 -0.3576273 0.5522248 55 55 55
-0.00940882859586978 0.0171689085147904 0.0136889413425783 0.003421553 -0.01284443 0.9999117 222 222 222
0.00301558933570867 0.0395633578592143 -0.0124420926252794 0.1640037 0.931219 -0.3254749 85 85 85
-0.0532815014287498 -0.0222162365906178 -0.0131026758800183 -0.8517299 0.522116 0.04416945 80 80 80
-0.0315886252962232 0.0163444204967662 0.00106676063796446 -0.8937218 0.4149323 -0.1705655 101 101 101
-0.0252226461229088 -0.00218177495639305 0.0133513192434898 -0.000825739 -0.01322646 0.9999122 107 107 107
-0.0114200606114112 -0.0327144749964889 0.000878158393938427 -0.04662353 -0.9988483 -0.01132749 100 100 100
-0.0353050204174703 -0.0312051758941831 -0.0111042622043089 -0.05330234 -0.9983714 -0.02033273 68 68 68
0.0391268812395018 -0.0268433664149936 0.0131572580414397 0.532401 -0.01004476 0.8464327 76 76 76
-0.00456355774152994 0.0449060994721016 0.0103838027292663 0.1153572 0.992951 0.02721964 95 95 95
-0.0189084779467525 -0.0228647833994657 0.0132159628925245 -0.0004634116 -0.03262722 0.9994675 107 107 107
0.0479200398440938 0.0234431874809584 0.00526943116744796 0.8002225 0.5918704 0.09660911 73 73 73
-0.0172645914513967 -0.0322555840033114 0.00720471716625415 -0.08866721 -0.9936421 0.06937917 101 101 101
-0.0416098787215171 -0.00638984371721563 -0.00658962875806343 -0.7916651 0.6056768 0.08013769 70 70 70
-0.00232381173253282 0.0416328537266288 -0.00947749658538163 0.1005368 0.9639795 -0.2462434 72 72 72
-0.0371192986516542 -0.0222218823454456 0.0133024480838021 0.0003787591 -0.01244596 0.9999225 107 107 107
-0.0454616879594738 -0.00812688693313879 0.00707849518296763 -0.8918297 0.4461871 -0.0745438 59 59 59
-0.0071050873733336 0.00725172023952969 0.0135026655752875 -0.006906662 -0.01592556 0.9998493 211 211 211
0.0147562412067175 0.0068032762455561 0.0134214328034453 0.005673971 -0.01870131 0.999809 218 218 218
0.0329667496046704 -0.0347209267021324 0.00499216685411338 -0.05610602 -0.9983823 -0.009211901 89 89 89
-0.021308484719496 0.0218272532456565 0.0137496336516857 -0.01572811 0.0006954671 0.9998761 245 245 245
