ply
format ascii 1.0
comment File exported by Rhinoceros Version 7.0
element vertex 472
property float x
property float y
property float z
property float nx
property float ny
property float nz
property uchar red
property uchar green
property uchar blue
end_header
0.00759743858809508 0.0752189486909174 -0.0403120018630172 -0.1366683 -0.03124157 -0.9901241 107 107 107
-0.0933673381550856 -0.0413390414509381 -0.0519504909804493 0.2939696 -0.0259446 -0.9554626 68 68 68
0.0120951380660999 0.0760713050389892 -0.0410032967891731 -0.1121114 -0.02682851 -0.9933334 201 201 201
0.00398911124546664 0.068580475163281 -0.0384571356333057 -0.1274557 -0.3116889 -0.9415971 131 131 131
0.0156548015212953 0.0706665766589711 -0.0406032988497238 -0.06661461 -0.2321064 -0.9704067 160 160 160
0.0160299030653766 0.069343246378113 -0.0403279986859802 -0.05210514 -0.2576117 -0.9648426 108 108 108
0.0184927782118122 0.0747961502465035 -0.0410217336135575 0.003493462 -0.01286841 -0.9999111 148 148 148
0.0241261933549918 0.0756522233362498 -0.0407602503332872 -0.0428203 0.03618282 -0.9984274 96 96 96
0.0258682284541041 0.074390108526589 -0.0411041832298113 -0.08316301 -0.02137948 -0.9963066 110 110 110
0.0275181268886958 0.0692615375757213 -0.0410410242148136 -0.05307064 -0.2225895 -0.9734667 144 144 144
0.0177603162840127 0.0667417714206686 -0.0395547574928728 -0.04413006 -0.3016391 -0.9524003 112 112 112
0.019072290819434 0.0663651739769897 -0.039122757380195 -0.05831697 -0.2982624 -0.9527007 117 117 117
0.0233229886651816 0.0643091835296528 -0.0389914189218332 -0.09868554 -0.2029366 -0.9742063 119 119 119
0.00291958930966574 0.0631841192690517 -0.0360965068435422 -0.05160118 -0.3821033 -0.9226778 92 92 92
0.0112021902424879 0.0624410806369933 -0.0379476800198034 -0.1691235 -0.2984882 -0.9393094 133 133 133
0.00320021249651575 0.0575402724228071 -0.0344951369981846 -0.1147974 -0.1205345 -0.9860492 100 100 100
0.00771590630047053 0.0553323901872624 -0.0352755235254076 -0.2098137 -0.01925732 -0.9775517 123 123 123
0.017763564764554 0.0632439110591534 -0.0387268436317765 -0.06579836 -0.2192459 -0.9734484 111 111 111
0.0315444355759193 0.0739710939686984 -0.0416905129159867 -0.1555087 -0.08268492 -0.984368 198 198 198
0.0302570383104364 0.072207720384647 -0.0418473730627526 -0.1006916 -0.1338434 -0.9858738 135 135 135
0.0389720116415658 0.0745102348065179 -0.0430383099029356 -0.1731116 -0.02513944 -0.9845814 157 157 157
-0.0732484083150787 -0.00451761076481128 -0.0448338972466403 0.2200953 0.1344537 -0.9661678 114 114 114
0.0522959291719509 0.0768869239159151 -0.0448909453930863 -0.0839248 0.02222867 -0.9962241 206 206 206
0.0510883174089909 0.0762588940306126 -0.0446503091464383 -0.07884063 0.03902476 -0.9961231 226 226 226
0.0138288227876072 0.0550999763579596 -0.0362665944123916 -0.09428893 -0.08950945 -0.9915128 114 114 114
0.0140493418548269 0.0528316307834675 -0.0365607863229877 -0.0561775 -0.08856127 -0.9944853 127 127 127
0.0137786618702441 0.0514953627312074 -0.0366662588280791 -0.02901882 -0.09861281 -0.9947027 102 102 102
0.022209213449259 0.0619561209558435 -0.0385311698022499 -0.1076662 -0.180552 -0.9776548 100 100 100
0.0268162836731738 0.058533422613533 -0.0387541820667101 -0.1116687 -0.1911706 -0.975184 94 94 94
0.0176064135863201 0.0570062850014486 -0.037065644530915 -0.127477 -0.1913737 -0.9732038 113 113 113
0.0193214013805947 0.0550263924588814 -0.0370131298801715 -0.1064034 -0.2200186 -0.9696753 112 112 112
0.023848452520021 0.0555541312286674 -0.0379060766264109 -0.1097485 -0.3029584 -0.9466633 90 90 90
0.0239632791911853 0.0515409119224728 -0.0355438341550016 -0.1005393 -0.3739053 -0.9220014 113 113 113
0.0347813229758906 0.0683307753423033 -0.0414915470192007 -0.195601 -0.1804147 -0.9639454 122 122 122
0.0279889699393543 0.065136971362685 -0.0397824203618681 -0.1107888 -0.2047452 -0.9725252 124 124 124
0.032841929537804 0.0621364719704649 -0.0403315926871091 -0.1840188 -0.15819 -0.9701098 133 133 133
0.0389918660997055 0.0647213772176785 -0.0423156483702131 -0.1080134 -0.2042712 -0.972937 117 117 117
0.0383645498169354 0.062690111003243 -0.0416256490830453 -0.1096517 -0.2038882 -0.9728341 107 107 107
0.0416152675763559 0.0677412890160805 -0.0429097666026677 -0.101828 -0.2099762 -0.9723893 67 67 67
0.050584927329152 0.0715359471038359 -0.0446499429988628 -0.0810426 -0.08455209 -0.9931178 195 195 195
0.0434280168460761 0.066151555789391 -0.0423525808025744 -0.1147 -0.2273366 -0.9670377 93 93 93
0.0425963445063258 0.0609803819451575 -0.0409191730563027 -0.05239336 -0.1930908 -0.979781 142 142 142
0.0495775103539836 0.0624963382394159 -0.0434990600463528 -0.1520274 -0.2098016 -0.9658524 145 145 145
0.0325554331555976 0.0609432448921845 -0.0399794440769476 -0.1819476 -0.164252 -0.9694929 123 123 123
0.0320540293173389 0.0573054521044949 -0.0390521415778906 -0.1886029 -0.2129484 -0.9586876 99 99 99
0.0389932236231193 0.059122316511504 -0.0408388139473147 -0.09682384 -0.2032033 -0.9743375 115 115 115
0.0300143311074677 0.0535097058948206 -0.0374285313559584 -0.2030102 -0.2722271 -0.9405739 93 93 93
0.0398354676857454 0.0560304162809546 -0.0406027950145044 -0.03934257 -0.1655704 -0.9854129 100 100 100
0.033952967068274 0.0535641110803216 -0.0388357004041033 -0.2479105 -0.1923038 -0.9495049 115 115 115
0.0347477167836253 0.053788267010298 -0.0392914072537794 -0.2541519 -0.1713114 -0.9518715 101 101 101
0.0351833493095368 0.0494251895368771 -0.0383100719832647 -0.2709622 -0.2401877 -0.9321423 124 124 124
0.0427184859540146 0.0563591080037162 -0.0401925861064817 -0.02493355 -0.2205502 -0.9750569 136 136 136
0.0424696214568641 0.0551331488566416 -0.0402116609218749 0.09791004 -0.1652443 -0.9813806 126 126 126
0.0491645701663495 0.0550932252645286 -0.0407454216302618 -0.1184269 -0.3588 -0.9258713 150 150 150
0.0525657314097284 0.0536496825542472 -0.0408963394252116 -0.1154653 -0.4256435 -0.897494 131 131 131
0.041135843630581 0.0531137016576049 -0.0403815662719917 0.04943001 -0.1735917 -0.9835764 123 123 123
0.0424842536146591 0.047178493846064 -0.039032741086328 0.09845385 -0.1953587 -0.9757776 128 128 128
0.0482046508280214 0.0519584602345085 -0.0388442109595516 0.03969747 -0.4403447 -0.8969508 128 128 128
0.0262587039016164 -0.0385854640321347 -0.025525290729346 0.01905948 0.1626335 -0.9865025 125 125 125
0.0554388017653041 0.122412343217763 -0.0486946409645566 0.1060178 0.6066093 -0.7878993 160 160 160
0.0590325437191893 0.123027539546428 -0.0474107498096139 0.1502581 0.6853384 -0.7125543 132 132 132
0.0554985627266588 0.117061014007537 -0.0491587044437168 -0.1151341 -0.04419202 -0.9923665 146 146 146
0.103912891264105 -0.0854304841771427 -0.00152365462855431 0.9999395 -0.006060662 -0.009182463 37 37 37
0.0576772362854002 0.120602884270906 -0.0497740046748302 0.04182826 0.3347209 -0.9413885 204 204 204
0.0572886869300707 0.116057719726106 -0.0493174473524414 -0.106455 -0.1074157 -0.9884984 146 146 146
0.0639582869102011 0.119354191796491 -0.0491878068116641 0.09231369 0.3446954 -0.9341645 131 131 131
0.0665778021896573 0.11942584847567 -0.0490735299322512 0.1767924 0.4549428 -0.8727952 143 143 143
0.00634741654762527 -0.00124610659282665 -0.0235082642135182 0.05151998 0.06332069 -0.9966625 147 147 147
0.06379144072458 0.118067705017904 -0.0495990092330427 0.04285931 0.2244866 -0.9735342 202 202 202
0.0654376008578079 0.114319243576929 -0.0492532237447242 0.09091376 -0.08493882 -0.9922299 152 152 152
0.0712105889344913 0.11807526471423 -0.0488265606165733 0.2416006 0.3592471 -0.901427 132 132 132
0.0712730832951172 0.11508414421353 -0.0483325199019887 0.1146034 0.1156759 -0.9866535 101 101 101
0.0542046436605906 0.112152632118609 -0.0478959031111274 -0.1394849 -0.1933744 -0.9711593 130 130 130
0.0106952136485773 -0.142130706938266 -0.0236386198544638 -0.1267954 -0.9576139 -0.2586476 170 170 170
0.061514239675194 0.113721021880614 -0.0492514721746276 -0.02247253 -0.1294872 -0.9913264 111 111 111
-0.11640078992702 0.0460846701722302 -0.0419486240138885 -0.9570276 0.2312481 0.1749928 125 125 125
0.0533927766848953 0.102429829729375 -0.0464024346587772 -0.1209707 -0.1799137 -0.9762157 103 103 103
0.0657535131383867 0.110531775063575 -0.0487017445911728 0.05329948 -0.1147587 -0.9919625 136 136 136
0.0718072437919399 -0.112839530881072 -0.0341406074566555 0.3048824 0.1307101 -0.9433777 112 112 112
0.0641493338931483 0.106467468883643 -0.0478124073580876 -0.02047686 -0.1789061 -0.9836531 129 129 129
0.0616446459645449 0.10444970488856 -0.0476192257035431 -0.06176794 -0.2142454 -0.9748249 121 121 121
0.068194829308896 0.10692731475162 -0.048356887982931 0.01159715 -0.1271367 -0.9918174 131 131 131
0.0748127121001577 0.108092543814682 -0.0483502958836393 -0.009331917 -0.03189487 -0.9994476 102 102 102
0.0702308229331581 0.104581254749972 -0.0480934195636276 -0.0336313 -0.1380906 -0.9898484 138 138 138
0.0760128031863514 0.103309952881455 -0.0478512414691097 -0.07380012 -0.038036 -0.9965475 56 56 56
0.0734350402859997 0.102343401565842 -0.0473359155673074 -0.1004423 -0.07189601 -0.9923418 40 40 40
0.0781840401508648 0.122144281973561 -0.0434043800649432 0.004481129 0.4473582 -0.8943437 99 99 99
0.0828716724321011 0.124608085661676 -0.0428523266183866 -0.02285578 0.3473071 -0.9374729 149 149 149
0.0864185595899776 0.121239800236034 -0.043699412840281 -0.02116398 0.3737026 -0.9273071 163 163 163
0.0683938289550557 0.0234562106845264 -0.0202334024497174 -0.1696301 -0.4833972 -0.8588089 147 147 147
0.0809132713514274 0.114500887332859 -0.0468311620112463 0.06251665 0.325765 -0.9433816 111 111 111
0.092226018979195 0.12494160553115 -0.0431666605312138 0.05731247 0.5428491 -0.8378723 140 140 140
0.0901548751048 0.123898887104252 -0.0431847888843965 0.034666 0.4975871 -0.866721 157 157 157
0.0913523442813433 0.119840645163658 -0.0452684350194842 -0.04960248 0.3104188 -0.9493049 168 168 168
0.0935262783593493 0.118622179133924 -0.0457832183813016 -0.02879147 0.2748713 -0.9610499 181 181 181
0.0916434481736624 0.116105400303423 -0.0460597371191081 -0.007591649 0.2743649 -0.9615957 139 139 139
0.0971821498936858 0.117966919473091 -0.0456351018363923 -0.02592834 0.2767279 -0.9605985 187 187 187
0.0986505300658844 0.117399797234465 -0.0462851906009693 0.008394464 0.3006331 -0.9537029 169 169 169
0.0779866631923423 0.110945795002377 -0.0481429777728661 -0.01113148 0.1090849 -0.9939701 138 138 138
0.0817930470859209 0.113722405832898 -0.0470167065799937 0.03737504 0.328522 -0.9437565 93 93 93
0.0852433608053759 0.112610628770432 -0.047433572037978 0.04318275 0.3383054 -0.9400451 92 92 92
0.0906195814543923 0.112113265536212 -0.0474412587545487 0.02144056 0.3584977 -0.9332843 124 124 124
0.0821326923682785 0.109463601951794 -0.0486042470505732 -0.01955539 0.1720681 -0.9848909 113 113 113
-0.0887733236095229 -0.12053991246149 0.000954462361731634 -0.3760566 -0.9045172 0.2010725 50 50 50
0.0884394171713321 0.105396349268889 -0.0490791574201618 -0.08076043 0.09357701 -0.9923311 128 128 128
0.0803460482985331 0.104345569884958 -0.0482514141859825 -0.08331851 -0.01071737 -0.9964653 147 147 147
0.082235528648316 0.103028913280837 -0.0485227166098131 -0.1157638 0.0251779 -0.9929576 110 110 110
0.082653075159799 0.101673569026493 -0.0484121553222356 -0.1343835 0.0354625 -0.9902946 86 86 86
0.0889358311171778 0.102338975956316 -0.0497195672270459 -0.1311852 0.09523251 -0.9867731 111 111 111
0.087943336048644 0.0977266899500233 -0.0498201077532173 -0.1666642 0.141839 -0.9757586 123 123 123
0.0931315793513111 0.112327485294722 -0.047611238822064 0.0008789485 0.3522143 -0.935919 112 112 112
0.0942938047185132 0.108405137646717 -0.0490269189711314 0.001118564 0.2688029 -0.9631945 95 95 95
0.0961904730709315 0.11278975794314 -0.0470287517971579 -0.05131911 0.3255503 -0.944131 134 134 134
0.0961737007515003 0.107451600568964 -0.049106479863508 -0.03845956 0.259842 -0.9648849 136 136 136
0.0944524569514013 0.104583348087542 -0.0498681930062571 -0.07235917 0.2004538 -0.9770274 143 143 143
0.100276320694313 0.103165732302355 -0.0503347063897417 -0.01722635 0.2144803 -0.9765764 112 112 112
0.0906746312688885 0.100935551927995 -0.0498086122148131 -0.1396064 0.1106852 -0.9840015 116 116 116
0.0948289805623979 0.100907567092702 -0.0504491937594981 -0.1227544 0.179749 -0.9760234 136 136 136
0.0233428640462535 -0.112652650695892 -0.00163722078466078 0.09873325 -0.6219236 0.7768287 57 57 57
0.0962987462887411 0.0995877917538941 -0.050721443428301 -0.1133081 0.1767653 -0.9777092 59 59 59
0.0996296195881922 0.0958512300134891 -0.0519324182662035 -0.05134069 0.1934858 -0.9797589 167 167 167
0.100101036065744 0.126915783825508 -0.0413076054864828 -0.06924002 0.2337567 -0.9698266 134 134 134
0.103409060985737 0.124421172987684 -0.0424275122507106 -0.02232884 0.2903195 -0.9566692 154 154 154
0.105761506108339 0.125085067383409 -0.0421547223816712 -0.01842209 0.2278762 -0.9735158 132 132 132
0.110731655638742 0.12503974847891 -0.0416776201674107 0.6221329 0.1383619 -0.7705885 150 150 150
0.101511966265595 0.121454665521618 -0.0423146179151801 0.1177278 0.4580301 -0.8811064 143 143 143
0.101205145431116 0.120660923773042 -0.0448050780646838 0.1525674 0.499651 -0.8526852 168 168 168
0.104831056045696 0.119448674328177 -0.0439725297580818 0.1067391 0.473481 -0.8743126 139 139 139
-0.0781651118654298 -0.000995669771722829 -0.0465598469304863 0.2891364 -0.03428734 -0.9566737 100 100 100
0.102425692574342 0.00321747878294643 -0.00703966677366374 0.9925676 -0.01305842 0.1209917 150 150 150
0.108922397634646 0.117567397288078 -0.0447450293073566 0.6107639 0.1519043 -0.7771052 238 238 238
0.110989069360906 0.125943738905362 -0.0409569080147242 0.6344132 0.102145 -0.7662156 203 203 203
0.109929326518264 0.114397476822331 -0.0396516601367564 0.9593185 -0.1208092 -0.2551729 178 178 178
0.109254228843674 0.114655765804948 -0.0429881067165174 0.9009921 -0.02487846 -0.4331216 95 95 95
0.110526892931866 0.106466000655808 -0.0351676976971319 0.9813524 -0.1478515 -0.1228306 123 123 123
0.109638446998635 0.107443093230237 -0.0368892076817238 0.9808303 -0.1371674 -0.1384088 108 108 108
0.111409805043149 0.118008296244581 -0.0364133781214475 0.9863593 -0.1325068 -0.09765922 64 64 64
0.109691489828298 0.0947619687797441 -0.0276832686580156 0.9723217 -0.1845234 -0.1433231 20 20 20
0.111368929058304 0.112576795893035 -0.0314814847596341 0.9954274 -0.08030989 -0.05171572 133 133 133
0.110501346519977 0.108640905337963 -0.0315342683166723 0.9946186 -0.09429494 -0.04292269 91 91 91
0.105730256797913 0.111846687375007 -0.047187655714766 0.4220536 0.3003686 -0.8553651 242 242 242
0.109317048744743 0.108183718286748 -0.0429211215395554 0.969381 -0.1123289 -0.2183638 55 55 55
0.108285439476543 0.104730790330193 -0.0447324784788837 0.9673828 -0.07833935 -0.2409015 110 110 110
0.106480540342102 0.105079893769409 -0.0489315153714277 0.6370834 0.1340929 -0.7590414 215 215 215
0.101496745249388 0.10228092512856 -0.0506766735398833 0.02185304 0.2121675 -0.976989 212 212 212
0.107764001379241 0.100574996939448 -0.048433536961192 0.8805985 0.0402023 -0.4721547 143 143 143
0.105262089016274 0.0992198672327742 -0.0508400149270528 0.5758669 0.1772825 -0.7980903 234 234 234
0.103469707077896 0.0947237011927327 -0.0522236908181947 0.2412661 0.2962477 -0.9241363 236 236 236
0.101985452873789 0.0938332490281741 -0.0525079945791719 0.04497366 0.2611274 -0.9642561 234 234 234
0.0581724411297198 0.0998148490673954 -0.0462665843568478 -0.07327143 -0.2171665 -0.9733807 152 152 152
0.0638352741837823 0.0988135914209651 -0.0459529679190994 -0.09735898 -0.09036646 -0.9911383 135 135 135
0.0610880465879139 0.0963954712066895 -0.0454639858552148 -0.1884745 -0.05740336 -0.980399 141 141 141
0.0631166656035135 0.0957137265216808 -0.0456573002569644 -0.1623918 0.01943588 -0.986535 191 191 191
0.0541694641356313 0.0890863603703536 -0.0445809539523965 -0.1825333 0.04966459 -0.9819445 118 118 118
0.0277450139935014 -0.0867283204183346 -0.0335196327461248 0.03562639 0.09290428 -0.9950374 203 203 203
0.0602910680882044 0.0873527737585151 -0.0460205607267491 -0.1350756 -0.02598958 -0.9904944 97 97 97
0.0645019787573546 0.0875479640467329 -0.0463089499795865 -0.1393551 -0.03364241 -0.9896708 148 148 148
0.0676735454322658 0.0971982126071067 -0.046402573735341 -0.1306051 0.03884936 -0.990673 160 160 160
0.0684672658670886 0.0947610027876198 -0.0471811131774573 -0.1502941 0.06132742 -0.9867374 169 169 169
0.0740450961932767 0.0940575122198664 -0.0482211239344297 -0.2072951 0.06678476 -0.9759962 92 92 92
0.0693326882141702 0.0911355753438172 -0.0469636147210564 -0.1745312 -0.009453435 -0.9846063 104 104 104
0.0726623581476509 0.0884552192799275 -0.0478527678353789 -0.2515358 0.0214956 -0.9676093 98 98 98
0.0565003956813258 0.0826830416463633 -0.045058809287061 -0.1504715 -0.0172218 -0.9884644 110 110 110
0.0611912093291058 0.0842061967883569 -0.0461506354064788 -0.1318332 -0.01414938 -0.9911709 90 90 90
0.0806484772055188 0.0972526767014972 -0.0487342891217323 -0.0964404 0.1550392 -0.9831898 110 110 110
0.0837500367350688 0.0972384179023071 -0.0489242649521535 -0.1540616 0.1783965 -0.9718229 92 92 92
0.0882806818732668 0.0947214990735499 -0.0503973777234371 -0.1602203 0.2552324 -0.9535124 91 91 91
0.0758025999675579 0.0884680827331119 -0.0495757954568257 -0.2162912 0.01404843 -0.9762278 120 120 120
0.0744805457238296 0.0848913250847845 -0.0486369626290098 -0.2279277 0.0001512247 -0.9736781 136 136 136
0.0594697585304286 0.0799849241369077 -0.0459717767157897 -0.1656421 -0.01606316 -0.9860551 112 112 112
0.0550249546745932 0.0763419305561226 -0.0449959874251394 -0.09818079 0.01689097 -0.9950252 165 165 165
0.0562585133109857 0.0747407083093101 -0.0449697847472875 -0.1044617 -0.008544607 -0.9944922 171 171 171
0.061314315336245 0.0765190047709641 -0.0456908194660879 -0.1490344 -0.0252147 -0.9885105 168 168 168
0.0630774493309453 0.0723926988105035 -0.0458608036279973 -0.1797247 -0.01645595 -0.9835793 156 156 156
0.0654855751880318 0.0818197593371683 -0.0466312935559697 -0.1732269 0.02065597 -0.9846653 117 117 117
0.0667663940807182 0.080091986958716 -0.047064150669246 -0.1983362 0.01001596 -0.9800829 135 135 135
0.066755445817153 0.0782637203968846 -0.0468074752519603 -0.2151304 -0.005927541 -0.9765673 159 159 159
-0.0605137087645409 -0.134525721686227 -0.0512926475779085 0.3834867 0.359728 -0.8506078 113 113 113
0.073408887097705 0.082008325939416 -0.0481348331733794 -0.2258275 0.01082753 -0.9741071 98 98 98
0.0722963215289422 0.0780507406869844 -0.0483063938023291 -0.2206935 0.03123479 -0.974843 95 95 95
0.0771862879447442 0.0776126360177656 -0.0491633002251172 -0.19286 0.04517362 -0.9801859 140 140 140
0.0711774126869159 0.0744744377037951 -0.0480754259120532 -0.2410842 0.04079827 -0.9696463 106 106 106
0.0729893047973934 0.0756057305390081 -0.0483377657819239 -0.2265692 0.04851067 -0.9727862 130 130 130
0.07605779543686 0.0684860571235022 -0.0485865610846012 -0.07368124 -0.1823148 -0.9804756 153 153 153
0.0869997037374864 0.0922760118546209 -0.0504958997116476 -0.1650445 0.2206505 -0.9612875 138 138 138
-0.040987601625013 -0.0992186488480604 0.0200343857682793 0.03641198 -0.6502495 0.7588477 93 93 93
0.0893096251613766 0.0903961135411691 -0.0518676550564646 -0.1469342 0.1221063 -0.9815806 146 146 146
0.0788897675197514 0.088565034266729 -0.0494929801230387 -0.2182769 0.02003158 -0.9756812 142 142 142
0.0804283521354092 0.084678579872888 -0.0494943582903255 -0.2240586 -0.04574816 -0.9735013 121 121 121
0.0840983814167844 0.0864042787075441 -0.050954800704399 -0.2369161 -0.02737416 -0.9711444 162 162 162
0.0895859742609598 0.0840319941165732 -0.0515527969491805 -0.1273016 0.003391659 -0.9918582 172 172 172
0.0898268890792835 0.0943593457623186 -0.0510951487058862 -0.1628838 0.2409859 -0.9567626 124 124 124
0.0933135486610345 0.094775942207505 -0.0512640805224613 -0.1524972 0.2101805 -0.965696 139 139 139
0.0957249769200609 0.092448077402461 -0.0521665850189154 -0.1181875 0.1900804 -0.9746287 140 140 140
0.0974621378298687 0.0912694920757338 -0.0525036331891856 -0.1273471 0.1532902 -0.9799412 140 140 140
0.0993052073570659 0.088214643914873 -0.0535005673629201 -0.2052398 0.1633075 -0.9649909 170 170 170
0.0919166919053546 0.084043228433212 -0.0518805623379722 -0.1517329 0.007377662 -0.988394 189 189 189
0.0931412304622447 0.0836587601506091 -0.0516715535194766 -0.1798675 0.01701151 -0.9835438 181 181 181
0.0964836302353348 0.0861058163881463 -0.0526131671511103 -0.2653217 0.0759133 -0.9611667 148 148 148
0.0814582789437938 0.0803078450643002 -0.0498996225830989 -0.2390966 0.03226892 -0.9704595 149 149 149
0.0785688525954806 0.0775077700458673 -0.0493066009609438 -0.2023672 0.05288528 -0.9778807 210 210 210
0.0794084177540657 0.0757266699420025 -0.049873180285765 -0.2195183 0.005158811 -0.9755948 210 210 210
0.0865062760005965 0.0775107503104475 -0.0515347539568635 -0.1786216 -0.01226497 -0.9838414 217 217 217
0.085886029552364 0.0760551168449959 -0.0513037692760928 -0.1531955 -0.06500749 -0.9860554 198 198 198
-0.0694521818336579 -0.0794713956706941 -0.0492565402842499 0.4855838 0.01951729 -0.8739722 120 120 120
0.0966085651188405 0.061832576997169 -0.0448093601940951 -0.06444392 -0.5331692 -0.8435506 178 178 178
0.103826286560911 0.0601988609446158 0.0183924561963044 0.9928055 0.09934661 0.06683917 78 78 78
0.083718514158546 0.0720451213495894 -0.0507526733367697 -0.1206852 -0.1872414 -0.9748722 208 208 208
0.081998307172774 0.0676748476448021 -0.0490028564094175 -0.0959491 -0.2747388 -0.9567196 216 216 216
0.0876104003183732 0.0686705558816909 -0.0492777660105265 0.2503623 -0.4080765 -0.8779478 201 201 201
0.092170497411139 0.0755532644214854 -0.0516813944506528 0.006756127 -0.2762773 -0.9610542 164 164 164
0.0980657800943507 0.0764833145260904 -0.0520619689104869 -0.1011889 -0.3876365 -0.9162416 102 102 102
0.0966725124650535 0.0745327845140151 -0.0506693923371024 -0.1340883 -0.4326532 -0.8915333 143 143 143
0.0916340065612443 0.0724239257749333 -0.0490897369994653 0.05526417 -0.4457323 -0.8934588 160 160 160
0.0965508599826718 0.0699471632364415 -0.0487921531927959 -0.1384646 -0.3800212 -0.9145553 77 77 77
0.102195367188489 0.0688963406796843 -0.0492948429781579 0.2870869 -0.4098051 -0.8658181 173 173 173
0.0551277308805815 0.0690031158978155 -0.0447180458226158 -0.09201412 -0.1163255 -0.9889397 171 171 171
0.0572294464635822 0.067047931748337 -0.0446916173954413 -0.1540735 -0.1390325 -0.9782287 151 151 151
0.0589374997442858 0.0642405872475742 -0.0445800486625713 -0.2227224 -0.1941265 -0.9553584 158 158 158
0.0620387007088613 0.0641148490257506 -0.0454477954486008 -0.2699629 -0.1193312 -0.9554476 148 148 148
0.0636157561575285 0.0642478796921166 -0.045713889287515 -0.2653847 -0.07127055 -0.9615048 147 147 147
0.055139697643638 0.0600282194262822 -0.0423928595341808 -0.1389896 -0.2643462 -0.9543599 117 117 117
0.0652137569554301 0.0624876492330797 -0.045951892322928 -0.2395878 -0.1378042 -0.9610451 118 118 118
0.067898384052816 0.0680030693119063 -0.0474952944514676 -0.2559221 -0.027757 -0.9662988 158 158 158
0.0531921823371361 0.0585722462238254 -0.0418759183570928 -0.05037405 -0.2911433 -0.9553523 125 125 125
0.0539187393422434 0.0489477092929067 -0.036990808962543 -0.005403392 -0.5914937 -0.8062915 93 93 93
0.0620760292206695 0.0581527917240388 -0.0445206170936051 -0.2842891 -0.2664394 -0.9209722 139 139 139
-0.087278952525234 -0.11004480034526 0.0145459485829248 0.03582364 -0.6290963 0.7765015 77 77 77
-0.10983062603381 -0.106304096192367 -0.0091777606970587 -0.9962119 0.05187102 0.06979407 20 20 20
-0.0492528893119561 -0.122662891804689 -0.04783266510018 0.3468381 0.1301503 -0.928851 108 108 108
0.0774707065474322 0.0644505074004869 -0.0476067792998182 -0.08279641 -0.1753268 -0.9810225 129 129 129
0.0720008596365698 0.0615371848024626 -0.0466598718742396 -0.03967464 -0.2517942 -0.9669672 130 130 130
0.0718065230214105 0.0582168201956028 -0.045955083406758 -0.01982244 -0.3855333 -0.922481 154 154 154
0.0744186076710733 0.0608604219203366 -0.0466506465064193 -0.01053798 -0.2739806 -0.9616775 149 149 149
-0.112203954831673 0.0128624702083491 -0.0553298619591081 -0.05207835 0.180696 -0.9821593 196 196 196
0.0777801117152029 0.0569751582145344 -0.0454806742239327 0.0476473 -0.4855897 -0.8728874 143 143 143
0.0568381866919038 0.0531872469284269 -0.0410745892571485 -0.1989233 -0.4200675 -0.8854224 117 117 117
0.0645096049788804 0.0561163270055103 -0.0444421712350441 -0.173701 -0.3696662 -0.9127842 164 164 164
0.0646760090868295 0.0536110583747067 -0.0435131169434651 -0.137402 -0.4292147 -0.89269 92 92 92
0.0634645159894853 0.051037221037024 -0.0413875786023294 -0.1949286 -0.5464575 -0.8144857 114 114 114
0.0645732403204918 0.0474350018319083 -0.0382111807121793 -0.1238472 -0.7548828 -0.6440604 70 70 70
0.0684093691685568 0.0564431100841869 -0.0446172565526899 -0.02627342 -0.4197153 -0.9072754 99 99 99
0.0715289544335526 0.0541615078742137 -0.0436045915700028 0.02142433 -0.4653088 -0.8848891 106 106 106
0.0701848458283995 0.0510077460760463 -0.0424360783854626 0.05109895 -0.5104488 -0.8583885 96 96 96
0.0726734816120405 0.0507318236894252 -0.0417214730992741 0.01001832 -0.5074423 -0.8616275 162 162 162
0.0709365065504056 0.0491748240679042 -0.0411902248723947 0.01100314 -0.6106893 -0.7917938 115 115 115
0.0738491653478842 0.0492459425880736 -0.0406337727408023 0.0007835975 -0.5692726 -0.8221485 145 145 145
0.0730080037174298 0.0476926260669825 -0.0387271451114668 -0.02327898 -0.6327607 -0.7739974 107 107 107
0.0808053989590662 0.0655686905503847 -0.048411938141973 -0.08202234 -0.2218214 -0.9716314 201 201 201
0.0795323510291351 0.0622296495609411 -0.0478683090687439 -0.04166931 -0.2860348 -0.9573128 184 184 184
0.0877415973034144 0.0644030157381261 -0.0465238124004359 0.2815911 -0.3608499 -0.8890972 178 178 178
0.0846546903025293 0.0641281066989072 -0.0480349277399746 0.1925593 -0.369714 -0.9089733 241 241 241
0.0789356391603044 0.0575673602886271 -0.0450487027041393 0.07371075 -0.4965725 -0.8648598 98 98 98
0.0831002012874243 0.0565666772663891 -0.0437164164515519 0.2063277 -0.5739337 -0.7924829 159 159 159
0.0894234345507769 0.0611286605818075 -0.0446957662548018 0.2087639 -0.4482955 -0.8691655 137 137 137
0.0874750949644561 0.0590095244900173 -0.0450300239073164 0.2437159 -0.4972943 -0.832647 151 151 151
0.0881623223821907 0.05736513462406 -0.0437864036855719 0.1864748 -0.5708276 -0.7996143 190 190 190
0.0934100475209766 0.0631337208455873 -0.0453204662245396 0.02010742 -0.4586907 -0.8883685 118 118 118
0.101722415379242 0.0658468483595749 -0.0468298776929843 0.2903507 -0.3911818 -0.8733117 212 212 212
0.0921193698915684 0.0608683531875831 -0.0443517418390613 0.1147853 -0.4800576 -0.8696948 124 124 124
0.095252189610843 0.0584537343456542 -0.0425924920996163 0.05327017 -0.5234905 -0.8503646 115 115 115
0.0979249587626972 0.060084455168484 -0.0433030092280709 0.001385838 -0.587016 -0.8095742 164 164 164
0.107214586908471 -0.0221863409525676 0.0561998006681514 0.9261123 -0.2572355 -0.2759455 38 38 38
0.0790467697836497 0.0529019198844345 -0.0430992109297572 0.1305855 -0.4969332 -0.8579072 125 125 125
0.0822955796173869 0.0551223432222585 -0.0435130476665466 0.2317293 -0.5511633 -0.8015738 168 168 168
0.108911707266655 0.0715894951677745 -0.00407947123527208 0.9859058 -0.01680934 0.1664548 65 65 65
0.0897060024042123 0.0561659733513249 -0.0420973167222756 0.1440991 -0.5607448 -0.8153531 185 185 185
0.087666015546378 0.0531550900984108 -0.0404976295467874 0.1724799 -0.5799614 -0.7961755 159 159 159
0.0816551556884849 0.0501565229507046 -0.0405765147433823 0.3068078 -0.527267 -0.7923751 146 146 146
-0.0469158574682652 -0.141136495761863 -0.0478412961805508 0.1845344 -0.6752513 -0.7141308 182 182 182
0.0850804454416987 0.0467916785219717 -0.0359144612301521 0.3324408 -0.4029295 -0.8527197 144 144 144
0.0906769517919168 0.0561720263830168 -0.0410078793629707 0.1399198 -0.5629317 -0.8145737 187 187 187
0.0956794573404766 0.0558386629465255 -0.0411861630275709 0.07351576 -0.5731843 -0.8161221 134 134 134
0.0947431731298632 0.0532683107220187 -0.039717634192228 0.09530947 -0.5531998 -0.8275785 124 124 124
0.101186083181969 0.0544858863224114 -0.0388879111314644 0.2295704 -0.6176112 -0.7522326 130 130 130
0.0900900340996538 0.0507041858995831 -0.0383262007996611 0.07760821 -0.5502457 -0.8313884 149 149 149
0.0916889827013463 0.0481020612108245 -0.0370005287822801 0.00909507 -0.5306975 -0.8475125 88 88 88
0.100334865118943 0.0518167219856795 -0.0372113932137903 0.2805794 -0.516529 -0.8089951 155 155 155
0.10096115196311 0.0502854294062136 -0.0353870904149874 0.4493266 -0.4489374 -0.7723735 141 141 141
0.100181140610798 0.0480023667815606 -0.0363077353890569 0.3005954 -0.4482864 -0.8418323 121 121 121
0.109879386891776 0.102949711292798 -0.0305618713856194 0.9865491 -0.09963327 -0.1295915 56 56 56
0.10917260322966 0.0944092161663626 -0.0299627660223632 0.982839 -0.1294047 -0.1314602 52 52 52
0.110496832590544 0.10696666244761 -0.0278234119204905 0.9970521 -0.07233105 -0.02559973 97 97 97
0.110608843233004 0.103562021964062 -0.0260507001558512 0.996453 0.008149845 -0.08375608 74 74 74
0.110340920636304 0.100718056437685 -0.0279124588870095 0.9893571 -0.07108074 -0.1269649 80 80 80
0.109209843835871 0.0921732198744893 -0.0246663879324991 0.9830867 -0.1226876 -0.1359716 71 71 71
0.109114595851774 0.0922003382708496 -0.0270588052204641 0.9862442 -0.11811 -0.1156392 72 72 72
0.108562873398764 0.0890040929087752 -0.027123004711254 0.9922933 -0.05622685 -0.11042 70 70 70
0.111115063351873 0.0994716017739925 -0.0203298012286417 0.9963264 -0.05798865 -0.06301573 67 67 67
0.110471285064816 0.0959601148159317 -0.0222545814124675 0.98252 -0.1536855 -0.1050481 88 88 88
0.110630025960731 0.0947669349960332 -0.0177065825081211 0.9908213 -0.1049697 -0.08517341 73 73 73
0.110666917203707 0.0914451293557383 -0.0169430312091843 0.9903942 -0.1053393 -0.08957091 138 138 138
0.110269097276715 0.0913752963725947 -0.0190515629487702 0.984454 -0.1112116 -0.1359493 123 123 123
0.108977423049588 0.101894413413752 -0.0374998660317498 0.9719599 -0.1806182 -0.1505688 33 33 33
0.108788442386622 0.0983325860541133 -0.0356468413728146 0.9787813 -0.1433033 -0.1464627 43 43 43
0.00573946062516295 0.0197160710185853 -0.0290729598228499 0.4812762 -0.1294082 -0.8669641 180 180 180
0.108465842708093 0.0965644412993647 -0.0328196382097038 0.9739341 -0.1216059 -0.1914793 35 35 35
0.108415395303594 0.0935059195568808 -0.0348898899224164 0.98606 -0.04879319 -0.1590749 26 26 26
0.10773725994481 0.0959199060564824 -0.0468450630406831 0.9763852 -0.07940817 -0.2009138 52 52 52
0.107213549886375 0.0898094904713724 -0.0415304943303774 0.9949623 -0.01851739 -0.09852418 52 52 52
0.108387451679646 0.0890801423163585 -0.0341567322720895 0.9945608 -0.0188826 -0.1024321 25 25 25
-0.11084872741027 0.0167574538980233 0.00147671714821351 -0.9559654 0.2180963 0.1963775 66 66 66
0.107189438393085 0.0878227156614928 -0.043941094049268 0.9966658 -0.01254756 -0.08062101 68 68 68
0.0640781605032998 -0.0268868013149244 -0.0233985385809314 -0.04787209 0.1363672 -0.989501 170 170 170
0.108088637343228 0.0852520491775943 -0.0353563172965608 0.9949176 -0.02686133 -0.09704341 126 126 126
0.107942335106587 0.0869545723290541 -0.0391358840517458 0.9901902 0.008067055 -0.139493 36 36 36
0.108418269313876 0.082686241210062 -0.0306759938233682 0.9973276 -0.03044701 -0.0664134 89 89 89
0.109330446866102 0.0806412839941717 -0.019665702553698 0.985089 -0.05573169 -0.1627686 125 125 125
0.110702800181642 0.0874726892632951 -0.0108996850726706 0.9972053 -0.05531255 -0.05022107 165 165 165
0.110139139503596 0.0877093674889029 -0.0170808518803256 0.9883662 -0.03106702 -0.1488864 146 146 146
0.109403647781431 0.0811537058256708 -0.00716428380798467 0.9827849 -0.1131788 0.1460288 69 69 69
0.111116693066451 0.0807313387462822 -0.0124364937612773 0.9977409 -0.06269863 0.02412425 154 154 154
0.110693694045678 0.0785130936181613 -0.0125640068099775 0.9980158 -0.0599018 0.01939779 142 142 142
0.108871199575884 0.0760218843938374 -0.0042042544945497 0.9806165 -0.01989979 0.1949238 78 78 78
0.108867082604361 0.0722581390812529 -0.0049397611241721 0.9841174 -0.01956648 0.1764372 99 99 99
0.110362768998525 0.0724542327034132 -0.0111565778307338 0.996776 -0.05910383 0.05426246 98 98 98
0.108435502381385 0.0629241929039024 -0.0297146354853738 0.9932432 0.05140507 -0.1040461 168 168 168
0.108931806209662 0.06945739934702 -0.00515236839320221 0.9876105 0.005412092 0.1568321 100 100 100
0.110117300682413 0.0675606803151121 -0.010614728827892 0.9970298 -0.02161162 0.07392181 70 70 70
-0.117204377999722 0.0109053597920428 -0.0508746542886465 -0.9290044 0.3338872 -0.1595936 39 39 39
0.109210405673519 0.0810152156240338 -0.021603760554291 0.9881659 -0.06075285 -0.1408451 83 83 83
0.108748792347922 0.0790765451133559 -0.0243097368409997 0.9970759 -0.02705552 -0.07146861 154 154 154
0.10880085818706 0.076700607459143 -0.0236166412867725 0.9968655 0.001459016 -0.07910166 127 127 127
0.108649386077585 0.076824311963217 -0.0272533740150998 0.9984734 -0.00510194 -0.05499832 82 82 82
0.10848993357711 0.0778712638933527 -0.0312760920743161 0.9978578 0.02480751 -0.06053446 103 103 103
0.108824990113637 0.0694259662411529 -0.0250599736432618 0.9968579 0.02440219 -0.07535871 142 142 142
0.109220868168975 0.0699422556709439 -0.0212967079632124 0.9952756 0.008936325 -0.09667804 128 128 128
0.109361765775494 0.0685058642350396 -0.0210313595276077 0.9967631 0.009695427 -0.07980791 142 142 142
0.109021206301326 0.0661917605509406 -0.0209336208065211 0.9962937 0.0477413 -0.07155107 98 98 98
-0.0279933922525255 -0.126296959153621 0.000580936024815737 0.1528656 -0.5456258 0.8239688 125 125 125
0.110218084316321 0.0736613562647797 -0.015563196130525 0.990573 -0.0383908 -0.1314958 177 177 177
0.109695116991551 0.0705969685230896 -0.0153022374691505 0.9936078 -0.03833427 -0.1061792 93 93 93
0.1105098004013 0.0625336422408549 -0.0134824918203418 0.9999465 0.0007097027 0.01031911 177 177 177
0.107242209025078 0.0908418980848158 -0.0482200350056683 0.9885736 -0.04669254 -0.143325 31 31 31
0.108697086672992 0.0574068039396209 -0.0251699822980701 0.9966691 0.01204955 -0.08065747 88 88 88
0.106780653519995 0.0887261861226798 -0.0500797812591173 0.931685 -0.004934601 -0.3632335 48 48 48
0.106262167346578 0.084984552569739 -0.0486913906383048 0.9828839 -0.08490646 -0.1634933 20 20 20
0.107470000803509 0.0846932079058489 -0.0412774744945785 0.9921358 0.02446374 -0.1227524 103 103 103
0.107242745081331 0.0799461430193336 -0.0426984611915443 0.9904842 -0.0114639 -0.137148 87 87 87
0.107412820226357 0.0759135404185922 -0.0392684091409982 0.990045 -0.01799934 -0.1395958 124 124 124
0.106767320422262 0.0790705648712475 -0.0454776027618759 0.9833936 -0.03465488 -0.178146 69 69 69
0.10695112055278 0.0758244182046333 -0.0430635978154819 0.9855306 -0.07251512 -0.1532026 81 81 81
0.107279673376475 0.0756506179478724 -0.0405294504951141 0.9895051 -0.02600188 -0.1421391 145 145 145
0.103119025821072 0.0811494983798464 -0.0540391604762337 0.448348 -0.204253 -0.8702096 208 208 208
0.102642812111741 0.0782016233196139 -0.0531700936488588 0.4334391 -0.3279999 -0.8393728 174 174 174
0.1049814481515 0.0720736595557376 -0.0491604574483937 0.6622928 -0.3057869 -0.6840049 188 188 188
0.105276982153339 0.0702423077490832 -0.0480201172260868 0.7209192 -0.3141457 -0.6177281 154 154 154
0.104906070772148 0.0691231323026515 -0.0472912233742414 0.7068275 -0.3761723 -0.5990736 122 122 122
0.10853413939063 0.0732641453089224 -0.03191568433289 0.9975576 0.008295127 -0.06935499 49 49 49
0.108621494122352 0.0703804788520115 -0.0299266081325533 0.9977741 -0.0026287 -0.06663312 140 140 140
0.108588006482913 0.067959390404488 -0.029235877851586 0.9965181 0.0007878577 -0.08337285 177 177 177
0.108337811396505 0.0655956553861154 -0.0295616130552359 0.9960268 -0.006373863 -0.08882641 186 186 186
0.108049551588416 0.0684424780919393 -0.0378002172598729 0.9815335 -0.01096663 -0.1909754 96 96 96
0.108101002764457 0.0636056931695259 -0.0342149249128162 0.9963836 0.02273976 -0.08186921 103 103 103
0.108916933639092 0.064883958085783 -0.02672246140544 0.9941174 0.01467159 -0.1073097 142 142 142
0.109051560163311 0.0591607685242468 -0.0205886362846422 0.9965701 -0.01497899 -0.08138545 177 177 177
0.108621229312419 0.059818414299357 -0.0315869779154915 0.9963751 0.02992702 -0.07963111 140 140 140
0.109179419869019 0.0562207489557283 -0.0273633305046432 0.9943005 -0.01041459 -0.1061036 189 189 189
0.1055289574867 0.067637117792666 -0.0438715371685366 0.903688 -0.1190798 -0.4113005 94 94 94
0.103112532976748 0.061304997019894 -0.0451223143470169 0.2835529 -0.5377123 -0.7940171 138 138 138
0.107112723294292 0.0579116061422003 -0.0402333907482361 0.7742448 -0.4240257 -0.4698374 210 210 210
0.106827287007696 0.0569911349812056 -0.0388605565697157 0.7563832 -0.4626049 -0.4624728 173 173 173
0.106710853982567 0.052068442365061 -0.031944277491916 0.8116447 -0.3940727 -0.4312072 197 197 197
-0.088023428772755 -0.0678370268348872 0.0607622574376297 0.07024806 -0.4975315 0.8645968 29 29 29
-0.0179657542763496 -0.0692389216184044 -0.0296990195648422 -0.06580147 0.134078 -0.9887837 134 134 134
-0.101584565877342 -0.101108991442499 -0.0574832523436509 0.118594 -0.08663513 -0.9891561 157 157 157
-0.105571648643966 0.0400841412834552 0.0106045975117793 -0.9467161 0.1716231 0.2725327 94 94 94
-0.00809373379221495 0.0377410664238806 0.0501235343384543 0.1114156 0.629672 0.7688301 30 30 30
0.000221657918017759 -0.0811297364185725 -0.0316085720048853 0.0005664219 0.1251438 -0.9921384 166 166 166
-0.0623128728060836 -0.135292559473349 -0.0135220887490265 -0.2663006 -0.9391568 0.2169526 116 116 116
-0.0912605767142478 -0.0761168643808614 0.0537350583848895 0.1130901 -0.7357962 0.6676935 45 45 45
-0.112065821436711 -0.0399725970572666 -0.032498837351266 -0.9780541 0.08004413 0.1923618 130 130 130
0.0680897338703035 -0.0839927349493429 -0.0316960615986256 0.1610635 0.04677965 -0.9858348 108 108 108
0.091814272906352 -0.0885310962861121 -0.0272950419691801 0.2985988 -0.09804713 -0.949329 108 108 108
0.101398177889426 -0.0247640884446033 -0.00758336423547279 0.9936002 0.09664388 -0.05846941 125 125 125
-0.0505501670616653 -0.13383850394352 -0.0493535120789209 0.2316549 0.06354961 -0.9707201 177 177 177
-0.0587542336157088 0.0204036700144248 -0.0420631532775892 0.170017 0.06632246 -0.9832067 95 95 95
0.104017093220742 -0.10633949250061 -0.00787533072982022 0.782566 -0.5787615 0.2294029 93 93 93
0.103830931300852 -0.0849700361510801 -0.00773138131913198 0.9949378 0.04584632 0.08942502 38 38 38
-0.00802305114158508 -0.0417101433970833 0.0689919730396409 -0.01670303 -0.5802249 0.814285 8 8 8
0.0692805107030075 -0.130006584363358 -0.0378267076014173 0.5701876 -0.3836125 -0.7264486 97 97 97
-0.0716532449498799 -0.129678588620114 -0.00806081928331526 -0.4103733 -0.878636 0.2441157 53 53 53
-0.0856644987630217 0.0683033833480253 0.0237136044709491 -0.6360276 0.2791463 0.7194068 53 53 53
0.104845188238937 -0.0972548536123305 -0.0141995993144591 0.9931842 0.1141192 -0.02370475 72 72 72
-0.0929873111671633 -0.0825615697687517 -0.0534623210709561 0.1430865 0.1023929 -0.9843993 236 236 236
0.0368571714304496 -0.139721056513873 -0.0262774784649301 0.2648726 -0.6692765 0.6941985 101 101 101
0.0898568903858525 -0.0302857411912809 -0.0252320622504595 -0.0686256 0.2552861 -0.9644271 237 237 237
0.110004320300773 -0.0161985882585058 0.0543465326113472 0.9688874 -0.1617521 -0.1873321 48 48 48
-0.104747897448025 -0.0561187560238378 0.0102225818310843 -0.9792937 0.02439159 0.2009698 116 116 116
-0.102073839767271 -0.0382202076472151 0.0283657209576756 -0.9868109 0.1589504 0.03064392 106 106 106
-0.0239380509907589 -0.0574258892399849 0.0567977874522219 0.05584946 -0.6175417 0.7845528 29 29 29
0.0246262563328909 -0.109083293638506 -0.0351567193093584 -0.06645863 -0.04045398 -0.9969687 205 205 205
0.00743524472839918 -0.0083407547339811 -0.0252155498061195 -0.02702505 0.1484643 -0.9885485 90 90 90
-0.117272285449498 0.011696896740617 -0.0452725568353996 -0.9663768 0.249362 -0.06272507 131 131 131
-0.102267350691876 -0.0371798438223023 0.0198109860877713 -0.9808057 0.1232821 0.1510686 119 119 119
0.0897693886464522 0.0896169260233854 0.0512997363130938 -0.4327105 0.6988906 0.5694852 59 59 59
-0.0863114578667121 -0.0122238195933921 -0.0492762538418332 0.1715832 0.01576098 -0.9850435 89 89 89
-0.106406676517197 -0.0612110662060923 0.000997151756874426 -0.9993439 0.03042154 0.0196561 118 118 118
-0.104874759117478 -0.0829477700247675 0.0160240922395963 -0.9986214 0.01705797 0.04964157 110 110 110
-0.0769058023634219 -0.0423718642383809 -0.0493153409261031 0.2405214 0.07107707 -0.968038 110 110 110
-0.0619122924248375 -0.0901700309598163 -0.0430207888922487 0.4677307 0.09123985 -0.8791491 91 91 91
0.103982858357445 -0.099177281028351 -0.000257377453843188 0.9658718 -0.1391483 0.2184706 42 42 42
0.103869134309318 0.0645243268211351 0.0145766710249683 0.9811641 0.05252954 0.185897 72 72 72
-0.120628207734908 -0.0056725863834477 -0.0517718816013718 -0.9766502 0.116163 -0.1807224 180 180 180
-0.103756946525115 -0.076321794122473 0.0272495589274441 -0.9974689 0.05496725 0.04510484 31 31 31
0.0554455656583456 0.0132211178935424 -0.0221292180511307 0.2884374 -0.03112285 -0.9569928 101 101 101
0.0618687747370535 -0.134072248254435 -0.0416485116084715 0.2554138 -0.4225819 -0.8695909 142 142 142
0.0614841295722853 -0.0578961187797582 -0.0292113097656729 0.03717736 0.1221662 -0.9918131 187 187 187
-0.113436331319446 -0.0976951477982942 -0.0558533278380418 -0.4570971 -0.5917914 -0.6639617 138 138 138
0.0410304586902317 -0.0236906495640274 -0.023055427568478 0.04625622 0.1402777 -0.9890311 215 215 215
0.106591371512317 -0.0447270652986305 0.0258024022558065 0.9668081 -0.1628143 -0.19691 116 116 116
0.106902012260867 0.0517546859216307 0.0526569680931513 0.9799442 0.1128478 -0.1642398 19 19 19
-0.11099418189201 -0.0956637839545671 -0.058333534725452 -0.2303001 -0.3118699 -0.9217912 198 198 198
-0.10196433750369 0.0526457531246105 0.0127762584872483 -0.814671 0.2615767 0.5175798 77 77 77
-0.115844843788265 -0.113680250886211 -0.0226333718684486 -0.9578857 -0.1650171 0.2349985 98 98 98
-0.0023971906359373 -0.0821913639658606 0.0303618360931693 0.08012014 -0.6603449 0.7466762 53 53 53
-0.0863060568228153 0.0138324622465895 -0.0488060599396946 0.1905209 0.07408229 -0.9788839 235 235 235
-0.107959976649929 -0.044674348246649 -0.0151672808283926 -0.965129 0.08623621 0.2471628 122 122 122
-0.107598975857273 -0.0941380335607797 -0.000649418424173487 -0.9947192 0.04395183 0.09274691 61 61 61
0.0911731187909405 -0.0952301383899343 0.0133666744306979 0.003349396 -0.8329597 0.5533235 100 100 100
0.10214423093015 0.00357012709044535 0.000361499199995952 0.9944182 -0.03578863 -0.09925524 135 135 135
0.072842519257885 -0.101239282763494 -0.033396379620928 0.240779 0.07440224 -0.967724 121 121 121
-0.10478655731476 -0.0903551369284498 0.0208607920839151 -0.9995831 0.007952875 0.02775699 34 34 34
0.0336523425311655 -0.101265961027167 0.00830775646822435 0.07373209 -0.6848558 0.7249386 77 77 77
-0.11633513036755 -0.114799839424941 -0.0291793651317331 -0.9733492 -0.2226197 0.05506123 135 135 135
0.00258530035652976 -0.0480161532730354 -0.0255461582741914 -0.01600371 -0.01107772 -0.9998106 94 94 94
0.0385928173400057 0.0471675160588945 0.0502518653969973 -0.166636 0.6736017 0.7200647 45 45 45
-0.0465225539259858 -0.13979369047293 -0.0480457384496158 0.219425 -0.3985538 -0.8905097 95 95 95
-0.108029189498976 -0.0957767931080464 -0.00524052662339475 -0.992236 0.05382643 0.1121184 38 38 38
-0.0515307170479355 -0.00729188532714953 -0.0406383086729449 0.2361245 0.02959636 -0.971272 90 90 90
0.0542429572669653 -0.0375532161297525 -0.0244287508479804 -0.04725162 0.187453 -0.9811364 223 223 223
-0.0960943449794923 0.0375222212503046 0.0259979120206392 -0.7956326 0.3182305 0.5154592 82 82 82
0.0613116416351467 -0.0460508474309994 -0.0268405493842897 -0.053014 0.2284904 -0.9721016 188 188 188
-0.11181811115634 0.00958119479488362 -0.0559325622852907 0.1580925 0.1895485 -0.9690604 120 120 120
-0.104252678378641 -0.0947112148730361 0.0267434842469284 -0.8556824 -0.3457892 0.3850161 110 110 110
0.0243264527510491 -0.0744509372726513 0.0361168152479916 0.04398343 -0.720067 0.6925092 107 107 107
0.00597873708771285 -0.138303993010398 -0.0342365865685565 -0.1114425 -0.8780473 -0.4654176 194 194 194
0.0833364288288749 -0.0157649367328132 -0.0223904876142045 -0.1367936 0.1613924 -0.9773638 165 165 165
-0.042991894262938 -0.0510241967199013 -0.034953328758776 0.4577356 0.1523138 -0.8759444 122 122 122
0.105357965108846 0.0377919867415275 0.0253751156663713 0.970584 0.08984353 -0.2233713 70 70 70
0.035558584377248 -0.104151211493436 0.0048324212574124 0.0826017 -0.6743094 0.7338145 23 23 23
0.0991039957944261 -0.0223375097103882 -0.0180091065999948 0.9868405 0.1331459 -0.09174887 92 92 92
-0.10482111592001 0.0749507236947191 -0.0103232041897846 -0.9806475 0.1066804 0.1641638 96 96 96
0.0477079404760289 -0.0996423479773553 -0.0370504254997313 0.01953425 0.1784225 -0.9837601 128 128 128
-0.0178486585398765 -0.0122117111617537 -0.026351243107919 0.3562652 -0.1457525 -0.9229471 117 117 117
-0.0676017116805517 -0.118687594721048 -0.0518152729937176 0.2874278 -0.09117164 -0.9534532 110 110 110
-0.0789815949651837 0.0231543769018876 -0.0462136376634822 0.2565082 0.0688925 -0.9640837 76 76 76
-0.0984586629023187 -0.0462731080373596 -0.0532101177287211 0.2399154 -0.09402131 -0.9662301 48 48 48
-0.0128045409758711 -0.125318626442831 -0.00254536553790063 0.2065071 -0.5016794 0.8400432 168 168 168
-0.109095799505994 -0.0544062769153526 -0.0158135295135475 -0.9487502 0.1219381 0.2915547 155 155 155
-0.115325958918543 0.0240957419332071 -0.0425430673809346 -0.9847052 -0.1475824 0.09260251 108 108 108
0.103386941928666 -0.0920834039889741 0.00418162973039771 0.9919266 -0.1202148 -0.04037447 61 61 61
-0.059508958653914 -0.141024762729054 -0.0522086646486227 0.2765849 -0.4171925 -0.8657085 224 224 224
-0.0102057461566625 -0.133641432861572 -0.0384555779154786 0.07169314 -0.377696 -0.9231499 100 100 100
-0.0180934472061389 -0.117678922989927 0.00280954614863094 0.1528013 -0.4769399 0.8655519 106 106 106
0.0562788164445564 -0.0458714733199923 0.0657958930873214 -0.0634441 -0.7049424 0.7064213 18 18 18
0.0846938934006367 -0.0751174968693303 0.0386696976389204 -0.1128712 -0.7774578 0.618724 49 49 49
0.0390076483271306 -0.04600067907655 0.0646597433506177 -0.04177699 -0.7210456 0.691627 27 27 27
0.105822937941128 -0.0482557534473672 0.0433212725969028 0.9966474 0.07297796 0.03698866 35 35 35
-0.110816695198428 0.00399639611343483 0.0127498972302295 -0.9721457 0.04180102 0.2306194 123 123 123
-0.023471387074614 -0.0791970066113395 -0.030530427922579 -0.1315837 0.2108335 -0.9686253 136 136 136
-0.104881085801631 0.0374539198316333 0.0131836984924312 -0.9232727 0.1720263 0.343474 62 62 62
-0.0109805741783702 -0.0195763653933835 -0.0227464195161592 0.2385991 -0.0531125 -0.9696646 133 133 133
0.101167861719143 -0.0662919516455555 -0.0264643328044097 0.5587811 0.011778 -0.8292316 171 171 171
-0.063263329366864 -0.0142887014527879 -0.0433020041095729 0.241773 0.08628545 -0.9664888 92 92 92
0.0820534020975313 -0.11479573579934 -0.0143357832270197 0.1465397 -0.7887855 0.5969452 125 125 125
-0.106261192370837 -0.0900603042215792 0.00862577616464699 -0.9777178 0.05113657 0.2036 69 69 69
-0.075241152180369 -0.0869182942737579 0.0363708147832653 0.1165665 -0.7203063 0.6837916 83 83 83
-0.10147115227216 0.0471299946139798 0.0146800239851172 -0.8224658 0.2196107 0.5247105 107 107 107
-0.0921237762698776 -0.133244309866077 -0.0421499651534787 -0.7755261 -0.4548625 -0.4377891 99 99 99
-0.110374583497052 -0.12194748779927 -0.0220956740259829 -0.6758674 -0.5975576 0.4314258 129 129 129
0.0386642099867575 -0.069382065987687 0.040072409627969 0.06874198 -0.7398057 0.6692997 53 53 53
