ply
format ascii 1.0
comment File exported by Rhinoceros Version 7.0
element vertex 471
property float x
property float y
property float z
property float nx
property float ny
property float nz
property uchar red
property uchar green
property uchar blue
end_header
-0.0249959928184653 0.0124634435986537 -0.00650468638154338 0.007420841 -0.5512651 0.8342972 153 153 153
-0.0090538338480326 0.0346643732211033 0.00438197310094642 0.1211066 -0.7789926 0.6152266 129 129 129
0.0344730056461229 0.00144279562467498 -0.0158287160491585 0.05912594 -0.5306989 0.8454956 146 146 146
-0.0401024770742984 -0.0244553853474917 -0.00755587368879278 0.1914545 -0.9409738 -0.2791299 79 79 79
-0.00419223720480666 0.0405652601876164 0.00790878809012137 0.4709578 -0.7785049 0.4148841 109 109 109
0.0214517596154664 0.021610012550044 -0.00435796335555454 0.03350079 -0.534311 0.8446239 211 211 211
-0.00995726540309505 0.00879884134542186 -0.00946334696913691 0.05174139 -0.5513741 0.8326521 216 216 216
0.00954168523711418 -0.0103761231943146 -0.0206891125931401 0.08215261 -0.5268781 0.8459613 97 97 97
0.0362818492904182 0.0342221069252814 0.013659827661431 0.3898062 0.6855811 0.6148411 46 46 46
-0.0368477449191977 -0.00209565644422827 -0.00248428438717811 -0.2529222 -0.9098683 -0.328892 82 82 82
-0.00284495990817391 0.0412026693736115 0.0111564882088284 0.5326562 -0.8356722 0.1339005 89 89 89
-0.0306897347047341 0.0128935639985326 0.0119582367143406 0.2369689 -0.8717074 -0.4289194 77 77 77
0.00371955031595839 -0.0199434320689329 -0.0258592640018776 0.02031745 -0.5505112 0.8345805 223 223 223
0.0118382860412436 0.0239918350722197 -0.00228225254942375 0.05153639 -0.5500397 0.8335468 200 200 200
-0.0103514321462472 0.0341996900278884 0.0137680444898509 0.4605683 -0.7793519 -0.4248382 59 59 59
-0.00779158971293858 0.0329765596901996 0.024529534322749 0.4652537 -0.8031554 -0.3721295 52 52 52
-0.0375390928730504 -0.0131273927987995 -0.00801213993290233 -0.2053105 -0.9357749 -0.2866583 59 59 59
-0.0154365315039873 -0.0271926719742478 -0.028809230374281 0.04787092 -0.5544219 0.8308578 132 132 132
-0.0136020679679745 0.0260829293434922 0.0258718367023294 0.5013208 -0.8000165 -0.3296225 44 44 44
-0.013094636612994 0.00308313331861776 -0.0123450723996911 0.01526945 -0.5349998 0.8447142 208 208 208
-0.0215100308496083 -0.0129036639545599 -0.0204391156586165 0.03302908 -0.5479872 0.8358343 200 200 200
-0.0235591295169137 -0.0232857290939779 -0.026089889800378 0.04738948 -0.5316293 0.8456504 125 125 125
0.0268189046696783 0.0403045419394915 0.00575525946004658 0.05665082 -0.5319285 0.8448921 160 160 160
-0.0381886099979858 -0.0174047289280688 -0.00636685176480394 -0.2410141 -0.9265705 -0.2887546 90 90 90
0.00754598865611111 0.0383229656970552 0.032960516858982 0.6096143 -0.705594 -0.3612583 68 68 68
-0.0341665949280463 0.00813457894081648 0.00337235913449192 0.2222601 -0.8848805 -0.409374 110 110 110
-0.0315509490456112 -0.0233115535065949 -0.0258479010539059 0.02336366 -0.529931 0.8477188 134 134 134
-0.0369925811518645 0.00282127949301592 -0.010553557624004 -0.310427 -0.9485031 -0.06306208 109 109 109
0.0319751522352845 0.0351830539586817 0.00288460270550413 0.05587021 -0.5173593 0.8539425 171 171 171
0.0232964409400793 0.0259580870516949 -0.00204854366791644 0.03215586 -0.5412617 0.8402391 115 115 115
-0.0386131566557912 -0.00518553376093234 0.00152503284217805 -0.1460474 -0.9887127 -0.0334269 115 115 115
-0.0381766533195105 -0.0105087098803125 -0.00318248754888543 -0.2739924 -0.9484578 -0.1592352 113 113 113
-0.0420531729414435 -0.0270122379164611 -0.00484603733662119 0.1759112 -0.9198968 -0.3504928 82 82 82
0.0136145361934346 0.00143985565342619 -0.0148560567058124 0.01639314 -0.5370887 0.8433664 120 120 120
0.0331166585483205 -0.0213317497444545 -0.0157231547266172 0.05124784 0.837638 0.5438163 39 39 39
0.0204569308455866 -0.000914926076089673 -0.0162924903778431 0.003509569 -0.5327719 0.8462515 197 197 197
0.000330762891046721 0.0307784440091401 0.00233543748818339 0.03815117 -0.5263512 0.8494109 204 204 204
0.0114797502855293 -0.00232811959979429 -0.0162549496492204 -0.004803746 -0.5263553 0.8502511 77 77 77
-0.0231513016783556 -0.01207384228564 -0.0202997844559234 0.02955243 -0.549516 0.8349603 207 207 207
0.00809787548162033 -0.00895924160667982 -0.0198385479433006 0.07378265 -0.502989 0.8611377 125 125 125
-0.0117775173543166 0.0242962290708023 -0.000939181779135032 0.02061809 -0.534092 0.8451749 138 138 138
0.0155347472181377 0.0475879983343287 0.0102180361365471 0.05806191 -0.5363968 0.8419663 140 140 140
0.0315225119865064 -0.0107713847409422 -0.0226441929594839 0.06738997 -0.4642642 0.8831293 101 101 101
0.0160094191009157 -0.0122615516453146 -0.0221955652572593 0.05042064 -0.544744 0.8370853 112 112 112
0.000136033921294576 0.0154847319162918 -0.00612297468453231 0.06191202 -0.5570012 0.8282008 117 117 117
0.00308888411989727 0.0410109612726476 0.0224928221914975 0.7057858 -0.6205625 -0.3417143 63 63 63
-0.0061971906110565 0.024279502239409 -0.00102958238899602 0.036421 -0.53513 0.8439842 110 110 110
-0.0423851097961068 -0.0269044115424225 -0.0114705844986515 0.1263615 -0.9741361 -0.1873276 66 66 66
-0.00601973499597186 -0.0123446761852761 -0.0212475315616908 0.02773055 -0.549552 0.8349992 206 206 206
0.0333500269373586 0.0372385770960344 0.0279279622079822 0.8406691 0.4601423 0.2855599 40 40 40
-0.018590717045627 -0.000433029954786002 -0.014249026326999 0.05193736 -0.5185562 0.8534647 103 103 103
0.0110138269224613 0.0253363777818253 -0.0015905832879876 0.04800255 -0.5449789 0.8370745 217 217 217
0.0154400505570473 0.017572296845959 -0.00615166540724703 0.03270219 -0.5319398 0.8461505 187 187 187
0.0241883425359579 0.0412755788407827 0.00665171328467658 0.04449938 -0.5384756 0.8414653 162 162 162
0.00547465315708129 0.0112550523335035 -0.00896449047460672 0.02872392 -0.5340689 0.8449529 75 75 75
0.00642601048742586 -0.0046189049724934 -0.0175306891452155 0.04283524 -0.4999279 0.8650071 133 133 133
-0.00854905298998876 0.0379748823376086 0.00675160607857313 0.2839608 -0.8568284 0.4303619 110 110 110
-0.0214044133139097 -0.00886817775188165 -0.0186431797153459 0.04238201 -0.5456554 0.8369372 212 212 212
0.00483855757206841 0.0159798678154276 -0.00623534583467826 0.03305866 -0.5699168 0.8210371 113 113 113
0.00902371924689893 -0.00171235914724133 -0.0160614335382367 -0.002825121 -0.5155938 0.8568285 102 102 102
-0.00111197410413189 -0.00790774791939286 -0.0191811239364635 0.04799475 -0.5232623 0.8508191 153 153 153
0.0359206660827383 0.0179530545693291 0.0130339943990388 0.2237507 0.8584822 0.4614585 29 29 29
-0.0100062437063264 0.0294513558546023 0.0270799914955712 0.4702379 -0.8034112 -0.3652487 74 74 74
0.009723888353244 0.0465602554215865 0.0204589491713884 0.625591 -0.6450686 -0.4387738 51 51 51
0.0286291842116637 -0.0116128139046139 -0.0227202438081621 0.03919347 -0.5603046 0.8273588 85 85 85
-0.00210400573125646 -0.0296583972810545 -0.0228585481260713 -0.9866143 0.1594574 0.03413996 38 38 38
-0.0369506134455295 -0.00179910602748734 -0.00379980467016088 -0.2885925 -0.8864762 -0.3617656 83 83 83
-0.0273070606769554 0.0230604033268103 0.00185954923863614 0.4691744 -0.8779724 -0.0950781 88 88 88
-0.00227066465338277 0.0331746456562255 0.0305254244496384 0.661226 -0.6345937 -0.4000888 43 43 43
0.0374051554588739 0.0237508338007222 0.0169191820007091 0.2220008 0.8584954 0.4622784 29 29 29
0.0388315072434446 -0.00371831785670929 -0.00249017187026206 0.09813224 0.8417808 0.5308249 35 35 35
-0.0168702728126906 -0.0348727237208059 -0.00471298318238038 -0.8535714 0.5073556 0.1183475 29 29 29
-0.00580353706980974 -0.0291563435397998 -0.0234761715677097 -0.9862086 0.1653651 0.006848312 25 25 25
-0.00866612846125703 -0.0299210034473451 -0.0208075178183476 -0.9380964 0.336832 -0.08074261 27 27 27
-0.0261490095473755 0.02450746616388 0.000691637298800465 0.5090638 -0.8498862 0.1361892 82 82 82
-0.00637223260751529 -0.0324167153854713 -0.00414439014321004 -0.9075541 0.4179672 -0.04060651 33 33 33
-0.0371589029526516 -0.0125448268486822 -0.0109088338395973 -0.2143277 -0.934235 -0.2850763 77 77 77
0.0139011363468136 -0.0036620759394741 -0.0172865547038772 0.01362363 -0.5304202 0.8476254 173 173 173
0.0299790032393901 -0.0134298838037913 -0.0238916034400918 0.03540507 -0.5565147 0.830083 100 100 100
0.0277626802985198 -0.0340529757894898 -0.0166537114710851 -0.5296916 0.8048836 0.2675614 21 21 21
0.0203758607915394 -0.0255929816095977 -0.0296884398276219 0.03875261 -0.5366109 0.8429395 66 66 66
-0.027877131010988 0.0171601732339506 0.00815942986251668 0.3865784 -0.8319086 -0.398102 65 65 65
-0.0107558429631318 -0.00248318054921903 -0.0154497670685465 0.06311344 -0.5605581 0.8257065 212 212 212
0.0180709208477494 -0.0302215215720428 -0.0319717562030969 -0.1970247 -0.4828722 0.8532383 82 82 82
0.0225214922795156 -0.00961460186488861 -0.0210928806161331 0.03964057 -0.5462058 0.8367125 94 94 94
-0.0345193380395337 0.00744934179599921 -0.00873205302746675 0.1551149 -0.8275443 0.539546 154 154 154
0.0345113945737587 -0.0118661904327947 -0.0144077462062578 0.03177338 0.7860162 0.6173889 50 50 50
0.0318585053124156 0.0406072270362806 0.00618105773952989 0.1975903 -0.318359 0.9271492 177 177 177
0.0222531047490211 0.0152161623314125 -0.00767142962096694 0.04356926 -0.550123 0.8339463 189 189 189
0.0366786946268345 0.0180757296369128 0.0169578516535393 0.2111839 0.8557413 0.4723434 27 27 27
0.0242718577841168 -0.0324893201295007 -0.0327370053387868 -0.899839 0.1168499 0.4202807 58 58 58
-0.0353942643917211 0.00591899325186662 0.00251193583236838 0.1095131 -0.9052216 -0.4105859 90 90 90
-0.03536124260483 0.0022367054263347 -0.0117455376609374 -0.2097753 -0.7981809 0.5647137 100 100 100
-0.0204678608660629 0.00260779035677028 -0.0122468892225635 0.03361038 -0.5523386 0.8329421 148 148 148
0.0196949592207751 0.0383240650524828 0.00474214181625639 0.0434998 -0.5248432 0.8500867 147 147 147
0.0365726145450131 0.0259406144448721 0.0104964175377919 0.2710597 0.8300233 0.4874299 44 44 44
-0.0142859170896723 0.0184651987764183 -0.00396951857306964 0.06718674 -0.5371941 0.8407785 168 168 168
0.0356194947035617 0.00554250274159007 -0.0135086132150383 0.1998777 -0.2775342 0.9396934 109 109 109
-0.0102756987695076 0.0361956240195273 0.00779020557729045 0.3027965 -0.9519613 0.04565121 86 86 86
0.0103715580935346 0.00960890018960803 -0.00989264205905487 0.0139888 -0.5246795 0.8511849 121 121 121
0.0365350385639891 0.0248967981900926 0.0228612033316104 0.2510434 0.8746485 0.4146892 22 22 22
-0.0349081191496348 -0.0108687613238059 -0.0180188189299659 -0.08353941 -0.9267972 0.3661532 116 116 116
0.0134345977650372 0.00493123717262156 -0.0124735923145121 0.07398683 -0.5449287 0.8352118 180 180 180
-0.0136041985657349 -0.00273389509272037 -0.0153229077810725 0.06792992 -0.5323563 0.8437905 194 194 194
-0.0439965604363937 -0.034770323864337 -0.0148693918496638 -0.835368 -0.488462 -0.2521214 63 63 63
0.0110608203378249 -5.4576550772123E-05 -0.0153817421043742 -0.008998651 -0.5346542 0.845023 96 96 96
0.0367451859585191 0.0212694813657315 0.00378341224192864 0.3732806 0.6285292 0.6823581 44 44 44
-0.0322767633633498 0.0144011305200133 -0.00191432892213787 0.1153246 -0.9817166 -0.1514356 81 81 81
-0.034925265609095 0.00946428921142206 -0.000972115318461128 0.1743505 -0.912086 -0.3710809 80 80 80
-0.0234988663784428 0.0213733159922219 0.0104528216515588 0.4468983 -0.8205942 -0.3562402 67 67 67
-0.000575604773632055 -0.0115024838901695 -0.0209703459233908 0.0427741 -0.5339452 0.8444365 198 198 198
-0.00925077473496483 0.0139433957549503 -0.0066304915967114 0.04603528 -0.5410168 0.8397509 150 150 150
-0.0264998362780351 -0.011444972694714 -0.0195649628431131 0.03703529 -0.5565237 0.8300059 129 129 129
-0.00269982555367498 0.0238557076228457 -0.00160306946224691 0.03990836 -0.5429279 0.8388305 194 194 194
0.0281684310027139 0.0438054949690111 0.0283527811967365 0.8588496 0.4336484 0.2726286 30 30 30
0.0233403912693766 -0.0351404333181263 -0.014544583519326 -0.9869537 0.1490395 -0.06090563 29 29 29
-0.0110728611364395 0.0333744589808628 0.0136560005631375 0.4365869 -0.7908916 -0.4288151 66 66 66
0.0265319261843611 0.0205224006249135 -0.00516030604367727 0.04125628 -0.5444376 0.8377861 191 191 191
-0.0384568153638543 -0.00876444706631219 -0.00207028119990209 -0.2738672 -0.9542884 -0.1197103 107 107 107
0.0366886065580982 0.0215422959133085 0.0230123663492871 0.2327311 0.8775288 0.4192605 31 31 31
-0.0261795103553522 -0.0146434174699711 -0.0213822041961339 0.04004708 -0.5455059 0.8371496 203 203 203
0.00408696941352016 0.0453538611868163 0.00988347163041854 0.2799668 -0.737746 0.6142878 100 100 100
-0.0292077154289778 0.00195262349389713 -0.0122652869878503 0.05451916 -0.5362751 0.8422806 134 134 134
0.0379249194219615 0.00194405119744256 0.00851354349439622 0.461078 0.7678154 0.444822 24 24 24
0.0365579195270156 0.0156852454920475 0.000973408228177111 0.3170715 0.6323717 0.7068039 30 30 30
0.00675471732596211 0.0339980772444463 0.00335748025895317 0.01928303 -0.544103 0.8387968 143 143 143
-0.0405965070492602 -0.0254198379442681 -0.00203531618669188 0.04588981 -0.9590318 -0.2795571 65 65 65
-0.0178248957402549 -0.0348176987699739 -0.00434471639974481 -0.8497946 0.5053243 0.1499881 24 24 24
0.0293609637530889 -0.000277900587832947 -0.0165843019194878 0.04855424 -0.5482409 0.8349098 116 116 116
-0.0293723359720142 -0.0107435481762153 -0.0192171861499384 0.03671607 -0.5535349 0.8320163 128 128 128
0.00355128878415734 0.0110837298441572 -0.00904882396574984 0.03185116 -0.5302352 0.8472521 96 96 96
0.0366810950495196 0.0110804618000305 0.0043090953531147 0.3984272 0.8237092 0.4034338 37 37 37
-0.0127048268000927 0.021238855228229 -0.00215124090984591 0.042762 -0.5386619 0.8414361 139 139 139
0.00335674892500171 -0.014608302103105 -0.0230279377910857 0.04533517 -0.5421309 0.8390702 136 136 136
-0.0133593929213407 0.014407200317914 -0.00607221917628213 0.02454186 -0.5396515 0.8415307 126 126 126
0.000307152985285608 -0.00159171342274833 -0.0157910142968904 0.04859058 -0.5297178 0.846781 132 132 132
-0.0100944209061833 0.00169932448406074 -0.0133378918485491 0.01265659 -0.5580276 0.8297259 95 95 95
-0.0131671580266279 0.0242770753383265 -0.000993887399531698 0.02003454 -0.538727 0.8422421 176 176 176
-0.00253779421651945 -0.0112579051585058 -0.020916520781651 0.04012372 -0.5441238 0.8380449 217 217 217
0.0315871115821391 -0.0293050226405235 -0.00527798780959658 -0.0922786 0.9399506 0.3285992 44 44 44
0.0352411620937656 -0.0118251985620901 -0.0110573927432769 0.01140287 0.8182229 0.5747879 43 43 43
0.0394369150607168 -0.0105947988655549 0.00470258994284008 0.09997239 0.8079541 0.5807027 33 33 33
0.0286085533250815 0.0103517248877868 -0.0106374027079712 0.03090951 -0.5360291 0.8436335 104 104 104
-0.0428193695527428 -0.0274171668251453 -0.00819176278618765 0.1492477 -0.9511979 -0.2700884 86 86 86
7.78108470362859E-05 -0.0177690928532714 -0.0245589032920728 0.03741049 -0.5255997 0.849909 115 115 115
-0.00619616804059531 -0.0299830746706252 -0.0218062029040368 -0.9518915 0.282611 -0.1184631 24 24 24
0.00332482804667666 0.0382736180400544 0.0297023567046956 0.7013157 -0.6298975 -0.3337445 48 48 48
0.030067069579947 -0.0321853359476857 -0.00585838001486221 -0.27651 0.9321916 0.233583 36 36 36
0.027638996847609 0.00358769278221194 -0.0142679876529674 0.03491798 -0.5423376 0.8394347 117 117 117
0.0291369269297626 -0.0221373492026924 -0.0283426466305838 0.03079077 0.03836358 0.9987894 62 62 62
0.019741668787431 -0.0314676969283418 -0.0277110140512154 -0.9986923 0.02633991 -0.04381626 84 84 84
0.0154709732969769 0.0466837759362061 0.00975292174475369 0.0579644 -0.5341629 0.843392 157 157 157
0.00169308338179386 0.0279263114999878 0.000464736543679359 0.03479687 -0.5557928 0.8305923 212 212 212
0.0105342955213286 0.0438363542962307 0.0269234960368941 0.5748709 -0.7488788 -0.3297029 43 43 43
0.00334859268790133 0.0125243216412064 -0.00821551823228188 0.04229276 -0.5416784 0.8395212 152 152 152
0.00445988983522883 0.021780554505903 -0.0031583092701986 0.04080731 -0.5523492 0.8326134 106 106 106
0.0322459616466508 -0.023971567479903 -0.017583971640165 -0.02093543 0.8326331 0.5534292 44 44 44
-0.00936565020790825 0.0369844106463583 0.00639532314983089 0.2697608 -0.908086 0.3203262 104 104 104
-0.0271241594939466 0.0171581205069294 0.00950920856974054 0.4155214 -0.8311736 -0.3694488 67 67 67
0.0373045628289592 0.000732794371648748 -0.0158247169311551 0.1865423 0.2372933 0.9533592 62 62 62
0.00962977712891711 0.00574979197674408 -0.0118813905360144 0.05678046 -0.5483392 0.8343261 209 209 209
0.0374548438806004 -0.00879330713903115 -0.00116527032128981 -0.01305969 0.8177007 0.5754954 33 33 33
-0.0136852196612631 -0.0213801245603414 -0.0255721801578754 0.02639544 -0.5528869 0.8328381 95 95 95
0.02468675392223 -0.0265186407669284 -0.0306726602283082 0.02114676 -0.5359706 0.8439718 95 95 95
-0.00451374414924555 0.0332977377056239 0.0035104255255974 0.03407961 -0.5218732 0.852342 140 140 140
-0.0434607099408963 -0.0138003852618418 0.00592769279225853 -0.355571 -0.930476 -0.08822481 76 76 76
0.0110959205858094 -0.0311296165787628 -0.0141504902205041 -0.9583143 0.2563321 -0.1262044 41 41 41
-0.0370037258435771 0.00267523074522669 -0.00276103016267963 -0.1663917 -0.8770732 -0.4506178 66 66 66
0.00728674107791383 -0.021464867328602 -0.0271661447604403 0.003980628 -0.5410897 0.8409554 203 203 203
-0.0100006361844303 0.0299025880409114 0.0211092857932349 0.455363 -0.8042365 -0.3819008 71 71 71
-0.0382209254051467 -0.000878720425878887 0.00676148761310554 0.1719462 -0.9325645 -0.3174239 44 44 44
-0.0198531931775814 0.0088289055526406 -0.00887692376962139 0.06201497 -0.5453976 0.8358802 180 180 180
0.0377350036817692 0.00688649876445646 -0.00345418919136468 0.3967387 0.6571847 0.640864 40 40 40
-0.00476902687359537 -0.0323059678291264 -0.00437093421697037 -0.9142088 0.3950076 -0.09050537 35 35 35
-0.0293709470347787 0.00995011762929332 0.0200479802353933 0.2421913 -0.7978185 -0.5521131 68 68 68
-0.0221409078647206 0.0244295713276128 0.00640799755756689 0.627555 -0.7457523 -0.2236701 61 61 61
-0.0185139318346859 0.0259699542849627 0.00727472124920132 0.5886135 -0.7930146 -0.1570413 67 67 67
0.00752746498020684 0.015427642676803 -0.00697454329634399 0.03120596 -0.5369884 0.8430122 204 204 204
-0.0127620129706472 0.0275492750245329 0.0214127627312271 0.503323 -0.7911378 -0.3475153 74 74 74
0.0369200986749565 -0.0101907486277724 -0.00142471900660095 0.02085564 0.8292384 0.5585058 42 42 42
0.0289326311337224 0.0140091604102865 -0.00876221295425865 0.03655412 -0.5358133 0.8435448 121 121 121
0.0268388528917183 -0.0203228718467916 -0.0274728729542048 0.04667683 -0.5305714 0.8463541 157 157 157
0.00291799407879223 -0.00264586217381446 -0.0165542424266536 0.0502856 -0.5193207 0.8530987 164 164 164
0.0277114362092452 0.0413486861688551 0.00629407921439869 0.05072143 -0.5209931 0.8520526 181 181 181
0.0265127261694431 0.0482637273001996 0.0100587951266424 0.03427026 -0.5415393 0.8399766 96 96 96
-0.0379641018783072 -0.0211736284492305 -0.0158228051444023 0.07125993 -0.9307883 -0.358546 88 88 88
-0.0391859825337129 -0.0157939777203114 -0.00153026929685411 -0.3493979 -0.9276279 -0.1320136 51 51 51
-0.030303302836729 0.00865692465904966 -0.00831075442644673 0.05963968 -0.5643204 0.8233988 105 105 105
-0.0342875563602574 0.00190608450649343 -0.0118900549748479 -0.1528545 -0.7106261 0.686765 105 105 105
-0.0354643454111327 -0.0234600670085628 -0.0256896803536986 0.03947949 -0.710672 0.7024149 127 127 127
0.0372403336131626 0.0302623943232433 0.0226117713382821 0.3588405 0.8135815 0.4575136 25 25 25
0.0364862732543854 0.0346515940710133 0.0149147466675454 0.4146639 0.6780649 0.6068623 40 40 40
-0.00253016793378125 0.0413261899639966 0.00789991845239586 0.4070444 -0.7774859 0.4794065 119 119 119
-0.00559665741670656 0.0212662674721105 -0.00276984677097829 0.04650922 -0.5365519 0.8425847 158 158 158
0.0295256353065114 -0.0325199400635411 -0.0165275455870793 -0.3036947 0.8778433 0.3703523 27 27 27
-0.0294779265606855 0.0203159288522282 0.000452624161369 0.2274594 -0.9609917 -0.1573444 30 30 30
-0.0317655156120158 0.00915366142571639 0.0116206983045834 0.1977199 -0.8263419 -0.5273195 86 86 86
-0.0274876047931949 -0.00361703443606387 -0.015197731210032 0.03599955 -0.538559 0.8418184 191 191 191
0.0329883212213784 -0.018925040488986 -0.0190106193172956 0.06288923 0.8016931 0.5944183 35 35 35
0.00495051338816754 0.0418480946472793 0.00779507801903929 0.05006156 -0.543366 0.8380019 116 116 116
-0.00733702140805592 0.0195659858206989 -0.00370696522441553 0.04974755 -0.5429948 0.8382612 156 156 156
0.0220115334123769 0.0124591773373303 -0.00926786699521857 0.04004306 -0.5512861 0.8333548 110 110 110
-0.0389964398409473 -0.00173181536974198 0.0063444477009172 0.1272902 -0.9553081 -0.2668027 64 64 64
-0.0018897820550845 0.00151931731757293 -0.0138649217113471 0.05076788 -0.5334888 0.8442822 161 161 161
-0.0276561388384371 -0.0221652459176694 -0.0254839875669523 0.02560215 -0.5231339 0.8518658 121 121 121
-0.00311037344566012 -0.0184525195019546 -0.02506044616039 0.03630026 -0.5400367 0.8408583 220 220 220
-0.0224945190717487 0.00135510053824173 -0.012835502265856 0.03134639 -0.5482318 0.8357387 165 165 165
0.0170762354276008 0.0478715876628542 0.0104356869836206 0.05449398 -0.535157 0.8429931 163 163 163
0.0174468933204781 0.0220503051840213 -0.00343807674731648 0.05773509 -0.535262 0.8427106 205 205 205
0.0339042000112202 -0.0229698332143632 -0.00177189642042457 -0.04288595 0.9119005 0.4081647 42 42 42
-0.0401844152261255 -0.0276979620051928 -0.0276995160047146 0.002312595 -0.8349897 0.5502608 120 120 120
0.0124537553584836 0.0496021415815118 0.0190986620532442 0.6506278 -0.6665169 -0.3639213 56 56 56
0.02527827050895 -0.0220255959803239 -0.0284356903390888 0.0404696 -0.5323468 0.8455584 129 129 129
0.0204622587374015 0.0489015267372603 0.0361173433587486 0.9665576 -0.1544816 -0.2046997 78 78 78
-0.00108946870891291 0.0160336387949729 -0.00567727676269029 0.06075153 -0.5441377 0.8367936 94 94 94
0.00931324608704598 0.0477235979656337 0.0175912027857941 0.658804 -0.6586864 -0.3634688 66 66 66
0.021383448585877 -0.00713263244566265 -0.0195685830112901 0.04060252 -0.5526759 0.8324066 109 109 109
-0.00672011661609906 0.0317440442706851 0.0274756872386137 0.5736926 -0.719292 -0.3917854 68 68 68
0.0241381997606922 0.0481459364633031 0.0281104573233871 0.9613525 0.1894741 0.1997524 44 44 44
-0.00238939220405587 -0.0168213864648885 -0.0240626807385242 0.03960032 -0.5368665 0.8427373 145 145 145
-0.0154159464764088 0.029663329077674 0.00246256974755461 0.3492319 -0.8254352 0.4435018 71 71 71
-0.0266569101037155 -0.0260458892870237 -0.0273156991370518 0.04487773 -0.5509057 0.83336 133 133 133
0.0090920282343534 0.0201517044295616 -0.00433455832227907 0.06286111 -0.5373805 0.8409938 88 88 88
0.0290890692759858 0.039651793861801 0.00541937265642385 0.06086319 -0.5215218 0.8510644 177 177 177
-0.00115144408684653 0.0270892562323636 0.000147590708485537 0.0378283 -0.5287555 0.8479307 223 223 223
0.00355797450796347 0.0426933712028081 0.0193066153987648 0.6829616 -0.6217742 -0.383354 35 35 35
0.0179060229972476 0.0547700816215223 0.0142068504453676 0.4125965 -0.7360482 0.5366537 127 127 127
0.00143933036274735 -0.0315598633400208 -0.00599339260001179 -0.9370341 0.310474 -0.1599155 37 37 37
-0.00100524174769978 0.0110904934397387 -0.0088125973563437 0.04359926 -0.5510268 0.8333479 125 125 125
-0.0317331246779107 0.00622592704422564 -0.00934734167451294 0.07956657 -0.5771931 0.8127221 142 142 142
-0.0323703236195216 0.0114775392056757 -0.0063193722540809 0.07345226 -0.7881607 0.6110707 150 150 150
0.0113267520830549 0.0269562109259533 -0.000827399909026846 0.0476741 -0.5381651 0.84149 212 212 212
0.00904552572810013 0.0447824057527886 0.00908334504488469 0.04761508 -0.5590705 0.8277518 150 150 150
-0.0417607506820294 -0.0268293900306298 0.00148770108530445 -0.09349268 -0.9783508 -0.1846316 90 90 90
0.0263817054790589 0.0294099901782117 -0.000319192813559674 0.05979983 -0.5242594 0.8494564 181 181 181
0.0254081835453515 -0.0123748079857875 -0.0226747796527483 0.04185657 -0.5600736 0.8273848 96 96 96
-0.00856638763035411 -0.0320009681517258 -0.00472805336432718 -0.9021142 0.4308041 0.02445093 28 28 28
-0.00897126977631846 -0.012378248928785 -0.020650640608574 0.03111777 -0.5441138 0.8384342 75 75 75
-0.0135825717401521 -0.00695857263583521 -0.0181184846439845 0.05162024 -0.5347308 0.8434443 140 140 140
0.0101512150944081 -0.00474435443112742 -0.0173911168696674 0.02805752 -0.5156509 0.8563393 71 71 71
0.0202595097433602 -0.0320882439059614 -0.0252888469538385 -0.9828011 0.06290229 -0.1736237 68 68 68
0.0042944719426159 -0.0168357621994986 -0.024240419533106 0.02760451 -0.5458458 0.8374308 105 105 105
0.0370287468476098 0.0203288278796284 0.00523351318541083 0.3093675 0.7689029 0.5595356 31 31 31
-0.0149499795869836 -0.0170158663739961 -0.0232630221900784 0.01724032 -0.540158 0.841387 215 215 215
0.0281692194634982 0.0420320169308763 0.0332123294008286 0.8659552 0.4425837 0.2328978 43 43 43
0.0129366978629859 0.0379887976600115 0.00525807797774565 0.04064781 -0.5441366 0.8380114 114 114 114
0.0133619756728161 0.0440345729879458 0.0343628375846856 0.5202488 -0.7735201 -0.3619501 61 61 61
0.0214011335020787 -0.0332650983755999 -0.0187395665598661 -0.9723179 0.1124735 -0.2048111 47 47 47
0.00203865155214267 -0.030691011541338 -0.0192464323552517 -0.9218408 0.3513705 -0.1635492 27 27 27
0.000412051157754778 0.0114266210987334 -0.00862134041685951 0.06204667 -0.5547352 0.8297102 130 130 130
0.0242245448400293 0.0499810095149322 0.0248646310484335 0.9493076 0.1239469 0.2888809 40 40 40
-0.0366204017404579 -0.00888791792672416 -0.00855944960345816 -0.2133132 -0.9419476 -0.2592918 127 127 127
0.031058818408586 0.0385055944392655 0.0329061043529541 0.8477566 0.4426398 0.2921963 51 51 51
0.0341975016503926 0.0400713654401984 0.0126507513814966 0.5929064 0.436054 0.6769926 50 50 50
-0.00364097239974859 0.0268681044628954 0.000224041870611938 0.03627931 -0.5252045 0.8502023 132 132 132
-0.0423901417986601 -0.0271454779884884 -0.0100159598156716 0.1195308 -0.9693137 -0.2148102 71 71 71
-0.0147045645365966 0.0300332336338452 0.0105955694248968 0.3755859 -0.8785877 -0.2949898 85 85 85
-0.0433285463896569 -0.033979619825573 -0.0125565656488112 -0.784767 -0.5800431 -0.2183822 65 65 65
0.0119620981814648 0.00718538776126931 -0.0112824133462766 0.05075214 -0.540792 0.8396238 76 76 76
-0.014865065786954 0.0115800500572381 -0.0074290236207513 0.03557971 -0.5476484 0.8359517 111 111 111
0.0260005779149695 0.0463118044087614 0.00896177502855362 0.0251707 -0.5377414 0.842734 157 157 157
0.017698202899775 0.0184520750819794 -0.00581291374193253 0.02793809 -0.5251208 0.850569 161 161 161
0.00569879654184025 -0.00386672746886196 -0.0171931038925825 0.03944456 -0.5017607 0.8641067 116 116 116
0.0259407172070301 -0.00100325493401943 -0.0166044058942031 0.03750525 -0.555496 0.830673 108 108 108
0.0367022799432615 0.00708190780242313 0.00955637568028973 0.4252803 0.7888057 0.4437593 41 41 41
0.00577758992285693 0.030194782276306 0.00117509388013089 0.03763537 -0.5476693 0.835848 177 177 177
0.00940100806518096 0.0389864517621897 0.00585706960448847 0.04974157 -0.5463285 0.8360927 122 122 122
-0.0206989177385268 0.0186255782404988 -0.00348803850265215 0.0411035 -0.5269443 0.8489053 160 160 160
-0.0334067341433393 0.00596296334128454 0.0112807470022873 0.2593321 -0.7978085 -0.5442871 34 34 34
0.0370361857795358 0.00567131971508339 0.0145218678921462 0.412868 0.7673612 0.4906086 30 30 30
0.0382280380823414 0.00432481276951979 -0.00191831172562189 0.3767305 0.7811052 0.4979446 34 34 34
-0.0101560237862883 -0.0186126244157893 -0.0245890851095499 0.03017504 -0.5447552 0.8380521 212 212 212
0.0226687763527296 0.0466571891395885 0.00951458496057485 0.04222944 -0.5442922 0.8378322 156 156 156
0.00492562304170985 0.0290173177645487 0.000779009340705697 0.03535767 -0.5533631 0.8321893 184 184 184
-0.000889802843890397 -0.0306304712486338 -0.0194622757501986 -0.9331655 0.3198199 -0.164065 24 24 24
0.0282721739180634 -0.0172478067866642 -0.0255486612055949 0.04100445 -0.5407238 0.8402002 129 129 129
-0.0233286124771297 -0.0182452132275391 -0.0233061341023747 0.03064155 -0.5288534 0.8481599 141 141 141
0.00665373078597264 -0.0132081411441181 -0.0225724249864845 0.07154958 -0.5162374 0.8534516 200 200 200
0.00596125102139888 0.0345948904016063 0.00368317139500936 0.01974068 -0.5555341 0.8312594 193 193 193
0.0375866498509239 0.00524528511265787 0.00707057387169048 0.4505638 0.7812088 0.4320939 38 38 38
0.0337454529209795 -0.0176235431794493 -0.0155891375494904 0.0994667 0.8229248 0.5593757 26 26 26
-0.0268460375504391 0.0161308969556293 -0.00450510184743684 0.01336026 -0.644133 0.7647969 146 146 146
-0.0367344186818839 -0.00934517007046431 -0.00785205358163259 -0.2097051 -0.9424951 -0.2602436 61 61 61
0.0104277984978474 0.0483506821778299 0.0109477334042287 0.2323843 -0.681755 0.6936913 163 163 163
0.0295642408588881 0.0473178969915304 0.00943398946238523 0.0328723 -0.5204839 0.8532385 101 101 101
-0.0361080483085567 -0.0110452189638032 -0.0135608230756491 -0.134559 -0.9709622 -0.1978034 81 81 81
0.0158459269705111 -0.0146356587559338 -0.0234674012686822 0.06003726 -0.5435646 0.8372175 122 122 122
-0.00212001868662304 0.0183447897153651 -0.00430448258261266 0.03174374 -0.5269453 0.8493062 111 111 111
0.00819235493014858 0.0491417640279074 0.0123790909861978 0.4778373 -0.804259 0.3533256 125 125 125
-0.0274143051644016 0.00914202834034195 -0.00790061947673663 0.03968703 -0.5569739 0.8295812 152 152 152
-0.0374309145475085 0.000255954852152018 0.00723499541545432 0.197667 -0.9079805 -0.3694579 42 42 42
-0.0286887220221441 -0.0223099869609609 -0.0252451498715159 0.02001893 -0.529681 0.8479607 162 162 162
-0.00221007680158358 -0.00955077535960247 -0.0197634413669196 0.04163951 -0.5354671 0.843529 170 170 170
-0.0322596408229816 0.00499666433949197 0.016402107439972 0.2471702 -0.8410911 -0.4811161 56 56 56
-0.0253724432888323 -0.0359563177648251 -0.00688825910886619 -0.8799931 0.4211948 0.219561 39 39 39
0.0379289542167385 0.00469821702908957 0.00416264949012342 0.4381406 0.7862511 0.4357088 32 32 32
-0.0282498365135764 0.0168640203829894 0.00695784406968654 0.3638498 -0.8257618 -0.4309649 47 47 47
-0.0266834036613863 0.0238933212817768 0.00143963392947839 0.5443689 -0.8332098 0.09707669 102 102 102
-0.0313794113407067 -0.00658213711334987 -0.0166405531056897 0.02866743 -0.6761602 0.7361968 139 139 139
-0.0311502324679522 -0.0322603359734652 -0.019226669687799 -0.9291582 0.3634373 0.06766318 21 21 21
0.0121298657384954 0.0511441014219405 0.0141423608429837 0.5898114 -0.7949843 0.1418538 83 83 83
-0.0199941376076445 -0.0327063611943408 -0.0129178403859679 -0.8697175 0.4923655 -0.03417141 30 30 30
0.00345430122888368 0.0197311003926525 -0.00432638728357963 0.02584796 -0.5582765 0.8292522 93 93 93
0.031248194660296 -0.00804272632887837 -0.0210750177642073 0.04431724 -0.4336218 0.9000045 115 115 115
-0.0239108539939061 0.0181132742387891 0.0182503022776005 0.4703301 -0.7951444 -0.3827989 57 57 57
-0.00552145602552168 0.0370836951836994 0.00558304863992461 0.2062174 -0.7151651 0.6678421 127 127 127
-0.0267578657646164 -0.0334948556452062 -0.0125223673804398 -0.894515 0.4401026 0.0784388 38 38 38
0.012720557672663 0.0123881619467223 -0.00904360032344424 0.01911143 -0.5285272 0.8487012 133 133 133
0.0326710107475598 0.041186422772176 0.0201941468001839 0.8285254 0.4448988 0.3400158 48 48 48
-0.0326151311044107 -0.0342439859464865 -0.0135339584089356 -0.9123422 0.3956982 0.1051414 22 22 22
-0.00849389041449111 0.0225735906644993 -0.00179619602081908 0.02961705 -0.5424051 0.8395949 119 119 119
-0.00630186307602498 0.0355225199462748 0.0194984686571361 0.5646694 -0.7471609 -0.3505698 73 73 73
0.006176370225635 -0.0210077369440534 -0.0264973837696659 0.01117287 -0.5432863 0.8394731 191 191 191
0.0110052413084674 0.0416326344176037 0.0336932149982991 0.5257873 -0.7517962 -0.3979324 40 40 40
-0.0420199588685555 -0.0110723107572928 0.00415145367066901 -0.2722501 -0.9615527 -0.03600257 111 111 111
-0.0105715986611048 0.0363096775435162 0.0084073292018761 0.2974929 -0.945947 -0.1291597 81 81 81
0.0132810238373295 -0.0228414610510898 -0.0280199693756789 0.03353413 -0.5359368 0.8435918 111 111 111
-0.0366525065710048 -0.00345143450075269 -0.00572822922527554 -0.3046729 -0.8915109 -0.3352354 87 87 87
-0.0318815373121808 0.0112327986504169 0.00865576713864576 0.2264444 -0.8619513 -0.453611 75 75 75
0.0206556990444069 0.0357748313922635 0.0036420139325672 0.02145877 -0.5361906 0.8438241 148 148 148
-0.007200724932384 -0.0105817625687697 -0.0199348590493606 0.02013812 -0.5476939 0.8364364 138 138 138
-0.0393800831078446 -0.0126585051640417 -0.000648894861380131 -0.3515236 -0.9349613 -0.04773433 91 91 91
0.0308129921911782 -0.0242903375758333 -0.0234425846754434 0.06338163 0.7205111 0.6905408 52 52 52
-0.0412393180321544 -0.00650756214447346 0.00472731727276628 -0.08738048 -0.9920229 -0.09085812 97 97 97
0.036821700447542 0.0156964157733847 -0.000210967908801749 0.3184025 0.6055661 0.7293212 31 31 31
-0.00586501182287913 0.0236723822448275 -0.00129359276347245 0.03890725 -0.5370684 0.8426409 97 97 97
0.0288854060627206 0.0334862382396944 0.00209074927899595 0.04820719 -0.5144653 0.8561551 129 129 129
0.0287059945400152 0.00244822834402014 -0.0148975939550729 0.04641392 -0.5457878 0.836637 134 134 134
0.00488187795156581 0.0401382279455905 0.0260523948514428 0.6984612 -0.6484091 -0.3028492 74 74 74
0.0350114684696359 -0.0111227044056315 -0.0142292232687618 0.02057488 0.7756093 0.630878 45 45 45
-0.0166084261358148 -0.000215906846370073 -0.0141184110684134 0.04816544 -0.5131803 0.8569283 156 156 156
0.0134334552555533 0.0398034282700019 0.00621669982539448 0.02187138 -0.5459321 0.8375439 123 123 123
0.0172865395602027 0.0288144857987048 0.000411802832038635 0.05208524 -0.5427616 0.8382702 57 57 57
0.000610957489792785 0.0199934726489348 -0.00382138416712911 0.007257671 -0.5649469 0.8250953 151 151 151
-0.0207472556174517 0.00340474772729249 -0.0118703475719213 0.03305662 -0.5500089 0.8345043 130 130 130
0.00161299150395688 0.0197000808162606 -0.00394110279900221 0.006097712 -0.5674705 0.8233712 129 129 129
0.00531613225965177 -0.0221994844848632 -0.0271743866493275 -0.006987797 -0.5428776 0.8397828 207 207 207
0.0153068687319418 -0.0155019947687423 -0.0239086586587265 0.06062849 -0.5351479 0.8425799 114 114 114
-0.0109607794777422 0.0302170943949859 0.00221298590597592 0.1210516 -0.6997078 0.7040991 96 96 96
0.0188154085858576 0.0513347300702731 0.0124315847484881 0.1136396 -0.5929622 0.7971712 140 140 140
0.00570848706816784 0.0397657798133191 0.0271457013160452 0.701405 -0.639633 -0.3144847 86 86 86
0.0369160317845596 0.0336869268400528 0.026414825731563 0.6295003 0.6996412 0.3379816 42 42 42
-0.018942350143925 0.0222260252815391 0.0217918400781392 0.5391691 -0.7441404 -0.3944005 73 73 73
0.0148966989615267 0.0244876191780219 -0.00228196573412968 0.07349773 -0.539591 0.838713 199 199 199
-0.0381942626025467 -0.0274927550432008 -0.0274916398800156 -0.02858664 -0.7564906 0.6533794 86 86 86
-0.00422347055470063 -0.0308730018074899 -0.00806937910225085 -0.9089167 0.3919972 -0.1421573 35 35 35
0.0208662399490409 -0.00267760969110531 -0.0171920003041945 0.003425046 -0.5484478 0.8361778 83 83 83
0.0130662012535536 -0.0306348596990096 -0.0207990130910923 -0.9433661 0.2478387 -0.2205369 50 50 50
0.0373931460857282 -0.00777027122129015 -0.00259246088821356 0.02817947 0.8443624 0.5350309 43 43 43
-0.0389063893594903 -0.0179011941238999 -0.00211089049529505 -0.3130639 -0.9357201 -0.1625385 104 104 104
0.0305686037544657 0.0308234110021373 0.000520826625420925 0.07098806 -0.5298535 0.845113 94 94 94
-0.0376022384479757 -0.036072481476315 -0.00894434908538815 -0.9863415 0.1583835 0.04522324 34 34 34
0.0371562961123528 0.0252402685253625 0.0164255682902857 0.2322437 0.8463289 0.4793645 41 41 41
0.0280267666535248 0.0438448960883281 0.00764015804405523 0.01290582 -0.5183061 0.8550978 146 146 146
0.0106590356410319 0.00528230511458161 -0.0120913334520801 0.06338321 -0.5453126 0.835833 215 215 215
0.016623757617062 -0.00876902231032983 -0.0205574435062483 0.05671333 -0.5513391 0.8323514 122 122 122
0.0361236842256374 0.00818390247962419 0.01599342531152 0.3345503 0.8014555 0.495727 37 37 37
0.0180590916856889 0.0517906628699901 0.0225253098344857 0.8865579 -0.4124957 -0.2094333 81 81 81
0.0338530629116565 0.0352187387433451 0.0311248064458371 0.8268289 0.4835337 0.2873136 38 38 38
-0.036703803279531 -0.013754945125616 -0.0120315919250533 -0.2310729 -0.9263762 -0.2973759 89 89 89
-0.0251995296298007 0.00312107751800084 -0.0117519812685411 0.04092274 -0.5536537 0.8317409 133 133 133
0.0353986776607149 0.00885102488908551 -0.0118435101118608 0.2376105 0.01635581 0.9712228 102 102 102
0.0178172602833251 -0.0180339563466178 -0.0252217358138235 0.06218247 -0.5490492 0.8334736 120 120 120
-0.0275626948162517 0.0206430219830152 0.00403770753766215 0.3267528 -0.7914171 -0.5166155 77 77 77
-0.0368588584426979 0.00147794169151894 -0.00351819520718004 -0.2362343 -0.8696388 -0.4334993 63 63 63
-0.00859403809127146 0.00276065486433164 -0.0129376317336843 0.01181141 -0.5541093 0.8323601 176 176 176
0.0183304051588804 0.00685764396005228 -0.0118563437152465 0.03921743 -0.5685981 0.8216801 120 120 120
0.0134324508262602 0.0139421725048879 -0.00781247180934778 0.0241001 -0.5335113 0.8454495 143 143 143
0.0307811636266266 -0.0247423583704428 -0.0236750825757078 0.0350601 0.7356235 0.6764827 47 47 47
-0.0285841016211945 -0.0031961127282184 -0.0147899407682315 0.02124409 -0.5419878 0.8401178 108 108 108
-0.0098948362533462 0.017652712179193 -0.00462662574948962 0.05002223 -0.5418637 0.8389764 150 150 150
0.00961474479853486 -0.0179438040740082 -0.0252538293016045 0.05227018 -0.5302821 0.8462085 137 137 137
0.0374254619466026 -0.00510364520114537 -0.0105637509118043 0.04649888 0.7902725 0.6109887 41 41 41
-0.0194386645147437 0.00147521540599194 -0.0129753840275954 0.04211577 -0.5468909 0.8361439 153 153 153
0.00417004928521836 -0.0279147899209023 -0.0295619364238918 -0.7934781 -0.1064224 0.5992218 114 114 114
0.0340330354586733 0.0180339155520407 -0.00685440603480374 0.1301202 -0.2987728 0.9454119 117 117 117
0.0270363926421657 0.0164195395846636 -0.00740686492646551 0.03790714 -0.5425197 0.8391874 195 195 195
-0.0146972212243521 0.0236835086327473 -0.000897577791678247 0.0455223 -0.557185 0.8291396 121 121 121
-0.0315563535598846 0.015607288919017 -0.00148914084989686 0.03573799 -0.9918903 -0.1219692 82 82 82
0.0288511830864904 0.0053773536994558 -0.013377826517009 0.03179218 -0.5384683 0.8420458 131 131 131
0.035642615466648 0.0380615623054538 0.0164253995589198 0.5981429 0.5622368 0.5710645 53 53 53
0.0322970684571611 0.0340633163339518 0.00239085065960649 0.05295721 -0.5212985 0.8517297 196 196 196
-0.00441519615291464 0.010629432743508 -0.0088103855606541 0.05303426 -0.5393733 0.840395 169 169 169
-0.00301967911722878 -0.00424793284925906 -0.0169258730700196 0.04637481 -0.5313485 0.845883 213 213 213
-0.00309489486393133 0.012749920002089 -0.00763898167413328 0.06248981 -0.5436893 0.836957 134 134 134
0.0112866003959748 0.0469304367005574 0.022554714387303 0.6156926 -0.6751498 -0.4063194 64 64 64
0.00140548182250022 -0.0302874933036067 -0.0220639321890526 -0.9371368 0.3230649 -0.1319226 31 31 31
0.0302138706276605 0.0286159729039698 -0.00089428032384968 0.05416505 -0.5294566 0.8466061 112 112 112
0.03442757288839 -0.0119117637820298 -0.0165483410545618 0.08082663 0.7017794 0.7077943 48 48 48
-0.0224889123338716 0.0218538585855073 0.0131291284025956 0.470885 -0.8089792 -0.3518806 73 73 73
0.0146552502137482 0.0461706361007516 0.0316881538393628 0.5647381 -0.7703832 -0.2959404 62 62 62
-0.0109401375027449 0.027316768400495 0.000630001549538031 0.02608788 -0.5384718 0.8422396 206 206 206
-0.00948140419979637 -0.0262840654176074 -0.0287806503378979 0.006299796 -0.5094245 0.8604923 118 118 118
0.0328316242354765 -0.0209769288411926 -0.0184291599194848 0.04710027 0.83443 0.5490976 26 26 26
0.014231351828307 -0.0300131107698611 -0.0304604994761739 -0.9580394 -0.1828494 0.2207409 82 82 82
0.00485647392125044 -0.0109658073633725 -0.0211910905516606 0.07204772 -0.5245695 0.8483136 198 198 198
0.011939712802473 -0.00136868886938313 -0.015900829737474 -0.01464813 -0.5261956 0.8502374 98 98 98
0.0283272580623435 -0.0277212586947522 -0.0315504199166096 -0.1046021 -0.0462663 0.9934373 100 100 100
-0.0289495071501307 0.014687623427432 0.0149371726912337 0.4119351 -0.827406 -0.3817182 38 38 38
0.0286929388763455 0.0195143477234317 -0.00570530139724605 0.03868265 -0.5451996 0.8374133 128 128 128
0.0127388018868211 0.051315018873424 0.0150638958368362 0.5948225 -0.8009834 0.06791036 70 70 70
-0.012465367012529 0.00577375604370534 -0.0109272670652033 0.02919515 -0.554413 0.8317294 202 202 202
0.0381145335311448 -0.00399459487658071 -0.00128897738678772 0.04836712 0.835921 0.5467144 47 47 47
-0.002116753996948 0.0329881473740861 0.0312485066291876 0.6613593 -0.6363441 -0.3970769 30 30 30
-0.00452111589868087 0.0162540240315726 -0.00577718521254238 0.05609727 -0.5255859 0.8488891 163 163 163
0.0188396620061027 -0.00925358622518035 -0.0205210969587838 0.06200091 -0.5434175 0.8371698 138 138 138
0.0109136226077062 0.01116676326771 -0.0094097987101968 0.01421416 -0.5266531 0.8499615 120 120 120
0.0321159363236463 -0.0267639180068373 -0.0176176721614103 -0.08738325 0.8388106 0.5373648 53 53 53
0.0123253532165624 -0.0110285328134785 -0.0212101422703631 0.06459371 -0.5463098 0.8350888 72 72 72
0.0144718639608694 0.0466710892405993 0.0293085888783235 0.5645577 -0.7790123 -0.2727901 65 65 65
-0.0305245965336756 -0.0287644182483529 -0.0288272092939943 0.02672563 -0.5376149 0.8427668 156 156 156
0.0309943885279371 0.041758615672406 0.0247183376361673 0.8507115 0.4656739 0.2437989 61 61 61
0.0245581545490978 -0.012410204256201 -0.0227068247969507 0.04926027 -0.5546367 0.8306332 77 77 77
-0.00924738520345958 0.030304770862181 0.02311330865553 0.4450987 -0.8189792 -0.3621606 80 80 80
1.08629133146465E-05 -0.00433167877194951 -0.017385994467876 0.0483424 -0.5279526 0.8478968 143 143 143
0.0363148647333631 0.0111668457839313 0.0100538645220109 0.3289359 0.8320602 0.4466285 27 27 27
-0.0362035250668713 0.00545541912340974 0.00528665476768815 0.1790951 -0.8822016 -0.4354829 88 88 88
-0.0210551022368399 0.0246133372534081 0.00834421177267193 0.5986499 -0.7653297 -0.2364082 126 126 126
0.00410856644598168 -0.0311644059219882 -0.0148542814589953 -0.9011359 0.3863041 -0.1967825 39 39 39
0.0141459147495424 -0.0104182333887223 -0.0212473585238119 0.05095918 -0.5450448 0.8368568 108 108 108
0.00248074915239149 -0.0160716881870141 -0.0236903002546421 0.03058562 -0.5444751 0.8382192 94 94 94
-0.00268747788719814 0.0323963992537649 0.00306804796110767 0.03846515 -0.5180376 0.8544925 95 95 95
-0.0371277048903691 -0.00030144825987577 0.000390104221075063 -0.1694744 -0.9382501 -0.3016045 67 67 67
-0.0115906850908081 0.0260892931707603 0.0285341967485277 0.4864797 -0.8060381 -0.3371055 60 60 60
-0.0366054869279075 -0.0124937875399554 -0.0135748108374269 -0.2159988 -0.9343138 -0.2835529 67 67 67
-0.0323163110017708 -0.0280813295952093 -0.0283881399652072 0.02254342 -0.5344058 0.8449274 146 146 146
0.0247341370224965 0.0214906087835547 -0.00458618587616781 0.03448505 -0.5329819 0.8454236 163 163 163
0.00874531260045863 0.0431177103323924 0.00809596736478597 0.03130263 -0.5526757 0.8328084 150 150 150
-0.019310911227584 -0.0227524270206584 -0.0259159721541102 0.03836031 -0.5499008 0.8343486 105 105 105
-0.0319135956932222 -0.0339815386061201 -0.0134674550049749 -0.9126988 0.3948815 0.1051165 21 21 21
0.0155192901117127 -0.019455651308251 -0.0260909820700224 0.04065506 -0.540777 0.840183 119 119 119
0.00915616986718515 -0.0317490321102709 -0.01164790516503 -0.9672077 0.2265988 -0.1147263 39 39 39
0.000178495928779387 0.03755340319817 0.0264655446100511 0.6921433 -0.6284044 -0.3550287 52 52 52
0.00893170284720002 -0.0130326618144374 -0.0222461219781096 0.08679608 -0.5201222 0.8496701 177 177 177
0.0229490421587148 0.0101986237740613 -0.0104103294852876 0.02723757 -0.5384564 0.842213 134 134 134
-0.0394342723484895 -0.0227643841729576 -0.0226861270136311 0.1817174 -0.983341 0.004387974 63 63 63
0.0049317264171691 -0.0317809857437331 -0.00860754223340458 -0.9573222 0.2357231 -0.1672389 41 41 41
-0.0368813087591553 -0.0179745540085234 -0.0210176344912397 0.008692133 -0.9906 0.1365142 94 94 94
0.0183153521401218 -0.0334171766723483 -0.0136910205880572 -0.9893457 0.001682821 -0.1455756 45 45 45
0.0115882870801793 -0.0252395847424081 -0.029165601886942 -0.1156406 -0.5154772 0.8490645 80 80 80
-0.0207275291084774 -0.00284093758123127 -0.0155100111286421 0.03788376 -0.5524797 0.832665 114 114 114
-0.019972294982451 -7.6544346631735E-05 -0.0138404232385613 0.04415322 -0.5548507 0.8307775 166 166 166
0.008242578647633 0.00283236015761079 -0.0138753044614011 0.04702004 -0.5502166 0.8336971 196 196 196
0.033203430061048 -0.0112186962119156 -0.0223006827859728 0.09431532 0.07945136 0.9923669 98 98 98
0.018332687469524 0.00379157841500344 -0.013516721538254 0.0481196 -0.5469877 0.8357565 220 220 220
0.0347655799863134 0.0068103056330141 -0.012909487335375 0.1325085 -0.2888164 0.9481701 132 132 132
-0.0232698187492506 -0.0208914855940917 -0.0247921995154425 0.0239856 -0.5261084 0.8500792 96 96 96
0.0168501895946243 -0.0249422565092762 -0.0291340560517959 0.01017865 -0.5604097 0.828153 98 98 98
-0.0389464936777566 -0.00172631805388557 0.00900115931990393 0.2335838 -0.9220697 -0.3085871 78 78 78
0.0241381960851048 0.0519654902958151 0.0121784147145083 0.2385235 -0.4798314 0.8443153 120 120 120
0.0124861185132477 0.0358909446684392 0.00413382124764967 0.03719952 -0.529968 0.8472013 114 114 114
-0.024603042195503 0.0184049605752727 0.0159980627597832 0.4650655 -0.8089499 -0.3596026 94 94 94
0.0315479444105877 0.0418662219554911 0.00675822555662271 0.153346 -0.3082766 0.9388559 124 124 124
-0.00841554771489283 -0.0227422741799969 -0.0268601274316637 0.03809139 -0.5448836 0.8376461 106 106 106
-0.0120119534648948 -0.0203457415522756 -0.0253243426282005 0.03186958 -0.5448989 0.8378959 178 178 178
-0.0365290391488147 -0.0165048533571509 -0.0172099074484586 -0.08180482 -0.9717137 -0.2215411 57 57 57
-0.027888444447024 -0.0146497395435647 -0.0213297387366121 0.04472531 -0.5509537 0.8333364 141 141 141
0.0285246283546399 0.0448431994224019 0.0249561928286039 0.8810791 0.3772916 0.2852203 46 46 46
-0.00663439335050864 0.0125682067969984 -0.00732638617540952 0.05560244 -0.5387693 0.8406165 220 220 220
-0.00474651999153552 0.0179712740864008 -0.00459827369679437 0.04825932 -0.5234785 0.8506711 99 99 99
0.0386040658740074 -0.0122784442055003 0.00475289442643596 0.05925203 0.7859883 0.6153955 37 37 37
0.0127952042994135 -0.0147790789891187 -0.0234827785878134 0.07484875 -0.5296286 0.8449208 98 98 98
0.0371081919923961 -0.0181257666427987 0.00218035045984562 0.01120167 0.8413829 0.5403234 30 30 30
-0.00600915079337794 0.0146641009840955 -0.0064616882515947 0.05494839 -0.526603 0.8483336 215 215 215
0.0217130238831293 0.00335161307037324 -0.0141775895057162 0.03116296 -0.5349112 0.8443334 180 180 180
-0.0179544581558075 0.0252949354053528 0.0152964078513349 0.5623782 -0.7777099 -0.2808881 83 83 83
0.0220861168558484 0.0525023440159097 0.0125186419211884 0.1638652 -0.59772 0.7847796 127 127 127
0.0244558121792275 0.00605316405239698 -0.0127958854131717 0.0262286 -0.5281469 0.8487478 123 123 123
0.0186854961071905 -0.0108561630577874 -0.0214793430968922 0.05009273 -0.5389663 0.8408365 86 86 86
-0.0259254005972789 -0.00964239602847816 -0.0188158987110393 0.03866644 -0.5512069 0.8334721 115 115 115
0.0221785075522072 0.0302642512229959 0.000479269300641863 0.05477357 -0.5690021 0.8205099 128 128 128
