ply
format ascii 1.0
comment File exported by Rhinoceros Version 7.0
element vertex 473
property float x
property float y
property float z
property float nx
property float ny
property float nz
property uchar red
property uchar green
property uchar blue
end_header
0.0225816947097612 -0.0696760713452 0.0236731419858583 -0.003485254 0.113564 0.9935246 122 122 122
0.0396747721668775 -0.0935581116806883 0.00548768947231429 0.1592433 -0.9870998 0.01659811 88 88 88
0.0107761128101973 -0.0443961160944877 0.0214960820460651 -0.0379724 0.1393187 0.9895193 147 147 147
-0.139182137438928 0.0164997879968602 0.00914842545415953 -0.02865477 0.1345216 0.9904963 105 105 105
0.00477717280857393 -0.067105716454634 0.0240547075873218 0.0002789182 0.1384034 0.9903759 120 120 120
-0.0809802656471321 -0.106040552978447 0.00693132012305611 0.0754782 -0.9966902 0.03019387 76 76 76
-0.159923086636311 0.0129207891243535 0.0092120396800062 -0.01234494 0.1271361 0.9918085 121 121 121
-0.115176472177928 0.0199491342013727 0.00890985118005774 -0.01860039 0.1052801 0.9942687 78 78 78
-0.185507980884295 0.0102146260255982 0.00134991524530109 -0.9928138 0.1097814 0.04763325 39 39 39
0.0284414434613049 -0.0192376896381787 0.0174525075769552 -0.06875011 0.2375003 0.9689515 127 127 127
-0.010232865152247 -0.0733394668773975 0.0236639652053805 -0.01631662 0.09064778 0.9957494 113 113 113
-0.171282489773509 -0.105466213890899 0.00981389104853991 -0.03366408 -0.9994178 0.005538488 59 59 59
-0.16585133914656 0.00262544781768237 0.0109001221651611 -0.03116199 0.1480314 0.9884916 133 133 133
-0.179801537274892 -0.105104711091111 0.0105673665355739 -0.04532618 -0.9986503 -0.02535953 130 130 130
0.206582896444663 0.0742657033806504 0.00734838417431791 -0.01544475 0.1263268 0.9918684 98 98 98
0.130219806174019 0.00306563869814225 0.0156208520881368 0.002291176 0.1576618 0.9874905 144 144 144
-0.00351682025947975 0.0984344556264136 0.000387279501984222 -0.04538673 0.4837735 0.8740156 170 170 170
-0.161670116991319 0.00976488261037556 0.00946447013530474 -0.01021862 0.1597336 0.9871073 162 162 162
-0.171524684178084 -0.00770281316983712 0.0117614459164147 0.005287279 0.1229577 0.9923978 123 123 123
0.113598883399661 -0.0437634648592167 0.0223840774058072 -0.02415335 0.06222951 0.9977696 107 107 107
0.0784044801385546 0.0858427461329605 0.00348898227465405 -0.01482763 0.1587233 0.9872118 101 101 101
-0.0511791015117531 0.100947449833878 -0.0248291443301517 0.005865837 0.9773665 -0.2114716 74 74 74
-0.176348230327667 0.098782308683627 -0.0255125891933559 -0.9577647 0.1756385 -0.2276792 29 29 29
0.0543486830421149 -0.0902993910551395 0.0211061467435965 0.2418224 -0.8348126 0.4945805 43 43 43
-0.0539046165715851 -0.0318940141920319 0.0172048484866353 -0.04574985 0.156587 0.986604 127 127 127
-0.0370751364495463 -0.10283815424213 -0.000907044278323194 0.05705921 -0.9983098 -0.01103788 43 43 43
-0.0439436114161547 -0.05734587113401 0.0207514699365896 -0.0272899 0.1471874 0.9887321 98 98 98
-0.0150002086506908 0.0345957799148968 0.00964174864418341 -0.009612378 0.1410638 0.9899539 117 117 117
-0.124472711958422 -0.092978669114429 0.0240457528032928 -0.03357325 0.1223486 0.9919192 84 84 84
-0.129406291947305 -0.015533925472009 0.0138565864138515 -0.00718715 0.1483505 0.9889087 141 141 141
-0.149186488377601 -0.0878244744986338 0.0232113679792492 -0.01620163 0.1203585 0.9925983 114 114 114
-0.0776353525214462 -0.019205813360027 0.0151252599542196 -0.007277376 0.1518597 0.9883752 139 139 139
-0.0762216680602414 -0.0802722811181791 0.0232156258879959 -0.01849262 0.1422762 0.9896542 111 111 111
-0.171473091668247 0.0142709284257474 0.00903054674917161 -0.02301774 0.1343086 0.9906722 136 136 136
0.126622387832324 -0.000926057447742767 0.0163021634925634 0.003188827 0.1368727 0.9905835 164 164 164
-0.0692852108915969 -0.105282049522222 0.00709025492380069 0.08502862 -0.9961291 -0.02229388 57 57 57
0.0590720282893542 0.0429889561424814 0.00919099212779809 -0.02521233 0.1407692 0.9897214 112 112 112
-0.170406438850349 -0.0476724568766524 0.0172736432046648 -0.002877552 0.1275167 0.9918323 99 99 99
0.158264144348214 -0.0660159448745583 0.0220004989575544 0.3493159 -0.8108441 0.4695852 39 39 39
0.0284770618040631 -0.0496722470364783 0.0222679994368074 -0.03250501 0.08691449 0.9956853 122 122 122
-0.0713447136198522 -0.0591789203154607 0.020505565664422 -0.007938566 0.1419329 0.9898444 121 121 121
0.150582076236823 -0.0697903283341235 0.0213431466465528 0.3791219 -0.8803765 0.2849628 41 41 41
-0.0262176222615562 -0.0538369747430505 0.0214993503686882 -0.01406005 0.1370375 0.9904661 106 106 106
0.0242149409311725 -0.0964472718452258 0.00760012574408156 0.1363048 -0.9904853 -0.01897315 48 48 48
-0.185989312678672 -0.0226126640086728 -0.0107375599145588 -0.9608044 -0.02756903 -0.275853 37 37 37
-0.167691351538873 0.077960579103449 0.000183245894396417 -0.03800157 0.1505102 0.9878778 148 148 148
-0.0172338766835074 0.0704077776055718 0.00392936258896162 -0.02514479 0.157496 0.9871994 149 149 149
0.0764399992866451 -0.066793551430623 0.0263624798601458 -0.09958381 0.1707537 0.9802685 79 79 79
-0.135537437616087 0.110349674034931 -0.0191398523996821 0.05041612 0.9976745 0.0458667 63 63 63
-0.130583515284869 -0.0833983175110755 0.0230746802887832 -0.02003693 0.1231243 0.9921889 96 96 96
-0.136687010981931 -0.0278873836386406 0.0153248495045854 -0.02966886 0.1120602 0.9932584 131 131 131
0.113901055726005 -0.0791248406751228 0.0245936082886809 0.211238 -0.6316771 0.7458972 127 127 127
0.016289965303623 0.0169426438349103 0.0120014824130747 -0.05981595 0.1492565 0.9869876 125 125 125
-0.0473767934440759 0.00641264611668091 0.0118853180632131 -0.02106065 0.1436292 0.9894074 121 121 121
0.153331963680743 0.046302049640661 0.0100068792118987 -0.00495226 0.1305678 0.991427 139 139 139
0.0637870868034658 0.00231629436737846 0.016621015600497 0.03485626 0.201587 0.9788502 114 114 114
0.095644442737852 -0.0658175613556293 0.0259528491659281 0.04622368 0.1592957 0.9861482 104 104 104
0.189978684420699 0.014124853971921 0.0154504095266237 -0.01169136 0.1547337 0.987887 101 101 101
0.0978280733324026 0.00874899391615758 0.0141645175606358 -0.06285197 -0.02216361 0.9977767 164 164 164
-0.0943220015389956 -0.0256879935082348 0.0157672270745721 -0.01483171 0.1502088 0.988543 137 137 137
-0.0506749182237491 0.00129807032305229 0.0135627513510684 -0.02428371 0.130182 0.9911927 131 131 131
-0.0850766465160113 0.0987876911951802 -0.00126312074448584 -0.01966411 0.1244929 0.9920256 143 143 143
0.0338783687149427 -0.00521494984235726 0.0155285665167965 -0.1022255 0.131216 0.9860691 132 132 132
-0.049998473362288 -0.0233546914968996 0.0162597711058912 -0.01305661 0.1468471 0.989073 222 222 222
0.0818605379988995 0.102970790284135 -0.00107310274656952 -0.05770662 0.9239804 0.3780612 110 110 110
0.0608350609640025 -0.0897737775314993 0.00213324716166435 0.1980498 -0.9800577 0.01622564 38 38 38
0.144726257173142 -0.0396413582013169 0.0216340927715499 -0.00282505 0.1409377 0.9900144 132 132 132
-0.160082001995682 -0.0755029408297809 0.0214825904044651 -0.01293244 0.1239323 0.9922064 140 140 140
0.0322154928154255 -0.04095145226675 0.0203395248242254 -0.03889786 0.1914008 0.9807409 115 115 115
-0.0292914562413527 0.00105031244675868 0.0129911922211683 -0.01013433 0.1633143 0.986522 106 106 106
-0.114423183799852 0.109647595201901 -0.0162193657220144 0.07363448 0.9971023 -0.01910283 75 75 75
-0.108175948862145 0.0305866545554667 0.00788337120271157 -0.01625939 0.1356962 0.990617 124 124 124
-0.126022415918103 -0.0290742326108029 0.0155210186048817 -0.02022764 0.1378224 0.9902504 98 98 98
0.0528731055391682 -0.0483701198699764 0.0228320957288438 -0.06162645 0.1599448 0.9852004 108 108 108
-0.181420700744131 -0.0753245145796517 0.0210022454301822 -0.003300674 0.1356401 0.9907527 107 107 107
0.087557119202488 0.0377534807015476 0.0101981386658951 -0.04280125 0.136976 0.9896492 135 135 135
-0.0843033690750683 -0.0977088044540815 0.0255933752085202 -0.009260844 0.1271234 0.9918437 82 82 82
0.00156572452889359 0.0236985775678118 0.0108086374418407 -0.009072445 0.1164169 0.993159 113 113 113
-0.0518557231520305 0.0289738695402604 0.00910106546106856 -0.02351292 0.1192647 0.992584 217 217 217
-0.0204293875644519 0.0498961882287494 0.00649519270756058 -0.02378174 0.1041251 0.9942799 113 113 113
-0.135437335149254 -0.027123421617874 0.0152337890900045 -0.02544865 0.1199764 0.9924505 147 147 147
0.032345388406676 -0.086775474139019 0.0263120530019534 -0.001769332 0.150593 0.9885943 96 96 96
-0.113809070402804 -0.0729947728706044 0.0219227519602568 -0.01143335 0.1385114 0.9902948 78 78 78
-0.144693079647382 -0.0269868662326915 0.0153748139129658 -0.004936821 0.1278483 0.9917815 115 115 115
-0.0295875487359125 -0.00969327824172339 0.014869531578879 -0.008373345 0.1502706 0.9886094 98 98 98
0.0372478467033759 0.0332716840190308 0.0115015407646827 -0.05645255 0.1566184 0.9860445 208 208 208
-0.0570785322660989 0.0930199203696702 0.000219703186123382 -0.02963171 0.1374397 0.9900668 147 147 147
-0.177753250479442 -0.0677320954167837 0.0197547234837469 -0.0249722 0.1262341 0.9916861 71 71 71
0.00971906427675773 -0.0986094827796165 0.0202149503068879 0.1045558 -0.9912502 -0.08056707 65 65 65
0.0267065087785616 0.0902856227599296 0.00207781095644058 -0.04127159 0.1493362 0.9879248 142 142 142
-0.0970429928462913 0.0845960493734828 0.000648717599276843 0.01709769 0.1290458 0.9914913 124 124 124
0.135366445337401 -0.0540633922393565 0.0232170604550366 0.01194515 0.1399923 0.9900805 137 137 137
-0.143011836128531 -0.0859397192815596 0.0230566685066873 -0.009602118 0.1101333 0.9938704 148 148 148
0.0224462357650888 -0.0652283024348355 0.0232089982520025 -0.04070941 0.1193285 0.9920199 136 136 136
-0.0122399914085316 0.0166271775834208 0.0111332332546029 0.01756849 0.1153368 0.993171 96 96 96
0.103782296161492 0.037013677976977 0.0105717711629244 -0.02570698 0.1214195 0.9922683 127 127 127
-0.133759358729655 -0.0925442031773847 0.0239934086845983 -0.01644446 0.1323887 0.9910614 103 103 103
0.102118007484583 -0.042677095866934 0.0229684760660964 -0.003783306 0.1205072 0.9927052 148 148 148
0.00351229407939524 0.0631470905875673 0.00516028298698898 -0.005239585 0.1909588 0.9815841 160 160 160
-0.0817866686495374 0.00428106149205032 0.0116104176770534 -0.01016704 0.11622 0.9931715 134 134 134
0.176515891938626 0.104718894090811 -0.016394727644214 0.1954709 0.906855 -0.37337 38 38 38
-0.0246101688106108 0.00238587293073977 0.0141543355793872 -0.09121359 0.1666583 0.9817867 124 124 124
0.0538027676302473 0.102879424187211 -0.0157721546647547 -0.02288686 0.9911357 -0.1308677 113 113 113
-0.059445825124397 -0.104470082630098 0.0267626890539536 0.007963235 -0.5162988 0.8563715 112 112 112
-0.125616736149935 0.108076865352293 -0.0033065215720999 0.04668283 0.557035 0.8291759 134 134 134
-0.0121903048159919 -0.0757311354543653 0.0237305221764696 -0.003049246 0.0921501 0.9957405 151 151 151
0.14667454217971 0.024711049234343 0.0131474747977695 -0.03547892 0.1338303 0.990369 162 162 162
0.204644411795736 0.0226368110591282 -0.0111278467121732 0.9819887 -0.1840253 0.04281222 76 76 76
0.154019256702547 0.094970892186298 0.0036017441613273 -0.02942098 0.1336905 0.9905863 85 85 85
0.0886424204645637 -0.0752344363272233 0.0255220794528721 -0.03753223 0.07253455 0.9966595 98 98 98
0.169320123900461 -0.0660176767553162 0.018479568827991 0.1294553 -0.9558553 0.2637841 78 78 78
0.181586265249565 -0.0409131579430588 0.0223341865065155 -0.00426728 0.09952385 0.9950261 143 143 143
-0.0766543732408846 -0.0607034012782441 0.0208349093786876 -0.02668001 0.1158209 0.9929117 113 113 113
0.0897932492668516 0.0794684680758149 0.00440233098138476 -0.007594966 0.1255413 0.9920594 79 79 79
0.010705335494031 -0.0930527237681904 0.0267347172607501 -0.02822444 0.1591844 0.9868453 130 130 130
-0.169511030543305 -0.105402306243696 0.0141257011023009 -0.005219611 -0.9987525 0.04966148 123 123 123
-0.0478045442026946 -0.0469139618572818 0.0195903409207248 -0.01827548 0.1416232 0.9897519 117 117 117
-0.15731109036384 -0.0224976578799501 0.0141535113213793 -0.03359804 0.1305828 0.990868 88 88 88
-0.0429120527304352 -0.103094890127743 0.00933864592583036 0.08569987 -0.9960191 -0.02452581 61 61 61
0.182566707511501 -0.0458327013986559 0.0232235384412153 -0.02228855 0.1478571 0.9887576 116 116 116
0.0831750979705668 -0.0159132807473346 0.0194982624714717 -0.004752489 0.125037 0.9921407 135 135 135
-0.0576058456467938 -0.0837592550402586 0.0243210340172464 -0.02200494 0.1366196 0.9903792 73 73 73
-0.0490645306319824 0.0386818038250651 0.0078313948633939 -0.009325659 0.149622 0.9886993 115 115 115
-0.139999814618582 -0.0392687583245623 0.0164769725646203 -0.03159193 0.1144832 0.9929227 130 130 130
0.0591249983141531 0.0541400858988659 0.00744095900788674 -0.01251872 0.1338119 0.9909277 91 91 91
0.0818161816546985 -0.0607825997994329 0.0247941909859857 -0.01273094 0.1150076 0.993283 114 114 114
0.0291479615712553 -0.0130194229095173 0.0161439356507331 -0.03556645 0.1045216 0.9938865 53 53 53
0.210987174999933 0.068190398744882 -0.0167543891693011 0.9899315 -0.1121693 -0.08633491 54 54 54
-0.186569713789628 0.0718539886605918 -0.00848808445238633 -0.9049706 0.3214239 0.2787738 44 44 44
-0.107531699260508 0.0040771078838 0.0114680755652589 0.006008078 0.1433696 0.989651 97 97 97
-0.180212097549611 0.0454459593737717 -0.0144959588055389 -0.9499753 -0.2790347 -0.1403089 22 22 22
0.15060775327025 -0.0133078022845883 0.0182605449065816 0.02971124 0.1646196 0.9859095 157 157 157
0.152621308230528 0.0981678130846817 0.00267113610016356 0.006714305 0.196179 0.9805451 105 105 105
-0.0215620177742495 0.000936584253175887 0.0141877569438934 -0.04488007 0.09476526 0.9944875 139 139 139
-0.0897653995666532 -0.0812657356282056 0.0234169862289824 -0.03414248 0.1246004 0.9916194 114 114 114
0.0602916321890368 -0.0596949612979931 0.0247888113267704 0.03714021 0.1120617 0.9930069 119 119 119
-0.0609848008862901 -0.059910406950836 0.0209510042966853 -0.007458143 0.1292244 0.9915873 122 122 122
-0.0931907342404306 -0.106917010235937 0.000615950568189139 0.02714729 -0.9996313 0.0004586967 39 39 39
0.0292783055927748 -0.0334024178352124 0.020147701600915 -0.07077318 0.08130677 0.9941732 147 147 147
0.161648719190915 0.0582733240231845 0.00906530102679662 -0.02820731 0.1391092 0.9898753 159 159 159
0.0324423675577927 -0.0951159071109471 0.00277979964296535 0.1684558 -0.9856609 0.009758305 39 39 39
0.0866739870931783 -0.00698517813509336 0.0164864785859745 0.02700467 0.07185979 0.9970491 123 123 123
-0.0633857855786131 0.100307957811633 -0.00115781841074147 -0.01195088 0.1918857 0.9813445 94 94 94
0.0769709591483299 -0.0455431604712455 0.0212118929300744 -0.04501734 0.1498049 0.9876902 117 117 117
-0.165640485131531 -0.0116296072113657 0.0127508671318674 -0.04168694 0.1202844 0.9918638 164 164 164
0.0805831449169201 -0.0489686867149948 0.0225004922843415 -0.05291218 0.2278216 0.9722642 109 109 109
-0.0559046455272729 -0.0492592013384834 0.0196481210502172 -0.006406526 0.1404936 0.9900609 117 117 117
-0.0374510749071875 0.0990633186987244 -0.0235544217300181 0.1675093 0.9064641 -0.3876382 74 74 74
0.115904162567604 0.0641267224113873 0.00699061256754971 -0.02816148 0.1112393 0.9933946 49 49 49
-0.0501675872799872 0.0858141107939574 0.00169417815935693 -0.03041764 0.09901959 0.9946205 146 146 146
0.102231454048039 -0.0245998351351271 0.0204847418201785 0.05786736 0.1661348 0.9844037 108 108 108
0.0704824261019685 -0.0876468367257814 0.0113100177052465 0.1693971 -0.9848044 -0.03827473 51 51 51
-0.0379768871224631 0.0305801213537154 0.00928641477268224 -0.007891428 0.1315996 0.9912716 224 224 224
-0.0133657479041791 -0.102838119938186 0.0253826600779818 0.1007232 -0.8693504 0.4838229 46 46 46
-0.0916469336735031 0.000362884619010462 0.0121772132043294 -0.00284114 0.1351472 0.9908215 222 222 222
-0.0156803619456125 -0.0934294416583328 0.0265524407912968 -0.01000922 0.1055012 0.9943688 108 108 108
-0.093605267230098 0.107026311502092 -0.00623306171968932 0.02607851 0.9798202 0.1981725 105 105 105
0.000465214207849396 -0.0870420018881481 0.0258408645129969 0.05056385 0.1194165 0.9915559 111 111 111
0.0365585996362872 -0.0256879502855336 0.0182146565350303 -0.0732815 0.1887248 0.979292 217 217 217
-0.183457820178773 0.0703758409217663 5.79389277222675E-05 -0.6285216 0.2412316 0.7394375 134 134 134
-0.0596336539757416 -0.0788275106044982 0.0233502136029807 -0.02102067 0.1308187 0.9911834 128 128 128
0.0893094287295741 0.0808465300852066 0.00426402748207436 -0.01297485 0.1445237 0.9894162 160 160 160
0.0542404501877916 -0.0749676851906822 0.0250200736577283 -0.04251904 0.1503317 0.9877208 103 103 103
0.0726295704934858 -0.0270255598760976 0.0187971598655536 0.004549432 0.1155347 0.993293 133 133 133
-0.125663742521235 -0.045578723417224 0.0177744991592543 -0.01641377 0.1184499 0.9928244 107 107 107
-0.0749409828299581 0.0826757685401149 0.00111838499334971 -0.008126107 0.1213412 0.9925776 116 116 116
0.0788118853465452 -0.0745911046167425 0.0269401865151487 0.05289272 0.07408366 0.9958484 115 115 115
0.114128263121474 -0.0469057588201207 0.0230512444415371 0.02974052 0.1229504 0.9919671 131 131 131
-0.167636357342294 0.068510863197345 0.00135382824068794 -0.03265578 0.1511027 0.9879785 123 123 123
0.0662948633228277 0.00678736013484471 0.0150520685530805 -0.1257699 0.131963 0.9832435 134 134 134
0.0904830448273968 0.0412020904317314 0.00988520381893562 -0.009101885 0.152084 0.9883257 120 120 120
-0.187668207837023 -0.0454151661164253 0.00209376878977804 -0.9879762 0.05063998 -0.1460775 57 57 57
0.124448263467604 0.0102471544364056 0.0148146824711463 -0.007773913 0.1620924 0.986745 139 139 139
0.0380263233893994 0.10122679747747 -0.00232686024875389 -0.101192 0.9402975 0.3249628 90 90 90
-0.187436914922213 -0.0358736495640091 0.000395500062998794 -0.9995595 0.02536526 0.01540477 64 64 64
-0.0654979192590348 0.0669100375702034 0.00338479317353257 -0.03243289 0.1231884 0.9918532 108 108 108
-0.0368127291312019 -0.0794370542537501 0.0245158046480804 -0.02341554 0.1147153 0.9931224 79 79 79
-0.0134304564291015 -0.0744375615025161 0.0244480507016901 -0.03014771 0.1312308 0.9908933 113 113 113
0.122875189309431 0.0348703064254414 0.0113428964259253 -0.03900229 0.1373258 0.9897578 141 141 141
-0.116074312512795 -0.00969934236064818 0.0134347605045305 -0.02999535 0.1452096 0.9889461 141 141 141
0.132398262271943 -0.0715053032329747 0.0272943768951563 0.09134623 -0.0221992 0.9955717 141 141 141
0.211290585551136 0.0639281973023103 -0.0118745056057752 0.9874908 -0.1514193 -0.04397743 34 34 34
0.044681412577851 -0.0591854466410975 0.0231400576864726 -0.01421105 0.1959605 0.9805088 115 115 115
-0.0261267077766678 0.0948248009130712 0.00048856358911567 -0.01373479 0.1399513 0.9900631 183 183 183
0.0294756394009492 0.0390650600488636 0.00899713176918007 0.003316556 0.1142207 0.9934499 179 179 179
0.0212317212616668 -0.00741130367232801 0.016577138615191 -0.06508112 0.1119325 0.9915823 104 104 104
0.0323835887245825 0.0707914111836014 0.00490740479999793 -0.02339199 0.1587012 0.9870495 140 140 140
0.0345947752665681 -0.0712631252282707 0.0246544109650325 -0.05139338 0.1824352 0.9818738 123 123 123
0.158622801948002 -0.0411125796147553 0.0219398941266757 -0.03672126 0.115949 0.9925761 107 107 107
0.0441720414599265 -0.0819761077644683 0.0257316171008053 -0.04105093 0.06304568 0.997166 126 126 126
0.0165235271016377 -0.0769447727182329 0.0250992432689941 -0.02196504 0.1681602 0.9855149 104 104 104
0.193423115830622 0.0544363665705581 0.00989787902592087 -0.0107185 0.1431815 0.9896384 107 107 107
0.0256633779290472 -0.0824979716136685 0.026778050351552 0.01245609 0.153289 0.9881029 56 56 56
0.124259802924044 -0.0486824516201854 0.0228203951588065 -0.04435898 0.1604244 0.9860508 128 128 128
0.178376455782731 0.0324010553416809 0.0127515834720521 -0.001701303 0.1284728 0.9917116 109 109 109
0.13523545639729 0.10029895696068 -0.0222348636353452 -0.002940287 0.8943468 -0.4473647 51 51 51
-0.0439617603852103 -0.0367199400202578 0.0188388970415647 0.03325739 0.1409876 0.9894526 230 230 230
-0.191865229594808 -0.0570178761487468 0.00498406228037954 -0.9604437 0.2156965 -0.1761332 40 40 40
-0.105692379290361 -0.107096483062116 0.0202603390151805 0.02527153 -0.9994213 -0.02276851 48 48 48
0.0183184664554334 -0.0972153443310237 0.0152489029796547 0.1401914 -0.9875287 -0.07164837 70 70 70
0.195887040716324 -0.00267256400543059 0.0162826784372629 0.7278998 -0.216581 0.6505801 65 65 65
0.0246799212889155 0.0968218649547055 0.000784175988460672 -0.01608269 0.2345143 0.9719796 113 113 113
0.16145562504359 -0.0692227694268943 -0.00193302415607968 0.2805192 -0.9559927 0.08594716 53 53 53
-0.0684246895725753 -0.0202670530708253 0.0156700186536472 -0.01729216 0.144316 0.9893805 121 121 121
0.00812482716509444 -0.0767972027715491 0.0252964777027539 -0.02383298 0.1487462 0.9885882 109 109 109
-0.0374780029393031 -0.0604619523723831 0.0210235124595248 -0.004073656 0.1132284 0.9935606 92 92 92
-0.163669922083211 -0.0811072399396013 0.0219478884796636 -0.02006599 0.1313717 0.9911301 106 106 106
-0.00249019293235375 -0.0412380298214063 0.0198156703461046 -0.05535726 0.1053619 0.992892 154 154 154
-0.00561405995228714 -0.0731738205692123 0.0236898994869393 -0.01609408 0.1456394 0.9892069 83 83 83
-0.182386971143646 0.0782906266078629 -0.0242714458889254 -0.8512901 -0.063696 -0.5208147 67 67 67
0.167121161728103 -0.0289070637174873 0.0204423398179061 -0.0148739 0.1500422 0.9885677 107 107 107
-0.189722150658931 -0.0658949540540461 -0.00306527635896822 -0.9466408 0.2770241 -0.1647086 33 33 33
0.190893603370817 -0.0186770928324411 0.00111790616011517 0.9469165 -0.318544 0.04334501 40 40 40
-0.061558712104212 -0.0406104645188787 0.0181100091171733 -0.01382044 0.1200675 0.9926695 115 115 115
-0.189457830987553 -0.0219492387506584 0.00207198360882183 -0.9816472 -0.1889449 -0.02585802 71 71 71
-0.0729146033832517 -0.00324372543867191 0.0128397984763932 -0.01065262 0.1575899 0.9874472 102 102 102
0.101981470270378 -0.0501065259289515 0.0242063051644582 -0.04441501 0.1513034 0.987489 155 155 155
-0.167854287596221 -0.0221653438810843 0.0139823022107924 -0.006347241 0.1282033 0.9917276 158 158 158
0.113944316694212 -0.00950538921309896 0.0179114676801552 0.0619817 0.2122852 0.9752401 128 128 128
-0.152098882544304 0.0397638790452042 0.00599375315619116 -0.0003629261 0.1417917 0.9898965 137 137 137
-0.13384760380387 -0.0776191065295988 0.021929582440283 -0.02756751 0.1445434 0.9891143 88 88 88
-0.0468302494383921 -0.053509832875873 0.0204242883131524 -0.02552243 0.1491804 0.9884806 115 115 115
-0.183755285827707 -0.0856027931270926 0.0221940387429843 -0.2375246 0.1063946 0.9655373 131 131 131
-0.181381286499867 -0.0652113355091539 0.0195374615922319 0.00103113 0.140614 0.990064 104 104 104
-0.107820934456215 0.0468636959160862 0.00562894325731142 -0.02428512 0.1492198 0.9885058 94 94 94
0.102076133795576 0.0960691546744572 0.00296968800365863 -0.02499847 0.1708999 0.9849712 117 117 117
0.0737312089774054 -0.0390507193913032 0.0204100628355139 -0.04743851 0.07370453 0.9961512 108 108 108
0.140584118423872 -0.0531285982923144 0.0238906753702277 0.006849688 0.153885 0.988065 162 162 162
0.108953147298924 -0.0141234485499211 0.0195642090098749 -0.07301826 0.1450265 0.9867298 145 145 145
0.213964327787616 0.0887806347043236 -0.0100923076062631 0.9913097 -0.0363575 -0.1264245 37 37 37
-0.0269592596810986 0.0588299621073132 0.00558155644613276 -0.009328046 0.1208007 0.9926329 136 136 136
0.0248114321152351 -0.0464863860734668 0.0206335677714557 -0.05528855 0.1159315 0.9917172 114 114 114
0.173166915810821 0.105570727237807 -0.00283507428011692 -0.1613924 0.7600724 0.629478 212 212 212
0.18065275811211 0.0316017152976042 0.0124540654973257 -0.008740743 0.132626 0.9911276 122 122 122
-0.00747617458032157 0.0966019786080066 -0.0179712261630534 -0.02111501 0.9995569 -0.02098059 73 73 73
-0.117337342051558 0.107832777879787 -0.00638200789716584 0.2186596 0.900659 0.3755014 117 117 117
-0.143300291271971 -0.0831885395547936 0.0225365035679438 -0.02318171 0.1154458 0.9930432 104 104 104
0.0646630455721116 0.0103882240457474 0.015097352943636 0.02504274 0.1046604 0.9941927 161 161 161
-0.0417140348018792 -0.103250941391103 0.00467609370447034 0.04114453 -0.999148 -0.003212706 21 21 21
-0.137915422292906 -0.0130066648155585 0.0131320097180701 -0.03419904 0.139656 0.9896094 134 134 134
0.187107859163919 0.110291086534495 -0.00166995660022271 -0.1727937 0.9442043 0.2803938 111 111 111
-0.00375476743638159 0.0264811315986571 0.0105171964142547 -0.02603579 0.1127872 0.993278 101 101 101
0.0505718665937671 -0.0579193709242027 0.0243119931279918 -0.05564689 0.1014751 0.9932805 82 82 82
-0.159468941899954 -0.0515152825352332 0.0178967976477755 -0.01763668 0.1299008 0.9913701 115 115 115
-0.159887270606442 0.0639920931451052 0.00207027552871478 -0.003281949 0.1425303 0.989785 129 129 129
0.0978232252046731 -0.019098778302389 0.0207579645049591 -0.08244202 0.0591941 0.9948363 139 139 139
-0.152081443431327 -0.105813922741851 0.0221733027079878 0.0004164741 -0.9322054 0.3619295 108 108 108
0.0428374860668861 -0.0645891693440603 0.0244525717410287 0.02449456 0.07123487 0.9971588 134 134 134
0.104513027738229 -0.0293554164748167 0.0199393220186524 0.03333717 0.1479262 0.9884364 140 140 140
-0.133930884534594 -0.10689360004848 0.0146072727684333 -0.04610207 -0.9977626 -0.04841977 106 106 106
0.0189618690819844 0.00389395576245066 0.0149555065850992 -0.02595867 0.08063184 0.9964058 227 227 227
-0.187397479911391 -0.0417904403469156 0.0133131853094888 -0.8947245 0.3461962 0.2821635 72 72 72
-0.156106528565412 0.108807973640575 -0.023477191488619 0.01241723 0.9633651 -0.2679057 33 33 33
0.075030880251429 0.102900599045668 -0.00899218560862897 -0.0355874 0.9960784 0.08100223 36 36 36
0.103631608948122 -0.0760078669687267 0.0262131989467848 -0.06194693 0.06828403 0.9957409 161 161 161
0.0709399947045994 -0.0152256760920941 0.0181519168666755 -0.1086468 0.119994 0.9868117 115 115 115
-0.0617804368829715 0.105390639436191 -0.00183138459214632 0.07254867 0.6491582 0.7571858 48 48 48
0.036967948131617 0.0380940656372124 0.00968477663818587 -0.04965945 0.1817412 0.9820917 209 209 209
-0.0615099807867359 -0.0852370191494822 0.0242845423227854 -0.02670449 0.1360138 0.990347 117 117 117
-0.0865262036382493 0.102542118068632 -0.00184805017664033 -0.01225906 0.2374651 0.9713187 105 105 105
-0.106301958155618 -0.0716651038187153 0.0217343989179354 -0.0005347444 0.1310889 0.9913705 85 85 85
-0.0878197309792914 0.105260021316237 -0.0240195068760002 0.3064589 0.940519 -0.1466527 81 81 81
-0.018491620705833 -0.103908191948896 0.028403986126159 -0.03771618 -0.5385332 0.8417598 124 124 124
0.113847509622 0.0119370851631746 0.0156696608187733 0.01639957 0.1278545 0.9916573 133 133 133
-0.0657484438330249 0.0981207267504502 -0.000840630443486007 -0.02452492 0.1310128 0.9910773 153 153 153
-0.190581996226645 -0.081188382481542 0.0053019738886716 -0.8968946 -0.4130586 0.1579961 43 43 43
-0.185042012292501 0.0792177225457176 -0.0189236084391234 -0.9426624 -0.01138862 -0.3335534 42 42 42
-0.0397155375494491 0.103705502941091 -0.00381629616648657 0.04881901 0.9569805 0.2860157 117 117 117
0.00257364778637137 -0.100300068321727 0.0248436421358313 0.2033752 -0.9447138 0.2572048 43 43 43
0.184410393638546 -0.0223708059786512 0.0200400484030488 -0.02460316 0.1072498 0.9939277 103 103 103
0.00235791586694112 0.0903691126743429 0.00148753370754684 -0.0128659 0.126967 0.9918235 154 154 154
-0.14148429566052 0.0321428818039144 0.00706999082802948 -0.008673065 0.1218562 0.9925098 152 152 152
-0.126765884097693 0.0928002166840216 -0.00113543711030845 -0.04638489 0.1450166 0.9883413 162 162 162
0.0345151206035565 0.0342844041931658 0.00986279771429063 -0.03062732 0.2214413 0.9746926 213 213 213
-0.00202946825158157 -0.0177834537343657 0.0171852080607269 -0.0136947 0.1030529 0.9945816 84 84 84
-0.0580943327252859 -0.0432480692761477 0.0186372130883603 -0.0162376 0.1240621 0.9921416 111 111 111
-0.187095413625582 -0.0198908872694978 0.0125726953615306 -0.4667031 0.2692957 0.842418 98 98 98
0.108726050912005 0.103577479483771 -0.0109355171161376 -0.01399783 0.9909933 -0.1331781 146 146 146
-0.00628121299093376 -0.0354327350436303 0.0184586803408567 0.001184186 0.1411563 0.9899866 107 107 107
-0.0263850413669275 0.0244366463343784 0.00997296637855083 -0.03811583 0.1424965 0.9890611 133 133 133
-0.190416363781726 -0.0856846870354349 -0.00697279125778988 -0.9600011 -0.2403116 0.1436951 29 29 29
-0.0732663789549564 -0.0530569004659029 0.019749569966549 -0.01057428 0.1371151 0.9904987 152 152 152
0.102866866079584 0.00117919645025699 0.0169433174577481 0.07395171 0.1206829 0.9899327 171 171 171
-0.0165825573631564 -0.101236084863085 0.0130680305065903 0.03284369 -0.9943035 -0.1013998 84 84 84
-0.0596018586674649 -0.0438003992207538 0.0187050098823634 -0.02362054 0.1287329 0.991398 121 121 121
0.124093743313257 -0.0586704612477473 0.0240818335949322 0.008786901 0.1244586 0.9921859 136 136 136
0.0262641851560359 0.00421117513767033 0.0138504513629868 0.0005708846 0.1158864 0.9932623 230 230 230
-0.0860156365467692 -0.0789227971197102 0.0230156666314956 -0.01146428 0.118688 0.9928654 154 154 154
-0.190011983125727 -0.0684447912356627 -0.00895444995794842 -0.9521563 0.2785839 -0.1256558 71 71 71
0.0111819226648346 -0.0254355283919487 0.0171245409470453 0.01096645 0.1323667 0.9911401 144 144 144
-0.0564322545194884 -0.0349426180582484 0.0175812608284469 -0.03515253 0.1443655 0.9888998 113 113 113
-0.101928184480987 -0.0292499715251644 0.0161911940847081 -0.04161397 0.1340071 0.9901062 119 119 119
-0.14589712912263 0.0730775056459909 0.00114257781516403 -0.02416811 0.145802 0.9890186 134 134 134
0.0623142221692754 0.00278303591808027 0.0147520344980244 0.01274513 0.1420536 0.9897769 218 218 218
0.198253017533572 0.00881388472198363 0.0155748889653785 0.4794655 0.04349786 0.876482 139 139 139
0.0386771857953745 -0.0666574686470396 0.0247457335954785 -0.06769862 0.03312031 0.9971559 117 117 117
0.13825182046463 -0.0348474795247085 0.0212763748269303 -0.01881567 0.1114243 0.9935948 127 127 127
-0.186752063132239 -0.0537566745086628 -0.00276710318281442 -0.9725915 0.1338292 -0.1901461 22 22 22
0.00162154003581483 -0.0969723626305068 0.0271470209994066 0.0395311 -0.03413022 0.9986353 123 123 123
-0.182161608674288 0.106257339232771 -0.00684635353676338 -0.9279905 0.2612648 0.2656583 96 96 96
-0.119920555190318 -0.107334905344409 0.0167210552216569 0.003215402 -0.9995895 -0.02846978 35 35 35
0.11049948200939 -0.0781116685996843 0.0264938771145024 0.07417825 -0.2606633 0.9625759 120 120 120
0.098266253494903 0.00235487374854726 0.0175334054997294 0.008790068 0.1979068 0.9801815 121 121 121
0.12664556153109 0.0845295258745871 0.00438389780157458 -0.02797974 0.1331569 0.9906999 79 79 79
0.178735661461313 0.102194305880724 -0.0215862892292833 0.1753607 0.8863897 -0.4284412 95 95 95
-0.182269443244252 -0.0413604057558301 0.0161872374315952 -0.2245411 0.1831199 0.9571041 113 113 113
-0.163578208439215 0.111636233953141 -0.0107169909652687 0.05501508 0.9984677 0.005965604 113 113 113
-0.0293390370690945 0.00616707295357899 0.0123491494603806 -0.01846656 0.1518073 0.9882376 103 103 103
-0.192548429141097 -0.065568136617022 0.00664929552943019 -0.9788805 0.003078811 0.2044102 69 69 69
-0.00623337752232067 -0.00348114081204209 0.0151658416599781 -0.04521289 0.2133417 0.9759309 141 141 141
-0.0938960700481457 0.0254684480829614 0.00852000596815125 -0.009894249 0.1109822 0.9937732 106 106 106
-0.153359295122375 -0.105073151462997 0.0002627129344831 -0.03762295 -0.9983516 -0.04334285 34 34 34
0.054054303214921 -0.0585829400682176 0.0228661964379985 -0.01675854 0.1207984 0.9925356 121 121 121
0.123898222057635 -0.0222075269183226 0.0204997283244814 0.01008794 0.09099197 0.9958006 157 157 157
-0.0966932218231644 0.10738539517035 -0.00723532005830868 0.05707556 0.9959214 0.06987765 136 136 136
0.160023789810903 0.0203587553842846 0.0136501525858846 -0.03579332 0.1363558 0.9900131 102 102 102
0.048661219345953 -0.00465546263674987 0.0156711138551255 0.01913054 0.1257224 0.991881 106 106 106
-0.0641740670030158 -0.0330270546120948 0.0177396691367168 -0.03207419 0.1402409 0.9895978 160 160 160
0.0223795866856789 -0.0964228851113307 0.00928919768944123 0.1296925 -0.9914765 -0.01241259 108 108 108
0.090182377476369 -0.05313890469541 0.0226595115886082 -0.0770408 0.1102337 0.9909154 94 94 94
0.116785568332478 -0.0667721778375499 0.0255128171863463 -0.04316547 0.1729772 0.9839795 98 98 98
0.0181801921469524 0.0540136421092952 0.00760453738194236 -0.01704155 0.1946239 0.9807299 103 103 103
-0.0986880256871492 -0.089045313643664 0.0240712479791186 -0.01372664 0.1250592 0.9920543 61 61 61
-0.0434015978191415 0.103850206895808 -0.00357712121077067 0.0639443 0.9492032 0.308098 39 39 39
0.198549755773415 0.0628367287298548 0.00905844896281552 -0.01550869 0.1547641 0.9878297 109 109 109
0.104658148510603 0.0542786598419951 0.00809362120890472 -0.02095903 0.1267229 0.9917167 127 127 127
0.0104262657669616 -0.0993057029975521 0.028699349920132 0.08203835 -0.4063808 0.9100134 137 137 137
-0.0480731115410575 -0.0951569434328197 0.0262148960597366 -0.02308475 0.1091826 0.9937536 109 109 109
-0.0397005971983528 -0.0413435474776407 0.0187232845205949 -0.03698439 0.1186265 0.9922499 92 92 92
-0.151447821966782 -0.105793952825111 0.0246049901298016 -0.03567212 -0.7675644 0.6399785 134 134 134
0.0548633336165385 -0.0892160999066793 0.0216673114293285 0.2201591 -0.759307 0.6123585 86 86 86
0.084428187724209 0.0987024187347958 0.00189590777061341 0.006525402 0.3233201 0.9462672 125 125 125
-0.0521370918818724 -0.0649787264285373 0.0219564436252222 -0.02159137 0.1360096 0.9904722 119 119 119
0.0500937774312216 -0.0751445535409037 0.0254249576078109 -0.04933474 0.09387387 0.994361 128 128 128
0.00269660342784461 -0.0992632220754273 0.0133084540747158 0.1502172 -0.9819402 -0.1150139 68 68 68
0.111971581161196 -0.00299624600533854 0.0159335474977547 0.03885671 0.0833424 0.9957631 134 134 134
-0.113486683863104 -0.106965739185031 0.0104686401714763 0.008994041 -0.9999428 0.005791541 105 105 105
0.0725822323972196 0.0663755532373642 0.00628993053490814 -0.02232837 0.1439777 0.989329 91 91 91
0.0467536107629671 -0.0689726129510306 0.0251276179530556 -0.05749385 0.1924207 0.9796268 121 121 121
0.136206307804368 0.102726134404118 -0.0168379524036155 -0.04213056 0.9071672 -0.4186558 59 59 59
-0.132001276969296 -0.0509781692628257 0.0185142971337117 -0.03238326 0.1436477 0.9890989 126 126 126
0.0802705644502437 -0.0153129983625189 0.0197388640839106 0.01099221 0.1462917 0.9891804 138 138 138
0.148581521952278 0.0846730923984587 0.00525056167717197 -0.01760241 0.1283196 0.9915767 88 88 88
0.138573229375966 -0.0758483207251603 0.0053963272910505 0.2411567 -0.9652525 0.1006529 68 68 68
-0.189713080073012 -0.059078372588601 0.0174180471277148 -0.7786426 -0.0373449 0.6263554 85 85 85
0.0541851910361666 -0.0544479059021268 0.0227023371880392 -0.0002939499 0.1536983 0.9881178 116 116 116
-0.00963031529629776 -0.0873615083852848 0.0254048520968732 -0.05155267 0.07551042 0.9958115 94 94 94
-0.040068528921317 0.103913037327395 -0.0111708749041895 0.1367872 0.985407 -0.1013029 132 132 132
0.204478638275122 0.0226471743525243 0.00214790753026609 0.9782829 -0.2070493 0.009647176 76 76 76
-0.182267217858235 0.0921229966447055 -0.00423293407744091 -0.7412144 0.1016396 0.6635289 66 66 66
-0.151752107026126 -0.0867356677351816 0.0228605810040996 -0.01503699 0.1266235 0.9918368 91 91 91
0.0321042700502658 -0.0290655930273405 0.0201546031983761 -0.0574244 0.1536285 0.9864587 234 234 234
-0.18761292034572 -0.0793727037118603 0.0210595663115848 -0.6009264 0.03084386 0.798709 93 93 93
-0.0238481610611074 -0.0495795295492802 0.021128505279305 -0.04461664 0.14392 0.988583 115 115 115
0.0568823545024568 -0.0859609698271901 0.024416496396363 0.1920296 -0.6964838 0.6914008 103 103 103
0.170545550411077 -0.0306681572597016 0.0208390259547118 0.0147994 0.1376632 0.9903685 159 159 159
-0.190290737665183 -0.0140511051845775 0.00216763138373519 -0.9979018 0.03887418 0.05177692 75 75 75
0.0414823597645642 0.101873630283318 -0.0112517335430827 -0.01845753 0.9973838 0.06989115 41 41 41
0.00972141297703133 -0.0511692613000234 0.0210248447825062 -0.02884752 0.1556008 0.9873987 50 50 50
-0.0960764794270674 -0.106901703629648 -0.00143504483701046 0.04107358 -0.9990199 -0.01649713 51 51 51
-0.167781920148483 -0.0971649606408822 0.0239367042233254 -0.03637172 0.1053659 0.9937682 165 165 165
-0.129411616634357 -0.0487876079005685 0.018028899829525 -0.0196866 0.1422428 0.989636 93 93 93
-0.021072177836827 0.0926412568825901 0.000716639432374599 -0.01211925 0.1336125 0.9909595 154 154 154
0.182456617373773 -0.00308220914739366 0.0173622129912437 -0.0436584 0.1481814 0.987996 138 138 138
0.0193314978480075 0.0828474796933238 0.00272731786294347 -0.02456641 0.1476904 0.9887285 117 117 117
-0.103418619114627 0.0482143104938286 0.00537971363181994 -0.0228095 0.1467032 0.9889175 101 101 101
0.0863666711315145 0.102761919325833 0.000992760723019265 -0.0113842 0.8132699 0.5817753 203 203 203
0.0335816017500383 0.0566759947898141 0.00780091196209584 -0.03038682 0.1140432 0.993011 124 124 124
-0.173762372605284 -0.105024290048539 0.00380340943086907 -0.03147281 -0.9974848 -0.06350967 54 54 54
-0.0769871641048663 -0.039934119095552 0.0179203593152776 -0.02614056 0.141142 0.9896442 136 136 136
-0.0095397111883031 -0.102495283620769 0.0277643053581591 -0.06034161 -0.5564224 0.8287057 115 115 115
-0.0499985039375479 -0.0366379256645251 0.0176471392884553 0.008258306 0.1454047 0.9893378 106 106 106
-0.186134784191919 0.0721554688461712 -0.00846479651606954 -0.9099126 0.30371 0.2825232 60 60 60
0.196157561780332 0.0102790810403495 0.0158623657390024 0.0734524 0.1377547 0.987739 106 106 106
0.035562248499043 -0.00218083999534735 0.0143081608804678 -0.07579002 0.1130786 0.9906912 111 111 111
-0.127390378427178 -0.0917570020486149 0.0238477289810143 -0.02524652 0.1173996 0.9927638 89 89 89
0.0179401434241262 0.080237602268445 0.00309459697279971 0.0006508867 0.1838522 0.9829537 133 133 133
-0.188783374560437 -0.0214718442148591 0.0121109233768662 -0.7729385 0.06337743 0.6313077 88 88 88
0.0182789902124783 -0.0331423729171147 0.0185577094181639 -0.0158432 0.05670111 0.9982655 103 103 103
0.0982771807159761 0.0843531676350127 0.00447240652527289 -0.02015811 0.1497099 0.9885244 51 51 51
0.0836153874516297 -0.000691827126420463 0.0172600599655026 0.08458986 0.1934308 0.9774605 153 153 153
0.180164565272095 0.109038238045486 -0.00609530970363523 -0.2385314 0.9695947 -0.05467027 129 129 129
-0.0313661074316198 -0.0969923615901473 0.0264675083043985 -0.01780569 0.1248934 0.9920104 112 112 112
-0.0416962145727404 0.0999992968244492 -0.000682336845641063 0.05509064 0.4073865 0.9115927 124 124 124
-0.18335005233883 -0.0474423831819819 0.0168804436158114 -0.05707845 0.1440423 0.987924 134 134 134
0.0124812857438619 -0.0912610669583453 0.0266170586803587 -0.005447481 0.1135941 0.9935123 116 116 116
0.0422655124307481 -0.0931362737446941 0.00505239245034025 0.1669355 -0.9855844 0.02749489 97 97 97
0.108372612341835 0.0942624363005542 0.00309965851981867 -0.01304125 0.1121764 0.9936028 160 160 160
0.146627685617708 -0.0713764672168486 0.0215518784408801 0.2782701 -0.9264957 0.2533208 98 98 98
0.0158267954995623 -0.0604606882105323 0.022648773662441 -0.03853414 0.1186851 0.9921839 135 135 135
0.0397996051267226 0.0128422525965488 0.0130961972735257 -0.05476535 0.02998251 0.998049 111 111 111
0.134842776678751 -0.00623413776481807 0.0171251125057188 -0.03461194 0.1279949 0.9911707 136 136 136
0.154284587887949 0.0404633284001323 0.0109531476489599 -0.01516456 0.1288684 0.9915457 110 110 110
-0.153868954761536 -0.0547636497728612 0.0185753648386095 -0.01173527 0.1405476 0.9900044 123 123 123
-0.121072261269 0.0544026625419172 0.00463457962760569 0.005317417 0.1368808 0.9905732 107 107 107
0.175501197456526 -0.0648801735677704 0.0135219893623165 0.2681867 -0.9633492 -0.005847164 58 58 58
-0.0838813875220457 -0.0529294021499267 0.0195154459407062 -0.008380552 0.1257413 0.9920276 137 137 137
-0.157449332231495 0.104095432454225 -0.00310260418565456 -0.007803579 0.09510972 0.9954362 160 160 160
-0.0915004224498697 -0.0688649430598756 0.0213294340916384 -0.01658503 0.1374056 0.990376 112 112 112
-0.187289117454469 -0.0328853861386043 0.00176721236200389 -0.9962113 -0.04005332 0.07719256 64 64 64
0.0448360337145848 -0.0669439299251195 0.0247831505890232 0.01363507 0.1290911 0.991539 102 102 102
-0.0232287538663787 -0.0852741558081764 0.0252052338736881 -0.03141565 0.1438514 0.9891005 105 105 105
-0.0280942928517227 -0.00756866208724327 0.0154130941844939 -0.04166128 0.1525254 0.987421 134 134 134
0.0639034764878517 0.00970949523089026 0.0133584951964972 -0.04244928 0.06231463 0.9971534 195 195 195
0.0658367793121857 0.00426539831188655 0.0141239688925379 -0.07033693 0.1581649 0.9849043 118 118 118
-0.189933460190416 -0.0539541121411093 0.017218485802177 -0.7640542 0.1372322 0.6303875 96 96 96
0.0364898824078013 -0.0867815734603017 0.0262010586293215 0.002938083 0.09808801 0.9951734 116 116 116
-0.177773001477426 -0.0914356830567138 0.023207239288893 -0.01185383 0.1247046 0.9921231 155 155 155
0.0517549797935235 0.00728703302489286 0.0146463755335453 -0.001013432 0.1776098 0.9841005 227 227 227
-0.0312208080157697 0.0207191632670369 0.010245057228809 -0.03757621 0.1106006 0.9931543 122 122 122
0.00741813600784402 0.040578831491457 0.00904605072494827 -0.03710143 0.1648261 0.9856246 121 121 121
0.0770639469415109 -0.00740893682494059 0.0176625067531342 -0.01422637 0.2054494 0.9785643 142 142 142
-0.186912480114586 0.0724784515044223 -0.0141250266644421 -0.9704378 0.05382855 -0.235272 30 30 30
0.0543713657215588 -0.0766145633915807 0.025957349621571 -0.02605448 0.1508567 0.9882122 118 118 118
2.84985757443845E-05 0.100987587526484 -0.00353812213011892 -0.07680115 0.9611136 0.2652588 96 96 96
0.0640988486678513 -0.0257570608621829 0.0188980837565446 0.01710641 0.06404358 0.9978005 202 202 202
-0.159814439099051 -0.0354943496668374 0.0160619798298173 -0.03873671 0.1309915 0.9906264 156 156 156
0.117118759071758 -0.00708129705215388 0.0168552526533609 -0.03047705 0.1694254 0.9850717 105 105 105
-0.0435369691670831 0.101627483754447 -0.0203148610547686 0.1659804 0.9105927 -0.378512 81 81 81
-0.0233619639886486 -0.0777907427866407 0.0237773866152348 -0.03493904 0.1346753 0.9902736 107 107 107
-0.00167871867544944 -0.0809856529134496 0.0253540849295726 -0.005046057 0.1669074 0.9859596 85 85 85
-0.00965374902706539 -0.0390323053890911 0.0187021659789712 -0.03886088 0.1104234 0.9931246 94 94 94
-0.010364916190597 0.0666365421169708 0.00423350450200141 -0.05097079 0.1445046 0.9881905 167 167 167
-0.0362173558275161 0.103410745672096 -0.00271750487711381 0.1076814 0.9482453 0.298723 107 107 107
0.185372345615479 -0.0558867601270199 0.0242573070963878 0.0606926 0.1476109 0.9871815 106 106 106
-0.0750999184607735 -0.0317176895043021 0.0169371722699679 -0.01178495 0.1125185 0.9935797 98 98 98
-0.104840207336659 -0.0372015193256692 0.0167585216597199 -0.03820162 0.1444659 0.9887721 133 133 133
-0.0456312849790894 -0.0753558399945351 0.0230050219494215 -0.02387756 0.1302909 0.9911882 91 91 91
-0.127275681574449 0.00460190399182903 0.0114317274969959 -0.02866322 0.1618721 0.9863954 114 114 114
-0.109933662560412 0.0467390979856088 0.00572146105688717 -0.02867233 0.1541198 0.987636 121 121 121
0.0463634177349763 -0.0622007547063907 0.0248214342983361 0.02178728 0.08804464 0.9958782 111 111 111
-0.0140059679421165 -0.101683543969823 0.0135011575470834 0.02943402 -0.9930313 -0.1141165 96 96 96
-0.0761210343143508 -0.0638568346989858 0.021004203319935 -0.02644107 0.1006721 0.9945682 97 97 97
-0.0152500351858065 -0.0129887703841223 0.0156679850793429 -0.06628673 0.1109105 0.9916173 141 141 141
-0.068056869966812 -0.105098319174811 0.0148284273393172 0.03158776 -0.9982148 -0.05068813 104 104 104
0.130150372168609 -0.0134840316327756 0.0179859412390972 0.04560509 0.1471065 0.9880688 141 141 141
0.062445269314177 0.0805450774324348 0.00376581818208835 -0.02186769 0.1407536 0.9898031 91 91 91
0.156083278845172 0.0269594487504998 0.0127651071538099 -0.03438985 0.1250326 0.9915565 126 126 126
-0.173204238596841 -0.084988555427036 0.0222828925487101 -0.02303373 0.1380423 0.9901584 138 138 138
-0.015636122533329 -0.0897353403764529 0.0266879971845567 -0.01768819 0.1059667 0.9942123 97 97 97
-0.0656591217804279 -0.0908652903751084 0.0250786245167224 -0.02886217 0.1298007 0.99112 140 140 140
-0.086743121114333 -0.0860432466075718 0.0240116153190751 -0.007258933 0.1441413 0.9895305 111 111 111
0.0644426386930759 -0.0370395717422463 0.0204341690327208 0.04580918 0.1801062 0.9825799 147 147 147
0.211813348319598 0.0644036457936634 0.00449766008744729 0.9774159 -0.08630331 0.1928985 44 44 44
0.046595817484848 -0.0923347304094921 0.00936961233291084 0.1740344 -0.9837995 0.0430188 48 48 48
0.0466139843112778 -0.0293354481696204 0.0202666769866549 -0.04527035 0.08776425 0.9951121 212 212 212
-0.035276830834577 -0.0213067564431926 0.0168381653616286 0.0158975 0.05836378 0.9981688 125 125 125
-0.140498213207572 0.101608736691281 -0.00259688408436601 -0.003560998 0.1253061 0.9921117 137 137 137
-0.0859442081568886 -0.0134599980416104 0.0142275169916528 -0.01949526 0.1619322 0.9866093 128 128 128
-0.176965360826525 0.0327948925009824 0.00638941961064191 0.0006625071 0.1394406 0.9902302 127 127 127
0.0400399962767617 -0.0217289138785766 0.0189527204515017 -0.07271925 0.1667061 0.9833214 135 135 135
-0.0134089148870504 -0.0972209850819128 0.0271819527992373 -0.006310797 0.1474128 0.9890549 123 123 123
0.000503274120254193 -0.0948387192653779 0.0268832479649314 -0.07704018 0.168695 0.982653 114 114 114
0.00999190125885252 -0.0118127024481427 0.0153041481233013 -0.005419265 0.09553503 0.9954113 113 113 113
0.156189399716749 0.0667808408261676 0.00738270020021509 -0.02491709 0.1404438 0.9897751 89 89 89
0.0568105260717824 -0.0797394390792052 0.0267144745201176 -0.04563186 0.02776987 0.9985723 64 64 64
-0.119360525281551 -0.0836887571816163 0.0228908588544632 -0.02535705 0.1453526 0.9890549 86 86 86
0.174150966443067 0.0551528243600496 0.00951233956217998 -0.01238422 0.1330938 0.991026 100 100 100
-0.166490764017787 0.0141399459766112 0.00899228930921617 -0.02907494 0.1231769 0.9919587 147 147 147
-0.149957192880194 -0.0713111023162905 0.0210660061487956 -0.02866265 0.1498674 0.9882905 108 108 108
-0.0615588620746081 -0.0875525984077281 0.0245889411880561 -0.01195087 0.1286992 0.9916117 96 96 96
0.099782905416854 -0.0826601981694257 0.0243025705738495 0.1162451 -0.9332075 0.3400161 87 87 87
0.0622105370591615 0.0701510347513876 0.00549149172269239 -0.02466797 0.1213218 0.9923066 78 78 78
0.118328346163564 0.103118234546957 -0.00393484349460924 0.02630183 0.9995936 -0.01099104 158 158 158
-0.0300521207458309 -0.0233686105985043 0.0169402927367577 -0.03754881 0.1072866 0.9935188 152 152 152
-0.0879070669049764 -0.106216070210108 0.00518226244513434 0.04077528 -0.9981658 0.04474844 64 64 64
0.0443398659642784 -0.00713207350939626 0.0159917643078565 -0.01999781 0.1166732 0.992969 121 121 121
-0.144077698249629 -0.105589527491929 -0.0031119630613162 -0.06458704 -0.9969547 -0.04370206 33 33 33
-0.00551857374986597 -0.0933018350259232 0.0259748300545369 -0.01381097 0.1020452 0.9946839 107 107 107
-0.175408576498412 -0.0657300567680668 0.0196953265010881 -0.02742544 0.1375953 0.9901088 133 133 133
0.0561900955275929 -0.0869671632935405 0.0238147549045132 0.138597 -0.7093413 0.6911047 74 74 74
-0.0998189695498637 -0.106297128448988 0.0129760386312305 0.01863638 -0.9995061 0.02530556 67 67 67
0.092056763092387 -0.0792363264122482 0.0263991668924346 0.03129886 0.1288779 0.9911664 114 114 114
