ply
format ascii 1.0
comment File exported by Rhinoceros Version 7.0
element vertex 468
property float x
property float y
property float z
property float nx
property float ny
property float nz
property uchar red
property uchar green
property uchar blue
end_header
0.105187141762531 -0.0496566859552849 0.0076626945642999 0.04768703 -0.9660566 0.253891 105 105 105
0.0169776338771577 0.055665119233487 -0.0266147746924717 0.00448662 -0.1301259 -0.9914873 83 83 83
-0.0737753214410874 -0.0737826014960177 -0.0116034692744755 0.606593 -0.6331275 0.480827 56 56 56
-0.0247908053382764 0.0738321131616702 -0.0168793103795253 -0.4992862 0.8541657 -0.1453073 33 33 33
0.0795433390689892 0.0644772065473647 0.00341267941686997 0.07546773 0.7201426 -0.6897095 42 42 42
-0.0914960065283572 0.055174059154025 -0.0273605605616365 -0.04957628 0.2635394 -0.9633738 115 115 115
0.0147765984506512 -0.0616245966823643 0.0130355485835076 -0.03621335 -0.9881651 0.149058 105 105 105
0.114275329135487 0.00423272023451138 -0.00441582257839726 0.9612916 -0.1142595 -0.2507257 49 49 49
-0.100886790197685 -0.0501388823577118 0.00224944465120066 -0.9877688 0.051559 -0.1471545 23 23 23
-0.058637217109468 -0.0655540262435504 0.0159883132428064 0.1227233 -0.9543732 0.2722328 64 64 64
-0.0978218417015042 0.0345603940586061 -0.0241574232788675 -0.9363605 0.009190127 -0.3509195 19 19 19
0.0620343415559304 0.0329147488352321 -0.0255501667988926 0.02230214 -0.1224457 -0.9922246 76 76 76
-0.0485494818375594 0.0641905757219284 0.0186300329841027 -0.02710486 0.9501765 -0.3105317 78 78 78
-0.0658713696487065 0.0423291167056138 -0.0266977721331149 -0.02158864 -0.1386767 -0.9901024 86 86 86
-0.0307718233168763 -0.000323291518811775 -0.025715972672019 0.01898758 -0.141599 -0.989742 139 139 139
-0.0584264322439059 -0.0233434617387553 -0.0253831451392465 0.03429886 -0.1457121 -0.9887323 223 223 223
-0.098648092799835 -0.0336777492577249 -0.0202306306555054 -0.9817244 -0.03341639 -0.1873516 28 28 28
-0.0637741386341839 0.00795250856308233 -0.0262272250379502 -0.006633203 -0.1414519 -0.9899229 228 228 228
-0.066917571017882 -0.00167483135968488 -0.0259492742075567 0.0223646 -0.1578909 -0.9872032 230 230 230
0.101195476389611 0.0171504968156978 -0.0221568118191532 0.6794154 -0.3021635 -0.6686494 63 63 63
0.0172165536466937 -0.0585196317307339 -0.0239246538164675 0.0003446995 -0.1666568 -0.9860149 88 88 88
-0.0591506956838392 0.0565063830822146 -0.0269739717102264 0.02524041 0.05567098 -0.9981301 116 116 116
-0.067456145044045 -0.0671035410131556 0.000337676134188784 0.2371579 -0.9509857 0.1984501 65 65 65
0.0977807833184605 -0.0491658315856386 0.00914157906793133 0.09806692 -0.9582183 0.2687015 110 110 110
-0.000927721393964909 0.0666176972115591 -0.0266172799938826 0.004696012 -0.1185519 -0.9929367 101 101 101
0.0580413910579227 0.0797721422890793 -0.0157585809742505 0.3217423 0.7695105 -0.5516661 53 53 53
-0.0541553439187801 0.0294428765592139 -0.026291235925223 -0.01182008 -0.1313658 -0.9912635 121 121 121
0.0123136830959336 0.0448768133450094 -0.0264629113925975 0.02688956 -0.1539511 -0.9877125 118 118 118
0.0357011933746636 0.0794581775937931 -0.0051171674118433 -0.0898277 0.98504 -0.1470618 112 112 112
0.00707606206784162 0.00462752645825626 -0.0255672309423168 0.002127747 -0.1402825 -0.9901092 230 230 230
0.0335996616754268 -0.0607278152922394 -0.00510793179066384 0.1066745 -0.9860545 0.1277382 165 165 165
0.0755301021371588 -0.0550803282287639 0.00313183733971103 0.4513122 -0.8821127 0.1348869 138 138 138
-0.0653634128345284 0.0640715548121162 0.0180756584468399 -0.03806451 0.9354967 -0.3512791 33 33 33
-0.0329440268287151 0.0522289614856898 -0.0267690791524756 -0.007013545 -0.1347727 -0.9908517 140 140 140
0.0699398557009954 -0.056085874504213 0.00748794888291133 0.1978173 -0.976007 0.09098649 152 152 152
-0.0728984009652305 -0.0703134687631664 0.0186803843934605 0.5103547 -0.844234 0.1637286 50 50 50
-0.104718355926914 -0.0832041580472141 0.0210280836902193 -0.9521344 -0.3056382 -0.005041631 44 44 44
-0.0537328680904123 -0.063257849956975 -0.0244250159513535 0.03226473 -0.1017448 -0.9942872 102 102 102
-0.0497049810268992 0.0241611520169422 -0.0261635032347754 -0.02183182 -0.1256437 -0.9918352 129 129 129
0.0455054468481242 0.037455828789165 -0.026105857585045 0.02389156 -0.1435299 -0.9893575 113 113 113
-0.0947152953948602 0.0493092158336542 0.0101503051920984 -0.9620756 0.1313644 0.2390689 48 48 48
0.100628232500647 0.0534926430935745 -0.0112783210265973 0.1578363 0.7490125 -0.6434812 23 23 23
-0.0271991548767412 0.0568382112228668 -0.0266531674949874 0.0107325 -0.1517719 -0.9883572 79 79 79
-0.0338020128631198 0.0675264422129498 -0.0189350395088346 -0.3614172 0.9019403 -0.236392 33 33 33
-0.0965793144886253 -0.0873450712688748 0.00592358149455948 0.49461 -0.8083369 0.3193 74 74 74
0.109960654507974 -0.0401489117187957 0.00534739435020585 0.9767533 -0.183858 -0.1102238 60 60 60
0.011744685882269 0.0678252630150404 -0.0267397250233017 0.01365384 -0.1654711 -0.9861201 83 83 83
-0.096701628544249 0.00111542245559088 0.00336176897328256 -0.995568 -0.03822996 0.08592274 43 43 43
-0.0823184535973815 0.0600785004757537 -0.00248922604386112 -0.09280124 0.9734461 -0.2092621 98 98 98
0.112143416170014 -0.0283233879726307 -0.00306688345703831 0.9623893 -0.2265261 -0.1499754 101 101 101
0.0752951513148263 -0.0557045516353423 -0.00500962022893825 0.2981549 -0.9442773 0.139442 184 184 184
-0.0913735252065919 0.0150181359701887 -0.0263404093369419 0.003229161 -0.1512383 -0.9884921 96 96 96
-0.0755532112855635 0.00289830654880113 -0.025888502892473 -0.01813923 -0.133627 -0.9908656 71 71 71
-0.001283513855453 0.0752817807017551 -0.0272523144012233 -0.02552549 0.2997211 -0.9536853 83 83 83
-0.0793049451326862 0.0629929927878629 0.0179098810007882 -0.07441599 0.9726526 -0.2200208 40 40 40
-0.100851713382716 -0.0876596832908362 0.00543512857477888 -0.8229187 -0.5378525 -0.1830835 38 38 38
0.0928143966145911 -0.00916197898633792 -0.0240891604416217 0.5984989 -0.2103412 -0.7730172 76 76 76
0.05015009391579 -0.0325684439076664 -0.0245943155134171 0.002202461 -0.1424513 -0.9897994 122 122 122
0.0486398890484996 0.0111468322178777 -0.0254972919498318 -0.005636462 -0.1459724 -0.9892726 107 107 107
0.0660878626516754 -0.0331341506181292 -0.0245546760979547 0.008884059 -0.1385028 -0.9903222 118 118 118
-0.0927211048190573 -0.0889267848125447 -0.0203815855921167 0.03442579 -0.8427492 -0.5372044 71 71 71
-0.0711658159414885 -0.0346818450496812 -0.0251625603948865 0.01562932 -0.1739867 -0.984624 123 123 123
-0.0331308822505147 0.00339852003566338 -0.0256100273598193 0.02180673 -0.1216869 -0.9923289 115 115 115
0.0158868967758075 -0.0387828720178769 -0.024737124357657 0.0205555 -0.1371287 -0.9903399 122 122 122
0.0353272673262215 0.0543314294591214 -0.026627281525305 0.01593493 -0.1426373 -0.9896467 167 167 167
0.0292506819701255 0.025180036327758 -0.0260002475055091 -0.0009347374 -0.1323285 -0.9912055 154 154 154
-0.0983561941014728 -0.059253838933244 -0.0120400677528974 -0.9773618 -0.0437177 -0.207009 26 26 26
-0.0958799833506803 0.00718643747142622 0.0117967283714513 -0.9860178 0.002322593 0.1666236 47 47 47
0.0657348611516293 -0.0145580607813529 -0.0249118672369 0.005000982 -0.1457936 -0.9893024 160 160 160
-0.0732417007214714 -0.0702134831743754 0.0146543978004603 0.5506616 -0.834726 0.002086944 60 60 60
-0.0974883287186701 -0.0254693169608908 0.00366227282096644 -0.9882119 -0.01305517 0.1525342 56 56 56
-0.0257576683693475 -0.0621435820199271 0.0194979991810698 0.01825867 -0.9649875 0.2616596 72 72 72
0.0681031010681641 -0.0128028978728185 -0.0249129035675749 -0.005677521 -0.1521344 -0.9883435 88 88 88
-0.0965319904748567 -0.00213758986943224 -0.0263564617506714 -0.2843944 -0.09223985 -0.9542598 96 96 96
0.0579199767265657 -0.0518430232700768 -0.0240415562377872 -0.002614683 -0.1431255 -0.9897011 121 121 121
-0.0946315228036765 0.000302938493122129 0.0166323810909208 -0.9886664 -0.0551687 0.1396251 53 53 53
0.0160713630222673 0.0150725457490712 -0.026230156634931 0.01600936 -0.1297421 -0.9914185 132 132 132
-0.0930056246484097 -0.0197357239315187 -0.0259448230859173 -0.09445744 -0.09442933 -0.9910403 128 128 128
-0.0643752717006749 0.0462614204628764 -0.0268556925059584 -0.01541634 -0.1383794 -0.9902593 117 117 117
-0.058916904056171 0.0490933625384851 -0.0267922686159897 -0.02208259 -0.1302486 -0.9912354 101 101 101
0.0756202243617459 0.0674704972944301 0.00772097607289811 0.2611497 0.7242332 -0.6381905 47 47 47
0.0103706383965669 -0.02370321500209 -0.024667047898321 -0.02429032 -0.1365062 -0.9903414 92 92 92
-0.0615051021678952 0.0588187200895149 -0.0241783912096712 -0.1018958 0.7848599 -0.6112383 144 144 144
0.043057983602377 0.0800207038780008 -0.00746020911989616 -0.1199362 0.9709002 -0.2072874 91 91 91
-0.0458951099335132 0.0628917340590036 -0.00986944827088206 -0.1297456 0.9915105 0.008540691 34 34 34
0.0557752833054705 0.0727424891121293 -0.0267094680174522 0.04406957 -0.06251896 -0.9970703 76 76 76
-0.0809165498509261 -0.0830168502589718 -0.0194965766076549 0.4892356 -0.8721505 0.001437081 49 49 49
-0.0509202989348061 0.0215595990520152 -0.0265251117600008 -0.02156943 -0.1374649 -0.9902717 229 229 229
0.00787033179657914 -0.0615623040610166 0.0134429111945233 0.01274292 -0.9826918 0.1848091 138 138 138
-0.0715620200120946 0.00736482292046065 -0.0259757542875169 0.003778501 -0.1281601 -0.9917463 193 193 193
-0.0310289057327218 0.0694163425510206 -0.016492819819781 -0.442659 0.8919044 -0.09251835 37 37 37
0.0807943637290773 0.0711647118120591 0.0127891005352278 0.02474833 0.7149977 -0.6986886 36 36 36
-0.0973582747559734 0.0348714720972353 -0.0178542625024967 -0.9968579 0.07870265 -0.008960662 37 37 37
0.00301107570318071 0.0435646779258185 -0.0266259963187056 -0.008984974 -0.1439155 -0.9895492 158 158 158
0.0366284959556324 -0.0543529259825618 -0.0237989410554981 -0.01112997 -0.126041 -0.9919626 105 105 105
0.0501852415906539 0.0817912133916553 -0.00123477713046878 -0.054174 0.9616895 -0.2687351 54 54 54
-0.0989690006876938 0.0215345481834293 -0.00114012819074364 -0.9816918 0.1091383 0.1561092 53 53 53
-0.0110073645888658 0.0798386380804863 0.00226960008082576 -0.1601034 0.9651601 -0.206961 91 91 91
0.0793498515509321 0.0258206773018848 -0.0255814668855628 -0.01235706 -0.1454759 -0.9892846 95 95 95
0.0829369900092041 -0.00626946292173536 -0.0249740555345834 0.01251025 -0.1421724 -0.9897628 152 152 152
0.0629423488785732 0.0450482254696638 -0.0260595165794793 0.02924428 -0.1387359 -0.9898975 106 106 106
0.101616275741739 0.0374973063565103 -0.0255288416363768 0.3619126 -0.1272487 -0.9234864 120 120 120
-0.0901239361274984 -0.0872333373795281 -0.0114064751946905 0.6006746 -0.7437857 0.2932112 57 57 57
-0.0951340641099947 0.0347392539834115 -0.0268433368560934 -0.382473 -0.1344718 -0.914129 128 128 128
-0.0160802065678634 -0.0647813491680737 -0.00770196815730381 0.106633 -0.9672599 0.2302992 109 109 109
0.0281538153692777 -0.0610465159419364 0.00861203347816275 0.1063623 -0.9758871 0.1906081 151 151 151
0.034767361268254 -0.00574370534036667 -0.0249516854468441 0.03254078 -0.1580231 -0.9868991 90 90 90
0.0434582057498818 -0.0454104036920444 -0.0241691141071935 0.001602369 -0.1305858 -0.9914357 134 134 134
0.111128143865799 -0.0345794602068756 0.00175130966722506 0.9773263 -0.2011252 -0.0661962 110 110 110
-0.0671931853965821 -0.0304414768519806 -0.0250843547078168 0.05291178 -0.1689014 -0.9842117 114 114 114
0.112277938465378 -0.00076762018734805 -0.00877100362455956 0.7488284 -0.1838728 -0.6367471 101 101 101
0.100763594350446 0.0561171534971664 -0.00773782235517454 0.1011616 0.7034568 -0.7035019 23 23 23
-0.0983631820368989 -0.00626277207923304 -0.0152128043130056 -0.9992012 0.02015804 0.03450603 38 38 38
-0.0567969084550939 -0.00320046909412486 -0.025835518793564 0.01528556 -0.1240698 -0.9921557 133 133 133
-0.0942959955567599 -0.000865966986388023 0.0181170394485483 -0.9878823 -0.04038905 0.1498574 68 68 68
0.0232176448055579 0.0245900954409834 -0.0257632471533787 -0.005468545 -0.1487428 -0.9888608 132 132 132
0.0931232011388456 0.0452891982664601 -0.0258113824243951 0.006709414 -0.1177188 -0.9930243 134 134 134
-0.0196875698133894 0.0596766408477987 -0.0267711157973032 0.02249342 -0.1750647 -0.9843 132 132 132
0.0365621803725413 -0.0598543039430928 0.0143345018235873 0.04196405 -0.9814706 0.1869612 123 123 123
-0.0239686573157141 -0.06326950835866 0.00605030938793028 0.007484224 -0.9901928 0.139507 123 123 123
-0.052813724505741 0.0150680751531884 -0.025856219658547 -0.02240708 -0.1617842 -0.9865717 107 107 107
-0.0262516996708217 -0.0634653216638765 0.0098695246944139 0.03491832 -0.9874685 0.1539048 119 119 119
-0.0741856185125513 0.0266788424601584 -0.0264459199916116 0.006976375 -0.1367004 -0.9905879 161 161 161
-0.0835112053865801 -0.0788727957252759 -0.0240123206007094 0.01035322 -0.1327254 -0.9910988 100 100 100
0.0398477653671585 -0.0400173648330377 -0.024455157966339 0.0197096 -0.1390705 -0.9900863 127 127 127
0.11558771035051 0.0139208659278425 0.00368128060369136 0.9981318 -0.06047908 -0.00867405 58 58 58
-0.0530778815209774 0.0532574012992206 -0.0268428505899509 0.01038459 -0.1198713 -0.9927351 98 98 98
0.0527977143219835 -0.0583188052782375 -0.0199183358817167 0.2000982 -0.9796171 -0.01763618 128 128 128
-0.0431475627310314 0.0551467614034315 -0.026756808440759 0.01528507 -0.107684 -0.9940677 85 85 85
0.0871194429623015 0.0100033412300124 -0.0251048454190109 0.01025863 -0.1511741 -0.9884539 124 124 124
-0.0154046719131635 0.0060198415002774 -0.0256770123639954 -0.01596766 -0.1376865 -0.9903471 127 127 127
0.0218608405713265 0.054768731547725 -0.02673140953862 0.007058251 -0.1393299 -0.9902208 81 81 81
0.050912154215359 0.025893418623586 -0.0259814660336831 0.01997834 -0.1290114 -0.9914418 154 154 154
0.105301558162557 -0.0475723223722695 0.0206279403135095 0.0704594 -0.9730074 0.2197545 66 66 66
-0.0626662277374721 0.0139995598882897 -0.0262275486354848 0.0317475 -0.1271295 -0.9913779 132 132 132
0.0948821324114006 -0.00532932782218976 -0.0201166489202069 0.7226311 -0.2213498 -0.6548347 83 83 83
0.0439539681126244 -0.0556958760482738 -0.0241290592380064 0.05495657 -0.3380217 -0.9395324 79 79 79
-0.0927903055788266 -0.0891024711025481 -0.0132437107055803 0.5134727 -0.7908595 0.3329969 63 63 63
-0.0499653798737469 -0.064924194495159 0.0175869375991971 0.07693041 -0.9636981 0.255671 65 65 65
0.0234399416450897 -0.0619758628270763 -0.00536984535393342 0.1369501 -0.9842376 0.1118977 113 113 113
0.0336919021578015 -0.0367521203736354 -0.0240960496130846 0.0118201 -0.1610129 -0.9868815 125 125 125
-0.00113307041649047 0.0739019279062649 -0.0270145584941042 0.03067979 0.03710362 -0.9988404 85 85 85
-0.0180419908794596 0.0457721545189441 -0.0266136674352935 0.00911838 -0.1365395 -0.9905927 120 120 120
0.10531006283477 0.00702652669990267 -0.0152231028652489 0.5730061 -0.3760777 -0.7281687 81 81 81
0.117169863166668 0.032750169341571 -0.0132249717656865 0.5305392 0.104352 -0.8412127 29 29 29
-0.040870130414598 -0.066558544377132 -0.00848112887642286 0.02798624 -0.9242452 0.3807723 108 108 108
0.0826134698286307 -0.05343796330291 -0.0229590807075159 0.1771465 -0.9092376 -0.3767042 113 113 113
0.0104592122943321 0.00916464102237724 -0.0259074410511682 0.004175775 -0.156433 -0.9876797 73 73 73
-0.044270521903029 -0.0692610387219509 -0.0198330707830641 0.1300413 -0.9820064 0.1369403 94 94 94
-0.0642152410788339 -0.0707291471111157 -0.0206010610818244 0.2983395 -0.9434036 0.1448554 55 55 55
0.0552259132355382 -0.0580938912913704 -0.0119644734726427 0.1874382 -0.9808303 0.05328156 123 123 123
-0.0229471823087233 -0.0638274342307616 -0.00327623820726873 0.02721534 -0.9362013 0.3504091 138 138 138
0.0843213817295125 0.032133840575767 -0.0256758251553167 0.00795228 -0.1313057 -0.99131 146 146 146
-0.101505253617673 -0.0843299362553428 0.00371293488109608 -0.9554427 -0.1653871 -0.2444919 33 33 33
-0.0998282246084434 0.00113485811062541 -0.0169846517898908 -0.9779792 -0.1409637 0.153902 50 50 50
-0.0930585867772233 -0.0802320751063967 0.0146239273918616 0.59484 -0.6690037 0.4456449 74 74 74
-0.0572170091869724 0.0334272687081805 -0.0263212177110455 -0.003282366 -0.1450322 -0.9894215 115 115 115
-0.0403558161095354 -0.0143740752098385 -0.0256004710484866 -0.01149028 -0.1494113 -0.9887084 161 161 161
0.0151956233975845 -0.00845113387164248 -0.0251091241309808 0.02291926 -0.1670973 -0.985674 112 112 112
0.0532113285506137 -0.0582935927192032 0.00794366821468091 0.07295858 -0.9709693 0.2278061 145 145 145
0.0617265822021278 -0.0574631070349171 0.00395758315170026 0.1227201 -0.9745241 0.1877297 163 163 163
-0.0960986940387767 0.041150206151479 0.00719656382516337 -0.9803192 0.07598685 0.1822092 28 28 28
0.0541368847250376 0.0176619544536078 -0.0257119587949903 0.01007416 -0.1383185 -0.9903365 235 235 235
-0.00864129235131572 0.0646390747894217 -0.0266486347977536 -0.008594117 -0.1658731 -0.9861097 148 148 148
0.0543118845483925 -0.0542701812939512 -0.0238443979393739 -0.002609528 -0.399087 -0.9169094 111 111 111
-0.0925806155656601 0.0591827431297066 -0.00053346760065168 -0.3831023 0.909036 -0.1639699 93 93 93
-0.0103404189668084 -0.0629321054349084 0.00348752746701784 0.04599785 -0.9755788 0.2147793 131 131 131
0.035996446244952 -0.0183599029691528 -0.0248192909249163 0.0009712696 -0.1416822 -0.9899117 226 226 226
-0.0242066460863151 0.0444913823506489 -0.0266535507617423 -0.004821348 -0.1384006 -0.9903646 124 124 124
0.0346127732828487 -0.0241735356206395 -0.0247871444313126 0.02332242 -0.139372 -0.9899654 98 98 98
-0.0739617592648478 -0.0715065229037469 -0.00405298733155053 0.635716 -0.6861512 0.3536407 62 62 62
-0.0989078097097797 -0.0738257063799617 -0.00962159126409425 -0.9785727 0.0490605 -0.1999711 25 25 25
-0.0865656719926546 -0.0149705002934529 -0.0262083961843784 -0.01294333 -0.1496303 -0.9886573 132 132 132
-0.0601063923553302 -0.0659140456606973 0.0141846426961588 0.1070488 -0.9512573 0.2892231 68 68 68
-0.0965761694062439 -0.00363690707963332 0.00235950322358877 -0.9891226 0.0747855 0.1266632 43 43 43
0.0271936656097895 0.0824004586499975 0.0195795306975465 -0.05608198 0.9596168 -0.2756637 121 121 121
0.00474815034051557 -0.0477599325780332 -0.024478423470995 0.02099132 -0.1667037 -0.9857836 110 110 110
-0.0984739815550493 0.0562299253652567 -0.026917721084118 -0.662403 0.4243412 -0.617379 169 169 169
-0.0655113274311538 0.00414182124125861 -0.0260721116711921 0.009348704 -0.1460247 -0.9892368 228 228 228
-0.0957093065883974 0.0589913267541793 0.00113171752611465 -0.8247221 0.5554265 -0.1064653 51 51 51
-0.0884508131569346 -0.0354674812758098 -0.0251483147492384 0.03347638 -0.1578704 -0.9868922 131 131 131
0.0144440224252298 0.0813833672728278 0.0176426672009585 -0.04514983 0.9704317 -0.2371156 108 108 108
0.018599931287735 -0.0384332759338775 -0.0243141315529842 -0.01045972 -0.144456 -0.9894559 96 96 96
0.0483680959384956 0.0674008550365757 -0.0264785317419807 -0.01308662 -0.1389621 -0.9902112 102 102 102
0.105715931731922 -0.0200275499754415 -0.0104040511758361 0.4561647 -0.2895562 -0.8414695 55 55 55
-0.00118700109792558 0.0561270236651315 -0.0266719808744556 0.01089567 -0.1384503 -0.9903094 129 129 129
0.0162829951954993 -0.0388078854325054 -0.0245636578371866 0.02550013 -0.1355747 -0.9904389 120 120 120
-0.00206721835303014 -0.0623761632637128 0.00820416762797358 0.0260254 -0.9929444 0.1156897 111 111 111
0.0312483453329726 -0.0611900984961705 -0.015659980429829 0.1314528 -0.9812286 0.1411048 116 116 116
-0.0539181239912434 -0.039343727367644 -0.0244327594577819 -0.01091358 -0.1111646 -0.9937421 88 88 88
0.0104466673753036 0.02484868864435 -0.0261168284610874 0.03761536 -0.1447021 -0.98876 113 113 113
0.04097447041078 -0.0255910324579546 -0.0247773436680408 -0.002965206 -0.1426602 -0.9897673 88 88 88
0.0829336906738973 -0.0504400658875929 0.0104698176554191 0.3900083 -0.9160054 0.09395547 65 65 65
0.0852163075922565 -0.0492061875343922 0.0186383263699814 0.5780287 -0.8138034 -0.06005679 76 76 76
0.114664291673191 0.0377447118010453 -0.0132459496135355 0.5627772 -0.08745233 -0.8219695 60 60 60
-0.0435490166756312 0.0408859316563894 -0.0265790916949108 0.009926356 -0.1133891 -0.9935011 142 142 142
0.0671422875489835 -0.0448908656393245 -0.0237607399287724 -0.004765968 -0.1454644 -0.989352 95 95 95
-0.0521194840396284 0.00899000275861234 -0.026160817361986 0.004351813 -0.1280779 -0.9917546 237 237 237
0.0203575786444583 -0.0364725589275803 -0.0245881253647113 -0.01134231 -0.1431563 -0.9896351 92 92 92
-0.0766507840545207 -0.0723190207006068 0.0145065037146231 0.5055986 -0.8601778 0.06681494 64 64 64
-0.0975103687522041 -0.0160867736656654 0.00405002299563129 -0.9900721 0.01564109 0.1396878 49 49 49
-0.0240320094838666 0.0431727302933875 -0.0265527893341196 -0.004314433 -0.1401282 -0.990124 144 144 144
0.00411792138660783 -0.0196157591596887 -0.0249944972316386 0.01180436 -0.1474507 -0.9889989 139 139 139
0.0156074894386451 -0.0327148275874491 -0.0249494239211502 -0.001711455 -0.1551253 -0.9878933 96 96 96
-0.0102661672292139 0.0146954992550163 -0.0260065022780834 0.01401285 -0.1413491 -0.9898607 136 136 136
0.0152415025432495 -0.0625659249042696 -0.000522509426737729 0.02661186 -0.9866847 0.1604524 122 122 122
-0.0979155527100013 -0.0358345630811218 -0.00886496417903209 -0.9857395 -0.02996608 0.1655886 70 70 70
-0.0989271039643076 -0.0604892272035932 -0.00957762547360797 -0.9789976 -0.05124336 -0.1973266 28 28 28
0.102760045879456 -0.0118648654937025 -0.0130981478966029 0.6291025 -0.1467662 -0.7633411 46 46 46
-0.101429042245143 -0.0584312118084379 0.00447996620325898 -0.9765958 0.03416371 -0.2123523 23 23 23
0.00882287519218239 -0.0233883635517823 -0.0249396988168656 -0.01797918 -0.1386636 -0.9901763 93 93 93
-0.102933691088152 -0.05880031207408 0.00957543318542068 -0.9887334 0.08858883 -0.1206577 38 38 38
0.0525368407162108 0.03014554636211 -0.0259039423729414 -0.01217236 -0.1443131 -0.9894572 148 148 148
-0.0999365130586065 0.0198106844358028 -0.0134437852756248 -0.992077 0.1116439 -0.05761002 25 25 25
0.114485298607225 -0.0137302836680974 0.00483836600289153 0.9962837 0.08595886 -0.005466822 76 76 76
-0.0989064058608078 -0.00576181371585111 -0.0233818632570361 -0.8959862 -0.1390023 -0.4217667 21 21 21
0.0638570846900519 -0.0572935871122813 0.0157703447311385 0.08126851 -0.9886943 0.1260123 134 134 134
-0.0330304582036265 0.0644421089156226 0.00852080323016089 -0.1672601 0.9561505 -0.2404168 93 93 93
0.0304571105103284 0.0291553227990042 -0.0258753565081279 0.01968419 -0.146547 -0.9890078 128 128 128
0.11273087642888 -0.0282005335352752 0.00871123099011228 0.974568 -0.2100379 -0.07811055 114 114 114
0.084651999263718 0.0460294407870587 -0.0257961335353476 0.002596132 -0.1576947 -0.9874845 83 83 83
-0.0366522205683257 0.0630060458702792 0.00263445463421637 -0.2297351 0.9641662 -0.1326848 66 66 66
0.113273427941307 -0.0261512221452843 -0.00171396999084554 0.9758212 -0.2139547 -0.04468026 99 99 99
0.0894273460264627 -0.0485805311263816 0.0162359898141836 0.07958582 -0.9544088 0.2876978 70 70 70
-0.0989962336625252 -0.0843941826988115 -0.0129226000107097 -0.9969116 -0.02702309 -0.07373616 35 35 35
0.0715745775559344 0.0383337795199546 -0.0257192580272126 0.002934838 -0.135773 -0.9907357 123 123 123
0.0158444888797848 0.0771314224325177 -0.0266390228110884 -0.03843778 0.5358443 -0.8434414 205 205 205
-0.0373381611742034 0.0639229371881617 -0.00233607267191563 -0.3165737 0.9480741 0.03060346 33 33 33
0.0303924466266714 0.0638882821003467 -0.0266762234060536 0.01109479 -0.1474122 -0.9890129 119 119 119
-0.0561611067588679 -0.0216838725349939 -0.0254019792385624 0.04364694 -0.1444675 -0.9885464 230 230 230
-0.0844162714696537 -0.0809211564100062 -0.00688349203464887 0.6264111 -0.7111143 0.3192578 72 72 72
-0.0479373658047344 0.0102668390518862 -0.0257240857892238 -0.007746856 -0.1210403 -0.9926174 225 225 225
0.0546771282786198 0.0826913243866964 0.0136948402181016 -0.05497834 0.9869204 -0.1515438 92 92 92
-0.100361018762282 -0.0404281913230761 0.0103924563304105 -0.9247305 0.3055387 -0.2269792 69 69 69
-0.0970816773739667 -0.0253074385399392 0.00551787991171857 -0.990788 -0.002005855 0.1354068 59 59 59
-0.0471313679466971 -0.0695726048504172 -0.0240196725511129 0.1687645 -0.855895 -0.4888376 77 77 77
0.0297454019974739 0.0357381237087082 -0.0262419130622436 0.01337794 -0.1428929 -0.9896477 168 168 168
-0.041486619901498 0.057160038580452 -0.0266986661598804 -0.01524596 -0.09574658 -0.995289 90 90 90
-0.0630558223947091 0.0620126709935328 -0.00575335213812534 0.01505488 0.956998 -0.2897036 67 67 67
0.0964667535402155 -0.0469212943598147 0.0236014885722346 0.08413518 -0.9596139 0.2684447 77 77 77
-0.0971502526269343 -0.0678647002194724 -0.0209322264544996 -0.9321579 -0.0828014 -0.3524566 26 26 26
-0.082590936946576 0.0620283574957084 0.013569088705757 -0.1010987 0.9761 -0.1923742 80 80 80
-0.0768542431625669 0.0505833640044336 -0.0269991690605078 -0.0003281316 -0.1463513 -0.9892326 110 110 110
-0.0448126842395 0.0526126279707174 -0.0268899661852977 0.01617342 -0.1325545 -0.9910437 70 70 70
-0.102318303510306 -0.0576253566197922 0.01476987203126 -0.9989595 0.02035197 0.04081325 51 51 51
0.0330050935046331 0.00333271425307297 -0.0254119009195146 0.007872335 -0.1273839 -0.9918222 116 116 116
0.0745305784391663 -0.0419159964870757 -0.0239043437834238 0.02332989 -0.1543869 -0.987735 98 98 98
0.000211781252040133 0.0460814446048975 -0.0264121053455236 -0.009854851 -0.1356312 -0.9907104 124 124 124
-0.0990000369341628 0.0548753064498588 -0.0270349438942627 -0.827049 0.139503 -0.5445446 50 50 50
-0.100739762527986 0.0103914963196206 -0.0206109960479375 -0.9991087 -0.001156207 -0.04219491 29 29 29
-0.0756163445489724 0.0532762534508394 -0.0271527992671688 0.03390712 -0.1130924 -0.9930058 103 103 103
-0.0489908223576661 0.0366466113295996 -0.02695127250729 -0.01472912 -0.133297 -0.9909667 105 105 105
-0.0188356672037515 0.0352499613965302 -0.0263263440506804 0.009240265 -0.1247545 -0.9921446 93 93 93
-0.0446333920219792 0.0126250724382093 -0.0262939099267713 -0.02752756 -0.134874 -0.9904803 204 204 204
0.0594047445030825 -0.0100597293512739 -0.0247199530656639 -0.003929889 -0.1240242 -0.9922714 223 223 223
0.0159798511592353 -0.0351598484942617 -0.0245007751339643 0.001677227 -0.1431817 -0.989695 75 75 75
0.0308359670859633 -0.0413018779993224 -0.0242982849430044 0.02019218 -0.133936 -0.9907842 89 89 89
0.0496265388793582 0.0580070792383335 -0.0264728538345725 -0.009009232 -0.144582 -0.9894518 58 58 58
-0.0973077056260108 0.00709190386240627 0.00230446507921772 -0.9848541 -0.1149388 0.1298132 56 56 56
0.0548089328924999 0.0124992701933967 -0.025475776516287 0.004717715 -0.1388002 -0.9903092 207 207 207
-0.0996290122482606 -0.0892280256724722 0.00737912854767201 -0.4453357 -0.8381084 0.3150403 92 92 92
0.10122045345886 -0.0502137479395193 0.00441357036963335 0.0700258 -0.9658837 0.2493293 111 111 111
-0.10119836909783 -0.0862433192125212 0.00307338729622785 -0.9078527 -0.3298038 -0.2589073 36 36 36
-0.0579349910897078 0.0450445079598552 -0.026792019486171 -0.003694106 -0.1435889 -0.9896305 132 132 132
-0.0195037513276546 0.0545644953377493 -0.0261975893442259 -0.005863938 -0.1357518 -0.9907255 74 74 74
0.0597417636462536 0.0130710903596046 -0.0256754517463471 0.01505493 -0.1367415 -0.9904923 228 228 228
-0.0851880634721982 -0.0779974674134239 0.00341409902019326 0.5897326 -0.744885 0.3120285 66 66 66
-0.0499437298277916 -0.0700214629275595 -0.0221972728037549 0.09854626 -0.9944891 -0.03577762 76 76 76
0.0432975389815238 0.04179765533004 -0.026038179493674 0.02611962 -0.1228687 -0.9920791 111 111 111
0.0450739297889764 -0.0594095522586021 -0.0205726746226295 0.1613647 -0.9760012 -0.1462294 127 127 127
0.115096669852083 -0.018916368257444 0.016803082568824 0.9945356 -0.09640103 -0.04007324 82 82 82
-0.0827494411526248 -0.00198527305801705 -0.0258256849243042 -0.005797624 -0.1207242 -0.9926692 105 105 105
0.105561457709691 -0.0477365105910103 0.0164241091418813 0.06928407 -0.9623992 0.2626549 77 77 77
0.0540048211259545 -0.0522131919928296 -0.0237295494903247 -0.01631386 -0.1866919 -0.9822831 91 91 91
-0.0955073825836656 4.4150272698551E-05 -0.0259233508755312 -0.1061092 -0.1089814 -0.9883643 112 112 112
-0.0734237369621229 0.0611708565743525 -0.00743744467465372 -0.1203089 0.9677008 -0.2215423 142 142 142
-0.00910372486270283 0.0365559942318374 -0.0262264101420984 -0.004690161 -0.1499923 -0.988676 93 93 93
0.0269312554214929 -0.0597403391489432 -0.0245126842965944 0.04115033 -0.3628021 -0.9309572 95 95 95
0.0382456929433856 -0.0604304392091565 0.00983359605417048 0.1004806 -0.9736097 0.2049089 104 104 104
0.0332350395788092 0.0793842031364978 0.00245922345615076 -0.06870597 0.9777063 -0.1984184 127 127 127
-0.0114679371356483 -0.013803625175128 -0.0253933468211805 -0.006546176 -0.1395565 -0.9901925 98 98 98
-0.0111604392763489 0.0404569052102146 -0.0263273221828283 -0.0007929411 -0.1627567 -0.9866659 147 147 147
0.0678504777920088 -0.0563599807103036 0.0154959419021396 0.08529019 -0.9911147 0.1020645 89 89 89
-0.0212008516239148 0.00743511162848026 -0.0256787494493494 0.003607793 -0.1496193 -0.9887371 107 107 107
0.102850783190086 0.0303326984439455 -0.0242141616335731 0.5878882 -0.2393596 -0.7727189 59 59 59
-0.0940233249280555 -0.0893020961599448 -0.00670960255646565 0.3614684 -0.869939 0.3354798 76 76 76
-0.102562813879581 -0.0642356143378477 0.00631974619731759 -0.9754868 0.03026638 -0.2179665 24 24 24
-0.0574828016831521 0.0612434340082799 -0.00776734096926725 -0.02977583 0.9657434 -0.2577848 55 55 55
0.0360041338833297 0.015883499244642 -0.0256012577408931 0.001304756 -0.1570594 -0.9875883 169 169 169
-0.0977004537568558 -0.0301756023555112 0.0189722986756314 -0.9749462 0.2063739 -0.08300423 79 79 79
-0.027910122539609 0.0682708680556949 -0.00047332817234948 -0.6048552 0.7839967 0.1396401 23 23 23
-0.0968603535841348 -0.0221385803014004 0.00732146808495234 -0.9892789 0.04936505 0.1374424 64 64 64
-0.0992301376272531 0.008806746068098 -0.00526055159787987 -0.9655179 -0.1253937 0.2281481 55 55 55
-0.066524188178342 0.034089973999455 -0.026595256585118 3.464075E-05 -0.1213535 -0.9926094 136 136 136
-0.0972380265041775 0.0408395224203915 -0.00662235565857303 -0.9989771 0.02531341 -0.03747002 25 25 25
-0.098266536337593 0.00433832898721737 -0.00537928648089432 -0.9727079 -0.1210198 0.1979734 54 54 54
0.0979238700001748 0.0352312052566693 -0.0257738916953336 0.01504107 -0.1290367 -0.9915257 91 91 91
-0.0943166481115003 -0.0881463176071451 -0.00428669882243009 0.3206284 -0.834151 0.4487645 68 68 68
-0.0947789755620829 -0.0119086518551686 0.018275622859075 -0.9876801 0.1265437 0.09205821 78 78 78
-0.0139342391628139 -0.0620624062797079 0.0180073504147884 -0.04544206 -0.979407 0.1967152 75 75 75
0.0347868056269218 0.00512625037366082 -0.0253801676262277 0.003033801 -0.1316219 -0.9912953 133 133 133
-0.0413429239339749 0.0640900017922523 0.0131578523990973 -0.1263701 0.964323 -0.2326195 124 124 124
-0.0326896312807212 0.0338224851974533 -0.0264448003555469 0.02657809 -0.1403327 -0.9897476 115 115 115
0.0410098035545901 0.0792422392898696 -0.0160699762876978 -0.08308596 0.9836316 -0.1598927 123 123 123
0.00659544295914238 -0.0381539156565609 -0.024770831444986 0.0006308276 -0.1338932 -0.9909956 107 107 107
0.0983113988716042 0.0359939533163097 -0.0251240748242758 0.01217983 -0.1278679 -0.9917164 133 133 133
0.0352862017556304 0.0724261973371555 -0.0268399605512993 0.0242761 -0.1573548 -0.9872437 104 104 104
-0.0648885951986249 -0.0502630835679501 -0.0247005645072713 0.009872491 -0.1454835 -0.9893114 125 125 125
0.104282064641352 -0.0156841909353812 -0.0120555730547163 0.5614272 -0.1844661 -0.8067042 68 68 68
0.0317995480475495 0.0360674950677593 -0.0261346240838349 0.01367806 -0.1529501 -0.9881393 111 111 111
0.0721417569675662 0.0366101463303478 -0.0257858679491723 -0.00557473 -0.1344415 -0.9909058 127 127 127
-0.0649791231317745 0.0624084403169913 -0.00414191732870365 -0.02119175 0.9757866 -0.2176957 86 86 86
0.102067823951032 0.0237564301099483 -0.0243699546005024 0.6043155 -0.1814919 -0.7757986 53 53 53
0.0174684462035064 -0.0624471686550576 -0.0229939331939328 0.05650448 -0.8668727 -0.4953171 177 177 177
0.104246832940039 0.0215297629937831 -0.0208496372732037 0.6424579 -0.2172567 -0.7348791 64 64 64
0.111874585079801 -0.0364085526685837 0.0209412368742876 0.9875143 -0.1521118 0.04095772 76 76 76
0.051177130169189 -0.0595332441243395 -0.009621663033714 0.1551363 -0.9854568 0.06933711 88 88 88
0.0112921371830323 0.05522553321881 -0.0266034450695096 0.001342843 -0.1308258 -0.9914045 127 127 127
-0.0397900738031931 -0.00652620385582392 -0.0255565390824378 0.01735713 -0.1468585 -0.9890052 142 142 142
0.0219532825219699 -0.0619492163963378 -0.00668004207463174 0.127643 -0.9855853 0.1110359 107 107 107
-0.0411362818616317 0.0209332659565393 -0.0261100384223763 0.0167965 -0.1440589 -0.9894266 100 100 100
-0.0935784790085232 0.0388662744422294 -0.0267118413198136 -0.1403673 -0.1554799 -0.9778154 115 115 115
0.015398791520038 0.0199862054217848 -0.0258514532573089 0.01726556 -0.1118431 -0.9935759 125 125 125
0.0294736229880972 0.0717264379510087 -0.0269897272963014 0.02028745 -0.1417045 -0.9897011 143 143 143
0.0171946112488535 -0.0629175775237041 -0.0106115218296658 0.08293401 -0.9883401 0.1276945 153 153 153
0.0923652661946783 -0.0118597501591162 -0.0228100550064045 0.625585 -0.2425952 -0.7414789 63 63 63
0.0184037431744242 -0.0399632891811209 -0.0244274391327888 -0.0002563166 -0.1257706 -0.9920593 99 99 99
-0.00740754499348584 -0.0614333550878975 -0.0245610611934228 0.05599739 -0.5127749 -0.8566949 125 125 125
0.0339194866460752 -0.0611132308577905 0.0016229163489153 0.07604691 -0.990896 0.1110947 116 116 116
-0.0195954005848527 -0.0631790826595094 0.0133922976319971 0.05539319 -0.9842376 0.1679522 139 139 139
-0.0974559639216168 -0.051377071727412 -0.0203901107715857 -0.9840798 -0.07393479 -0.1616185 31 31 31
-0.0695769553361494 -0.0434601520116364 -0.0248344940557656 -0.003024979 -0.120628 -0.9926932 83 83 83
0.0154422439479653 -0.0623429540380573 -0.0204475728351814 0.03978927 -0.98483 -0.1688982 95 95 95
0.00924978880423777 0.0673925604844536 -0.0269325450919806 0.02977564 -0.1540303 -0.9876174 105 105 105
-0.0934450045843855 0.0594020077081774 0.00123922840482538 -0.4779023 0.8778416 -0.03167866 82 82 82
-0.0981166481846611 -0.0517220614124945 -0.0138079559316305 -0.9639685 -0.0559485 -0.2600664 31 31 31
0.114993151076377 -0.0182889003510608 0.0166243571444169 0.9939635 -0.09821597 -0.04888956 90 90 90
-0.0976730211488868 -0.0478967725338477 -0.0141859951545089 -0.9791735 -0.026909 -0.201234 28 28 28
-0.0454699001156265 0.00441996372398279 -0.0257348695137535 -0.00870811 -0.144513 -0.9894646 55 55 55
0.0552223682425834 0.0833694288943234 0.00806096992320726 -0.08829944 0.983027 -0.1608142 101 101 101
0.00108679052708349 -0.0323864358826173 -0.0248533507510101 0.0102785 -0.1418391 -0.9898363 103 103 103
0.0504179015371242 -0.00405955718874612 -0.0248174958732813 0.02242006 -0.1574264 -0.9872762 105 105 105
-0.0531438952835703 -0.0146029052891928 -0.0256219225214584 0.01719379 -0.1653118 -0.9860915 128 128 128
-0.0130384758093174 0.00591686512037154 -0.0258752528214706 -0.009487847 -0.1370329 -0.9905211 144 144 144
-0.0959088324282542 -0.0189311774752396 0.0153801234753473 -0.9934528 0.1137213 -0.01090912 60 60 60
-0.0241874579411039 0.0472562791719186 -0.0267435566686754 -0.005897774 -0.1251444 -0.992121 111 111 111
-0.0277904390211496 -0.064654238229835 -0.00402914420785995 0.05722238 -0.9255967 0.3741607 112 112 112
0.0881020861532988 -0.0343929178642929 -0.0223331549965881 0.8016689 -0.2402525 -0.5473624 67 67 67
-0.101244782558056 -0.0837273670688061 0.00326917159754318 -0.9491249 -0.1556427 -0.2737467 33 33 33
-0.0899205862328896 0.0572573339975128 -0.0248281178433902 -0.09793355 0.7439353 -0.6610364 145 145 145
0.0547992049077179 0.0808381838806522 -0.0106484454944556 -0.04752702 0.9655241 -0.2559381 52 52 52
0.114075296893845 -0.00038020650396231 -0.000331741809761716 0.9821708 -0.1581898 -0.1015698 49 49 49
-0.0980401437545746 -0.00176827705963251 -0.0111327056454922 -0.9939229 -0.02307551 0.107633 48 48 48
-0.00352071985925817 -0.00888617558418858 -0.0253184262253049 0.02851282 -0.1338896 -0.990586 134 134 134
0.0404044472546337 0.0649720027571295 -0.0265984282249119 0.02030494 -0.1352058 -0.9906095 79 79 79
-0.0987317115588302 -0.0559881886319518 -0.01130346118444 -0.9761144 -0.05773236 -0.2094462 30 30 30
0.0150881276160522 0.0723630842631851 -0.0270474338050283 0.0003169308 -0.1066759 -0.9942938 94 94 94
0.0237623477445761 -0.0621239234800511 -0.0128418194412663 0.1261916 -0.9740474 0.1879022 124 124 124
0.00626789832379915 0.0267058471246687 -0.0260512108122101 -0.01342324 -0.1388469 -0.9902229 112 112 112
-0.0310715937806092 -0.0668917697854662 -0.0237208887115733 -0.09455249 -0.699495 -0.7083548 91 91 91
-0.100134766892218 0.0178397023030261 -0.0175272437230023 -0.9852536 0.126704 -0.1149847 17 17 17
-0.043212319490916 -0.0319452198026981 -0.0248485565987166 -0.0004276501 -0.1544326 -0.9880033 63 63 63
0.0866731528339497 -0.0531541518294633 -0.0154680930334902 0.1002054 -0.9828324 0.1549172 148 148 148
0.0434864468490532 0.0370771275600497 -0.0261074737442656 0.01581489 -0.1502438 -0.9885225 121 121 121
-0.068780046868878 -0.00216577483544439 -0.0259690551342985 0.02316897 -0.1530597 -0.9879453 230 230 230
-0.0743927632641812 -0.0707574681163489 -0.00218397047453537 0.6328929 -0.7080419 0.3132462 79 79 79
-0.0983682667719583 -0.033661201623554 0.0136688523005425 -0.9761959 0.209481 -0.05620653 79 79 79
0.0649049238813135 -0.056398357870937 -0.0146880321281942 0.101143 -0.9913068 0.08414751 95 95 95
-0.085190260741955 -0.0773460231722276 0.0063510942205422 0.5687578 -0.767335 0.2961614 56 56 56
-0.00434168528920442 0.0610454396544053 -0.0270002893036607 -0.01164314 -0.1597634 -0.9870867 129 129 129
0.0194958599906692 -0.0321897993636343 -0.0246408715967469 -0.008671577 -0.1511323 -0.9884755 114 114 114
-0.0953352432806915 0.0582089980557988 -0.00766154054496825 -0.6871814 0.7194476 -0.1008808 104 104 104
0.00459114910680292 -0.0613150791428793 0.0202792761671362 0.02010278 -0.9973892 0.06935911 84 84 84
-0.0953555414802676 0.0595799514998256 0.00444820588116774 -0.7835074 0.6197465 0.04506017 68 68 68
0.0354378958983894 0.0789227760051284 -0.0174293760685624 -0.06043003 0.9893339 -0.1325394 99 99 99
0.0632323249470186 -0.0333385633306136 -0.0240512457349088 -0.02938859 -0.1226515 -0.9920146 103 103 103
-0.068942028207535 -0.000394060860860412 -0.0261313920538384 0.01154092 -0.1485002 -0.9888451 235 235 235
0.0372321833396254 -0.0594633772155588 0.0206972225954704 0.05134463 -0.9760507 0.2113971 137 137 137
-0.0937362652659843 0.0539501142054389 0.0177429745192162 -0.9994532 0.01868622 0.02727649 36 36 36
-0.0814864922606136 0.0203767090406768 -0.0263079005167258 -0.001389733 -0.1339274 -0.9909902 140 140 140
0.00908614738442304 0.0777268244276598 -0.0187932159488746 -0.02858375 0.9780827 -0.2062453 125 125 125
0.114290699107484 -0.0201825029686881 0.00365885067536796 0.9876708 -0.150906 -0.04163729 60 60 60
0.0761017610242467 -0.0336057709832915 -0.0242591418033165 0.01636875 -0.1611999 -0.986786 112 112 112
0.00768764164618951 -0.0518025571792956 -0.0237672522068285 0.008940454 -0.1508149 -0.9885216 75 75 75
0.0763313472871892 -0.0155432610676885 -0.0246134434955874 -0.001737817 -0.1408978 -0.9900226 127 127 127
0.0951858388526112 -0.0269751474851432 -0.0160277294312128 0.6754832 -0.3175545 -0.6654935 77 77 77
-0.0551846773691249 -0.0491917372390177 -0.0245932809613619 0.003029611 -0.1404952 -0.9900767 130 130 130
-0.0861640776435459 0.0582792025786396 -0.0230998798072231 -0.01847764 0.8533047 -0.5210851 128 128 128
-0.0970565736553877 -0.00652876095982452 0.00310382447209418 -0.9826184 0.1270099 0.1353866 52 52 52
-0.0976453071823926 -0.00852933135478473 0.00144417349981458 -0.9759514 0.1452853 0.1625148 55 55 55
0.101651042158639 0.000549519429055345 -0.0165282386948601 0.6091834 -0.2766556 -0.7432073 67 67 67
-0.0764638371984196 -0.0721230972852921 0.00613112083903983 0.5975675 -0.7959136 0.09713153 54 54 54
0.0455984011736437 0.0538156139319674 -0.026407051467467 0.006970731 -0.1552558 -0.9878497 114 114 114
0.0211302088276297 -0.0614260453388487 -0.024402877001955 -0.03588774 -0.4712251 -0.8812826 146 146 146
0.0112962060916506 0.0808783106977618 0.0152969422445814 -0.03166814 0.9746823 -0.2213401 104 104 104
0.00681356521654175 -0.0543649142044511 -0.0235950325851854 0.01426633 -0.1288296 -0.9915641 64 64 64
-0.0114089013198682 0.0719447080406203 -0.0268735784705631 -0.03739076 -0.1519788 -0.9876763 88 88 88
-0.100856573299314 -0.0543710130866352 0.00221759681229408 -0.9865122 -0.01666734 -0.1628366 23 23 23
0.0059286713255764 -0.0017425297107444 -0.025415949527219 -0.00248836 -0.1766667 -0.9842676 231 231 231
-0.0392182034920097 -0.0163573211449844 -0.0256520116218354 0.002771039 -0.161097 -0.9869347 146 146 146
-0.0722565651363443 -0.00686032257190827 -0.0259450800700449 0.003542606 -0.1490196 -0.9888279 169 169 169
0.115757017188757 0.0122728135937245 0.0112263060655199 0.9969468 0.024156 -0.07425315 63 63 63
-0.0909563884774849 -0.0879149825141089 -0.0125642902229401 0.5892143 -0.7495734 0.3016061 59 59 59
-0.0984376968248073 0.0288862132031396 -0.00409095664854301 -0.9951555 0.09166365 0.03554267 40 40 40
0.0341993031700507 -0.0591790626699402 0.0225169455069462 0.04088999 -0.9760296 0.213762 91 91 91
-0.00614654409504833 0.0807210459403743 0.0121684754596522 -0.1047475 0.9827996 -0.1520951 99 99 99
-0.0683812410404134 -0.0730967460430732 -0.0205726842910154 0.6404296 -0.7675103 0.02789105 73 73 73
-0.0962131331847773 0.0444812352930439 0.0083658745990327 -0.969568 0.07632165 0.232622 40 40 40
-0.0205963723866831 -0.000978081254303209 -0.0255762468260983 0.01068977 -0.1322449 -0.9911594 231 231 231
-0.0839517378984116 -0.0773148243146962 -0.0242584717569662 0.005634075 -0.1345077 -0.9908965 96 96 96
-0.0114112326824027 0.0424737470140548 -0.026518428371195 -0.006209034 -0.141715 -0.989888 124 124 124
-0.0235491816949058 0.0290737739063969 -0.0262772075460321 -0.005388582 -0.1367054 -0.9905971 106 106 106
0.106766174863545 -0.0131527746997969 -0.0101727984661065 0.5705461 -0.1083591 -0.8140857 31 31 31
-0.103135987745216 -0.0500545827830634 0.0149223021754659 -0.9993604 0.02771455 -0.02259812 76 76 76
0.106221952184487 0.0048249247737493 -0.0135323087452828 0.5925148 -0.3379947 -0.7312222 61 61 61
0.0818117909007612 -0.0546922732132716 0.0229204812413626 0.4151556 -0.9070513 0.07002736 119 119 119
0.113329175295335 -0.0223856098821135 -0.00408644108486341 0.9289617 -0.2475072 -0.2752642 87 87 87
-0.0879782155333328 -0.0285243862485452 -0.0258390636474724 0.01192024 -0.1518834 -0.9883265 162 162 162
-0.0558612794266111 -0.0391227171585247 -0.0247319277602208 -0.003469938 -0.1066558 -0.9942899 82 82 82
0.0942028155329457 0.064451294870933 0.00472615963862903 0.0009872155 0.7131283 -0.7010329 32 32 32
-0.0899415743552305 -0.0837539853447383 -0.00057492514572605 0.6204508 -0.7012966 0.3510327 63 63 63
0.031716259824853 -0.0348524914707274 -0.0246005474855977 0.02782937 -0.1761744 -0.9839655 134 134 134
0.103544509327288 0.0638779831014701 0.00300932748441703 0.01478274 0.7659947 -0.6426769 25 25 25
0.0032048737521333 -0.0629221356701457 0.00110430685293602 0.0457662 -0.9821773 0.1823 129 129 129
0.0387437839677633 0.0448180828262951 -0.0263071045523221 0.01913409 -0.127984 -0.9915916 108 108 108
0.028190809131772 0.0308155826145775 -0.0261687420985514 0.02438157 -0.1503657 -0.9883298 144 144 144
-0.0973956940986336 -0.0715164700706307 -0.0180326745959097 -0.9953337 0.006135961 -0.09629706 25 25 25
0.0107313459909202 -0.0309504453891936 -0.0248869941671 -0.004475771 -0.1428916 -0.9897282 117 117 117
0.012746665397221 0.0581491131406863 -0.0268292595258646 0.001013761 -0.1190505 -0.9928877 143 143 143
0.116588858421773 0.00260314116297228 0.0108374711470661 0.989063 -0.1324998 -0.06479284 79 79 79
0.0191358138965396 0.0043924941061213 -0.0255477204461958 0.004738473 -0.1460799 -0.9892614 133 133 133
-0.0638103329167055 0.0601099128091467 -0.0176518891776031 -0.07889101 0.9723303 -0.2198863 112 112 112
-0.0979093530721602 -0.0223688000990682 -0.0233020354309524 -0.8992127 -0.0004608091 -0.4375116 21 21 21
0.0493689916973254 0.0835331861938796 0.0199462166136264 -0.03709074 0.9644439 -0.2616722 122 122 122
-0.066330251881771 -0.0406693452058357 -0.0248314360504441 -0.0002222697 -0.1144838 -0.9934251 88 88 88
-0.075020574065398 0.0512006023806681 -0.0271545433671075 0.02294125 -0.1433718 -0.9894029 134 134 134
0.0513849771446828 -0.0105498055696446 -0.0249631158479462 0.02443043 -0.1089237 -0.9937499 179 179 179
0.0352468967237185 0.0561609565995783 -0.0266218029011751 0.01696663 -0.1341689 -0.9908132 168 168 168
0.0778785818272596 -0.0559179872288771 0.0150429777408043 0.269521 -0.9629879 0.003572068 89 89 89
0.079173652599968 -0.0535214851837054 -0.00761569774158402 0.4201403 -0.8949938 0.1498939 96 96 96
0.0117183880273106 0.0803803349823465 0.0110258299325795 -0.001536867 0.9704741 -0.2412007 100 100 100
0.0276454230578584 0.0715188180257953 -0.0268918625112265 0.009328147 -0.1415273 -0.9898904 109 109 109
0.0811239348044239 -0.0543932797783512 0.0172088509519459 0.5971291 -0.801232 -0.03826279 81 81 81
0.0467354478066928 0.0800531864892919 -0.00978703678186203 -0.06551365 0.9752194 -0.2113176 83 83 83
0.0239094853536113 -0.0501916236074238 -0.0242875520923267 -0.03055889 -0.1545092 -0.9875186 126 126 126
0.0882205280304738 -0.0176805198920538 -0.0243862714171327 0.2557757 -0.157802 -0.95377 105 105 105
-0.0466154222558657 -0.0677195144501931 -0.013234183781377 0.05395253 -0.933512 0.3544636 90 90 90
0.045186508669963 0.00296814901943881 -0.0253256964225251 0.0003197548 -0.1363675 -0.9906583 110 110 110
0.020482206275408 -0.041119676639466 -0.0247259104529743 -0.01074913 -0.1287248 -0.9916221 72 72 72
0.0301316784695731 0.0776791845820301 -0.026784652633165 -0.01391529 0.4720885 -0.8814413 180 180 180
0.0906100183671281 0.0162093579455037 -0.0253371367394372 0.01018375 -0.1552224 -0.9878271 88 88 88
0.0670191138633933 -0.0229642358957663 -0.024808849893952 -0.01632458 -0.1280565 -0.9916325 65 65 65
-0.0308246984174274 -0.0672916851329857 -0.0136706715055275 0.1530629 -0.9795862 0.130317 92 92 92
0.0794099066135803 -0.0106483572510488 -0.0248451004132267 -0.003327168 -0.1479078 -0.9889956 170 170 170
-0.0794024441392651 0.0623135778085636 0.0143541542898286 -0.06924078 0.9803141 -0.1849053 72 72 72
0.0573809772631462 -0.0586011354206643 0.00666050124259252 0.1237754 -0.9714242 0.2025207 127 127 127
0.0751090885766541 0.042990737144595 -0.0256839493825895 0.006006997 -0.1405376 -0.9900571 116 116 116
0.116048523141214 0.0492324466746003 -0.0132828589400328 0.3453435 0.4582318 -0.8190003 30 30 30
-0.0715542205415882 -0.0108652471948916 -0.0256297093818116 -0.004202382 -0.1596007 -0.9871727 127 127 127
0.0498612162950967 -0.0592501958667181 0.00553454800550866 0.09970502 -0.9807365 0.1679728 140 140 140
0.00545715511184852 0.0324509099273529 -0.0262185211963832 -0.007194304 -0.1431573 -0.9896738 132 132 132
-0.0874438011898193 0.0010881032497177 -0.0259708390250015 0.02754418 -0.1107769 -0.9934635 142 142 142
0.0167611239682901 0.078888250533299 0.00266847370680414 0.0477449 0.9652408 -0.2569641 121 121 121
0.0534604145219135 -0.0594529047353689 -0.00991393611987319 0.1811188 -0.9797507 0.08534968 94 94 94
-0.0968101733699185 -0.0481029295885441 -0.024896065440067 -0.6836057 -0.1533508 -0.7135593 64 64 64
0.00845168258175155 -0.0572870712076931 -0.0239880459452289 -0.007662238 -0.1252089 -0.9921008 66 66 66
-0.00898409853395132 -0.0637933239000562 -0.017807274000747 0.09434544 -0.9908375 0.0966435 101 101 101
0.0159143174768426 0.0509922619096427 -0.026699133543394 0.02105468 -0.1359664 -0.9904897 132 132 132
