ply
format ascii 1.0
comment File exported by Rhinoceros Version 7.0
element vertex 472
property float x
property float y
property float z
property float nx
property float ny
property float nz
property uchar red
property uchar green
property uchar blue
end_header
0.0263616323444094 0.0561833492294278 -0.00139586671865871 0.8438548 0.485473 0.2285279 19 19 19
0.0198526766799108 0.0544041320676569 -0.0283533182735754 0.8304332 0.5412819 -0.131889 46 46 46
-0.0289412343668167 0.01172173528416 -0.00232735807305018 -0.969043 0.1169406 0.217441 42 42 42
-0.0147294756851992 -0.0525873066773263 -0.0303738238027412 -0.056888 -0.179377 -0.9821342 87 87 87
-0.0282292837005849 -0.0407891309133877 -0.0306167263283328 -0.6025147 -0.2705614 -0.7508479 186 186 186
0.0213555815724056 0.0490322893695716 -0.0350485102900469 0.6988862 0.2533976 -0.6688406 159 159 159
-0.027251697871006 0.0140991144644687 0.018277362443489 -0.9948015 0.07635131 0.06738252 70 70 70
0.0405878186371451 -0.0011865812460593 0.012821003724648 0.9741277 0.193898 0.1160979 38 38 38
0.030699323200249 0.0292165730406058 0.00664737835664533 0.9804392 0.1912242 0.04660729 59 59 59
-0.0290229976534682 -0.0175767927097716 -0.00282333076533287 -0.9862908 -0.09177672 0.1371406 62 62 62
-0.0247463571523849 0.0708205215714008 -0.0244140353536943 -0.3851678 0.7963381 0.4663598 116 116 116
-0.0235015484794878 -0.0625719979474518 0.0108872904067156 -0.7978429 -0.5988461 -0.06949845 71 71 71
0.0213480951297187 -0.0256480805444185 -0.0389656740080165 0.048468 -0.1279568 -0.9905947 91 91 91
-0.0263272339927263 -0.0432822629887464 0.0210925679622582 -0.998965 -0.0398588 -0.0219121 76 76 76
-0.0264958872942314 0.0226639545347401 0.00818608556256881 -0.9992193 0.02480823 0.03074702 72 72 72
-0.0150862377187457 -0.00117100999847752 -0.0396603590423292 -0.03193104 0.05076182 -0.9982002 121 121 121
0.044489670777514 -0.0390374816768732 0.00552339947398944 0.9987907 0.03890328 0.03006063 55 55 55
0.0128484754157059 -0.055323488817734 -0.0251645389245219 0.1800654 -0.9828346 0.04015666 79 79 79
-0.0208862792863824 0.0473142506236836 0.00621265409696481 -0.1426438 0.9247853 0.3527391 20 20 20
0.0326085360294455 -0.0563508329003658 0.036968497779635 0.1502206 -0.9845128 -0.09037872 42 42 42
-0.0278572821455132 -0.0289291176649302 0.0138636809129274 -0.9973208 -0.07278075 -0.00736074 87 87 87
0.0319322801408055 0.0234881611335319 0.00209231718505851 0.9596089 0.2780485 0.04289314 53 53 53
-0.0135862622695651 -0.0589656064249025 -0.0246272102554374 0.1450998 -0.9879373 -0.05409181 114 114 114
-0.00592890059924045 -0.0359147309122254 -0.0360030238351385 -0.07275475 -0.3119464 -0.94731 97 97 97
0.0200383018206216 0.0566827379713382 0.0172068980722672 0.1078556 0.9940683 0.01397413 60 60 60
-0.0196720376618185 0.0460310576493661 0.0428614099959651 -0.7991818 0.5940911 -0.09145693 35 35 35
0.0134983640756843 -0.0331209508055706 -0.0380008844421905 -0.02519724 -0.2319904 -0.9723917 134 134 134
-0.0278852752302279 -0.0474258547525417 -0.00186251685761957 -0.9822311 -0.1810259 0.04951441 81 81 81
-0.0293165999715259 0.0371209877228293 -0.0133079046318238 -0.9967196 0.007508393 0.08058336 92 92 92
0.037178201351272 -0.0430631041796916 0.0381332556302424 0.9766197 0.03917038 0.2113756 59 59 59
0.0255197660912461 -0.0567162376188131 0.0069467030051944 0.2284276 -0.9734958 0.01125972 151 151 151
-0.00848972718298246 -0.059676800605727 -0.00496468626631322 0.09774203 -0.981023 -0.1674526 122 122 122
-0.0248799232920693 -0.0495451533680121 0.0322915393597867 -0.9747332 -0.1503591 0.165189 24 24 24
-0.0281446049592193 -0.0484085417702852 -0.00449736436377432 -0.9713259 -0.2239123 0.07993226 137 137 137
0.0283008872606985 0.0474006275289273 -0.00334756236239309 0.9716783 0.2084412 0.1113259 89 89 89
-0.0143774676065322 -0.0638291152101176 0.0288612897914413 0.1629295 -0.9861156 -0.03209357 102 102 102
0.0239612119165222 0.0560786452090424 0.0150059121891903 0.3585 0.9325655 -0.04241791 66 66 66
-0.026618579171237 0.0157990654454309 0.0266062992222489 -0.9990816 0.04223993 -0.007192386 54 54 54
0.0379630087729943 -0.00403291157777219 0.0288943515232897 0.9956599 -0.04344296 0.08230454 24 24 24
0.0403241138494321 -0.00200100035578421 -0.0323574277615208 0.928829 0.251925 -0.271681 36 36 36
0.00798930815936871 0.037532645180421 -0.0366144861002299 -0.05623619 0.007516603 -0.9983892 122 122 122
-0.00943295498882635 0.0644299675639292 -0.0347979443844306 -0.02734029 0.1945032 -0.9805208 92 92 92
-0.0299336746108909 0.0314895694179891 -0.0196109644334385 -0.9828849 0.1072097 0.1498112 90 90 90
-0.0271483983088896 0.0382944722412512 -0.00415478960702578 -0.9908431 0.007245349 0.1348239 168 168 168
-0.00634983228620101 0.0684833144972885 -0.0234619522138662 0.06394693 0.9378335 0.3411437 76 76 76
0.00159507235357581 0.0553729515614553 0.0262132656606663 -0.2452223 0.9573126 -0.1530316 62 62 62
0.00192119733231255 0.000209636705438276 -0.039250302349734 -0.03315577 -0.01351117 -0.9993589 93 93 93
0.00336858262085293 0.0683834639398083 -0.0335778249248924 -0.05086287 0.4714502 -0.8804247 116 116 116
-0.0292881882136797 -0.0383784269840316 -0.0212654324213695 -0.9949805 0.02551804 0.09676107 66 66 66
-0.0270078052465483 -0.0441758957820043 0.00827810327119818 -0.978619 -0.09478074 0.1825416 62 62 62
0.0421174336162395 -0.0192997951920921 0.0124973413135715 0.8962088 0.1189393 0.4273911 95 95 95
-0.0296384435419397 -0.0157446679498828 -0.0368215102790525 -0.2751487 0.01572889 -0.961273 99 99 99
-0.0213961443288073 -0.0608680624084348 0.0332528206425427 -0.6403474 -0.5186796 0.5665038 85 85 85
-0.0153451556608337 0.0461413091656335 0.0197414084334885 -0.5700901 0.8050537 -0.163969 76 76 76
-0.00668848623120821 -0.00698919853466051 -0.0403572419663236 -0.06043246 -0.03900532 -0.9974099 171 171 171
-0.0291003751267913 -0.0289530218399017 -0.00895302973003825 -0.9990709 -0.04309463 -0.0004542024 86 86 86
-0.0273083600702877 0.0139205720857817 0.00340599640098149 -0.9820964 0.1374582 0.1288094 60 60 60
-0.00843620961300329 0.0659274926074459 -0.0169404718333065 0.0217106 0.8919401 0.4516322 28 28 28
0.0445575655218282 -0.0231436246242396 -0.00735068692184795 0.975648 -0.1827545 -0.1212916 66 66 66
0.014896377650526 -0.0459811494865764 -0.0324350174876305 -0.04170959 -0.2766765 -0.9600575 126 126 126
-0.000209768197094062 0.0705017872492414 -0.0302707139338449 0.09058419 0.97414 -0.2069923 124 124 124
0.013444460774227 0.0491212055187333 -0.0359550909233173 -0.04909855 0.1192071 -0.9916547 102 102 102
0.0122142756014239 -0.0134252216010122 -0.0404929423278224 -0.04977585 -0.05017066 -0.9974995 72 72 72
0.0399997715973286 0.0061544546479344 -0.0293436132357704 0.950147 0.1189558 -0.2882192 65 65 65
-0.0278590215864414 0.0359527204457799 -0.0360673401330493 -0.2160295 0.103085 -0.9709299 104 104 104
-0.0283051561592522 -0.00950628683503352 0.00804787743192528 -0.9957109 -0.03777352 0.08445705 87 87 87
-0.00688420333743101 -0.0611069313348744 0.00131869073725235 0.1302176 -0.968307 -0.2131314 131 131 131
0.00562443634193044 0.0634810751368319 -0.00909718350557123 -0.08722339 0.929509 0.3583366 73 73 73
0.0154308195755819 -0.0546849340805546 -0.023391780412393 0.1891073 -0.97666 0.1018513 141 141 141
-0.0288105111594721 -0.0245349934834149 0.000145105152998676 -0.9957099 -0.03561093 0.0854033 86 86 86
-0.0326044459984998 -0.0193419920231575 -0.0245146746069504 -0.9563219 -0.207157 0.2062387 86 86 86
-0.0315782790910089 0.0175047085380364 -0.0101187515617874 -0.9627489 0.1449907 0.2282371 54 54 54
0.00671209701380859 0.0403100642476919 -0.0355136340537532 -0.05224637 -0.02845681 -0.9982287 110 110 110
-0.0168014417165456 0.0103623360826817 -0.039052873130013 -0.0829508 0.01520203 -0.9964377 140 140 140
-0.0290799109060138 -0.000344136797157724 0.00342486652480214 -0.9918125 -0.04197643 0.1206066 79 79 79
-0.0313356321488001 0.0412134099154498 -0.0309240538498463 -0.9975105 0.05323568 -0.04624726 127 127 127
-0.0273249760291903 -0.0494405601651974 -0.00404362175270331 -0.9624483 -0.262363 0.06970566 93 93 93
0.0299399399496627 -0.00144142317916307 -0.0405401013960402 -0.001419771 0.01776858 -0.9998411 105 105 105
-0.00503148876220272 -0.00100230976743387 -0.0390362552874986 -0.06257771 0.07182115 -0.9954525 79 79 79
-0.0351988608610263 0.0154658020277568 -0.0288800273219688 -0.9752087 0.08560105 0.20406 126 126 126
-0.00496825020516156 0.0625364535332247 -0.00837269903641791 -0.2120471 0.8889341 0.4059952 44 44 44
0.0192852070311964 0.0433169879032349 -0.0378581981363786 0.1201122 0.1005534 -0.9876548 150 150 150
-0.0271736335970607 0.0122929935729666 0.0289140862862363 -0.9975148 0.0575276 0.04067786 85 85 85
-0.0296547903158373 0.00593010390522852 -0.00176267107292558 -0.9854198 0.1047793 0.1340488 69 69 69
-0.0202552055768108 -0.0656132180874375 0.0168941404729117 -0.04406375 -0.9985783 -0.02999858 113 113 113
-0.0288059041229187 0.0469355030087643 -0.0363841439141922 -0.4789058 0.09490791 -0.8727209 112 112 112
-0.00838516420373359 0.0411429519887477 -0.0383423740574537 0.0171841 0.07989803 -0.9966549 149 149 149
0.0378526608578338 0.0107289603922147 -0.0374424287216647 0.7471141 0.4581611 -0.4815691 67 67 67
0.00447683450110192 0.0520038419021382 -0.0358517557947447 -0.03700929 0.06591448 -0.9971387 73 73 73
-0.0192667061343352 0.00649565509112338 -0.0376336445936884 -0.06160009 0.04429039 -0.9971178 181 181 181
-0.0201741947640139 -0.0650058971735339 0.026235606308255 -0.3071874 -0.9386433 0.156795 50 50 50
-0.0283389894934511 0.0511797371673322 -0.015734171022417 -0.9907678 0.1032862 0.08781263 86 86 86
-0.0341311606584853 0.00763561019119485 -0.0156699594220306 -0.9578558 0.1041955 0.2676856 93 93 93
0.020519701530572 -0.0529237105569503 -0.0212537283381782 0.1574367 -0.987314 -0.0206105 159 159 159
0.0227412176270196 -0.0566375838654656 0.026018980040751 0.1594153 -0.9872057 -0.003418687 126 126 126
0.0441084505774092 -0.00726037066803342 -0.00048251975383809 0.9834831 0.1779564 0.03305266 70 70 70
0.0374094075971754 -0.0447276649922198 -0.0344896226875992 -0.0174552 -0.331269 -0.9433749 155 155 155
-0.0288979972931571 0.0309100184505566 -0.0371138675629612 -0.1657918 0.08744872 -0.9822758 97 97 97
-0.000149855377025165 0.0545783703454592 0.016594751797647 -0.3074304 0.9515536 -0.00569118 35 35 35
-0.0280955757583075 0.0598107773685185 -0.0120743305037031 -0.7728482 0.3558605 0.5254225 85 85 85
0.0354783674089409 0.00730442444263024 0.03924188152763 0.9631137 0.2633972 0.05508041 53 53 53
0.030244577067561 0.0335686138911889 0.0317072602653523 0.9674684 0.209857 -0.1412971 65 65 65
0.0157120094956258 -0.0556656294059925 -0.0284773491617919 0.1450099 -0.9604182 -0.2378424 81 81 81
-0.036943884669363 0.00610385007744274 -0.0310429084165464 -0.9990237 -0.04394146 0.004551322 173 173 173
-0.026448190847765 -0.0239343402798088 0.0298320976736724 -0.9977667 -0.01015121 0.0660191 39 39 39
-0.0271400031835962 -0.0447123895898957 0.0112600318410418 -0.9775422 -0.08632515 0.192248 56 56 56
-0.0113209683557356 0.0701430138082251 -0.0268766344312394 0.0892545 0.9873942 0.1307145 49 49 49
-0.0275444062315848 -0.000728074450825122 0.0274632513530834 -0.9993065 0.02189188 -0.0301214 74 74 74
-0.0241546261567187 0.0404922437504097 0.0218511440250007 -0.8583007 0.358927 0.3667307 129 129 129
-0.0235554087964458 0.0363292899806477 0.0362551251400063 -0.9126717 0.3911174 0.1185641 129 129 129
0.0221485721758852 0.0358167389080183 -0.0373731429979187 0.1998614 0.08770286 -0.9758912 177 177 177
-0.0044660514842505 -0.0613248248036776 0.00460218993803449 0.1050065 -0.9704261 -0.2173635 131 131 131
0.0222458093235178 -0.0572993177385561 0.00506160671373215 0.160677 -0.986535 -0.03052265 153 153 153
-0.0291765711427217 -0.030969023701931 -0.0186995790837551 -0.9901965 -0.1040792 0.09315856 53 53 53
0.0369762602784656 -0.0105337413941182 0.0275427797684496 0.9955595 -0.01704367 0.09257855 73 73 73
-0.0196985890121091 -0.0147301915680657 -0.0367480030100442 -0.1560719 -0.06627721 -0.9855196 104 104 104
-0.0224221763320309 -0.00491379074003218 -0.0387745648474643 -0.1791231 -0.06577637 -0.9816254 219 219 219
0.0361201330332288 -0.0230853199627115 -0.03876900076093 0.1184287 -0.09981275 -0.9879332 140 140 140
-0.0274917371575092 0.0244294672312769 0.0142268138926696 -0.9971462 0.06612432 -0.03642705 67 67 67
-0.0221460790991799 -0.0651495959569776 0.0280356284594572 -0.520197 -0.8071246 0.2791865 156 156 156
-0.0288618139455918 0.0584044771495053 -0.0234763130694021 -0.9908182 0.1053433 0.0847472 71 71 71
-0.0304349773811572 -0.0259409076737446 -0.0187799721400148 -0.9657808 -0.2253366 0.1284168 89 89 89
0.038156819074572 -0.0150151509596703 0.0283402877913676 0.9943516 0.04063547 0.09804977 79 79 79
-0.0258110803558407 0.0647141602582002 -0.0359864512809752 -0.05986716 0.2870128 -0.9560542 145 145 145
-0.0304352898759852 0.0142433450478813 -0.00847690111687091 -0.9493145 -0.006364964 0.3142634 28 28 28
0.00274524755535599 0.0606246621016847 -0.0360906613982644 0.01785207 0.1920342 -0.9812258 104 104 104
0.0436406096809074 -0.0231470237521801 -0.013888158917232 0.986587 -0.1525365 -0.05812567 81 81 81
0.0413179195673661 0.00661496579208942 -0.022545559814097 0.9958686 0.06719524 -0.06107811 45 45 45
0.0428928351589146 -0.035702200262736 0.0166361818202189 0.9583122 0.2055193 0.198493 39 39 39
0.000703021577681984 0.00156460539297976 -0.040246510267295 0.01656929 -0.06324479 -0.9978605 130 130 130
-0.0194315156513449 0.0717522296971299 -0.028024775001884 0.07909818 0.9924018 -0.09424547 57 57 57
-0.0260116907229464 0.0269054670905033 0.00757769614221721 -0.9966429 0.05622635 0.05950971 105 105 105
-0.0114920591530887 -0.0358501368973345 -0.0356011250795132 -0.06048416 -0.3194775 -0.9456616 130 130 130
0.0430640803273525 -0.0329435069323707 -0.0162012498990326 0.9918201 -0.06040238 -0.1124474 32 32 32
0.024375226853905 -0.0345801176052239 -0.037065342913819 0.1002945 -0.3902728 -0.9152203 100 100 100
0.0413640789819407 0.000116074656247189 0.00290233063895318 0.9112553 0.3960744 0.1128664 32 32 32
0.0154312025532215 -0.00246486176265071 -0.0407224662959714 -0.04737233 0.05897069 -0.997135 184 184 184
-0.0214546994267761 0.0389761497107119 0.0299890669822873 -0.8456241 0.5285901 0.07424594 75 75 75
-0.026682269838896 -0.040043620385803 0.0268190804558444 -0.9978666 -0.06407143 0.01252953 77 77 77
-0.0275624935163348 0.0226408227616001 0.0167031052180306 -0.9983991 -0.03762254 -0.04223496 87 87 87
0.0120656468233278 -0.0582675949319325 -0.000830518914970463 0.1696161 -0.9794245 -0.1093522 148 148 148
-0.0255475517152004 -0.0602110032130047 -0.0172389708729279 -0.4215615 -0.9045513 0.06381842 148 148 148
-0.0101661699391138 -0.0359596708347367 -0.0355520404698809 -0.05726331 -0.3228667 -0.9447106 106 106 106
0.0313201604559938 -0.0548358639162055 0.0216464304241273 0.2378075 -0.9628762 -0.1277379 152 152 152
0.0251355559618642 0.0506320289679393 -0.0137928535832057 0.8269781 0.5429636 -0.1459374 45 45 45
0.0435113165170287 -0.00234638696169098 -0.015684471010516 0.9763308 0.214509 -0.02764142 67 67 67
0.0375856484703205 0.00252521083044532 -0.0374487471532284 0.8541575 0.03557586 -0.518796 169 169 169
0.00487156900544083 0.055937952300408 0.0263663539330284 -0.2245511 0.9724929 -0.06192153 83 83 83
-0.0297954033381491 0.0528757601983794 -0.0293029689248674 -0.9855936 0.03212594 0.1660515 42 42 42
0.0112841074241248 0.024619979705891 -0.0385654884345944 -0.02793807 0.1300526 -0.9911134 98 98 98
-0.000533978162294835 0.0551136549814448 0.018540281859082 -0.3146456 0.9489378 -0.02269947 58 58 58
-0.00848942040917233 0.067364747085404 -0.0188058785476931 0.04804405 0.8859277 0.4613284 39 39 39
0.0310856666443837 -0.0548612340017306 0.00973806346739098 0.3065243 -0.9496838 0.06437068 149 149 149
-0.0110224539655976 -0.0605985133665964 -0.0019642759103686 0.1389942 -0.9681003 -0.2084763 91 91 91
0.00755887227630181 -0.00160536652773635 -0.0405412617425616 -0.0427869 0.02418177 -0.9987915 104 104 104
-0.00953286660919717 0.0584556087403297 -0.00410493801896342 -0.3291678 0.8206013 0.4671852 45 45 45
-0.0270740918922061 0.039536371394987 -0.0366319968719389 -0.2536455 -0.02101145 -0.967069 110 110 110
-0.0209249239016931 -0.0600929906936597 -0.0233937038430722 0.1291242 -0.9910849 0.03282632 188 188 188
-0.03110667391872 -0.0142217172058148 -0.0355377331646272 -0.3998116 -0.01523781 -0.9164706 81 81 81
0.0150095530841743 0.0133684390638845 -0.0386116618020482 -0.01885917 0.11097 -0.9936448 127 127 127
-0.0353454849834074 0.0196885662280282 -0.0350273296821319 -0.7196612 0.1083036 -0.6858266 175 175 175
0.04311604237758 -0.0180590233396021 0.0103143264871545 0.9317135 0.143708 0.3335537 110 110 110
0.0316269334816264 -0.0517046074895554 -0.0119050871308172 0.1797552 -0.9790043 -0.0961177 127 127 127
-0.019227279373774 0.0449644766219357 0.0271117270672086 -0.7827603 0.6156434 0.09093635 46 46 46
0.043242158830596 -0.0460859880290861 -0.0337535791830529 0.1540836 -0.6689819 -0.7271324 138 138 138
-0.0276696313928091 -0.0275718184612406 0.0155985341989851 -0.9986375 -0.03825711 0.03548986 78 78 78
-0.0280656671632251 -0.0314603127904205 0.00202991530976615 -0.9821704 -0.128093 0.1375989 87 87 87
-0.0235354555496343 0.0371898796827803 0.0368346339622864 -0.889716 0.4428133 0.1110039 130 130 130
0.00963935373913372 -0.0561647442390908 -0.026444963618178 0.07521003 -0.9618272 -0.2631196 63 63 63
0.0418960342612706 -0.03141967946202 -0.0203395648815157 0.9936773 -0.1019679 -0.04698826 66 66 66
0.0270680201562286 0.0520276095517164 -0.00749685444514087 0.9312798 0.3202644 -0.1736333 52 52 52
0.0185009146578274 -0.0132204512159165 -0.0408098575524199 -0.05311121 -0.1187382 -0.9915041 71 71 71
-0.0275754403337263 -0.013362318130253 0.0215654355423918 -0.9999078 -0.0002044945 -0.01357724 88 88 88
-0.0276473760628264 -0.0180782134546549 0.0242523292592381 -0.997375 -0.04015891 0.06025218 58 58 58
-0.0297435243361026 -0.00341671932473153 -0.00258761096690144 -0.9885556 -0.02753661 0.1483228 85 85 85
-0.0290488574597096 -0.0312953526271179 -0.0335622865414291 -0.6567024 -0.3160369 -0.6847354 65 65 65
-0.025844170970635 0.0654842968874331 -0.0147000831304595 -0.4778911 0.708289 0.5195641 80 80 80
-0.0131576284819417 -0.0181982639487287 -0.03744304905749 -0.05103312 -0.1216239 -0.9912634 137 137 137
-0.00185797782278563 0.0683090794204543 -0.0337156112244701 0.06276663 0.5115556 -0.8569546 143 143 143
0.0311082148112845 0.0341350773930951 -0.0198559846682556 0.9028024 0.3154026 -0.2923508 29 29 29
-0.0278742325714154 -0.00401675739338181 0.0071669940595554 -0.9841908 -0.004533105 0.1770534 70 70 70
-0.0258278097851969 0.00744905211207092 -0.038301926792056 -0.1678737 0.09168076 -0.9815361 98 98 98
-0.0202933443949185 -0.0639610576028267 0.00977033570858482 -0.1088167 -0.9890229 -0.09996331 115 115 115
0.035177275288572 -0.012884395661741 -0.0402650127264517 0.1608174 -0.1026555 -0.9816311 166 166 166
0.0264884803243985 0.0489922128889879 -0.0197388241203397 0.8530636 0.5025706 -0.1403756 30 30 30
-0.0263732421285698 -0.0589956776572113 -0.0169957058166866 -0.7388018 -0.6679412 0.08959053 108 108 108
0.0360948410898341 0.00603994915543848 -0.040837026295497 0.3044599 0.1500367 -0.9406344 156 156 156
0.0297926842775316 0.0350255831199068 -0.00156565360963115 0.9844133 0.1279641 0.1206465 41 41 41
0.0400446968070924 -0.018174873528954 -0.0352087548523944 0.8698792 -0.0908673 -0.4848229 71 71 71
-0.0285003277068572 -0.0113033903299073 0.0352002905959168 -0.9986234 -0.05230095 -0.004001452 104 104 104
0.0085691384633273 0.00599509406324628 -0.0401537312515939 -0.01180009 0.1282447 -0.9916723 64 64 64
0.0328853558299196 -0.0512578058691396 -0.016164535935574 0.1708653 -0.9831025 -0.06568553 104 104 104
-0.0113104621886655 0.054105040390938 -0.0352656618551569 0.1067932 0.1565737 -0.9818757 86 86 86
-0.029405051728864 -0.0384241764106628 -0.0312615763951841 -0.71053 -0.2242317 -0.6669837 151 151 151
0.029403922586277 0.0410304629994845 0.0283365508977091 0.990752 0.03663011 -0.130647 65 65 65
-0.0260180482713641 0.0296115444194202 0.0197523318653867 -0.9790698 0.202942 -0.01539013 119 119 119
0.0368928107096496 0.00392512905027864 0.0246416322548662 0.9461767 0.2945128 0.1342083 37 37 37
0.0363104054276389 0.0213108724258925 -0.0191714864907577 0.920418 0.3761864 -0.1063699 64 64 64
0.0456549600409808 -0.0223402353875269 -0.00102377278126314 0.9947287 -0.09060016 -0.04802492 95 95 95
0.0308902060006222 0.0313983153439658 0.024783630276775 0.9534175 0.2813601 -0.1087727 68 68 68
0.0250526892935956 0.0418994091532378 -0.0325772221007165 0.8411302 0.3673161 -0.3969621 64 64 64
-0.0294321050901851 -0.0452279125799895 -0.0179777208312859 -0.9959242 -0.08946677 0.01142878 72 72 72
-0.0288378120953663 0.06583756140787 -0.0327666672574087 -0.7859892 0.433807 -0.4404911 71 71 71
-0.027270951296829 0.00895823030816867 0.0339561671407032 -0.9963781 0.07979737 0.02937759 65 65 65
0.0306983021619112 0.0387236369296832 -0.0175431124513956 0.9083369 0.3667096 -0.2011171 70 70 70
0.0316717050340247 0.0304914743916844 0.030426612668314 0.9498054 0.2879683 -0.1222452 55 55 55
0.040531439414921 0.00803083188287756 -0.024625030143156 0.9786994 0.1256429 -0.1623615 67 67 67
0.0290296058286335 0.029337815882878 -0.0319902523753453 0.8523328 0.34448 -0.3935255 64 64 64
0.0412344542952279 -0.0470159516642312 -0.0340208112688224 0.1780261 -0.6571066 -0.7324736 137 137 137
-0.0269577215852994 0.0199874366682914 0.0276777235808865 -0.9979089 -0.01883832 0.06182921 37 37 37
0.0165508393647462 -0.0554846645611305 -0.0156550384662577 0.2188323 -0.965327 -0.1423241 90 90 90
0.0287383665750571 0.0414763198463243 -0.00209300865772813 0.9842562 0.1149265 0.1342818 76 76 76
0.0137442697766559 0.0581898911573868 -0.0342403100495504 0.2074445 0.1068867 -0.9723898 120 120 120
0.0178223246966611 0.0566598909826365 0.0129389497889708 0.097376 0.9915166 0.08609759 97 97 97
0.0170065734091909 0.0572135505774714 0.0112221645009898 0.1056836 0.9894602 0.09899244 77 77 77
-0.00469446124379203 0.0675333728735102 -0.0335007485740659 0.08930498 0.5077839 -0.8568431 206 206 206
-0.00461086177244963 0.0541587680260289 0.0263118740646207 -0.2901227 0.9466984 -0.1399681 99 99 99
0.027270232154915 -0.0564917948727724 0.0313923782596214 0.1198756 -0.9813144 -0.1505057 88 88 88
-0.0345448034833731 -0.00751007023753614 -0.0235690472218634 -0.9875704 -0.05479301 0.1473175 111 111 111
0.0120031919585082 0.0614305100729736 -0.034878962044381 0.08694177 0.05605144 -0.9946353 93 93 93
-0.0273950708937607 -0.0275952673676184 0.0104822278480835 -0.9942227 -0.1042219 0.02567164 75 75 75
0.00606411225604853 0.0571877892976036 0.0390439757812698 -0.09081397 0.9928544 -0.07741418 113 113 113
-0.0348974459577989 0.0102288472357653 -0.0247412604636819 -0.982002 0.06660009 0.1767386 106 106 106
0.02511511935288 -0.043279514927886 -0.0336675188131598 -0.03565526 -0.2254965 -0.9735913 97 97 97
0.0429213323708271 -0.041125483859473 -0.0116364438859415 0.9991894 -0.02670569 -0.03012271 44 44 44
0.00540719621869745 -0.0557770274720333 -0.0193704517254917 0.1214687 -0.988003 -0.09536981 108 108 108
0.000340756326019154 -0.00789516292193748 -0.0389881335954372 0.02235808 -0.05591578 -0.9981851 72 72 72
0.00971883214288827 0.0385881550638084 -0.0366149799744729 -0.1236037 -0.01665661 -0.9921919 111 111 111
-0.0290795769356587 0.00850772871476513 -0.00236566143015479 -0.9747169 0.1696057 0.1454679 57 57 57
-0.027775499995377 -0.0334420601371747 -0.0330475672381008 -0.6139402 -0.2855147 -0.7359068 146 146 146
-0.026965074151986 0.0279339397475781 0.000902430106429847 -0.9867497 -0.004546346 0.1621861 73 73 73
0.0297365046723859 0.0333153499017603 0.0227659302976073 0.9684712 0.240784 -0.06392698 31 31 31
0.0402178281046153 0.0138488407813677 -0.0177518179252358 0.9016712 0.431922 -0.02079311 47 47 47
0.0329668430170149 -0.0537974130365289 0.0141367710284796 0.3196079 -0.947349 0.01951227 126 126 126
-0.0290678706852368 -0.052527985542383 -0.0264280278251562 -0.8589569 -0.2000963 -0.4713328 88 88 88
0.0429982895327474 -0.00104917161659956 -0.0195269875906436 0.976809 0.2084859 -0.04876317 52 52 52
0.00107079708076507 -0.0223621828020355 -0.0392277060674584 -0.05296273 -0.08646743 -0.9948459 152 152 152
-0.0291678041248851 -0.013148932554092 -0.0369533122085522 -0.1945321 -0.01408318 -0.980795 61 61 61
-0.000329167588424051 0.0614648257423508 -0.0045589109291492 -0.1629168 0.8854662 0.4352101 42 42 42
-0.00139235744465305 -0.0618412895050285 0.0331885140498415 0.1551045 -0.9875195 -0.02734515 89 89 89
0.000543528223818202 0.0496376420432975 -0.0362378816577007 -0.0135744 0.05499035 -0.9983946 75 75 75
0.0357698191852456 -0.0244554110561312 0.0369198157095959 0.984965 -0.02580476 0.1708156 48 48 48
0.026991052119218 0.010704057121123 -0.0396777278303767 -0.01757752 0.004720511 -0.9998344 151 151 151
-0.0356698660251664 0.0172617786477828 -0.0313050343445671 -0.9341117 0.3190642 -0.1601043 111 111 111
-0.0275959354155668 0.0450469678983569 0.00820880604991175 -0.9101802 0.3973752 0.1168968 101 101 101
-0.0237327180362692 -0.0597938359764338 -0.0285269706638656 -0.2206313 -0.6383178 -0.7374769 112 112 112
0.043430782948358 -0.0241529988686258 -0.0261445333206231 0.9838346 0.03006055 -0.1765382 56 56 56
0.0334034059966815 0.017502914323631 0.00370249460796426 0.9358802 0.3311862 0.1201827 39 39 39
-0.0172115140375662 0.0454336838392458 0.0133249787223502 -0.2440125 0.9310238 0.2713903 44 44 44
0.027731010583635 0.0545814588771136 0.0224872079508187 0.6195954 0.7779218 -0.1045908 58 58 58
-0.0281296029293647 -0.0436690662903512 0.000727875207340384 -0.9991453 0.02914672 0.02930916 56 56 56
-0.0296070157634014 -0.0386976720624361 -0.0137621738716353 -0.9981937 0.03020933 0.05192981 96 96 96
-0.0262094080072677 -0.0474298406415846 0.0180632451449604 -0.9998023 0.0178585 0.00874556 71 71 71
-0.0290880400098812 0.0123845712149566 -0.00468933050914341 -0.9718565 0.02167449 0.2345742 49 49 49
-0.0166799547461547 -0.059264339975413 -0.022380441187441 0.164092 -0.9832923 0.07880424 151 151 151
0.0232175961896199 0.055808636751482 0.0162765822268125 0.1933295 0.9808859 0.02205711 69 69 69
0.0217454980291638 0.0317410041344155 -0.0364458257394145 0.1598518 0.05307619 -0.9857131 170 170 170
-0.0302723217778522 0.0201375702886648 -0.0056520415103232 -0.9551641 0.1533895 0.2532451 76 76 76
-0.0295464533359375 -0.00814607591823879 -0.00210184139435221 -0.9923874 0.02553128 0.1204805 99 99 99
-0.00764943504244853 -0.0582660809812796 -0.0246040915140038 0.1167393 -0.991154 0.06313169 102 102 102
-0.0294349344912901 -0.0353693960723881 -0.0147788059010948 -0.999941 0.008334652 0.0069656 70 70 70
-0.00240090084349065 0.0536152050381322 0.0212557585718707 -0.3179115 0.9470602 -0.04482523 61 61 61
0.0411006669022109 -0.00348462231844537 -0.0336117231767508 0.9404236 0.223819 -0.2559463 39 39 39
0.00538451847573884 0.0601763226101222 -0.0357599534206806 0.03647261 0.1355527 -0.9900986 184 184 184
-0.0233566991281344 0.0676732241685533 -0.0336037073156139 0.1124338 0.4402375 -0.890814 127 127 127
-0.0218958153679742 -0.060353322850723 -0.0248564441727656 0.02022113 -0.9909599 -0.1326257 141 141 141
-0.0282379964391248 -0.0112652942943464 0.033231089562323 -0.9989788 -0.04224304 -0.01602909 125 125 125
-0.00881609324313271 -0.0581841050794573 -0.021683452373345 0.1067748 -0.9863173 0.1256077 91 91 91
-0.0295364042046202 -0.00462712714114255 -0.0374986797495943 -0.2543401 -0.1120626 -0.9606004 95 95 95
-0.0269649767981635 0.0224165677458221 0.024333109488297 -0.9969988 -0.03268335 0.07017921 76 76 76
-0.0324908252726814 0.0338024616420169 -0.0315211427883326 -0.9820483 0.1877161 0.01854258 69 69 69
0.0356507898156719 0.0212667247664282 -0.0216322762093439 0.8827428 0.4106248 -0.2283691 49 49 49
-0.0268493361534441 -0.0444781146287954 0.00971460277155914 -0.9702609 -0.1131713 0.2139767 61 61 61
0.0175060188035798 -0.0568817815515409 -0.00606745916168921 0.2358042 -0.9527611 -0.1914228 176 176 176
-0.0126756689917218 0.0488905946210367 0.0220412625880998 -0.5120537 0.8286377 -0.2261871 62 62 62
0.0331800776434696 0.0179519175685517 0.0197159762725941 0.97045 0.2344992 -0.05689366 30 30 30
-0.0303417236554564 0.0427335533583174 -0.0268289695487545 -0.9819543 0.1063668 0.1563709 85 85 85
-0.00724048036394698 0.0527209120639642 0.0261642281078258 -0.3297654 0.9292436 -0.1666169 112 112 112
-0.0298897295480991 0.0306490536049268 -0.0144911805895354 -0.9885256 0.05623908 0.1401939 65 65 65
-0.00755876604739902 -0.0577590662247293 -0.0183169726768752 0.06399306 -0.9949788 0.07695442 67 67 67
0.0212054029399464 0.0568380329295095 0.0367039593932648 0.01170053 0.9951673 -0.09749462 85 85 85
-0.0281387019438977 -0.0525658567552799 -0.0142377009772666 -0.9544017 -0.2769298 0.1114773 79 79 79
0.040962753446208 0.0122780266931368 -0.0200176533345301 0.9433692 0.3262649 -0.0600493 32 32 32
0.00703983606598557 -0.0444530766794254 -0.0322584432809569 -0.04281917 -0.3499704 -0.9357816 105 105 105
-0.0332259337041581 0.0256453664095255 -0.0220175012408187 -0.958169 0.1946967 0.2097746 91 91 91
0.017194557107268 0.0338103361001494 -0.0362044938367831 -0.06236465 0.09583396 -0.9934418 224 224 224
0.00950825364860286 -0.0584601306438 -0.0039346037283029 0.1444535 -0.9691421 -0.1997418 217 217 217
0.0149973271488917 0.001147692124564 -0.0400672325641462 0.04809256 0.04189401 -0.9979639 105 105 105
0.0367198028107483 -0.0357840128068797 0.0357519857597427 0.9862394 0.08798358 0.1399667 30 30 30
-0.0182412989538989 -0.0285618032265518 -0.0364333015607579 -0.06442794 -0.1610975 -0.9848333 64 64 64
0.041959718222528 -0.00804701079844128 -0.031931773905787 0.981766 -0.05358554 -0.1823847 57 57 57
0.0024627778092241 0.0194285346734951 -0.0391128148022165 0.02009192 0.07881551 -0.9966867 96 96 96
0.0329754598041903 -0.0547711495844388 0.0238903131336912 0.1614862 -0.9704412 -0.1793491 106 106 106
0.000642466654994234 -0.0485458540739307 -0.031357069574476 0.003669605 -0.2475705 -0.968863 96 96 96
-0.0301231677177061 -0.0405236326115318 -0.0253384953547575 -0.9996464 -0.007007421 -0.02565144 101 101 101
0.012589547221542 -0.0210144553186528 -0.0401172591513761 -0.01150994 -0.08563269 -0.9962603 163 163 163
-0.0277236017763001 0.0239058781580724 0.00745598774071765 -0.9979889 0.05259874 0.0353779 81 81 81
-0.0182255531344564 -0.0101305731794938 -0.0389888758627351 -0.1707964 -0.1105931 -0.97908 209 209 209
-0.017683963420341 0.0302963534524285 -0.0376937547928452 -0.05381098 0.09930868 -0.9936006 197 197 197
-0.0221410560929991 0.0609183075079793 -0.0123430418580566 -0.2042449 0.6099489 0.7656672 48 48 48
-0.0279981064299839 -0.0382126303719541 -0.00349851108620544 -0.9975609 0.002562146 0.06975528 77 77 77
0.0108563370590975 0.00241840536624482 -0.0405024869196008 0.007270911 0.04507608 -0.9989571 76 76 76
0.0237537677455202 0.0511603198548148 -0.0225495065894867 0.7958149 0.5902889 -0.1350468 25 25 25
-0.0268076515604529 -0.0301040190248343 0.0317515273513777 -0.9990588 0.0430418 -0.005373416 72 72 72
0.0416225673840525 -0.0309356238850886 0.0174811986065463 0.9218639 0.1913629 0.3369677 38 38 38
0.0160337365169287 -0.058421188125412 0.0310791209377453 0.1858828 -0.980924 -0.05688452 59 59 59
-0.000915732143516035 0.0557913118282825 0.0410627646392485 -0.3140051 0.9493992 0.006474182 90 90 90
-0.0303184475273603 -0.0054888254600487 -0.00625069502225431 -0.9757411 -0.07690456 0.2049755 125 125 125
-0.000122155790141409 0.0555902853844916 0.0102435041185762 -0.2877152 0.9281008 0.2363236 38 38 38
-0.0302432195108493 -0.00386593644571098 -0.00289244002537289 -0.9887421 -0.02395792 0.147699 90 90 90
-0.0348355456153688 0.00379287149391894 -0.025838407570001 -0.9792231 -0.05324771 0.1956703 94 94 94
0.00520891267999479 -0.0112287612037677 -0.0406322989830409 -0.05830732 -0.01199437 -0.9982266 93 93 93
0.0262252857579028 0.0484772036199971 -0.018576029104523 0.8582211 0.4893724 -0.1548263 35 35 35
-0.00198640595278254 -0.0613521973498942 0.0246221900769607 0.1787906 -0.9833533 0.03240888 97 97 97
0.0359950171516639 -0.0131797339989028 0.0373340994082874 0.9840941 -0.001196097 0.1776438 28 28 28
-0.0309699637779504 -0.0148755884517803 -0.00942603378862752 -0.9785497 -0.04729655 0.2005079 128 128 128
0.0283516898132907 -0.0533028557789504 -0.00514863379816266 0.277056 -0.943525 -0.1816606 207 207 207
0.0273342355361565 -0.0542328162648509 -0.00369952733202747 0.2805735 -0.9404746 -0.1917966 216 216 216
0.0246380958743879 -0.0566033588059125 0.0105937180699542 0.2169701 -0.9751333 0.04515545 153 153 153
0.0266265803038821 0.0553047153482047 0.0285109498143554 0.5897717 0.7946631 -0.143805 86 86 86
0.0329880416203192 -0.00440555076331761 -0.0402328568998506 0.07132985 -0.02342672 -0.9971777 111 111 111
0.0330766079546865 0.0263865048147492 -0.00892691143321497 0.896542 0.3218308 0.3043641 37 37 37
0.0036741821826205 0.0270766766569408 -0.0379477713760867 0.0004069 0.1349849 -0.9908476 105 105 105
0.0154521342255598 0.0279422394429646 -0.0385791645857135 -0.0682459 0.2021439 -0.9769751 138 138 138
-0.0306126378139249 0.0392652029065219 -0.0343653520968098 -0.6660466 0.101641 -0.7389527 91 91 91
-0.0269436119991129 0.00491279673142564 0.0255261881709779 -0.9991635 0.03678194 -0.01787238 63 63 63
-0.00639301164761208 0.0373616916793446 -0.0369620136604693 0.1213156 0.02537454 -0.9922896 161 161 161
0.0241172757390786 0.0517764472457245 -0.0198725919896623 0.8271912 0.5428793 -0.1450405 35 35 35
0.00504762219125809 -0.0237437649140754 -0.0394587940141745 -0.03144817 -0.1141474 -0.9929659 217 217 217
0.0427505361671767 -0.0395653507440294 -0.00772331629056755 0.9985679 -0.0278047 -0.04570594 61 61 61
-0.0346883467647867 -0.0024179100002063 -0.0265527195532895 -0.9774637 -0.1012838 0.1852199 101 101 101
-0.0349502605134071 0.0086289684000751 -0.0256329836601978 -0.9814245 0.0487268 0.1855577 85 85 85
0.00515406438159483 0.0560195449035642 0.0146901012934619 -0.236314 0.9687845 0.07491635 59 59 59
-0.0285425774727841 -0.0388122979007302 -0.0111290970983507 -0.9964933 0.01135402 0.08289919 61 61 61
0.0303380173979213 0.02959010467532 -0.0322568064157902 0.8523328 0.34448 -0.3935255 34 34 34
-0.026434172042179 0.0263894799360169 0.000148294882349409 -0.9861187 0.02669184 0.1638826 80 80 80
0.0416352581155235 -0.0350107258116953 0.0186032393975392 0.9459407 0.2439501 0.2137392 49 49 49
0.033349258847895 0.00496980496159327 -0.0398652174258369 0.1055244 0.09744739 -0.9896305 119 119 119
-0.0273635028191128 0.0647239611628793 -0.0234171908624085 -0.8977904 0.4022894 0.1792641 70 70 70
0.0323228263996866 0.027659767611833 -0.0277332189154338 0.910494 0.3469132 -0.2250598 34 34 34
0.0441611940488884 -0.0459577321725887 0.00331730505682085 0.9536144 -0.2756057 -0.1210828 98 98 98
-0.00643309703661532 0.0526433693352168 0.0198333177130441 -0.4119879 0.9077003 -0.07966241 38 38 38
0.0234735172306788 0.0521775937635413 -0.0227552581385485 0.7608917 0.6382417 -0.1170101 46 46 46
0.0327912590993416 0.0150957624292667 -0.037460292281117 0.5289682 0.4807778 -0.6993178 70 70 70
-0.00659114286453333 -0.058760152032015 -0.00839708356842159 0.03057904 -0.9836383 -0.1775402 86 86 86
-0.0274221150693881 0.00429135383128132 0.0294449506711148 -0.9983473 0.05286026 -0.0225511 95 95 95
0.0290423385369825 0.0445187539115993 0.0252839071647658 0.9942275 0.02070868 -0.1052749 47 47 47
-0.00114403752746717 -0.0501417945555194 -0.0309348171840479 0.04369577 -0.238582 -0.9701388 120 120 120
0.0240921291198886 -0.0561617325335102 0.0172027460147908 0.228422 -0.9733783 -0.01892293 105 105 105
0.0297235109229277 0.0379065582539193 -0.0041673078203836 0.9833035 0.12351 0.1336391 52 52 52
0.0342704304338524 0.0127142357294335 0.0113791365799529 0.9204835 0.3898482 0.02699137 52 52 52
0.0238422713654687 -0.0124491703683821 -0.0408211297410705 0.04512597 -0.1113577 -0.9927553 169 169 169
-0.0261547589829516 -0.0449497147799799 0.030953306662191 -0.9869405 -0.1374924 0.08392989 40 40 40
-0.0275059531467461 0.00449694716554361 0.0287286675246171 -0.9990671 0.04031939 -0.01546663 96 96 96
-0.0273004209840988 -0.0542922569050515 -0.0171550588854579 -0.9560729 -0.2488183 0.1549651 82 82 82
0.0253350216284813 0.0617251130737615 -0.00928714160962341 0.6412215 0.7653803 0.05502762 60 60 60
-0.0286888950010702 -0.0521457361432254 -0.0241431038910733 -0.9686215 -0.2070092 -0.1375487 111 111 111
0.0416158214185351 0.0025714111557763 -0.00605727371303943 0.943616 0.3027251 0.1339636 57 57 57
-0.012551600365182 -0.0612534070294639 -0.000808132462130656 0.1478606 -0.9691203 -0.1973401 124 124 124
0.0399736734268341 -0.00264566003341549 0.012807140588983 0.980724 0.06994101 0.182452 68 68 68
0.028730615082746 0.0387573224454988 0.0214766113733056 0.9934837 0.08945897 -0.07062123 35 35 35
-0.0117686194888098 0.00288524170753435 -0.0394558927809984 -0.07528879 0.009401418 -0.9971175 133 133 133
-0.0285227198255429 -0.0526911072316651 -0.0189897583425915 -0.967365 -0.2226998 0.120871 64 64 64
-0.0255551158488632 -0.0505372035677939 0.0279185041785841 -0.9910229 -0.08234419 0.1053238 51 51 51
0.0289443388119328 -0.0513251593148695 -0.0317985973610396 0.1696653 -0.703023 -0.6906319 166 166 166
0.0421702681092784 -0.00867431042671274 -0.0305068477418973 0.9781068 -0.1138655 -0.1741889 71 71 71
0.0196641484478515 0.0567398967605183 0.0229848930470174 0.03969828 0.9989312 -0.02367527 64 64 64
0.00540914713893814 -0.0603676975899374 0.0311530389638983 0.1944131 -0.9808338 0.01298286 128 128 128
-0.0278064437407992 -0.0169681119815775 0.0258807404975714 -0.9973474 -0.07086524 0.01662184 66 66 66
-0.029380829988201 -0.0255011601248426 -0.00836107070243503 -0.9894387 -0.1009406 0.1040287 80 80 80
-0.025997757877035 -0.0475209686267111 0.01406903646 -0.9978673 -0.0283229 0.05881108 69 69 69
-0.0276978901383844 -0.0310111651081516 0.0154614574390376 -0.9952509 -0.09671392 -0.011051 49 49 49
-0.00521442121501869 -0.0535344844021231 -0.0302654932462912 0.05781946 -0.2499027 -0.9665431 118 118 118
-0.0324975893111885 0.0327590282142801 -0.0294335766300957 -0.9774969 0.1581176 0.1396375 36 36 36
0.000976355962893694 0.0559787851775879 0.0289048747882689 -0.2048037 0.9728334 -0.1079378 67 67 67
-0.0265318985716285 -0.0489858425154092 0.020816575201135 -0.9998481 -0.01733975 -0.001764031 90 90 90
-0.00115563975828148 0.0545437119941553 0.0264924894087864 -0.242331 0.9588538 -0.1479022 56 56 56
0.0114703492136357 0.0577171071385535 0.0394954564362449 -0.04250127 0.9983683 -0.03813763 82 82 82
-0.029688034370061 0.0288289149994335 -0.0134299431705197 -0.9848801 0.04676753 0.166805 61 61 61
-0.0225004538316989 0.034326439571322 -0.0372510817265329 -0.0877222 0.02177435 -0.9959069 107 107 107
-0.0258641887191111 0.0409067692086524 0.0124305811076341 -0.9741479 -0.1792331 0.1375184 172 172 172
-0.0284023128373505 0.00551057715827541 0.00672307725789822 -0.9866465 0.09842564 0.1297729 59 59 59
0.0125703604097871 0.0604366970967579 0.000154087013159859 0.02652897 0.9487008 0.3150602 55 55 55
0.0133181454742666 -0.0412370789138886 -0.0335215558786085 -0.03772568 -0.4338171 -0.9002108 113 113 113
-0.0177585801396261 0.0572416365149703 -0.0361381316089349 0.150208 0.2446263 -0.9579121 98 98 98
0.0382402460158797 -0.0141989845089112 0.0193085283906934 0.966528 0.02729755 0.2551048 95 95 95
0.00479593221904939 0.0561079414159488 0.0275773877081733 -0.1993101 0.9790105 -0.04259084 73 73 73
0.00707007635255508 -0.0427931608584546 -0.0328841987152652 -0.01978543 -0.4076106 -0.9129415 139 139 139
-0.0265105251367326 0.00239880129979742 0.0181830174986664 -0.9951139 -0.04396491 0.08840453 83 83 83
0.0401001117022219 0.00116728384713638 0.0122682240914809 0.9618156 0.2687997 0.05155077 47 47 47
0.0198242814087453 -0.0262117502525533 -0.0391065285540532 0.03836872 -0.1339523 -0.9902447 61 61 61
0.0429667413920582 -0.00410144135247947 -0.0258411142115044 0.9868181 0.09346756 -0.1321129 62 62 62
0.0230409998115462 -0.0533611533067664 -0.0239478031628785 0.169699 -0.9762611 0.1345977 117 117 117
-0.0134167792955824 0.0498984838391126 0.0262041838854854 -0.5470692 0.8279359 -0.1234402 71 71 71
0.043388048120188 -0.0392753556253752 -0.000234901237057217 0.9877607 -0.04557728 -0.1491698 61 61 61
0.00666185881712766 0.065004237393502 -0.0126174088674671 -0.07147088 0.9608308 0.2677612 102 102 102
0.0235249825328332 -0.053687168033985 -0.026988062511751 0.1962673 -0.9804655 0.01290642 102 102 102
-0.0275028310594527 0.0434436089000141 -0.0365138742586681 -0.3173468 -0.05933257 -0.9464516 92 92 92
-0.00683819222598525 -0.0623564659339889 0.0072161361569005 0.1113582 -0.9747196 -0.1937036 111 111 111
0.0327969495394744 0.0159415373971851 0.018456252010043 0.9616859 0.2739922 -0.009412627 23 23 23
0.0154829105459344 -0.0586650606294336 0.00968739741469465 0.2147852 -0.9765604 0.01403678 118 118 118
-0.000850420311508282 -0.0146182960607566 -0.0401411239771799 -0.03748916 -0.04712075 -0.9981855 115 115 115
-0.00657033432290444 -0.0579889590488316 -0.0218250410502393 0.1360971 -0.9844522 0.1110463 115 115 115
0.0355867511859254 -0.0360729301043309 -0.035730604173875 -0.05389455 -0.2357111 -0.9703276 121 121 121
-0.0309999364236384 0.0526098549119657 -0.0343672261971896 -0.9084978 0.06374685 -0.4129988 122 122 122
-0.0124054294442602 0.0043934922567509 -0.0376408943279206 -0.0963066 0.01358746 -0.995259 123 123 123
-0.0311942434816426 -0.0177361828587731 -0.0364778813660366 -0.3759759 -0.001621157 -0.926628 78 78 78
0.0396727670688652 -0.0311368182392626 0.0224570476480932 0.9407869 0.1331979 0.3117345 68 68 68
0.0203836872128649 -0.0544095472509353 -0.0123782986091623 0.2460735 -0.9629575 -0.1102757 126 126 126
0.0377555220558099 -0.00499228559260245 -0.0402210901443313 0.4740778 -0.009934053 -0.8804269 177 177 177
-0.0282051104848149 0.00796210620377857 0.0178927007204921 -0.9964354 0.03099286 0.07846003 45 45 45
-0.0303571829380964 0.0401955071424214 -0.0186815921607063 -0.9971099 0.03968981 0.06478094 84 84 84
0.00252928424025622 -0.000504637832174248 -0.039973509097917 -0.01639826 -0.01016988 -0.9998138 88 88 88
0.0360315832279605 0.0155639200482 -0.00925865228622644 0.8987517 0.3467967 0.2682859 45 45 45
-0.0126562820937663 -0.060259207028319 -0.00687968796028496 0.07044491 -0.9682108 -0.240011 103 103 103
0.0299778913567339 -0.0522320695821886 -0.0243402967616406 0.2145731 -0.9730374 0.08459613 116 116 116
0.0333776472620344 0.0204715651998104 -0.0284053985043071 0.8581254 0.389667 -0.3343358 52 52 52
-0.00748476636953099 0.0530765893926034 0.0279287956725565 -0.3372252 0.9330527 -0.1252674 88 88 88
-0.0299587448793346 0.046192040289776 -0.0254723797899162 -0.9913977 0.1160734 0.06047694 54 54 54
0.00378941432931601 0.0552121113758161 0.0190944838157926 -0.2312558 0.9726844 -0.02014223 61 61 61
0.00607413751008701 0.0677109085295579 -0.0338867937375271 -0.1356165 0.5501815 -0.823959 172 172 172
0.0406177067139306 0.00355362748037846 -0.00544751795653622 0.9296129 0.3420305 0.1372402 63 63 63
-0.0329989555705035 -0.0112243185233186 -0.0190919283423409 -0.9804829 -0.04756383 0.1907641 113 113 113
-0.0291093285876887 0.0172820020273486 -0.0362992269168457 -0.1756303 -0.07693586 -0.9814453 150 150 150
0.021493307407864 -0.00611544210656123 -0.0411425715923887 0.005016134 0.07673305 -0.9970391 132 132 132
-0.0281162868013127 -0.0174571045088632 -0.0369941004006097 -0.118918 -0.01883973 -0.9927253 129 129 129
-0.028374030854599 -0.0139931958916982 0.0036205267307656 -0.9884192 -0.02876074 0.1489978 72 72 72
0.0237307359935279 0.0155045526328405 -0.0391594546360375 0.008305931 0.06153769 -0.9980702 115 115 115
-0.0270411803199362 -0.0366982357268301 0.0124745199620415 -0.9942258 -0.08910645 0.05979241 56 56 56
0.00586448454343502 0.0628209202468207 -0.0347831629216838 -0.03265997 0.2161322 -0.9758177 130 130 130
0.000450879309718877 -0.0492206152757415 -0.0310872191836203 0.02034939 -0.2535249 -0.9671148 122 122 122
-0.0239450813935149 0.0447254717572705 0.0217445717134195 -0.6523118 0.6158161 0.4418821 65 65 65
-0.02682727132442 -0.0511019268335994 0.00437684043305794 -0.9791087 -0.1842445 0.08602385 66 66 66
-0.00967026838376106 -0.0590760813654567 -0.0221275123623588 0.1246533 -0.9856167 0.1141108 89 89 89
0.0245155732939941 0.0581802611168303 -0.000721988844862742 0.5965002 0.7811515 0.1843632 36 36 36
0.0312901665860088 0.0223023754737903 -0.00231683199301136 0.9216263 0.3311173 0.2024014 52 52 52
-0.016848550445778 0.0474315384497731 0.03870255908124 -0.7429766 0.6673009 -0.05191538 65 65 65
0.00746076995637446 0.0362394087045976 -0.0367532117428972 -0.0006059054 0.08102324 -0.996712 96 96 96
-0.0267581286624166 0.0647193997991352 -0.0151508464342419 -0.6332394 0.6889088 0.3527215 56 56 56
-0.0154641539571716 -0.0463645341054689 -0.0314551138565121 -0.111055 -0.2553464 -0.9604504 101 101 101
0.0283422876157799 0.035900839186461 0.0204926954531568 0.9779071 0.2070513 -0.02876663 63 63 63
-0.0274226911267543 -0.0173484973171861 0.0348988627587174 -0.9898061 -0.1369898 -0.038957 34 34 34
0.0248814236878685 -0.0563661645488469 0.0186253042450431 0.2418104 -0.9695798 -0.03798312 103 103 103
0.018985918376808 0.0571112550911453 0.0425281429693568 0.05157005 0.9979333 -0.03833736 78 78 78
-0.0261847273301237 -0.0425499419248639 0.0178877486582068 -0.9976754 -0.06498337 -0.02051719 72 72 72
-0.0160016408541432 -0.0648408158112904 0.0302374562944603 0.08995994 -0.9959314 0.005271645 86 86 86
0.0335610306991869 -0.0552570982388584 0.0275657508155638 0.1193392 -0.976009 -0.1821119 114 114 114
0.0272030294464534 -0.0532939490107239 -0.00992667547285242 0.2419772 -0.9563453 -0.1638621 158 158 158
0.0128473039105883 0.034712529516789 -0.0366619723611009 -0.07984386 0.04259739 -0.9958968 104 104 104
0.0197811222134523 0.0558211584614736 0.0206801006303554 0.06252533 0.9979222 -0.01555082 69 69 69
-0.0278582420386357 -0.0303325560830678 0.00372185214274978 -0.9827809 -0.1536645 0.1026106 69 69 69
-0.0275667207954184 -0.0171897697432174 0.0136671670711591 -0.9963958 0.04456303 0.07217653 78 78 78
-0.0303790646162747 -0.00746558225241301 -0.00483686916243656 -0.9943571 -0.008719523 0.1057257 128 128 128
-0.0132425454852545 0.0590188570776929 -0.00647710162542284 -0.2420478 0.8023526 0.5455669 30 30 30
0.0284471356225167 -0.0265340436558902 -0.0385979891169847 0.06579871 -0.136018 -0.9885189 107 107 107
0.0118143295544655 -0.0114612537678761 -0.0406386274419754 -0.06066363 -0.05936707 -0.9963912 95 95 95
0.0189594923268364 0.057635822201943 0.00897196703685108 0.1029742 0.9859332 0.131651 63 63 63
0.0442571700449297 -0.00647943459475242 -0.00960280897593588 0.9862517 0.1652283 0.002680019 78 78 78
-0.0297229247497794 -0.0112767373095228 -0.00230534588709772 -0.9902948 -0.03957902 0.1332284 60 60 60
0.018244459513491 0.0251633192691616 -0.0388258171328735 -0.0325086 0.1634814 -0.9860107 102 102 102
-0.0326361132327255 0.0284103547881627 -0.0305360815829425 -0.9859045 0.1562913 0.05971035 76 76 76
0.00354115953853484 -0.0583893592611977 -0.00740342428394825 0.1073703 -0.9822425 -0.1538547 136 136 136
-0.0160202938906522 0.0513389569426582 0.00176966375312859 -0.3436878 0.7862537 0.5135015 28 28 28
-0.0286535090437097 -0.048810995775839 -0.0165036122557074 -0.975407 -0.2046361 0.08188574 87 87 87
-0.00742417019486541 -0.015605399172067 -0.0395801560717448 -0.0751254 -0.0898625 -0.9931167 96 96 96
0.0406720247747625 0.0115080321530847 -0.0139771493983948 0.9232188 0.3251564 0.2047933 23 23 23
-0.0209501431459613 0.0294392125145793 -0.0380547296712699 -0.06397306 0.1263963 -0.9899148 117 117 117
0.00402852649741336 -0.0428076313343927 -0.0325041339487762 -0.02888769 -0.407269 -0.9128513 143 143 143
0.0214779443010868 0.053579031825207 -0.0266627385861558 0.805751 0.5677619 -0.1685579 53 53 53
-0.026569959264253 -0.0326166489170436 -0.0344043235829204 -0.4484369 -0.2678652 -0.8527324 82 82 82
0.0283785491139641 -0.0414235232172727 -0.034073628989249 -0.06235974 -0.2045483 -0.9768681 131 131 131
-0.0347079277442657 0.0227507927626401 -0.0361161702812653 -0.6825626 0.0421561 -0.7296103 169 169 169
