ply
format ascii 1.0
comment File exported by Rhinoceros Version 7.0
element vertex 480
property float x
property float y
property float z
property float nx
property float ny
property float nz
property uchar red
property uchar green
property uchar blue
end_header
-0.00852091313382483 0.028431673951923 0.0334987847796469 0.2555046 0.05744217 0.9650999 208 208 208
-0.00479941890617705 0.0218520364244572 0.0337502567759542 0.2436797 0.1926804 0.9505233 72 72 72
-0.00242676475128032 0.0241021117647282 0.032793125390151 0.1833903 0.1426378 0.9726369 149 149 149
-0.000427883873189459 0.0236021480043522 0.0325364081851034 0.1366329 0.1339663 0.9815215 133 133 133
-0.00456215330442286 0.0256663760622136 0.0329283981314688 0.203465 0.1392971 0.9691225 200 200 200
-0.00284116604408122 0.025460859247028 0.0325938968649893 0.1938724 0.1332949 0.971929 211 211 211
0.00108346453825139 0.0202433070619694 0.0329734294405966 0.1015321 0.1782178 0.9787388 84 84 84
0.00389896071473264 0.0216409167726628 0.0325746147624044 0.02504799 0.1972269 0.9800378 112 112 112
0.0013637944958558 0.0234837731798283 0.0319884328833608 0.07352473 0.157165 0.9848316 119 119 119
0.00391114800194406 0.0251467427690617 0.0322891979208975 0.07141702 0.2000446 0.9771805 210 210 210
0.00503247155765199 0.0247155627687565 0.0321622996321707 0.04614323 0.2299192 0.9721152 222 222 222
0.005520004024302 0.0258934697588078 0.0314919857970266 0.08543167 0.3057508 0.948271 194 194 194
-3.78571548113917E-05 0.0260083875139347 0.0320494978419332 0.124802 0.1265821 0.9840739 208 208 208
-0.00620513484855987 0.0297787389238469 0.0330891816607504 0.2435808 0.0870707 0.9659643 221 221 221
-0.00396248959978915 0.0314184627016179 0.0319664387694387 0.28279 0.1949296 0.9391657 101 101 101
-0.000622897232378492 0.0316835841615788 0.0311064033499746 0.2963665 0.2784509 0.913582 50 50 50
0.0058003339819064 0.0275784930666081 0.0310881643286733 0.1203959 0.3475423 0.9299028 121 121 121
0.00103471166411542 0.0326508483369938 0.0301490037432699 0.2819161 0.3620067 0.8885238 33 33 33
0.00388677342752122 0.0318356952150456 0.029341331004241 0.2433648 0.4021955 0.8826168 61 61 61
-0.00783836544534064 0.0429423055132023 0.0245132355681448 0.3196178 0.8009911 0.5062191 104 104 104
0.00529016665140294 0.0389757356126896 0.0194656013241796 0.372317 0.8454165 0.3829502 139 139 139
-0.000557892779315481 0.0336200198610417 0.0305079131117849 0.3422942 0.3365663 0.8772444 56 56 56
-9.88010414490793E-05 0.0360647639711491 0.0296326785079031 0.3849621 0.438986 0.811847 67 67 67
0.00543468370059632 0.033036132760822 0.0290414898386984 0.232078 0.5028473 0.832637 81 81 81
0.004764328887259 0.0354352197130314 0.0285736529818563 0.3130912 0.5992045 0.7368364 68 68 68
0.00115659384945535 0.0366893014391056 0.0283116309634237 0.3821256 0.6504207 0.6564549 94 94 94
-0.0020367398955474 0.0399449071367375 0.0246865062705068 0.428281 0.831273 0.3543454 99 99 99
-0.000427883873189459 0.0394922694643132 0.0246606974593191 0.417417 0.8417346 0.3424118 127 127 127
-0.006229513148273 0.0422063073595158 0.0249911605111151 0.3896197 0.8066651 0.4443962 104 104 104
-0.00652203039308883 0.0426603755434147 0.0243475644579916 0.3923384 0.7990066 0.4556961 124 124 124
-0.00270303227981425 0.0411768159349553 0.0225400536051779 0.4304532 0.8353212 0.3419775 122 122 122
-0.00213424564381934 0.040451904245197 0.0224681704035787 0.424545 0.8285769 0.3649956 117 117 117
0.00176600850144528 0.0387674769838444 0.0230968205920248 0.3632569 0.8548495 0.3705089 118 118 118
0.00571501552084588 0.0376463136156193 0.021325281142333 0.3323813 0.8694965 0.3653745 148 148 148
0.00581252313176297 0.0370865067918889 0.0231169818631201 0.3126146 0.8875168 0.3385056 144 144 144
-0.000135364765728483 0.0388740500887028 0.0265734403124838 0.4041443 0.8013458 0.4410354 90 90 90
0.0292871761504015 0.0255029401262394 0.0210426508179693 0.5253395 0.7270014 0.4421394 145 145 145
0.0136455327175012 0.0370862683733097 0.0134347288599996 0.497318 0.7775844 0.3847562 157 157 157
0.0176595441899648 0.0357200107057682 0.0112410097113638 0.4269725 0.7598692 0.4901972 154 154 154
0.0169282464213123 0.0343896350343815 0.0150111972085027 0.4966034 0.8194162 0.2862553 171 171 171
0.029969720346426 0.029773136087238 0.00987065422449396 0.4246046 0.7735606 0.4704413 146 146 146
0.0283852423909506 0.0314636430223576 0.00929616975698755 0.3963681 0.7806181 0.4832471 134 134 134
0.0237699418231299 0.029929419465839 0.0174226968279867 0.4557357 0.8312458 0.3183323 181 181 181
0.0240462098173251 0.030857702203571 0.0152117519370107 0.4234513 0.8426787 0.3325382 173 173 173
0.0239974565939432 0.0306648215730778 0.0166157691470175 0.4274055 0.8418129 0.3296598 182 182 182
0.0296365741542926 0.0276121100862614 0.0152264444819479 0.4786454 0.7997779 0.3622899 146 146 146
0.0275076851849829 0.0275516709764592 0.0190904943934469 0.4897312 0.796927 0.3536534 164 164 164
0.0278489575158259 0.0262013873537175 0.0200369565478353 0.5185083 0.7580933 0.3955297 142 142 142
0.0256306879765274 0.0292709073503605 0.0167070685616522 0.4543411 0.8243455 0.3376812 167 167 167
0.0258013240837412 0.0299554070909611 0.0151872842303304 0.4430369 0.8322054 0.3333954 167 167 167
0.0272639193009039 0.0287573537309758 0.0177961795321493 0.467164 0.8191883 0.3326986 153 153 153
0.0209016298777809 0.0340379676302067 0.0111124126902609 0.4218 0.7530564 0.5049661 173 173 173
0.0215923000960996 0.0332008799989811 0.0126731305113821 0.4067056 0.8172749 0.4082307 160 160 160
0.0214622916556349 0.0344708165605656 0.00998852240953729 0.4123897 0.7407076 0.530365 195 195 195
0.0218949759747287 0.0315543612917057 0.0153334497204809 0.4358836 0.8399949 0.3231317 167 167 167
0.0201215792349925 0.0334882935960881 0.0129515885106115 0.4416777 0.8041868 0.3977491 163 163 163
0.0246800010227984 0.0311186513383976 0.0126591234198599 0.4254903 0.8204362 0.3818934 165 165 165
0.0283364892839839 0.0298457345445744 0.011683574198821 0.4321312 0.8071586 0.4021909 170 170 170
0.0297259550444236 0.0291917523820988 0.0115269033900289 0.4331767 0.7810318 0.4498302 152 152 152
0.00849394611040257 0.0233283242662541 0.0324429481020956 0.04093241 0.2840595 0.9579325 193 193 193
0.0100052945218434 0.0229902467210881 0.0328175036898641 0.05160379 0.3035271 0.9514244 215 215 215
0.0116629034183373 0.0214696130235783 0.0327584950915365 0.08462936 0.3027325 0.9493107 53 53 53
0.00586127414325379 0.024153371759235 0.0322366266242056 0.03251699 0.2381102 0.9706936 219 219 219
0.0156931655384054 0.0403617820222966 0.00537887799654291 0.3593407 0.7957044 0.4875743 144 144 144
0.00995654164770745 0.0244192084749333 0.0320640413752584 0.08740804 0.3559589 0.9304048 160 160 160
0.014913114895617 0.0203823050935856 0.0326506404868154 0.1429911 0.3012935 0.942749 59 59 59
0.0134911473743071 0.0222641429384343 0.0319229571810751 0.1327994 0.2976841 0.9453827 55 55 55
0.0134667709372392 0.0236458978136174 0.0317233412257223 0.1306064 0.351319 0.9271014 69 69 69
0.0122235651961913 0.0244113406618229 0.0316041617384939 0.09840928 0.3561108 0.9292474 81 81 81
0.0139705531201711 0.0253845653017155 0.0308947770586996 0.1218501 0.3607355 0.9246742 99 99 99
0.0174279661751738 0.0255174836595646 0.03071155238066 0.2173677 0.387274 0.8959744 52 52 52
0.00801860465625428 0.0273987254579655 0.0308560936442404 0.0802018 0.3744142 0.9237866 109 109 109
0.00956651679197454 0.0270434817751042 0.0308833329669027 0.07585993 0.3826953 0.9207549 95 95 95
0.0101028021327605 0.0279602012117497 0.0299974291316061 0.06694809 0.356326 0.9319602 82 82 82
0.0118904180727353 0.0280131301363102 0.0299146978846578 0.1052448 0.3616789 0.9263433 103 103 103
0.00774314737836026 0.0295686921556584 0.029394915579894 0.09739444 0.3825614 0.9187824 123 123 123
0.00910336076239251 0.0310436686952702 0.0294195919028311 0.127628 0.486342 0.8643972 71 71 71
0.0135642766855111 0.0283547839601628 0.0297994225016622 0.1549746 0.4275103 0.8906277 73 73 73
0.0154047097913375 0.0270699462373845 0.0303720741263418 0.1635196 0.3931229 0.9048291 52 52 52
0.0165382206342568 0.0276172360857121 0.0292901008120565 0.2739897 0.506772 0.817381 36 36 36
0.0132717585093727 0.029221435495197 0.0297017304888754 0.1744869 0.4569356 0.872218 75 75 75
0.0172451419658413 0.0296155414064518 0.0284286348811178 0.410602 0.6072083 0.6802236 116 116 116
0.0160994419730654 0.03049971670705 0.027999868868926 0.3854287 0.6673134 0.6372892 88 88 88
0.0171232588491788 0.0304584702928654 0.0273097066870718 0.4240313 0.7005857 0.573914 104 104 104
0.015307203111743 0.0315898856599919 0.0273065476408987 0.452347 0.6907848 0.5640909 126 126 126
0.0131376862428536 0.0314251384218327 0.0289103596201925 0.2824515 0.5909877 0.7556154 103 103 103
0.0217840626738419 0.0195784768541447 0.0315914957514791 0.2812608 0.3713511 0.8848676 60 60 60
0.0196475900612225 0.021626254030048 0.0311842172137289 0.2299201 0.3531309 0.9068822 51 51 51
0.0231198993879756 0.0197042426546208 0.0316958336821584 0.4088034 0.3566499 0.840048 26 26 26
0.0221448358516594 0.0219166478593937 0.0299105851641683 0.3684491 0.3846224 0.8463515 83 83 83
0.0231686527277728 0.0231433114488713 0.0291141180983572 0.4644297 0.4346327 0.7716213 105 105 105
0.0275239362982487 0.0180492600877873 0.02804260539923 0.6562009 0.07072793 0.7512643 104 104 104
0.0274101788546344 0.0205669602830998 0.0274736492625265 0.6087134 0.2681557 0.7466998 94 94 94
0.0705567404530396 0.012615343042194 -0.0148542017945261 0.9897602 -0.1398526 -0.02856522 62 62 62
0.0273004841893365 0.0214591226060978 0.0272140412322073 0.585596 0.4183174 0.6943255 103 103 103
0.0297015781416943 0.0199626883943669 0.0260059146872549 0.5729454 0.273445 0.7726328 121 121 121
0.0289215272660752 0.0214299163301579 0.0265645890227346 0.586759 0.391537 0.7088107 136 136 136
0.0253332935991151 0.0208308896501652 0.0293484239569692 0.5431962 0.3461279 0.7649401 104 104 104
0.0254722401460552 0.023481985040485 0.0273974745265035 0.5403767 0.4956013 0.6799797 125 125 125
0.0250700264606079 0.0227616033037297 0.02825753974829 0.5540416 0.408951 0.7251186 129 129 129
0.0236561842631003 0.0248930654008976 0.0286755769244222 0.4930727 0.4924711 0.717183 71 71 71
0.0212324552140584 0.02751960367757 0.0273107497683553 0.4549177 0.6822548 0.5723445 118 118 118
0.0206334872073879 0.0288754901369206 0.0247820227137594 0.474551 0.7923987 0.3832828 175 175 175
0.0217548107630958 0.0283894738634221 0.0258241801253347 0.4699229 0.7551668 0.4570509 161 161 161
0.0301891096770217 0.0225472650011174 0.0236302374592809 0.5341564 0.6378132 0.5548615 172 172 172
0.0288483977220406 0.0233121118028752 0.0246740041962652 0.5625844 0.6217106 0.5449539 141 141 141
0.0256550645518385 0.0265592536409489 0.0239898769846945 0.5466369 0.7250711 0.4188794 149 149 149
0.0275808149618482 0.0251248082597844 0.0232355206004171 0.552182 0.6968885 0.4576477 138 138 138
0.0251187796257822 0.0260434350450627 0.0252547918549566 0.55946 0.6771747 0.4779529 97 97 97
0.0214135383158376 0.022803445764362 0.03038116383467 0.3408037 0.3636834 0.8669413 70 70 70
0.0215744238249411 0.0256008109529606 0.0293089060774832 0.4082137 0.5166773 0.7525997 78 78 78
0.020267838788723 0.0277989110429875 0.0276898949137716 0.4399918 0.6832747 0.5827031 140 140 140
0.019658424136733 0.028964539476215 0.0263517706385641 0.464586 0.7451006 0.4785237 153 153 153
0.0177733015171637 0.0323858460863224 0.019296130417922 0.5207126 0.8119171 0.2639111 135 135 135
0.0137349136076322 0.0342935523470036 0.0229208527794866 0.4736865 0.8260424 0.3054095 135 135 135
0.0084451932362666 0.0364802083452336 0.0215883015385656 0.2960765 0.8924577 0.3403792 149 149 149
0.00900585501412057 0.0368248424013249 0.0210448412886648 0.3245582 0.8928217 0.3123003 157 157 157
0.0108991034231534 0.0361277064760319 0.0214781223526983 0.3478518 0.8918232 0.2892238 163 163 163
0.00566626264670991 0.0396970710237614 0.0178139566174536 0.377349 0.8348056 0.4008832 129 129 129
0.0096737734876027 0.0377409657915226 0.0176482408038168 0.3974217 0.8546314 0.3341574 138 138 138
0.0156119104377379 0.0339234075029484 0.0194409846058874 0.5218362 0.8124049 0.2601639 143 143 143
0.0143443282596221 0.0361674031694523 0.0156007318488149 0.4869395 0.8334339 0.2613001 129 129 129
0.0137349136076322 0.0360499820192448 0.0174789487114935 0.4889806 0.8355206 0.2506058 157 157 157
0.0123454473815312 0.0362223586519352 0.0199827908268957 0.3846016 0.8774191 0.2867357 118 118 118
0.00727511866906785 0.0356637439211003 0.0253444819441824 0.2948091 0.8651038 0.4058115 101 101 101
0.0110388623453131 0.0354808768709294 0.0233706592312841 0.335167 0.8744219 0.3507841 160 160 160
0.00995654164770745 0.0358324250658146 0.0231423287383108 0.3013067 0.8896241 0.3431957 168 168 168
0.0100865505538335 0.0327739915330998 0.0289064555159597 0.1703471 0.5792789 0.797131 73 73 73
0.0114841416380753 0.033665319391071 0.0271457939139395 0.3200267 0.7333305 0.5998411 107 107 107
0.00706385373095178 0.0351281365831486 0.0269517211905508 0.2921253 0.75823 0.5828808 87 87 87
0.0155469059846749 0.0321166715105168 0.0247605352393179 0.5017937 0.7881248 0.3564581 144 144 144
0.0135886531225791 0.0337008437593571 0.024962326764205 0.4368368 0.8127003 0.3856057 135 135 135
0.0126379664889922 0.033377905793964 0.0270611851206808 0.3732832 0.7652327 0.5244794 114 114 114
0.00669007859150075 0.0371877154787175 0.0229018537989645 0.3095102 0.8878219 0.3405521 154 154 154
0.0242168458081236 0.0284400186021916 0.0211121051302938 0.4866932 0.8089141 0.3298297 153 153 153
0.0195609174571385 0.0320571860750309 0.0177753179064779 0.4826582 0.8325451 0.2718635 138 138 138
0.0183908414929559 0.0317952832658879 0.0204158185711889 0.5054435 0.8216273 0.2635441 120 120 120
0.0192074572570076 0.0316473445375554 0.0197852312317877 0.4917207 0.8268444 0.2730186 145 145 145
0.0205847343332519 0.0310067138155095 0.0196490048161535 0.4711111 0.8335859 0.2884249 128 128 128
0.02275425073648 0.0300811728914372 0.0190292655221014 0.4416243 0.8408267 0.3130149 148 148 148
0.0203117166548421 0.0300665101488224 0.0229100792399435 0.4777927 0.8256652 0.2999853 143 143 143
0.0207309938869824 0.029999752946674 0.0223954378357916 0.4703415 0.8296295 0.3008218 125 125 125
0.0263376089879697 0.0269369086702458 0.0207220225325613 0.5105447 0.7738557 0.374822 124 124 124
0.0182933352790227 0.0327671966035954 0.0183315931550054 0.5174194 0.8184818 0.2497292 164 164 164
0.00358206330755853 0.0471155843217961 0.00683564531717584 0.4952969 0.6950757 0.5211053 144 144 144
3.52702937474157E-05 0.0519612035234562 0.00339882659826563 0.4308215 0.7372053 0.5205009 133 133 133
0.00101033522704743 0.0515749654253117 0.00347529935751245 0.4227131 0.708433 0.5651869 136 136 136
0.00449618621686601 0.0511965951402775 0.00177361655149744 0.4416598 0.6884119 0.5753483 111 111 111
-0.000769155854786405 0.053485294290363 0.00261277544412897 0.419943 0.7468229 0.5156583 178 178 178
-0.000330378124917517 0.0551619729478947 -0.000713789583107971 0.3790527 0.8099786 0.4474971 151 151 151
-0.00435251445552207 0.0578717193086735 -3.18081387491453E-05 0.4876685 0.748913 0.4486744 141 141 141
0.00473995245019101 0.0537970265825383 -0.00133887839402869 0.4058611 0.8184187 0.4067771 136 136 136
0.00420366710940503 0.0549231967409245 -0.00331980896081641 0.4088265 0.8271779 0.3855354 150 150 150
0.00166850275317334 0.0536395511110417 0.00271602559004114 0.3804412 0.7405502 0.5539404 135 135 135
0.000888451179062357 0.0548035106142155 -0.00126575839605048 0.3532239 0.8253406 0.4405063 118 118 118
-0.000525389621461401 0.0561120709856144 -0.00211537790384009 0.3994522 0.8249804 0.3998065 134 134 134
0.00254606007555627 0.0545129975755803 -0.000728437424561523 0.3634349 0.8200792 0.4420239 147 147 147
0.00371613650540017 0.0547955235918156 -0.001725638032815 0.3994702 0.8266618 0.3963002 139 139 139
-0.00642452464481688 0.050359745927631 0.0116755573740988 0.382578 0.7157278 0.5842668 138 138 138
-0.0130793348052154 0.048365493722736 0.0197278170577078 0.2804281 0.8446608 0.4559695 114 114 114
-0.00856966600796081 0.0470087727983586 0.0181528239241628 0.4410039 0.795479 0.4156064 129 129 129
-0.00793587119361258 0.0445511540849797 0.0217538683405905 0.4171623 0.7733308 0.4774254 156 156 156
-0.00793587119361258 0.0454815825899235 0.0208591281167059 0.443679 0.7660063 0.4651701 147 147 147
-0.00820401758929587 0.0439435443361393 0.023078462361434 0.3550257 0.7769286 0.519941 114 114 114
-0.00964223296424247 0.0459336242159001 0.0220478831521063 0.3797525 0.7774356 0.50138 158 158 158
-0.0073995895781169 0.0451430282075993 0.0214567689887075 0.444012 0.7677804 0.4619162 146 146 146
-0.00991037935992576 0.046723385759174 0.0204888640633611 0.3671049 0.7931344 0.4859752 109 109 109
-0.0127136826612601 0.0477881631334416 0.0207857100955038 0.2963823 0.8337762 0.4658055 134 134 134
-0.00939846859356261 0.0470383367021672 0.0201681016675024 0.4020299 0.7953101 0.4537111 145 145 145
-0.015005082646812 0.0520998439272038 0.0142659901371984 0.2838116 0.7749671 0.564692 101 101 101
-0.0125430494644294 0.0486718615968815 0.0192818998089819 0.2902204 0.8365214 0.4647623 113 113 113
-0.0187347017326007 0.0532884797533146 0.0149328916064291 0.1706942 0.7801783 0.6018183 165 165 165
-0.00920345709701873 0.0486406287630192 0.0162794946423559 0.3891916 0.7843428 0.483049 142 142 142
-0.00983724446078635 0.049611946054279 0.0153582005492239 0.3669293 0.7813618 0.5048136 145 145 145
-0.0114948533572803 0.0512701472719304 0.0141072033635168 0.3309615 0.785285 0.5232514 163 163 163
-0.00663578958293296 0.0495019158800236 0.0132788925162344 0.3932076 0.7166314 0.5760445 164 164 164
-0.00418187939604617 0.0458669862230412 0.0152902214518575 0.4544457 0.7235426 0.5195817 129 129 129
0.000961582352911463 0.0419287881334416 0.0169316290608434 0.3932861 0.8027061 0.4483179 127 127 127
-0.000281625250781545 0.0425884923418156 0.0168957023612051 0.3978189 0.8002924 0.4486337 115 115 115
0.00501621997872495 0.0412765941103093 0.0150542019597082 0.3997962 0.8044797 0.4392897 137 137 137
0.00118097028652333 0.0424053868730656 0.0152707456341772 0.4117825 0.7863208 0.4605809 146 146 146
0.004252419983541 0.0425329408128849 0.0136766492119818 0.4049289 0.7902445 0.4599415 167 167 167
-0.00431188643952704 0.0479661426027409 0.0135397075406103 0.4371604 0.6915936 0.5749688 144 144 144
-0.00549821444829799 0.0485706529100529 0.0131278543463735 0.4036431 0.711953 0.5746261 146 146 146
-0.00476691574832297 0.0493785342653386 0.0123127310267477 0.3964022 0.6941036 0.6009039 109 109 109
-0.00262177811046935 0.0496790608842961 0.0105674623242407 0.4640286 0.6994693 0.5435257 151 151 151
0.00235104671636724 0.0449598035295597 0.0120427517882375 0.4663406 0.7124571 0.524339 169 169 169
0.00244855246463918 0.0464323958833806 0.0099240748873739 0.4951714 0.707702 0.5039475 120 120 120
-8.6611891592512E-05 0.0450504025896183 0.0145997016421346 0.4434953 0.7277917 0.5230977 153 153 153
-0.0039990551867137 0.0437262258012883 0.0192523061028509 0.4854307 0.7728038 0.4088169 137 137 137
-0.00398686603685714 0.0445234975298039 0.017906314014533 0.4846491 0.7494863 0.4509829 136 136 136
-0.00513256602963305 0.0453283986528508 0.0167734383336096 0.4758507 0.7392184 0.4765734 106 106 106
-0.00586386472960807 0.0449992618044011 0.0188181160679846 0.5095734 0.7565427 0.4098513 139 139 139
0.00181476137558126 0.041635175653278 0.0185609518281011 0.3862398 0.81587 0.4303195 121 121 121
-0.00642452464481688 0.0474740466554753 0.0154674856654196 0.4278772 0.7535086 0.4991451 157 157 157
-0.00781398714562751 0.0515772304018132 0.0110886006346731 0.3380908 0.7485456 0.5704157 147 147 147
-0.0121774010457645 0.0536555251558415 0.00976826834593103 0.2988297 0.7692639 0.5647423 134 134 134
-0.00725332723041869 0.0541758737047306 0.00698897826586053 0.3712393 0.7531561 0.5430812 133 133 133
-0.00691205711146689 0.0546214780290715 0.00704844880018518 0.3907441 0.7548718 0.5267709 131 131 131
-0.014736939976419 0.0574460229356877 0.00719088900003717 0.2520738 0.7531767 0.6076048 153 153 153
-0.0141762800612102 0.0600516995866887 0.00363900351438806 0.2701275 0.7506129 0.6030021 147 147 147
-0.0159557730056892 0.0595991811235539 0.00526974189195917 0.2076508 0.7630047 0.6121316 129 129 129
-0.00886218325277663 0.0578078231294743 0.00300327527437494 0.398513 0.7452849 0.5345445 115 115 115
-0.00661953986665107 0.0572178563554875 0.00296004700575159 0.4589541 0.7330663 0.5019711 166 166 166
-0.00848434568425513 0.0596314868410222 0.000932744025328613 0.4368318 0.7602296 0.4808627 161 161 161
-0.00900844187518455 0.0590733489473454 0.0023559688321142 0.4060703 0.7482819 0.5245771 174 174 174
-0.0103897832431445 0.0559377870042912 0.00704637753877924 0.3246331 0.7448896 0.5828832 174 174 174
-0.0123480379678855 0.0568913421114079 0.00665002155218408 0.317032 0.7395065 0.5938188 145 145 145
-0.0107635565199504 0.057276626535236 0.00666145074281976 0.3140894 0.7412347 0.5932275 171 171 171
-0.0107635565199504 0.0583095750291935 0.00511888253603265 0.3300381 0.7535163 0.5685843 195 195 195
-0.0170527145363937 0.0541048249681584 0.0128479211321859 0.2635653 0.7737307 0.5760852 152 152 152
-0.0141275271870742 0.054801245637714 0.011175072073081 0.2991561 0.7814978 0.5475097 182 182 182
-0.016061403612102 0.0560428103883854 0.00953581023130701 0.2845632 0.7778881 0.5602801 151 151 151
-0.0186615705587516 0.0542441806276432 0.0136293827286749 0.1869588 0.7604564 0.6218943 193 193 193
-0.0102272711791644 0.0524668893297306 0.0118769465676336 0.3196428 0.7619797 0.5632189 130 130 130
-0.0122749067940364 0.0538535317857853 0.0101628361931829 0.2988297 0.7692639 0.5647423 124 124 124
-0.0189784661032806 0.0590996942003361 0.00687289822016046 0.2024411 0.7893331 0.57963 141 141 141
-0.00247551762541629 0.0513142547090641 0.00768444526109979 0.4775579 0.7299286 0.4890223 150 150 150
0.0438399977884641 -0.0446593561689266 0.00960298466596887 -0.1192802 -0.8405032 0.5285137 116 116 116
-0.0024511411883483 0.0521185597856633 0.00547648060236261 0.4552874 0.737949 0.4981413 136 136 136
-0.00413312465926505 0.050714035936176 0.0103411434880285 0.4136542 0.733854 0.5388399 191 191 191
-0.00637577177068091 0.0522816380937687 0.0104278086415319 0.3701028 0.7391103 0.5627965 145 145 145
-0.00159796030303336 0.0499706468065373 0.00919621276769922 0.476938 0.7221577 0.5010173 164 164 164
-0.00252427049955226 0.051259895273029 0.00882419037733362 0.473662 0.7259399 0.4986537 143 143 143
0.0015709970049014 0.0494185885866276 0.00566010761175439 0.4786769 0.6921768 0.5401479 139 139 139
-0.00544946157416202 0.0543343028505436 0.00508416283045099 0.4628543 0.7394544 0.4888487 111 111 111
-0.00559572205921508 0.0551107129533879 0.00574264514360712 0.4270437 0.7506237 0.5041803 170 170 170
0.0179033094919672 0.0425293645341984 0.000600150107481934 0.3857469 0.7797081 0.4932084 159 159 159
0.0177895521647682 0.0416588983018986 0.00287038671884821 0.3559046 0.7874857 0.503188 159 159 159
0.0120691798529973 0.0395878753145329 0.0108416734925298 0.4750947 0.7761163 0.4146427 151 151 151
0.0160263117305388 0.0391733846147648 0.00859191107664392 0.3928409 0.7714871 0.5004835 161 161 161
0.0174889072678437 0.039335747667133 0.00691703545961664 0.3719261 0.7616396 0.5306375 187 187 187
0.0127842260427227 0.0382306775529972 0.0116162805548696 0.4811543 0.7731296 0.4132325 130 130 130
0.0164407148859849 0.0367623767336003 0.01114547836695 0.4479288 0.7584137 0.4734643 172 172 172
0.0117441585190048 0.0410802564104191 0.00857446181688593 0.4482326 0.7879371 0.422188 132 132 132
0.0121504349536648 0.0405444106538884 0.00927112090502069 0.4464093 0.7842025 0.4309817 152 152 152
0.0115166438646068 0.0415411195238224 0.00682207035932825 0.4480699 0.7778069 0.4407377 174 174 174
0.00981028302529954 0.0456708869417302 0.00284244704160974 0.5149244 0.6499488 0.5589449 169 169 169
0.00776264927307271 0.0425267419298283 0.00972793090257928 0.4734836 0.764592 0.4372783 161 161 161
0.00759201421359681 0.0435184440096013 0.00879338967714594 0.4833811 0.7475725 0.4554976 164 164 164
0.0106878394163599 0.0429618558366887 0.00619023132238672 0.4722959 0.7442608 0.4722418 179 179 179
0.010297814560627 0.0418099364717595 0.00862388896856592 0.4795537 0.7737132 0.4140002 126 126 126
0.00749450660267972 0.0461567840059391 0.00533652889642999 0.5141899 0.6739424 0.5304812 169 169 169
0.0136617833651056 0.0414601764162175 0.00513077366266534 0.3829629 0.7864234 0.4846417 158 158 158
0.0177082970641007 0.0405467948396794 0.00461938071165369 0.3518383 0.7885718 0.5043455 156 156 156
0.0240949629242917 0.0354504785020939 0.00670758473787592 0.4594254 0.7209685 0.5187801 131 131 131
0.0214622916556349 0.0378719768007389 0.00551319706354425 0.4078141 0.7400826 0.5347574 138 138 138
0.0295553185879638 0.0354305705507389 0.00166342246446893 0.4140438 0.7671794 0.4899016 168 168 168
0.0253625455098612 0.0340125760515324 0.00744741248998926 0.4348175 0.7521157 0.4952331 129 129 129
0.0292140463735362 0.0336814126451603 0.00483352529917047 0.3782643 0.7797156 0.4989586 141 141 141
0.0253625455098612 0.0372550687273137 0.00286205696974084 0.468729 0.7134147 0.520896 153 153 153
0.0249237669068774 0.0364406308611027 0.00478588628683374 0.4707115 0.7152865 0.5165229 149 149 149
0.0243874820317527 0.0365364751299015 0.00524679410372064 0.4726666 0.7068792 0.5262206 154 154 154
0.0225836145128509 0.0416122874696843 -0.000722670675179504 0.4474648 0.7906626 0.4178849 148 148 148
0.0217426220789006 0.0396247109850041 0.00315447735700891 0.4102932 0.7707626 0.4874265 149 149 149
0.0190977623588791 0.0414337119539372 0.00285187947664545 0.3534887 0.7867691 0.5060041 164 164 164
0.0236318078260323 0.0380414924104802 0.00380467462454126 0.4792018 0.7112488 0.5142867 149 149 149
0.0231686527277728 0.0392601689775578 0.00254831302080438 0.4362451 0.7552742 0.489133 134 134 134
0.0237861928199803 0.0397075614412419 0.0017153381100683 0.4479917 0.7633647 0.4653792 118 118 118
0.0190733859218111 0.0425278148134343 -0.000387051821610473 0.3823674 0.7900143 0.4792416 156 156 156
0.0216085512093654 0.0423075160463444 -0.00117404174890234 0.4537502 0.7807379 0.4296033 134 134 134
0.0222423422984233 0.04087569326955 0.000918140887358643 0.4169816 0.7839418 0.4599583 162 162 162
0.0286290081586143 0.0375446280916325 0.000174558042624451 0.4314405 0.7659725 0.4765976 153 153 153
0.0206334876730492 0.0368925532777897 0.00821264672193811 0.4107836 0.722007 0.5567429 181 181 181
0.0228761336203118 0.0349549254854313 0.00854072558794305 0.4211454 0.7355465 0.5306673 155 155 155
0.0200484494581273 0.0385697087724797 0.00596114087019251 0.3914672 0.7445412 0.5407512 179 179 179
0.0197559303506663 0.0402281484087101 0.00412871527586267 0.3596634 0.7933778 0.491115 171 171 171
0.0120285518370023 0.0477760037859074 -0.00161478829469397 0.5077906 0.6832141 0.5247544 120 120 120
0.0164894677601209 0.0465500554521672 -0.00421927285279944 0.4558786 0.7616343 0.46053 131 131 131
0.0136374069280376 0.0454811057527653 -0.000270077706238769 0.466903 0.6951603 0.5465838 133 133 133
0.0131742518297782 0.0455683669527165 0.000893911599257446 0.4734553 0.6890643 0.5486624 122 122 122
0.0180008161715617 0.0441215238054387 -0.00133460176076605 0.4042273 0.7768332 0.4828358 135 135 135
0.0174645308307757 0.0450278720338932 -0.00137090098943426 0.4251942 0.7560602 0.497577 103 103 103
0.0134017664841761 0.0482183894594304 -0.00278362047757819 0.5134553 0.7199793 0.4668977 112 112 112
0.0151731317765465 0.0472485026796452 -0.00327769827928259 0.4773884 0.7454997 0.4651134 87 87 87
0.00571501552084588 0.0539041957338444 -0.00515773308362677 0.4501278 0.8217228 0.3495091 159 159 159
0.0104440741143575 0.0517089566667668 -0.00477869224633887 0.501426 0.7524995 0.4269852 113 113 113
0.0093715034327855 0.0527554950197331 -0.00522574198331549 0.4919381 0.7719348 0.4026332 148 148 148
0.0136130304909696 0.0491361817796818 -0.00560774815168097 0.5208084 0.7327884 0.4379267 106 106 106
0.014734353115355 0.0500824651201359 -0.00782073450174048 0.5115662 0.7435982 0.4305365 146 146 146
0.0129792394019117 0.0495294532259098 -0.00347987723436072 0.536697 0.7039346 0.4652231 80 80 80
0.0113216314367404 0.046847840257465 0.000760725020506836 0.5090255 0.6314322 0.584967 142 142 142
0.0106878394163599 0.0465793809373967 0.00227197098646448 0.517816 0.6385653 0.5692986 124 124 124
0.00942025816956662 0.0482616624315373 0.00181910979662225 0.5112746 0.6327211 0.5816032 93 93 93
0.00729949324349069 0.0476968488176457 0.00323214220915125 0.5058162 0.6387146 0.5798221 160 160 160
0.00586127414325379 0.0478418073137394 0.0035449324837713 0.4712509 0.6578593 0.5874894 176 176 176
0.00561750977257394 0.0476492843111149 0.00436747658167169 0.481708 0.6574658 0.579393 142 142 142
0.00783577858427667 0.052221318193256 -0.00271362972345068 0.4932691 0.7550959 0.4318747 131 131 131
0.00573939195791387 0.052148362108051 -0.000878819943329834 0.4615034 0.7580546 0.460834 144 144 144
0.0100540492586245 0.0516854724367253 -0.00284525168027594 0.5174395 0.7302017 0.4461636 108 108 108
0.00907898432532453 0.0503146848161808 -0.000211426735779785 0.5049105 0.6749292 0.5380855 114 114 114
0.00654381996909284 0.0513953170259587 0.00100522327337549 0.4790909 0.6783764 0.5570254 168 168 168
0.0191221392616084 0.0456712445695988 -0.0046175510891886 0.4673513 0.7589798 0.4533568 101 101 101
0.0201459556720605 0.0457132062395207 -0.00658232879724219 0.4241945 0.7794937 0.4609214 142 142 142
0.0206659894339194 0.0450726947267643 -0.00506205272760107 0.4733185 0.7326339 0.4890984 134 134 134
0.0193171516894748 0.0450227460344426 -0.00316951584901526 0.4684977 0.7496713 0.4674429 78 78 78
0.0191708926014056 0.0431688031633488 -0.000832283616921448 0.3866122 0.784207 0.4853353 139 139 139
0.0193171516894748 0.0486759147127263 -0.00891285550679877 0.4287954 0.7950444 0.4289975 120 120 120
0.00832331105092668 0.040151496835529 0.0143508820525198 0.4471507 0.7970014 0.406011 124 124 124
0.0118091629720678 0.0390999516924015 0.0124179034224539 0.4721964 0.7910429 0.3889494 141 141 141
0.00909523590425157 0.0395392379243962 0.0152134208670645 0.4374306 0.8104728 0.3896002 135 135 135
0.00885146967092656 0.0417117080171696 0.0115165619841604 0.4608505 0.7822503 0.4191673 181 181 181
0.0076163906506648 0.0411597690065495 0.0131731389752416 0.4441898 0.7878886 0.426529 133 133 133
0.00907898432532453 0.0406552752931706 0.0123962222329168 0.457462 0.7858577 0.4161205 146 146 146
-0.0187834546067367 0.0288899144609562 0.0363982527247457 -0.115818 0.09831271 0.9883931 141 141 141
-0.0156388737358699 0.0294085940797917 0.0354511647215872 0.2248358 0.002700051 0.974393 64 64 64
-0.0186615705587516 0.0364595851381413 0.0361046402445822 -0.429682 0.341188 0.8360407 137 137 137
-0.014160026619638 0.0332011184175602 0.0356819837084799 0.2975194 0.04718379 0.9535491 50 50 50
-0.0110560774900565 0.0294909676988713 0.034235140561202 0.2996534 0.02274323 0.953777 183 183 183
-0.0121895864703307 0.0333740910966984 0.0346203057757406 0.355496 0.06851885 0.9321629 64 64 64
-0.0104466647007117 0.032971640535175 0.0343584923735647 0.3288431 0.09433573 0.9396611 43 43 43
-0.00852091313382483 0.0320332250078312 0.0334951488963156 0.2951942 0.08202185 0.9519101 101 101 101
-0.00640015007039405 0.0343449315508 0.0326239674082784 0.3191616 0.2680411 0.9090049 67 67 67
-0.0188078329064498 0.0375718078096501 0.0352662711134939 -0.4727597 0.4496151 0.7578552 186 186 186
-0.0189053386547217 0.0385190448244206 0.0335468261233358 -0.4640873 0.5009729 0.7305129 164 164 164
-0.015980147580112 0.03711273283559 0.035767784594634 0.009398385 0.4008295 0.9161045 61 61 61
-0.0132012151279101 0.0365928611238591 0.0351461975565939 0.384543 0.339129 0.8585559 77 77 77
-0.01442004443189 0.0388012132127873 0.0344292132845907 0.2859689 0.5862145 0.7580068 40 40 40
-0.0187590763070235 0.0398726663072697 0.0331474452010183 -0.3239554 0.5978981 0.7331921 141 141 141
-0.0136399947204242 0.0397132834871403 0.0320738165370016 0.3080374 0.6937336 0.651035 49 49 49
-0.016297043124641 0.0400263270815007 0.0335854201308279 -0.01506585 0.6936109 0.7201923 22 22 22
-0.00834215135356284 0.0379184684236638 0.0313984363070516 0.3079577 0.6047304 0.7344816 61 61 61
-0.00665203929921485 0.0381685695131413 0.0312167017451315 0.2692042 0.5662187 0.7790542 78 78 78
-0.00998350680848456 0.0355770787675969 0.0337906091204672 0.350937 0.3322185 0.8754851 80 80 80
-0.0123480342425952 0.0377606353242985 0.0336322693816213 0.4111299 0.495579 0.7650971 37 37 37
-0.00998350680848456 0.0377763709505192 0.0328954963675527 0.3372273 0.4738423 0.8134809 37 37 37
-0.00983724818607665 0.0380825004060856 0.0316213278761892 0.3136109 0.6397656 0.7016753 66 66 66
-0.014647559086288 0.0435314378221623 0.0275990872374563 0.4005043 0.7376338 0.5435925 29 29 29
-0.0135912418462882 0.0443027219255558 0.0260713903895406 0.3611183 0.7345279 0.5745105 58 58 58
-0.0160776533283839 0.0423640212495915 0.030381849288085 0.2396964 0.7700337 0.5912646 28 28 28
-0.0188240826227317 0.0432700118501774 0.0313146321764974 -0.1243596 0.6965747 0.7066247 118 118 118
-0.0141275271870742 0.0414477786501042 0.0295526294699697 0.3392042 0.7484102 0.5699322 68 68 68
-0.0144688010313163 0.0415820083101384 0.0307442157259969 0.3403798 0.7463242 0.5719632 54 54 54
-0.0171989768840919 0.0439515313585392 0.0293801336279897 0.1061018 0.7405844 0.6635338 55 55 55
-0.0103735298015723 0.0418596467455021 0.0273669569483785 0.2444673 0.7966677 0.5527715 72 72 72
-0.00859404058238364 0.0413553914507023 0.0282465724936514 0.2034141 0.8061912 0.5555884 100 100 100
-0.00874030293008185 0.0424183806856266 0.0258997737160711 0.266393 0.8014628 0.5354365 78 78 78
-0.0179302737214217 0.0370202264268986 0.0366997330180197 -0.1845556 0.3349635 0.9239798 82 82 82
-0.0166383132435927 0.0395934781511418 0.0347092955103903 -0.00634846 0.638093 0.7699332 67 67 67
-0.0174914941289077 0.0407688817461125 0.034236749886611 -0.1335939 0.6575459 0.7414756 31 31 31
-0.00401936733206607 0.0338927707155339 0.0314352719775228 0.3396827 0.2636394 0.9028344 56 56 56
-0.00398686603685714 0.0349208316286198 0.0314071385851888 0.3530217 0.3181521 0.8798607 55 55 55
-0.00196360872169829 0.0358053645570866 0.0303969292632131 0.408735 0.387864 0.8261339 63 63 63
-0.00159796030303336 0.0381969413240544 0.0277687518588094 0.4162164 0.7619947 0.4961129 110 110 110
-0.00591261387845374 0.0410288772066227 0.0272959976187734 0.3167396 0.8175359 0.4809482 86 86 86
-0.015980147580112 0.0470710000475041 0.0241577087632208 0.3110277 0.8247469 0.4722862 43 43 43
-0.0182390444078097 0.0467740497072331 0.0267144052973776 0.09733479 0.8220657 0.5610116 102 102 102
-0.0179546520211349 0.046773811288654 0.0258038400403051 0.1265738 0.8132591 0.5679689 82 82 82
-0.0126405552127013 0.0456705293138615 0.0231197087756185 0.3311776 0.7649865 0.552374 42 42 42
-0.038455364117826 0.0544545850237004 -0.0103978754290552 -0.8664944 0.3017371 0.3976709 94 94 94
-0.0387478739120612 0.0549422702272526 -0.0110342593201609 -0.9179243 0.2682909 0.2922924 99 99 99
-0.0383091017701278 0.0570672950227848 -0.0117454470404597 -0.9436246 0.1951083 0.267405 134 134 134
-0.0357739374138961 0.0550779303987614 -0.0105119587191553 -0.8707621 0.223531 0.437958 99 99 99
-0.0372365310885558 0.0540143451173893 -0.00865880560960486 -0.8773172 0.2586061 0.4042739 112 112 112
-0.037382793436254 0.0555510720689885 -0.0082614810475321 -0.8835133 0.235628 0.4048256 99 99 99
-0.03596894891044 0.0555502376039616 -0.00521890235032751 -0.9047104 0.2331064 0.3565956 77 77 77
-0.037659060964788 0.0569160184343449 -0.0089345813998194 -0.926495 0.22869 0.2988442 86 86 86
-0.0335800431766162 0.0590398511369816 -0.00825970780935004 -0.9177491 0.1547157 0.3657863 83 83 83
-0.0389428928591857 0.0588984689195744 -0.0155501605280848 -0.9082723 0.3323221 0.2541719 57 57 57
-0.0380897119738708 0.0613650283296696 -0.0148846448668452 -0.9472038 0.2514394 0.1989556 51 51 51
-0.034847625354732 0.0627998313387028 -0.0150024683484049 -0.9432654 0.2047021 0.2614335 87 87 87
-0.0367490023471961 0.0619415244539372 -0.011131891728303 -0.9506723 0.2019169 0.2354819 97 97 97
-0.03466886357447 0.0577727755983464 -0.00301926744069769 -0.8785955 0.1269035 0.4603971 96 96 96
-0.03548141644379 0.0572186908205143 -0.00417090368356421 -0.8827052 0.1291267 0.4518384 90 90 90
-0.0345794826843391 0.0592786273439518 -0.00341568303193762 -0.8995371 0.01873386 0.4364424 85 85 85
-0.0350913897254119 0.0593433579881779 -0.00430061829175665 -0.8849815 0.0515408 0.4627648 78 78 78
-0.035213273773397 0.0615221461732975 -0.00443647217836096 -0.8901387 0.1045556 0.4435327 109 109 109
-0.03694401384374 0.0613140067537419 -0.009009653449914 -0.9345489 0.2145992 0.2838408 62 62 62
-0.0362858444549689 0.0657768449266545 -0.0112679095276804 -0.9589553 0.220697 0.178038 55 55 55
-0.0360177017845759 0.0640267333467595 -0.00800990474309637 -0.9425639 0.1306015 0.3074355 86 86 86
-0.0343113400139461 0.0642998418291203 -0.0104541720160456 -0.9388869 0.1887613 0.2878549 97 97 97
-0.0326537311174522 0.0642928084810368 -0.00876390349950507 -0.8866052 0.2172459 0.4083326 110 110 110
-0.0358226902880321 0.0629071196992985 -0.0048997194775553 -0.9085197 0.09029704 0.4079685 63 63 63
-0.0356276750661979 0.0651545724351994 -0.00734708619203284 -0.9263819 0.1887617 0.3258614 98 98 98
-0.03791907877704 0.0624877414186589 -0.016020470977685 -0.948364 0.2179629 0.2304296 92 92 92
-0.0380653336741576 0.0642141303499333 -0.0190015376814814 -0.9351819 0.2234385 0.2747911 116 116 116
-0.0370415195920119 0.0673647126634709 -0.0167456210860224 -0.9464812 0.2206804 0.2355281 68 68 68
-0.0331412635841022 0.0693649253328434 -0.0155448855170222 -0.8467593 0.4836449 0.2215542 63 63 63
-0.0366514928736339 0.0700127086122624 -0.0182178856142969 -0.8937947 0.4060853 0.1903309 96 96 96
-0.0375290483333716 0.0697597464998356 -0.0202189178475352 -0.9074086 0.4068482 0.1052812 103 103 103
-0.0339944481947074 0.0732940635164372 -0.0211767048844309 -0.711572 0.70184 0.03295149 88 88 88
-0.0358958177365909 0.0700839957674138 -0.0168546081789942 -0.8669873 0.4490825 0.2160043 93 93 93
-0.0357089310981879 0.0718074044664494 -0.0169756801136942 -0.7890818 0.5963244 0.147469 60 60 60
-0.0357739374138961 0.0721079310854069 -0.0198253185757609 -0.7672127 0.6334097 0.1008803 94 94 94
-0.035920196036304 0.067490478463947 -0.0109563709506006 -0.9339118 0.2810825 0.2209103 80 80 80
-0.0352376520731101 0.0703064403017155 -0.014005386949441 -0.8989009 0.3937207 0.1922529 125 125 125
-0.0345551081099162 0.0705059966524235 -0.0126236320742579 -0.9133756 0.3798972 0.1463664 104 104 104
-0.0353351578213821 0.0685670575578801 -0.00996967566098883 -0.9421862 0.2826596 0.1799689 56 56 56
-0.0344576023616443 0.0716800889452092 -0.00908447218026831 -0.8730661 0.4384424 0.2133633 83 83 83
-0.035432663569654 0.0726765593965641 -0.0165324152716608 -0.7852076 0.5951074 0.1711612 26 26 26
-0.0345307298102031 0.0715463361223332 -0.0147814245232554 -0.8243087 0.5386092 0.1743998 49 49 49
-0.0347988724805961 0.0741070708711735 -0.0162986607560129 -0.7410452 0.6635714 0.102591 75 75 75
-0.0323612138726363 0.074778338380634 -0.0181296111353846 -0.6903949 0.7205545 0.06446721 76 76 76
-0.0336125463344703 0.0729863843401066 -0.0123546363123865 -0.8468414 0.5128179 0.1409876 72 72 72
-0.0327999934651504 0.0741700133760563 -0.0114568115481348 -0.7781232 0.6163693 0.120885 73 73 73
-0.0303379565574775 0.0761780938585392 -0.0175852121123286 -0.6000903 0.7939449 0.09768847 66 66 66
-0.0311423845686565 0.0758110484560124 -0.0151961536416025 -0.6696484 0.7393128 0.07062297 58 58 58
-0.0269983641900668 0.0774173936327092 -0.0149603278645487 0.001208936 0.9375242 0.3479179 116 116 116
-0.0202460482813964 0.0751488408525578 -0.0152312756785364 0.3811375 0.7799422 0.4964116 131 131 131
-0.0209042176701675 0.0760239562471501 -0.0160319746741266 0.3598655 0.8014453 0.4776843 137 137 137
-0.0241950571634421 0.0748526057680241 -0.0114349813469858 0.3881762 0.826564 0.4075673 97 97 97
-0.0225618265666614 0.0767371854265324 -0.0157393754729243 0.3309411 0.8150541 0.4755679 121 121 121
-0.0244144469596992 0.0756861171205632 -0.0127027572401972 0.3350705 0.8393898 0.4279632 129 129 129
-0.0218061514296184 0.0754223069627873 -0.0143624932774515 0.3774089 0.8005216 0.4655403 120 120 120
-0.0322312049665103 0.0614899596651188 -0.000666284681221985 -0.8017051 0.1358137 0.5820855 97 97 97
-0.0336775489248881 0.0612193545778386 -0.00176941764440253 -0.7995245 0.1704336 0.5759452 70 70 70
-0.0340431973435531 0.0641318759401432 -0.00386389505948737 -0.8292474 0.2687162 0.4900412 123 123 123
-0.0327024877168784 0.0656742057283513 -0.00224948835458472 -0.6869942 0.2010577 0.6982942 106 106 106
-0.0334337845542083 0.0680569610078923 -0.00359314096059515 -0.723164 0.2918428 0.6259885 124 124 124
-0.0306548521020064 0.0594169101198307 0.00190042543325708 -0.8413535 0.329364 0.4285367 155 155 155
-0.0286559730865607 0.0603265962083928 0.00160040545378015 -0.7051263 0.3877122 0.593697 101 101 101
-0.0307523578502784 0.0621929368455998 0.00102808165464685 -0.6476231 0.3670757 0.6677123 179 179 179
-0.0296797871687064 0.0630740127046696 0.00251950907621667 -0.5685242 0.4221478 0.7060959 223 223 223
-0.0287534788348327 0.0632035932024113 0.00298759925279901 -0.4732854 0.4699423 0.7450873 243 243 243
-0.0273396380343089 0.0604343614061467 0.00275116252813623 -0.4957649 0.5546209 0.668291 111 111 111
-0.0302648253836284 0.064082046457111 0.00117721247587488 -0.613333 0.3695066 0.6980598 167 167 167
-0.0285097107388625 0.0658798417528264 0.00123058843527124 -0.3579832 0.5192468 0.7760353 203 203 203
-0.0242681883372913 0.0622997483690373 0.0039232580653219 0.01057669 0.7379365 0.6747873 108 108 108
-0.0227568380632053 0.0649868449648014 0.000899708150961853 0.1703981 0.6620593 0.7298232 156 156 156
-0.0208432756461749 0.063813229509174 0.00177796769056604 0.1770282 0.6866427 0.7051119 184 184 184
-0.0294847756721625 0.0644232234438054 -0.00390768957223608 -0.8043946 0.3318831 0.4927504 146 146 146
-0.0296797908939967 0.0674427947481266 -0.000152343631646179 -0.3906728 0.4607807 0.796904 136 136 136
-0.0272421285607467 0.0659458836992375 -0.000129887581727051 -0.1842479 0.5351509 0.8244187 215 215 215
-0.0291922584273467 0.06949057192403 -0.00138505709256842 -0.2405933 0.5313376 0.8122778 205 205 205
-0.0280221819975028 0.067755838342487 -0.00217693460073187 -0.2238148 0.531792 0.8167645 182 182 182
-0.0260232992567668 0.0695973834474675 -0.00238446307267859 0.1492428 0.6830524 0.7149587 81 81 81
-0.026267067352737 0.0689203938921086 -0.00118919622983649 0.09641038 0.6498477 0.7539251 103 103 103
-0.0286803513862739 0.0715902051408879 -0.00251577210511877 -0.08695523 0.6466494 0.7578148 141 141 141
-0.0201729208328376 0.067207594819843 -0.00120092344369604 0.2647745 0.7367774 0.6221362 165 165 165
-0.0244046941496978 0.0696449479539982 -0.00274086904611304 0.2049733 0.7094939 0.6742435 113 113 113
-0.0226918354727874 0.0691833695848576 -0.00281316948022559 0.2443591 0.7188275 0.6508269 109 109 109
-0.0192466087736735 0.0687486133058659 -0.00319936287488654 0.3355267 0.8033607 0.4919689 162 162 162
-0.0326862342753062 0.0738555392702214 -0.00671864461984351 -0.6843532 0.6058352 0.4057392 99 99 99
-0.0330925107099662 0.0704609355409733 -0.0044564844378443 -0.7251235 0.4230094 0.5433773 111 111 111
-0.0320199400283942 0.0714395245988957 -0.00375490796651556 -0.5770785 0.4948874 0.6496667 126 126 126
-0.0328162431814323 0.0750314197023503 -0.0092646868237467 -0.7247254 0.659865 0.1983719 95 95 95
-0.0299723081388126 0.0714222392519108 -0.00566185426797583 -0.5059974 0.6016018 0.6180953 142 142 142
-0.026218314478601 0.0744667252977482 -0.00804548871602728 0.2681088 0.8412681 0.4694524 159 159 159
-0.0306792304017196 0.0716046294649235 -0.00287395131673529 -0.45202 0.5463173 0.705135 173 173 173
-0.0301673233606467 0.0745449265916935 -0.00501545679654791 -0.2217349 0.7915151 0.5695063 99 99 99
-0.0285097144641528 0.0750544270952336 -0.00633447778310492 0.102716 0.8696049 0.4829459 161 161 161
-0.0226349577405105 0.0711337527711979 -0.00530023288812353 0.3577217 0.814673 0.4564461 160 160 160
-0.0242925629117141 0.0735392770250431 -0.00907091212358191 0.3724965 0.7989486 0.4721519 136 136 136
-0.0225130736925254 0.0729586085756413 -0.00857760918225958 0.4504148 0.7822849 0.4302986 149 149 149
-0.0265595883228431 0.0752496919115178 -0.0104430259474726 0.2132606 0.9197145 0.3296138 119 119 119
-0.0330925107099662 0.0748970708330265 -0.0223337353476496 -0.6754141 0.7348639 0.06157051 84 84 84
-0.0319224342801223 0.0741731128175847 -0.0217475087651224 -0.6882097 0.724636 0.03563875 131 131 131
-0.0309473730721126 0.0771821937044255 -0.0267820001849146 -0.6253432 0.780305 0.008370018 84 84 84
-0.0310936316945205 0.0757019719560734 -0.0218101383456202 -0.6934717 0.7148423 0.08998539 71 71 71
0.0413535863063683 0.0343392095049015 -0.00646344733323767 0.4570032 0.6909204 0.5601581 150 150 150
-0.0317274227835784 0.0756669244249455 -0.0211479307421656 -0.6978508 0.7142404 0.05352576 45 45 45
-0.0299885578550944 0.0774120292146794 -0.0204596014031382 -0.6114113 0.7715056 0.1759413 77 77 77
-0.0297285437681327 0.0783083638628117 -0.0226303876646967 -0.5763508 0.8112277 0.0986378 65 65 65
-0.0275834024049888 0.0800186595399968 -0.0220552028426142 -0.412301 0.9024932 0.1245545 145 145 145
-0.0200997896589885 0.0778719386537663 -0.0206613929280253 0.2976586 0.831996 0.4681689 137 137 137
-0.0268196024098048 0.0798887214143864 -0.0250903756627054 -0.3165045 0.948099 0.03054884 101 101 101
-0.0232443705298553 0.0805871686418644 -0.0265513898142786 -0.01427964 0.995006 0.09878845 69 69 69
-0.0275834024049888 0.0786388120134465 -0.0175553501852961 -0.2837631 0.9127356 0.2939253 96 96 96
-0.026754599819387 0.0800773105104557 -0.0207563431271525 -0.319069 0.9261596 0.2010558 138 138 138
-0.0203679323293815 0.0765137872179142 -0.018500694752595 0.3319063 0.7926136 0.5114703 63 63 63
-0.0212454915144096 0.0775009593446843 -0.0185022593745203 0.3137407 0.8133104 0.4899929 132 132 132
-0.0232199922301421 0.0798444947679631 -0.0210701466807337 0.1600607 0.920056 0.3575998 104 104 104
-0.0234881349005351 0.0794807872255436 -0.021182784558198 0.1600607 0.920056 0.3575998 55 55 55
-0.0210829794504294 0.0792769393404118 -0.021108606577775 0.2500714 0.8593335 0.4461057 112 112 112
-0.00862816796680785 0.0617876252611271 -0.00268478107537939 0.488273 0.7640473 0.4216886 158 158 158
-0.014517550180162 0.067963620134174 -0.00704933118905737 0.4154826 0.8321428 0.3673045 146 146 146
-0.0103491552271495 0.0663805207689396 -0.00863716912355139 0.461441 0.7643942 0.4503041 142 142 142
-0.0089109361269126 0.0630414685686222 -0.00370811832036688 0.4979776 0.7576105 0.4219534 154 154 154
-0.0117386177279601 0.0655597648103825 -0.00618603241529181 0.4940214 0.7712936 0.4013091 129 129 129
0.00449618621686601 0.0572381219347111 -0.0102288366564722 0.4560337 0.7940139 0.4019642 139 139 139
0.00595878175417089 0.0570329627473942 -0.0105896980771036 0.4015912 0.8151233 0.4174908 138 138 138
0.00386239512780808 0.05768158049184 -0.00850159835900977 0.4190907 0.8200107 0.3898017 143 143 143
0.00410616136113309 0.0562132796724431 -0.00822641861524298 0.384207 0.8457784 0.3701943 132 132 132
-0.00267053098460532 0.0600463351686589 -0.00873882484521582 0.4716945 0.7502488 0.4632829 133 133 133
0.00540624669710301 0.0596780976732365 -0.0147969515332194 0.4439231 0.7619659 0.4715296 154 154 154
0.0040817849240651 0.0617002448518864 -0.0168751866826029 0.5010641 0.703036 0.5046535 132 132 132
-8.6611891592512E-05 0.0613761147935978 -0.0124504805811854 0.4946292 0.6959053 0.5206321 161 161 161
-0.00101292208811141 0.0581582984407536 -0.00693165671910956 0.4517018 0.797619 0.3997116 150 150 150
-0.00140294694384433 0.0591991147478215 -0.00801437509145453 0.4495317 0.7656876 0.4600475 156 156 156
-0.00281678960701323 0.0588989457567326 -0.00444799077596381 0.4856538 0.7943093 0.3649836 131 131 131
