ply
format ascii 1.0
comment File exported by Rhinoceros Version 7.0
element vertex 469
property float x
property float y
property float z
property float nx
property float ny
property float nz
property uchar red
property uchar green
property uchar blue
end_header
0.0806902849024878 -0.20608405600144 0.00403198787042172 0.9999933 -0.003245576 -0.001713607 123 123 123
0.0551934192772875 -0.197489096255173 0.0212654832166379 0.01068935 -0.007354354 0.9999158 102 102 102
-0.0323336015504309 -0.122308067428906 0.00763360129782201 -0.9643115 -0.2616284 -0.04066791 88 88 88
-0.0852130788970624 0.000349324492219805 -0.00193243212127328 -0.8239067 -0.565966 0.02933082 70 70 70
0.000437357790192494 -0.214080722967278 -0.0221136738624114 -0.8490071 -0.4256237 -0.3130999 45 45 45
0.0487216337016673 -0.212594440191761 0.0213396377863104 0.01208052 -0.01751147 0.9997737 99 99 99
0.0686229548760869 0.0820646108102595 0.0239990824948507 0.0104495 -0.006742718 0.9999227 120 120 120
-0.00917644319013622 -0.185958710935084 0.0222329357246079 -0.1070423 -0.08027484 0.9910085 138 138 138
0.048983258532483 -0.0482824792221164 0.0228579382655666 0.01062331 -0.00862235 0.9999064 145 145 145
-0.0255925504432205 0.0733710117782157 0.0248520828470963 0.02163129 -0.01448652 0.999661 87 87 87
0.0468666692955655 0.165892977154833 0.0206706581605803 0.2192732 0.9583795 0.1828332 38 38 38
0.0809987607352 -0.109527533448835 -0.0127156570805874 0.9999964 -0.002116994 0.001678794 85 85 85
0.0750246863837546 -0.213655460311771 0.020882606300462 0.09558398 -0.01143862 0.9953557 135 135 135
0.00701135154676336 0.0923869307897204 0.0249438559351441 0.001790464 -0.01072706 0.9999409 123 123 123
0.0542661452127871 -0.0985376430971073 0.0222512140570197 0.01354829 -0.01579151 0.9997835 161 161 161
0.0806900673457169 -0.212144795796387 -0.00377755492532392 0.9998556 -0.009854743 0.01384757 99 99 99
0.0811129896501231 -0.112276150644853 0.0134197120431861 0.999943 0.005777042 -0.008976989 108 108 108
0.0807746113804685 -0.149859467235556 -0.0109115534826262 0.9999703 -0.002172845 -0.007388709 100 100 100
0.0292905050917658 0.170734762054696 0.0158391150876436 0.2395275 0.960712 0.1402108 42 42 42
0.0526240631727455 0.0059780761190773 0.023437651042125 0.01197587 -0.01650576 0.999792 199 199 199
0.0812522558466287 -0.0458474394139059 0.00788266804013973 0.9999301 -0.004091893 -0.01108649 109 109 109
0.0812176670584472 -0.0893544836600438 -0.0127454365352512 0.9999561 0.001298537 -0.009280046 74 74 74
-0.00109048695586877 0.163582929806687 0.0256993273197081 0.01750888 -0.01842074 0.999677 145 145 145
-0.0792560932638667 -0.0104812026520498 0.00578417267676365 -0.9200493 -0.391398 0.01780625 72 72 72
-0.0115647176863074 -0.188350928255291 -0.0181406175764836 -0.9348831 -0.3548231 -0.009705546 105 105 105
0.0376805724787345 -0.226602867327461 -0.0116738197312614 0.1648102 -0.8762464 -0.4528022 59 59 59
0.0808269063860599 -0.189719295566615 0.00828641884896633 0.9999796 0.006119108 0.001812588 148 148 148
-0.100647285489685 0.130747833761314 0.00713870328331284 -0.9556089 0.2916168 0.04208708 51 51 51
0.00131521431899773 -0.190699126933961 0.0220577733864274 0.008940697 -0.0050556 0.9999472 155 155 155
0.0387616755310533 -0.229775681067965 0.00465360351674418 0.2840721 -0.954305 -0.09276337 87 87 87
-0.0376227672357498 -0.10296313182821 1.47424225242776E-05 -0.9293032 -0.3652523 -0.0546473 83 83 83
-0.0829330896411026 0.166300338919193 0.0267374708915897 0.02042623 -0.008985929 0.999751 47 47 47
-0.0172628258268347 0.183183858236645 0.0186453575201207 0.2040372 0.9604895 0.1892849 62 62 62
0.0808101674072002 -0.137559845258154 -0.0191591988949178 0.9999605 -0.00720276 -0.005201521 80 80 80
0.0505773253468378 -0.142089275344266 0.0218857499349098 0.01334866 -0.009033815 0.9998701 126 126 126
0.0814171109382908 0.0262552377820188 -0.0165079754215333 0.9999856 -0.0002658844 -0.005354483 65 65 65
-0.00636117118963764 -0.125353491345852 0.0227305468488298 0.01195497 -0.01125243 0.9998652 192 192 192
-0.0552430246129108 0.155757834716843 0.0263621967230183 0.00913573 -0.01037582 0.9999045 86 86 86
-0.0536298564488723 0.0301418505681174 0.024925419250661 0.005441522 0.00777894 0.9999549 135 135 135
0.0818326960707295 0.0493128880349226 -0.00951360216277383 0.9998793 -0.01483689 -0.004605099 73 73 73
0.0288717786861572 0.0338217974287148 0.0240952435197111 0.01210453 -0.00763582 0.9998976 147 147 147
-0.0394540615525567 -0.0986982155147074 -0.00306350951329459 -0.9282148 -0.3574505 -0.1031813 73 73 73
0.0173927274712184 0.0578920605990604 0.0245828667113297 0.02252816 -0.0223895 0.9994954 170 170 170
-0.0794311647868069 -0.00206693055359375 0.0249605901888197 -0.04251016 -0.058874 0.9973599 135 135 135
0.000247614545336505 -0.206800851982935 0.0216626769177393 -0.2402733 -0.2131813 0.9470071 100 100 100
-0.0495989304005414 0.19408452583147 0.00200669098334413 0.1615908 0.9558725 0.2453491 71 71 71
0.0410014537743497 0.161744846685847 0.0250833911237525 0.04477773 0.2120438 0.9762338 119 119 119
-0.0771837994429713 0.0682158536012628 0.0258438839566049 0.01771382 -0.008990937 0.9998026 139 139 139
0.0810781243056072 -0.115837419287719 0.00468025320086068 0.9998594 -0.009054746 -0.01411504 111 111 111
0.042699990143239 -0.22841690992843 -2.28484772728799E-05 0.1471625 -0.9879915 0.04707441 114 114 114
-0.104629880487119 0.040476000588432 -0.00119163477790413 -0.8743657 -0.4847559 -0.02227917 64 64 64
-0.0267896180552776 0.099703509671805 0.0253729020629037 0.01936519 -0.01980685 0.9996163 113 113 113
0.0818663850992428 0.0552092650910451 0.0110919802161766 0.9998721 0.002795206 0.01574277 114 114 114
0.00716429682098652 0.17679675090023 0.0114544676817869 0.161799 0.9758123 0.1470083 39 39 39
-0.00228833812482809 -0.170391132939864 0.0221247010392419 0.0136265 -0.003532484 0.9999009 123 123 123
-0.0289335111778231 -0.115928561108658 0.0233706826625117 0.009272506 -0.02162248 0.9997232 142 142 142
-0.0320218374581817 0.189288666335217 0.00152910509486606 0.3019647 0.9329057 0.196225 70 70 70
0.0475156230944326 -0.228864879249493 0.0137844115247879 0.2998744 -0.9537453 -0.02109953 115 115 115
-0.0732033364183468 0.0675650742045647 0.0254974897469225 0.02087942 -0.01440921 0.9996781 88 88 88
0.017722569816818 -0.162997318802698 0.0221241723869892 0.009653471 -0.01478136 0.9998441 162 162 162
-0.081017307207089 0.131994705535568 0.0262473649861011 0.004608167 -0.01170001 0.9999209 82 82 82
0.0712394178772159 -0.169901153581058 0.0213935953067782 0.02082225 -0.01285654 0.9997005 171 171 171
0.0809085672305746 -0.129959094620297 -0.00882194338956563 0.9999804 0.005476391 0.003040053 84 84 84
-0.0675207878194918 0.197331364205407 -0.00618271213384736 0.01435305 0.9881547 -0.1527881 38 38 38
0.0144354387504815 0.0558014563003443 0.0243666145461858 0.009296615 -0.02258999 0.9997016 126 126 126
-0.0250490319394541 0.0376716092282695 0.0245311066172657 0.01926226 -0.01611541 0.9996846 142 142 142
0.0410009794322371 -0.131156866918626 0.0224462360105579 0.01681207 -0.01102615 0.9997979 224 224 224
0.0807950621093426 -0.201913952691576 0.00605818382803963 0.9999693 0.001024401 -0.007770231 144 144 144
-0.0329487016256992 -0.108719521641848 0.023429094598631 -0.1564307 -0.009528831 0.9876429 138 138 138
-0.0193792910800679 -0.0787325388896352 0.0232886632880057 0.01686711 0.005210987 0.9998441 117 117 117
-0.0297258696037421 -0.129125629502906 -0.00829835037774915 -0.9750858 -0.2201011 -0.02762507 149 149 149
-0.0612271185268753 0.144003463291743 0.0262733763730799 0.01070817 -0.00659727 0.9999209 134 134 134
-0.0990859159569418 0.142715416626691 0.0140274328361173 -0.9748535 0.2164959 -0.05282248 26 26 26
0.0736627154126818 -0.177742538290481 0.0212735826253439 0.02885303 -0.008910183 0.999544 180 180 180
0.0144063689742926 0.0872507591811712 0.0247540375404903 0.009299132 -0.009488559 0.9999117 168 168 168
0.0748634870417251 -0.128085532610368 0.0211963072191239 0.112107 0.0880228 0.9897899 140 140 140
-0.00831658412315228 -0.194199118446701 0.00690634716272631 -0.9272509 -0.3710526 -0.0502575 80 80 80
-0.0437093155569618 -0.090533380933103 0.0211015306102822 -0.875555 -0.2536121 0.4111988 87 87 87
0.000746097329693884 -0.221772729464249 -0.00769998430558369 -0.8950552 -0.4355245 -0.09588807 106 106 106
0.0153936094612138 -0.0269912171497296 0.0235097728747671 0.006436767 -0.01777034 0.9998214 192 192 192
0.0816731833029474 0.055099959025363 -0.0081903300382441 0.9999856 -0.00327549 -0.004258166 146 146 146
-0.0891701947133311 0.0797431358468504 0.0257075074866271 0.01314267 -0.02262998 0.9996575 95 95 95
0.0812296112297055 -0.109735466336589 0.0175563015659946 0.9796579 0.0004436942 0.2006742 137 137 137
0.00472638697816774 -0.0901041026572459 0.0229993144046553 0.008919208 -0.005575588 0.9999447 148 148 148
0.00693118494874201 0.0280420748277453 0.0240321571015647 0.01192133 -0.002445313 0.999926 130 130 130
0.0810845417586729 -0.118342618662158 0.0193861559391113 0.8419915 -0.0657206 0.5354727 162 162 162
-0.0527439632281819 -0.0509261463273301 0.0239153192716681 0.01778633 -0.006779836 0.9998188 108 108 108
-0.0904328203604966 0.0937705594883042 0.0261132393147227 0.009170171 -0.0056384 0.9999421 121 121 121
0.0809958894835927 -0.133917379366861 0.00313320856597635 0.999988 0.00420657 -0.002518801 115 115 115
-0.0530963339402997 0.136992313048176 0.0261229488640508 0.01692965 -0.007330838 0.9998298 100 100 100
0.0531435509681285 -0.160416667266194 0.0217567379129582 0.01258011 -0.0110112 0.9998602 158 158 158
-0.112066795904655 0.0995708648870873 -0.018943970360204 -0.9767369 0.2131908 0.02312293 33 33 33
-0.000420596841249954 0.178665963539137 0.0140253440954545 0.3398814 0.9163016 0.21183 71 71 71
0.047113821885297 -0.0400491593442022 0.0228726120121062 0.01895152 -0.01293361 0.9997367 131 131 131
0.0544232451395555 -0.214620178461653 -0.0183923281734524 0.1948685 -0.7533325 -0.6281054 55 55 55
0.0317480508426223 0.0971026798131339 0.0244119170305626 0.02385349 -0.009572007 0.9996696 128 128 128
-0.0772335624064433 0.125948791110928 0.0264089288725552 0.004973707 -0.01372876 0.9998934 134 134 134
0.0212442388173754 -0.196523698213046 0.0216793892746545 0.009412976 -0.01527291 0.9998391 122 122 122
-0.0371168273019045 0.0977131381595749 0.0254403894477826 0.01625277 -0.00271894 0.9998642 98 98 98
-0.0246963857857426 -0.106078577732354 0.0232573272541447 0.02316159 -0.01221319 0.9996572 123 123 123
-0.0673194592057641 0.0515859855187671 0.0252142008342173 0.009468325 -0.01345384 0.9998646 113 113 113
0.0809020287490582 -0.070260027158275 -0.0216277817027861 0.9999777 -0.003015902 0.005953591 71 71 71
-0.00283835465656457 -0.158709857695015 0.0224911968889853 0.02267107 -0.01019469 0.999691 172 172 172
0.0572907099410664 -0.210206009470991 0.0211584594787168 0.002008748 -0.01889698 0.9998194 123 123 123
0.00718167475004572 -0.00770656763749344 0.0237675319386147 0.01782293 -0.0212066 0.9996163 139 139 139
0.0808127515239787 -0.15201784661264 -0.00302213019079914 0.9999541 0.0002985946 -0.009576293 125 125 125
0.054262210682925 -0.16844855005248 0.0215165306980955 0.00946806 -0.007296284 0.9999285 136 136 136
-0.0514312272812482 0.157800871656452 0.0264964479221202 0.02031009 -0.008426501 0.9997582 156 156 156
0.0814177468056856 0.0597519527455258 -0.0101310753986673 0.9999781 -0.002892449 -0.005954717 115 115 115
0.077117715185451 0.0217662380062366 0.0228701704101308 0.2885493 0.008601348 0.9574264 149 149 149
0.0232705864181347 -0.160401709311096 0.0220135187856316 0.01254457 -3.83363E-06 0.9999213 136 136 136
0.0819318198638979 0.116000529929174 -0.0175591601135474 0.9999427 -0.001080203 -0.01064721 69 69 69
0.0808399981242829 -0.141566690690327 -0.0132626977432279 0.9999649 0.00115814 -0.0083013 93 93 93
-0.0611222658804845 -0.0506451434833556 0.00731035699953614 -0.9163619 -0.3435186 -0.2056107 93 93 93
0.00435332212641248 0.109679482843002 0.0250484144336485 0.02195837 -0.01654511 0.999622 162 162 162
0.0688456407406514 -0.130845920782867 0.0217337466572274 0.04584587 0.005537652 0.9989332 107 107 107
0.01898016365158 -0.162082075939864 0.022067652891975 0.01111342 -0.01631269 0.9998052 146 146 146
0.0816444108727334 0.0853462631378775 0.00649700609762122 0.9997879 -0.01950583 0.006610557 98 98 98
0.0160045440724887 -0.158194623373148 0.0223370405632145 0.01214578 -0.01341319 0.9998363 130 130 130
-0.0847810021035499 0.145434274812415 0.0267458949069987 0.01488881 -0.02521142 0.9995713 117 117 117
0.0228685292508001 -0.14630058646322 0.0222231143092678 0.01054989 -0.0168594 0.9998022 135 135 135
0.000160685209681821 -0.209074364709787 0.0149873448578341 -0.9403062 -0.3402678 -0.006482987 18 18 18
0.0805842453542061 -0.215938796721241 -0.00587976867420473 0.8733179 -0.4857641 -0.03672989 104 104 104
-0.0375472425738714 0.189164349848385 0.0113268695091854 0.2862364 0.9199216 0.2679794 48 48 48
0.0469830775991567 -0.0198766385919288 0.0232324517839439 0.01837102 -0.02628929 0.9994856 122 122 122
-0.0472365582648453 -0.00207018530101044 0.0244722205348477 0.009766979 -0.02495432 0.9996409 98 98 98
-0.0255785741877786 -0.145979178838492 -0.0217711648161557 -0.9420288 -0.3354055 -0.009215514 71 71 71
0.0651538262916014 -0.207640728276599 -0.024018748079189 0.1220022 -0.7531065 -0.6464874 40 40 40
0.0434331120059489 -0.229311361314091 0.00696503450957672 0.1096789 -0.9771163 -0.1822481 97 97 97
0.0144094530395634 -0.161860228258003 0.0223236190985177 0.007793952 -0.0152077 0.999854 151 151 151
-0.0357418403121763 -0.108831125988769 -0.00385735637138426 -0.9598099 -0.280431 -0.0111112 104 104 104
0.0726468319757049 -0.219650819540451 -0.00206721316274439 0.1770294 -0.9704893 -0.1637411 61 61 61
0.00112866789767341 -0.107813526747153 0.0228217542943128 0.01808867 0.00545536 0.9998215 140 140 140
0.051780404574848 -0.226729548629542 -6.63281823575779E-05 0.4328632 -0.8864071 -0.1640487 67 67 67
-0.00291123737003762 -0.0474337148072087 0.023745058928828 0.01759074 -0.006054322 0.999827 137 137 137
0.0573441964165149 -0.136482369208684 0.0217875492240678 0.007039021 -0.007486267 0.9999472 169 169 169
-0.0317203028097123 -0.12264730135981 -0.00034891684633781 -0.9563202 -0.2879499 -0.05036318 54 54 54
0.0814828439274909 -0.0204311797649003 0.0201161933417617 0.9342076 0.02241825 0.3560248 125 125 125
0.0208862867491501 0.106420633206214 0.0247911830193349 0.02697741 -0.01492523 0.9995246 176 176 176
0.0513191712124969 -0.167170032846156 0.0216335155135516 0.0163829 -0.01047271 0.9998109 208 208 208
-0.00901879742717859 -0.191760058460821 -0.0190967113109646 -0.9246803 -0.3763262 -0.05783531 47 47 47
0.0355129367392613 -0.110908240529107 0.0224868415623226 0.006453131 -0.001753783 0.9999776 159 159 159
-0.0315535611059987 -0.125828510153133 -0.0218053066945248 -0.9465813 -0.2637222 0.1855653 102 102 102
0.0311004693193306 0.170656751533082 0.0130083343091278 0.29117 0.9528322 0.08561976 40 40 40
0.0815791897568895 0.0319968873454689 0.00122191022086746 0.9992419 0.02530412 -0.02958421 82 82 82
-0.00511208726755608 0.0724465982900387 0.0245113607486828 0.009454491 -0.01598007 0.9998276 145 145 145
-0.0333535450143301 -0.117029165430838 -0.015681840556227 -0.9473686 -0.3111782 0.07523804 59 59 59
-0.0792103107858402 0.0218422855160375 0.0252065459791661 0.002839125 -0.002581427 0.9999926 116 116 116
0.0817772007815388 0.102932804387087 0.0227260016199715 0.8543103 0.04383836 0.5179113 164 164 164
-0.0256177341379568 0.0916114902100252 0.0252341219871713 0.009406541 -0.00605088 0.9999375 132 132 132
0.0811034136554192 -0.0999657719545409 -0.00693872563819473 0.9999831 -0.001550884 -0.005604856 86 86 86
-0.0187727671148151 -0.156746669852017 0.0225438702460845 -0.09028523 -0.0768296 0.9929481 136 136 136
0.0387117122436307 0.0340482572371582 0.0237518570197948 0.01223589 -0.009630744 0.9998788 144 144 144
0.0712066374488195 -0.0786405093403376 0.022333682896677 0.01145015 -0.00366725 0.9999277 137 137 137
-0.00465944923339479 -0.176427080030842 0.0223698503642546 0.01595595 -0.004163224 0.999864 121 121 121
-0.0532447123798843 0.126437523122358 0.0260176435583982 0.002682457 -0.02071817 0.9997817 140 140 140
-0.0350578317168526 0.186608853774676 0.0142190091932166 0.2400003 0.9401275 0.241992 61 61 61
-0.0973801665665365 0.0254394459194943 0.0202795916306564 -0.8990684 -0.4262579 0.09990156 46 46 46
0.0809359018597334 -0.142062460593916 -0.00474049232240287 0.9999884 -0.001376915 -0.004605605 95 95 95
-0.0913393605981281 0.0162246583591824 -0.0117588963773245 -0.9274979 -0.3639323 -0.08544597 39 39 39
0.0819071860970805 0.0678738353635581 -0.00582877814928048 0.9998631 0.01654746 0.0001493299 95 95 95
-0.0241103581258019 -0.120653644492243 0.0232376993417114 0.01389128 -0.00125337 0.9999027 116 116 116
-0.0400415786983416 -0.079599401555603 0.0239019291135635 0.02238783 0.001831869 0.9997477 112 112 112
0.0623423778965027 -0.014330773455263 0.0230689602709344 0.01017702 -0.01168447 0.99988 146 146 146
0.0724884572648854 0.021324129854735 0.0235214282498298 0.0512704 0.001900595 0.998683 109 109 109
0.00901871871381665 -0.154750862256303 0.0222335160462825 0.01106299 -0.01801716 0.9997765 153 153 153
-0.0895513492557537 0.11775638556799 0.0264183941454962 0.01165367 -0.0184498 0.9997619 134 134 134
0.0430417906205208 -0.228355394341411 0.00210748357901822 0.1445431 -0.989387 -0.01485274 114 114 114
0.0571939019294004 -0.20598559057306 0.021177458159861 0.009729967 -0.008030694 0.9999204 122 122 122
-0.0707995000183889 -0.0243914185637231 0.0246330290710764 -0.3105383 -0.1300225 0.9416263 128 128 128
0.0737647663420334 -0.138312682760439 0.0216832167330518 0.04332834 -0.00163309 0.9990596 162 162 162
0.078876997106461 0.161979557431386 -0.0035524614565893 0.3127262 0.9496878 0.01718825 18 18 18
-0.00494396769109884 0.146559462532268 0.0262154591600799 0.01063239 -0.01275525 0.9998621 191 191 191
0.06699114611164 -0.0066644933968677 0.0229857443579713 0.02420116 -0.003069194 0.9997024 149 149 149
0.0356927822963129 -0.231994819068608 0.019998127390656 0.160119 -0.7981513 0.5807895 164 164 164
0.00710972734937343 -0.0260209785538346 0.0235266446652304 0.02814576 -0.007596098 0.999575 207 207 207
0.0170514980343035 -0.17684171356115 0.0218922273249487 0.01181369 -0.01072224 0.9998727 106 106 106
-0.105303907283068 0.120495912212982 0.00920602953411062 -0.9491038 0.2963517 0.1066659 31 31 31
0.0814354802440399 0.0704245661947355 -0.0139527547399383 0.9999478 0.002588712 0.009885286 76 76 76
-0.00264771595682534 -0.204163027942483 0.0124116894816894 -0.8695366 -0.4917488 -0.04570774 77 77 77
0.0224135042913202 -0.12586157322395 0.0223979705666684 0.005972901 -0.007416817 0.9999546 168 168 168
0.054980003121719 -0.192092652675676 0.021354284015617 0.0171781 -0.01664465 0.9997139 93 93 93
0.030198431257882 0.0956896672833191 0.02461080473987 0.02456241 -0.007808352 0.9996678 96 96 96
-0.103855950749587 0.12677102754152 -0.0169103324755027 -0.9677915 0.2510159 0.01924995 19 19 19
0.0814775627060959 0.122543507047935 -0.0136738187534413 0.999747 -0.02039747 0.009478436 107 107 107
0.00244314459236361 -0.126304272592636 0.0225796757134981 0.005343359 -0.01386797 0.9998896 143 143 143
0.051516732730035 -0.228202705162125 0.0163870610890731 0.2701767 -0.9624184 0.02748391 104 104 104
0.0166775740489804 0.174051444012037 0.0173950865871552 0.2640504 0.9516804 0.1567856 43 43 43
-0.0228472074046902 0.161212944660284 0.0259364525636124 0.01682047 -0.005062287 0.9998457 161 161 161
-0.0177808034460707 -0.174415778931892 0.0154950118549473 -0.9265009 -0.3639725 -0.09549958 80 80 80
0.0814715518243693 0.0385196270699656 -0.00250065948008962 0.9996607 -0.02554229 0.005105383 78 78 78
0.0527476539931013 -0.225576425659242 -0.00561226581639071 0.2543791 -0.8720181 -0.4181814 34 34 34
-0.0832489825157855 -0.00316891566595001 0.0183610333135313 -0.920428 -0.3901142 -0.02496297 39 39 39
0.000849167522199323 -0.211938486185894 0.0171166592272219 -0.958892 -0.2319912 0.1634203 102 102 102
0.0549804822938716 -0.0859982098547268 0.0223981496519284 0.009513997 -0.003836719 0.9999474 149 149 149
-0.0539382369193798 0.193017974502237 0.00961373618595629 0.2497995 0.9120891 0.3251056 76 76 76
-0.000682222717681813 -0.219584736134141 -0.00488426719609508 -0.9103658 -0.4134244 0.01773308 107 107 107
0.0823259116470508 0.141894746040799 0.00818893885810826 0.9998996 -0.007985433 -0.01170847 161 161 161
-0.0478402250645998 0.183328174412743 0.0268427244638922 0.02663652 0.06171802 0.9977381 54 54 54
0.00697176205959515 -0.111650215931287 0.0229153355563148 0.01309234 -0.01346306 0.9998236 193 193 193
0.0807426821312973 -0.203964054184121 0.00262787409625478 0.9999657 -0.008139418 -0.001540606 123 123 123
-0.043799591518634 -0.0290537305437339 0.0238817298094084 0.01413786 -0.01310921 0.9998141 104 104 104
-0.022276725571573 -0.102178777141884 0.0230351556957366 0.005307986 -0.00532674 0.9999717 146 146 146
0.0819491160967093 0.114222587139369 -0.0158670729291855 0.9997208 0.01614217 -0.01725326 79 79 79
0.081994599594836 0.106427030299996 0.00179391886041425 0.9999883 -0.004730617 0.001061529 116 116 116
0.0805923542780106 -0.115267054074412 0.0205425397954714 0.7401381 -0.1055352 0.6641219 100 100 100
0.0412816063608065 -0.148218383979715 0.0219845092764185 0.02058793 -0.01391422 0.9996912 165 165 165
-0.066873695510236 -0.0407920848302967 0.022451141450916 -0.8663195 -0.3923926 0.3090607 60 60 60
0.0616340736006638 -0.147808321184112 0.021765794013106 0.01792233 0.0002288747 0.9998394 128 128 128
0.020393080822896 -0.193783361323715 0.0218508123160668 0.01446437 -0.01571937 0.9997718 130 130 130
-0.0586384285329757 0.0191925307720925 0.0250016640523816 0.01051508 -0.01320725 0.9998575 137 137 137
-0.0267170018201399 -0.0421627320139424 0.0240875201761942 0.003607362 -0.01475224 0.9998847 120 120 120
-0.117209776002276 0.0687334969311445 0.0160311560120324 -0.9794011 0.1861075 -0.07834212 30 30 30
-0.0634134820138449 0.121741125694695 0.026284630718343 0.01392605 -0.01047691 0.9998481 136 136 136
0.0207944716224989 -0.17800232310046 0.0218901555488974 0.01901203 -0.01852834 0.9996476 115 115 115
-0.0499587317409995 0.0704538925245671 0.0256390971648336 0.02894148 -0.009076067 0.9995399 140 140 140
-0.0769769055773197 0.0243044165660683 0.0252070711214732 0.01611678 -0.01232595 0.9997941 99 99 99
-0.0216639991174219 -0.156210622864873 -0.0199255078686485 -0.9210896 -0.3694346 -0.1229308 100 100 100
-0.0939382987779602 0.0198663760946794 0.00407989271944664 -0.8481635 -0.5286077 -0.03453322 45 45 45
0.081796943639414 0.0600327246622322 -0.000774240748647292 0.9998446 -0.0172873 -0.003451491 131 131 131
-0.0474596532220471 -0.0758808181384631 0.0238713156258745 -0.3458091 -0.245098 0.9057279 126 126 126
0.0807386597378495 -0.200007943242855 0.00839761789183355 0.999936 0.01090237 -0.003018434 130 130 130
0.00484521565442186 -0.191962686012863 0.0219466442787125 0.01356359 -0.005769907 0.9998913 185 185 185
-0.104801695190375 0.121701210560343 0.00100399489908412 -0.9458274 0.3241937 -0.01757859 34 34 34
0.0769244755468864 -0.197702502048038 0.0209620912537322 0.2292148 -0.01181734 0.9733042 177 177 177
-0.11468820849103 0.0835622279923994 -0.0147374322083373 -0.9768734 0.2051468 0.06027554 22 22 22
0.0479643878947321 -0.196467778960301 0.0214025962664814 0.01285852 -0.01281841 0.9998351 103 103 103
-0.0355223102735928 -0.00729878037426501 0.0245849544265921 -0.003195574 -0.01678173 0.9998541 142 142 142
0.0812645400171382 -0.0440396619874106 0.0100798912724613 0.9999171 0.009950875 -0.008174337 120 120 120
-0.00102835031012094 -0.154783077299198 0.0223372201248571 0.02474545 -0.004149457 0.9996852 178 178 178
0.0469713459469601 -0.12598889689033 0.022113526882357 0.01651651 -0.01978319 0.9996679 168 168 168
-0.0749418782865311 0.0779767311504399 0.0257883989637116 0.01300661 -0.002927901 0.9999111 77 77 77
-0.0310354467482813 0.147679976188402 0.0259624161106718 0.01607984 -0.005151178 0.9998574 143 143 143
-0.0454460211125667 -0.0841785843065421 0.00420491165689632 -0.9165314 -0.379763 -0.1255002 71 71 71
0.0525829566621923 0.0536461977805526 0.023895686158487 0.009272171 -0.007072466 0.999932 92 92 92
0.0550006636561838 -0.0906459854175412 0.02240922020368 0.002244047 -0.008544408 0.999961 163 163 163
0.0511282642395318 -0.222278652602199 -0.00951912673213814 0.1600793 -0.7904412 -0.5912507 48 48 48
0.0232810070195322 -0.225708284394473 -0.00969962819161679 -0.01106544 -0.9237981 -0.3827201 76 76 76
0.0568160591427088 0.0978376105230682 0.0243275061184134 0.004869121 -0.009976887 0.9999384 80 80 80
0.0811602291324887 -0.0757649228854812 -0.00392633913026039 0.9998114 -0.01120574 -0.01586399 82 82 82
-0.100295129647626 0.135141510795619 0.0265975587854917 -0.1142101 0.02131169 0.993228 80 80 80
-0.0850105015678683 0.000250973183348213 -0.000465446729348645 -0.8415722 -0.5401129 -0.005864894 71 71 71
-0.0332890599551434 -0.119430158936325 0.0120353440227525 -0.9521456 -0.2955836 -0.07777543 74 74 74
-0.0518484571457843 0.123772835410888 0.025951141543977 0.01571811 -0.02132411 0.999649 100 100 100
-0.0151118655420825 -0.13197975831227 0.022833189776153 0.01128297 -0.01626636 0.999804 137 137 137
0.0806541214536722 -0.209909680107307 -0.0135420551353176 0.9840301 -0.1251455 -0.1265835 84 84 84
0.00117371738039396 -0.00676094230331536 0.0240115774670219 0.01709008 -0.00454418 0.9998437 133 133 133
0.0132037458538793 -0.21077409510148 0.0217389800320255 0.006933655 -0.008377226 0.9999409 104 104 104
0.0722691848092807 -0.0759982244526662 0.0222387129906973 0.006088502 -0.01420883 0.9998805 169 169 169
0.0437991480437497 -0.228850781980962 -0.00451702965592612 0.1666476 -0.9538391 -0.2498389 49 49 49
0.0769940577742467 -0.106038276139638 0.0220891434120617 0.2214369 -0.04651005 0.9740649 160 160 160
0.0391461409732207 0.116219322770477 0.0248869959775188 0.01038563 -0.02687527 0.9995849 150 150 150
0.000561593481502864 0.178144508498022 0.0153653110454763 0.2986235 0.9329859 0.2009014 73 73 73
0.00211937604170909 -0.228500842453196 0.00666618621911891 -0.8921027 -0.4412192 -0.09735741 91 91 91
0.0529014968931377 0.0223968786900243 0.0235062082280391 0.006956808 -0.004883105 0.9999639 116 116 116
-0.0612510521147327 0.155267419512695 0.0267140102480816 0.01799176 -0.01676755 0.9996975 66 66 66
0.0590532263950817 0.153726215238843 0.0247848787645824 0.004763406 -0.01870666 0.9998137 97 97 97
-0.075827630534855 -0.0185917765897704 0.0112828735950858 -0.9215634 -0.3881578 0.007381986 81 81 81
-0.061108899412637 0.161836318458863 0.0264322774019311 -0.0002390161 -0.01711526 0.9998535 100 100 100
0.0128592774098469 -0.166291245841543 0.0219631276546694 0.02351381 -0.001193896 0.9997228 126 126 126
0.0340910103325778 -0.0280670875929043 0.0232921593191339 0.009581144 -0.007813205 0.9999236 184 184 184
0.0101748438787951 -0.119152596819889 0.022628620750005 0.01501588 0.005801855 0.9998704 162 162 162
-0.0170878931776554 0.0977793277855784 0.0252990379406932 0.01054631 -0.005442961 0.9999295 115 115 115
-0.0187228260592751 -0.160211018929712 0.0225663975583525 -0.2382409 -0.1333496 0.9620079 129 129 129
-0.0467549017001065 0.192788371114404 0.00248979302602864 0.1814894 0.9476141 0.2628483 72 72 72
0.0249618928700749 -0.231474832940917 0.0058172598420031 -0.01991413 -0.976846 -0.2130146 88 88 88
-0.0230374800966294 0.0194911258152776 0.0246416395875426 0.009032441 -0.007167748 0.9999335 141 141 141
0.0391939299515364 -0.206121202226944 0.0215551489974357 -0.01461063 -0.01174853 0.9998242 117 117 117
-0.00540452262292623 -0.144451200545747 0.0225955529773395 0.01026764 -0.002474218 0.9999442 176 176 176
0.0806270673522193 -0.167763083490992 -0.0111556528656022 0.9998932 0.01163071 0.008845739 136 136 136
-0.00716752279805311 -0.187789805902545 0.0220889569927429 -0.03748927 -0.01791255 0.9991364 134 134 134
0.081710110010103 -0.0297138598741316 0.0203785913755002 0.9029651 -0.02240876 0.4291291 148 148 148
0.0806692641849012 -0.158080556702471 0.0192536951462354 0.8934172 0.05290663 0.4461016 146 146 146
0.0204730036594225 -0.226896204001479 -0.00698322817231567 -0.05316207 -0.9228842 -0.3813904 132 132 132
-0.0159841959056548 -0.172862645073694 0.00325070055190899 -0.9574636 -0.2790397 -0.0734876 84 84 84
-0.0690145218435783 -0.0327650416442993 0.0168511079841745 -0.8923392 -0.4463518 -0.06708793 60 60 60
-0.0306857950193038 -0.125924646510482 0.0231439281203172 -0.3974097 -0.1233876 0.909308 92 92 92
0.0817328680672147 0.0623276150764908 -0.014605907343524 0.9999967 -0.002554339 -0.0002014285 40 40 40
-0.0507949470465106 -0.0547718065357309 0.0237436480321171 0.01208191 -0.006512106 0.9999058 115 115 115
0.0814993095010733 0.0983370869246875 -0.0212934004740457 0.9994178 -0.01997661 -0.02765628 58 58 58
0.0819760003285271 0.0941109797223257 0.00590124762434016 0.9999902 -0.002545056 -0.003624573 113 113 113
-0.0397118932882282 0.192099047684964 -0.0140609065666866 0.1144857 0.9933835 0.009070607 109 109 109
0.039661735655626 -0.185706329438364 0.0218395561840727 0.007645213 -0.0175595 0.9998166 127 127 127
-0.0322816226330587 -0.121469166936733 0.00623297393452391 -0.9658749 -0.2584164 -0.0175106 102 102 102
0.0810876334394363 -0.0997769812928856 -0.0124978204508809 0.9999512 -0.009680972 0.001937258 77 77 77
-0.034433214828095 -0.115528528448656 0.00404324431241054 -0.9620333 -0.272881 0.005281689 58 58 58
0.0186608252044819 0.0338824992419479 0.0240698533416728 0.005309443 -0.001684083 0.9999845 131 131 131
0.0327726647689296 -0.0550178281718768 0.023048414705499 0.01183553 -0.0228279 0.9996694 145 145 145
-0.000879972336302659 -0.0891688179227501 0.0232468961871486 0.01078134 -0.00892186 0.9999021 142 142 142
0.0150514743118865 -0.0982387862028822 0.022816986654421 0.004186023 -0.003014751 0.9999867 134 134 134
-0.0425617324300375 -0.0109153152449077 0.0246554507095607 0.0004498523 -0.01356273 0.9999079 147 147 147
0.00567523870779985 -0.212655113140065 0.0216790737520646 0.009483446 -0.005293006 0.9999411 114 114 114
0.0404139481782819 -0.199280036261762 0.0213922321532947 0.003315964 -0.00976397 0.9999468 90 90 90
0.0814434643108267 0.0582864543057368 -0.0104863918741712 0.9999087 -0.0134588 0.001209978 134 134 134
-0.0416544077881836 0.192741472346548 -0.00423905891918036 0.251325 0.9678487 -0.01023267 42 42 42
0.0751401947210297 -0.222082670270925 0.020712986616669 0.1253697 -0.6451011 0.753742 203 203 203
0.0816813480196358 0.0754349747626265 0.0179255073958472 0.999904 -0.0007778883 -0.01383532 129 129 129
0.0553343393811918 -0.150245702821212 0.0217483350051454 0.006028092 -0.001338414 0.9999809 143 143 143
0.0811954715762508 -0.0836661676353239 -0.0162786990597194 0.9999945 -0.001727787 -0.002829522 72 72 72
0.0409470281389942 -0.223861079301277 0.02117706634647 0.01135945 -0.008693287 0.9998977 83 83 83
0.0105778704115637 -0.153954196847968 0.0222159553221802 0.008347556 -0.02109859 0.9997426 148 148 148
0.0421145481131863 -0.132064146996644 0.0225287663284324 0.01755386 -0.009432859 0.9998014 175 175 175
0.0124280690465537 -0.150254942666683 0.0222709155367258 0.01420725 -0.02306957 0.9996329 170 170 170
0.0110509530046948 0.131456337679065 0.0251088828510874 0.006697272 -0.004457288 0.9999676 152 152 152
-0.0404331901486027 0.0399860507392401 0.0249317234721652 0.02186557 -0.02021281 0.9995565 93 93 93
-0.0738588448369806 0.197378958960087 -0.0121815397481724 0.1963396 0.9749585 -0.104435 37 37 37
-0.103064422733183 0.0578444925093881 0.0258293404757646 0.02050923 -0.01833257 0.9996216 130 130 130
0.0266103908387791 -0.0799116428771888 0.0228768678110589 0.01211034 -0.01334428 0.9998376 149 149 149
-0.0394780722410556 0.15811233710958 0.0261963308105532 -0.00371019 -0.0131779 0.9999063 45 45 45
-0.0497634219025584 -0.0697253820798155 -0.0092031714840741 -0.9203858 -0.3714328 -0.1221789 43 43 43
0.0428306166456306 -0.108084296857398 0.0223320547521232 0.009520621 -0.01288036 0.9998717 166 166 166
0.0815393866569841 0.0418324348397242 0.0134081158965874 0.9998945 0.000282646 -0.014521 103 103 103
0.0116053743297108 -0.178282011832511 0.0220672262970001 0.003226139 -0.005160628 0.9999815 126 126 126
0.0806531590822502 -0.137593902218785 -0.0210137343548968 0.9998835 -0.01039538 -0.01117309 71 71 71
0.0812444849142034 -0.023365734677615 -0.0174925862439752 0.999994 -0.003463973 4.491895E-05 61 61 61
-0.0013770414703077 -0.102394062811855 0.0231418255574742 0.01934666 0.006665872 0.9997906 152 152 152
-0.0633814846032664 0.153202369134598 0.02656726457066 0.005521874 -0.007552622 0.9999563 74 74 74
-0.0952750192632085 0.15639418232472 0.0179057866107613 -0.917673 0.3839854 0.1021347 49 49 49
-0.00744334516637968 -0.156787054588213 0.0224739133257461 0.01384724 -0.02064808 0.9996909 189 189 189
0.0137521184877296 -0.127950527722384 0.02268489652027 0.006383541 -0.01076767 0.9999217 179 179 179
0.0491317308631658 0.12382759473313 0.0248143908323525 0.0223351 -0.002391542 0.9997477 162 162 162
0.0674158922977023 -0.0884894018519445 0.0221951444663605 0.009951997 -0.001542558 0.9999493 153 153 153
0.0507818949911464 0.173384916046466 -0.0195667776121326 0.1746205 0.9235349 0.3414541 65 65 65
-0.0667730302429594 0.137707038192246 0.0263830692712875 0.003547765 -0.02317825 0.999725 67 67 67
0.0211618522270142 -0.190393492524821 0.0218391495169862 0.00103819 0.001769799 0.9999979 140 140 140
-0.00659213890494903 -0.197771882896688 -0.00533897773460859 -0.9511644 -0.2818221 0.1259468 119 119 119
0.0363259295155502 -0.187714916847324 0.0216144693809163 0.004933864 -0.01286485 0.999905 101 101 101
-0.0175133358024541 -0.168324485972395 -0.0213019388062077 -0.9473202 -0.3142446 -0.06192623 105 105 105
-0.0170451582693218 0.0617877276445115 0.0248804931613285 0.007050693 -0.01306735 0.9998897 129 129 129
-0.107561248535273 0.112802848905264 -0.0188128957489128 -0.9338449 0.3573154 -0.01610801 21 21 21
0.0805933171698816 -0.201719515447631 -0.00168169561250489 0.9999321 -0.01081653 -0.00433425 128 128 128
-0.0975548576306698 0.0279764608244778 -0.003654033126755 -0.9157273 -0.4012843 -0.02036038 78 78 78
0.0806492571316502 -0.179294128137772 -0.0134422672053912 0.9999725 -0.004888162 -0.005568955 141 141 141
0.080776180816565 -0.175588046565574 0.014465535732169 0.9999936 0.001065095 -0.003434856 166 166 166
0.0346432752431781 0.170706400442054 0.00496541560960992 0.1578116 0.9724686 0.171465 52 52 52
0.0646588158744953 -0.177814140942837 0.0214557307372111 0.0112469 -0.01073328 0.9998791 154 154 154
-0.018559825795382 -0.0623635419105908 0.0235777863838007 0.005052806 -0.02407176 0.9996974 217 217 217
0.00670234949837112 0.17338091609166 0.0255840854632247 0.1726829 0.4886515 0.8552195 57 57 57
0.0694919628777544 -0.111714291113051 0.021946666151428 0.01136055 -0.01551432 0.9998151 185 185 185
0.0811274084762017 -0.0557604608960383 0.000111495727909555 0.9999464 -0.01034996 -7.98415E-05 80 80 80
-0.0513207484178684 0.190711583322308 0.0127561016876369 0.1817109 0.9297447 0.3202435 89 89 89
0.0747132681904876 0.162663289416952 -0.00359679866609122 0.2198259 0.9735336 0.06252064 27 27 27
0.0409097217797083 -0.182969098832303 0.0217694941114557 0.01380311 -0.009036616 0.9998639 71 71 71
-0.0140273480275686 -0.176493710866686 -0.0100997958157738 -0.9151286 -0.4000444 -0.05004147 105 105 105
0.0512681034084606 0.0178166547710198 0.0233997204464907 0.01800374 -0.01007778 0.9997872 132 132 132
-0.0799215901832608 0.124989648188129 0.0261967314216673 -0.001342005 -0.009172094 0.999957 146 146 146
0.0806388858079626 -0.201795173969541 0.00804435648844004 0.9998617 0.01634277 -0.003082511 133 133 133
0.0203584098516499 -0.0579475549199431 0.0232931060729673 0.01555638 -0.01718438 0.9997313 140 140 140
-0.0214831323012078 0.182941147020012 0.0216768547565961 0.1917253 0.9658629 0.1742131 42 42 42
0.0187590394569436 -0.227346471649563 -0.0051585648677254 -0.03057129 -0.9184123 -0.3944416 75 75 75
0.0815515597500105 -0.0473498126887799 0.0145700356801701 0.9995746 -0.02537223 0.01438098 113 113 113
0.0560899089902737 0.171798268419324 -0.0188696736701583 0.2063742 0.9044973 0.3732215 71 71 71
0.0526601263213681 0.172598567399359 -0.0188556772395609 0.1763918 0.9181564 0.3547882 78 78 78
0.0309622898061377 -0.149989117354712 0.0221181137379133 0.01558732 -0.0005338691 0.9998783 150 150 150
-0.0712333834657916 0.157288244903243 0.0263971863910913 0.0005111938 -0.02303042 0.9997346 76 76 76
0.081336566131889 0.0184952086228695 -0.0110206335084682 0.9999778 -0.006642651 -0.0005813511 82 82 82
0.0804289005630653 -0.0886092854355326 0.0209081063036115 0.7540675 -0.004504072 0.6567815 148 148 148
0.0816241591644699 0.114328476524815 0.000664890626454556 0.9999273 -0.01205508 0.0001607046 93 93 93
-0.0686142342744626 0.0491589942324545 0.0252681095098065 0.02040717 -0.001272472 0.999791 142 142 142
0.0185317661966915 -0.187175206709972 0.0216783666314065 0.004725138 -0.02315906 0.9997206 97 97 97
0.0813530986897213 0.0181792153099029 -0.0193325962740716 0.9999611 -0.007654989 0.004375 51 51 51
-0.0747170269962402 -0.0146628745949828 0.0246541029809984 -0.3848791 -0.1976655 0.9015523 117 117 117
-0.0106948136951378 -0.156289476231283 0.0225477780295097 0.01484152 -0.006640199 0.9998678 147 147 147
0.020524532570507 -0.23113573256413 0.014823672073542 -0.13494 -0.9908537 -0.0004540469 151 151 151
-0.047396497275502 0.103791593132125 0.0257646397090657 0.01401188 -0.004839245 0.9998901 103 103 103
-0.099687794303131 0.0319781599203551 -0.00203330250659373 -0.8838786 -0.4676904 -0.004915032 87 87 87
-0.0672450470437255 0.0717532700537277 0.0255349692298135 0.0206379 -0.00572191 0.9997706 140 140 140
-0.0907222599267614 0.0162107122218741 -0.00225059017523502 -0.9099809 -0.4135022 0.03083333 87 87 87
0.0822957449974581 0.143937497701825 0.012752344912189 0.9999664 -0.006790076 -0.004594054 150 150 150
0.0119451140814206 -0.128760566132942 0.0225871417943249 0.01856468 -0.002335315 0.9998249 154 154 154
0.0206197210154584 0.178929995257049 -0.01441324486298 0.2160754 0.9176993 0.3333759 73 73 73
-0.0728299997977382 0.173521303333959 0.0268575649722127 0.005806692 -0.002379802 0.9999803 127 127 127
-0.0236117016902728 0.1871938007424 0.00331560555692037 0.09069032 0.9653578 0.2446623 62 62 62
-0.0826540748267218 0.067432317044361 0.025841374729121 0.003728754 -0.00389632 0.9999855 166 166 166
-0.00353758649042379 -0.212215150124819 -0.0130084916413621 -0.9215915 -0.3738377 -0.1044729 126 126 126
0.0806189359186114 -0.212014494010182 0.00230421163008182 0.9999911 -0.001858573 -0.003776498 113 113 113
0.0806489556760114 -0.174032418194635 -0.00928440614312562 0.999991 0.003971452 -0.001490459 153 153 153
-0.049213134279844 -0.0344024716948849 0.0243138747842935 0.01596213 -0.003898565 0.999865 118 118 118
0.0818578308623337 0.0682634091929443 -0.000827061265383067 0.9998997 0.01058623 0.009411218 111 111 111
0.0765182865024664 -0.212846070688259 -0.0158254409691333 0.2294058 -0.7516562 -0.6183736 27 27 27
0.0150715585042278 0.109712524962653 0.0248248651189449 0.003637027 -0.0106208 0.999937 139 139 139
0.0811339261285461 -0.0557117547599395 -0.00849643815995946 0.9998675 -0.01626369 -0.0006686861 81 81 81
-0.0591873803743388 0.161676274219722 0.026426338110395 0.009833719 -0.01009932 0.9999006 47 47 47
-0.0375392754357833 0.115865659228337 0.0256428632967019 0.02104186 -0.0141596 0.9996783 135 135 135
0.0784933133585406 0.16339934713092 -0.0101657321330224 0.295443 0.885011 0.3598179 88 88 88
-0.0293727440892719 0.185315145618127 0.0177585706215551 0.1939276 0.9756404 0.1025567 43 43 43
0.0817113654360463 0.0797961546268887 -0.0146256682816967 0.9997963 -0.01792207 -0.009278639 61 61 61
0.0390170842362924 -0.132550134602426 0.0221301427142524 0.01818431 -0.000338544 0.9998346 181 181 181
0.0104682863813442 -0.0365111585715392 0.0235373932052846 0.01882036 -0.01832716 0.9996549 127 127 127
0.0806845925971245 -0.171788456801289 -0.0172649299477837 0.9999805 0.003400657 -0.005241604 156 156 156
0.081234074344514 -0.0517444247851065 -0.0175323634601821 0.9999128 0.0131472 -0.001260622 57 57 57
0.0221635166178686 -0.203954527002911 0.021756203673114 0.0008430971 -0.007054827 0.9999748 129 129 129
0.00859755628803394 0.179541953477249 -0.00486458679566146 0.1664466 0.9507246 0.2615689 64 64 64
-0.0675374541594108 0.188526629907816 0.0271490343171153 0.0910937 0.298812 0.9499544 116 116 116
-0.0950067977218846 0.12975554630031 0.0266419249491144 0.008229882 -0.01693138 0.9998228 102 102 102
-0.0155920770881781 -0.137901265444665 0.0229045811701124 0.01601156 -0.001929503 0.9998699 130 130 130
0.0590060359853135 0.117496843836923 0.0244715161912903 0.02180994 -0.0008051989 0.9997618 134 134 134
-0.0991506806402311 0.0322104679351835 -0.0061476542344942 -0.8950645 -0.4418168 -0.06047698 54 54 54
0.0820558556269854 0.144227313055943 -0.00746372346501353 0.9999538 -0.009019369 -0.003323314 99 99 99
0.0808789199614026 -0.187616916323455 -0.00752009152055688 0.9999242 -0.009874281 -0.007351215 140 140 140
-0.0914008478503128 0.0138954206079537 0.0201728514589813 -0.9247477 -0.377461 0.04862961 34 34 34
0.0510779412559508 0.168858960822109 -0.00483318736461263 0.2113703 0.9719757 0.1028877 62 62 62
0.0810104301425683 -0.111159316647723 -0.00271996952903097 0.9999573 -0.002136316 -0.008991939 91 91 91
0.0452216385820275 -0.187860694818525 0.0213787985937857 0.01310033 0.001122814 0.9999136 109 109 109
0.0297220869706794 -0.225908726261503 -0.00973000781864161 -0.1111855 -0.9359974 -0.3339859 69 69 69
0.0749672751116589 -0.213224439583388 -0.0156813508258544 0.1325665 -0.7338386 -0.6662635 42 42 42
0.00141941916347499 -0.153866036221733 0.0224148376669131 0.006371633 -0.01483966 0.9998696 168 168 168
0.0311499277670559 -0.201835806748951 0.021565936103478 0.01822554 -0.02376006 0.9995515 157 157 157
0.0813253230904946 0.0345741740211459 -0.0150740589208313 0.9999541 0.005483503 0.007856773 71 71 71
0.0813543613992178 -0.0260335587805696 -0.00198819190828786 0.9997554 -0.01863835 -0.01190738 68 68 68
0.0143020447736171 -0.172503826915497 0.0219754754524254 0.0007830478 -0.01670949 0.9998601 131 131 131
-0.0531628452715658 0.192386576057736 0.00975295271397106 0.2327805 0.9223726 0.308289 72 72 72
-0.0732999204657647 0.19493908870252 0.0141470230896562 0.03245863 0.9916608 0.1247212 41 41 41
-0.0655016659812304 0.115403064751307 0.0260425058272638 0.01119639 -0.01104209 0.9998763 74 74 74
0.0326908812919013 0.170534857960309 0.00712069339853655 0.268378 0.9531274 0.1397189 55 55 55
0.0815840929321129 0.0339130964820143 0.00709696171183932 0.9999384 -0.01081651 0.00248886 71 71 71
0.0819611381506239 0.120524547424877 -0.01174362790172 0.9999233 -0.005724179 -0.01097983 103 103 103
-0.111834829011758 0.0574696050321947 0.0142179690645474 -0.8170432 -0.5678023 -0.1002048 22 22 22
-0.00956386875125459 -0.189587314156039 0.00702949129845643 -0.91413 -0.405018 -0.01807695 85 85 85
-0.0117726484230272 -0.135508940273137 0.0227223228891558 0.01224053 0.0009909858 0.9999246 159 159 159
0.0431073296323446 -0.105897453843722 0.0224737649784765 0.01394485 -0.01339323 0.9998131 167 167 167
-0.00928366002602343 -0.122160805413515 0.0227459167648693 0.01433909 -0.01207205 0.9998243 144 144 144
-0.00477368819605717 -0.12464689096638 0.0229060841177015 0.02057369 -0.006353169 0.9997681 153 153 153
-0.0123591027690867 -0.128256237970811 0.0227358657865774 0.01184687 -0.01339165 0.9998401 115 115 115
0.0205445452722526 0.113094339052579 0.0249324181109405 0.02657545 -0.004782264 0.9996354 148 148 148
-0.050065886496747 -0.0177664092238531 0.0240080606330378 0.004777205 -0.009266596 0.9999456 183 183 183
-0.0671273017552816 0.0942283528739837 0.0257435123918121 0.01979872 0.00155723 0.9998028 146 146 146
0.00701072410354087 0.175573711308708 0.0212704372213352 0.3211687 0.9189789 0.2287543 66 66 66
0.0169652394430931 0.0514741353835021 0.0243585705453241 0.002571612 -0.01552116 0.9998763 128 128 128
-0.0623581678746177 0.0995919771721335 0.0259994961720336 -0.002615098 -0.01553453 0.9998759 143 143 143
0.0124690857949685 -0.168060657701144 0.022260018111222 0.01183768 -0.01184314 0.9998598 158 158 158
0.0495181908022646 -0.20448298497316 0.0212702961615993 0.007776421 -6.72109E-05 0.9999698 101 101 101
-0.0368012628263888 -0.106403359189216 -0.00970697214948849 -0.9698747 -0.2425966 -0.0221366 83 83 83
-0.0879636456942207 0.178202461834499 0.00348900280462325 -0.9053755 0.4190326 0.06860741 67 67 67
-0.00766042904146635 -0.197884222012181 -0.0105627248229659 -0.9680339 -0.2284935 0.1034464 79 79 79
0.0546437092911467 -0.227126310327284 0.0118455653528279 0.1681592 -0.9848914 -0.04136884 90 90 90
-0.00287425017855647 0.0843711057817459 0.0248921387654758 0.002065227 -0.006042043 0.9999796 144 144 144
-0.0993918813321203 0.0325833685348987 -0.00938249479382217 -0.9043897 -0.4230448 -0.05578804 41 41 41
0.0107342297607007 -0.0562340053821707 0.0233707383634192 0.008869102 -0.009953649 0.9999111 125 125 125
0.0730202903575726 -0.222347917622188 0.00985763501899911 0.1762152 -0.9598875 -0.2180922 57 57 57
-0.0880904668630987 0.0169882377565175 0.0252713722418994 -0.1632352 -0.008484057 0.9865507 101 101 101
0.0594605170367578 -0.127680381093092 0.0219888145777109 0.01786522 -0.01374544 0.9997459 177 177 177
-0.0372996582284141 0.123814553530373 0.0257179842138042 0.001449827 0.009223241 0.9999564 129 129 129
0.0129642732945655 -0.222412482158884 -0.0191991535740108 0.0008389074 -0.9841799 -0.1771702 67 67 67
-0.0032483896296942 -0.204155359270929 -0.0244529816934274 -0.8524562 -0.3768049 -0.3624038 47 47 47
0.0352616352549736 -0.124297391413074 0.0221537222389842 0.01022811 -0.009139951 0.9999059 159 159 159
-0.029537326929159 -0.13701356129136 0.0198437963714328 -0.8970602 -0.3708845 0.2402658 79 79 79
0.072517300112327 -0.223305020893363 0.0125627028728367 0.07406159 -0.9918174 -0.1039863 58 58 58
-0.0490356820412843 -0.0260456050294887 0.0243885093326322 0.01933031 -0.01658684 0.9996756 157 157 157
0.0809075011099862 -0.132047952543368 0.00925039878593709 0.9999427 -0.0006347626 -0.01069177 129 129 129
0.0249209815633233 -0.229096411030991 0.02147361994887 -0.08188413 -0.3689657 0.925829 210 210 210
0.0134069748700968 -0.20537707209528 0.0217628458706044 0.007109575 -0.01721224 0.9998266 117 117 117
0.0820825731068046 0.126092681905536 0.000415604651267582 0.9998062 -0.008611431 -0.01770221 115 115 115
-0.0245907834993343 -0.141895996762068 0.0228727282957898 -0.293082 -0.1352002 0.9464797 133 133 133
-0.0428076112265022 0.00221213688825694 0.0245006183438583 0.006611762 -0.01261528 0.9998986 169 169 169
0.0429792440672452 0.105093427309901 0.0247364997737999 0.01701481 -0.0138596 0.9997592 141 141 141
-0.00347616602013157 -0.204532869477865 0.0194234522364034 -0.8309126 -0.5254825 0.1828999 90 90 90
-0.0664857353558793 0.126233339135826 0.0260245247552087 -0.005348091 -0.01831257 0.999818 102 102 102
0.0689170228252199 -0.107293496803611 0.0221033441418333 0.01203537 -0.008955624 0.9998875 172 172 172
-0.0166603326377252 -0.172600786100979 0.00625021770713699 -0.9421403 -0.3152411 -0.1139947 57 57 57
-0.0250016499152919 -0.148452710912032 -0.0116825449706605 -0.959205 -0.2810973 -0.03016807 64 64 64
0.00266733935150343 -0.0928690469964807 0.0230365515366387 0.01690309 -0.009584749 0.9998112 169 169 169
0.011262928008858 -0.216486039299852 0.0216909725221177 0.01041603 -0.002374158 0.999943 101 101 101
-0.0814803736411057 0.0824117094342208 0.0257453481045146 0.01259199 -0.0173021 0.999771 70 70 70
-0.0234002998931329 0.17400915166342 0.0259983118193054 0.01227139 0.0007568828 0.9999244 124 124 124
0.0723827027749778 0.148065692656853 0.0244813392351394 0.01869094 -0.007643915 0.9997961 91 91 91
0.0804745434585715 -0.160196540840858 0.02041936311363 0.7185525 0.07007845 0.6919331 115 115 115
0.0807594300537426 -0.181921419193311 -0.00925320075891867 0.9999937 -0.001030458 -0.003399212 144 144 144
-0.000240903977180573 -0.209927909193627 0.0187041728181788 -0.8171337 -0.5552676 0.1548241 96 96 96
