ply
format ascii 1.0
comment File exported by Rhinoceros Version 7.0
element vertex 469
property float x
property float y
property float z
property float nx
property float ny
property float nz
property uchar red
property uchar green
property uchar blue
end_header
-0.0116679598964955 0.0122969270260387 -0.0225978590513919 0.02527347 -0.1194284 -0.9925211 240 240 240
0.042992941353696 0.0327405174843425 -0.0240973232273171 0.05093654 -0.1125937 -0.9923347 153 153 153
-0.00290338644344845 -0.110897398749288 -0.0129363815699688 0.04416915 -0.09382442 -0.9946085 50 50 50
0.0525209451722817 0.0545737739409102 -0.00134074629586001 0.3968884 0.7674744 -0.5034507 53 53 53
0.0846655019073492 0.00831979297243635 -0.0199229969275029 0.2130897 -0.1529898 -0.9649802 98 98 98
-0.0498457136396293 0.0753789528465991 0.0234578395312901 0.01467677 0.9942303 -0.1062573 69 69 69
0.0546372074906878 0.0501304326721734 -0.0126841218480011 0.4354817 0.8769237 -0.2033727 76 76 76
-0.0443500689689467 0.00972071617587655 -0.0237827897105956 0.02915111 -0.06553859 -0.9974241 71 71 71
-0.0144596967682771 -0.0917524878560774 -0.0160161448867517 0.05780585 -0.1389388 -0.9886124 99 99 99
0.032634209600489 -0.0297092117952502 -0.01809258223852 0.03336987 -0.07355609 -0.9967327 241 241 241
-0.0468652739667068 -0.0853659510033693 -0.00787558395398408 -0.9284296 -0.2832707 -0.2403668 96 96 96
-0.0337405608633916 -0.0086281492947502 -0.0209863206128565 0.07690046 -0.04422196 -0.9960576 52 52 52
-0.0456258783841466 0.0740286171845101 -0.00732366516480781 0.07255127 0.991092 -0.1116822 46 46 46
-0.0107052591326311 -0.053751032663061 -0.0193746104820644 0.04541279 0.1135961 -0.9924886 14 14 14
-0.0518864524517915 0.0133188957529007 -0.0244269802937226 0.04308959 -0.05867847 -0.9973465 52 52 52
-0.0476837853682865 0.0179631355150671 -0.0242051703080719 0.0100221 -0.1201328 -0.9927073 89 89 89
-0.0323914282624156 0.0568934781396044 -0.0280656320677745 0.0359421 -0.1208642 -0.9920182 77 77 77
-0.0663683659635792 -0.0294776030661847 -0.0150519885448757 -0.775165 -0.1244452 -0.6193808 105 105 105
-0.0171148124188816 -0.0856233274738687 -0.0168382159432975 0.05177138 -0.1407654 -0.9886884 67 67 67
-0.0543814550173396 -0.0729535402624506 -0.0030442503030417 -0.851838 -0.5031146 -0.1457659 99 99 99
0.00144123307124144 0.0705448541176397 0.00456359281716087 0.306918 0.8902463 -0.3365455 43 43 43
-0.0551857027509413 -0.0619076617799554 -0.0163184351093423 -0.2777312 -0.1220247 -0.9528774 110 110 110
0.0289032430922354 0.0638897270186845 -0.00441894388361547 -0.1399806 0.9575163 -0.2521269 52 52 52
0.0439660754190074 0.0238984389190775 -0.0230452765837905 0.04516657 -0.102369 -0.9937206 143 143 143
0.00676125943959049 0.0208899870637924 -0.0232810360463902 0.0002065993 -0.1639565 -0.9864675 161 161 161
-0.00660613502935337 0.0161637525530836 -0.0230156590940755 0.06004445 -0.1058548 -0.9925671 164 164 164
0.0156237335576515 -0.0888280168902449 -0.0129385114929797 0.1072971 -0.09151326 -0.9900064 155 155 155
-0.0440029419768646 -0.0924328259791829 -0.00829265875944338 -0.9122011 -0.3320419 -0.2400778 36 36 36
0.0782354364285072 0.051488666684032 -0.000682059598880458 0.1905418 0.9681455 -0.1624441 77 77 77
0.0112976624780874 0.049897576780509 -0.0269819159082658 0.02632213 -0.08029299 -0.9964237 48 48 48
0.0365869725333781 0.0404692666040858 -0.025169436487071 0.04920101 -0.1049526 -0.9932594 228 228 228
0.01384737558856 -0.04471300450077 -0.0183569612728779 0.02132208 -0.1255316 -0.9918604 222 222 222
-0.0017072892043215 -0.0862760036370691 -0.0147004924997942 0.1517428 -0.1458488 -0.9776003 68 68 68
-0.0643559578960056 0.040772900913578 0.0236369875680836 -0.994162 0.04004145 0.1001932 35 35 35
0.0478590667642762 -0.0325276346207115 -0.0175016570436966 -0.006375615 -0.1181044 -0.9929807 138 138 138
-0.0221096618941061 -0.0823209283057025 -0.0173063884384858 0.04086238 -0.1427102 -0.9889206 54 54 54
0.0227995793548934 -0.0336055010254512 -0.0183462856770609 0.05128109 -0.08404104 -0.9951419 103 103 103
0.0348131612653602 -0.0501505423614619 -0.0167933011238605 0.03319696 -0.1120411 -0.9931489 76 76 76
0.0235716584562149 0.034941955637932 -0.0252613037003524 0.04037966 -0.1272189 -0.9910524 84 84 84
-0.0206666482317015 0.0724218173327449 0.0278153725806398 0.276538 0.9600358 -0.04310498 74 74 74
-0.0331034979619862 0.0667890699932476 -0.0299093893098488 -0.01183681 0.1867636 -0.9823335 92 92 92
0.00813413700242216 0.00294749466514643 -0.0212326007124921 -0.009807292 -0.07044269 -0.9974676 101 101 101
-0.0607577275896112 0.0239647458132923 -0.00501074217367109 -0.9946893 -0.07959699 -0.06524865 63 63 63
-0.0438564192516733 -0.0432986226495817 -0.0178630233821382 -0.09145322 -0.1645164 -0.9821256 41 41 41
0.00577853637174974 0.0688414925233265 0.0056254266152263 0.1955706 0.9019377 -0.3850462 49 49 49
0.0661369933699498 -0.00670306228724726 -0.0186800139794073 0.05494409 -0.08134112 -0.9951707 80 80 80
0.0166267284300652 0.0690950274488038 0.00813806416933224 0.03977066 0.9193504 -0.3914245 38 38 38
-0.0476086229317028 -0.00412703715820317 -0.0234374912693684 -0.2080125 -0.02516222 -0.9778025 75 75 75
0.0496358534058068 -0.00345714077544512 -0.0201355583999217 0.09487011 0.0065001 -0.9954684 83 83 83
0.0585519525152254 0.0499880705547326 -0.0111664334206203 0.3333999 0.9217705 -0.1979484 52 52 52
-0.0128635870907332 -0.0413467747339 -0.0187156780721446 0.02450665 -0.06964853 -0.9972705 233 233 233
-0.0406505420566312 -0.113295351424313 -0.00637734293434564 -0.8302094 -0.5571922 0.01700847 31 31 31
-0.0213499943461395 -0.0728700584502564 -0.0193454765176543 -0.04403737 -0.04700111 -0.9979237 243 243 243
-0.0473740614634606 -0.0618556588280297 -0.0167349562362226 -0.0621227 0.06171843 -0.9961584 112 112 112
-0.0177454552156007 0.0236581999015912 -0.0239275063137455 0.01291505 -0.0817584 -0.9965685 107 107 107
-0.0279050445214983 0.0754857726845353 0.0241283350690294 0.2400468 0.9674659 -0.0799202 36 36 36
-0.0113291396162405 -0.102665067056076 -0.0143893668057755 0.07348083 -0.09156645 -0.9930841 23 23 23
0.034265706629381 0.0324171294454354 -0.0247044034044337 0.03534413 -0.1386936 -0.9897044 17 17 17
-0.00016787097966886 -0.0646610037920139 -0.017253013038928 0.1286485 -0.09129708 -0.9874788 88 88 88
-0.0397291936447552 -0.0441208043461105 -0.0183137121769735 -0.108369 -0.1573315 -0.9815819 43 43 43
0.0260500992952957 0.0241000044726354 -0.0234408020842154 -0.01132307 -0.1047562 -0.9944335 113 113 113
-0.0555743383297129 0.0720783462570054 -0.0265967659891455 0.190493 0.924504 -0.3301587 38 38 38
-0.0398044360492646 -0.0961105475736634 -0.0156550396471931 -0.2153717 -0.2089072 -0.953925 130 130 130
-0.0116769804056474 0.0134687405898501 -0.0227343701398993 0.01859935 -0.1354508 -0.9906095 231 231 231
0.0957654658506322 0.0236586105217951 -0.00190619021408819 0.9996708 -0.01542048 -0.02050463 81 81 81
0.0395576820120702 -0.0368763047314156 -0.0172013667944451 0.06163905 -0.09129395 -0.9939145 102 102 102
-0.0260954910806404 0.0736393411658991 -0.00147772928363624 -0.03171348 0.9975174 -0.06287479 31 31 31
0.0863729945779912 0.0314324774588808 -0.0190508119017551 0.3045798 0.1678686 -0.9375774 69 69 69
0.0376296398188143 -0.0113633618914701 -0.0201685080945911 0.02369067 -0.09181241 -0.9954945 165 165 165
0.0196828194643197 0.0595932938137929 -0.0263451167052119 -0.0153181 0.7381642 -0.6744471 175 175 175
0.0521563525183073 -0.0524937449615281 -0.0156943146856768 0.1969578 -0.149726 -0.9689116 72 72 72
-0.0604510795932236 0.0229685717391805 -0.00759349454366354 -0.9972677 -0.07342409 0.008131423 25 25 25
-0.060183754693133 0.0101362280774173 -0.0239550469925507 -0.5369099 -0.08849514 -0.8389853 139 139 139
-0.0362824336136149 -0.0395727776246726 -0.0191513337702918 -0.04456118 -0.02969353 -0.9985653 27 27 27
0.0369272079743486 0.0629936171806136 0.0241146063626268 0.3471898 0.8582793 0.3779098 91 91 91
0.0812035456258395 0.0194905580645164 -0.0203962302809995 0.114017 0.04438946 -0.9924866 144 144 144
0.0171225957812571 -0.00276757764214142 -0.0209249810450575 0.01910841 -0.06563281 -0.9976609 85 85 85
-0.0214378535222277 -0.0324964848446521 -0.019030128902506 0.01296665 -0.04181718 -0.9990411 56 56 56
-0.0619379254147736 0.0755434990646171 -0.00439864904342202 -0.3039372 0.9526308 -0.01080988 83 83 83
-0.0137820780584272 0.0219576958903802 -0.0241846675263905 0.04555811 -0.08330391 -0.9954823 82 82 82
0.0253067502206432 -0.0710283559707843 -0.0137601002727039 0.04868665 -0.1269788 -0.9907098 141 141 141
-0.0413254041781894 -0.0229664451721565 -0.0215098170369178 0.0796264 -0.2819084 -0.9561314 56 56 56
0.0721167326428804 -0.0242016246452024 -0.0153552647413793 0.5035889 -0.4261295 -0.7515397 69 69 69
0.0221789608215661 -0.080036590819365 -0.0131465293688575 0.08870286 -0.1152573 -0.9893672 89 89 89
-0.00853303245196235 -0.010858723535111 -0.0204992947160387 0.01251104 -0.03214494 -0.9994049 111 111 111
0.0209368502595124 -0.00122618512310235 -0.0209155756653406 0.04119468 -0.0553959 -0.9976143 104 104 104
-0.0200420992604065 0.064589680381536 -0.0294778627207587 0.3523294 0.2044425 -0.9132729 66 66 66
-0.0258924097347437 0.0744514468943263 0.026795667106084 0.2742529 0.9611837 -0.03018744 78 78 78
-0.02102223403373 -0.0812012856572357 -0.0176724285137214 0.03058364 -0.1807846 -0.9830471 55 55 55
-0.0107162782352399 -0.0216345578464778 -0.0199968129567435 -0.03060843 -0.07054539 -0.9970388 58 58 58
-0.00826202098426143 0.0718056048237008 0.0189110549217496 -0.06897797 0.9734402 0.2183031 65 65 65
-0.0132806301796049 0.0541335113212131 -0.027862452761463 0.0143632 -0.09491566 -0.9953817 89 89 89
-0.0635305278904088 0.0459881219711145 0.00308246195474751 -0.9713126 -0.1303561 -0.1988946 36 36 36
0.0387839636306371 -0.0244307245752444 -0.0189905816218942 0.006767859 -0.1093064 -0.9939851 149 149 149
0.0326504731645747 -0.0366909390644858 -0.0181465667978902 0.07277125 -0.07904536 -0.9942113 229 229 229
0.0201432532990362 0.0301020848324918 -0.0244369858521154 0.02326925 -0.1494469 -0.9884959 84 84 84
0.00579308870051021 0.0621902968346357 -0.0212311190729394 0.1997923 0.957607 -0.2075378 9 9 9
-0.019831658614202 -0.0711753127292669 -0.019415661253746 0.01782399 -0.01851571 -0.9996697 36 36 36
-0.0118957366191421 -0.0587257392778384 -0.0194009262172601 -0.02273165 -0.03850134 -0.999 23 23 23
0.000629175162268458 0.0685325435399908 -0.00252741097148582 0.3440968 0.9240421 -0.1665641 49 49 49
-0.0188842378155754 -0.0604557585706347 -0.0176610657258339 -0.1036497 0.05149026 -0.9932802 82 82 82
-0.0527841945056997 0.0685868836621808 -0.0307985310280664 0.1116411 0.2182242 -0.9694919 126 126 126
0.0211665423350211 -0.0206934353667052 -0.0195724282758828 0.01732555 -0.0578233 -0.9981765 99 99 99
0.059100147653788 0.0587183425389279 0.00787296691747644 0.5117317 0.8548881 -0.08542252 26 26 26
0.0105944544467598 -0.0402214108902486 -0.0191584594202621 0.003547578 -0.1185251 -0.9929447 221 221 221
-0.0646792795218063 0.035838723318713 0.00911722732673148 -0.9400075 0.03273417 -0.3395796 48 48 48
-0.0210875482188488 0.0727018891066975 0.0305287522886761 0.2506109 0.9680814 0.003563864 120 120 120
-0.00434112502745898 -0.0364879510158689 -0.0191775411023699 0.01328156 -0.1139022 -0.9934032 68 68 68
-0.0100430545561345 0.0601265524038024 -0.0284902875641488 0.09777006 0.3537295 -0.9302239 63 63 63
-0.00680490697549674 -0.0589375494237327 -0.0185167817556089 0.1478361 -0.05691197 -0.9873731 25 25 25
-0.0593408699928009 -0.0599791275364205 -0.01433635463223 -0.7905945 -0.329101 -0.5163844 129 129 129
-0.0180724193027868 -0.0591972716198546 -0.0176319412548832 -0.09852085 -0.0236571 -0.9948537 95 95 95
0.0560872479401593 0.0454040079959896 -0.0249666442562867 0.1180279 0.4469948 -0.8867159 97 97 97
0.0428157571762848 0.0514486962210068 -0.0259285376419802 0.3887584 0.1522416 -0.9086745 202 202 202
-0.00647672858743453 -0.0975790519138569 -0.0149447909326872 0.07075298 -0.1085711 -0.9915676 103 103 103
0.0949214021342919 0.0362276232572449 0.0023019506313452 0.9962316 -0.03772363 -0.07809933 33 33 33
0.0655036430830078 -0.0525538407658737 -0.00899039869444301 0.5132831 -0.3901385 -0.7644164 155 155 155
0.0628941947325101 -0.0258250741572821 -0.0178634963475454 0.114941 -0.1483363 -0.9822347 76 76 76
0.0560488008948286 0.0604896113932278 0.0226787724899724 0.1852935 0.9812881 -0.05234402 71 71 71
0.092303252226732 0.0427948736278607 0.0115315550724801 0.6698557 0.6379574 0.3798732 45 45 45
-0.0179972200382239 -0.0683908749855915 -0.0194268851165002 0.03491217 0.01865607 -0.9992163 23 23 23
-0.0540195111863535 -0.0163457662095132 -0.0208335621038656 -0.01386821 -0.09161387 -0.995698 113 113 113
0.077068747911248 0.0112573174429382 -0.0198853705712783 0.06864174 -0.04273316 -0.9967257 46 46 46
-0.0107090626338888 -0.00766955210009268 -0.020743570727383 0.04121162 -0.06301447 -0.9971614 71 71 71
-0.0343853194505861 0.0716431210735924 -0.0173080219365865 -0.08397731 0.9824622 -0.1664805 73 73 73
0.0139673535363971 -0.0113222627771885 -0.0200887831205369 0.009527796 -0.07374886 -0.9972313 72 72 72
0.0170000784629694 0.0344000787161314 -0.024976463791642 -0.008458055 -0.1345546 -0.9908701 115 115 115
0.060465124965053 0.000583970096533992 -0.0196741136707587 -0.01865982 -0.1229412 -0.9922385 104 104 104
0.00137955147468749 -0.0984119675013244 -0.0136169596719222 0.16091 -0.04704892 -0.9858471 78 78 78
0.0581668623589138 0.0517654600239139 -0.00119955210592668 0.3540778 0.7765157 -0.5212027 67 67 67
0.0949065533812812 0.0415126327303927 0.00130630836110129 0.9958309 0.02962423 -0.08627392 67 67 67
-0.0599269460065754 0.0741716179189431 -0.0262868700023042 0.08629142 0.9543257 -0.2860354 57 57 57
-0.0200951614879339 0.0735975340823141 -0.00250630079150271 0.09930097 0.9821435 -0.1597923 21 21 21
-0.0419628693324248 -0.111479742704341 -0.00338854450232093 -0.8927832 -0.4433643 0.07978874 29 29 29
0.0671079350285819 -0.0412741222178195 -0.0128508346514838 0.5946661 -0.1942493 -0.7801535 127 127 127
-0.0251689256746848 0.058903341316686 -0.028300451797867 0.02773806 -0.1480845 -0.9885857 102 102 102
-0.0646085579310991 0.0240996776183866 0.0186071597345326 -0.9990385 -0.03564024 0.02552985 19 19 19
-0.0422397653519266 -0.0714209988803178 -0.0184853910380365 -0.09231512 0.1336745 -0.9867163 187 187 187
-0.00345076955455426 -0.0674144026702146 -0.0177324864113756 0.1535311 -0.0866816 -0.9843345 22 22 22
-0.0574572444039774 0.0755794208489422 -0.00285049213413333 0.1488735 0.9871194 -0.05858365 29 29 29
-0.0578273783137344 0.055303267399446 -0.0292477669157514 -0.00873803 -0.1663705 -0.9860246 138 138 138
-0.00352638122600335 -0.00229113933011016 -0.0208584080892392 0.02260525 -0.07063371 -0.9972461 233 233 233
-0.0411456813055679 -0.0988390823620073 -0.0150976001441167 -0.3795261 -0.147311 -0.913378 140 140 140
0.0581615348744848 0.0070174662801743 -0.0206250075716492 -0.04351315 -0.116675 -0.9922165 89 89 89
-0.0248918429611298 -0.0925731648877195 -0.0161152286254997 0.02477993 -0.1529346 -0.9879256 113 113 113
0.02791343896909 -0.0824113660153276 -0.0125416504942349 0.01407675 -0.1374947 -0.9904025 57 57 57
0.0608692179385477 0.0262128906604533 -0.0230149515091711 0.004260457 -0.07266986 -0.9973469 115 115 115
0.0485213076167859 0.00579444528352635 -0.0209266167138037 0.06129561 -0.1027581 -0.992816 125 125 125
0.0259394323906277 0.0562314506802195 -0.0271979696073567 -0.03481333 0.2075503 -0.9776047 80 80 80
0.0357317638321666 0.0610104721129896 -0.0119461178631512 0.3049654 0.9269099 -0.2187103 35 35 35
0.0681106442104482 0.0586574104096189 0.016537936272444 0.1981694 0.9505888 -0.2389767 61 61 61
0.0911525422686468 0.0444361277478738 -0.00886280182171797 0.1477364 0.7628899 -0.6294228 49 49 49
-0.0327888847737696 0.0502446062365371 -0.0277343475848855 0.02613637 -0.1535489 -0.9877954 180 180 180
0.0967233679974353 0.0277604877307109 0.0059176768512082 0.9804655 0.1217139 -0.1545089 81 81 81
0.0254952180367214 -0.00308880112648424 -0.0204285747432859 0.04153292 -0.05265474 -0.9977487 97 97 97
-0.0108555844453586 -0.0326846413381188 -0.0191046942446806 -0.06697685 -0.01316722 -0.9976677 82 82 82
0.0288019718085111 -0.0406268240624452 -0.0181831627603119 0.03950563 -0.08484407 -0.9956108 238 238 238
-0.0244187087213823 -0.0882849918636195 -0.0166611661660835 0.0622722 -0.1468609 -0.987195 46 46 46
0.0942520521504047 -0.00922256289072942 -0.00438277756112268 0.94449 -0.1245849 -0.3040023 72 72 72
-0.0610309109474965 0.0282011818282846 -0.00375412637944697 -0.999823 0.002828171 0.01860125 42 42 42
-0.0674222223480725 0.00197834676337205 0.0142580944586041 -0.9942537 -0.09584283 0.04768391 39 39 39
0.00543783515020979 0.0645532741634993 -0.00743014945848058 0.3879576 0.8961144 -0.215564 64 64 64
0.0854505546577091 -0.0174078294666991 -0.00900334167236075 0.5509873 -0.453684 -0.7004169 112 112 112
-0.00384435936369343 0.0279331127537665 -0.0241858843442363 0.02971509 -0.1542149 -0.9875904 241 241 241
-0.0636797656577472 0.0268526478724069 0.00817083980927583 -0.883658 -0.0553129 -0.4648538 38 38 38
-0.0438243901396527 0.0717736425578039 -0.0222540273292788 0.0763716 0.9930848 -0.08916242 73 73 73
-0.0193976731214331 0.0211701024005206 -0.0238853122760691 -2.069174E-05 -0.09663634 -0.9953198 82 82 82
0.04723910883131 -0.0236851690001005 -0.0187692471051704 -0.0146693 -0.08331212 -0.9964156 112 112 112
0.0362971955822187 -0.0502140734065621 -0.0167913029244163 0.03912073 -0.1143271 -0.9926726 93 93 93
-0.062450803513578 -0.0337417909689193 -0.0187772004314986 -0.4060312 -0.1375324 -0.9034509 120 120 120
-0.00920308851153329 0.0706582454992035 0.0230368510363239 -0.05978055 0.989058 0.1348724 110 110 110
-0.00426012438201973 -0.0932567602985717 -0.0141967192141652 0.1311849 -0.02567218 -0.9910254 54 54 54
-0.0568927316362349 0.0131155555343438 -0.024492455387852 -0.02192473 -0.04194595 -0.9988793 87 87 87
-0.0400101750713466 -0.0194365136938848 -0.0215552305702064 0.1802411 -0.1831616 -0.9664186 47 47 47
0.00796594959513652 -0.0849189836354745 -0.0146366919448308 0.1051525 -0.09408746 -0.9899952 136 136 136
0.0531812218497481 -0.0378718419718906 -0.0171476664379346 -0.01958979 -0.1395852 -0.9900163 87 87 87
-0.0540179014124869 -0.0662575040420577 -0.0166902812968486 -0.5176756 -0.1713114 -0.8382508 129 129 129
-0.0592576760468089 0.052041117256195 -0.0142732849091155 -0.9915115 -0.1279354 -0.02318649 50 50 50
-0.0478076751187997 0.00587959579155473 -0.0233955169447316 0.01842618 -0.06014949 -0.9980193 67 67 67
0.0299280600873466 -0.0371554016175604 -0.01843490824353 0.02711435 -0.05288664 -0.9982324 230 230 230
-0.0157642862679515 0.0625105773614731 -0.0288354559510164 0.2731116 0.2972392 -0.9149092 140 140 140
0.0524296357803 -0.0808292685860963 -0.00885755795330898 0.6108209 -0.2342068 -0.7563366 129 129 129
-0.00643334273978446 -0.126007615517499 -0.0114618995527984 -0.0336656 -0.2400913 -0.9701664 100 100 100
-0.0382485128752363 -0.0958583468435377 -0.0157613642229205 -0.08234268 -0.2254278 -0.9707739 78 78 78
0.0716471916872352 0.0253309926098839 -0.0217409774253202 0.08590034 -0.0296648 -0.995862 50 50 50
-0.0508761315642112 -0.0755087469044071 -0.0137461414655413 -0.812278 -0.5550295 -0.1792951 148 148 148
-0.0541776743823978 0.0574728402393656 -0.0294088818081854 0.02419568 -0.1641758 -0.9861343 116 116 116
-0.00327318977894131 0.0731333571575041 0.00875979995212739 0.3007518 0.9184039 -0.2570656 51 51 51
0.0238487011924102 0.0607601253292525 -0.0178920413414217 -0.01409276 0.994198 -0.1066389 14 14 14
0.0261814446799724 -0.0294677155918692 -0.0190098470357917 0.04771424 -0.07502685 -0.9960393 108 108 108
0.0673261975791475 0.0537914661397765 0.0026999174667193 0.1235328 0.9265898 -0.3552056 78 78 78
0.0840794602346073 -0.0101755088183848 -0.0151257578847623 0.5521891 -0.3327425 -0.7644408 83 83 83
-0.0107568323720315 -0.0759936660853748 -0.016949092462329 0.1154191 -0.1318561 -0.9845265 235 235 235
-0.0639711598311561 -0.00674779451022611 -0.0200210850518204 -0.5615999 -0.09389894 -0.8220636 82 82 82
0.0629622225680269 -0.0472002527578124 -0.0140289929675735 0.4726773 -0.3950865 -0.7877073 70 70 70
-0.0158448674828247 -0.105770903981687 -0.0138703584157895 0.06562444 -0.09090433 -0.993695 37 37 37
-0.0117453398071863 0.0755798695758243 0.00839605383877906 0.1248832 0.9786369 -0.1633219 78 78 78
-0.0645355496331441 0.026758925862898 0.0237174659206516 -0.9949273 -0.09452543 0.03441826 35 35 35
-0.0564341721355242 0.0623038700950445 -0.0302470711968997 0.02821799 -0.1550784 -0.9874991 137 137 137
-0.0555285937644037 -0.0632027537731896 -0.0164473514063746 -0.4809471 -0.1592244 -0.8621702 142 142 142
-0.00584334702174294 -0.00216691474142761 -0.0208110261207798 0.02861201 -0.05755803 -0.9979321 239 239 239
0.056553893915259 0.0592886619890836 0.0181151818500473 0.3178073 0.938319 -0.1362206 44 44 44
0.0690286732026004 0.045948907823854 -0.0146142634801069 0.1817931 0.9751881 -0.126331 35 35 35
0.0427918914265966 0.0373410922006134 -0.024441520802039 0.06139001 -0.1091468 -0.9921281 150 150 150
0.0855265737676869 0.0362527725979869 -0.0186543333747598 0.3566291 0.2219615 -0.9074959 86 86 86
-0.0512482643413648 -0.0748786444699643 -0.0165288174825942 -0.6966218 -0.4079989 -0.5901313 165 165 165
-0.0608820965862795 0.0763396581783355 0.0205039007178092 -0.2534388 0.9659544 -0.05196939 43 43 43
-0.0164656304835025 0.00260534226798237 -0.0222604298553666 0.1319552 -0.06331111 -0.9892318 169 169 169
-0.06102747024466 0.0657633134663809 -0.0152522720129019 -0.9634249 0.2346056 -0.1295096 94 94 94
0.0224942342476089 -0.0842858584573252 -0.0120182452397654 0.103348 -0.1331596 -0.9856915 67 67 67
0.0792663085081766 -0.0310249331661983 -0.00660871714933731 0.5799171 -0.3567582 -0.7324068 127 127 127
0.07763137467793 0.0542431393145801 0.0110862413863 0.3122823 0.9148954 -0.2558245 73 73 73
-0.00590179843235306 -0.120092675918766 -0.0122420140909862 0.07223503 -0.1328102 -0.9885057 85 85 85
0.0951125656424054 0.0302916988945341 -0.0131857928405845 0.9171342 0.1433036 -0.3719261 90 90 90
-0.00195442152298608 -0.0527408599665362 -0.0175199478730488 0.1098367 -0.001581341 -0.9939484 81 81 81
-0.064547584959574 0.0329649335194988 0.0267393582661993 -0.9947498 -0.02420475 0.09943332 38 38 38
0.028319468424902 -0.0234802719220597 -0.0193349673060055 0.04185047 -0.07819346 -0.9960594 175 175 175
0.0243155749955908 0.060356753977248 -0.0144384769589649 -0.05909709 0.9912587 -0.1179561 36 36 36
0.0758565769615771 0.00234650196953212 -0.0198178005924765 0.0356384 -0.1133062 -0.9929208 104 104 104
0.0871084621603866 -0.0236549223823004 -0.00483356990121228 0.5184692 -0.4347104 -0.7363535 157 157 157
-0.0474908834762358 0.0282321372561301 -0.0253647128772108 0.01936778 -0.1305249 -0.9912558 72 72 72
0.0526813835285684 -0.0588538248241532 -0.0146685329733316 0.292632 -0.05261618 -0.9547765 74 74 74
0.00996778816246269 0.0681380434582914 0.00461836395488199 0.133869 0.892732 -0.4302425 92 92 92
-0.0457176091354801 0.0694963243866153 -0.0305343904336143 0.01116867 0.5333384 -0.8458282 132 132 132
0.0560480541908395 -0.00352519978853549 -0.0194711051951057 0.06098628 -0.01602102 -0.99801 99 99 99
0.00126078455098311 0.013196549619009 -0.0224129681061938 0.02283257 -0.06583127 -0.9975695 71 71 71
0.0096471070270292 -0.0894285860799287 -0.0135207635058363 0.08648155 -0.1114548 -0.9899994 168 168 168
0.03033437189188 -0.0028027067602292 -0.0205164483869276 -0.01809441 -0.07056876 -0.9973428 103 103 103
-0.0161481131261956 -0.110070132841813 -0.0143546301699529 0.08726768 -0.09494638 -0.9916499 47 47 47
0.000984544558353839 0.0736450728795712 0.0241370305080996 -0.1312245 0.9908085 0.03284336 45 45 45
0.0118603668316222 -0.0780233982880683 -0.0143934895304985 0.07814867 -0.1426083 -0.9866892 125 125 125
0.000120647725546652 0.0727810518524876 0.0284456989316304 -0.2047465 0.9639211 0.170103 93 93 93
0.0940433868868618 0.00178322441513501 -0.00612561033488215 0.9950544 0.07085724 -0.06961302 45 45 45
0.018069806101279 0.0610366944052734 -0.0218584647893598 0.04306701 0.9793231 -0.1976649 60 60 60
0.0472759968553749 0.0616099423301628 0.00597748521760541 0.2730223 0.9167847 -0.291487 46 46 46
-0.0555725853309386 0.00221926434712438 -0.0234371530757862 -0.06160871 -0.07945914 -0.9949325 112 112 112
-0.066595261057208 0.0603550920310745 -0.000287916899182422 -0.9925196 -0.1214093 -0.01283235 23 23 23
0.0261235651210141 -0.0600193907914475 -0.0159240195337609 0.02871002 -0.1581465 -0.9869982 135 135 135
0.0439174952173018 0.0563644387543754 -0.0142528126157483 0.5494832 0.8154662 -0.1818878 66 66 66
0.0259411927084383 -0.0366966663687127 -0.0182657022010477 0.02888197 -0.04515491 -0.9985624 122 122 122
0.093160673795456 -0.00128874427703307 0.00062826084626752 0.9971793 0.03074423 0.06847011 55 55 55
0.0953749836016407 0.0266080113013207 -0.00547138991350071 0.9992587 0.03659623 -0.01194778 86 86 86
0.0339106962286906 0.0102311461955633 -0.021013695780365 0.0159618 -0.1330481 -0.990981 123 123 123
-0.0373027937196928 -0.0101101659542797 -0.0219944190811238 0.3376743 -0.03589603 -0.9405783 53 53 53
-0.0539777687949927 0.0735438058733047 -0.0141551798944713 0.291996 0.9560596 -0.02623673 50 50 50
-0.0314204551900235 -0.0202409712547309 -0.020531678434639 0.05043477 -0.0541425 -0.9972587 211 211 211
0.0098808825035086 0.0395087491032322 -0.0259618799107853 0.01127285 -0.1348431 -0.9908028 100 100 100
0.0231164165959044 0.0511086531736018 -0.0269429697971147 0.01274233 -0.1120769 -0.9936178 124 124 124
-0.00736198142937994 0.0135987482179003 -0.0224720526546258 0.02036311 -0.1110856 -0.9936022 200 200 200
-0.0606996076646305 0.0342322037057419 -0.013991448606831 -0.9923065 -0.06920016 0.10266 68 68 68
-0.00989658513911817 0.0284839298129742 -0.0235845074418946 0.006953207 -0.1228429 -0.9924018 79 79 79
-0.0640856006234591 0.0566833353114802 -0.0289614004164501 -0.4511341 0.04481749 -0.8913301 97 97 97
0.00535917742516334 -0.0307123063686348 -0.0200010212814631 0.001264682 -0.0293237 -0.9995692 55 55 55
-0.0364048645832038 -0.0538016706735245 -0.0180334622338252 -0.1241443 -0.007596978 -0.9922351 102 102 102
-0.000860033315202013 -0.100459466021344 -0.0135035586847043 0.1050049 -0.08860497 -0.9905166 77 77 77
0.0289840686396412 -0.0217985998674106 -0.0194179394126149 0.04463512 -0.09917954 -0.994068 157 157 157
0.0258931547274537 -0.0759313273129569 -0.0134926943649079 0.03924865 -0.1149329 -0.9925976 84 84 84
-0.0352962849123253 0.0392627744931382 -0.0260351059038419 0.0484859 -0.1418257 -0.9887035 217 217 217
0.0796624721225558 -0.013964502510315 -0.0168597750977986 0.4312704 -0.3824093 -0.8171713 66 66 66
0.0118591279179328 0.0714629823701134 0.0128404432945049 0.1704665 0.9580091 -0.2305639 60 60 60
-0.035318562684483 0.0181048210149715 -0.0235836176427523 0.03168966 -0.1420494 -0.9893522 47 47 47
-0.0234047911315793 0.021241572672108 -0.0238518291246952 0.02582963 -0.08454223 -0.996085 170 170 170
-0.00890260160458478 -0.00671262927095584 -0.0207822474846531 0.02793332 -0.06607636 -0.9974235 82 82 82
0.0569632335176431 -0.0566798682443697 -0.0128238016875636 0.4746175 -0.1300341 -0.870534 127 127 127
0.0404382519182174 0.0591257426243936 -0.0227059681661344 0.625756 0.7721586 -0.1104561 70 70 70
0.0019781343562959 0.0740331481483396 0.0195230278926393 -0.0174324 0.9992698 -0.03399881 56 56 56
0.0476061931705209 0.0528038559821027 -0.0193222307305266 0.6017135 0.7227225 -0.3400191 61 61 61
0.010424549178103 -0.0165821345375368 -0.0199154534136415 0.005890549 -0.05361094 -0.9985445 217 217 217
0.0326137050429178 0.0627356735092388 -0.0141184736201657 0.07180873 0.9662042 -0.2475742 48 48 48
0.0562454154763421 0.00187915505258585 -0.0194247604201653 0.02631027 -0.09806181 -0.9948325 111 111 111
-0.0297246107097509 -0.00461312711680462 -0.0213445683754231 0.01845156 -0.09303235 -0.9954921 82 82 82
0.0854315433641566 0.0116852210948817 -0.0201878569235808 0.1779024 -0.06595905 -0.9818351 156 156 156
0.0415322130403302 0.0608148428623225 -0.0031996927939674 0.505167 0.7931734 -0.3401209 35 35 35
-0.0141089511073491 -0.045367191484557 -0.0186476076634 0.05474529 -0.03209777 -0.9979843 21 21 21
-0.0421248269927004 -0.0845236480882303 -0.0178614345865784 -0.3963237 -0.2563236 -0.8816041 83 83 83
-0.0321221115149402 -0.0917839334898722 -0.0161888022390302 0.02739135 -0.140023 -0.9897693 33 33 33
-0.0389492164645504 -0.0848919965526092 -0.0180341090274714 -0.02811878 -0.1766813 -0.9838664 174 174 174
0.0940069848225578 0.0337889131123672 -0.000930552233708942 0.9995814 0.02631993 0.01201408 60 60 60
0.0254857679647043 0.0199784439691428 -0.0230526890703952 -0.01073349 -0.1689183 -0.9855716 58 58 58
0.00479483637360589 -0.0325269882134573 -0.0198468309750563 -0.03431218 -0.04456409 -0.9984171 88 88 88
0.00872253636304521 0.0502304473671285 -0.0271716321016322 0.02858898 -0.08686587 -0.9958097 109 109 109
0.0945076311441018 0.0366360991134751 0.00870917712840177 0.9974402 0.06969115 -0.01600583 72 72 72
0.0827576567315262 -0.0297662818522486 -0.00333936979468286 0.551237 -0.4053296 -0.7292774 122 122 122
0.00676822250707643 -0.0288744265408047 -0.0197293682474537 0.05424655 0.009174487 -0.9984854 53 53 53
-0.0650233928693948 0.0479934343942439 0.0158183988824618 -0.9987856 0.007587363 -0.04868029 67 67 67
-0.0559693419230385 -0.0707071525681071 -0.00267500515713645 -0.8061259 -0.57595 -0.1358037 89 89 89
0.0608509929525547 -0.00607693539663057 -0.0190022182593858 0.07548609 -0.03836548 -0.9964085 49 49 49
0.0333234520067363 -0.0425069950742016 -0.0175526520868875 0.07320093 -0.09274662 -0.9929953 142 142 142
0.0343591883406971 0.018495355862516 -0.0226099156578889 0.05244502 -0.1250819 -0.9907593 229 229 229
-0.0240296005715528 0.00825739899414546 -0.0225919971949614 -0.02774084 -0.1011057 -0.9944888 77 77 77
-0.0253256492887983 -0.0443382239701438 -0.0190217317766757 -0.01507835 -0.05780283 -0.9982141 247 247 247
-0.0601581809029288 -0.0595407634978546 -0.0113056104567424 -0.8438085 -0.4117068 -0.3442162 131 131 131
0.0583469540602362 0.0490346153543779 -0.00916416338096965 0.3457021 0.9161533 -0.2028628 44 44 44
-0.0268933104433671 0.0687612873610994 -0.0294155935777553 0.0891429 0.6989545 -0.7095887 165 165 165
0.0944375737159719 -0.0116565141421012 -0.00212241673062449 0.9444382 -0.09336215 -0.3151507 89 89 89
-0.0400673756512826 -0.098688354258635 -0.014992823396599 -0.1826783 -0.1925057 -0.9641422 161 161 161
0.0892472974644716 -0.0142633828777259 -0.00833186755773557 0.5248608 -0.421162 -0.7396917 155 155 155
-0.00415858419665271 0.0574288520633572 -0.0278311759718667 0.03794049 0.1634354 -0.9858242 95 95 95
-0.060796359042929 0.0353442812205116 -0.0268365181716934 -0.4294455 -0.2201791 -0.8758411 131 131 131
0.0205246215847787 0.00220903502245418 -0.0210011909865281 0.04068918 -0.06212861 -0.9972384 69 69 69
0.0458679165573104 0.0571182170131026 -0.0115512560763194 0.5199683 0.8412448 -0.1481218 46 46 46
0.0158161329789683 0.00707545441770918 -0.0215223557535593 0.02152095 -0.05704121 -0.9981399 209 209 209
-0.0508184870972779 0.0017738892038881 -0.023234442305818 0.004684444 -0.05149082 -0.9986625 104 104 104
-0.0224860431289529 -0.00824990927664881 -0.0211198993802573 -0.03183597 -0.1347348 -0.9903702 173 173 173
-0.0140055513001127 0.0713597026838664 0.0286690807815272 0.1575151 0.9874644 0.01014947 72 72 72
-0.0306275435544447 0.0650243956178393 -0.0299042824857273 0.02502511 -0.03585599 -0.9990436 71 71 71
0.0157478363007253 0.0703660843760219 0.0133063538859102 0.06696647 0.9804928 -0.1847955 99 99 99
-0.0365672054257451 -0.101859248461495 -0.0147717431525539 -0.1040067 -0.1393329 -0.9847685 87 87 87
0.0839939720999443 0.0248385064866519 -0.0202823420693103 0.1202714 0.02261063 -0.9924835 68 68 68
0.0461028887224335 -0.0724493560546162 -0.0141168194751944 0.1509192 -0.1941887 -0.9692854 58 58 58
-0.0565700190148277 -0.0289973298916566 -0.0195050499442475 -0.05214908 -0.1423894 -0.988436 117 117 117
-0.0188150380056926 -0.0624687748061248 -0.0177078352223365 -0.09429935 0.1186369 -0.9884498 71 71 71
-0.0549147857191641 0.0732898813719778 -0.0242328469095401 0.1917402 0.9353659 -0.2971973 41 41 41
-0.000304391734520015 0.0532246612372922 -0.0278952847859698 -0.002959373 -0.1066407 -0.9942932 138 138 138
-0.00877342517103163 -0.0469513174770533 -0.0184015363452017 0.0583053 -0.04360883 -0.9973459 39 39 39
-0.0605989342065256 0.0747583508919458 0.0223199608191228 -0.4619861 0.8855732 0.04825896 97 97 97
0.0264773451268854 0.0161741435352336 -0.022404881854007 -0.005327893 -0.1694079 -0.9855316 241 241 241
-0.0071821033534174 -0.0625650663225799 -0.0183926609039376 0.1224104 -0.1042844 -0.9869856 33 33 33
0.0570642583790339 -0.0723647318879528 -0.00765104303829681 0.5052149 -0.321787 -0.8007566 143 143 143
0.0144550584564207 0.0526002590577548 -0.0270128869342404 0.01225969 -0.09663071 -0.9952448 103 103 103
0.0274924526071407 -0.0736794362471895 -0.0135569541535416 0.01727371 -0.1282554 -0.9915907 65 65 65
-0.0313617391644998 0.0458083986892224 -0.0269045992089675 0.02146368 -0.1559028 -0.9875392 206 206 206
0.0946745225949648 0.047518287929122 -0.00500310942148177 0.4534028 0.8461763 -0.2800208 83 83 83
-0.0346069675785068 0.0508805704077411 -0.0277117896095002 0.02479848 -0.1409291 -0.9897091 100 100 100
0.0176512411867713 0.0672022140515109 0.0283827555723764 0.3628278 0.8678298 0.3394517 85 85 85
0.0773539375250167 -0.0265385820272108 -0.00970907247176692 0.5281368 -0.404351 -0.7467073 143 143 143
0.035950096003047 0.0660260656735403 0.00587495954794801 0.4068353 0.8749053 -0.2627274 47 47 47
-0.0345559024087245 0.0363797707728595 -0.02549448540641 0.05834932 -0.1124508 -0.9919426 185 185 185
-0.0240218384978312 0.070043991341993 -0.0253621497606033 0.2693512 0.9060004 -0.3265169 64 64 64
0.0185625622806465 -0.0926910772999432 -0.0122497050023599 0.1868778 -0.1048404 -0.9767728 138 138 138
-0.0407503300552239 -0.11406265409499 -0.0104128602038823 -0.5733719 -0.6760888 -0.462762 129 129 129
-0.0508411045364641 0.0744091450829234 -0.000260742571234707 0.09609642 0.9887462 -0.1146576 37 37 37
-0.00451932110864295 0.0688719114677327 -0.00803647863778348 0.1950824 0.9127007 -0.3590548 53 53 53
0.014948172716184 -0.0170762674514386 -0.019745527571077 0.01186271 -0.05061474 -0.9986478 115 115 115
-0.0290409652076835 -0.0222091493957211 -0.0204065369648909 0.03901166 -0.0684543 -0.9968912 85 85 85
-0.0558818432038217 0.0429050639727091 -0.0276098376799928 0.02274816 -0.1090551 -0.9937754 111 111 111
0.0268839540739838 0.0482637334215559 -0.0266839551898229 0.01036159 -0.1042328 -0.994499 112 112 112
-0.0490090577272146 0.0735625094600914 -0.00243443321972653 0.1197065 0.9816099 -0.1487019 82 82 82
-0.021549532264356 -0.0841790742288451 -0.0169976402219577 0.05805812 -0.1635544 -0.9848245 7 7 7
-0.0351464316717227 -0.114561618796415 -0.0133114197784352 -0.07433987 -0.4593602 -0.8851337 134 134 134
0.0240695910268156 0.0599999446230981 -0.023500205364054 0.07130343 0.9161809 -0.3943708 95 95 95
0.058596730297843 -0.0609702932522358 -0.0112965227694806 0.6209863 -0.1597398 -0.7673716 136 136 136
-0.0510378154478144 -0.0727900747455252 -0.0179087323036295 -0.5293211 -0.1867093 -0.8276224 149 149 149
-0.0332876054380931 0.075811093131849 0.0166222211451096 0.09654528 0.9926196 -0.0733854 44 44 44
-0.0438748696284657 -0.0818283918101088 -0.0166767482473698 -0.5766981 -0.377285 -0.7246208 76 76 76
-0.0356247188316727 0.0731197336374492 -0.0083596193780274 -0.02301008 0.9915616 -0.127578 42 42 42
0.0671369350687896 0.047119646824795 -0.0111843337743577 0.2429335 0.9623426 -0.1219836 71 71 71
-0.0247298676098575 0.0443842657834475 -0.0267154555087885 -0.008272468 -0.1354319 -0.9907521 233 233 233
-0.0255948044772083 -0.109789208644273 -0.0142731689921652 -0.00634762 -0.1223773 -0.9924634 74 74 74
-0.0462844067249308 0.0183805025213015 -0.0243967840273311 0.02626257 -0.1242326 -0.9919055 130 130 130
-0.0429245726626051 0.0377485908712114 -0.0263065429127295 0.07279197 -0.09985311 -0.992336 78 78 78
-0.0285614113624884 -0.0405408088413173 -0.0194401921119277 -0.002053452 -0.00963016 -0.9999515 55 55 55
0.0247428274678296 0.0710031170955081 0.0145187931829522 0.183953 0.982833 0.01416608 63 63 63
-0.0235438766241252 -0.0134464350623691 -0.0201945000158741 0.01390618 -0.08314297 -0.9964406 50 50 50
-0.0532114494462879 0.0737452576996549 -0.00831202301454839 0.1847706 0.9802972 -0.06983656 38 38 38
-0.0172233792341221 0.0721728367035064 0.0259639138813197 0.1436489 0.9895228 -0.01447973 51 51 51
0.0229934890172694 0.0640623839721142 -0.00266801290836108 -0.02377449 0.9426707 -0.3328764 28 28 28
0.0274486450310774 0.0680756546784416 0.0235867425123243 0.2672197 0.9197208 0.2875886 82 82 82
-0.00510610771798636 0.0724881253588499 0.0057542700325392 0.2887631 0.9177555 -0.2726549 75 75 75
-0.0617499155209082 0.0405430389931234 -0.0122620274923005 -0.9850415 -0.1351743 0.1068697 16 16 16
0.0622139243850144 -0.0373070243766187 -0.0170680211297426 0.3171763 -0.1268305 -0.9398475 58 58 58
-0.0614412847031782 0.0350873999018315 -0.0261662965764857 -0.5224337 -0.2967653 -0.7993706 122 122 122
0.027498234086959 -0.00633342865819353 -0.0203526751664187 0.02712782 -0.01929429 -0.9994457 110 110 110
0.0562872192855959 -0.0213515028713358 -0.0185679029780491 0.03127267 -0.04530278 -0.9984837 69 69 69
0.00333479387027147 -0.0323245050920322 -0.0198841026812657 -0.03367665 -0.07385281 -0.9967004 87 87 87
0.0467040361987532 -0.0878853220107789 -0.00958799961337206 0.241966 -0.2435666 -0.9392166 116 116 116
0.0479580995466944 -0.0874149930361396 -0.0094442739573817 0.3252234 -0.2621833 -0.9085646 98 98 98
0.0392856671951998 -0.0943650043369908 -0.0103655491992824 0.08783821 -0.1501872 -0.9847478 25 25 25
0.0395081971116227 -0.0921130558407293 -0.0111700084645671 0.0837833 -0.1443602 -0.9859719 76 76 76
0.0424746351992622 -0.092012442399334 -0.0103550154380129 0.1581589 -0.1787284 -0.9711034 37 37 37
0.0364575851289763 -0.092507173992624 -0.0111491332876337 0.0413364 -0.1414971 -0.9890752 90 90 90
0.037526719693959 -0.0906928799484179 -0.0114642239184062 0.04507076 -0.1345686 -0.9898787 80 80 80
0.0497227637578948 -0.0832971172747203 -0.010725294561812 0.3690245 -0.2727671 -0.8884926 122 122 122
0.0492346548759341 -0.0841002176469359 -0.0109330036912757 0.3521225 -0.2700269 -0.8961558 115 115 115
0.0478110028139695 -0.0822046173936526 -0.012058969070635 0.3290985 -0.2452301 -0.9118971 51 51 51
0.0513286710994265 -0.0785548681119799 -0.0106738660556022 0.5854353 -0.1291342 -0.8003686 137 137 137
0.0504925804053378 -0.0791375227623485 -0.0113732510373846 0.5047855 -0.1487091 -0.8503394 114 114 114
0.0494149837209343 -0.0780554569353944 -0.0124797543952242 0.4444627 -0.1275886 -0.8866646 77 77 77
0.0475215751389868 -0.0806490883911475 -0.0125966056175516 0.2578289 -0.2045885 -0.9442816 62 62 62
0.0497126339412524 -0.0799213941294006 -0.0111632092194393 0.4871596 -0.1715744 -0.856293 106 106 106
0.00141245652311062 0.0638557789924112 -0.0186166685050095 0.231764 0.9359531 -0.2650985 62 62 62
0.0496268340800812 -0.0797404125019445 -0.0116666578855775 0.4551617 -0.1654586 -0.8749008 105 105 105
0.0477116697776685 -0.0793927213885273 -0.0131261438392091 0.2988883 -0.1811172 -0.9369431 71 71 71
0.0464564456549796 -0.0871093321785106 -0.0107291615885615 0.241966 -0.2435666 -0.9392166 130 130 130
0.04460698997266 -0.0874866636598599 -0.0112964075635935 0.2238217 -0.2343233 -0.9460425 77 77 77
0.0405847810440041 -0.08970084920354 -0.0118055334386178 0.1216203 -0.1461762 -0.9817541 52 52 52
0.0408724530219562 -0.0883415592104566 -0.0117649359136027 0.1306935 -0.1410176 -0.9813426 42 42 42
0.0392362573116392 -0.0896709432893588 -0.0113568624721551 0.08328865 -0.1319283 -0.987754 56 56 56
0.038438325222421 -0.0889009500654303 -0.0114353016552789 0.03794392 -0.1425842 -0.9890551 75 75 75
0.0368155110761437 -0.0864898706055646 -0.0120452790999246 0.003578258 -0.1147267 -0.9933907 79 79 79
0.0363992481266564 -0.0876603390393942 -0.0118238629076708 0.0106841 -0.113981 -0.9934255 63 63 63
0.0379714639083459 -0.0862409782809335 -0.0123217600713362 -0.003586447 -0.1134766 -0.9935342 80 80 80
0.0463558646541589 -0.0851362497566071 -0.0107923435883935 0.2314008 -0.2758933 -0.9329183 127 127 127
0.0468294441625146 -0.084090662698898 -0.0116365502120004 0.2329843 -0.2666425 -0.9352112 74 74 74
0.0466391533997021 -0.0832961299373423 -0.0118612913575834 0.2329843 -0.2666425 -0.9352112 87 87 87
0.0419397285929715 -0.08187942646394 -0.0123510933270025 0.02774657 -0.150408 -0.9882346 32 32 32
0.0414074002419718 -0.0830868823811217 -0.0125093282012526 0.0428219 -0.1404508 -0.9891612 81 81 81
0.0399458328243987 -0.0821939951038819 -0.0123250857053526 0.01387256 -0.1026733 -0.9946184 50 50 50
0.0386877153348684 -0.0824184533511141 -0.0117921471991521 0.01697099 -0.09376392 -0.9954498 79 79 79
0.0368358258903361 -0.0833026018305707 -0.0121845837339315 0.001124004 -0.1135108 -0.9935361 41 41 41
0.0359141489775368 -0.0819736227502827 -0.0125209745672507 0.004051539 -0.09842119 -0.9951366 54 54 54
0.045119127313161 -0.0786149695857556 -0.0130395040810477 0.0790048 -0.1799423 -0.9804994 79 79 79
0.0400965158059405 -0.0803681922625408 -0.0124884949242459 -0.003903821 -0.1224393 -0.9924683 68 68 68
0.0373559457779049 -0.0815750848988357 -0.0124791579001426 0.0155119 -0.09670873 -0.9951918 55 55 55
0.039167783874855 -0.0773226942404068 -0.0128414712809376 -0.008442 -0.1447216 -0.9894364 65 65 65
0.0851515753893168 -0.0217552087605895 -0.00678444481945537 0.5290323 -0.3884946 -0.7544513 150 150 150
0.0357781825640027 -0.0784143375836932 -0.013082292916213 0.01954246 -0.1313302 -0.991146 34 34 34
0.0936368889706312 0.0053680001960672 -0.0136465448401076 0.8002123 -0.1569144 -0.5788248 114 114 114
-0.0646716311375755 0.018322126999744 0.0142493867430044 -0.9995834 0.02492381 -0.01455233 3 3 3
0.0395803409006741 -0.00292340061878837 -0.020701612846504 0.008012366 -0.02682092 -0.9996082 155 155 155
0.0745535199961136 -0.00736655669915409 -0.0186415364041835 -0.0172234 -0.1744093 -0.9845226 152 152 152
0.0445015624034666 0.0575515419223016 -0.0115349435665744 0.5240246 0.8421355 -0.1273032 16 16 16
-0.0575779274014689 0.0595731406735009 -0.0300724078636956 0.005239494 -0.1557634 -0.9877805 138 138 138
-0.0246837767100727 0.0489066981408852 -0.027068874584244 -0.004654294 -0.1454941 -0.9893482 245 245 245
0.0473310635972364 -0.0340690047221692 -0.0171134265486881 0.01284306 -0.1196891 -0.9927284 80 80 80
-0.00613355846007013 -0.0774147831169805 -0.0167204132093646 0.1098267 -0.1274621 -0.9857441 245 245 245
0.0241903419645533 0.020497245992072 -0.0231493104599007 -0.01900217 -0.1581218 -0.9872367 133 133 133
-0.0212010124538919 0.016841261268729 -0.0231700644740481 0.0410732 -0.08046249 -0.995911 215 215 215
-0.00898534328126877 -0.059786218487583 -0.0187821363391942 0.106866 -0.08450897 -0.9906754 27 27 27
-0.0418197729550249 0.0133256369234342 -0.0235115985502933 0.04006352 -0.04879387 -0.998005 107 107 107
-0.0606340401522867 0.0222840318938227 -0.0232038943296642 -0.7234304 -0.0113338 -0.6903043 26 26 26
0.0503019305643775 -0.0136720866801421 -0.0194819612072124 0.05930931 -0.08277395 -0.9948019 111 111 111
-0.0238099273613928 0.0736408711266996 0.0213320906955431 0.2300535 0.9729012 0.02321132 66 66 66
0.0126327704157301 -0.0144964724552175 -0.0203495293348418 -0.0002249695 -0.07067814 -0.9974992 174 174 174
0.00795179621185671 -0.0114226290547252 -0.0201814703389397 -0.01415083 -0.0471544 -0.9987873 211 211 211
0.0317460823364009 -0.0930133814778475 -0.0112742518086981 0.01996017 -0.09055918 -0.995691 68 68 68
-0.035700232816775 -0.0311453591443078 -0.0190071692739371 0.005389126 -0.08547144 -0.996326 226 226 226
-0.00941320362982556 0.065272452466979 -0.0184785209791689 0.1613877 0.9349713 -0.3158841 40 40 40
0.00700368071778135 0.0668996568672671 0.00215310358965484 0.2075668 0.9019462 -0.3786938 82 82 82
-0.00892305464867849 -0.0245601276667224 -0.0199745836909392 -0.03143632 -0.06196064 -0.9975834 103 103 103
-0.0647628059920227 -0.0469682940903049 0.015895586164321 -0.9928092 0.02457561 0.1171578 24 24 24
0.0572698898062518 -0.00155378240332094 -0.0195760999503319 0.03326085 -0.0646048 -0.9973565 60 60 60
-0.0614313846725953 -0.0368449060580129 -0.0185321660195085 -0.2989433 -0.1895325 -0.9352595 105 105 105
-0.0239322509542803 0.0736278586205654 0.0198725339891013 0.1979006 0.9799669 0.02236285 68 68 68
0.0415872951654099 -0.0344073791468487 -0.0178575484931142 0.05227554 -0.09129124 -0.9944512 115 115 115
0.0656515727390257 0.0542694990733759 0.00588873891929731 0.3212194 0.94388 -0.0768684 18 18 18
-0.0432169271942797 -0.0509351232470454 -0.017334541101874 -0.09351636 -0.04007833 -0.9948108 107 107 107
-0.0591502037535978 0.0142307247464373 -0.0246331924924476 -0.3138222 -0.0483376 -0.9482505 131 131 131
-0.0407678064145212 -0.105321912015931 -0.0139338383240764 -0.3772199 -0.08585808 -0.9221353 156 156 156
0.031826201833542 -0.0656904624990995 -0.0149340940177709 -0.0303737 -0.1777393 -0.9836088 63 63 63
-0.0401972381623985 -0.114303486490543 -0.00807509205097254 -0.6680034 -0.7164235 -0.2012679 98 98 98
0.0134343396858501 0.0599845292816474 -0.0245326584158967 0.190145 0.837483 -0.5123153 80 80 80
-0.0258771534704156 -0.042006284593302 -0.0193231237050119 0.01858106 -0.02269411 -0.9995698 97 97 97
0.0131557923971712 -0.0826729544038556 -0.0135768199885048 0.116849 -0.08425771 -0.9895691 214 214 214
-0.0654617938995286 0.0575662531516368 0.00996350435394844 -0.9995741 0.007804278 -0.0281189 79 79 79
-0.0378983557839581 0.0731651062254444 -0.00804259089254505 -0.01267334 0.991154 -0.1321103 49 49 49
-0.0338650022313436 0.0498449249921233 -0.0275129528475564 0.02958784 -0.1488972 -0.9884099 73 73 73
0.0536836398358429 -0.0202888312569887 -0.0187358129299904 0.02565738 -0.03905335 -0.9989077 132 132 132
-0.0545843860002724 -0.0704225454333358 -0.00124330475312129 -0.7911326 -0.5778098 -0.2006117 61 61 61
0.0303353444605234 0.0422809397522037 -0.0253876761763595 0.04078879 -0.1322995 -0.9903702 58 58 58
0.0515807634685952 -0.029198903816877 -0.0183972965242913 -0.04187453 -0.1296694 -0.9906727 123 123 123
-0.042944441521471 0.0772802672639461 0.0324361566226936 0.009754593 0.9958911 -0.09003211 125 125 125
0.0497840735721111 0.0243428645972288 -0.0223608945279741 0.04120693 -0.1228961 -0.9915637 93 93 93
0.0130717363516981 0.057003549293118 -0.0277849410670705 0.04956487 0.1390015 -0.989051 86 86 86
0.0944392351873529 -0.00729714466319487 -0.00288834467651825 0.996181 0.04329696 -0.07582159 69 69 69
-0.0329131474499567 -0.0364244571774051 -0.0190918651530493 -0.02069344 0.04183074 -0.9989104 65 65 65
-0.0640765211752388 0.064934983472595 0.0160089631560741 -0.9925858 0.0004011622 0.1215451 95 95 95
0.0708733371867263 -0.0225836068557401 -0.0177510161716601 0.3890642 -0.3037412 -0.8696955 52 52 52
0.00508788495242785 0.0669137823010117 -0.00503746017073617 0.3856147 0.901902 -0.1946129 31 31 31
0.0172770797761173 0.0633285140351758 -0.00612012029115822 0.1024582 0.9587711 -0.2650667 51 51 51
0.0618071770751183 -0.000684997509923901 -0.0196955124177625 -0.0181319 -0.126721 -0.9917727 59 59 59
-0.0211542917092662 0.0725921628289248 -0.00983699184782086 0.1700021 0.9634398 -0.2070821 34 34 34
-0.0604200017260321 -0.00294519409538152 -0.0227313619205259 -0.3197818 -0.05189323 -0.9460691 147 147 147
0.0414901274812034 0.0122248544458019 -0.0219297120072544 -0.02270884 -0.1400412 -0.9898852 116 116 116
-0.0584613401058862 0.0766735598829802 0.0268042392934252 -0.1009499 0.994841 0.01002929 54 54 54
0.0447304542697624 0.047893330704704 -0.0255500723370052 0.1956778 0.06578681 -0.9784591 184 184 184
-0.0564210972428694 0.0722391349950329 -0.0255872879665003 0.1764909 0.9332052 -0.313016 12 12 12
-0.0373961389730009 0.065480547357111 -0.0295898443556594 0.02247973 -0.0461481 -0.9986817 64 64 64
0.0908765473525381 -0.0127830986835449 -0.00786366932299504 0.5880978 -0.3640366 -0.7222316 148 148 148
