ply
format ascii 1.0
comment File exported by Rhinoceros Version 7.0
element vertex 467
property float x
property float y
property float z
property float nx
property float ny
property float nz
property uchar red
property uchar green
property uchar blue
end_header
0.0144301982360087 0.0762291418444669 -0.0260830461641788 0.1949277 0.8190723 -0.5395588 218 218 218
-0.0387050631802097 -0.0885901745246518 -0.00283659824377994 -0.8740312 -0.4857927 0.008657956 41 41 41
0.0727860126742572 0.070973763075294 -0.0118309210263974 0.3187109 0.9441386 -0.083819 70 70 70
-0.0486820223444291 0.079491324185226 0.0028110063952852 0.126585 0.9905987 -0.05186985 89 89 89
0.082851115491738 0.0310455135727359 -0.0237317568005783 0.9302944 -0.1126634 -0.3490835 101 101 101
0.0274968370950028 0.068489127299979 0.0152505213017185 0.1658349 0.9723019 0.1647051 99 99 99
0.0796128376639123 -0.0732695816891351 -0.0145092036202633 0.9989321 0.0337407 -0.03156416 92 92 92
-0.0119659805292289 0.0716700865123756 0.0148216704122803 0.08889074 0.9619088 0.2585148 88 88 88
-0.0544405073206569 0.078352372354328 0.0144822859647699 0.3165763 0.85079 0.4194471 54 54 54
-0.0160786172196539 0.0684091772652657 -0.0265135449348142 -0.01218955 -0.001826883 -0.9999241 158 158 158
0.0259747248150948 -0.013953681026593 -0.0268528956124224 -0.01577497 0.004367173 -0.999866 129 129 129
0.0851680042271357 -0.00459577003522083 -0.00806056709206329 0.8998642 -0.1383612 -0.4136431 89 89 89
-0.00121027563115517 -0.0878878551673381 -0.0265987621551315 -0.02433745 0.008900793 -0.9996642 100 100 100
0.0763086087555618 0.0689842261247477 0.0146068375278065 -0.6268154 0.7513516 -0.2063329 63 63 63
-0.049950986553881 -0.0679752217063931 0.0103240787735319 -0.87125 -0.4903044 0.02291507 42 42 42
0.0489281052874673 0.0642728641080417 -0.0270034901304906 -0.06417866 0.09437308 -0.9934661 158 158 158
-0.0683906281059008 0.0830078208815526 -0.00464591246903945 -0.2946049 0.9467406 0.1299626 149 149 149
0.0481466728641224 -0.0922561660710903 -0.0272171789778918 -0.006221058 -0.0142991 -0.9998784 88 88 88
-0.00444537629594177 0.0744354241915066 0.00388146987789831 -0.2294537 0.948147 0.2199278 109 109 109
-0.0452012062525344 -0.0764322390668246 -0.00031351095502577 -0.8756088 -0.4826924 0.01781036 51 51 51
0.0355646434816668 -0.0949621767432842 0.0123226849775702 0.260044 -0.959433 0.1089285 27 27 27
-0.0682401487461213 -0.0347902937110161 0.00188890177529563 -0.865467 -0.5008134 0.01236781 53 53 53
-0.0346917927295445 0.0384861537692847 -0.0257290057832568 -0.02097699 -0.01617191 -0.9996492 125 125 125
-0.0103490123763696 -0.0633858490960564 -0.0264214251363145 -0.00973979 -0.004672196 -0.9999416 80 80 80
-0.065950591163455 0.0771826020521551 -0.025812961731966 -0.01903443 0.1105588 -0.9936873 121 121 121
0.0857554591809921 -0.0408632743649873 0.0140323083544127 0.9856507 0.03052976 -0.1660143 91 91 91
-0.0326297493821153 -0.0505538441840327 -0.0260827770734532 -0.01586691 0.001415156 -0.9998731 87 87 87
0.0612616192090851 0.0662188887355013 0.0149907364513475 -0.02819583 0.9533366 0.30059 60 60 60
-0.0518843688306472 -0.0541639396120859 -0.0257923238764379 -0.09409264 -0.06441812 -0.9934772 78 78 78
0.0439014491031549 0.00447645700306021 -0.0270561639342002 -0.02414011 0.007487114 -0.9996805 138 138 138
0.0182778937324195 -0.028392306266261 -0.0267688968521977 -0.003687413 0.004442823 -0.9999833 99 99 99
0.0358676736917094 -0.0686111197471246 -0.0270023664833531 -0.01158255 0.004431374 -0.9999231 144 144 144
-0.0231363942510112 0.0105404162902532 -0.0262934471087981 -0.004530647 0.004141162 -0.9999812 122 122 122
-0.106855516786462 0.057815853919041 -0.00841645391852031 -0.8752708 -0.4821379 -0.03800003 23 23 23
0.0476763505670461 -0.0706128196108609 -0.0271695458267325 -0.006991504 0.003833187 -0.9999682 122 122 122
0.0252619333703437 -0.0502146440342077 -0.0269883512033025 -0.01478976 -0.01332744 -0.9998018 227 227 227
-0.0254925743083021 0.0433042536431156 -0.0262563054001541 -0.008085631 -0.001864387 -0.9999655 193 193 193
0.0773558399008676 0.070174927319631 0.00806832465345408 -0.3331605 0.9333606 0.1335741 56 56 56
0.0396767062304926 -0.0106708481136135 -0.0270925548674362 -0.006850094 0.005898523 -0.9999591 95 95 95
0.031004406960123 0.0123511635399163 -0.0269667150702427 -0.01872407 0.004757609 -0.9998134 109 109 109
-0.0976646086943482 0.01897996983491 0.0178327358658581 -0.8782012 -0.4781839 0.01014251 80 80 80
-0.0564797102507359 -0.0468007816703662 -0.0260979918138541 -0.01814239 -0.0008773618 -0.999835 131 131 131
0.0881387096756969 -0.0120344553028897 0.00515345588726163 0.96978 -0.05282579 -0.2381938 68 68 68
0.019276081430132 0.0696726898763091 0.00665590252430642 0.1502782 0.9875594 -0.04629152 97 97 97
-0.116772291401188 0.0655732370515514 -0.00036466493486309 -0.6446279 -0.2073353 -0.7358444 50 50 50
0.0601177312110055 0.036821120962556 -0.0272238019472757 -0.007487989 -0.003963757 -0.9999641 138 138 138
-0.0604834789004678 0.0829969355317837 -0.00483278418410862 0.2330539 0.9405238 0.2471859 56 56 56
0.0440303809464326 -0.0285651109347209 -0.026900356645113 -0.01922159 -0.0001140433 -0.9998152 247 247 247
-0.103206901503542 0.0309180472951389 0.000929375855129255 -0.7371916 -0.3469785 -0.5797883 54 54 54
-0.0830887894389296 0.0832282417514434 -0.0227706901453429 0.1035993 0.9897704 -0.09809086 118 118 118
-0.0550716939678924 0.0636443300053298 -0.0258709537327699 -0.01158689 0.0007237961 -0.9999326 149 149 149
-0.0230556787916909 -0.00512007061525344 -0.0263407214670872 -0.01417757 0.004260126 -0.9998904 108 108 108
0.0831721812901804 -0.0578974209937697 0.000581710351222758 0.9616229 -0.00796978 -0.2742588 52 52 52
-0.119554240621413 0.0711973937604518 0.000892723584441424 -0.887713 -0.1298174 -0.4417161 22 22 22
-0.0234189782240499 -0.00320671065036593 -0.0262480806715584 -0.01263472 0.00179347 -0.9999186 84 84 84
-0.075925824591661 0.00928930600346711 -0.0255397463263189 -0.01175888 0.003336899 -0.9999253 77 77 77
0.0863286314042053 0.00547777817920814 -0.00612648269880953 0.9421811 -0.1223059 -0.3119873 109 109 109
0.0557289617204462 0.0694502735374645 0.00706201032228951 -0.03467004 0.9488453 0.3138321 78 78 78
0.0497223819425539 -0.0937759994144349 0.00618385139161631 0.1660673 -0.9792982 0.1157442 25 25 25
0.0636279128321489 0.0157201557849784 -0.0272118564568947 -0.004944595 -0.003906872 -0.9999802 148 148 148
0.0219378378917334 0.00714344559499325 -0.0266733957162547 -0.008574309 0.007851397 -0.9999324 110 110 110
-0.0208475807910358 0.0607287652837099 -0.0263065347152649 -0.006932676 0.003151202 -0.999971 151 151 151
-0.0371717944292551 -0.0367848417545675 -0.0260646182066478 -0.01479307 -0.001854761 -0.9998888 96 96 96
-0.0529061620936662 -0.0317569389353325 -0.026003458248325 -0.009284 0.001661214 -0.9999555 100 100 100
-0.0464007396232167 0.0800563534566474 0.00740872001153497 0.2237864 0.9674204 0.1183954 92 92 92
0.0750148299501259 -0.0926202484577316 -0.00924066354631584 0.1348886 -0.9890597 0.0597153 36 36 36
-0.0197161963368948 0.0606182722134174 -0.0264788345436663 -0.01066526 -0.0001488891 -0.9999431 149 149 149
0.060062107964445 0.0185190666785111 -0.0272871981947367 -0.006975574 0.0005441612 -0.9999755 120 120 120
-0.0965827380340565 0.0169360334113113 -0.00689505504743237 -0.9644992 -0.2602604 -0.04478484 20 20 20
-0.0371299102816662 0.0796422010418258 -0.0232527485431813 0.1227052 0.9897881 -0.07254634 113 113 113
-0.075084962670432 0.0799606735135969 -0.0255572716136146 0.05211728 0.352719 -0.9342768 103 103 103
0.0602059776037278 -0.0948026148979115 -0.0232064335653288 0.156889 -0.9542902 -0.2543936 24 24 24
-0.0521045732703691 0.08177691411026 -0.00704608721478256 0.1581432 0.9688347 0.1906569 72 72 72
0.082068245980816 -0.0149421821417264 -0.0103761509692416 0.9025674 -0.05078634 -0.4275428 118 118 118
-0.0533044067942359 -0.0619170002679863 -0.00236917354913146 -0.8698829 -0.4928978 0.01885458 47 47 47
-0.0312346698667905 -0.100828230639461 0.0192100546830374 -0.8702754 -0.4911195 0.03771438 39 39 39
0.06824192967847 -0.0510403609514118 -0.0274766084630684 -0.008319797 0.001355913 -0.9999645 125 125 125
-0.0510299179616631 0.0341706319833699 -0.026026754340816 -0.007124764 -0.009685798 -0.9999277 231 231 231
-0.0763854173172729 -0.0201063470307417 0.00406138959049174 -0.8756167 -0.482691 0.01745718 45 45 45
0.0859000632270865 -0.04826651382221 0.0141253455745586 0.9828984 -0.0619971 -0.1733989 32 32 32
0.0818522196433802 -0.0862190258075164 0.00298960297824477 0.9892151 -0.09424709 -0.1121204 31 31 31
0.0961834717200891 0.0349549197748416 0.0166894719469224 0.9473459 0.008680878 -0.3200944 133 133 133
-0.0444730319380997 0.0794696060711582 -0.00337251065428371 0.2066548 0.9682009 0.1409991 39 39 39
-0.0176754912648018 -0.0448490277384406 -0.0263270926295024 -0.01480424 0.001198781 -0.9998897 233 233 233
0.0383716498330182 -0.0972765004292853 -0.0271030766404496 0.06596854 -0.2969497 -0.9526117 68 68 68
0.0829583327889913 -0.0250895152744832 -0.00520776954287885 0.9557562 -0.1461267 -0.255298 97 97 97
-0.0731148394714349 0.0308336150121453 -0.0256315286215394 -0.01503471 0.005596132 -0.9998713 87 87 87
0.061167386736714 -0.0406423144040802 -0.0272227976898053 -0.01600271 -0.001637349 -0.9998706 165 165 165
0.0876988959125915 0.0710205341769323 0.0135987290515464 0.237625 0.9711826 0.0184009 60 60 60
0.0432486827019354 -0.0963542772311634 0.00128602512605025 0.1776336 -0.9545811 0.2392094 27 27 27
0.0678063931869248 -0.0187041903486018 -0.0273839243318551 -0.013235 0.007515979 -0.9998842 157 157 157
-0.0956897320213626 0.0844717142541749 0.0186331360155618 -0.03326237 0.8479655 -0.5290068 93 93 93
0.0957744944642316 0.0681893983874016 4.13600591058216E-05 0.872138 0.4892598 -0.0003710245 83 83 83
0.00341547452881463 0.0776768164999857 -0.0123273124532233 0.05995482 0.9788347 0.1956733 88 88 88
-0.053404909393886 -0.0424374679762134 -0.0258676881790775 -0.02246853 0.01342923 -0.9996573 90 90 90
0.0419664534643018 0.000511363888483718 -0.0270110289668538 -0.02267607 0.002584683 -0.9997395 124 124 124
-0.00976625959410149 0.0414459546636061 -0.0264235002844057 -0.01973906 -0.001320719 -0.9998043 131 131 131
-0.0973489341781855 0.0230909154867311 -0.00128031715768262 -0.8616944 -0.2153547 -0.4594618 78 78 78
0.01403745104989 -0.0772501147060132 -0.0267032459439886 -0.01556 -0.0021283 -0.9998767 216 216 216
-0.0245729912976695 -0.114549250365866 -0.0178198544096381 -0.8778576 -0.4787232 0.01378788 66 66 66
0.0393873993658935 0.0703069295278429 -0.0150608706835105 -0.04431545 0.9959844 -0.07778921 77 77 77
0.00395721354534451 0.019893023557974 -0.0265895467000314 -0.01714721 0.002268542 -0.9998504 103 103 103
0.0120311007096676 -0.110392849480824 -0.0229176723959549 0.4491559 -0.852598 -0.2670873 61 61 61
-0.054122547798594 -0.0605912425169337 -0.0113776575317414 -0.875592 -0.4829654 0.009115541 40 40 40
0.00774341957160263 -0.0206019222865339 -0.0264199577948583 -0.01110629 0.008248977 -0.9999043 236 236 236
-0.05596155540991 -0.00737626433824423 -0.0258847016381167 -0.006781762 -0.003942062 -0.9999692 100 100 100
-0.00898238436312915 -0.0177710287095012 -0.0264872648489635 -0.01683764 0.002113721 -0.999856 234 234 234
-0.0158462964380868 -0.00374364310782327 -0.0263481730765686 -0.0192488 -0.002353343 -0.9998119 94 94 94
0.0591563120182421 0.0703921425257907 0.00418921237833325 -0.05479231 0.9477302 0.3143331 103 103 103
-0.0170165695810036 0.0135063069441295 -0.0262713029707923 -0.01597935 -0.006345856 -0.9998522 110 110 110
-0.0527654623940379 0.0831168763482051 -0.0148297804091607 0.2593169 0.959065 0.1137946 60 60 60
0.0822083428173721 -0.0761739911243207 0.00746353819600537 0.9776064 -0.02780253 -0.2085973 50 50 50
0.0141654074640802 -0.000161532750213134 -0.0266779318462158 -0.01778672 0.004854199 -0.99983 109 109 109
0.0848969383122025 0.0702831135409654 -0.0244780323281655 -0.06127181 0.909919 -0.4102356 57 57 57
-0.0718853754934039 -0.028308086450002 0.0114694208422832 -0.8730002 -0.4874777 0.01536368 63 63 63
0.0710764750728181 0.0677061095031632 0.0141463605485625 -0.1507852 0.9756346 0.1593766 54 54 54
0.019546516136941 -0.00108039286227668 -0.026828224826849 -0.01745145 -0.0002545299 -0.9998477 222 222 222
-0.102262139475774 0.080961347829867 0.00768102173637483 0.1183034 0.9828689 0.1413262 66 66 66
0.0496736064897205 0.0163025486078301 -0.0271261404734277 -0.01764418 0.007043414 -0.9998195 180 180 180
-0.0252607470551516 0.0728047888369516 -0.0261611539019652 0.00829474 0.1355898 -0.9907303 134 134 134
-0.0249164410294616 -0.113647231973245 -0.00571413969276369 -0.8561527 -0.516117 0.02501888 12 12 12
-0.0288436753211954 0.0792876867927954 -0.0198950373112877 0.09727787 0.9952505 0.003657237 78 78 78
0.0155972050753594 -0.100217456689607 0.011348845027904 0.2836152 -0.9210989 0.2667194 24 24 24
-0.00534310373670577 -0.0738997567083814 -0.0264549136964707 -0.006857429 0.005437498 -0.9999617 97 97 97
-0.0875382638175293 -0.000710417321573953 -0.0115140811513065 -0.8808156 -0.4731501 0.01711103 63 63 63
0.0858045350205197 0.0204431741043702 -0.0125727858818098 0.903102 -0.1294825 -0.4094399 129 129 129
0.0247013472543143 0.0231708405820779 -0.0267842663204771 -0.01182991 -0.001984086 -0.9999281 139 139 139
-0.0807638460353928 0.0705889495491339 -0.0253860631302886 0.0008182405 0.0008261449 -0.9999993 109 109 109
0.090869035719358 0.0276174543453671 0.00380133445567213 0.955993 -0.09075881 -0.2789987 70 70 70
-0.0128540228894236 -0.033190798663111 -0.0263958777242208 -0.01238156 -0.0007948189 -0.9999231 111 111 111
-0.0546982604109745 0.0544825946638119 -0.0258756815501048 -0.01563055 0.0001654698 -0.9998778 138 138 138
0.0200565539780708 -0.0635704669182984 -0.0267865845810265 -0.01602795 0.005868196 -0.9998543 136 136 136
0.00536369202922948 -0.111930541789335 -0.0268317755696095 0.1254255 -0.3781319 -0.9172157 89 89 89
-0.0280742889838037 0.0368459989232461 -0.0261706073867372 -0.01822561 0.002581284 -0.9998305 176 176 176
-0.09117599051943 0.07936497847214 0.00332493495329581 0.06862752 0.9965992 -0.04561042 77 77 77
-0.0295398665352635 -0.0049951426596746 -0.0262888506957383 -0.009573902 0.003823637 -0.9999468 89 89 89
0.00118016632291007 0.0757611688465072 0.00745850950221436 -0.04099526 0.9898651 0.1359653 92 92 92
0.000840360683293628 -0.0226029053818795 -0.0263687421629737 -0.00975839 0.0011876 -0.9999517 149 149 149
0.0853760205417939 -0.00362700574456354 -0.00796538666635793 0.9122618 -0.1189539 -0.3919545 73 73 73
0.0946343715717712 0.0593805789123527 0.00924068280279769 0.988853 -0.1089326 0.1015062 89 89 89
0.0787304327673981 -0.0405313485625562 -0.0216461792149285 0.990601 0.03974008 -0.1308829 62 62 62
-0.102859315361219 0.0282156667282032 0.00263813785321207 -0.835683 -0.3876862 -0.3890157 85 85 85
-0.0558805578939348 -0.0567531162796475 0.0192616095517831 -0.8802782 -0.4744108 0.006677823 58 58 58
-0.106322991850884 0.0348661498378595 0.0209026620371683 -0.8664876 -0.4983432 0.0292123 78 78 78
-0.0312823337239165 -0.040734559738848 -0.0261720068194558 -0.004945194 0.001240799 -0.999987 111 111 111
-0.0934170154485603 0.0156799911514451 -0.0181984318633882 -0.9633101 -0.1702265 -0.2075008 26 26 26
0.0894908270296344 0.0132517570066695 0.00236958310041016 0.9817367 -0.08823545 -0.1685456 31 31 31
-0.0895165625267786 0.0147291407432739 -0.025312320701111 -0.1779283 0.005743329 -0.9840267 106 106 106
-0.0432398367552613 -0.00578775411745869 -0.0260284053085514 -0.01096283 -0.00416722 -0.9999312 222 222 222
-0.00884022272498752 -0.0922497810063307 -0.0263726740091303 -0.01027986 -0.0001860074 -0.9999471 110 110 110
-0.064850739289898 -0.0413168261367576 -0.000648325132251354 -0.8749739 -0.4832136 0.03041959 48 48 48
0.034257952326632 0.055781624428155 -0.0268382377683785 -0.01110783 -0.003585018 -0.9999319 146 146 146
0.013010397665534 -0.101398897331453 0.0114878279333612 0.2940382 -0.9115765 0.2873496 20 20 20
-0.00481604402120217 0.0779782563495968 -0.026051164136133 -0.2414756 0.8585809 -0.4522481 81 81 81
-0.0965031060788748 0.0833518542682925 -0.0139255705630117 0.1498047 0.9700679 0.1911199 55 55 55
0.0470303641805858 -0.0951260808025494 0.00184112689671501 0.2105624 -0.9625239 0.1709131 28 28 28
0.0821493458951239 0.0678284221361147 -0.0274887365145743 0.0839699 0.5048971 -0.8590856 159 159 159
-0.0398127951131584 0.0762571604732125 -0.0261843461985629 0.04403939 0.1807778 -0.9825375 131 131 131
-0.0996324207932806 0.0224042608829675 0.00605807758159679 -0.8768166 -0.4806762 0.01196089 68 68 68
-0.0127006866961796 -0.0839381238113766 -0.0264673745176955 -0.005958681 -0.00405135 -0.999974 91 91 91
-0.0842634139193734 -0.00628797434696016 -0.0186511960312316 -0.8825732 -0.464642 -0.07191937 55 55 55
0.0387072368237671 -0.0207772575496989 -0.0269663917862329 -0.009415357 -0.00778116 -0.9999254 238 238 238
0.0151300698672452 0.0743815593961785 -0.012926933016977 0.3024424 0.936209 0.1790009 85 85 85
-0.0910003787257183 0.0809821652070299 0.0150260281344817 -0.08042906 0.8577208 -0.5077856 64 64 64
0.0231586518067983 0.0679508501983976 -0.0265104707106333 -0.008758827 0.1765472 -0.9842532 161 161 161
-0.0402830240730847 -0.0525026061406695 -0.0258729829359323 -0.01161247 -0.002641432 -0.9999291 115 115 115
0.0389616015212597 0.068929609113848 0.00495105181406 -0.01308127 0.9955161 0.09368377 79 79 79
0.0202706811060727 -0.0992803261237927 0.0116048469379306 0.2440544 -0.9392125 0.2414899 39 39 39
0.0101479676254952 -0.104290044760125 0.00446517198930801 0.4481379 -0.8503601 0.27579 84 84 84
-0.0560867206318012 0.0811623848971212 0.00707219861406247 0.1416612 0.9888926 0.04498376 57 57 57
0.0828541279013351 0.00163984498403824 -0.0144456898517745 0.9246297 -0.1034662 -0.366544 107 107 107
0.0414073781872697 -0.0943178801934363 0.0144877281463102 0.1858899 -0.9808532 0.0580688 20 20 20
0.0398046110217458 -0.0871498105581403 -0.0271073899072604 -0.00926326 -0.004071178 -0.9999488 112 112 112
0.0784337857311121 0.072853256250051 0.0137762774851794 -0.4775921 0.8287244 -0.291756 50 50 50
-0.0126130749605651 -0.00470765538841955 -0.0264704597039259 -0.02080301 0.01351485 -0.9996923 212 212 212
-0.00592329874058728 0.0739346879956551 0.00585088556089564 -0.1208728 0.9368868 0.3280744 96 96 96
0.035887832262274 -0.063609238783902 -0.0269732562549464 -0.01556876 0.000682647 -0.9998786 104 104 104
-0.0413770800268298 0.0799494452868044 -0.00978848504391655 0.2079902 0.9769726 0.04758721 81 81 81
-0.0637152461629458 -0.0436049995597463 -0.00692890809863972 -0.8681649 -0.4962241 0.007167092 49 49 49
0.0361924100369042 0.0375658812528743 -0.0270017351721655 -0.006407661 0.0009839088 -0.999979 152 152 152
0.0645935692630846 -0.036971825888541 -0.0272538590689797 -0.006139271 0.001012324 -0.9999806 160 160 160
-0.117499648980347 0.0621825811467782 0.00516372150917549 -0.9611136 -0.2708674 -0.05377313 7 7 7
-0.0239032682640092 -0.0114088823243941 -0.0262272411939386 -0.01028887 0.001098057 -0.9999465 100 100 100
-0.077773705150266 0.00565877269808035 -0.0256709414347303 -0.01631277 0.006131181 -0.9998481 114 114 114
-0.0790016217701648 0.0390872118493477 -0.0254989934090814 -0.01404732 -0.003551851 -0.999895 83 83 83
0.0159290646119585 -0.0839821621576478 -0.0268836628922492 -0.01987109 0.008807082 -0.9997638 112 112 112
-0.0482791001331146 0.054355206659388 -0.0257874168477064 -0.01313488 0.001313949 -0.9999129 151 151 151
-0.0294745375281693 -0.10578290071855 -0.0213431018469444 -0.8933332 -0.4422913 -0.07958731 58 58 58
-0.00383342922540297 -0.114791062158752 -0.0216828504297003 0.2670309 -0.9323935 -0.2435918 56 56 56
0.00552732631738451 0.00426702034394566 -0.0265083605805182 -0.006391899 -0.00544814 -0.9999647 124 124 124
-0.0735998673908109 -0.0247841134526137 0.00177733344000289 -0.8732013 -0.4868867 0.02147051 35 35 35
0.016810776330078 0.0662207346781289 -0.0266995598304784 -0.01473524 0.006257728 -0.9998719 113 113 113
-0.00754107481644306 0.0766486244989106 -0.0163071459170304 -0.07496925 0.9937779 0.08237138 74 74 74
0.0880835659634547 0.034101806839282 -0.00601623294156445 0.9704927 -0.1413349 -0.1953674 86 86 86
0.0358905395863962 0.0705828078996575 -0.0230263577411773 0.02583991 0.9868872 -0.1593297 107 107 107
-0.0255313896295271 -0.0562864304421822 -0.0263323326532212 -0.01540679 0.005816058 -0.9998644 93 93 93
-0.0705341801217836 0.0829596070498071 -0.00670851089562705 -0.3149433 0.938291 0.1429009 72 72 72
-0.0870907229983156 0.079460642849007 0.00525745764120894 0.02825286 0.992732 -0.1169824 104 104 104
0.0277078200143266 -0.105298932333826 -0.0177223032758577 0.2699098 -0.9577796 0.09903023 43 43 43
0.0183569038180049 0.071051502958368 0.000861530036535191 0.2042614 0.9674019 0.1497027 96 96 96
0.0243794768369805 -0.0415845366659957 -0.0266799532688588 -0.005767275 0.008650469 -0.9999459 137 137 137
0.0280054619356369 -0.1045314559944 -0.0092407272493164 0.2302338 -0.9447016 0.2335195 25 25 25
0.0321957592034103 0.0716105178851687 -0.01124835591045 0.02247492 0.9993097 0.02958126 90 90 90
0.0275835334716521 0.0319510078222789 -0.0268948754901584 -0.01392764 0.0009369365 -0.9999025 120 120 120
-0.11080879351182 0.081781241127207 0.0163482836594749 0.01602868 0.9490657 -0.3146701 78 78 78
0.0820408288919141 -0.0760571424586032 0.00518617194293058 0.9817096 -0.01908311 -0.1894256 66 66 66
0.0843441043618751 -0.0337196553636026 0.0111805326416605 0.9382314 0.04429097 -0.343162 101 101 101
0.0851484320897322 0.0721240316417568 0.00574878411363003 0.09859266 0.9938983 -0.04945357 53 53 53
-0.0286131920853472 0.0781338626363519 -0.00922128546265957 0.1858565 0.9772233 0.1024304 57 57 57
0.0811649623368016 -0.0550909330438409 -0.00429695528975935 0.987466 -0.02394363 -0.1560052 109 109 109
0.0189744464358506 -0.103838291169194 -0.00119877612905134 0.2037965 -0.91088 0.358838 33 33 33
0.0182996979593339 0.075321216410305 -0.0249167357958157 0.2012926 0.9602628 -0.1933302 178 178 178
0.00670812613289384 -0.0176272823074344 -0.0263639866846526 -0.008780453 -0.004623573 -0.9999508 97 97 97
-0.0662421359699727 0.0524550611321137 -0.0256894515501094 -0.007586624 0.003522296 -0.999965 108 108 108
-0.0763069229897597 0.0209987077725522 -0.0254895681006768 -0.01111414 0.01787175 -0.9997785 88 88 88
-0.105974761607786 0.0332288621795478 0.00595735901337138 -0.8674631 -0.4949975 -0.04985231 67 67 67
-0.0698544050930689 -0.0321619903508996 -0.00376724691728561 -0.8773225 -0.4796928 0.01414364 36 36 36
-0.051048490601777 0.0828242197806766 -0.0248640016831826 0.2145071 0.8101541 -0.5455612 142 142 142
-0.0182411644714486 -0.0603984189562792 -0.0263781182167964 -0.005374026 0.008459766 -0.9999498 86 86 86
0.0520523142054732 -0.0428394880015466 -0.0271237531883011 -0.01170634 0.001816668 -0.9999298 141 141 141
-0.114411933495606 0.0684979369078704 -0.013296784517629 -0.9357573 -0.347599 -0.05944086 31 31 31
0.0620025674690197 0.0594863020852561 -0.0271053355173255 -0.005454462 -0.0004547013 -0.999985 167 167 167
-0.0329423687023738 -0.0664491616644871 -0.026329138872956 -0.001465042 -0.00911507 -0.9999574 90 90 90
0.0880709864012805 0.0196344516530471 -0.00559875730868806 0.9788462 -0.03819912 -0.2009998 48 48 48
-0.0384682950431583 -0.0459307928464738 -0.0260686286766752 -0.01761918 0.001675874 -0.9998434 109 109 109
0.0585835524318166 -0.0442083901330053 -0.0272736125225653 -0.006643515 0.007167744 -0.9999523 168 168 168
-0.0268094388946196 0.0788563647876643 -0.0198728519145613 0.1639631 0.9862458 0.02086561 105 105 105
0.013240135502623 0.0717595353529976 0.00729698831830397 0.2991335 0.9538907 0.02473222 72 72 72
0.0872462007862269 0.0300805173714436 -0.00875299551468739 0.9807096 -0.07587416 -0.1801442 44 44 44
-0.0791632802730493 0.0424846389225486 -0.0257272797782856 -0.01645663 -0.001432276 -0.9998636 96 96 96
-0.033231528076255 0.0525108794847835 -0.0260201050379402 -0.01368521 -0.0004447193 -0.9999062 122 122 122
-0.000232020698759161 -0.030562561537119 -0.0264934303950275 -0.01717274 0.002145883 -0.9998502 116 116 116
-0.0288024979194039 -0.107126911809123 -0.012854215739635 -0.8761731 -0.4818189 0.01308522 65 65 65
0.00615752565028393 0.0778308743254044 -0.0265990844392132 0.1257178 0.5682738 -0.8131789 115 115 115
-0.0365811508368064 0.0773879542671099 0.00653291257244293 0.1339141 0.9676307 0.2139108 94 94 94
0.0816402362418422 0.00629047679865913 -0.0236762226474824 0.9784846 0.05705477 -0.1982743 115 115 115
-0.0337508658647223 -0.0970101168985302 0.00681524969599584 -0.8753659 -0.4833193 0.01170425 28 28 28
0.027054949260531 -0.0970252626307562 0.00980214603426396 0.2414387 -0.9501459 0.1973073 38 38 38
-0.0572153867856495 -0.0549593865480922 -0.00166303842297696 -0.8814559 -0.4718262 0.02038532 59 59 59
-0.0387351980571162 -0.0654565221710939 -0.0261557320808485 -0.02187189 -0.003951153 -0.999753 76 76 76
-0.0559438474644616 -0.00607238341684369 -0.0259006762998645 -0.004088997 0.0006527683 -0.9999914 100 100 100
-0.0168290789996279 -0.0791803316492214 -0.026496048642926 -0.01570938 0.003868124 -0.9998691 101 101 101
0.0572695141391266 -0.0031144160062917 -0.0272406810196391 -0.006879928 -0.001345619 -0.9999754 164 164 164
-0.051914948444638 -0.0638033292531714 0.0129266299740523 -0.8730495 -0.4874444 0.01350988 43 43 43
0.0545930940611692 0.0700559091702173 -0.0239038608520895 -0.04753569 0.9579341 -0.2830238 64 64 64
-0.0401353803091733 -0.086220845040152 -0.0228567201848252 -0.8163856 -0.4818744 -0.3182949 71 71 71
0.0806471457713394 -0.0629256457445746 -0.0126387586997717 0.9962426 -0.0573292 -0.06491467 48 48 48
0.0867093255471041 0.0573621007338168 -0.0275541842439628 0.5000602 -0.1455009 -0.8536798 163 163 163
-0.00825018331135907 -0.0935797927309265 -0.0263935275003108 -0.01104285 0.006918943 -0.9999151 96 96 96
-0.0592243159459684 -0.0443781052627152 -0.0259504101568383 -0.1227097 -0.05973433 -0.9906433 80 80 80
-0.0986838790650604 0.0804189801549542 0.0104494177997905 0.05200841 0.9978506 -0.03986572 88 88 88
-0.00450968277921393 -0.0340488091488473 -0.0264695203566221 -0.008115844 0.0006652339 -0.9999669 205 205 205
0.0805690432975217 -0.00584611330433371 -0.0154648876999769 0.9367965 -0.1644134 -0.3088375 105 105 105
0.0448886403090671 -0.0145196463352213 -0.0269892461515225 -0.005069818 0.0005019482 -0.999987 131 131 131
0.071407459443775 0.0697080325710795 0.0075475486891616 -0.04436301 0.9317918 0.360272 73 73 73
0.0277233481899779 0.0720435873167762 -0.0215274837973596 0.2958035 0.9481058 0.1166009 84 84 84
0.00573021625100534 -0.113696561159578 -0.0197213951095456 0.3141487 -0.947107 0.06556609 28 28 28
0.0218180413787923 0.072892268792208 -0.0157931555458554 0.2387855 0.9549485 0.1762236 106 106 106
0.0409964986761868 0.00900609372424155 -0.0268541938985209 -0.014678 -0.001397421 -0.9998913 149 149 149
-0.0594200109357357 0.0291374737612113 -0.0257813714475459 -0.02017006 0.0005386972 -0.9997964 115 115 115
0.0785812498526257 -0.0519237518214919 -0.0244334037607151 0.9176989 0.04009506 -0.3952483 112 112 112
-0.0571080275432378 -0.0556579046816374 -0.0154055713911152 -0.876457 -0.4810469 0.02041916 46 46 46
0.08520204092921 -0.00736121413708757 -0.00656455004009171 0.8886669 -0.1758727 -0.4234855 71 71 71
-0.0306328243598402 0.00163180827735077 -0.0261971624454658 -0.01154987 -0.006770352 -0.9999104 105 105 105
0.0509590059684142 0.0708691136041515 -0.0189490941973183 0.07390032 0.9922562 -0.09983124 87 87 87
0.0285357262396426 0.070627930503752 -0.017226065921541 0.2412536 0.9704449 -0.005772016 53 53 53
-0.0985136600650867 0.0205612758006015 0.0101085196977294 -0.8678398 -0.4963569 0.02199969 86 86 86
0.0801346059806924 0.0696568351807865 -0.0117827147659515 -0.04754103 0.9964303 -0.06975969 64 64 64
-0.039213186509357 0.0369559147339722 -0.025821742068607 0.0005359468 0.002507947 -0.9999967 116 116 116
0.00131908032884631 0.0785260396004079 -0.0209093355886223 -0.2129249 0.9657704 0.1481573 63 63 63
0.0288559709672664 0.0298944369234222 -0.0268552594103212 -0.005103352 -0.006572268 -0.9999654 108 108 108
0.0574473002099036 -0.0814650090827025 -0.027290669820232 -0.005262365 0.001522808 -0.999985 71 71 71
0.0818906542595004 0.0243164744256634 -0.023366484753591 0.9413552 -0.07513002 -0.3289464 69 69 69
-0.0319649932133959 -0.0614452764302111 -0.0262007771376361 -0.005099678 0.003906044 -0.9999794 87 87 87
-0.0197013645712314 -0.0248633330256185 -0.0266511359231956 -0.01116859 6.575372E-05 -0.9999377 157 157 157
-0.0112583715742367 -0.0699517278443562 -0.0265914773364603 -0.01108436 0.007681917 -0.999909 96 96 96
0.0578005184802823 -0.0949798283314243 -0.00482883013026045 0.1574759 -0.9814618 0.1092429 38 38 38
-0.0927602865555985 0.0803377571606034 0.0115602090672623 -0.0160403 0.9835494 -0.1799262 84 84 84
-0.0639820219238321 0.0739852867296 -0.0257424525874321 -0.01534991 -0.006019796 -0.999864 122 122 122
0.0500052064093992 -0.096808034443822 -0.0137113236944447 0.1846818 -0.98202 0.03910729 41 41 41
-0.0932110600051557 0.0810981946461924 -0.0064524935524887 0.1914871 0.9685133 0.1591059 77 77 77
0.0810588093647109 -0.0835859898878069 -0.00891642274354965 0.9923577 0.1219005 -0.01914418 46 46 46
0.0817802460497865 -0.0622763358152072 -0.00304530034652503 0.9746164 -0.02140431 -0.2228559 106 106 106
0.0747092335676602 0.0370865705093941 -0.02732026004348 -0.009287968 -0.009331209 -0.9999133 128 128 128
-0.0747132160443393 -0.0235589157626943 0.00693838807769476 -0.8772294 -0.4800501 0.00452046 54 54 54
0.0528471973666826 -0.0916137815942333 0.015165652619287 0.1093191 -0.9704024 0.2153337 26 26 26
0.0845272404884694 -0.079647076783228 0.0166456436169336 0.9685747 -0.02057353 -0.2478705 106 106 106
-0.0251843071941447 -0.0544885384528737 -0.0263594457206326 -0.01220578 0.006769251 -0.9999026 93 93 93
-0.0163268960402654 -0.0932413455176604 -0.0264550551794221 -0.01341955 0.0002437604 -0.9999099 113 113 113
-0.0143376567399867 -0.0507647931393349 -0.0264060662295806 -0.008917321 -0.007010215 -0.9999357 78 78 78
-0.0139150532731918 -0.0267203992917948 -0.0264474204923784 -0.01343968 0.007245251 -0.9998834 106 106 106
-0.040780011976927 -0.0847051022707896 -0.00624474222102098 -0.8773481 -0.4797161 0.01152017 31 31 31
0.0832427718398445 -0.0482006347636263 0.00322620905718121 0.9486814 -0.02328418 -0.3153751 109 109 109
-0.0311390213959661 -0.101922640199629 -0.00541974299300191 -0.8729188 -0.4875999 0.01609195 24 24 24
0.0527500729783257 -0.000285540551016483 -0.0272699300240543 -0.002774135 0.001463473 -0.9999951 128 128 128
0.0341868026447534 0.0703083280889372 -0.02493259476597 0.09668355 0.8767083 -0.4712058 115 115 115
-0.0621985819995921 -0.045969255642117 -0.00681841327908944 -0.8744276 -0.4849645 0.01363215 37 37 37
-0.0843856997506041 0.00208621867373981 -0.0254605167434852 -0.1180959 -0.03864377 -0.99225 114 114 114
0.083132249914895 -0.0295790517087722 0.00419201463574589 0.9363819 -0.2965546 -0.1877348 79 79 79
-0.0471995979323669 -0.0605521310857136 -0.0259352457697992 -0.03089819 -0.01012228 -0.9994713 82 82 82
-0.104811349330835 0.085574847634055 -0.0197261355932115 0.2484542 0.9502717 0.1877609 64 64 64
-0.0189573720453784 0.0137766235839814 -0.0262751309158726 -0.01299428 0.00507338 -0.9999027 112 112 112
-0.00489637378919827 -0.10056181092603 -0.0266183532165069 -0.01239622 -0.003628331 -0.9999166 97 97 97
0.0949035532440217 0.0406742151248374 0.0147684934370391 0.974179 0.1152043 -0.1941732 150 150 150
0.0908493820636869 0.00308900440458704 0.0172274772379799 0.9793169 -0.09773567 -0.177161 32 32 32
-0.0481386256811136 -0.0572922088192629 -0.0260439507455884 -0.01218292 9.83991E-05 -0.9999258 71 71 71
0.0520659029158155 0.055889304134126 -0.0270944610559107 -0.0114597 0.001104711 -0.9999337 164 164 164
-0.112817739281485 0.0816839090675487 0.00801328906609755 -0.09454286 0.9868857 0.1308371 64 64 64
0.042310269880701 -0.0936521329359441 0.0155605598209396 0.1455851 -0.9872186 0.06484089 21 21 21
0.0120551720186368 -0.0879238800845983 -0.026786220273995 -0.01883653 0.006758074 -0.9997997 96 96 96
0.0589540229529963 -0.0486689470531216 -0.0272904200882869 -0.01005672 0.0008907504 -0.999949 145 145 145
0.0175503071669691 0.070513857387251 0.00523952932884555 0.2192829 0.9756387 0.006634355 94 94 94
-0.0850211239733989 -0.00574389380568086 -0.00900927439021235 -0.8777842 -0.4790072 0.006854261 48 48 48
0.0832088045740775 -0.0513905313456469 0.00234793897152513 0.960199 0.02843217 -0.2778659 56 56 56
-0.0304509143081142 -0.0814059208691424 -0.0262183490753389 -0.01827975 -0.001607801 -0.9998316 85 85 85
0.0802806106326834 -0.0551132549586577 -0.0160057909128377 0.9936005 0.02100014 -0.1109815 72 72 72
-0.0267377157531059 0.0783331274690071 -0.024176332793698 0.1255691 0.9477298 -0.293327 171 171 171
0.0914527090175297 0.070213320438425 0.0118907374910462 0.4403043 0.8973479 0.02998142 64 64 64
-0.0111323014642599 0.0590138587352438 -0.026388119833658 -0.01096484 0.003154051 -0.9999349 128 128 128
0.0721088366228329 -0.0942649932309052 -0.0212450568353225 -0.08084786 -0.9701508 -0.2286287 49 49 49
-0.0858514491135274 0.0697937004859721 -0.0255015667911604 -0.0146924 -0.003118933 -0.9998872 133 133 133
0.0799114679233246 -0.0769437010340694 -0.0168400291081416 0.9941394 0.1068288 -0.01656723 91 91 91
-0.108769009817908 0.0840061385275415 -0.0059040356986558 0.08477609 0.9853127 0.1482293 63 63 63
-0.0761589552784048 0.0820281109432295 0.0172977951842091 -0.04677207 0.9672559 0.2494563 62 62 62
-0.0819563184469116 0.0171407389983811 -0.0256694889992775 -0.01384376 -0.005594801 -0.9998885 146 146 146
-0.0702521502332529 0.0367351043218838 -0.0257084012666547 -0.01199399 -0.003321472 -0.9999226 130 130 130
0.00431946658485871 -0.045103500978882 -0.0265335027469532 0.005802176 0.0001058637 -0.9999831 91 91 91
-0.0709991273328838 -0.0302098369564996 -0.0165878977963637 -0.8792534 -0.4763356 0.004208899 41 41 41
-0.00168763652533199 -0.0916003846584423 -0.0267155422050428 -0.02150743 0.0130009 -0.9996842 118 118 118
0.0794238221205481 -0.00484431924605655 -0.0207114539194009 0.9564012 -0.1805519 -0.2295599 107 107 107
-0.109201114375709 0.0612819306081154 -0.0124769132401264 -0.8554216 -0.517441 -0.02255384 25 25 25
-0.0294760656935065 0.0784496889757005 -0.0076824615966293 0.1675513 0.979338 0.1132412 44 44 44
0.0676774550066968 0.0136400693074563 -0.0272369163245189 -0.009522388 0.001311288 -0.9999538 154 154 154
-0.0506771632133669 -0.0662182834288896 0.00397604746037825 -0.8742595 -0.485223 0.01513148 37 37 37
0.0168392404402318 0.0751106863615845 -0.0263958026288942 0.07909837 0.6265258 -0.7753766 200 200 200
0.0791117975034068 -0.0528060191439099 -0.0224079203667256 0.9608223 0.0954832 -0.260199 82 82 82
0.0814775152535656 -0.0694408919717824 -0.000223279052790265 0.9888031 -0.09240679 -0.1171722 96 96 96
-0.0721412325842503 0.0589769035345704 -0.0255431245220079 -0.01101709 -0.002923655 -0.999935 124 124 124
0.0110816350449765 0.0721590458006096 0.00930182575136523 0.2920126 0.954976 0.05243558 83 83 83
0.0696915143038799 -0.0914962196652505 0.0116279525248742 0.1007301 -0.9575788 0.269993 40 40 40
0.0891911895451794 0.0631832205458029 -0.0262708294118527 0.7640374 -0.1263814 -0.6326726 69 69 69
-0.0468257917551789 0.00694165055455831 -0.0260044725405164 5.725272E-05 0.001138619 -0.9999993 141 141 141
-0.0272509120072371 0.0781433977443251 -0.025446900088525 0.08205257 0.7893956 -0.6083765 155 155 155
-0.0331201329428432 -0.0976106534058219 0.0185640147872456 -0.8733493 -0.4863457 0.02699697 51 51 51
-0.120155551603492 0.0725892680986695 0.0113576847770106 -0.9603804 -0.1825618 -0.2105722 46 46 46
0.0520166072713664 -0.0801953792604035 -0.0273038441776289 -0.01277945 0.002934975 -0.9999141 144 144 144
-0.10186740353566 0.0264318570406394 0.0101804300112601 -0.8727337 -0.4878442 0.01854448 86 86 86
-0.0656522715669461 -0.0242401614306091 -0.0256664347801655 -0.01897069 -0.00562505 -0.9998042 90 90 90
-0.0326789999750035 0.074845544034257 0.0140338703451439 0.02229697 0.8798662 0.474698 93 93 93
-0.0804528182918394 0.0819897393729818 0.016623640944195 0.02856062 0.9857533 0.165755 63 63 63
-0.0271811008761229 -0.108359297457611 0.0143844021854861 -0.7768396 -0.6273655 0.0541545 23 23 23
0.0413654534907884 0.0673701057930856 0.0166060962661825 0.05894997 0.9799872 0.1901315 70 70 70
0.0646733327471514 0.0618612529479066 -0.0270026690998912 -0.01026229 -0.006532483 -0.999926 114 114 114
0.0806574850960475 0.00403017084372448 -0.0263496811262567 0.8371342 -0.1247147 -0.5325904 122 122 122
-0.00826588732464906 -0.000639904081690235 -0.0263619626298762 -0.00688662 0.002177286 -0.9999739 248 248 248
-0.0571791817029923 -0.0192789578913659 -0.0258614235622448 -0.01132632 0.004730358 -0.9999247 91 91 91
-0.0101543484990234 -0.0312202228885639 -0.0263956517847093 -0.01122873 0.007672705 -0.9999075 90 90 90
-0.00107295878821545 -0.110681724630264 -0.00107259801231255 0.2022498 -0.9357536 0.2888948 37 37 37
-0.053579818635608 -0.0611530936270734 0.00593577597413417 -0.876553 -0.4812045 0.009851262 34 34 34
-0.033201065410682 -0.0205593767095675 -0.0261089022914572 -0.01259339 -0.001510792 -0.9999195 106 106 106
0.082806642364093 -0.027401750563252 -0.00337133246250565 0.9530024 -0.2586418 -0.1577684 92 92 92
0.082284786246448 -0.0680198000484138 0.00364637289881742 0.9732521 -0.1395025 -0.1825362 95 95 95
0.0261300977656764 -0.0835013333731442 -0.0269713195554025 -0.009783231 0.01601107 -0.9998239 98 98 98
0.0356233450986148 0.011807131186089 -0.0269782670747331 -0.00424756 -0.002727477 -0.9999872 128 128 128
0.000686518412349457 0.0641377500793121 -0.0264603351464926 -0.009146354 -0.002605386 -0.9999548 112 112 112
0.0756940727958753 -0.0399703161584419 -0.0274260269163351 0.4488676 -0.03212485 -0.8930206 168 168 168
-0.0574750924665752 -0.0554473141747855 -0.0224153671081748 -0.8551797 -0.4383546 -0.2766097 61 61 61
0.064582296701073 0.0662320624753037 0.0177004354671386 -0.1176951 0.9740514 0.1933175 61 61 61
-0.0618180622589526 0.0825293356495576 -0.00289100868590966 0.2533796 0.9370981 0.2400956 62 62 62
-0.0234834190432347 -0.0557455750087386 -0.0262383634393095 9.973756E-05 0.006918727 -0.999976 95 95 95
-0.0946261271669362 0.0122898322260983 0.00951452663744773 -0.8737721 -0.4861134 0.01469813 55 55 55
-0.0729087058531597 0.000729942809912343 -0.0256533000150545 -0.01356273 0.008039418 -0.9998757 81 81 81
-0.0360861354594613 -0.078192142268688 -0.026082810153832 -0.009632282 -0.008310112 -0.9999191 93 93 93
0.0798320476807608 -0.0672804725722931 -0.0185007065735595 0.9952877 -0.02797656 -0.09284309 98 98 98
0.0887578084540808 0.0595840393570732 -0.0263891862274063 0.801106 -0.1616121 -0.5762904 78 78 78
-0.0344984810044981 -0.046401953095621 -0.0260036986783584 -0.01946395 -0.002191507 -0.9998081 108 108 108
-0.076721560528914 0.0815719184475268 0.00679144420753205 -0.2650336 0.9099266 -0.3190467 108 108 108
-0.0440863413510388 -0.0794461900139138 -0.0226102379635916 -0.8621659 -0.4474554 -0.2375997 66 66 66
0.0226455606654168 0.00914643313820762 -0.02670947577386 -0.01324382 0.003775469 -0.9999052 97 97 97
0.0717449342677301 0.0732654312759069 -0.000222602679153888 0.2336524 0.9609772 0.1480857 93 93 93
0.0840822684878082 0.0717028776052955 0.013096351385607 0.1883371 0.9808742 -0.04914241 71 71 71
-0.0521585632091834 -0.0646745681157037 -0.0160121608436799 -0.8744378 -0.4849588 0.01317151 77 77 77
0.0742034907245162 -0.0922158448675672 0.000678497198334516 0.1983701 -0.9714391 0.1302132 29 29 29
-0.0564112861399215 0.0823684593787131 -0.00699661616320946 0.1988274 0.9522656 0.2316418 57 57 57
-0.0570600621183008 -0.0558455193201717 -0.0171429477843602 -0.8765519 -0.4808787 0.02031041 46 46 46
-0.0327640035614538 -0.0986207155815968 0.0158062863420653 -0.8723957 -0.4879075 0.0295303 40 40 40
-0.0370191881342037 0.0759798119163277 0.0100180661390433 0.1313055 0.9149714 0.3815576 70 70 70
-0.0520591817673306 -0.0333916055995023 -0.0258950570541941 -0.0109242 0.006847837 -0.9999169 136 136 136
-0.0746323891703766 0.0823281747266147 -0.00886065480583845 -0.1966063 0.9633937 0.1822591 82 82 82
0.0838887399750821 0.0238786808462386 -0.0182684453240242 0.9250674 -0.1183482 -0.3608933 50 50 50
-0.0278329121324981 -0.011671778459883 -0.0262832137486459 -0.01408669 -0.001493304 -0.9998997 93 93 93
0.0548508626111823 -0.0205844367577701 -0.0271072625692154 -0.01332273 0.001471829 -0.9999102 123 123 123
0.0916794115613075 0.0540158522098575 -0.00140688717878884 0.9518753 -0.1739824 -0.2523165 101 101 101
0.0870601295682005 0.00467438664974851 -0.00272763244955923 0.952019 -0.07745899 -0.296074 98 98 98
-0.0518706486406995 -0.0639949384988256 0.0189374547590137 -0.8713174 -0.4906708 0.006940908 57 57 57
0.0522800889920705 -0.0915310924432773 -0.0271828714317631 0.01690241 -0.1628948 -0.9864987 94 94 94
-0.11749550880698 0.0805437276051011 0.0106339231160636 -0.2673594 0.9635796 -0.005770019 54 54 54
-0.0533534189231513 0.0427848906382235 -0.0260528862134284 -0.009002824 0.007883866 -0.9999284 140 140 140
0.0365320508946141 -0.0614630591682557 -0.02690210750507 -0.01640933 0.005217412 -0.9998518 99 99 99
-0.0107598790855763 -0.0499165807781592 -0.0263548620257754 -0.01098411 0.006119639 -0.999921 100 100 100
0.0290913481222514 0.0510889739564884 -0.0268805147942323 -0.01413297 0.01019756 -0.9998481 136 136 136
-0.0254969291675409 0.0128256065769914 -0.0263194933444577 -0.009323608 0.007365198 -0.9999294 118 118 118
-0.0964676299789093 0.02911619167923 -0.00606402021599903 -0.9892775 -0.1273385 -0.07151911 38 38 38
-0.0868566288399639 0.079951585208371 -0.00463050957381053 0.0107157 0.989559 0.1437293 73 73 73
-0.0633402915808174 0.0847156899606736 -0.017589101606537 -0.1771452 0.975864 -0.1277069 106 106 106
-0.0429843714653018 0.0799741645866625 -0.0134625091407141 0.1915117 0.9814178 0.01192683 57 57 57
-0.119213354782582 0.0703573908047792 0.00895057774410959 -0.9481843 -0.3016696 -0.09971022 36 36 36
0.0882281455576668 0.0262355072006091 -0.00382021479731395 0.9664212 -0.03520787 -0.2545395 51 51 51
0.0508566654948102 0.0705168143148382 -0.0173850224389551 0.09544399 0.9860058 -0.1366861 68 68 68
0.0824067579250376 -0.0461639251604335 -0.0013489972237169 0.9605646 -0.05987485 -0.2715339 51 51 51
0.072338874575496 -0.00955568123585504 -0.0272696809529436 0.07086957 -0.003719093 -0.9974787 199 199 199
0.0598839037076662 -0.0357043799712944 -0.0272413756176377 -0.0193451 0.008352957 -0.999778 204 204 204
0.0901957041352595 0.0552711251968114 -0.0163698139034124 0.9389021 -0.2908443 -0.1840444 69 69 69
0.0829658318165005 0.0154865180277726 -0.0163381881233676 0.9042512 -0.1227478 -0.4089776 86 86 86
-0.0597782918615268 0.0778484838101419 -0.0258321088629872 -0.05183368 0.08679835 -0.9948765 99 99 99
-0.0416967213230204 -0.0440809123389223 -0.0259616447806363 -0.01765464 -0.002662374 -0.9998406 104 104 104
0.0807216019641916 -0.059039835568558 -0.0163289975499131 0.9941842 -0.01619983 -0.1064676 97 97 97
0.0515362572637899 -0.080990252021617 -0.0273245217188751 -0.01726722 0.003130014 -0.999846 148 148 148
-0.0749874190805271 0.0831950859635768 -0.0187822632339654 -0.07487695 0.9971902 0.002286956 109 109 109
0.0529708955715933 -0.0848513551550827 -0.0271479367321762 0.001825767 -0.003702908 -0.9999915 133 133 133
0.0835342667104919 0.0400550714803538 -0.0250380465632407 0.7842273 -0.2661058 -0.5605135 72 72 72
-0.0520892072910273 -0.0649484297995673 -0.0235430979649115 -0.7366496 -0.4677623 -0.4884115 96 96 96
0.0870645852982144 0.0707708294868259 -0.021416491640033 0.1744288 0.9818386 -0.07461626 90 90 90
0.0895593771380936 0.0466275169020194 -0.00708874373882543 0.9324906 -0.09917242 -0.3473126 101 101 101
-0.0648746174121793 -0.0411769368747019 0.00289798148355538 -0.8772034 -0.4794053 0.02616712 56 56 56
0.0707786211618939 0.0703495411309767 -0.0254947234888991 0.1804829 0.8413897 -0.5094009 89 89 89
0.0465795621049658 0.07045780490752 -0.0213306313630581 -0.08291859 0.9806808 -0.1771712 77 77 77
0.0434836981866598 -0.0815227147944466 -0.0271931626483797 -0.006627941 0.005803917 -0.9999612 101 101 101
0.0879002750177611 -0.0158565153411447 0.00438774077250328 0.9392503 -0.1132337 -0.3240168 127 127 127
0.0812067764719739 0.0231108664044182 -0.0264375620210684 0.785996 -0.1244619 -0.6055737 103 103 103
-0.0924126907067562 0.0779095426347896 -0.0253990312653627 -0.006911686 0.1044457 -0.9945066 155 155 155
0.0622123058746717 0.0568193417788585 -0.0271678937434832 -0.0009308211 -0.001347889 -0.9999986 147 147 147
-0.0932120280159998 0.0771067856839167 -0.0254359583565681 -0.002265636 0.01785746 -0.999838 152 152 152
-0.0383201545625891 0.0739752927263233 0.0157542287874376 0.1565257 0.9054219 0.3946021 50 50 50
-0.0719161431414386 -0.0287230345469602 -0.0206730062470446 -0.857923 -0.4876502 -0.1617569 59 59 59
-0.0275109046092232 -0.0938265016213946 -0.0262293268297294 -0.01137946 -0.009029661 -0.9998945 87 87 87
0.0047339086488416 0.0748772048721049 0.00151624781192303 0.282952 0.9503495 0.1295146 101 101 101
0.0624892622207962 -0.047251322444088 -0.0273131168133018 -0.01238766 0.007011836 -0.9998987 112 112 112
0.0847985251778589 0.0194592265223354 -0.0142486478831638 0.8926683 -0.141959 -0.4277744 86 86 86
0.0392770955019797 -0.0943743602557956 0.0139994212629731 0.1991025 -0.9782515 0.05815702 50 50 50
-0.0519194091999162 0.0728134327289052 -0.0258010936471894 -0.02157223 -0.005393058 -0.9997528 115 115 115
0.0469298970665828 -0.0917338685703679 0.013261696961421 0.09810384 -0.98874 0.112999 18 18 18
-0.0772064685541631 -0.0194025019576411 -0.020015643386907 -0.872098 -0.4838746 -0.0728733 32 32 32
-0.00282025387371077 0.0760129310351099 -0.00817371741432418 -0.1108405 0.9890651 0.09728602 90 90 90
0.0844562133791718 0.000862503704721185 -0.0103345185047946 0.9324376 -0.05515663 -0.3570965 68 68 68
0.0526892943805022 -0.0956883891102875 -0.00623056233420777 0.1396219 -0.97785 0.1559331 24 24 24
-0.0638201044819673 -0.0435059630510124 -0.0183493253433048 -0.8769366 -0.4802353 0.01887858 58 58 58
-0.0671328091269507 0.0366847225952209 -0.0257423591177184 -0.0168817 -0.004021598 -0.9998494 97 97 97
-0.078319352871016 0.0827684269056368 0.0136348816136088 -0.1334533 0.9871805 0.08754893 81 81 81
-0.0491906540707205 -0.000214576318153359 -0.0259148447413368 -0.01215652 -0.005450112 -0.9999112 218 218 218
-0.0784665249686409 0.0816675259824149 0.00932177916440294 -0.2271706 0.9115779 -0.3426648 107 107 107
0.093621458526169 0.06899258768682 0.0112098692624076 0.7539536 0.6557816 0.03878679 61 61 61
0.0445557511253269 0.0693378065019914 -0.0255840160521489 -0.05364206 0.8249465 -0.5626595 95 95 95
0.0709037341190908 -0.0555003659429074 -0.0274097150700567 -0.008522132 0.002998008 -0.9999592 133 133 133
-0.0787279184847869 -0.00809016971915422 -0.0255803424388601 -0.1187436 -0.1028838 -0.9875803 101 101 101
-0.0396176564052768 -0.0865757726415932 0.0175845603463212 -0.8767791 -0.480887 0.002483811 52 52 52
-0.054884917342007 0.0838100765313248 -0.025404543487482 0.1374954 0.680425 -0.7198033 182 182 182
0.078951135631488 -0.0366020757177494 -0.0238751395778416 0.9477068 -0.0004604317 -0.3191421 90 90 90
-0.0838127212924895 0.0822215292692006 0.0154891523172326 -0.02197428 0.9977304 -0.0636489 61 61 61
-0.0466271561993921 -0.0745174388811332 -0.0206458484584165 -0.8737191 -0.4691226 -0.1286038 77 77 77
0.0470885549655558 0.0677009407678144 0.0124829847590742 0.03872606 0.9660617 0.2553919 75 75 75
-0.0423800329509061 0.0677677384584912 -0.0259811325379845 0.000759071 -0.00176685 -0.9999982 135 135 135
-0.0209187903770367 0.0710594864689624 0.0182605522522271 0.07124435 0.8898352 0.4506856 45 45 45
-0.10191270535333 0.0816015846087976 0.0159672581695637 -0.03094324 0.9169698 -0.3977548 61 61 61
-0.102091098397874 0.0830204754247659 -0.00658691683298868 0.2010527 0.9676898 0.152165 67 67 67
0.0342351725442482 0.0700156021077567 -0.0210787817442181 0.06090432 0.9954328 0.07351328 76 76 76
0.0788360244025059 -0.0260098471444612 -0.0210197605864589 0.9956081 0.09176362 -0.01854672 97 97 97
