ply
format ascii 1.0
comment File exported by Rhinoceros Version 7.0
element vertex 477
property float x
property float y
property float z
property float nx
property float ny
property float nz
property uchar red
property uchar green
property uchar blue
end_header
0.129117021463114 0.0288578122397126 0.0522851113853814 0.7599269 -0.6485679 -0.04325378 111 111 111
-0.035414686300558 -0.0323438793877899 0.0138941471157434 0.07456682 -0.3849126 0.9199359 243 243 243
0.0365722273804723 0.0989800542135895 0.0338811938343408 -0.8282324 0.5574309 -0.05746221 63 63 63
0.05214477529307 0.00563608105379949 0.0437910024700524 -0.02956897 -0.413906 0.9098393 144 144 144
-0.02064894685964 -0.06444038455289 -0.0761084790649054 0.6991765 -0.633664 -0.3310924 115 115 115
-0.0293712521574915 0.0352741330404938 0.0460743670044305 -0.5990689 0.7203463 0.3495964 71 71 71
-0.0376827622435511 0.0389731972952546 0.0194960002479913 -0.5129598 0.8083637 0.2888259 82 82 82
-0.0616581345580042 -0.0255546719292938 0.020409352022207 0.2372661 -0.6298912 0.7395552 97 97 97
0.0562663172699987 -0.0246983916024505 0.0288920466480615 -0.04764919 -0.4349391 0.8991983 72 72 72
-0.0431857014677943 0.0373519509573639 0.014221436220205 -0.5035645 0.8384464 0.2083997 23 23 23
0.0295393561341344 0.0413021891852082 0.0577195052681329 -0.08923683 -0.6097825 0.7875292 242 242 242
-0.0974004174254359 -0.0668683201531707 -0.0393843586864112 -0.8306322 -0.4680479 -0.3016313 82 82 82
-0.00160550127248178 -0.0568596274117767 -0.0562203760566352 0.5299506 -0.6925992 -0.4893452 56 56 56
-0.0601968670866908 -0.00240136687558283 0.0331505302963616 0.1601853 -0.3513976 0.922421 196 196 196
-0.0597629452727259 0.0177607386847199 0.0317576889572503 -0.4346733 0.7934167 0.4260858 81 81 81
-0.0050420666716517 -0.00832666461270441 0.0293715362129571 -0.1338609 -0.4102618 0.9020901 103 103 103
0.0165152644135534 0.055815324141568 0.0700040225563409 -0.5476723 0.09259296 0.8315537 63 63 63
0.000982293985086577 0.0580925791998566 0.0420708720264794 -0.4751564 0.8048647 0.3555548 110 110 110
0.0727408026673376 0.0518970340033234 0.0747305814800622 -0.0208761 -0.3802285 0.9246569 116 116 116
-0.0212767029784144 0.028994902922696 0.0508009259281518 0.003019033 -0.4768444 0.8789825 74 74 74
0.108144292733866 0.0138333886404694 0.00818190618137141 0.7670248 -0.6230262 -0.1533339 56 56 56
-0.0932750607512415 -0.0326026827554046 0.023803955751455 0.2490635 -0.2883688 0.9245598 139 139 139
-0.00612663278798471 0.0575597136755646 0.0331505302963616 -0.4836184 0.7653455 0.4246876 31 31 31
0.0711424445130407 0.00157164032656561 0.0413706366596581 -0.04198408 -0.412621 0.9099348 110 110 110
0.014347562692362 -0.0524983555535613 -0.0439967449130652 0.6077299 -0.6473431 -0.4600123 141 141 141
0.0222783183075963 0.0804847329397858 0.0301821593819024 -0.4844562 0.8106989 0.3287394 78 78 78
0.0850253199555456 0.0939565747519196 0.0727440480766656 0.3624508 0.5445791 0.7563484 199 199 199
-0.0332758332274378 0.0333332865973176 0.0436768297729852 -0.6196597 0.690623 0.3729098 39 39 39
-0.0569543744109095 0.0247021764059723 0.0222816829262139 -0.5415509 0.778928 0.316218 74 74 74
0.0883932208039342 0.0451382249136628 0.0702209536610009 0.006170071 -0.6486101 0.7610958 84 84 84
-0.073714246847433 0.0258438437720002 -0.0073563690604804 -0.6634578 0.7446997 0.0724301 34 34 34
-0.116458883383077 -0.0518133789758026 0.0210487012443902 0.1686445 -0.4398365 0.8821014 105 105 105
-0.0651440526030482 0.0133538096686066 0.0317044024048211 -0.5935995 0.6440753 0.4825003 61 61 61
0.125897416970926 0.0508923381109894 0.0121435586986901 0.8647512 0.1691157 -0.4728691 73 73 73
0.0446095561005651 0.0749133675833405 0.0846175615368249 -0.446353 0.02805788 0.894417 147 147 147
0.142794380090433 0.05716024334628 0.0402974550304772 0.8682445 -0.456429 -0.1944841 95 95 95
0.0331015681244909 0.0893899052878083 0.0394982759533288 -0.836447 0.5027874 0.2180856 48 48 48
-0.0378425026915492 0.0374890416403473 0.028355455833471 -0.5982868 0.7646781 0.2394167 38 38 38
-0.1255922223113 -0.0496213585595428 0.0116412107525231 -0.7986024 0.5258834 0.2927128 37 37 37
0.100666294000345 0.0592722743292512 0.0791146521149041 0.03659584 -0.5452912 0.8374475 141 141 141
-0.0277120972655238 0.0346424430151642 0.0507324103889825 -0.5112813 0.3318823 0.7927456 135 135 135
-0.0534379387877406 -0.112961903260165 -0.0440880890311835 0.4867342 -0.6347662 -0.6001347 135 135 135
0.118115672967631 0.0292186587591828 0.00027007504085322 0.8840289 -0.3570879 -0.3016307 141 141 141
0.00889779081125845 -0.0708109289864837 -0.0280664797248481 0.6349278 -0.547924 -0.5446522 184 184 184
-0.00562428484181772 -0.0337748676995574 0.0151119296131494 -0.08122894 -0.4253343 0.9013837 74 74 74
-0.0657224560759486 0.0176921933432282 0.0241540436325433 -0.5449415 0.734818 0.4038332 76 76 76
0.135053644082743 0.0770140736838044 0.0641585950432183 0.4639879 0.5351909 0.7058936 98 98 98
-0.0638043786070765 -0.0307607800225555 0.0174409513054254 0.3343622 -0.2821886 0.899206 87 87 87
0.0919211005189001 0.00371800358492742 -0.0073563690604804 0.6356878 -0.6334865 -0.4411302 91 91 91
0.137542495629984 0.046416982962674 0.0425579909859063 0.7806516 -0.603181 -0.1635716 75 75 75
0.0165243243195592 0.0834075063009919 0.0152489308891656 -0.798208 0.6021735 -0.01584514 41 41 41
-0.093259801962179 -0.074981942818576 -0.0418351824702857 -0.8085517 -0.4989823 -0.3118666 52 52 52
-0.00137733469228159 0.00286184246737371 0.034805959898031 -0.02905953 -0.4891125 0.8717365 137 137 137
0.0262363051392614 -0.0127221495370208 0.0322828356800439 -0.09003158 -0.4155173 0.9051186 123 123 123
0.0488720034577428 -0.0506413132409393 0.00164008780101557 0.631435 -0.6705035 -0.389506 181 181 181
0.100285777948099 0.0316055863638581 0.0594929222641351 0.04047851 -0.5222409 0.8518368 106 106 106
0.032507905862528 -0.0492255837182342 -0.0226701434077857 0.6296762 -0.6349881 -0.4475468 95 95 95
0.133706579110819 0.0458918660422028 0.0241312150535943 0.876142 -0.4732352 -0.09178012 96 96 96
0.0390381907441198 -0.0518590361337005 0.0112758938846948 -0.09835017 -0.5290354 0.8428813 101 101 101
0.000129709146219389 -0.0663812309960662 0.000452733474767404 -0.1942554 -0.4014612 0.8950384 111 111 111
0.0901286696412145 0.0298739522238434 0.059192276435888 -0.03227118 -0.4993424 0.8658035 106 106 106
-0.00831865320424448 -0.00916017596524348 0.0282184545574548 -0.1114438 -0.4865243 0.8665301 110 110 110
-0.110019674398702 -0.0743731409768402 -0.00815554813762884 -0.6589159 -0.6843666 -0.3122052 46 46 46
0.108520994088846 0.0353426783819855 0.0614413981018426 0.08582312 -0.5881717 0.8041694 101 101 101
0.103566179177958 0.0780187695761384 0.0784067873535516 0.1773658 0.667622 0.7230645 102 102 102
0.00423980703135123 -0.0287513882378875 0.0188566510258081 -0.2592916 -0.5114061 0.8192873 106 106 106
-0.00916360864858042 -0.0783461481789886 -0.0400313075008033 0.5862486 -0.5539755 -0.5911207 107 107 107
0.113065013787943 0.0339954942007722 0.0601399008808496 0.07447995 -0.543817 0.8358922 72 72 72
0.0731518362977086 0.0836357920904816 0.0874945883331658 0.3058236 0.4758134 0.8246657 150 150 150
0.0547478293397008 -0.0206226259927093 0.030684477525747 -0.0389565 -0.443668 0.8953441 36 36 36
0.0159762000062047 -0.0660159737328826 -0.0251666243495582 0.6187175 -0.6269633 -0.4733981 197 197 197
-0.0989911461852015 -0.0692354590157806 -0.0326332087936042 -0.7980873 -0.4433948 -0.4079922 93 93 93
0.0698180293061315 0.00595568115908514 0.0432886545238854 -0.08533817 -0.423472 0.9018807 104 104 104
0.0734486674286901 0.0019826739569367 0.0415076379356744 -0.06856421 -0.4376125 0.8965458 129 129 129
0.0668382739045202 0.00524793560702215 0.0426264767227532 -0.110323 -0.390548 0.9139481 94 94 94
-0.0490083600066126 0.0118011086722077 0.0422154728947045 -0.2526249 -0.3160769 0.9144813 215 215 215
0.108148107431131 0.0614262669821442 0.080294377046621 0.001450156 -0.5125585 0.8586511 134 134 134
0.00903488149424185 -0.0679795891503631 -0.0312860246123908 0.6064362 -0.5781608 -0.5458618 105 105 105
0.051642427346903 0.0645925849219025 0.0808728401241662 -0.002046197 -0.4620981 0.8868265 160 160 160
-0.124953022100729 -0.0533660799722015 0.0201353494701745 -0.6712488 0.3322181 0.6626131 54 54 54
0.0963964556672155 -0.00715078418057551 0.0143584374962213 0.7493594 -0.4697267 -0.466709 132 132 132
0.0789210890748083 0.0489438622732819 0.0732768241939904 -0.0209686 -0.5780889 0.8157043 108 108 108
0.105963716409403 0.0991170256872834 0.0612587396679284 0.2314295 0.4957294 0.8370739 94 94 94
-0.00950597772817026 -0.0625147968987762 -0.0584885116042731 0.6353208 -0.6359143 -0.4381557 114 114 114
-0.107645025350851 -0.0221296698312103 0.00986019416431208 -0.5954148 0.731312 0.3326619 96 96 96
-0.0969133282683314 -0.0210336596230804 0.028355455833471 -0.4778868 0.4742543 0.7393965 44 44 44
0.145442972085673 0.0771053879996003 0.0563494925079705 0.7696379 0.3648353 0.5239777 93 93 93
-0.031426420309347 0.0386534779806794 0.0356165532646539 -0.5403956 0.7605741 0.3598606 65 65 65
-0.0215394402525843 -0.0865205675820648 -0.0127907629432319 -0.139569 -0.5987792 0.7886596 87 87 87
-0.0391898060820521 -0.109765186951572 -0.0184078450622199 0.3091893 -0.3573201 0.8813196 126 126 126
0.0553414916016637 0.0405715554495514 0.062286234336889 -0.1860017 -0.7117941 0.6773127 85 85 85
-0.078646411993307 -0.0101648718575775 0.0331505302963616 0.03251333 -0.2033206 0.9785722 188 188 188
-0.0120749379179896 -0.0393347889642059 0.0117439691601159 -0.04696785 -0.3918749 0.9188188 117 117 117
0.0203452204682409 0.0295961945791901 0.0500626329956414 -0.05962925 -0.3333052 0.9409314 247 247 247
0.114069709680277 0.0706662982245148 0.0801193182049157 0.3648989 0.5697241 0.7363852 98 98 98
-0.118468275167745 -0.0298017412881195 -0.00342898921390752 -0.7733729 0.5327916 0.3435512 47 47 47
0.0310466383912145 -0.0308977514962493 0.0237734977779748 -0.1231165 -0.511027 0.8507019 244 244 244
0.144484052560526 0.0611674636145295 0.0354795519886376 0.8741601 -0.4506628 -0.1809622 63 63 63
-0.0840351487181605 0.00221095974642645 0.022738373714483 -0.7959482 0.5867165 0.149098 133 133 133
0.0832440947510778 0.0943676083822907 0.0728353921947839 0.3262021 0.536634 0.7782134 180 180 180
0.0681283568360387 -0.0373824984292327 0.0156142775593164 0.5913786 -0.7977352 -0.1178549 40 40 40
-0.0633020306609095 0.0285382121344269 0.00195977731326838 -0.4296041 0.9013488 0.05486906 88 88 88
-0.0534837151549281 -0.0959508568505584 -0.0658790107192634 0.6282107 -0.7098042 -0.3186364 60 60 60
0.0286717509247838 -0.04989542071622 -0.0272673006476996 0.6502264 -0.6051013 -0.4594105 124 124 124
0.100871810815531 0.117886289908475 0.0522851113853814 0.2718802 0.7384045 0.6171224 75 75 75
0.139232406518656 0.0742740481634797 0.062788582283056 0.5366873 0.440272 0.7198106 91 91 91
-0.00151418695668588 -0.0798074156503021 -0.00457065657993535 -0.1884324 -0.4156338 0.8897988 101 101 101
0.142782935998636 0.0576054900427521 0.0678690735874536 0.631905 0.2696468 0.7266269 204 204 204
0.00236750592966666 -0.0521787554482757 0.00771383090595027 -0.05221342 -0.3481528 0.9359826 112 112 112
0.0753438567139684 0.0934998839636506 0.0785438184318902 0.4211639 0.5963396 0.683374 111 111 111
0.0541541670777379 -0.0441793352822601 -4.19850768683381E-05 0.6696199 -0.6162633 -0.4145223 182 182 182
-0.107690801718038 -0.0795334727029144 0.00721151276210566 -0.02538526 -0.6141045 0.7888163 95 95 95
-0.101233472921652 -0.0444518477181732 0.0217062894878747 0.1983609 -0.2591912 0.9452369 114 114 114
0.0564982985474645 0.057209595992154 0.0772803489742639 -0.1155677 -0.4696091 0.8752779 153 153 153
-0.0590321923277796 -0.083323851273471 -0.00345178799053411 0.105565 -0.3797055 0.9190646 76 76 76
-0.0224754715941371 -0.0713132769326507 -0.0650341446818946 0.6970865 -0.6264474 -0.3487606 67 67 67
0.0373942946412145 -0.0313087851266204 -0.0389581258716224 0.6083382 -0.5384405 -0.5831007 128 128 128
0.133569488427836 0.0695702880163849 0.0699126784382226 0.5332969 0.3655638 0.7628614 205 205 205
-0.0782809163115443 0.0201582759161652 -0.0199148590983985 -0.7761796 0.5880562 0.2274537 25 25 25
0.0622220133759557 0.0251207202215851 0.0519502226887109 -0.2067491 -0.4794586 0.8528624 114 114 114
0.0996844862916051 0.0947786420126618 0.0672639970360162 0.2718788 0.5328214 0.8013633 85 85 85
-0.0293712521574915 -0.0967347771386444 -0.0177076096953986 0.2435164 -0.3867034 0.8894719 147 147 147
0.0147433375336706 0.070529326750821 0.0360732142506005 -0.6353394 0.6093839 0.4743366 46 46 46
0.0599539374329626 0.0908511727591218 0.0872205857811334 0.07698051 0.5023984 0.8612025 147 147 147
0.105575570962626 -0.00482179229062189 0.0325111810741784 0.8057014 -0.5716491 -0.1551207 63 63 63
0.00630999555369009 0.014967426611966 0.0417664115009667 -0.003617043 -0.5531956 0.8330436 64 64 64
-0.106975307562155 -0.0787418038110076 -0.00785871700664739 -0.7181622 -0.6401075 -0.2729569 93 93 93
-0.0780069733641566 0.0190622657080353 -0.0119230981292365 -0.6822994 0.7290286 0.05463346 26 26 26
0.0127523039795934 -0.0649930388192474 -0.0303544040145514 0.6152938 -0.6000385 -0.5112409 158 158 158
0.0943110083558141 -0.00815548007290949 0.0365755621967675 0.09453489 -0.5123761 0.853542 49 49 49
0.142040738961893 0.0511891692419709 0.0457090203342797 0.8542604 -0.4854985 -0.1858235 156 156 156
-0.124450674154562 -0.0279294401864349 -0.0186818476142524 -0.757064 0.528523 0.3840801 97 97 97
0.00392008771677603 -0.0488450676659881 -0.0611524219932197 0.5659947 -0.5902004 -0.5755984 117 117 117
0.0605132674195348 -0.0325417668084442 0.0240284864483239 0.1091359 -0.5615658 0.8202032 57 57 57
0.0298135375001012 0.0217109769125641 0.0452523593483331 -0.04538162 -0.4702781 0.8813506 243 243 243
-0.0313691998503626 -0.0792137533883392 -0.066095912021601 0.5775428 -0.7472276 -0.3287784 52 52 52
0.106306323907572 0.0129200070639313 0.048175043302572 0.07445021 -0.4534802 0.8881514 66 66 66
-0.054579725363058 -0.0975719839791595 -0.0625681217136023 0.576192 -0.7214236 -0.3841234 48 48 48
-0.0451950932524623 -0.120428457901889 -0.0212849016608832 0.3140508 -0.5392106 0.7814244 86 86 86
-0.108832349874777 -0.0800814778069793 -9.52716292975373E-05 -0.7318317 -0.6642237 -0.1524113 152 152 152
0.100734720132548 -0.00873769824307551 0.0358220700798394 0.2927665 -0.54137 0.7881664 86 86 86
-0.0517330075285853 -0.0388134867410003 0.0124023620663049 0.1291289 -0.376633 0.9173185 115 115 115
0.0721697901703893 -0.0047532469491302 -0.0276098187389014 0.6417066 -0.627 -0.4416826 122 122 122
-0.0387332345030726 -0.00523270671170344 0.0289948050556542 -0.1150798 -0.7016754 0.7031417 91 91 91
-0.0070857907317103 -0.0186132342080413 0.0213227037964227 -0.2343446 -0.5799841 0.7801929 109 109 109
-0.0232291127226771 -0.0753548294762908 -0.0598965819301246 0.6477754 -0.6831179 -0.3372492 99 99 99
0.105986604592997 0.0511664002676667 0.0729723934708001 0.04926333 -0.5373927 0.8418921 118 118 118
-0.0744449997923792 -0.0702172667245208 0.0032841031132104 0.3587441 -0.2496254 0.8994386 54 54 54
0.122289667031962 0.0492483227987946 0.0705976848183038 0.04820548 -0.5828952 0.8111161 117 117 117
-0.0271792317412318 -0.0593484789590179 0.00492814822772761 -0.02483304 -0.431164 0.9019318 99 99 99
-0.0528900528929652 0.0253643840094269 0.0286294583855035 -0.6412535 0.6284096 0.4403355 84 84 84
-0.069364538290304 -0.115085378334933 -0.0338091488303779 -0.5776873 -0.7414304 -0.3414066 38 38 38
0.066788682840067 -0.0311565548638641 0.0240931574879052 0.05177174 -0.569051 0.8206709 75 75 75
0.0664615725495397 0.0936254113455475 0.0828479294357659 0.3271523 0.5372229 0.7774078 77 77 77
-0.053072681524557 0.0126231759329499 0.0415989522514703 -0.3366408 -0.228382 0.9135177 176 176 176
0.0447695349671422 0.0994138568182648 0.059957212644613 -0.8170946 0.5057268 0.2767614 123 123 123
-0.108284463980001 -0.0100277811745941 -0.0113750930251716 -0.636993 0.6007264 0.4830815 45 45 45
-0.11225747118215 -0.0747840553979217 -0.00203611807247381 -0.7152198 -0.6707845 -0.1962366 88 88 88
-0.0555615330717982 0.0330592244406403 -0.0101192231597541 -0.4595718 0.8759551 0.1466165 50 50 50
0.0897288416840612 0.042991861655301 0.0686796669540765 -0.03578066 -0.6802853 0.7320735 105 105 105
-0.0428430939696253 -0.0955169350365936 -0.052247309249842 0.540586 -0.7181998 -0.4381275 81 81 81
0.0830159281708776 0.106058463408536 0.0666703049717309 0.2935084 0.4586159 0.8387635 175 175 175
0.0229632948853551 0.0898465960760773 0.0120065574226739 -0.7439814 0.6664689 0.04807323 51 51 51
0.0646576975800573 0.0624918788214387 0.0800964896259667 0.08552026 -0.4958747 0.8641728 93 93 93
0.0892267321564733 0.00732575352389227 -0.018362187904322 0.7173875 -0.5860285 -0.3767304 186 186 186
-0.0978722477934779 -0.0912927538613616 -0.00961690501590948 -0.8350935 -0.5184472 -0.183933 80 80 80
-0.0601625348113001 0.0239144414206208 0.0178976420936944 -0.4765297 0.79637 0.3724436 29 29 29
-0.0328876877806605 -0.108874693558627 -0.0304640169562934 0.5059634 -0.605089 -0.6147099 78 78 78
-0.0478665734312953 -0.0369258076409637 0.01323956890682 0.08564534 -0.3733717 0.9237199 106 106 106
0.102926740548807 0.00750838215548406 0.0455111329136254 0.04578849 -0.5201619 0.8528394 78 78 78
-0.0958475972197474 -0.0621341616372405 -0.0541500981273292 -0.8935397 -0.4025669 -0.1988132 93 93 93
-0.0096952820799769 -0.0963976532677947 -0.0197060938300727 0.5101404 -0.8591929 -0.03929831 171 171 171
0.00260497083445181 -0.00514139239590754 0.03163436694721 -0.1675514 -0.366266 0.9153009 231 231 231
0.0917840098359167 0.0568443387289704 0.0776608948288323 -0.01764469 -0.4848115 0.8744407 88 88 88
0.0243790244080602 -0.039163604424411 0.0171212915954949 -0.2236427 -0.583053 0.7810462 197 197 197
0.102461109063822 0.0733971446295441 0.0833297435818078 0.2397971 0.580486 0.7781602 155 155 155
0.0201776122071325 -0.0558321625451385 0.00702882452586909 -0.07980333 -0.3240132 0.9426807 117 117 117
-0.0229322815916956 -0.0930966288308441 -0.0386384661616919 0.5288894 -0.6300142 -0.5686459 148 148 148
0.0879023169495641 -0.00221873824399104 -0.00422813848873357 0.7056925 -0.6241572 -0.3352996 120 120 120
-0.0730292702696742 0.0109335034628571 0.0222664837417962 -0.6055434 0.6885591 0.3990031 24 24 24
-0.127704372503561 -0.0531491190652191 -0.00800713257213811 -0.7276784 -0.6042625 -0.324578 129 129 129
0.00871516217966666 0.0348859875937165 0.050937927204168 0.04153109 -0.3957852 0.9174035 127 127 127
-0.0795597935698451 -0.021398916886264 0.0269397561130883 0.1063944 -0.5694481 0.8151129 89 89 89
0.000906000039774077 -0.0446893126229583 -0.0664498444022773 0.5948674 -0.5989654 -0.536072 87 87 87
0.146630296609598 0.0769684165259064 0.0400462810573937 0.9747927 0.1130721 -0.1923379 116 116 116
-0.0815234089873255 -0.101956024811679 -0.040465139907801 -0.8800589 -0.3540953 -0.316406 31 31 31
-0.0977351571104945 -0.0157362372140228 0.0181716446457269 -0.6961142 0.6155225 0.3695363 107 107 107
0.00868106832285513 -0.0281006247262298 0.0213797752437951 -0.2522649 -0.5286449 0.8104918 82 82 82
-0.0772306824706019 -0.100357666657382 -0.0507402952136634 -0.887729 -0.2849423 -0.3615868 38 38 38
0.0541770552613317 0.0992997735281647 0.0745022658882501 -0.7291688 0.4392366 0.5247706 80 80 80
-0.128971805670065 -0.0482970625619232 -0.00114562467952947 -0.8960005 0.3585866 0.2619136 67 67 67
-0.0373401547453822 0.0211857407828034 0.0471703772125604 -0.2295038 -0.2836619 0.9310553 227 227 227
0.0157480334260045 -0.0624538809518157 -0.0297333534183143 0.6321686 -0.5911541 -0.5008989 165 165 165
-0.0430714989684046 -0.112185493157321 -0.0182251866283057 0.2036824 -0.3485621 0.9148869 105 105 105
0.141607055566507 0.0843664258261384 0.0553448264179589 0.5767683 0.4592786 0.6755749 154 154 154
-0.00155996332387338 -0.0614948422173797 -0.0503749485435126 0.5589306 -0.6798472 -0.4747677 41 41 41
0.03049851407786 -0.0503519922951995 -0.0240401561679481 0.628471 -0.6339088 -0.4507592 147 147 147
-0.0153515244505824 -0.0632530600289642 -0.0659931536140082 0.6530693 -0.667898 -0.3569493 52 52 52
0.0961680506684362 0.114506825759 0.0579478506622674 0.3391265 0.4117157 0.8458626 134 134 134
0.0284776782013952 -0.000266447709017891 0.0378999177990319 -0.1610995 -0.3102271 0.9369131 62 62 62
-0.0938649083159388 -0.00330330436032404 0.00250778241733332 -0.612659 0.6707991 0.4179444 119 119 119
0.0120489691712438 -0.0724092871407806 -0.0223352249087928 0.7072303 -0.5677029 -0.4213535 84 84 84
0.00321222295542349 -0.0846709162453948 -0.0179511840762732 0.6872629 -0.5850879 -0.4305135 96 96 96
-0.0494649315855921 0.0357764809866608 -0.00246998028179388 -0.5719811 0.817466 0.06772666 61 61 61
0.103977212808329 0.1175665705939 0.0518284503994348 0.2893714 0.7136532 0.6379367 122 122 122
0.128424415490824 0.0995280593176545 0.0501844052849175 0.4102663 0.7779287 0.4759291 112 112 112
-0.025571813680929 -0.0428991467217742 0.0102346901474359 -0.008320023 -0.2718223 0.9623115 86 86 86
0.149210700891214 0.0647752135534943 0.0523307685432794 0.9799877 -0.1781866 -0.08873302 134 134 134
0.028078088662821 0.068063244177884 0.0641357664642694 -0.5288914 0.7001731 0.479616 169 169 169
0.0203147028901159 0.0169615596075715 0.0428776506958367 -0.0003387798 -0.5007831 0.8655727 83 83 83
0.00677443494577994 0.0390873997946442 0.0536551241455438 0.0288666 -0.6443512 0.7641847 90 90 90
0.112791070840555 0.109152421309537 0.0538720552502038 0.5431952 0.5574838 0.6278143 158 158 158
0.0633332823731481 -0.00840653483670344 -0.0359212692203162 0.6314372 -0.6831743 -0.3668241 138 138 138
-0.109791507818502 -0.0731400400857269 -0.0114892657222388 -0.6632538 -0.6942049 -0.2795959 99 99 99
-0.00443696031789194 0.0619438737173737 0.00323844595531245 -0.7240705 0.6217586 0.2985602 13 13 13
0.116467246911722 0.0231722443838776 0.0535409812507989 0.08877943 -0.5031008 0.8596556 95 95 95
-0.0541229153654994 -0.0795334727029144 -0.0852647657813666 0.3019882 -0.3497327 -0.8868428 114 114 114
-0.0634848977110804 -0.122277990029269 -0.0302813585223792 -0.461493 -0.8008386 -0.3816828 76 76 76
-0.10896944055776 -0.0124024302224456 -0.00810989097973089 -0.689185 0.5929481 0.4164571 87 87 87
0.0116379355408727 0.0661909430761994 0.0388132695732476 -0.5791161 0.7339706 0.3548403 79 79 79
-0.111937751867575 -0.068116560624057 -0.0207825537147162 -0.7094715 -0.4827229 -0.513448 115 115 115
0.0236482714631139 -0.0476576239327728 0.010408199268377 -0.1022149 -0.4482492 0.8880455 127 127 127
-0.0315542126677455 -0.078273072884494 -0.0697287555160163 0.6227064 -0.7294077 -0.2831982 97 97 97
0.109685668847757 0.0196559279699982 0.000361419158971506 0.717188 -0.6370581 -0.2824861 77 77 77
-0.03334425935964 -0.000654593155795234 0.0340524379787805 0.03916849 -0.5859149 0.8094254 202 202 202
0.0374171828248083 -0.00399984423916926 0.0374432568130853 -0.08627749 -0.3839748 0.9193038 64 64 64
0.0334668253876745 -0.0525897890786468 -0.016809486907923 0.5964188 -0.6550291 -0.4639196 189 189 189
0.0108387564637243 -0.014206305191928 0.029382980304754 -0.1997992 -0.4003909 0.8942971 94 94 94
0.0683109854676305 -0.0200746208886444 0.0314608280239465 0.005582642 -0.4552535 0.8903443 63 63 63
-0.0755562687895716 -0.102816119835788 -0.00795003132244329 0.1674101 -0.3961599 0.9027908 113 113 113
0.0112497900940954 -0.0550328642587005 0.00686899467090388 -0.01442648 -0.2931592 0.9559548 69 69 69
-0.0550362969420374 0.0160481780310334 0.0388817553100946 -0.4324415 0.7837237 0.4458381 76 76 76
-0.129337062933248 -0.047474995301181 -0.0162158246459601 -0.6949574 -0.6136596 -0.3747748 135 135 135
0.0187621211030065 -0.00813259188931574 0.0334017042694451 -0.2001144 -0.3347892 0.9207988 144 144 144
-0.122669687368673 -0.0273814350823699 -0.0284089978160499 -0.8638015 -0.4632593 -0.1980854 77 77 77
-0.0794227028868617 0.00559042389590154 0.0233320657787683 -0.655517 0.6666233 0.3548392 203 203 203
0.0989081953980504 -0.0123911053399383 0.0341780249653222 0.3306529 -0.630227 0.7024832 82 82 82
0.0183510874726354 -0.00966252391141047 0.0327395264683129 -0.1744512 -0.3510404 0.919966 183 183 183
-0.0879623795531214 -0.0763367563943206 -0.0506946380557654 -0.8403887 -0.5007136 -0.2074433 47 47 47
0.121284971139628 0.0333103984137238 0.0584958557663323 0.1071406 -0.5087913 0.8541969 95 95 95
0.0994560812928258 0.053769335105008 0.0751644138870599 0.04644766 -0.5183257 0.853921 153 153 153
0.116295823953348 0.0251701920767487 0.0135135714588525 0.8359407 -0.5236247 -0.1643785 67 67 67
0.038855562112528 0.083978280379361 0.0577423338470819 -0.9117246 0.331694 0.2423578 96 96 96
-0.0594031716368617 -0.0911101252297698 -0.00652863935848455 0.07546058 -0.365797 0.9276305 100 100 100
0.123888025186258 0.04344855244357 0.00620681686977168 0.9658598 -0.1418977 -0.2167486 80 80 80
-0.0843548680327357 -0.0842371136407195 -0.0489592786254523 -0.8997562 -0.3379919 -0.276044 26 26 26
-0.0375571156523646 -0.0886098295907318 -0.0581726367892859 0.6028842 -0.6496359 -0.4631456 52 52 52
0.0732431506135045 0.0966662019034089 0.0764735703049066 0.4406292 0.6037971 0.6642853 110 110 110
-0.00539611826161752 0.0465539544363679 0.0530614618835809 -0.6104608 0.6369802 0.4707375 111 111 111
0.110005149743754 -0.000643149063998359 0.0339497093735101 0.7995849 -0.571533 -0.1844288 82 82 82
-0.00975727091054331 -0.0159874111871063 0.0226698879776361 -0.2107506 -0.607407 0.7659249 134 134 134
0.147802600763041 0.0713512748022736 0.0577043060837152 0.7955632 0.4005191 0.4546027 148 148 148
-0.0248503590605677 0.0379685014029206 0.0492710833130242 -0.5254245 0.7635965 0.3752992 53 53 53
0.0605931376435338 -0.0419720560769378 0.00817052169421931 0.6850648 -0.6585665 -0.3114102 134 134 134
0.107310781381327 0.056281074835843 0.0770367745933892 0.03365678 -0.5703216 0.8207317 161 161 161
0.140602359674173 0.0567834227820099 0.0270311002312066 0.846593 -0.4901534 -0.2074369 115 115 115
0.120965490243631 0.0848231166144074 0.0658482973156335 0.3225971 0.5521457 0.7688083 116 116 116
0.139871606729227 0.0490656941672028 0.0438366596279504 0.8269209 -0.5345214 -0.1746099 121 121 121
0.0324714278199254 0.0176739543219269 0.0435261194286706 -0.2203399 -0.2990759 0.9284417 111 111 111
-0.0752365494749964 -0.109308496163303 -0.0398867066325782 -0.4939007 -0.8391712 -0.2277141 22 22 22
0.0919211005189001 0.117246970488614 0.0583131973324182 0.2853695 0.4502487 0.8460734 94 94 94
-0.00407170305470834 -0.0620885044793426 -0.0510142977656959 0.5665739 -0.6566316 -0.4978242 51 51 51
-0.0934882069609583 -0.0230658203820526 0.0293372933445336 -0.239973 -0.06618743 0.9685206 146 146 146
0.0860755537964879 0.0172583907385529 0.0520111088333489 0.0152442 -0.5523262 0.8334887 91 91 91
0.102504501245218 0.103124365164822 0.0604253177223565 0.3049154 0.4100893 0.8595659 93 93 93
0.102917680642801 -0.00447465483945002 0.0224095646915795 0.8131959 -0.4933764 -0.3086942 128 128 128
0.0635159110047399 -0.0196635872582733 -0.0189558501662848 0.6954281 -0.4910832 -0.5246114 159 159 159
0.0566659068085729 -0.0167409331063568 -0.0326788659515021 0.6277342 -0.61711 -0.4744734 62 62 62
-0.111892213918966 -0.0358754545907318 -0.0587320561828254 -0.8802497 -0.4687428 -0.07376061 102 102 102
0.0241963957764684 -0.0369943529824554 0.0183771614609124 -0.1992509 -0.5635867 0.8016665 239 239 239
-0.0858616734526576 -0.0445674807290374 0.0183695320663812 0.1820424 -0.3016235 0.9358867 151 151 151
-0.0381851101897181 -0.0935533196191131 -0.0514253015937446 0.4916836 -0.7322859 -0.4711737 65 65 65
0.0986340140320836 0.0767400115271271 0.0814893607674005 0.3099587 0.6626797 0.6817487 101 101 101
0.059086332223612 -0.0192526728371917 0.0319174890098931 -0.06463825 -0.4092433 0.9101329 164 164 164
0.0373029803254186 -0.04596795146268 -0.0215589042129157 0.5970663 -0.656387 -0.4611594 36 36 36
-0.111001720526022 -0.0141835362176238 -0.01064439968487 -0.8064794 0.4790983 0.3464907 86 86 86
-0.0799858475706996 -0.0432279259423553 0.0173039798317315 0.1715974 -0.3207761 0.9314811 93 93 93
-0.109699955084127 -0.050915256188327 -0.031864487689936 -0.8577495 -0.4574819 -0.2344699 34 34 34
0.0523502921082555 0.0254100411673249 0.0508237545071008 0.01833704 -0.3748955 0.9268857 239 239 239
0.0467331503846227 -0.0308293253640472 -0.0299616690101264 0.6242786 -0.5951279 -0.5060623 161 161 161
-0.0852110291502894 -0.013087526009494 0.0315521721420648 -0.3892366 0.1672923 0.9058191 100 100 100
0.0902769659974157 -0.0141149908761321 0.0337670211372735 0.09280938 -0.478915 0.8729415 99 99 99
0.0134646986939489 0.0796627848883332 0.0209116701660516 -0.7729779 0.6337939 0.02846624 53 53 53
0.0755720232941686 0.0819004624624909 0.089184290605581 0.2714507 0.3630137 0.8913672 107 107 107
0.0249726866700231 -0.0569738299111663 -0.0221982236327765 0.682394 -0.5735087 -0.4532396 34 34 34
-0.0455527211211146 -0.0987594277123748 -0.012303643983805 0.2454769 -0.3710397 0.8955839 88 88 88
0.11466337194224 0.0871612876196564 0.0676384632168176 0.3799804 0.5275438 0.7598108 93 93 93
0.0410704707123815 0.0634736865301789 0.0808043245849969 0.0366358 -0.3637178 0.9307885 138 138 138
0.0494048689820348 0.0447044223089875 0.0659624700127008 -0.1344809 -0.7802185 0.6108797 119 119 119
0.0902540778138219 0.0440651028891266 0.069410360294378 -0.03854018 -0.6554627 0.7542436 88 88 88
-0.0635533238432826 0.0278760045309723 0.00606981559375544 -0.4025271 0.893763 0.1978879 96 96 96
0.102789888284403 -0.00323857371609797 0.0198156599579217 0.7823215 -0.517817 -0.346177 107 107 107
0.0888612364747106 0.0531909316321076 0.0755754177151086 -0.02119006 -0.521135 0.8532112 148 148 148
-0.0355060006163539 0.0298701375265778 0.0457242493210198 -0.6727176 0.5754928 0.4650367 76 76 76
0.0982687567689001 -0.0109868199090301 0.0220990244922998 0.7127492 -0.5926079 -0.3752392 134 134 134
0.0218446349122106 -0.0360582024316131 -0.0541196699561713 0.6063592 -0.67268 -0.4240639 66 66 66
0.0160904025055944 -0.0385470539788543 -0.0583210523547767 0.5745215 -0.7007451 -0.4229435 152 152 152
0.0384559725739538 -0.0543478876809417 0.00986019416431208 -0.08427313 -0.5111379 0.8553573 138 138 138
-0.0921335125945033 -0.0825626999596893 0.00348202033618708 0.1402529 -0.4497844 0.8820562 128 128 128
0.115827808282572 0.0167789309759797 0.0239028994617822 0.8618214 -0.3584816 -0.3588242 71 71 71
-0.101662626364035 -0.0825930983285247 -0.0189558501662848 -0.8657802 -0.4701423 -0.1714376 119 119 119
0.113612899682718 0.0752329676886262 0.0770824615536096 0.3662964 0.5596473 0.7433854 105 105 105
0.0754351710297643 0.00243936474520574 -0.0307836766662238 0.6981536 -0.5574249 -0.4492873 86 86 86
-0.0475468541167201 0.0020739882727326 0.0347032014904382 -0.1162996 -0.6194893 0.7763423 94 94 94
0.0301559065796911 -0.0353503376702606 0.0203636650619866 -0.1498028 -0.5353575 0.8312349 230 230 230
-0.0611557866118373 -0.100220695183688 -0.010712885421717 0.1613785 -0.3946849 0.9045335 103 103 103
0.0411503409363805 -0.0322336107949554 0.0235147242126824 -0.04508346 -0.5172489 0.8546467 98 98 98
-0.0203292275450648 -0.0824104696969329 -0.0472239191951392 0.5488852 -0.6211051 -0.5594225 92 92 92
-0.0122461224577845 -0.0614035279015838 0.000726736026799875 0.0108448 -0.5328951 0.8461118 86 86 86
0.0243942831971227 0.0638770907660187 0.0661984149990441 -0.6087464 0.6349226 0.4757111 112 112 112
-0.0265400315306605 -0.0810403973321258 -0.0546676750602363 0.6022955 -0.6345237 -0.4843757 76 76 76
-0.1036035920165 -0.0624538809518157 -0.0287514861049293 -0.7883526 -0.4871056 -0.3758034 44 44 44
0.0143931006409704 -0.0391026884774505 -0.0600716407718299 0.6076496 -0.6636156 -0.4363213 137 137 137
-0.0335118676207484 -0.0222362429360687 0.0178519849357965 0.1045496 -0.3372951 0.9355754 111 111 111
-0.00608109483937631 0.054226025893277 0.039680934387243 -0.5119363 0.7721922 0.3763514 124 124 124
-0.0833501721404017 -0.0267268568734466 0.0240475003300073 0.0946775 -0.4636053 0.8809689 118 118 118
0.0901551341034948 0.0175247042914094 0.0520567659912469 0.01957291 -0.5615526 0.8272095 106 106 106
0.113727102182108 0.102998718573636 0.0573770169792535 0.2946237 0.5098593 0.8082328 152 152 152
0.140625247857767 0.0669444649954499 0.0662136439857842 0.6030718 0.3313058 0.7256314 114 114 114
-0.031088342764181 -0.0202938467721282 0.0181990329800012 0.08298798 -0.3668962 0.9265528 134 134 134
0.0868747328736364 0.000749692275112969 -0.011717581314051 0.7118405 -0.5911242 -0.3792824 78 78 78
0.123385677240091 0.101263388945645 0.0470790330944421 0.2601096 0.9614807 0.08886933 42 42 42
-0.0711684132597865 -0.0908246189812957 -0.00458207086940984 0.2365054 -0.3091535 0.9211348 99 99 99
-0.0501727963469447 -0.120633974717075 -0.0205542083205817 0.1714496 -0.3915566 0.9040401 127 127 127
0.0241050814606725 0.0599801390906037 0.0724243883667352 -0.6029016 0.5986648 0.5273614 107 107 107
-0.0976438427946986 -0.0540510565499603 -0.0626822944106696 -0.8040126 -0.5349947 -0.2595081 95 95 95
0.125943193338114 0.0317576974173249 0.039658105808294 0.8038481 -0.5723185 -0.1621102 65 65 65
0.0349280928589879 0.0810783952017487 0.0551621381817224 -0.8926523 0.3527308 0.2806295 93 93 93
-0.0386645699522914 0.0347032397528351 0.0316891436157586 -0.5991092 0.7257702 0.3381209 49 49 49
0.117449054620463 0.0580620616217316 0.0776761238155725 0.05170757 -0.6149199 0.7868925 94 94 94
0.108406791589457 0.0729039757986725 0.0814893607674005 0.3105953 0.5189559 0.7963763 94 94 94
0.0593831633545934 0.075210198714322 0.0856907431660058 -0.09379367 -0.3057091 0.9474939 127 127 127
-0.122030248739523 -0.0443695933083831 -0.0230202610911963 -0.3840829 -0.08997829 -0.9189038 133 133 133
0.112676868341166 0.0250674336691559 -0.00616901473423223 0.7254274 -0.5401083 -0.4266591 157 157 157
0.0585198496796667 0.115895137145108 0.0658026401577355 -0.3190274 0.6951096 0.6442392 101 101 101
-0.0789432431242884 0.00972329075533758 0.0113215510425927 -0.8758395 0.4252551 0.228174 55 55 55
0.128317842385965 0.0701639502783478 0.0728810493526818 0.5104157 0.4203724 0.7501753 178 178 178
-0.115248670675558 -0.0708909184197723 -0.00372582034488897 -0.7771884 -0.6039816 -0.1765916 81 81 81
0.0512313937165319 0.0586100667257966 0.0774934653816583 0.04659377 -0.4413953 0.8961022 144 144 144
-0.0974612141631068 -0.0318111330727874 0.025524086195028 0.2084695 -0.3524183 0.9123276 124 124 124
-0.0869576836607874 -0.0489136130074798 0.0168701176224114 0.1997416 -0.3355899 0.9205883 140 140 140
0.0126729105927526 0.0415305941839875 0.0563799504814508 -0.01935952 -0.751433 0.6595253 75 75 75
-0.119609823324484 -0.0642532259682952 -0.00414138392826299 -0.7762075 -0.6026939 -0.1851002 100 100 100
0.0852992629029333 -0.0236367136697112 0.0184913043556573 0.6708745 -0.6581085 -0.3417901 218 218 218
-0.028001299001974 -0.0805229098061859 -0.0587016280116675 0.5912327 -0.6979154 -0.4041757 51 51 51
0.0603876208283483 -0.00632871691983332 0.0377172593651177 -0.01595478 -0.4810848 0.8765289 236 236 236
0.00360036840220083 -0.0839175135354339 -0.0190015371265052 0.6825664 -0.5772181 -0.4482437 125 125 125
0.148251542947489 0.0630740969916047 0.0480837289867761 0.9208993 -0.3481713 -0.1752747 190 190 190
-0.0690789128325404 0.0051337331076325 0.0358563129482629 -0.3554923 0.14711 0.9230297 171 171 171
0.0303614233948766 0.080804452254361 0.0447500114021661 -0.7490893 0.4953891 0.439835 100 100 100
0.0059752558686315 0.0524906962652863 0.0620579187450769 -0.5403254 0.6164765 0.5727174 60 60 60
-0.085998764135641 0.0160938351889313 -0.0297790105762122 -0.6057175 0.7892607 0.1008654 69 69 69
0.115097055337626 0.0132852643271149 0.0258437757072808 0.9058794 -0.3217236 -0.2754568 109 109 109
0.0360698794343053 0.0909426062842072 0.0393155877170922 -0.8936118 0.389483 0.2230713 44 44 44
0.122152814767557 0.068063244177884 0.0785894755897882 0.4082706 0.4882303 0.7713276 169 169 169
0.124372253320414 0.0851702540655793 0.0639759366093041 0.3741084 0.5434418 0.7514745 79 79 79
-0.115682592489523 -0.0284774452904998 0.000589734750783639 -0.8379497 0.4811767 0.2575057 77 77 77
0.034486780069071 -0.030745521233493 0.0241540436325433 -0.1013901 -0.4995366 0.860339 245 245 245
0.126673707864481 0.0718079655905427 0.0732007388649346 0.4692662 0.4675868 0.7491006 221 221 221
-0.0849711800597132 -0.106134548829013 -0.0200290317954658 -0.6313683 -0.7669812 -0.1145154 155 155 155
0.00638605108042349 0.0677435248633088 0.028857803779638 -0.5523826 0.6965562 0.4579114 72 72 72
-0.0103738213560999 -0.059257164643222 0.00250775261501093 -0.02755223 -0.5119131 0.8585953 83 83 83
-0.123765697576803 -0.0595311075906097 -0.00260698155781011 -0.7334871 -0.6432585 -0.2195793 104 104 104
0.0338778590180456 -0.0305323750237762 -0.0438445444526313 0.6092803 -0.6703564 -0.4235561 58 58 58
-0.102758636572164 -0.0256459862450897 0.0280814532814385 -0.317786 0.2174789 0.922884 105 105 105
0.0378053282715856 0.0440878718634308 0.0600028698025109 -0.1568279 -0.5766376 0.8018068 236 236 236
0.128477582833964 0.0339954942007722 0.0406171147404077 0.782434 -0.6071705 -0.1383505 71 71 71
0.111284027002054 0.0627658217688263 0.0808728401241662 0.01155702 -0.4302334 0.9026437 110 110 110
0.069110164544779 -0.00228728358548273 -0.0367204482974647 0.6730629 -0.5846596 -0.4529453 130 130 130
0.0789058302857458 0.0795256942053498 0.089184290605581 0.3079413 0.1913022 0.9319741 139 139 139
-0.0957486535094203 -0.0646915585259735 -0.0494616265716193 -0.8797204 -0.4254408 -0.2123491 110 110 110
0.128774413964945 0.0362331717749299 0.0210030142841699 0.8188139 -0.5612708 -0.1204942 232 232 232
-0.123285999395651 -0.0439814478616058 0.00442580028156062 -0.8056215 0.5190533 0.2855832 50 50 50
-0.00326489458302866 -0.0942535549859344 -0.0140999193610785 0.4302975 -0.8877797 0.1633747 120 120 120
-0.0238342190764369 -0.0759371668557464 -0.0600449974956153 0.6462334 -0.6849757 -0.3364382 75 75 75
-0.0652201081297816 0.010020121886319 0.0358448986587884 -0.6729234 0.5372879 0.5084249 70 70 70
0.145625839135843 0.0553905814428986 0.0544771318016412 0.8780411 -0.4441206 -0.1783277 143 143 143
0.0719187354065954 -0.00893177096646418 -0.0208738978328345 0.6600226 -0.6275574 -0.4129671 47 47 47
-0.116367569067282 -0.0339574963311492 0.00885552807430049 -0.8559535 0.4035035 0.3233088 63 63 63
-0.10284995088796 -0.00210453574460139 -0.0123797889175055 -0.7081463 0.5425244 0.4518806 79 79 79
-0.0936937237761439 -0.0888039023141204 0.000840908723867136 0.1246788 -0.3796342 0.9166968 89 89 89
0.116489896676737 0.0259123891134919 0.00442580028156062 0.8238837 -0.5651721 -0.04238281 62 62 62
-0.00722264299611459 0.0642272084494294 -0.00562100963016729 -0.7247372 0.626442 0.2869257 28 28 28
0.00669075002451529 -0.0824941546181976 -0.0157895918311713 0.6803738 -0.5949286 -0.4279619 116 116 116
0.0662407969452917 0.101385220839566 0.0760929946480157 0.3549954 0.6457983 0.6759607 91 91 91
0.144194850824076 0.0552154629965485 0.0678120021400811 0.7250086 0.1189734 0.6783862 118 118 118
0.022141466043192 -0.0697149187783538 -0.0112380917491553 0.6263325 -0.6056018 -0.4908706 187 187 187
0.0407278632142126 -0.026079788849765 -0.041949355167353 0.5871963 -0.712904 -0.3833647 49 49 49
-0.0553712750456751 -0.0311108977059661 0.0155686204014184 0.1499239 -0.3019573 0.9414588 107 107 107
-0.075129976370138 0.00061260159212957 0.033493018585241 -0.4909495 0.299206 0.8181958 167 167 167
0.0513227080323278 -0.0316741615990936 -0.0227919156970618 0.6620308 -0.6501299 -0.3728893 198 198 198
-0.114198198416036 -0.0198005587319671 -0.0100735660018561 -0.8148167 0.5210437 0.2541402 71 71 71
0.0961909388520299 -0.0177912861565887 0.0300679568825128 0.4772528 -0.7867396 0.3914978 155 155 155
0.0346541499116002 -0.0538684279183685 0.00903818650821467 -0.2010735 -0.4544458 0.8677837 75 75 75
0.0844316576935827 0.0533584206839264 0.0756211046753289 -0.03001024 -0.4551456 0.8899111 86 86 86
0.0862581824280797 0.0324884503622712 0.06045956059078 -0.02641472 -0.4921714 0.8700975 121 121 121
0.0404083823182165 -0.0203943402032195 -0.052749657196009 0.6158931 -0.6846352 -0.3898081 102 102 102
-0.0228865052245081 -0.0606271177987396 0.00515646381953974 0.08471152 -0.5097279 0.856155 204 204 204
0.0403170680024206 -0.0471552759866058 0.0143356089172723 -0.06001192 -0.5498062 0.8331337 138 138 138
0.0779924487092077 -0.025874391243869 0.00835318012813349 0.6495425 -0.5837082 -0.4872158 169 169 169
-0.0194616223357142 0.0460516064902009 0.0367582206306817 -0.4982278 0.7590942 0.4189809 81 81 81
0.101237068078715 -0.0106443316201507 0.0281955961761834 0.8018072 -0.5517301 -0.229563 126 126 126
-0.121534338094992 -0.0445392281274139 0.0120326642570855 -0.7911074 0.5408574 0.2856963 77 77 77
0.0180769061066686 -0.00349737708371272 0.0348402027664544 -0.203331 -0.3355142 0.9198297 77 77 77
0.00804162969370474 -0.0823533684472381 -0.0139895315589545 0.6666992 -0.6050017 -0.4352987 153 153 153
0.0103895758606969 -0.02680291240018 0.0225709442673089 -0.2207249 -0.5025054 0.835924 61 61 61
-0.0713851357481898 -0.0787114054421722 0.000224388080632883 0.1603388 -0.2915944 0.9430081 102 102 102
0.0641095732667028 0.00253067906100164 0.0409139458713891 -0.08834162 -0.3499376 0.9325982 84 84 84
-0.00347804079274545 -0.0722266585091888 -0.00201328949352483 -0.1671313 -0.2946779 0.9408677 71 71 71
0.0402484034516393 -0.0141378790597259 0.0331619445858361 -0.05861332 -0.4435521 0.89433 232 232 232
0.00930882444162955 0.00230239327151189 0.0356622104225518 -0.1319366 -0.3528898 0.9263161 112 112 112
-0.0427288914702357 -0.102960720704013 -0.0147772963466285 0.2416158 -0.3209769 0.9157487 110 110 110
-0.0156254673979701 -0.032176390335971 0.0142899517593743 -0.1517178 -0.2439893 0.9578366 241 241 241
0.0154283141114294 0.0573314278860749 0.0655286376057031 -0.5958229 0.6836331 0.4214746 42 42 42
-0.077641716100973 0.0101570933600129 0.0164819721756341 -0.7680309 0.604777 0.2106498 73 73 73
0.0366406535126745 0.0609620660086335 0.0806673233089807 -0.03055671 -0.3475058 0.9371798 109 109 109
0.118809947869974 0.0216379016180695 0.0338629250107171 0.9156678 -0.3915164 -0.09092487 171 171 171
0.024653205774027 -0.00354303424161066 0.0363700751839044 -0.1400813 -0.2968897 0.9445813 73 73 73
0.0451121424653112 -0.0258971602181732 0.0270539288101556 -0.02577023 -0.4609778 0.8870374 76 76 76
0.0989995097138463 -0.0112608820657073 0.0233777229366662 0.7124043 -0.6034153 -0.3582878 132 132 132
0.108932027719217 0.0912850945730866 0.0662136439857842 0.1732302 0.5904319 0.7882776 126 126 126
-0.0631194020293177 -0.09070672099393 -0.00589501218219976 0.1062715 -0.3658184 0.924599 155 155 155
0.014286527536112 -0.0243977457742034 0.0248238508282067 -0.1970342 -0.4997137 0.8434831 198 198 198
-0.127601614095968 -0.032678738282138 -0.0163528259219764 -0.7794168 0.5438269 0.3110656 90 90 90
0.00654602994700064 -0.0164668709496795 0.0271681015072228 -0.2120619 -0.4627002 0.8607777 225 225 225
-0.0298430825255335 -0.0610230118493377 0.00378645105937739 -0.03154501 -0.5346864 0.8444616 120 120 120
-0.0199029351256312 0.0381207316656769 0.0534115795669915 -0.3421788 0.7051063 0.6210787 31 31 31
0.0625112151124059 -0.0170377642373382 0.0328308705864312 -0.02934858 -0.3738926 0.9270076 157 157 157
0.138844261071879 0.0450697987814606 0.0539519552765252 0.8083858 -0.5740088 -0.1304847 113 113 113
0.084739932916361 0.101092085196561 0.0686796669540765 0.387522 0.4316699 0.8145476 105 105 105
-0.0757691765807093 -0.0929367691735565 -0.00404550985714178 0.2460506 -0.3378904 0.9084543 85 85 85
-0.0141641999266566 -0.0643263012627899 -0.0633597011985419 0.6330199 -0.6805195 -0.3690244 97 97 97
-0.106880178549093 -0.00890900199215998 -0.0104617412509559 -0.6302685 0.5939652 0.4999671 54 54 54
0.0603497122742711 0.115557178809232 0.065992927986181 -0.1519396 0.6843042 0.7131914 107 107 107
0.0865323637940465 -0.0158732086877166 0.0332418446121575 0.09921696 -0.4968445 0.8621494 63 63 63
-0.0934424305937708 -0.0724549442986785 -0.0457625623168586 -0.8380435 -0.4795172 -0.2602814 72 72 72
-0.03568481455068 -0.0929253250817596 -0.0500096018733619 0.485484 -0.7119784 -0.5073382 87 87 87
0.057046422860819 -0.041051164315158 -9.52716292975373E-05 0.6929246 -0.5864619 -0.4194257 188 188 188
0.131651410958964 0.0402061789770783 0.0324655239162805 0.853049 -0.5047987 -0.1322333 63 63 63
0.0438332652070104 -0.010073438332492 0.0354795519886376 -0.04488473 -0.4379939 0.8978567 84 84 84
0.0185792540528356 0.0142215340872468 0.0412336353836419 -0.04113434 -0.493254 0.8689122 227 227 227
0.124984035394388 0.0290176718970002 0.0423296455917718 0.8081364 -0.5293256 -0.2583214 168 168 168
0.0101764296509801 0.0660995095511139 0.0362102155266168 -0.5793947 0.7335086 0.3553405 43 43 43
-0.0380024815581263 -0.00244702403348078 0.0320544902859094 -0.1053871 -0.6693502 0.7354345 120 120 120
0.0406253432251989 0.049716338469571 0.0720932845650079 -0.06921104 -0.9314045 0.3573452 67 67 67
0.110050926110941 0.0344520657797516 0.0608249072609307 0.08903582 -0.5891958 0.8030697 93 93 93
-0.00569271097401987 0.0642272084494294 -0.00233294920345525 -0.7007009 0.617036 0.3581686 24 24 24
-0.0580503846190394 0.0244053452749909 0.0203636650619866 -0.5121313 0.8047604 0.3001369 47 47 47
-0.00845574388722788 0.057742461516446 0.0100885395584466 -0.61404 0.7838982 0.09197053 91 91 91
-0.113551368810934 -0.064661160157138 -0.0220003362121222 -0.6486021 -0.434972 -0.6245916 119 119 119
-0.0578219796202601 -0.0957909971932708 -0.0750809545936225 0.4162711 -0.7748624 -0.475717 95 95 95
0.0851850604035436 0.0111619084616364 -0.0281578238429664 0.7092273 -0.416472 -0.5688126 45 45 45
0.101944932840067 0.0421699136038483 0.0672411684570672 0.06043757 -0.6472883 0.7598454 106 106 106
0.0151543711640417 0.0812153666754426 0.0192676548538568 -0.776686 0.6292123 0.02916623 41 41 41
0.116284379861551 0.0346804707785309 0.0601855282364251 0.09875228 -0.5406601 0.8354248 85 85 85
0.0744030570008336 0.0953174680014313 0.0765983824310662 0.4341649 0.6013538 0.6707268 131 131 131
0.0191958044983922 0.0049738734503449 0.0375117425499322 -0.1253497 -0.2690772 0.9549266 79 79 79
0.0344486330964147 0.0436426251669587 0.0596146945534112 -0.1029755 -0.5697721 0.8153256 244 244 244
0.00244356145640005 -0.0542185456017791 -0.0557484860839484 0.575186 -0.6651896 -0.4761133 43 43 43
0.060410509011942 0.0338584035177888 0.056646323638952 -0.1983396 -0.6507779 0.7329049 85 85 85
-0.107568969824118 -0.0282795578698455 0.0258133177338006 -0.4460206 0.3122004 0.8388066 139 139 139
-0.0356504822752894 -0.102915063546115 -0.0392778153838752 0.538836 -0.6196314 -0.5707124 109 109 109
-0.0737507248900355 -0.04024125640195 0.0176145200310113 0.1285307 -0.3377351 0.9324242 109 109 109
0.0234656428315221 0.0848231166144074 0.0236973826465966 -0.5762107 0.7176651 0.391073 54 54 54
-0.0533924008391322 -0.107321992562228 -0.0497812862815497 0.4789774 -0.6592734 -0.5796027 101 101 101
-0.0518395806334437 -0.0314914137582122 0.0148379270611169 0.1027318 -0.2984943 0.9488664 127 127 127
-0.112120380499166 -0.012037172959262 -0.014982813161814 -0.8281096 0.4208127 0.3703393 116 116 116
-0.0387332345030726 0.046416982962674 -0.00991373614689092 -0.6294887 0.7467954 0.214571 79 79 79
0.0530428980805456 -0.0240324885110198 0.0292231206474664 -0.05185371 -0.4570503 0.887928 71 71 71
0.106100807092386 0.000924691512173516 0.0218554799137475 0.8059726 -0.481607 -0.3441842 97 97 97
-0.0470445061705531 -0.0413099676827728 0.010956204372442 0.05698456 -0.3348622 0.9405424 124 124 124
0.0850253199555456 -0.000452891037875313 -0.0136128004016517 0.6998179 -0.6100622 -0.3715898 49 49 49
0.0867719744660436 0.0554591267843903 0.0767970447121026 -0.0545605 -0.4482647 0.8922342 95 95 95
-0.0638956929228724 -0.120200172112399 -0.0180653567733405 0.1373042 -0.3838156 0.9131446 129 129 129
-0.024987211324972 0.0437911599417389 0.0339268807945611 -0.513571 0.7499258 0.4169606 87 87 87
0.0595429038025915 0.116516217543668 0.0653459493694665 -0.2125814 0.7154618 0.665525 91 91 91
0.100141057870585 0.11306844647128 0.0565321807442071 0.267565 0.4278962 0.8633156 135 135 135
