ply
format ascii 1.0
comment File exported by Rhinoceros Version 7.0
element vertex 464
property float x
property float y
property float z
property float nx
property float ny
property float nz
property uchar red
property uchar green
property uchar blue
end_header
-0.0667491329902682 0.00984040465570113 -0.00958434656898174 -0.5218177 0.0822376 -0.8490838 133 133 133
-0.0383904256364532 -0.0495790599191572 -0.0102378572004369 -0.519048 -0.01136534 -0.8546695 133 133 133
-0.0702306726392585 0.128405536641395 -0.00940294151380633 -0.5264754 -0.04076761 -0.8492124 149 149 149
-0.0110728761068171 -0.0729218774650706 -0.0106436447106605 -0.5168835 0.01681548 -0.8558906 124 124 124
-0.0617315819144356 0.113924414254373 -0.0107466061577839 -0.4863435 -0.02895402 -0.8732879 110 110 110
-0.0257882199927166 -0.0729880502219407 -0.0104544357121035 -0.5019059 0.006032354 -0.8649012 112 112 112
-0.00681651316654609 0.0579888164101187 -0.0110083592050027 -0.4918487 0.04862912 -0.8693216 107 107 107
-0.0293987458278499 -0.118246347323016 -0.00424722029647159 -0.1430471 -0.9044477 -0.4018855 57 57 57
0.0082581280517305 0.127393909384552 0.00808110467475853 0.2806832 0.959616 0.01881705 85 85 85
-0.0659202362141002 -0.0696456676017917 -0.00912054051549546 -0.5204899 0.02400203 -0.8535304 124 124 124
0.0659143281024295 0.0303428903083325 -0.0123214711094773 -0.5538099 0.02238432 -0.8323421 161 161 161
0.0220697505053887 0.0404605480084567 -0.0127505688473689 -0.4718115 -0.02649553 -0.8813012 169 169 169
0.00427779252450704 0.0951504472771562 -0.0116515114939517 -0.446193 -0.00935995 -0.8948878 247 247 247
0.0348271657181983 -0.0240895507243509 -0.01358165376971 -0.4759777 0.02508809 -0.8790994 229 229 229
-0.0155225181994949 0.0265836038772906 -0.0124015308832935 -0.4717623 -0.005733746 -0.8817071 131 131 131
-0.0353587734403476 0.0396165854245433 -0.0116326183219316 -0.4812034 -0.004637053 -0.8765967 137 137 137
0.0670773279522961 -0.11118997435362 -0.0125886285586784 -0.4514998 -0.4342616 -0.7794644 108 108 108
0.0112063026279444 0.0389369939171926 -0.0127104204823907 -0.462636 -0.04975544 -0.885151 150 150 150
0.00208381259049985 0.0910425862739318 -0.0107498537185792 -0.4866152 -0.01802542 -0.8734304 194 194 194
0.00770662206499705 0.127090291979663 0.0117878400112785 0.2651488 0.9642071 0.0008718455 69 69 69
0.0374770052229305 -0.0504297303782349 -0.0115147802210178 -0.512648 -0.004859868 -0.8585851 118 118 118
-0.0753203680583271 -0.0373637876620679 -0.00105501099871311 -0.7964326 -0.1070569 0.5951756 57 57 57
-0.0786040359958975 0.0942500649739001 -0.00677994863361953 -0.9964335 -0.02811011 0.07956235 84 84 84
-0.0732789779127994 0.0147864248524721 -0.00994501302632647 -0.4523118 0.03254471 -0.8912659 103 103 103
-0.0521939592223637 0.104468794658919 -0.0109120630650403 -0.4680941 0.03500552 -0.882985 129 129 129
0.0129235564847932 0.0190272905450167 -0.0127841611467774 -0.5522963 -0.01557888 -0.8335023 141 141 141
-0.0567154416150085 0.10874606642739 -0.00946974057426453 -0.5014197 0.01751897 -0.8650268 122 122 122
-0.0587050265094417 0.135468876515537 -0.00975908899427477 -0.4508493 0.06861131 -0.8899592 157 157 157
-0.0125700197680619 -0.0492569213978399 -0.0107024135850789 -0.5117586 0.02480624 -0.8587711 126 126 126
-0.0601205442546147 0.0932938056623031 -0.00949615391833 -0.5072242 0.02209018 -0.861531 111 111 111
-0.0628258222055552 -0.0187763172122873 -0.0117842071331826 -0.4955636 0.01068201 -0.868506 69 69 69
-0.0629024404124581 -0.0479438418343583 -0.0113653396266286 -0.5292186 -0.01568937 -0.8483405 114 114 114
-0.0750264669613134 0.0827298684449114 0.0129295579778524 -0.7302961 -0.1110998 0.674036 22 22 22
0.0761449485258893 -0.0762139999562407 -0.0126799355245141 -0.506153 0.03284079 -0.8618182 160 160 160
-0.00176289803338942 0.107916760189394 -0.0105316702541267 -0.5159472 -0.01074716 -0.856553 133 133 133
0.0396491017046163 0.04276672465736 -0.0117111077536147 -0.5258368 0.04025922 -0.8496322 166 166 166
-0.0609078904320315 0.128679622832066 -0.0115773305717549 -0.5299765 -0.1389111 -0.8365576 161 161 161
-0.0399272120540787 -0.0788216868930042 -0.010231214065175 -0.5018737 0.01191737 -0.8648588 244 244 244
-0.0781485830148144 -0.0318680872107046 0.0119919492119621 -0.8632597 -0.05287133 0.5019835 81 81 81
-0.0769345824127279 0.119944063322688 -0.00888646614780153 -0.9768257 0.1725143 -0.1266903 92 92 92
-0.0477704677705295 -0.0677793145409423 -0.0100256281222389 -0.5048973 -0.00221173 -0.8631766 226 226 226
-0.0457006264419799 0.0892849204979084 -0.0117923201318366 -0.4922044 -0.01312458 -0.8703807 227 227 227
0.0152842431954983 0.119454304034405 -0.0120980354828515 -0.4475351 0.04863691 -0.8929428 139 139 139
0.0158046830241264 0.117417275193929 -0.0116650074268821 -0.4817392 0.005751049 -0.8762957 142 142 142
-0.00680967486043357 0.130956876797453 0.00393900417565676 0.09033396 0.9918841 -0.08947516 85 85 85
-0.0782471597503683 -0.0919301724083705 0.0037294021153485 -0.8852193 0.01557748 0.464913 57 57 57
-0.0520913452729915 0.100736071937357 -0.0108777172845258 -0.4986711 -0.0370373 -0.8659996 114 114 114
0.0421241920454552 0.109137342367138 -0.0124320542169606 -0.4946869 -0.03202495 -0.868481 135 135 135
0.050157190712271 0.0577887529317291 -0.0124181546178045 -0.4711577 -0.01283639 -0.8819556 120 120 120
0.0139153196036216 0.127703462738099 -0.011443581662827 -0.1325316 0.6651175 -0.7348837 118 118 118
0.0272202895644936 0.123632061250831 -0.00351072668622041 0.07146897 0.9801604 -0.1848722 87 87 87
0.0273596005955173 0.124788857848349 0.00927346562646741 0.03207863 0.9979385 -0.05558467 51 51 51
-0.007747890785419 0.0691006432800544 -0.010681855279821 -0.4886363 0.01959421 -0.8722675 150 150 150
0.0781049476732646 -0.0917291001506103 -0.0128482845294731 -0.5049156 0.01093988 -0.8630994 159 159 159
0.0987957434386826 -0.111613784367708 -0.00488110665227137 0.8535413 0.04356669 -0.5192006 71 71 71
0.0574296463840267 -0.00739770211199609 -0.0119957069772092 -0.5348557 -0.02583346 -0.8445485 96 96 96
-0.0241007715546221 -0.0626581763836715 -0.0103182816901267 -0.5015983 0.002385328 -0.8650974 100 100 100
-0.0599921096935733 0.0940357642530035 -0.0115038996634862 -0.5612643 -0.03093877 -0.8270581 134 134 134
-0.0542633342297786 0.0904884874921933 -0.0109521377395974 -0.4824107 0.03103746 -0.8753951 127 127 127
-0.0296168837188057 -0.0575140704012251 -0.0102405124138754 -0.5214251 -0.03578929 -0.8525462 96 96 96
0.00237174519514249 0.015208514354745 -0.01113452866761 -0.5232446 -0.007433807 -0.8521501 223 223 223
0.0979796445657702 -0.0261092340316 0.0100465034943741 0.8114111 0.07113288 -0.5801312 33 33 33
0.0380027621552156 0.094006882178468 -0.0118952431451101 -0.5510289 -0.005775664 -0.8344662 148 148 148
-0.0315088086103938 0.0520544616505852 -0.0106119615031158 -0.49323 -0.008365991 -0.8698587 164 164 164
-0.0794298163310252 0.0717677035043027 -0.00834667196027589 -0.9833511 -0.03136075 0.1789892 70 70 70
0.0972811213498928 -0.0280926726512706 -0.0116631477041361 0.1873809 0.2037699 -0.9609194 75 75 75
0.0690118729207199 0.064252887544005 -0.00530855985401726 0.5600732 0.4340242 -0.7056493 90 90 90
0.000485253562018386 0.127355761734178 -0.0106600296865134 -0.3213764 0.2593612 -0.9107409 214 214 214
0.00121868496504103 0.114923413791591 -0.0114765578403019 -0.4631771 -0.03941967 -0.8853887 152 152 152
-0.0758589935412081 0.125394466652967 0.00368324707045048 -0.9372129 0.1382715 0.3201764 81 81 81
-0.0351345991804016 -0.0292068938557553 -0.0115109221410736 -0.5457794 -0.007013706 -0.8378996 115 115 115
0.0586638934069852 -0.102042035017833 -0.012161444272698 -0.5154897 0.02108156 -0.8566364 117 117 117
-0.0758128599471693 0.137551268805833 0.0022949567744707 -0.7942849 0.3077997 0.5238042 30 30 30
-0.0265601399135396 -0.120631917132795 0.00230635343936825 -0.02166035 -0.9741225 -0.2249806 62 62 62
0.052116848109878 0.0977611403393975 -0.0116658472999106 -0.1213827 0.226326 -0.9664589 197 197 197
0.0613122590488955 0.0849172760759581 -0.0132936661623026 0.06886533 0.2436356 -0.9674188 171 171 171
0.0842712296072211 -0.122369185357177 0.00890437501331015 -0.2797637 -0.9403716 -0.1934774 46 46 46
0.0495585929222172 -0.0221614200092561 -0.0119525636329497 -0.5175653 -0.02295583 -0.8553358 149 149 149
-0.0505301731482476 -0.0431940281343639 -0.00980601877471943 -0.5443356 -0.08013284 -0.8350314 110 110 110
0.0252573735977062 0.123464215812941 -0.00954783250285471 0.03579072 0.8810604 -0.4716479 98 98 98
0.0302558926472279 0.0232821756512596 -0.0119265300163539 -0.5090468 0.006644192 -0.8607132 233 233 233
-0.0115367520398001 0.0765633566474994 -0.0104304326388957 -0.5289865 0.001346651 -0.8486292 103 103 103
0.0433676682407795 0.0412448196911379 -0.0117977932168027 -0.499952 0.06842757 -0.8633456 136 136 136
-0.0631469397463832 0.140998322242814 0.00013551216683072 0.08961498 0.9919735 0.08920644 52 52 52
0.0243349498471116 -0.0948096172026837 -0.0116430980959924 -0.5133796 0.01022025 -0.8581008 104 104 104
0.0732212242884919 -0.00927146181619443 -0.0136638804768044 -0.5095094 -0.05015765 -0.859002 132 132 132
-0.0537225551582649 0.0564692393789761 -0.010689397511856 -0.4695687 -0.0337285 -0.8822514 123 123 123
-0.0107102299938111 0.0890760861138576 -0.0117936640112689 -0.5773952 -0.02266903 -0.8161501 128 128 128
-0.0773416294526364 -0.0316303602283553 -0.00180266097966969 -0.852756 -0.06177735 0.5186432 53 53 53
-0.0747893442690324 0.045979745124153 -0.0105140562271134 -0.8914649 0.1854568 -0.4133958 120 120 120
0.0655289681738415 0.0648636467521904 -0.0134579872797945 -0.2161563 0.07579824 -0.9734121 204 204 204
-0.058765737129962 -0.0321027389258406 -0.00964543097059742 -0.51429 -0.08132415 -0.8537518 114 114 114
-0.075005547642932 0.130084787857993 -0.00285390681328065 -0.8578694 0.05751479 0.5106388 60 60 60
-0.0162709478830951 -0.0967866441585996 -0.0113486667153062 -0.489787 0.01507064 -0.8717119 235 235 235
-0.0662869409675658 0.140331544421836 0.0118506345439999 0.04528818 0.9910657 0.1254503 69 69 69
-0.0544442531758595 -0.0163534502467262 -0.00977528479673376 -0.5154831 0.09219942 -0.8519251 123 123 123
0.058054787459413 -0.0680611491882953 -0.0122079650054013 -0.5092384 -0.01611619 -0.8604746 98 98 98
-0.0135930223334202 0.0728510805269643 -0.01201619227645 -0.4667648 -0.008937972 -0.8843364 96 96 96
0.0843115988824693 -0.0700511186647768 -0.0128266041928537 -0.4940811 0.01336487 -0.8693131 159 159 159
-0.0436535324449153 -0.0822457024139429 -0.0100799271534001 -0.5114959 -0.008177799 -0.8592468 225 225 225
-0.0269234374466081 0.135521637584722 -0.00645540382434603 0.1167417 0.9814236 -0.1522472 82 82 82
0.00641898467398393 0.0508483260895993 -0.0109908867250695 -0.4773848 0.02312871 -0.8783899 151 151 151
0.0936308999541081 -0.0399745834302718 -0.0129483960335987 -0.4303 -0.03649371 -0.901948 157 157 157
-0.0429228897801245 -0.0288958957996405 -0.0104116192595742 -0.5359879 0.01161617 -0.8441458 144 144 144
0.0774724606675159 -0.0336779134669478 -0.0126201000839851 -0.4946235 -0.0002615327 -0.8691073 159 159 159
0.00383588283176746 -0.0786545133324322 -0.0110923087001678 -0.5108953 0.01644249 -0.8594857 117 117 117
0.0828072897847953 0.0403707737782385 0.0096338402934914 0.7120309 0.292426 -0.6383565 40 40 40
0.0345967893930962 0.0376341430239433 -0.0122120733816455 -0.5622986 -0.02709708 -0.8264902 140 140 140
0.072328799413928 0.0372484815488578 -0.0125121972889523 -0.4500326 -0.03053314 -0.89249 227 227 227
-0.0775206172024676 -0.0160320607630597 0.0124551288801192 -0.8500314 -0.02020365 0.5263443 40 40 40
-0.0167891880119776 0.00527005942525172 -0.0106600130255952 -0.4758789 -0.005507043 -0.8794936 229 229 229
0.0986420022801081 -0.0717769223339294 -0.00211554180544146 0.8361726 0.05245201 -0.5459526 66 66 66
0.0182732257412419 0.0474527686858905 -0.0119176903788578 -0.5169595 0.04582974 -0.8547822 130 130 130
-0.0778339998777079 -0.0202853279810834 -0.00951031835240249 -0.9673362 0.1306534 -0.2172335 93 93 93
0.00846080727357769 -0.119108068146359 0.00328820647724673 -0.01905764 -0.9739034 -0.2261612 34 34 34
0.0623469712718031 0.0818107823095289 -0.00914928826770592 0.6331393 0.3975731 -0.6641312 94 94 94
-0.0139511041199379 -0.0248604643618653 -0.0107533277024957 -0.4853963 -0.05532527 -0.872542 114 114 114
0.0243984021321539 -0.0764759376641713 -0.0116367879112638 -0.4995792 0.01325591 -0.8661668 231 231 231
-0.0225905835308898 0.0412388227120394 -0.0114788223548075 -0.4954523 -0.08840635 -0.8641246 123 123 123
0.0321251253134784 0.0799255353329871 -0.0121884593550136 -0.5211563 -0.02187505 -0.8531809 229 229 229
-0.0761883133722354 -0.0557140917715168 -0.00371275436639767 -0.8859926 -0.03026947 0.4627104 67 67 67
-0.0663464616654014 0.107447558332097 -0.0104645042105635 -0.5118937 -0.03337909 -0.8584001 153 153 153
0.0215790086703629 -0.00166045526013103 -0.0131564051194504 -0.4974581 0.04292225 -0.8664255 134 134 134
0.00796212412687319 0.125313982630059 -0.0113596510603712 -0.5206438 0.1645353 -0.8377697 219 219 219
0.0989487976768502 -0.0858351612961681 -0.000598212269699111 0.8560799 -0.008406069 -0.5167752 64 64 64
0.0286913303895427 0.0294069228860806 -0.0129204669557743 -0.5029932 0.04843018 -0.8629324 234 234 234
-0.0298668927941281 0.0880865689421848 -0.0107017332864791 -0.4800881 0.03149454 -0.8766547 76 76 76
0.059708531644464 0.0158036279605658 -0.0137436669355513 -0.4726706 -0.02180818 -0.8809693 156 156 156
-0.0399038209410695 0.108743008016102 -0.0103354960607488 -0.4765988 0.03422185 -0.8784546 140 140 140
0.0261096356844771 -0.0721898607566727 -0.0116154800713814 -0.5006511 0.01519106 -0.8655159 232 232 232
0.0265794233386423 -0.00945608702764511 -0.0132297667805223 -0.4807694 0.01948074 -0.8766307 133 133 133
0.0449011765016111 0.0356671800271906 -0.0119252573658587 -0.5081602 0.01578262 -0.8611179 133 133 133
0.0281725537162168 0.0835479067236854 -0.0118267855760658 -0.5516152 0.05697745 -0.8321503 225 225 225
0.0413299086314045 -0.0180971833472575 -0.0120155122145945 -0.5158307 -0.02178656 -0.8564135 138 138 138
0.0892643947993012 0.0104959105000909 0.00537612392387424 0.8808645 0.1017869 -0.4622956 39 39 39
0.0436130461242808 0.101782207906116 -0.0128769734002462 -0.4824623 0.0274549 -0.8754864 147 147 147
0.0901830168268858 0.00360054706662627 -0.00689217178230458 0.7125335 0.201413 -0.6721078 81 81 81
0.0634518812929689 -0.0786232586142257 -0.0122668798260879 -0.5193227 0.01375219 -0.8544676 94 94 94
-0.00580360810627926 -0.0743810811098967 -0.0108757172178185 -0.5072038 -0.01234512 -0.8617378 99 99 99
-0.0623460494949803 -0.0836716904818271 -0.00930761591975721 -0.4942256 0.02471935 -0.8689822 100 100 100
0.0561054228647354 0.0953801766107282 -0.00736421745780963 0.565294 0.5977678 -0.5684332 131 131 131
-0.0398576918425383 0.115995882700941 -0.010930005777979 -0.4375914 0.03547718 -0.8984737 126 126 126
-0.0443143455619534 -0.00713307694778065 -0.00996405043321977 -0.4660413 -0.1146446 -0.8773039 231 231 231
0.0922423370723138 -0.0418624823152204 -0.0129938733466665 -0.4694887 -0.06993999 -0.8801641 164 164 164
-0.0802870432136299 0.0134276870079429 -0.00779065883692187 -0.988068 0.132524 0.07847863 92 92 92
-0.0167549466696983 0.133115351253402 0.00205405477039833 0.1649991 0.9800624 -0.1106936 76 76 76
0.00380799758195416 0.0754292522464662 -0.0123358711136197 -0.5210617 -0.02870187 -0.8530363 246 246 246
0.0594396460996701 -0.11772100377755 0.00571812711029349 -0.1996295 -0.9373697 -0.2854578 83 83 83
-0.0303140966277763 -0.0368296761537026 -0.0102988356993826 -0.5176762 -0.04194942 -0.8545476 141 141 141
0.0995141786789246 -0.0680608644012924 0.000100892816657094 0.8315059 0.1000545 -0.5464311 48 48 48
-0.0520856212812233 -0.0421278373561049 -0.00992083993315043 -0.5255663 -0.0927271 -0.8456842 142 142 142
0.0130803732021335 -0.0224782576527188 -0.0112300601687505 -0.5671273 0.006298776 -0.8236061 107 107 107
-0.0780963847478211 -0.108313638776363 -0.00906568223684096 -0.8894584 0.05601757 -0.4535702 135 135 135
-0.0755256070087469 -0.00368534866311832 -0.00965158843529496 -0.6753964 -0.05363347 -0.735502 109 109 109
0.00444605795526204 0.0112843717881623 -0.0109455263809497 -0.5209259 0.009235648 -0.8535519 117 117 117
-0.0740526748642631 -0.0478661660736419 -0.00945425376910952 -0.5791205 -0.1653408 -0.7982994 105 105 105
0.0824587763527598 -0.121842528755861 0.00653365118225185 -0.2799128 -0.9399297 -0.1953993 47 47 47
0.0809430554036754 0.0432247294717438 0.00396933313034781 0.7293585 0.2500041 -0.6368156 39 39 39
0.0474297012377527 0.0141773961706148 -0.0117987449230973 -0.5221091 -0.02491325 -0.8525147 154 154 154
0.0214833250387553 -0.0286217198190134 -0.01133822622215 -0.5041066 0.009950293 -0.8635842 120 120 120
-0.0798532593325124 0.00778641712131412 0.01016848178367 -0.8331481 -0.0008804492 0.5530493 46 46 46
-0.00572795113851308 -0.0927626078281015 -0.0108300417919134 -0.491532 0.006742074 -0.8708335 238 238 238
-0.0693925795106149 0.0517881808831734 -0.0111753204124744 -0.5510401 -0.01878629 -0.8342673 131 131 131
0.0142077049462153 -0.0199883414532839 -0.0109574661691738 -0.5234039 0.01483727 -0.8519555 118 118 118
-0.0110802020719687 0.132385944984134 0.00865860151718323 0.1218938 0.9832383 -0.1355885 41 41 41
0.0115653485790868 0.126579065169909 0.0105317001172997 0.1862192 0.9823583 0.01716409 74 74 74
-0.017877727096113 0.121052814022861 -0.0106469858845361 -0.5240366 0.009676658 -0.8516408 143 143 143
0.0297604620712711 0.0774549232298402 -0.0120218752256474 -0.4734768 -0.04082368 -0.8798597 245 245 245
-0.0522658382492927 -0.0319034773190957 -0.00975614272023498 -0.4964032 -0.1197511 -0.8597927 93 93 93
0.0139592641630836 -0.0743988926070753 -0.0113145125900958 -0.5040359 -0.01195135 -0.8636 107 107 107
-0.0713012609624703 0.0276868709148103 -0.010732378353557 -0.5243311 0.03927182 -0.8506084 138 138 138
0.0464954197875855 -0.116351785874948 -0.00183879829895209 -0.02186257 -0.9701254 -0.2416171 43 43 43
-0.0389066297692505 0.140665647067978 0.00116150672216103 0.2015389 0.9608406 -0.1901775 66 66 66
0.0456315872986004 -0.101606419425903 -0.012097748990317 -0.5087973 -0.04095988 -0.8599113 163 163 163
-0.0739889476327985 -0.0393871494260941 -0.00906236779579669 -0.5742569 -0.09738774 -0.812862 94 94 94
0.0395494820154049 -0.00435492466117104 -0.0118230179414718 -0.4693413 -0.07163559 -0.8801063 104 104 104
0.0736679930075052 0.0661047859375863 0.000125400180396307 0.5896653 0.3180267 -0.7423974 158 158 158
0.0633104181010002 0.0855670757639414 0.00267667089354484 0.5762841 0.4891667 -0.6546851 118 118 118
0.0712986873091377 -0.00645505640535282 -0.0134798329332462 -0.4961871 -0.02319411 -0.8679057 127 127 127
-0.0769707439056617 0.10850789665767 -0.00940032301349891 -0.9106232 -0.04356556 -0.4109348 72 72 72
0.0738035298714971 0.0567066735622518 -0.00133644135841121 0.5344393 0.3388222 -0.7743217 133 133 133
-0.0719170194666956 0.068750391914406 -0.0113844904734574 -0.501055 0.05182746 -0.8638621 123 123 123
-0.0764049490694768 -0.0418325114007747 -0.00226657294788404 -0.7282524 0.00216349 0.6853057 55 55 55
0.0958975234849497 -0.0372358204128221 -0.0122919269147289 0.08193119 -0.1073496 -0.9908397 118 118 118
-0.0401358055176871 -0.024356066197794 -0.0122888357533367 -0.4916698 -0.02312631 -0.8704746 127 127 127
-0.0384929930731607 -0.119423546838461 -0.00255246352537641 -0.06708594 -0.945883 -0.3174978 20 20 20
-0.078618660998737 0.0854222217927567 0.00128289724613045 -0.8494937 -0.08475353 0.5207468 71 71 71
0.0540494633311164 0.0781111666598503 -0.0132027638080639 -0.48944 -0.005395974 -0.8720203 119 119 119
0.0414978691936365 -0.0825419101309037 -0.0119027200373817 -0.5049533 0.01705581 -0.8629782 162 162 162
0.0417204663438406 -0.0680233203017793 -0.0120075997272306 -0.516098 -0.0115326 -0.8564519 127 127 127
0.0255913409741423 0.114655870275442 -0.0127644897432955 -0.4932689 -0.008610889 -0.8698342 124 124 124
0.00946085113446415 0.0232188002942262 -0.0111192374539125 -0.4547184 -0.100616 -0.8849337 233 233 233
-0.0612592749439694 -0.0506866825267238 -0.0096361883447626 -0.5196303 -0.07811292 -0.850813 140 140 140
-0.0681741340989942 -0.0478959082891521 -0.00956101127665301 -0.5703557 -0.0815294 -0.8173416 88 88 88
0.0442517245112971 -0.115924562666532 -0.00414117100329225 -0.1254379 -0.9470003 -0.2957293 42 42 42
-0.0672199454438455 0.121474438017828 -0.0118101266213995 -0.5541626 0.1343397 -0.8214965 113 113 113
-0.0223046385804816 0.126939298734151 -0.0112895235189784 -0.5080059 0.05221519 -0.8597695 116 116 116
-0.0742641344405399 0.138909525070076 0.00583677175040262 -0.4961301 0.6032202 0.6244839 49 49 49
0.0969118940237772 -0.020121697476758 -0.00386726169895588 0.7903714 0.009466426 -0.6125548 42 42 42
-0.0264218733460902 -0.0432927727569903 -0.0103931548230858 -0.4915851 0.02541802 -0.8704585 143 143 143
-0.0251628517604472 0.135091718418537 0.00798585019322928 0.2611337 0.9494968 -0.1739684 64 64 64
0.0854348089995257 -0.0194188772699674 -0.0128092094792821 -0.5121184 0.01629459 -0.8587603 161 161 161
0.0202223096252007 0.0198705404355781 -0.0111848456216061 -0.5134423 0.00344923 -0.8581172 83 83 83
-0.0788767166486585 -0.00333555979723266 -0.00947748558088191 -0.9764837 -0.1171258 -0.1810002 109 109 109
0.0291764799019227 0.0116339099501014 -0.0126760182943181 -0.4536978 0.005657811 -0.8911377 243 243 243
0.0631271907787237 -0.0458023637228093 -0.0125794398618434 -0.501779 0.005935991 -0.8649755 142 142 142
0.0803809926140847 -0.0521669589915325 -0.0125876821426777 -0.5034193 0.01372267 -0.8639333 104 104 104
0.00156103818581556 0.077664552290865 -0.0119292799605147 -0.5222238 0.005147663 -0.852793 237 237 237
-0.0481967435651284 -0.00939935137343861 -0.0098336548232551 -0.4822198 0.02756054 -0.8756166 205 205 205
-0.0513201674341326 0.0520583959588058 -0.0097084583884092 -0.478839 0.1555513 -0.8640121 103 103 103
-0.0757546509502201 0.0386133356879187 0.00120480611624341 -0.9065213 0.0623012 0.4175378 76 76 76
0.00454965879494187 -0.00862998920915936 -0.0113988116565202 -0.4915029 -0.002525855 -0.8708723 111 111 111
-0.0683018836005358 0.00417612031880954 -0.00956575693773798 -0.5174739 -0.03041383 -0.8551583 80 80 80
0.0156271688259281 0.00955530076618938 -0.0118706080431858 -0.5410157 0.008001491 -0.8409745 81 81 81
0.0154692018481057 0.0443798322225407 -0.0125803173284813 -0.454375 0.01183023 -0.8907319 141 141 141
-0.0239592548637503 -0.0746408843044702 -0.0106344092395176 -0.5009511 0.0003436166 -0.8654755 123 123 123
0.0479760308492947 0.0857411650421436 -0.0120880566661859 -0.4780118 0.0006939173 -0.8783531 122 122 122
0.00602794028415421 0.0875900331984665 -0.0120544316240926 -0.4944082 -0.04844624 -0.8678787 233 233 233
-0.0379034532646691 -0.0732788886002376 -0.0100893714669633 -0.4844981 -0.002394829 -0.874789 115 115 115
0.0767123775699525 -0.0774371533863635 -0.0128862171174643 -0.5120103 0.0205759 -0.8587328 178 178 178
0.0729123977437997 0.0284371242571065 -0.0124366712339039 -0.4798643 0.01551134 -0.8772056 169 169 169
-0.0185785031039997 0.0929424453422975 -0.0104166587495313 -0.4894823 -0.04647437 -0.8707739 238 238 238
0.0970349540334643 -0.104281064018316 0.00874538836256825 0.9017556 -0.06631726 -0.4271286 65 65 65
-0.0167589820166891 0.129045409785741 -0.0103083931488835 -0.4773678 0.1177954 -0.8707722 131 131 131
-0.00313280567425887 0.0136190863598902 -0.0113979933525912 -0.5238026 -0.04324498 -0.8507412 226 226 226
-0.0694482685813 -0.0680851143876443 -0.0092980362713061 -0.4935355 0.008896531 -0.8696802 123 123 123
-0.0761826691487947 0.0700847225723145 -0.00584279361781406 -0.8241689 -0.486047 0.2906956 65 65 65
-0.0675482386869685 0.0224680483480786 -0.00951771287238803 -0.4697301 -0.03126692 -0.8822562 112 112 112
-0.027986891881106 0.0547362936004969 -0.0121335427421419 -0.4812922 -0.02941462 -0.8760665 146 146 146
0.0713236033433988 0.0516547395617398 -0.0106217091087011 0.3879629 0.3275672 -0.8615013 191 191 191
0.0031013766812057 0.00174244135128332 -0.0108792622082841 -0.449705 -0.01920265 -0.8929707 111 111 111
0.0171891005086515 0.00466681378192857 -0.0110221556666797 -0.4981714 0.03797444 -0.8662466 88 88 88
-0.0193346966011223 0.115293182327781 -0.0106530694830329 -0.4991983 0.02002717 -0.8662563 178 178 178
0.0267691730229334 0.0561774870737042 -0.012174265577834 -0.5367588 0.01979209 -0.8435035 161 161 161
-0.0783891717576755 -0.0697312037527776 -0.00273527343546567 -0.898859 0.1060696 0.4252079 57 57 57
-0.0340860102628008 0.10844004927918 -0.010693257832622 -0.5188858 -0.03151056 -0.8542626 104 104 104
-0.00662495172449877 0.101452374262204 -0.0106786731086228 -0.5039176 -0.01736964 -0.8635771 146 146 146
-0.0172527222852078 -0.085122461349211 -0.010617302640254 -0.5097118 0.04236066 -0.8593017 111 111 111
-0.0689981145855776 0.0141869367022959 -0.00934064425208878 -0.4908636 -0.01914896 -0.871026 109 109 109
0.0540778804905158 0.0660287041157167 -0.0130636429618277 -0.4569041 0.01940274 -0.8893043 130 130 130
-0.0527311790026631 -0.00531259031760989 -0.00997854741102772 -0.514032 0.01432934 -0.8576513 101 101 101
0.0374276188859351 0.106109553585234 -0.0123370645628242 -0.5015041 -0.01908284 -0.8649448 116 116 116
-0.0219716659620176 0.0831257727833518 -0.0118064006182209 -0.503101 0.02100861 -0.8639722 87 87 87
0.0328634219714364 0.0301252980273069 -0.0117800413028399 -0.5302921 -0.001319323 -0.847814 209 209 209
-0.014309404919695 -0.0612819779958639 -0.0105367836812465 -0.5063084 0.01966206 -0.8621283 104 104 104
-0.0557284363335317 0.0306105397040624 -0.0100591128889206 -0.5639594 0.05240221 -0.8241382 92 92 92
0.0522703650226591 0.0681138220906335 -0.0132339461845876 -0.470436 0.009800221 -0.8823797 141 141 141
-0.0799526245185712 -0.0879233448367915 0.00891817627703695 -0.9323083 -0.1043207 0.3462924 81 81 81
-0.0288253672759666 0.118478829673505 -0.010257514569876 -0.5284767 0.02994988 -0.8484193 152 152 152
-0.00443958373917013 -0.0402414887871946 -0.0109071625114291 -0.4944491 0.02267563 -0.8689107 130 130 130
-0.0145693420585212 -0.0850321282684482 -0.0105410300413554 -0.5078599 0.03452326 -0.8607476 111 111 111
-0.074115471142342 0.139557937880678 -0.00276108989913845 -0.7934274 0.6053457 0.06347919 74 74 74
0.0297039793238668 -0.0204547503847614 -0.0116046465615125 -0.5204766 0.01820086 -0.8536819 235 235 235
0.0455247703748223 -0.0909281049467857 -0.0127942178428152 -0.5211089 0.02211243 -0.8532037 155 155 155
-0.0646580396928344 0.140598646850537 0.00412628101805915 0.04784253 0.9947971 0.08994364 86 86 86
-0.0449029387356689 0.139754606875243 -0.0104244993941486 -0.1405914 0.6651314 -0.7333718 78 78 78
-0.0769630560287395 0.121795520744369 -0.0037249082198744 -0.7575593 0.222161 0.6137983 88 88 88
-0.0778530651384728 0.00799053824457774 0.00542825132138697 -0.8452961 -0.05311713 0.5316512 64 64 64
-0.0784335083565768 0.103672487220419 -0.00532682613075525 -0.9361318 0.150507 0.3178128 92 92 92
0.0913189757136497 0.00208235087559061 0.0015520563290369 0.8688621 0.2464192 -0.4293672 23 23 23
0.0701518220707124 -0.063924650386662 -0.0125624506847671 -0.5009836 0.001259706 -0.8654559 137 137 137
0.0329278679015238 0.0205093488260869 -0.0129125075463406 -0.4647832 -0.03145815 -0.8848655 222 222 222
0.0823445953009648 0.0367948389939626 0.00399366976353516 0.6722872 0.1976976 -0.7134042 40 40 40
-0.0395238641020439 0.136466409192665 -0.0117448542110321 -0.5254221 0.2460669 -0.8144831 134 134 134
-0.0158680157523994 0.0558134113851404 -0.0123011524408742 -0.4638976 0.03973651 -0.8849972 182 182 182
-0.0356290189819388 -0.11542258012059 -0.0102157811001281 -0.5365089 -0.1507982 -0.830312 104 104 104
0.0230338620836133 -0.000782701287834753 -0.0113799324076941 -0.5102228 0.03175943 -0.8594556 133 133 133
0.0746524680303516 0.0178292938339111 -0.0126238929771623 -0.5234693 -0.02164405 -0.8517696 174 174 174
0.0842401842119527 0.0301380696575482 0.0067181662803979 0.7250152 0.1837933 -0.6637567 63 63 63
-0.0185332701562001 -0.0608536040571387 -0.0103418703067773 -0.5256168 -0.03322519 -0.8500724 105 105 105
0.0508954004649499 -0.0510402534009022 -0.0122599964733722 -0.504671 0.0138683 -0.8632004 115 115 115
-0.0799644090926252 -0.106286456719611 -0.00235897774932675 -0.9227363 0.2012019 0.3287482 70 70 70
-0.0618541890354381 0.121875930498402 -0.0118401851378115 -0.4694834 0.1799793 -0.8644031 105 105 105
-0.000327194690053019 0.0852239341056698 -0.0118549406735169 -0.5375009 0.006325451 -0.8432394 160 160 160
-0.0657985906211318 0.0700249522502268 -0.00929358867873939 -0.5080177 0.001955293 -0.8613445 69 69 69
-0.0753062286559573 0.0596741025850376 0.00933584217621208 -0.8673975 -0.03285101 0.4965303 63 63 63
-0.0558406428222972 -0.0733277262484373 -0.00982505357366853 -0.5038872 0.02040931 -0.8635283 124 124 124
0.0273404519777546 -0.0382688280416276 -0.0114588833159596 -0.5106737 0.02786925 -0.8593228 120 120 120
0.0209278995205901 -0.0989001100195056 -0.0114680417737018 -0.5162606 -0.0006471508 -0.8564313 118 118 118
-0.0595744980095263 -0.0949416577864793 -0.0097098750283541 -0.4988915 0.01166624 -0.866586 149 149 149
-0.00866294591933312 -0.0586874012806393 -0.010826751376984 -0.512067 0.0002815477 -0.8589455 98 98 98
-0.0311796061758717 0.0389943212831387 -0.011034996808394 -0.4780152 -0.02841669 -0.8778918 111 111 111
-0.0398131973864734 -0.0511112160269614 -0.0101580726629538 -0.5189774 0.0068957 -0.8547602 127 127 127
-0.0748886959219817 0.140453077716992 0.00193467407188266 -0.5752594 0.7335262 0.3619612 106 106 106
-0.0672351644459194 -0.00342887807065884 -0.00987307605224924 -0.5002415 0.006722811 -0.8658599 100 100 100
-0.0656530832962188 -0.122742925637635 -0.00526875379191452 -0.1641293 -0.9040046 -0.3947622 77 77 77
0.00407443448039345 -0.0360356775860546 -0.011083218132886 -0.5055291 -0.03504911 -0.8620974 149 149 149
-0.0115499429877617 0.129378686525156 -0.011064119532413 -0.4151278 0.2787264 -0.8660141 127 127 127
-0.0266851981879774 0.108901561486606 -0.0101596979283566 -0.4823148 -0.05045554 -0.8745437 148 148 148
0.0648476306375971 -0.106267737500019 -0.0126513816433558 -0.4894193 0.006693662 -0.8720229 117 117 117
-0.0760120029730872 0.0644684517573529 0.0054524613015825 -0.8582778 -0.05620626 0.5100982 76 76 76
0.0921511771863756 -0.0360086425715447 -0.0129787612759008 -0.4552088 0.01435232 -0.890269 140 140 140
0.0407668468967235 -0.109139145276679 -0.0129593742069574 -0.4524999 -0.07465097 -0.8886344 126 126 126
-0.0765763845905225 0.101593326841441 0.0117614383832703 -0.8496327 0.01531632 0.5271525 88 88 88
0.0744516837993011 -0.0618635262199444 -0.0125664963123709 -0.5042462 -0.0005311776 -0.8635598 118 118 118
-0.0555957776956667 0.068155852415334 -0.010354283415246 -0.4668272 -0.07262053 -0.8813618 94 94 94
-0.0537025169657925 -0.030153719545889 -0.0096799809609355 -0.5665487 -0.1128112 -0.8162697 115 115 115
-0.0734495017645118 0.0861844647611821 0.0109800294060177 -0.6542958 -0.08178112 0.7518037 47 47 47
0.0270603329315127 0.0479575827080838 -0.0126557975941144 -0.4793549 0.02513267 -0.8772612 132 132 132
-0.00792021480340369 -0.0848767736556839 -0.0113861745915105 -0.4791812 0.007970127 -0.8776798 121 121 121
-0.0812436059090217 -0.1103782203958 0.00907027619761416 -0.8311535 0.04794351 0.5539724 42 42 42
0.0823230274782186 0.044163379329384 0.0084324683211108 0.7444872 0.3523337 -0.5670976 22 22 22
0.0401962270221897 -0.0899179382709725 -0.0120212577743807 -0.5131241 -0.003896308 -0.8583056 150 150 150
-0.0786533050066846 0.00618898010655855 -0.00639429736092079 -0.9714757 0.04121623 0.2335301 63 63 63
0.0371611231916391 0.0296898962802528 -0.0118034429771922 -0.5171019 -0.02662754 -0.8555096 137 137 137
0.079157809399861 -0.0296922057380751 -0.0126046862643375 -0.4999225 0.01026127 -0.8660094 169 169 169
-0.0411620723139294 0.064406771663887 -0.00966916258771033 -0.5041181 -0.04812726 -0.8622927 250 250 250
-0.00737120945981362 0.0509486379595099 -0.012434326007849 -0.4667414 -0.03143771 -0.8838349 120 120 120
-0.0407772090591869 0.128960888854614 -0.0118055886286714 -0.5032024 0.09058177 -0.8594081 137 137 137
-0.0811081484629996 -0.00102714625059552 -0.00603575503246023 -0.9599112 -0.07444873 0.2702367 109 109 109
-0.0804637926909558 0.0123228247328242 -0.00753394142445854 -0.9898595 0.1249885 0.06749931 94 94 94
-0.00644703517796933 0.110618721493671 -0.0119816992797854 -0.5136012 -0.004065322 -0.8580194 153 153 153
0.0566467143486085 0.102435380990872 0.0113182892997973 0.5747905 0.5136617 -0.6369989 81 81 81
-0.0770950066130999 0.0494660407533701 -0.00119396674016647 -0.8749009 0.1308287 0.4662963 46 46 46
-0.0359675448915292 -0.097473852199644 -0.0100421616108128 -0.4870519 0.001624319 -0.8733715 77 77 77
-0.0784223438020829 -0.0923047454510053 -0.0064864615479979 -0.9716054 -0.1586621 0.1755258 61 61 61
0.0465375388401202 0.0394848673028445 -0.0132265663308249 -0.5404547 0.04097546 -0.8403747 149 149 149
0.0657102058845654 0.0206456877119932 -0.012417509844916 -0.5462351 -0.09374887 -0.8323691 155 155 155
-0.0779282981427585 -0.0444191376953712 -0.00909842573544234 -0.9905519 -0.08414198 -0.1082911 109 109 109
0.0136943402777331 0.103684209123783 -0.0118598544052779 -0.571412 0.01597798 -0.8205078 141 141 141
-0.036150203410676 0.104830437632171 -0.0104596628968461 -0.4924764 0.0568876 -0.8684646 126 126 126
0.0567361073219019 -0.102514945932931 -0.01192075540577 -0.5189756 0.02779118 -0.8543372 130 130 130
0.0094045284593998 -0.0246693534005927 -0.0110352737537969 -0.5421413 -0.0285713 -0.8398014 113 113 113
0.0272523748945431 0.124958650341524 -0.00136596903774963 0.03381618 0.9727132 -0.229533 55 55 55
0.070368666645464 0.04195600893333 -0.0125727450877119 -0.5045748 0.02067198 -0.8631204 214 214 214
-0.0481074130826386 -0.0754750733470992 -0.00996509836745396 -0.5068584 0.009336705 -0.8619788 149 149 149
0.0715031570435153 -0.0439450620121941 -0.0124210774624345 -0.4984825 0.005185848 -0.8668842 111 111 111
-0.000758664182441618 0.0473788810981043 -0.0119085046853371 -0.4731269 0.05584033 -0.8792229 128 128 128
-0.0696191034036305 -0.109549609632031 -0.00956177769534317 -0.5120276 0.007063378 -0.85894 138 138 138
0.0990897721449312 -0.0840619537824064 0.00186119038892921 0.8701301 0.004007832 -0.4928059 71 71 71
-0.0159363116158896 -0.0574234679631908 -0.0106253881097633 -0.4957186 -0.02842627 -0.8680179 143 143 143
0.0238284679635542 -0.0982674252705857 -0.011820641919397 -0.5169232 -0.006696376 -0.8560056 147 147 147
0.0304272840430058 -0.108428681516139 -0.0116502228620828 -0.5055763 0.0141201 -0.8626664 118 118 118
-0.0754854543363295 0.122195425499616 0.00342176236992803 -0.9319804 0.0963042 0.3494826 52 52 52
-0.0439244392913352 0.0542564247570456 -0.0108905686441532 -0.4862517 -0.03611239 -0.8730723 102 102 102
0.0492623522754666 -0.104820386010267 -0.0122209524952864 -0.4900582 -0.0003934934 -0.8716896 172 172 172
0.0584996426046443 0.0260920867471425 -0.0120954891425574 -0.5011055 -0.03357189 -0.8647348 126 126 126
0.0635246448163883 -0.0585255289265292 -0.0124070420346422 -0.5043039 -0.0032216 -0.8635202 182 182 182
0.0743851491173361 -0.0820947133425042 -0.0128753129124151 -0.5127499 -0.00481496 -0.8585246 150 150 150
-0.00906099140041072 0.00891625253410622 -0.0108428804555422 -0.4563038 -0.04104966 -0.8888767 235 235 235
-0.0585435328457696 0.0939055718425029 -0.0101502929642174 -0.477915 -0.0043097 -0.8783955 137 137 137
0.0968611891743987 -0.0217341792139215 0.00324015318772636 0.8526825 0.0212987 -0.5219951 19 19 19
-0.0784181676330473 0.102468196313625 -0.00297570791817842 -0.8092209 0.01346076 0.5873503 83 83 83
-0.0406954105413823 0.139284839271152 -0.00659247319173123 0.1294158 0.9068089 -0.4011847 85 85 85
0.00245713196165548 0.125309030882729 -0.0120522986693361 -0.4211209 0.09629314 -0.9018785 168 168 168
-0.00247789493166242 0.13024199968514 0.00626785010319769 0.1889512 0.9783478 -0.08445704 76 76 76
0.0752516914747764 0.00962109111725196 -0.0125258879799959 -0.5491948 -0.01201123 -0.8356081 157 157 157
0.077836637597396 -0.101621236900865 -0.0125600224964951 -0.4887159 -0.01263352 -0.8723515 93 93 93
-0.0564050503617444 0.0966107811139801 -0.0107701351595204 -0.4925083 0.021589 -0.8700399 109 109 109
-0.0629212305361345 -0.0370141392154512 -0.0117704361875512 -0.5103896 -0.01811537 -0.8597525 94 94 94
0.0567737735097666 0.0531194056202881 -0.0132241090145622 -0.4683318 -0.01047821 -0.8834905 147 147 147
-0.0060300455739949 0.129092922956039 -0.0114824903777067 -0.4213238 0.2538807 -0.8706496 220 220 220
0.0989835395226261 -0.0593285121721249 0.00891364393638383 0.8593391 0.03424143 -0.5102586 48 48 48
0.0586050479716744 -0.103087539183858 -0.0119915637837568 -0.5150639 0.014398 -0.8570309 125 125 125
0.0787499838055876 0.0378036207546851 -0.00994410926580275 0.3621958 0.378579 -0.8517583 143 143 143
0.0660397665768038 -0.0962520630534071 -0.0128317556346201 -0.5188068 -0.02150788 -0.8546209 102 102 102
-0.0568321811979524 0.0784049025221449 -0.0106036510278183 -0.4597901 -0.06287878 -0.8857987 131 131 131
-0.0788753114646088 -0.102407542853735 -0.00474474657862645 -0.9702007 0.1781456 0.16424 60 60 60
-0.0278857739205541 0.135832977632634 -0.00640782745239507 0.08684234 0.9819329 -0.1681253 89 89 89
-0.0494763562417936 -0.0996430105245135 -0.0100187394001565 -0.5176057 -0.00802355 -0.8555817 103 103 103
0.0769692137253203 0.0184390910768224 -0.0126648099865047 -0.4736808 -0.06460438 -0.8783239 192 192 192
-0.0773501217299789 0.0698723036435327 -0.00893979788323113 -0.8216471 -0.1187277 -0.5574942 101 101 101
-0.0377595037874492 0.0170176035713114 -0.0110350990102745 -0.4641135 0.06858756 -0.8831163 106 106 106
-0.00873886665350868 0.0289028226481378 -0.0110367359547807 -0.511892 -0.02319524 -0.8587366 122 122 122
0.0277493117271528 0.0154769340240264 -0.0115266757998751 -0.4936658 0.01654539 -0.8694943 231 231 231
0.0767343132575525 0.0553859754050525 0.0087402614863055 0.8160056 0.3338388 -0.4718968 29 29 29
0.00119798261095447 0.123392943663182 -0.0108809409975308 -0.4863261 0.0492294 -0.8723895 180 180 180
-0.000109171978388585 0.0992648150566996 -0.0116646026925376 -0.4893735 0.00908476 -0.872027 162 162 162
0.0623146182744356 0.0183692311228758 -0.0122636241015171 -0.4665794 -0.003090636 -0.8844739 133 133 133
0.0446877231275813 -0.0881687111535085 -0.012721513056691 -0.53988 0.02776546 -0.8412839 160 160 160
-0.0591607126350421 -0.00512510793880949 -0.00954635646180571 -0.4657739 -0.1162758 -0.8772312 91 91 91
-0.0627782443091658 0.00547077282797992 -0.0100295664049804 -0.4874722 -0.01187332 -0.8730578 96 96 96
0.012048187558096 0.0283951474622109 -0.0126793238631723 -0.5308623 0.04948982 -0.8460118 166 166 166
-0.0388736683147994 0.0987894929825183 -0.00948053772884466 -0.491016 0.02308238 -0.8708447 109 109 109
0.0939233793911368 -0.0454926603905327 -0.0127236348149431 -0.525263 -0.008223142 -0.8509002 103 103 103
0.0470536225547863 0.0179393450417692 -0.0135704615128376 -0.4993977 -0.02964399 -0.8658656 112 112 112
-0.0134614947173062 -0.0941748876051682 -0.0106362247450668 -0.4974859 -0.01175942 -0.8673924 235 235 235
-0.0787159739460354 0.0195696657104014 0.0084986113395383 -0.8189517 0.1199852 0.5611787 73 73 73
0.0830944449971805 -0.0378748229527532 -0.0125810992440203 -0.5046607 -0.009085136 -0.86327 107 107 107
-0.0540544099253113 0.126555944311666 -0.0110965797212164 -0.5274522 -0.1678112 -0.8328466 115 115 115
0.0496862471061886 -0.0148629626756889 -0.0120572677279495 -0.4981762 -0.01084312 -0.867008 138 138 138
-0.0628399691423327 -0.0256484110435433 -0.010956221216515 -0.4815052 -0.007545704 -0.8764108 71 71 71
-0.00711702741191781 -0.106630123521204 -0.0119040284655352 -0.4641137 -0.01329213 -0.8856759 124 124 124
-0.00697749065421247 0.0116521351007829 -0.0107053443635549 -0.5112287 -0.01707778 -0.859275 218 218 218
0.0250345645422273 0.0222686985921755 -0.0126009303625559 -0.4882062 0.02802558 -0.8722782 169 169 169
-0.0630479787484258 -0.122383118184784 -0.00712031393085596 -0.1012339 -0.8676043 -0.4868413 69 69 69
-0.0748374580975016 0.138264462775003 0.00745371209540358 -0.7042999 0.5275465 0.475033 79 79 79
0.0563880618587527 0.0435043461958271 -0.0122381154331931 -0.5194705 0.01946131 -0.8542668 141 141 141
-0.054609356504444 -0.0952668529547694 -0.00957949008256254 -0.5142025 -0.003205568 -0.8576629 129 129 129
-0.0581797641499538 0.0566844702393787 -0.00966231685897664 -0.4898856 -0.04049996 -0.8708455 109 109 109
-0.00676476867751751 0.117976783029722 -0.0108734623919675 -0.5448381 -0.006977423 -0.8385122 112 112 112
-0.077753891410948 0.0441633749349359 -0.00384771684412158 -0.838734 0.09553968 0.5360946 71 71 71
0.0950962251735011 -0.00781661017354907 0.00167000501198897 0.8474642 0.3330629 -0.4133685 49 49 49
0.0156952233904751 0.00919001783119433 -0.0111400672767467 -0.5003185 0.01688809 -0.8656767 84 84 84
0.0264603875717555 0.11671188435878 -0.0127984007616665 -0.4797479 0.05808147 -0.8754818 101 101 101
0.00819486917499255 -0.0748782568486992 -0.0112135701292722 -0.5035108 0.001281931 -0.863988 121 121 121
0.0814624255908513 -0.0317987560875826 -0.0126492742228568 -0.4953268 0.000393542 -0.8687066 177 177 177
-0.0283844971275178 -0.121662330915898 -0.00235637875592259 -0.1047552 -0.9550261 -0.2774011 57 57 57
0.013911013314257 0.107692028114952 -0.0112024911481094 -0.5341535 0.02187876 -0.8451043 151 151 151
-0.0775023767983868 0.0298826010819644 0.0104881581073807 -0.7956281 0.06544248 0.6022402 96 96 96
0.00586468396138825 0.11478797464872 -0.0118521929218883 -0.5349826 -0.03204034 -0.8442553 148 148 148
0.0280155789619262 -0.0327491638740006 -0.0114815371476223 -0.4862513 0.004349849 -0.8738082 104 104 104
-0.0532974618660925 0.110802097042305 -0.0100036895237476 -0.4825044 -0.02291788 -0.8755937 138 138 138
-0.0571005753644675 0.0224625772963293 -0.00982721054702163 -0.4773086 0.01101408 -0.8786667 101 101 101
0.0714819889495901 0.027114899709739 -0.0137279231462705 -0.4682518 0.003972872 -0.8835862 158 158 158
-0.010056196996795 -0.0768880348681978 -0.0106394004368241 -0.4961672 -0.008407693 -0.8681863 112 112 112
-0.00586965904075242 0.0653367514050582 -0.0114970056410315 -0.480841 -0.02648845 -0.8764076 120 120 120
-0.0593780529141423 -0.0800050974685362 -0.00931333031148984 -0.5241261 -0.01014116 -0.8515803 88 88 88
-0.0750492296081837 0.0724016826137642 0.000294507554349344 -0.7736327 -0.1569168 0.613897 38 38 38
-0.0516604996154881 -0.0497866038562108 -0.00960907351778795 -0.4758643 -0.006584132 -0.8794941 112 112 112
0.028509216629173 0.00948300971329241 -0.0114941617640278 -0.4767282 0.04703571 -0.8777915 247 247 247
-0.0690777689045003 -0.00812710975108988 -0.00959401454388459 -0.5066574 -0.03577108 -0.8614051 105 105 105
0.0107704424232936 0.0166153276529225 -0.0110956276000309 -0.5026261 0.0460605 -0.863276 103 103 103
-0.00832116786152548 -0.0189553385759942 -0.0112977749366768 -0.4975471 0.03284581 -0.8668149 94 94 94
0.0503791122021683 -0.018457215903382 -0.0119477180373475 -0.4716899 0.02756994 -0.8813334 132 132 132
-0.0100799439324417 -0.0694449466116329 -0.0107645389022353 -0.5338442 0.01907908 -0.8453676 148 148 148
0.0907872407227872 0.000236706308721191 -0.00645491194873629 0.7427444 0.2611816 -0.6165345 71 71 71
0.0464097263866731 -0.0797945852458392 -0.0119674059598409 -0.5472537 0.01502571 -0.8368319 174 174 174
0.0465513788962437 -0.104952173787806 -0.012618580359665 -0.5198464 0.01734789 -0.8540836 163 163 163
0.00685123006571232 0.0183038458118637 -0.0123618158141833 -0.472573 -0.0432702 -0.8802286 234 234 234
0.0924119900634685 -0.101358703194056 -0.0131288115441794 -0.4883041 -0.01299094 -0.8725768 165 165 165
0.098744550431559 -0.0595067148808973 -0.00457621484347359 0.8372124 -0.07231417 -0.5420756 102 102 102
0.0730074606904537 0.0441573772556845 -0.012315060874327 -0.2506874 0.1284184 -0.9595127 217 217 217
0.074980698029964 -0.0315365340529484 -0.0125881700803801 -0.4971687 -0.03207575 -0.8670608 155 155 155
-0.0370311389986005 -0.00742902427155656 -0.0100460395187408 -0.5290211 -0.09723885 -0.8430191 231 231 231
-0.0384704842677848 0.0236551930622662 -0.00972453179176175 -0.4628333 -0.05681916 -0.8846225 110 110 110
-0.0363792591557205 -0.00396743522360399 -0.0113622610272396 -0.4598018 0.03625077 -0.8872814 215 215 215
-0.0100506899346685 -0.0661960113748861 -0.0107972880470922 -0.5121639 -0.009447973 -0.8588358 102 102 102
-0.0746654550541451 0.0181895654952903 -0.0107274051821085 -0.5413006 0.007982189 -0.8407913 99 99 99
-0.0794520284546274 -0.0700619270332342 0.0112540437499857 -0.8479585 0.1138849 0.5176839 58 58 58
0.0366824766443896 0.0838224972752183 -0.0128174306983876 -0.4733773 0.01980354 -0.8806371 84 84 84
-0.018242388042819 0.133466299410973 0.0074161565949632 0.2085363 0.9722163 -0.1063395 42 42 42
-0.076652124163024 0.124859321768512 -0.00576944977890118 -0.8137773 0.1538782 0.5604357 98 98 98
-0.0793987064803758 0.0230528137958332 0.0133827854842977 -0.8346466 -0.05898118 0.5476187 65 65 65
-0.0775780268241877 -0.0612967937719322 -0.00360248859378134 -0.8942057 0.1180508 0.4318104 60 60 60
-0.0767369508951792 -0.0273284491305449 0.00987291002929097 -0.895332 0.02212687 0.4448494 28 28 28
0.00549621869572225 0.0104305197530953 -0.0127737338439004 -0.509152 0.05184535 -0.8591137 117 117 117
0.0401504591137622 0.0405457033019828 -0.011884248352629 -0.5298694 0.05269254 -0.8464407 174 174 174
-0.0782185871930429 0.090019580165193 0.000910032722966136 -0.8727338 0.001800886 0.488193 82 82 82
0.0461011676660379 -0.0476875119770335 -0.0117974390479251 -0.5144597 -0.000796183 -0.8575142 127 127 127
0.0325207254527614 0.0723829923150133 -0.0122079071665886 -0.5214337 -0.03712549 -0.8524838 212 212 212
-0.0576568463269687 0.0428855279494409 -0.00967146546577213 -0.4919465 -0.07783969 -0.8671388 159 159 159
0.0972824527381791 -0.105524940117988 -0.00178474692934216 0.9221728 0.06903262 -0.3805677 55 55 55
-0.0760517307662219 0.0331862540708024 0.000209108093550903 -0.9109836 0.1040274 0.399108 80 80 80
-0.0612985736635873 0.0430938846672099 -0.0108637518723269 -0.4899879 -0.01842214 -0.8715345 83 83 83
-0.0756040911670801 0.0378869143690462 -0.0112793355937879 -0.7618462 -0.06392495 -0.6445959 82 82 82
-0.00382084806318064 0.00443994964915273 -0.0108771837897504 -0.5208312 0.0680476 -0.8509433 235 235 235
-0.028815968675308 -0.00697051857053366 -0.0100592829700593 -0.4858214 -0.0005491551 -0.8740579 139 139 139
-0.010285983094888 0.0833814103826959 -0.0107878393381978 -0.5126149 0.01552818 -0.8584782 159 159 159
-0.0368745235207877 -0.113002428336083 -0.0100894774007332 -0.5029934 -0.05710996 -0.8624013 77 77 77
-0.0543585607825957 -0.0138514933368473 -0.00978212719660379 -0.5349066 -0.02857116 -0.844428 155 155 155
-0.0739268898899731 0.0917349587604376 0.00919455164547081 -0.8473184 -0.08881369 0.5236064 87 87 87
-0.077953924904707 -0.0662677239841177 -0.00437409340184944 -0.9455627 0.08974322 0.3128216 47 47 47
0.00345175277270757 0.111718872722332 -0.0115979118868346 -0.5062769 0.01240325 -0.8622818 164 164 164
-0.0165609554044667 0.133132183042367 -0.00946264711527375 -0.03990336 0.8756484 -0.4812979 95 95 95
0.0582680012516916 -0.0858994011288735 -0.0121664183961081 -0.4892294 0.001638406 -0.8721536 149 149 149
0.00677764593390659 0.0414265717823243 -0.0111823894405196 -0.4830294 0.04204932 -0.8745939 117 117 117
0.0516321246327304 0.101764892586465 0.000181787161736391 0.5457694 0.5142546 -0.6615724 28 28 28
0.0309845401918724 -0.00397723463125499 -0.0132269774692785 -0.5103023 -0.001116991 -0.8599944 241 241 241
0.0280696942248687 -0.102305343021916 -0.0122448539745438 -0.5050769 0.00320364 -0.8630683 97 97 97
0.0629095709165896 -0.117763863509194 0.00621227518003467 -0.1720189 -0.9492223 -0.2634132 73 73 73
-0.036216631053761 0.138987143265165 -0.000277503105768823 0.2304731 0.9382889 -0.2578684 76 76 76
-0.03828914951129 0.128337112058758 -0.011690573086235 -0.5424581 0.002125075 -0.8400801 119 119 119
0.039293786157869 -0.0202061800628075 -0.0114175475682783 -0.5059653 -0.01221651 -0.8624673 124 124 124
