ply
format ascii 1.0
comment File exported by Rhinoceros Version 7.0
element vertex 474
property float x
property float y
property float z
property float nx
property float ny
property float nz
property uchar red
property uchar green
property uchar blue
end_header
-0.00413264870648833 0.0147558914028054 0.0155259250749476 -0.06846082 0.05319139 0.9962348 105 105 105
-0.0334839534225706 -0.0363173733772918 -0.000636059430108443 -0.309969 -0.8651318 0.3942921 100 100 100
0.0709723153405237 0.019214282251244 -0.00238700093985947 0.5181479 -0.2185152 0.8269062 73 73 73
-0.0208087596962128 -0.0152567236392874 0.0120241004055012 -0.3331198 0.1002255 0.9375426 95 95 95
-0.0243191162690133 -0.0356021380059914 0.0105765874937454 -0.3985443 -0.5005454 0.7685159 96 96 96
0.0122096205821407 0.00733611923267863 0.0206212512408417 -0.2128106 0.2202659 0.9519425 88 88 88
-0.0251503084576892 0.0284157275465744 0.0114319265879621 -0.2587204 0.001417085 0.9659512 85 85 85
0.0416086756733165 -0.00341305949329862 0.00187279890428052 0.4052917 -0.777786 0.4804037 173 173 173
-0.0647510275522416 -0.0122136224618823 -0.000126562504092764 -0.0515834 -0.07185951 0.99608 108 108 108
0.000991464048472057 -0.0315903166626167 -0.0065260524394293 0.2174409 -0.9436805 0.2493723 99 99 99
-0.0418447524966217 0.00633101623144539 0.0076079188321295 -0.2190241 -0.004172114 0.9757105 62 62 62
0.0522543949370937 0.037950587240029 0.00328827815972169 0.2470769 0.1904255 0.9501006 62 62 62
-0.0335762224761078 0.0282733537590594 0.00827889619771413 -0.3203859 0.1299058 0.9383376 107 107 107
0.00983162118319214 0.0268186507504997 0.0140549228630074 0.1513157 0.2880894 0.9455729 27 27 27
0.0182251233620008 -0.00880078026394882 0.0114231650926269 0.4302422 -0.6696388 0.6053723 144 144 144
-0.0338882682987873 -0.0268411662172053 0.00758752816825861 -0.3216772 -0.1998156 0.9255255 49 49 49
0.017254807927654 -0.0201677574692493 -0.000228811828461073 0.3745551 -0.8098211 0.4515509 130 130 130
0.0386186571797773 -0.00253690272757412 0.00384007828440763 0.3002561 -0.7296232 0.6144072 156 156 156
0.0367814859273885 0.0173572741114472 0.0123165524647448 0.2071031 0.4648174 0.8608444 55 55 55
0.0389424502771214 0.0303602776748852 0.00842393087890686 0.3275943 0.09247259 0.9402823 34 34 34
0.0189978735279155 -0.00912143702484947 0.0101624860000738 0.4510016 -0.6655705 0.5946541 127 127 127
0.0671117614583987 0.0345368388548002 0.000796049109544783 0.3852695 -0.3053353 0.8708259 76 76 76
0.0514064946214114 0.00476142764560827 -0.00935654215164627 0.7359084 -0.6058902 0.3022182 101 101 101
0.0193824853229914 0.0373931846226532 0.00994620358495546 0.001606731 0.1386057 0.9903463 103 103 103
0.0322940664512572 0.0155893395077396 0.0143155199486742 0.131639 0.4705986 0.8724724 90 90 90
0.00842872286336194 -0.00735788031397477 0.0194211631774252 0.2544228 -0.4172283 0.8724618 127 127 127
0.0389511616761826 -0.00601984272162515 -0.0026960861923444 0.4528276 -0.7203497 0.5253984 126 126 126
0.0194336022895794 0.00342385781636367 0.0209578117498338 0.3540092 -0.01622573 0.9351012 99 99 99
0.0410407345936896 0.00917836914924974 0.0161915345688932 0.2635243 -0.1377436 0.9547678 49 49 49
-0.0614203610267792 -0.0178469319422337 0.000512895829320792 -0.1331262 -0.06615561 0.9888887 87 87 87
-0.00882883728325501 -0.0136645502272712 0.0166346186422207 -0.309406 0.06330174 0.9488208 136 136 136
-0.0234267243296302 -0.00800058261625891 0.0114583535673118 -0.3853895 -0.1380957 0.912362 115 115 115
-0.011132541783974 0.00527061252477923 0.0146621784723587 -0.2548232 -0.002983529 0.9669831 114 114 114
0.0266525841233376 -0.00202694797967073 0.0121092214733389 0.4351049 -0.6960128 0.5711829 135 135 135
0.0168587100678499 0.0110065673946149 0.0191900315285449 0.1656688 0.3260723 0.9307151 93 93 93
0.0092160862483488 -0.00062560855923699 0.0205695538842069 -0.2420255 0.00610132 0.9702507 183 183 183
-0.0686345507071886 0.00353861720596327 0.00118878310715431 -0.1245326 -0.04799005 0.9910543 123 123 123
-0.0746405925483749 -0.015310762259574 -0.000582844391910003 -0.2105298 -0.1531774 0.9655123 66 66 66
0.034975565857887 -0.0118205835103262 -0.00662025224655824 0.5268219 -0.7286111 0.4377037 106 106 106
0.0247065521048451 0.0296696426053609 0.0113560697828121 0.01865646 0.2219131 0.974888 29 29 29
0.0268890845819865 0.00219873228990664 0.0173006315038582 0.43653 -0.5331474 0.7247037 139 139 139
-0.0345285572322487 -0.0351252129755071 -0.00793406110527864 -0.3500567 -0.9126614 -0.2109728 75 75 75
-0.0645098999748135 0.00142498415773962 0.00164980769924444 -0.177351 -0.01837091 0.9839762 91 91 91
-0.0650603109212149 0.00732889245523638 0.00178165802422825 -0.1093909 0.06107217 0.9921209 111 111 111
-0.0196999953694732 0.0157399459605816 0.0123574164673519 -0.2150632 -0.02620508 0.9762485 109 109 109
-0.0405317739180053 -0.0253412270058745 0.00549879797558217 -0.3870192 -0.2034165 0.8993541 114 114 114
0.00472221320970823 -0.00145781723669236 0.0194326288758695 -0.3138638 0.06061335 0.9475313 121 121 121
-0.0549213292866453 -0.0174272323129578 0.00143763233879729 -0.2499945 -0.1367866 0.9585364 86 86 86
0.0318764985860116 -0.0149942331352259 -0.0061524691311928 0.5765293 -0.7036006 0.4154036 105 105 105
-0.0279019932823461 0.0112151570297228 0.00976203458251462 -0.2396144 0.01505247 0.9707515 88 88 88
0.0114511623848701 -0.0280004466235994 -0.00739247931279305 0.3988096 -0.8662629 0.3008978 46 46 46
0.0195710123979915 0.0356835678046117 0.0100599917558173 0.01817243 0.1510386 0.9883608 81 81 81
-0.0264930330071258 -0.0376331436501141 -0.00125830280192951 -0.36165 -0.9174762 0.1656701 69 69 69
-0.0458955102984966 -0.0086686836951706 0.00566300320257027 -0.2314169 -0.1584343 0.9598671 127 127 127
-0.00389571590755278 0.0265894290754523 0.01367927351326 -0.1130815 0.143198 0.9832125 107 107 107
-0.0287542039330524 -0.00748579779554681 0.0095455128183721 -0.2583804 -0.2033357 0.9444014 73 73 73
0.046562329943316 0.0195966685271294 0.0093996910100011 0.3407161 0.3241407 0.8825221 66 66 66
0.0267994401734177 -0.00110484713437431 0.0140871068509339 0.3930765 -0.6665666 0.6333876 146 146 146
-0.0379281455958949 -0.0168902013454105 0.00795043980950269 -0.2559714 0.03919796 0.9658893 50 50 50
0.0590999971654425 0.0190569770652531 0.00357648664969759 0.4510469 0.1145409 0.8851199 77 77 77
-0.0150968961682061 -0.0345782340334529 0.00713506159139798 0.5359848 -0.7090197 0.4582701 109 109 109
-0.0140876964986711 -0.0342042146404766 0.00587669762149579 0.5398421 -0.715276 0.4437913 88 88 88
-0.0310130933678776 -0.0338936784757438 0.00651725449904109 -0.5409516 -0.6692725 0.5093581 79 79 79
0.00905847095358148 0.0474405912529769 0.00883229551689202 0.05963957 0.3984787 0.9152365 99 99 99
-0.0707607363736584 -0.00079078954707279 0.00121206912867461 -0.1753527 -0.03398427 0.983919 67 67 67
0.051009917714361 0.0388940400974755 0.00367971876574977 0.2701547 0.1739938 0.9469649 63 63 63
-0.0723599173736451 -0.0084505948125807 0.000128706579538368 -0.08199359 -0.1034823 0.9912459 86 86 86
0.0171317344121986 0.0478606382645472 0.00815816084659782 0.1026758 0.3567086 0.9285562 115 115 115
0.0107853596014631 0.000915509453972119 0.0209887511570352 -0.2831999 0.06586496 0.9567965 145 145 145
0.00750792618152119 0.00870629357010433 0.0181281647693136 -0.3018456 0.1838752 0.9354567 105 105 105
-0.0713174109637853 -0.0144732719963011 -0.000117798642725625 -0.08649793 -0.01897031 0.9960714 81 81 81
-0.0415792466902727 -0.0315180770365151 -0.0015002214304182 -0.4382792 -0.8474286 0.2996267 72 72 72
0.0522634164993598 0.00610174245093109 -0.00888290351305071 0.6570259 -0.6742039 0.3372921 106 106 106
-0.0636850257620525 -0.0165352621628969 7.90158924909024E-05 -0.08228538 -0.01266426 0.9965283 76 76 76
0.0183945069273488 0.01003607871413 0.0188811479197384 0.2247846 0.3157561 0.9218297 72 72 72
-0.0701451855984301 0.0039938387670273 0.00123662663670818 -0.1188016 -0.06125212 0.9910269 124 124 124
0.0567282976922789 0.0124113875257059 0.000853033949067578 0.5958582 -0.791712 0.134704 112 112 112
0.0288595322353364 0.034394632990167 0.00997101465630976 0.04890694 0.231312 0.9716495 47 47 47
-0.0190217557179859 -0.0235698830875988 0.0130862254529321 -0.3532075 0.01506212 0.9354237 107 107 107
-0.0165096037792041 -0.0117916658537625 0.0129633368085565 -0.3200314 -0.06450707 0.9452083 140 140 140
0.0691288979008085 0.0406360690007039 -0.000746214828578506 0.3289136 0.1455145 0.9330817 40 40 40
0.0107251582925159 0.0428623671184041 0.00916207434191671 0.1297073 0.1739389 0.9761769 92 92 92
-0.00900187688274157 0.024410246957915 0.0137346920492059 -0.03332938 0.2733494 0.9613372 116 116 116
-0.0705376557871027 -0.00948493230461522 -2.47935111867825E-05 -0.05363039 -0.1052713 0.9929963 105 105 105
-0.045905760140502 -0.0211991002225431 0.00350573507615864 -0.4388413 -0.1901114 0.8782232 68 68 68
0.0569772209997144 0.0329563311427203 0.0037282193844787 0.1504436 0.01932153 0.9884298 80 80 80
0.0303740070539784 0.0423494930720989 0.00480413822163697 0.290911 0.5666324 0.7709076 35 35 35
-0.0464378131869063 0.0178604098612518 0.0061114343119458 -0.2916417 0.2338983 0.9274895 56 56 56
0.0470241072236957 0.0297577506252764 0.00586473818487296 0.2931609 0.1615077 0.9423226 84 84 84
-0.0373156609782521 -0.0344885781044163 -0.00704195960158524 -0.4358715 -0.8949167 -0.09560496 65 65 65
0.0453363725971085 0.0365054652244954 0.00564783768261309 0.3299942 0.172798 0.9280327 57 57 57
0.0198826597102792 -0.00971963233264617 0.00897386192768709 0.444505 -0.6622965 0.6031407 141 141 141
-0.0110151853134215 0.00860082626698766 0.0150101657931973 -0.2277417 0.005812629 0.9737042 121 121 121
-0.0401170092209377 -0.0148642025968462 0.00646111110481451 -0.3489133 0.03814536 0.9363784 55 55 55
-0.0677393686443803 -0.00294512744446762 0.00106807229932582 -0.1150594 -0.08561535 0.9896622 79 79 79
0.0161917492951238 -0.00584259188385361 0.0160659716386838 0.3859755 -0.6448966 0.6596448 140 140 140
0.0168054528720765 -0.0134095019590217 0.00707399352141971 0.4485638 -0.6307899 0.6331624 137 137 137
-0.00937351824361699 0.0114728510999906 0.0151653604146021 -0.1960723 0.01061531 0.980532 54 54 54
0.0102323640187079 0.0158910205352774 0.0173012221135866 -0.04349676 0.3394503 0.9396178 90 90 90
0.0115001173824671 0.00941889370032434 0.0199755154355334 -0.2481164 0.2340499 0.9400313 122 122 122
-0.0203285740020549 -0.0338914168086522 -0.0121145666742913 0.23423 -0.8217739 -0.5194458 70 70 70
0.00903753595192747 0.0326598169151098 0.012888766846883 0.2393676 0.258981 0.9357521 49 49 49
-0.0184077906269371 0.0233443214768658 0.0128705888148689 -0.2701974 0.07746913 0.9596832 108 108 108
-0.0468919593714099 -0.0260592185047747 0.0016342941890152 -0.4828176 -0.5154694 0.7079396 64 64 64
0.0520763263887871 0.0133750518241873 0.0103035506112908 0.4165843 0.3265941 0.8484066 86 86 86
0.00400563117449559 0.0136646185795746 0.0170770671127638 -0.2051211 0.07691445 0.9757097 82 82 82
0.0540877021279247 0.00637117734256654 -0.00934770743602706 0.6150084 -0.6860294 0.3887524 119 119 119
0.0707177784963178 0.0170246833897298 -0.00683393811938346 0.469691 -0.3796071 0.7970501 80 80 80
-0.0591763669155996 -0.0259511353380111 -0.00863323382718631 -0.2240061 -0.9561142 -0.1888568 70 70 70
-0.024792307639169 -0.0383249711046492 -0.00598203797408717 -0.14579 -0.940106 -0.3081331 110 110 110
0.00675488071096275 0.0467027347460514 0.00920379082310213 0.1428351 0.4245794 0.8940529 85 85 85
0.00997132673379175 -0.0170655176544134 0.0104728945962592 0.3593124 -0.6611536 0.6586126 149 149 149
-0.0464776563644227 0.0194282177697165 0.0056749840472417 -0.2941909 0.2653875 0.9181619 46 46 46
0.0215180873196856 -0.000244743717622953 0.0169195504992323 0.450251 -0.6401483 0.6224822 126 126 126
-0.0700212146493819 0.00250927959009983 0.000800237727388547 -0.1283567 -0.04435502 0.9907357 110 110 110
-0.0129491890251567 -0.0302805423448474 0.0111546279840304 0.4620667 -0.7193483 0.5186834 186 186 186
-0.0112451635807651 -0.0281440190473812 0.0127336118011851 0.4250765 -0.6474343 0.6325653 215 215 215
0.0436760120123028 0.0420748158320399 0.00518207679063812 0.2582966 0.4007773 0.879011 50 50 50
0.0472795183587449 -0.000219624204159219 -0.0034564598444409 0.7968611 -0.5757475 0.1831043 79 79 79
-0.039692739568141 -0.0173555696720684 0.00716403544322017 -0.3329799 0.02243874 0.9426669 47 47 47
0.0255669060340886 -0.00760112285032422 0.00755609365964066 0.4634943 -0.5894578 0.6615984 139 139 139
-0.0246078710017437 0.0246102984895666 0.011209590867423 -0.1751092 -0.07687889 0.9815429 97 97 97
0.018835251920899 0.0186667761642554 0.0160080544448986 0.149353 0.3943831 0.906728 34 34 34
0.0239549810455855 0.0360743610215419 0.0103803219813618 0.1082395 0.2025382 0.9732741 54 54 54
-0.0152492520795793 -0.0306230632988064 0.0125535932834883 0.3274245 -0.641468 0.6937665 142 142 142
0.0476691904954878 0.0403705226263176 0.00394982875196728 0.2844385 0.2153599 0.9341921 59 59 59
0.0365539572035893 0.00399212196789356 0.0130625808609635 0.3333386 -0.7269591 0.6003464 132 132 132
-0.0224901181482995 -0.0302834964516253 0.0119426881331264 -0.4721431 0.001274926 0.881521 70 70 70
0.0266155404373567 -0.0109391162228482 0.00365416704360286 0.4689271 -0.6711668 0.5741451 141 141 141
-0.00652335661746495 -0.0336587702738967 -0.0077786293322559 0.2694927 -0.9610387 -0.06146808 70 70 70
-0.0208639435759261 0.0345236240121263 0.0111204359803269 -0.1943621 0.2328754 0.9528863 90 90 90
-0.0318930489291747 -0.0338602789638279 0.00391910325244829 -0.4328063 -0.829555 0.3528699 55 55 55
0.0506861691129394 0.0198194428263665 0.00689425214185457 0.4025219 0.2876269 0.8690494 122 122 122
-0.00953834574470536 0.00637051620313867 0.0152994872687055 -0.2291436 0.001961594 0.9733906 120 120 120
-0.0120279856541932 -0.00652391389037987 0.0150350956510751 -0.2209962 -0.008111063 0.9752409 103 103 103
0.045723466415386 0.0143224776541202 0.0114320187156639 0.2662013 0.3714669 0.8894657 64 64 64
-0.0761742570568154 -0.000353020692576811 -9.89648089489148E-05 -0.2676426 -0.0729645 0.9607516 102 102 102
0.0152754112981635 0.00158700021080072 0.0225342995252238 0.03893095 -0.09250635 0.9949507 227 227 227
0.0395984530044755 0.0280270227697672 0.00841943178560939 0.3267981 0.1058425 0.9391487 64 64 64
-0.0313265487783863 -0.0349914018786931 -0.0122733811024634 -0.09441734 -0.9460608 -0.3099262 95 95 95
0.0337801746240967 -0.0166221364375161 -0.0137998629601151 0.5566647 -0.7804485 0.2846481 95 95 95
-0.0746084661345088 -0.00172712816492648 -0.000157237612082167 -0.2232408 -0.04827226 0.9735673 98 98 98
0.0242135883477403 0.0429027887410678 0.008682313157479 0.2046174 0.201718 0.9578317 115 115 115
0.060364746017826 0.0388361920089755 0.0013012793114992 0.1296262 0.2773018 0.9519983 72 72 72
-0.00515121472153135 -0.0305532931884017 0.00391694791869043 0.3853647 -0.8436983 0.3737208 95 95 95
0.00659512304485599 -0.0267477772494294 -0.00082699204272238 0.4824322 -0.6736245 0.5599011 168 168 168
-0.00606648703872503 0.0365639573984022 0.0119186038544142 -0.03292949 0.1655262 0.9856555 113 113 113
0.0701823261589256 0.018554791854956 -0.00146778571316794 0.5239918 -0.2378708 0.8178326 77 77 77
-0.0706231213924253 -0.00408966825315793 0.000713729139015518 -0.1707861 -0.06884702 0.9828999 74 74 74
0.0292483600413789 0.00242150404487274 0.0152924659261276 0.4120632 -0.620768 0.6669716 130 130 130
-0.0137911557396317 0.0216115072272685 0.0138944527459792 -0.1911505 0.1205762 0.9741267 99 99 99
0.0144772841824907 -0.0207172449952504 0.00296710263386077 0.4193321 -0.7618299 0.4937367 129 129 129
-0.0517549071317203 0.00411803646810216 0.00458619560760765 -0.2846315 0.02224935 0.9583788 107 107 107
-0.0102905722003293 -0.0326348378212662 -0.0118921066139838 0.001656413 -0.8969267 -0.4421761 178 178 178
-0.0290782726652279 -0.0341625469085609 0.00802050286859882 -0.5246416 -0.6047022 0.5992382 116 116 116
0.0247603434865571 -0.00164443668566039 0.014100191546787 0.4053332 -0.647705 0.6451227 129 129 129
0.0240506120635402 0.0114242405678335 0.0171471746725044 0.09412083 0.3235996 0.9415012 85 85 85
-0.079697654817378 -0.0110453270598035 -0.00173954491564476 -0.5516487 -0.06341942 0.8316619 52 52 52
0.00274449760398543 0.0340422605846467 0.0129771481550156 -0.001131047 0.2440294 0.9697672 74 74 74
0.00754703876703378 -0.0122812959188511 0.0157096104272506 0.4490266 -0.6509196 0.6121101 112 112 112
0.043966505184251 -0.00103502396051991 0.00197442591548719 0.502968 -0.7290251 0.464269 130 130 130
0.0338200851189763 0.0375272478668636 0.00893982294329107 0.1447584 0.2708918 0.9516631 72 72 72
0.00669154816804074 -0.0183405817686817 0.00941691313479223 0.2959472 -0.7207147 0.6268857 152 152 152
0.00480817551909629 -0.0317863951721199 -0.0110832534480162 0.3528432 -0.9016681 0.2499927 46 46 46
-0.00621007367582171 -0.0158792619508149 0.0172847759348548 -0.08907595 -0.06564973 0.9938589 111 111 111
-0.00822757900076887 -0.00561343487737276 0.0162895287026281 -0.2395394 0.03481897 0.9702621 130 130 130
0.0107148927859391 0.0247875555923243 0.0146887463921024 0.1399824 0.2939139 0.9455261 57 57 57
-0.0489633911537823 -0.0220282320507058 0.00245207335201628 -0.3727332 -0.2632795 0.8898056 123 123 123
0.0197198638254417 -0.02458339430053 -0.0139492178199818 0.3942198 -0.9009181 0.1814861 79 79 79
-0.0695071417156821 0.0124045515193651 0.000693022991894721 -0.08294465 0.1339756 0.9875073 71 71 71
0.0236640860552506 0.0267251711802718 0.0117310245731569 0.04818084 0.2526945 0.9663457 81 81 81
-0.0175147096593062 0.0277285159334553 0.0124806433289694 -0.1140439 0.07614253 0.9905536 94 94 94
-0.00142104225428641 -0.0192457200662635 0.0129846262318528 0.443108 -0.638064 0.629706 106 106 106
-0.0799404376937143 -0.0172654601008697 -0.00239952337718635 -0.575262 -0.5672543 0.5893184 105 105 105
-0.0765663971865944 -0.0103530390132927 -0.000384721824048556 -0.2361003 -0.04305949 0.9707742 87 87 87
0.00123919014884111 0.0256573937058857 0.0145030728907118 -0.1264021 0.2081983 0.9698845 73 73 73
0.0223128499372431 0.0119486378777096 0.0173287080574875 0.1498205 0.3306346 0.9317911 73 73 73
0.0548501120124087 0.0404708681342698 0.00211201491351232 0.2218477 0.1709551 0.9599781 91 91 91
-0.0124631041431464 0.00431475227541767 0.0139763043724649 -0.2587665 0.02972966 0.9654823 144 144 144
0.0597779827521179 0.0447092774190936 0.000634199112237721 0.166071 0.1744135 0.970567 53 53 53
0.0301940031765269 0.0386466966103944 0.00889453377916263 0.08516622 0.334877 0.9384051 37 37 37
-0.0178798372474138 -0.0317951514263674 0.0132046096363553 0.2551429 -0.5592614 0.7887514 142 142 142
0.0588482367112597 0.042397263119933 0.000874075992211593 0.1708256 0.1687389 0.970745 77 77 77
0.0228021077232881 0.0215930421898969 0.0137982530847619 0.133597 0.398578 0.9073519 72 72 72
-0.0261121662497144 -0.0223774342757064 0.0112452272342491 -0.3243148 -0.007686676 0.945918 62 62 62
0.057701290918065 0.0354757131819841 0.0026506780437798 0.1105417 0.2092691 0.9715899 58 58 58
0.0120620352598579 0.00184396547898058 0.0215779455997681 -0.2693981 0.08642361 0.9591432 160 160 160
0.0189030787800499 -0.0227913786910667 -0.00595349375713722 0.3545054 -0.7248952 0.5906377 97 97 97
0.00465311094537624 -0.0298379995681765 -0.00408393353413453 0.3610156 -0.851522 0.3802342 88 88 88
0.0198714979363457 0.00480210271045722 0.0203864596026306 0.3205639 0.1559207 0.9343059 119 119 119
0.01611362299673 -0.0111206931869068 0.0107571972124333 0.4513731 -0.6363493 0.6255573 147 147 147
0.0234859268953169 0.0249718768293403 0.0125156620547948 0.04604115 0.3121177 0.9489272 73 73 73
0.00133597603727376 0.0334122411029854 0.0128516600409719 -0.007023132 0.2344929 0.9720924 91 91 91
-0.0607164103542193 -0.0262514499396185 -0.00529356796101535 -0.2764307 -0.9601045 0.04225357 71 71 71
-0.0743640731637667 -0.0143779983885287 -0.0005290260694093 -0.1711823 -0.09292172 0.9808477 63 63 63
-0.00190095764929454 0.0215772393847171 0.0147041431860435 -0.1215348 0.1776273 0.9765643 109 109 109
-0.0284269571560785 0.0201508846846603 0.010444490226582 -0.2078948 0.004883002 0.978139 176 176 176
-0.0591532253528539 -0.0265705097199198 -0.00545318473402745 -0.2366662 -0.9661877 -0.1023254 91 91 91
0.0017706883834574 -0.0319322860120056 -0.00863233688115914 0.2254119 -0.9428979 0.2452202 91 91 91
0.0279285915119445 -0.0121849938575603 0.000862638137406557 0.4587044 -0.6975467 0.5504715 134 134 134
0.0660759229664754 0.0422578229718473 -0.000148302045964083 0.1436685 0.2492589 0.9577209 73 73 73
0.0259442228762783 -0.0105766592004845 0.00459761248806151 0.4605488 -0.6287212 0.6265815 130 130 130
-0.00160974824250459 -0.0240875498435605 0.00957468506071407 0.5479338 -0.5965877 0.5863887 95 95 95
-0.0457777920527769 -0.0156516676313573 0.00478245130824306 -0.2785754 -0.08329553 0.9567955 128 128 128
0.00181311322112521 -0.018448671895169 0.0122235197217983 0.3899031 -0.7008141 0.5973568 132 132 132
-0.0312816359177659 -0.0122416034099101 0.00788185833074881 -0.1854062 -0.00066145 0.9826617 57 57 57
-0.0157576206493029 -0.0329860757624179 0.00917244269770995 0.5176127 -0.719083 0.4636775 132 132 132
-0.00856904648005496 0.0157997834291135 0.0152988091119339 -0.1700348 0.003832288 0.9854306 109 109 109
0.0164430423931394 -0.0198036206476081 0.00107641535403061 0.3610754 -0.7965955 0.4848301 121 121 121
0.0189685333892804 -0.00785463726172131 0.013543493584065 0.426063 -0.6687352 0.609314 168 168 168
-0.0260464010492307 -0.0043484515159381 0.0110366591042865 -0.2638164 -0.08059029 0.9612004 63 63 63
0.027312244859131 0.00160942010296439 0.0154866733566764 0.4154254 -0.6158337 0.6694554 163 163 163
0.0274492624867739 0.0203205053775513 0.0138664663128195 0.1686799 0.3171111 0.9332672 82 82 82
-0.0392263062230604 -0.0329524761682791 -0.0110624793698755 -0.3891874 -0.8996781 -0.1977687 74 74 74
0.0310826843232341 0.0391390503204121 0.00926617821905154 0.08418313 0.343855 0.9352416 35 35 35
0.025800132246514 -0.00242585544142426 0.0127056035777056 0.4135257 -0.6863762 0.5982343 139 139 139
0.0435287412090042 -0.00230132134407701 0.000566623571016556 0.4972549 -0.7669802 0.4055599 101 101 101
-0.0633744014458717 -0.000881073799000265 0.00199546749040683 -0.2209651 -0.05423576 0.9737725 83 83 83
0.0134669018498674 -0.009088613982002 0.0145430750644817 0.4557289 -0.6359499 0.6227992 114 114 114
-0.0755771857385708 -0.0153706639311211 -0.000915155764120962 -0.2490815 -0.3527956 0.9019389 51 51 51
0.0279079537333584 0.0423125554263368 0.00814199542450417 0.3959342 0.3724477 0.8393562 51 51 51
-0.0219888267008672 -0.0396570193810402 -0.000705303586536643 -0.1865984 -0.9818078 0.03513379 105 105 105
0.0170670108997908 0.0270623011790114 0.0121875321129984 0.1787673 0.3290286 0.9272445 47 47 47
0.0222270791830317 0.0154862349405811 0.0164351569495393 0.2161887 0.3133783 0.9246926 45 45 45
-0.0518861071358283 -0.0296510407351297 -0.0040038509701649 -0.2761867 -0.9242845 0.2634749 126 126 126
-0.0292417233763866 0.0240531802764559 0.00997358810455479 -0.2549228 0.0254162 0.9666274 126 126 126
0.0258178460920644 0.0361503241395089 0.00925417471267428 0.0688271 0.2296568 0.970835 71 71 71
-0.058060440782393 -0.000264503962394524 0.00373533120817079 -0.2525492 -0.07927991 0.9643307 108 108 108
0.0279715160116498 0.0442402159391231 0.00695203285537105 0.4988162 0.407903 0.7647206 53 53 53
-0.0169716943336709 0.0208039987791253 0.0136653302566172 -0.2808519 0.05449001 0.958203 142 142 142
-0.000834170294786496 -0.0312839869625725 -0.00513296493228169 0.2558282 -0.9359832 0.2418414 90 90 90
0.0129133269968542 -0.0282398441719478 -0.0133917571727465 0.3902926 -0.8686944 0.3050272 65 65 65
0.0476253780624871 0.0329964309304995 0.00558061539381138 0.3180673 0.1140164 0.9411873 53 53 53
0.0468131129585654 0.0167988164094863 0.0100702585323967 0.3065676 0.3461478 0.8866781 90 90 90
-0.0136486234270872 -0.0280547020213655 0.0148154264776216 0.26838 -0.4363519 0.8588185 142 142 142
-0.0433614641777558 -0.00507097277403823 0.00625964974891235 -0.210641 -0.06037838 0.9756971 106 106 106
-0.0291308075289565 -0.0246757150130955 0.0100739510953528 -0.3759225 -0.0848946 0.9227541 82 82 82
0.0167334782795541 0.0288881825841278 0.0118541874960658 0.1594261 0.309515 0.9374347 112 112 112
-0.0661856679582482 -0.00758561811715697 0.000525354368272751 -0.08807717 -0.17191 0.9811674 105 105 105
0.0658444666726674 0.0324210246258545 -0.00025437288946617 0.3980437 -0.4000269 0.8255542 87 87 87
0.0277310969580413 -0.0151325435808461 -0.00266086680376962 0.4098859 -0.7415833 0.5310817 137 137 137
-0.06612215765715 0.00637709841654388 0.00194675074507003 -0.1178715 0.00394838 0.993021 125 125 125
-0.0343442547280612 -0.0342164259671457 1.19202096897641E-05 -0.3683369 -0.862305 0.3475026 69 69 69
0.00876612636335583 -0.0227112765053789 0.00219526418999075 0.371365 -0.7861109 0.4940827 131 131 131
-0.0343353155129176 -0.0247581387982057 0.0078098933072471 -0.2456435 -0.121522 0.9617129 50 50 50
-0.0799659641952051 -0.0160694562676436 -0.00529337531550003 -0.4394898 -0.5702153 0.6940485 112 112 112
-0.0608171255580703 -0.0119075339351409 0.000115241488842871 -0.1314247 -0.09348835 0.986908 116 116 116
0.03859649743494 0.0189096057792537 0.0111339729855335 0.1738549 0.3996174 0.9000447 53 53 53
0.0347762841156043 0.0129333038464374 0.0157499434367548 0.1493979 0.419195 0.8955199 52 52 52
0.00245962153255785 -0.0123239467948377 0.0187205199023462 0.1073859 -0.3591489 0.9270816 186 186 186
0.00876003655547519 -0.0290273804375417 -0.0100407992448196 0.4513755 -0.8681417 0.2063738 81 81 81
-0.00318941009438323 0.00136210703482931 0.016627145502596 -0.1988953 0.01317732 0.9799321 116 116 116
-0.0627126525476704 0.00703439335011224 0.0022553876367761 -0.1473924 0.09098045 0.9848848 71 71 71
0.0273534405515354 -0.00328233374181519 0.0100707818488497 0.4849395 -0.6914157 0.5355167 128 128 128
0.0329942659505305 0.0184662016473363 0.0129010075876627 0.2287574 0.363537 0.9030564 97 97 97
0.0712254976949018 0.0260335574935755 -0.00207479095700233 0.3367658 0.1789639 0.9244245 51 51 51
-0.0247266409635656 -0.0364885378058539 0.00944582012629955 -0.400389 -0.7411092 0.5389303 115 115 115
0.0224896793580736 0.0230367457324117 0.0132624648002981 0.09378605 0.3832328 0.918878 77 77 77
-0.00493531456260365 0.0341793036922391 0.0127159468011337 -0.09040976 0.1894554 0.9777181 99 99 99
0.0363254488368812 0.00197221720856899 0.0107139843649956 0.3448238 -0.7566538 0.5554922 123 123 123
-0.0602755624472051 -0.00965078251932405 0.000865611360095747 -0.1786585 -0.2056628 0.9621767 82 82 82
0.0175924252221655 0.0336889242795506 0.0109062451656104 0.0406709 0.1929396 0.9803674 133 133 133
0.0176922345208625 -0.0220345643638324 -0.00467936880307124 0.3458149 -0.7762499 0.527113 113 113 113
-0.0736200202740127 -0.00438413144677563 0.000319825218241587 -0.1967409 -0.05099525 0.9791284 49 49 49
-0.0271552032109454 -0.0330843942062909 0.00916506828506325 -0.5157679 -0.1889179 0.8356395 82 82 82
-0.0507260772340201 0.0160657064894911 0.0044938108620392 -0.3914285 0.1354858 0.9101799 124 124 124
-0.0360663021265788 -0.00383788392363105 0.00857792494547679 -0.2296616 -0.02613352 0.9729196 54 54 54
-0.0286335867339598 -0.00437545335041867 0.0103306935295487 -0.2223103 -0.1315482 0.9660606 79 79 79
0.0179121401223146 0.00140155823102339 0.0217448508420425 0.2931648 -0.2779342 0.9147716 219 219 219
0.0321703170072132 0.0415297076663343 0.0064127223318024 0.0783256 0.5994081 0.7966021 27 27 27
-0.0119710079785857 0.0266987331944206 0.0126691194811394 -0.03746733 0.2069481 0.9776343 104 104 104
-0.00763401461785573 0.00983270581921825 0.0155277707300881 -0.1730803 0.0337023 0.984331 75 75 75
-0.0524106706731113 0.0131997846662493 0.0044387958301734 -0.3701064 0.1576232 0.9155196 66 66 66
0.0216823234187662 -0.0065226351772707 0.0123173068352341 0.4789135 -0.6606076 0.5781344 154 154 154
0.0245844681112768 -0.00685466069183982 0.00855390187181704 0.4802168 -0.6166377 0.6238187 142 142 142
-0.0755421992545027 -0.00949841071912572 -0.000499415635027839 -0.2045583 -0.06835516 0.9764647 100 100 100
-0.0793194925465177 -0.0150881091667278 -0.00133783083361783 -0.5476655 -0.294021 0.7833353 82 82 82
-0.0638009309757481 0.0125414733184301 0.000639021793877981 -0.07325585 0.176547 0.9815624 97 97 97
0.0222610246584876 0.0319261431248448 0.0105934802939465 0.02915358 0.1891521 0.9815149 109 109 109
-0.07940831780726 -0.00472624683238587 -0.00307047892485318 -0.3701765 -0.03881878 0.92815 40 40 40
0.0489925597978718 0.0101933735475681 0.0121055917814391 0.3734093 0.009456486 0.9276185 153 153 153
0.0183346807675435 -0.0189587692923281 0.00115854396524337 0.4107516 -0.7477838 0.5216344 125 125 125
-0.0220883532899081 -0.0379950307760959 0.00945294104947461 -0.06244222 -0.8761159 0.4780396 155 155 155
0.0179292477848132 0.0123499110858054 0.017885927779196 0.2243562 0.3251486 0.9186635 82 82 82
-0.00961211816309504 0.0308372217827892 0.0122985813861173 -0.1152295 0.1530289 0.9814807 91 91 91
0.0123339435824423 0.0121063609233938 0.0189919414715905 -0.1063705 0.3046724 0.9464988 92 92 92
0.0038866131075812 0.0294398573629093 0.0138248903819792 -0.008014012 0.2246976 0.9743956 119 119 119
0.00109698602112562 -0.0223236834012031 0.00820395802502047 0.5253251 -0.6070449 0.5962635 136 136 136
-0.0136781894059408 0.0338647344934926 0.0115827423048912 0.00412202 0.09102014 0.9958405 115 115 115
0.003541411372745 0.043778999135496 0.0104208502077434 0.08682995 0.2315628 0.9689372 111 111 111
0.0337394797427333 0.00382099134239877 0.0144826948702245 0.318426 -0.6817719 0.6586288 122 122 122
0.0413644789842622 0.0264857427360861 0.00798299164111879 0.2656047 0.1948252 0.9441913 51 51 51
0.0303385693796865 0.0446126299018694 0.00249918383909162 0.2865418 0.5367478 0.7935967 82 82 82
-0.011832956889485 0.0326740278923625 0.0116812329233695 -0.03304167 0.09670527 0.9947644 113 113 113
0.044365428237612 -0.00300808982290601 8.12133047070618E-06 0.506776 -0.7760155 0.3754705 108 108 108
-0.0150765924488847 0.0347940861137119 0.0115835818936818 -0.008272174 0.1371776 0.990512 92 92 92
-0.013591971850671 -0.00187842873704502 0.0149041033766379 -0.2064679 0.07555745 0.9755317 97 97 97
-0.0395636889388418 0.0135006859601789 0.00778902879019558 -0.1505399 0.04476387 0.98759 106 106 106
-0.0185982891696455 -0.0189140705240067 0.0131154923499733 -0.2963584 0.08877776 0.9509417 93 93 93
0.028629003954316 0.0324404467536827 0.0105004773335303 0.06140503 0.2196643 0.9736411 49 49 49
0.00287530823763227 -0.018664930266703 0.0115136545946522 0.3955722 -0.7092146 0.5835558 126 126 126
-0.0572620428696333 -0.0256518089378414 -0.0102642678875842 -0.234684 -0.9526439 -0.1933727 64 64 64
-0.0154557544472818 0.0030401856527007 0.0137495768386173 -0.2478048 0.07640479 0.9657925 77 77 77
-0.000284389339174851 -0.0118942559157973 0.0184899296677461 -0.0636402 -0.1832564 0.981003 168 168 168
0.0218586506331007 0.0411754157129309 0.00960771726915052 0.07784282 0.1250481 0.9890922 122 122 122
0.0236315852089573 -0.0243689798439913 -0.0157742650049306 0.4970293 -0.8610386 0.1075839 85 85 85
0.041609250313142 -0.00350692523441942 0.000668823945430302 0.3962908 -0.7994944 0.4514003 119 119 119
-0.0167394082209968 -0.0370792407790076 -0.00417892959756297 0.4265314 -0.8302984 -0.3587137 67 67 67
-0.0380807511728101 -0.0269681142694743 0.0064850436616804 -0.3331729 -0.2672024 0.9042116 72 72 72
-0.0428489363858078 0.0193462343920443 0.0059562419667781 -0.2747774 0.2297269 0.933661 75 75 75
0.00846299809087991 0.0402282301731944 0.0109260807830264 0.2223339 0.2184829 0.9501752 55 55 55
-0.0260294677825179 -0.0369201334413993 0.0015009546450348 -0.3940663 -0.8938176 0.2140137 82 82 82
-0.0443403388946013 0.0130022368405709 0.00670911352989748 -0.2451825 0.04324045 0.9685122 77 77 77
0.0173308620282442 -0.0258841772193853 -0.0128176466002407 0.3488479 -0.913303 0.2101969 84 84 84
0.00898211868322463 -0.0248687117702088 -0.00194322029650032 0.4788112 -0.6907048 0.5419102 82 82 82
-0.0503561478000676 -0.0276840284134339 -0.00234652571133412 -0.1507054 -0.8670067 0.4749603 113 113 113
-0.00593942532238323 -0.0127482571142916 0.0170954990075662 -0.2263101 0.05151423 0.9726921 122 122 122
-0.00737768612408196 -0.0239260911360422 0.0140808206199078 0.41913 -0.5618151 0.7132277 109 109 109
-0.00202840043789942 -0.0323066453887587 -0.00606907195322956 0.2174898 -0.9594252 0.1794479 108 108 108
-0.00744343623163823 -0.000594149126348364 0.01625586985658 -0.1728713 0.07373329 0.9821807 116 116 116
0.024692775813671 0.00417971011702045 0.0193672362924388 0.3365162 -0.1320499 0.9323731 110 110 110
-0.0604157108917347 0.0112768268738255 0.00168120482878023 -0.2349887 0.2209811 0.9465451 75 75 75
0.0450874214005714 0.0167974531445245 0.0111162149620389 0.2740296 0.3391301 0.8999436 63 63 63
0.0158119705774373 0.00947821867746113 0.0201804728923757 0.1153661 0.3322187 0.9361204 87 87 87
-0.0205970187429285 -0.0138404255911678 0.0118585996408749 -0.3414328 0.04952695 0.9386004 88 88 88
0.0135426031681769 0.0338680869156336 0.0103302293206356 0.204551 0.273871 0.9397625 79 79 79
-0.00555173228285133 -0.0228918568132652 0.0132650941670941 0.5200374 -0.545382 0.6573581 152 152 152
-0.00720548277033828 -0.0333843289084247 -0.00629914351687799 0.3318582 -0.9421697 0.04675848 53 53 53
0.0678482766550017 0.0389617467789651 0.000757723034055385 0.206911 0.1881374 0.9601001 33 33 33
-0.045616022347073 -0.0149468491689041 0.00469353496924502 -0.2710511 -0.07672505 0.9595023 109 109 109
-0.0271163512347496 -0.0358626883228458 0.00779025696202976 -0.5226989 -0.7172906 0.4607387 73 73 73
-0.0525760913054079 -0.0194983565776736 0.00137309766683519 -0.2823133 -0.2452867 0.9274339 95 95 95
-0.0028433788092066 -0.0248206078383246 0.00963947289870823 0.5372187 -0.604969 0.5877146 68 68 68
-0.0225365061455336 0.0368272511562175 0.0104399132129305 -0.2120509 0.2751333 0.9377292 95 95 95
0.05330648591756 0.0280719191304064 0.00428296760215402 0.3118144 0.1297232 0.9412458 57 57 57
-0.063840130040941 -0.0254617356275247 -0.00504165314462132 -0.3985404 -0.9000669 0.1761966 105 105 105
0.0529428441015183 0.0114753939687948 0.0102386958044637 0.670432 -0.2514782 0.6980543 123 123 123
0.0217592150889492 0.00344925255629014 0.0202081335621476 0.3830833 -0.1341422 0.9139218 120 120 120
0.0378995628903027 -0.00548261669027716 0.000368323347203603 0.3816919 -0.7772238 0.5002345 111 111 111
0.00533493246537953 -0.0223375453207731 0.00431077066550525 0.4151525 -0.7095512 0.569373 155 155 155
-0.0110760962083947 0.0301012557056362 0.01218179976501 -0.04967879 0.1889497 0.9807293 77 77 77
-0.02214252933162 0.00370659736306878 0.011668299977946 -0.2874334 0.0542603 0.9562624 116 116 116
0.0746663618406824 0.0215734446925961 -0.00399452165874883 0.395828 -0.1353473 0.9082958 89 89 89
-0.0127199251539363 -0.0348971323705929 0.00295869101121518 0.5672083 -0.7667081 0.3007216 86 86 86
0.00502947228638906 0.0460476712010418 0.00981408964179445 0.1079203 0.4136231 0.9040294 86 86 86
-0.0279627810973007 0.0180202270138055 0.0105127584993513 -0.2491622 6.430016E-05 0.9684618 160 160 160
-0.0552358921550251 -0.0259835684292002 -0.000788558509148468 -0.117827 -0.5838127 0.803293 116 116 116
-0.0771381390765469 -0.00833656809405103 -0.000557721042753007 -0.3252772 0.01170597 0.9455463 96 96 96
-0.0770937764535318 -0.00959331727470003 -0.00043887534866785 -0.2681919 -0.02056983 0.9631459 113 113 113
-0.0215127928018468 -0.033834535676973 -0.0129994435200176 0.2110655 -0.8231353 -0.5271619 67 67 67
0.0227449652733047 0.0246430837839653 0.0124168461084 0.06855387 0.3512516 0.933768 81 81 81
0.0251586827477066 0.0388632678384808 0.00914998564372685 0.1645109 0.1530343 0.9744315 80 80 80
-0.0283090458078168 -0.0358755946418355 0.00356034238246647 -0.401456 -0.8982559 0.1788001 53 53 53
0.00988058895673705 0.0303641737859326 0.0131939456976036 0.2324625 0.2726357 0.9336118 31 31 31
0.0408926826355311 0.00217491060987851 0.00799288667824807 0.2941676 -0.772791 0.5623695 136 136 136
0.00944417234988482 -0.0269258537306952 -0.0042051449223772 0.4766362 -0.695767 0.5373325 61 61 61
0.0605997472379625 0.0151503493241429 0.00211166943245869 0.4748613 -0.4570442 0.7520754 125 125 125
0.0176331906348532 -0.0157562366463382 0.00524306821650888 0.4093485 -0.6382946 0.6519309 147 147 147
0.00899176546248581 -0.00947274688148636 0.0177795997191474 0.4306324 -0.5596814 0.7080342 129 129 129
0.0374606630722427 -0.00826394529674046 -0.00312994184476381 0.5038029 -0.6507373 0.5680877 147 147 147
0.0286577721901264 0.0107675081939784 0.0177659250185034 0.09183455 0.3072161 0.9471983 88 88 88
0.039887256999108 0.0421237528634206 0.00614960548081664 0.2135833 0.4548331 0.8645861 76 76 76
-0.0111532803797147 -0.00898515220462659 0.0152641681954497 -0.2870411 0.01087476 0.9578565 98 98 98
-0.0248911929130382 -0.0316464589377459 0.0102903836545004 -0.5006844 -0.003674277 0.8656221 76 76 76
-0.0184594615583813 -0.00228965417036642 0.0135929610849878 -0.3625496 0.08885229 0.9277192 123 123 123
-0.0127358035206506 0.00653257411166375 0.0145191241192007 -0.2584796 -0.0163517 0.9658783 96 96 96
0.0215591016596828 0.00246020004688385 0.0204388457195152 0.3669698 -0.286944 0.8848708 146 146 146
0.0325998534876408 0.00264288753022912 0.0136702874359857 0.3532069 -0.6744059 0.6483993 124 124 124
0.0108598407850593 0.0204713333931212 0.0159225973878337 0.07892321 0.2858088 0.9550311 69 69 69
0.015409739713681 0.0387826677554162 0.00950687602050831 0.01100826 0.1208543 0.9926092 110 110 110
0.0691715527313086 0.0229704245210962 -0.00169814758444312 0.3544691 0.06868464 0.9325417 75 75 75
-0.0580512441568275 -0.0204039266525182 0.000336017713817888 -0.1097194 -0.2204465 0.9692085 122 122 122
-0.00179542944194155 0.000252858115502352 0.0167350801286525 -0.2347786 0.01948957 0.9718534 120 120 120
-0.00818657471816531 -0.0241796503865763 0.0148187938397782 0.3430668 -0.5438279 0.7658697 98 98 98
0.00516979591939037 0.0490807902261456 0.00733727306314977 0.08565496 0.4869584 0.869215 101 101 101
0.0117922209933168 0.0072767780509162 0.0200025812712147 -0.2412263 0.2272819 0.9434791 123 123 123
-0.0255587753435282 -0.018944363065093 0.011046704705709 -0.3508348 0.1389289 0.9260744 33 33 33
0.0116426524939013 -0.0201983403358482 0.00420128939063255 0.3685731 -0.7794804 0.5065216 74 74 74
-0.0670613851532305 0.00505724069152946 0.0015528629453978 -0.130987 -0.06313522 0.9893717 123 123 123
0.0195772640100769 -0.00523906388374229 0.0144181853030395 0.4542724 -0.6214858 0.6382726 172 172 172
-0.00755023335597205 -0.0319145608489809 0.000836203347096387 0.4232256 -0.8549277 0.2999644 90 90 90
-0.0737286023402755 -0.00724943135693379 -5.81820869723082E-05 -0.1406104 -0.03111682 0.9895759 105 105 105
0.0150587756133813 0.0200602247805832 0.0152477618584771 0.06796761 0.3741382 0.9248789 92 92 92
0.0507204094015949 0.0217791849490339 0.00722982977076844 0.383483 0.2504637 0.8889369 71 71 71
-0.0483939771075828 -0.0292574873456999 -0.00377321903214234 -0.1987162 -0.9057022 0.3744535 113 113 113
-0.0176499547315814 -0.032156970023686 -0.0127204923619475 0.2445471 -0.8094232 -0.5338828 65 65 65
0.0353431253159777 0.00963879502123488 0.0166056646273457 0.2082374 0.06983288 0.9755822 148 148 148
-0.0578316186114769 0.0019724475815408 0.0039532106416913 -0.2358677 0.002238037 0.9717826 68 68 68
0.0501350670029463 0.0206295229191074 0.00732967201393384 0.4068876 0.2584758 0.8761466 118 118 118
0.0660439605058385 0.0260609098245832 -0.000754257769121774 0.3922557 0.09450643 0.9149885 87 87 87
0.00565088936489522 -0.0239223957729405 0.00225972144617667 0.4534371 -0.691779 0.5619934 112 112 112
0.0627679310229552 0.0137799109911083 -0.00319960908366432 0.3434504 -0.8760148 0.3385851 101 101 101
0.0257596879664925 -0.0221183325102233 -0.0102368153311057 0.5379364 -0.8034837 0.2550262 108 108 108
0.0387959839379937 -0.00402105475004433 0.00163172953823373 0.3301879 -0.7946974 0.5093447 111 111 111
-0.0315433655319493 -0.0363440203521993 -0.00803669663976092 -0.1360375 -0.9463518 -0.2931078 41 41 41
-0.0175196337717041 -0.0349685858680577 0.00864681208903051 0.556038 -0.6685138 0.4938735 161 161 161
-0.00965833757795886 0.00970354655651406 0.0153394990497867 -0.1968441 0.01984379 0.980234 97 97 97
-0.00780340731859797 0.0417212499508783 0.0110652431469532 -0.09920733 0.2798761 0.9548965 106 106 106
-0.0591133529496068 -0.0110441379354316 0.000867871349088251 -0.2154014 -0.1591579 0.9634682 118 118 118
-0.0401126669781138 -0.0301404946540945 0.00446288531563707 -0.4219597 -0.5939105 0.6849966 74 74 74
-0.0345429691390402 0.0106659526997546 0.00869889098399559 -0.1982291 0.0975813 0.9752862 33 33 33
0.00221678271843073 -0.0244607293675707 0.00508599916297089 0.5197692 -0.6489286 0.5556362 151 151 151
-0.0322702113042266 -0.0119605447867863 0.00782739814099301 -0.1422181 -0.01866679 0.9896593 56 56 56
0.0499376814240451 0.00549750546417416 0.00525354994963242 0.5864373 -0.7598872 0.2804687 109 109 109
-0.0358487989689729 -0.0127041058910226 0.00784658802042171 -0.1408828 0.01379768 0.9899302 49 49 49
-0.0523884835758381 -0.012937066015338 0.00325139450938156 -0.3854921 -0.1363975 0.9125741 68 68 68
0.0122732521945075 -0.0176337491665585 0.00746217602069948 0.4787112 -0.6727717 0.5641045 99 99 99
-0.0645206585855704 -0.00102723779610037 0.00175072157472023 -0.1726472 -0.05049905 0.9836884 67 67 67
0.00169274552566545 -0.0300108136639001 -0.00232890764046495 0.298309 -0.8567258 0.4207525 102 102 102
0.0513756219935706 0.00699071981529342 -0.00614681063048253 0.686874 -0.6985616 0.2005389 105 105 105
-0.00488602734575538 0.0312887983444474 0.0130571733293973 -0.1123196 0.1339901 0.9845968 110 110 110
0.0472351567704781 6.04585711596606E-05 -0.00127749895422388 0.7473138 -0.6331555 0.2015841 118 118 118
0.019441468515677 0.00741122689695772 0.0197552416444522 0.2474459 0.2879092 0.9251372 80 80 80
-0.0100667062958526 0.044843515522532 0.00834636431582853 -0.1688032 0.3676367 0.914521 78 78 78
-0.0161601225765144 0.0015091166604424 0.0141022963842035 -0.2521601 0.1264889 0.9593831 134 134 134
-0.00496950055749945 0.0234745498253632 0.0143743582729061 -0.05555304 0.2128058 0.975514 90 90 90
0.0365267508109852 0.0446397394286429 0.00442203042963576 0.02951744 0.6357055 0.7713671 14 14 14
0.00171990272302169 0.0075713645682014 0.0171023014078723 -0.1788945 0.1710562 0.9688842 129 129 129
0.0372259308856528 0.00133964905317296 0.00976899075615106 0.3489855 -0.7733908 0.5292218 120 120 120
-0.0669418590086486 -0.0237539913396752 -0.00484370076237375 -0.4338656 -0.8857862 0.1647525 103 103 103
0.0161705567483157 0.0135401017505377 0.018525702514874 0.1455252 0.3389416 0.9294843 101 101 101
0.00744671737908975 0.0481536475236977 0.00811075645669998 0.08348849 0.424981 0.9013439 49 49 49
0.029288124256964 -0.00959422293383771 0.00250097127473745 0.5175029 -0.6290852 0.5800366 139 139 139
-0.0309607356815302 0.0300730955073496 0.00865450326145489 -0.3529254 0.1315904 0.9263518 100 100 100
-0.0591366649951444 -0.00873234139843704 0.00110660726271908 -0.2389458 -0.2305551 0.9432652 110 110 110
0.0272320460074997 -0.0130681171425022 -0.000488371039315455 0.4396523 -0.7202198 0.5366463 131 131 131
-0.0182952069632099 0.0018431533175467 0.0132146254701225 -0.3048116 0.08818852 0.948321 119 119 119
-0.0455625492293561 0.0073485468614507 0.00640188831715624 -0.2289846 -0.005665729 0.9734136 72 72 72
0.00218951823824298 0.0451357029971822 0.0102917385258418 0.05276486 0.3534192 0.9339758 95 95 95
0.0517048227558217 0.00985492650404174 0.0113152556445063 0.5397941 -0.3100799 0.7826064 152 152 152
0.00270372379391848 -0.0168741433315285 0.0135266199862601 0.36044 -0.7388171 0.569414 130 130 130
-0.0548250981871554 0.00692375203756246 0.00431776265575276 -0.2062028 0.03878367 0.9777403 109 109 109
0.0154628553615588 0.00807574143233958 0.020976580912296 0.04036675 0.3515358 0.9353037 83 83 83
-0.00254397247448157 0.00614505830865708 0.016512017606616 -0.1803772 0.09815119 0.9786881 114 114 114
-0.0068642361760971 -0.025731444014087 0.0118872198812394 0.4234228 -0.6543973 0.62648 125 125 125
-0.0366955641616222 0.0233087053246726 0.00784353833522933 -0.310874 0.1112818 0.9439141 93 93 93
-0.0215296050329483 -0.0373217269586342 0.0102444274770964 0.08922406 -0.7892354 0.6075743 143 143 143
0.0551370819502064 0.00997449310912901 -0.00526262465424074 0.5743787 -0.7559392 0.3140779 113 113 113
0.0484126335729536 0.0199739656178328 0.00862271159822123 0.4041509 0.2681403 0.8745072 66 66 66
-0.0100902008645467 -0.0299838439332248 0.0088227338518003 0.4136457 -0.7655239 0.4928188 121 121 121
0.0166961490865818 -0.0166466837501683 0.00395891343398005 0.4148574 -0.6529095 0.6337211 99 99 99
-0.00520785967054804 0.0279082032415383 0.0133412806546019 -0.124778 0.145051 0.9815246 107 107 107
0.0243937865028157 0.0157424507764778 0.0156918442737803 0.1786802 0.3448015 0.9215125 48 48 48
-0.0385357071241605 -0.0320144402777904 0.00238059161491624 -0.3797564 -0.844049 0.3786376 89 89 89
0.0323802465924454 0.0262090219995319 0.0103325482812848 0.2076776 0.1855071 0.9604463 37 37 37
-0.028743691006508 -0.0278540513566313 0.00970791696980955 -0.3389502 -0.1892793 0.9215672 106 106 106
-0.0791570052080086 -0.0100713100822463 -0.00172772868457335 -0.3755023 -0.01144051 0.9267508 64 64 64
-0.0291639825018062 -0.0357177403898704 0.00140221183846798 -0.3532332 -0.8887831 0.2920462 52 52 52
0.017017759628283 -0.00534999831993122 0.0158311049446031 0.4077977 -0.6293848 0.6614952 131 131 131
-0.051257288220532 -0.0121842676888924 0.00370344188818758 -0.3485062 -0.1208044 0.929489 94 94 94
-0.0195960533694564 -0.0161255566059167 0.0125053333497195 -0.3146121 0.1067562 0.9431979 99 99 99
0.0156843528423463 0.0244839855117944 0.0139089128759249 0.1839521 0.3804953 0.9063029 23 23 23
0.0665005575529825 0.0381343530544063 0.0014202343260912 0.2025628 0.1581541 0.9664138 63 63 63
-0.0538513563067289 -0.0220894240359951 0.000508105206981524 -0.2301301 -0.2530342 0.9396881 100 100 100
0.0236925502887981 0.0316554011810224 0.0107001861638276 0.03062992 0.2030809 0.9786828 99 99 99
0.0407779196062816 0.0239657302884071 0.0083428276129095 0.1631614 0.3367233 0.9273596 80 80 80
0.0552404350970419 0.0270135665641302 0.00348423358322494 0.3497157 0.1263705 0.9282938 43 43 43
0.00775725219863954 -0.0283390482901789 -0.00441140438530879 0.4253199 -0.7794354 0.4599819 111 111 111
-0.0294474642497171 -0.0347699266969431 0.0048167966104796 -0.4515999 -0.8627861 0.2272833 61 61 61
0.00344096287691453 -0.0242680488722499 0.00418678836824588 0.4886745 -0.6658233 0.5638054 107 107 107
0.0387977022992549 0.0112523530572841 0.0156938747393742 0.2338658 0.2360778 0.9431723 62 62 62
0.0617995403249409 0.0155006468026082 0.00269409482876073 0.4580531 -0.4230013 0.7818294 127 127 127
0.020196684197082 -0.0154804612251502 0.00378509942901997 0.4288031 -0.6509188 0.6264443 132 132 132
-0.0186244061292582 -0.0350828698023052 0.00931625408883033 0.4995641 -0.6863225 0.5285804 135 135 135
0.042016609059786 -0.00376308282782589 -0.000388645175287777 0.4366112 -0.8132485 0.3847044 108 108 108
-0.0263777536860026 0.0334734352547119 0.00998446907559028 -0.3045901 0.1843546 0.9344722 90 90 90
-0.000460856348887262 -0.00244422585500803 0.0174175516986448 -0.2868794 0.1035224 0.9523567 140 140 140
0.0425205896218408 0.0175257720661628 0.0112192420823255 0.2106375 0.3677638 0.9057492 59 59 59
0.0363869884234602 0.0195097017766517 0.0113119105485095 0.2175017 0.3682731 0.9039181 46 46 46
-0.0341598892609327 -0.000183964506693224 0.00911672816863088 -0.2612604 -0.005683639 0.9652516 68 68 68
-0.0393242370905345 -0.0139978875845396 0.00702935490466036 -0.3126301 0.01019547 0.9498202 85 85 85
-0.0559722743907232 0.0133248401686659 0.00270407292495525 -0.3373305 0.2049919 0.9187962 90 90 90
0.0153141895813032 0.0279764284948174 0.0119097164687924 0.1951013 0.3414903 0.9194128 56 56 56
-0.00309046500582211 0.0117641260396242 0.0159798102756908 -0.09860478 0.04250403 0.9942185 101 101 101
