ply
format ascii 1.0
comment File exported by Rhinoceros Version 7.0
element vertex 477
property float x
property float y
property float z
property float nx
property float ny
property float nz
property uchar red
property uchar green
property uchar blue
end_header
-0.0642415899576987 0.0214351786059141 0.0192880895330064 -0.3777491 0.659719 0.6496741 72 72 72
0.0837352984614255 -0.00639406380746249 0.0100193694121568 0.98132 0.08037563 0.1747876 78 78 78
-0.0155296070046993 -0.0445907734646393 0.00307821726722535 0.00446053 -0.5561024 0.8311018 118 118 118
0.0181083291901685 -0.0399351883961291 -0.0336831876938523 -0.1004314 -0.9858222 -0.1344175 78 78 78
0.0789829210800794 0.0137168007636042 0.020464273615022 0.9784159 0.1333028 0.1579009 42 42 42
0.0145994171447779 0.046517581102888 0.0205156779302685 -0.2920834 0.6972026 0.6546723 95 95 95
-0.0570018938668277 -0.0332877220810021 -0.0106147192211212 -0.4021938 -0.8204548 -0.4063177 87 87 87
-0.0948264916330197 -0.0190813769758768 0.0201128832565242 0.00850543 -0.551703 0.8339973 186 186 186
0.06814675609976 0.0466473509468026 0.0269668473581715 0.9131575 0.3538671 0.2022907 49 49 49
-0.0540632410004374 0.0250480724207823 0.020850146611761 -0.2531818 0.7455148 0.6165279 61 61 61
0.0100131047792129 -0.0239319090289634 0.0170714980762532 0.01068083 -0.5631263 0.8263018 238 238 238
-0.0092981903382956 -0.051735153464106 -0.0274926138676537 -0.2278001 -0.8724788 -0.4323053 89 89 89
-0.000571821746042422 -0.0530125417763695 -0.0135035028515779 0.3423502 -0.8997064 -0.2707853 35 35 35
-0.0949685593271976 -0.00843463785290971 -0.0246433777573003 -0.4999605 -0.7076067 -0.4993318 104 104 104
-0.0105670771041697 0.00727690360022948 0.0374344502487001 0.0006418772 -0.5491757 0.8357067 142 142 142
0.0232564724390929 0.0539097923211022 0.0172386638957134 -0.4410326 0.6859517 0.5787576 107 107 107
0.0493368315887219 0.0243441129265066 0.0486224373990368 -0.00105249 -0.5544082 0.8322442 126 126 126
0.0758959725460184 0.0333954332140992 0.00969747386299863 0.9752376 0.1715582 0.1395688 63 63 63
0.0244790205622682 -0.0391532457274628 -0.0421217616521525 0.04796688 -0.9920732 -0.116146 54 54 54
0.0236964164774263 0.0031632027676427 0.0348369805555404 0.006238786 -0.5556018 0.8314251 237 237 237
0.0825737648039502 -0.0414552953951617 0.00197931143409091 0.8046824 -0.3326054 0.4917926 62 62 62
-0.0689982897498103 -0.0208693586808776 -0.026012108289014 -0.3558939 -0.8334014 -0.4228258 67 67 67
0.0419666275752213 0.0510497740852771 0.0323200636637959 -0.2993845 0.6658714 0.6833624 93 93 93
0.0203861529652651 -0.0157319315033232 0.0222264522309706 -0.00145586 -0.5513805 0.8342526 149 149 149
-0.0619521177954838 0.0178964935244002 0.0253226752129274 -0.4104445 0.6910983 0.5949104 46 46 46
0.0244303627714679 0.039171744927678 0.0345854448054527 -0.517176 0.5717662 0.6368771 67 67 67
-0.112007889582205 -7.84315804083224E-05 0.0134669992444033 -0.4796452 0.6391436 0.6011954 91 91 91
-0.0642967539609152 -0.030916091377958 0.0121387010232438 0.003132254 -0.553025 0.8331588 129 129 129
0.0666964646499206 -0.0394882091152967 -0.0453878473691129 -0.1569657 -0.9814973 -0.1096574 71 71 71
-0.103370705680128 -0.0141326046475186 -0.00394080900360533 -0.713711 -0.6599171 -0.2347894 70 70 70
-0.0676480540199433 0.0288526896901833 0.00818465243343591 -0.3932688 0.6715397 0.6279921 27 27 27
-0.103986207012374 -0.00308257658335553 0.0258969415441383 -0.5630313 0.3738263 0.7370547 77 77 77
0.0252939654121802 -0.0464623763865103 0.0017400227457105 0.1485698 -0.8872666 0.4366749 168 168 168
0.0222645422557401 -0.0386706039819928 -0.0481122817673093 0.1949814 -0.9764063 -0.0928059 52 52 52
0.0705006073673002 0.0252081617470479 0.0359158456266215 0.8723227 0.2113652 0.440883 60 60 60
0.0498233797085132 -0.0154899055688701 0.0223565730150507 0.004275411 -0.5507469 0.8346614 127 127 127
0.0530206044453774 -0.0356481084665971 0.00888574415248911 0.00288313 -0.5556877 0.8313861 110 110 110
0.0791106242554165 0.00858192523409634 0.0256099439591745 0.9575586 0.1738289 0.229924 44 44 44
0.056274915312041 -0.0387617363767737 0.00668048498299512 0.0005894136 -0.5438163 0.839204 144 144 144
-0.0540516749690336 -0.0333158276710858 -0.014952673258494 -0.4961043 -0.8167413 -0.2946422 77 77 77
0.018499181130458 -0.00572017442251893 0.0288950517770147 0.001417106 -0.5510287 0.8344851 154 154 154
-0.0194161751678372 -0.0410653467897918 -0.0364735667547231 -0.4343669 -0.8098068 -0.3943835 131 131 131
-0.0101236542434038 -0.0129198414140231 0.0241737338067677 -0.00325556 -0.5563539 0.8309391 235 235 235
-0.0168888158014171 0.0143491830651005 0.0423983708876575 0.01372689 -0.416169 0.9091837 126 126 126
0.0638809059699654 0.0605735583522138 0.0302532258196663 0.3031996 0.8273133 0.4728876 113 113 113
-0.0202693960157998 -0.0128209129445555 0.0242369465349287 0.006357871 -0.5560902 0.8310976 129 129 129
-0.093743276182656 0.0184712229650192 0.00685659729149252 -0.2453298 0.8616616 0.4442438 84 84 84
0.0741331013497413 -0.0251225674351047 0.0156618613411137 0.0004193918 -0.5508357 0.8346136 135 135 135
-0.030613390342638 0.0176073149896772 0.0408179521913031 -0.3278098 0.5640153 0.75791 68 68 68
-0.0712323098516858 0.0224529989450016 0.0140887229668208 -0.3775997 0.7917052 0.4802306 88 88 88
0.0635477299969505 -0.0103002481170245 0.0255178625401454 0.0100549 -0.5594437 0.8288074 125 125 125
0.040135904860227 -0.0473827361573402 0.000845495187656531 -0.06354211 -0.9200407 0.3866361 129 129 129
0.0421438020022591 0.0312841792522613 0.0531404653866709 -0.06772825 -0.2997083 0.9516237 153 153 153
-0.107357411421821 0.0205971874097028 -0.00940357735170005 -0.5547075 0.7378877 0.3844755 55 55 55
-0.0439010993656741 -0.0319008274291237 -0.0303678779661331 -0.3922491 -0.801331 -0.4516738 92 92 92
-0.116640140542159 -0.00314266614653641 -0.00333469434294575 -0.5600774 -0.7619599 -0.3251623 86 86 86
-0.0017461602233495 0.00381337620900535 0.0351768964247875 0.004248802 -0.5511842 0.8343728 223 223 223
-0.0844700389532187 0.0272945658496717 -0.00310163226013899 -0.3839986 0.8436012 0.3753428 81 81 81
-0.048169437311949 -0.0289386568612203 0.0135864280464877 0.001009924 -0.5544201 0.8322363 134 134 134
-0.107539478524432 0.0164054916576787 0.000521403227983108 -0.5981138 0.7226538 0.3464555 72 72 72
0.044532979612508 0.0583628379391463 0.0242503270754766 -0.2792809 0.8225168 0.4954475 60 60 60
0.0418721714161252 -0.0418426737569094 -0.0335176261997812 0.1095818 -0.979516 -0.1689387 56 56 56
-0.064673982696613 0.0159698343023725 0.0254801228368801 -0.3215037 0.7710388 0.5496678 73 73 73
0.0495627668378764 -0.00442006597089606 0.0295631838695813 -0.006400554 -0.5597557 0.828633 235 235 235
0.0735412302776357 0.0351859103156392 0.023305451398258 0.9818881 0.1519847 0.1131213 70 70 70
0.0616431517583191 -0.044796096889201 -0.00442703379247583 0.03656685 -0.9756802 -0.2161276 61 61 61
-0.090000477991222 -0.0131143227117874 0.0241684376570476 -0.002527246 -0.5552669 0.8316684 217 217 217
0.00145993915431242 -0.0515002736010101 -0.0141551207772651 0.5024737 -0.81677 -0.2835612 46 46 46
0.069736241347057 -0.0402841560388822 -0.0257224752888334 -0.03879042 -0.9990145 0.02157221 97 97 97
0.00144538207813727 -0.05092023113891 -0.0011238947371246 0.07124975 -0.6178166 0.7830876 151 151 151
0.0790179131303408 0.0107440895044252 0.0219999704266867 0.9651846 0.2008728 0.1675376 78 78 78
-0.0319031823139406 0.0430409563373872 0.00476596072348728 -0.3298098 0.841159 0.4285755 55 55 55
-0.034996155092432 -0.0361004578986868 -0.0268551318898181 -0.5153447 -0.8108343 -0.2774302 79 79 79
0.0741852305042998 0.0317661358910112 0.0177978960375114 0.9909059 0.09341949 0.09684186 68 68 68
0.0660084886297214 0.0568495013213782 0.0206423637649458 0.9707627 0.2322706 0.06058164 88 88 88
0.0829476663314748 0.00674020437363426 0.00660678451461627 0.9380873 0.3457308 0.0215014 69 69 69
0.075023634249302 0.019014937905764 0.0312033665724584 0.8971592 0.2352033 0.373878 82 82 82
0.0218072350855245 -0.0421629437908255 -0.0234702595825464 -0.04912546 -0.9643916 -0.2598758 78 78 78
0.0458623423303774 0.0571696098820649 0.0266347114742749 -0.2252814 0.8234283 0.5207823 87 87 87
-0.0301165713862466 -0.0171887482607156 0.0213095105424952 -0.001599755 -0.5502593 0.8349923 152 152 152
0.0663643946818497 -0.0442292129120831 -0.00756755019693162 0.007111398 -0.9785053 -0.2060992 62 62 62
0.0307859215184765 0.033259795488 0.0483498320361043 -0.5000411 0.5211208 0.6916588 78 78 78
0.0706415558451539 0.0475493956472403 0.0155734358244573 0.8662475 0.4090874 0.2868149 57 57 57
0.0438920088911279 0.0597744595582775 0.0211852821278248 -0.3228482 0.7571517 0.5678823 79 79 79
0.00422239915580436 -0.0448499277496784 0.00279488295380326 -0.002023516 -0.5603774 0.8282349 96 96 96
0.0748453153163895 0.0261313214086085 0.0245526920389529 0.9668512 0.2537834 0.02815322 96 96 96
-0.0935278587179329 0.00657565524764808 0.0223473622399867 -0.4384605 0.7593754 0.4807301 50 50 50
0.042092052479723 0.0155135726024947 0.0428168932743993 0.007036516 -0.5550303 0.8318003 131 131 131
-0.0398287610297479 0.0310242557843477 0.0204929723799773 -0.4017315 0.6605563 0.6342533 76 76 76
0.0570381340082668 0.0443295806674746 0.0478468344966532 -0.5975594 0.725721 0.3409572 79 79 79
0.088086676447044 -0.0336540759492029 -0.01765275413421 0.965865 -0.07842904 0.246888 43 43 43
-0.0485625792564393 0.0378621026979543 0.00159855608251563 -0.4464563 0.7855307 0.428507 102 102 102
-0.0598910965735444 -0.026595838626764 -0.0281430530732658 -0.5008603 -0.7920617 -0.3489659 58 58 58
0.0253687323873661 -0.0427422075235422 -0.0217395057948349 -0.0393005 -0.9768365 -0.210347 95 95 95
-0.017161120267507 -0.0538579869751731 -0.0172955361071099 -0.4408908 -0.8208369 -0.3631006 79 79 79
-0.0370227546383219 -0.0345513122156699 -0.0300421758270454 -0.4358286 -0.866639 -0.242879 77 77 77
-0.0558072690133806 0.025007169653089 0.0203156185223446 -0.2085018 0.7900406 0.5765093 50 50 50
-0.127011335183655 0.0115635054089681 -0.014454139862217 -0.9204948 0.3053173 -0.2438661 98 98 98
0.0700467523051798 0.0291951330675891 0.0355467286989071 0.8836836 0.05753915 0.4645347 73 73 73
0.0158851941298881 0.0494552019001022 0.0172428497833172 -0.2802467 0.6650717 0.6922004 88 88 88
-0.114273614362127 -0.0141896048542836 0.011197421090557 -0.497063 -0.8218546 -0.2783585 62 62 62
0.0737881368492954 -0.0459737371812005 -0.00334621856074913 -0.02315428 -0.9795255 -0.199984 79 79 79
-0.0649475217220576 -0.0320618308509459 -0.00112330650231468 -0.5647364 -0.790363 -0.237485 41 41 41
0.00247279801591405 0.0137276413145537 0.041652838291462 0.002185515 -0.5439661 0.8391044 168 168 168
-0.0749645414737761 -0.0160633328066669 -0.0312234706638748 -0.3978992 -0.8150373 -0.4211776 82 82 82
-0.00385325364087952 0.0195933029705494 0.0454105782060983 -0.1757044 -0.04197593 0.9835476 152 152 152
0.0752487231047276 0.0278309650966469 0.0143136908086043 0.975493 0.1319302 0.1760902 82 82 82
0.0843011553488557 -0.0399660054114142 -0.0396071002326127 0.1270624 -0.9872248 -0.09613698 83 83 83
0.0314441329128101 0.0398144929281247 0.0372047712363271 -0.3322269 0.7041962 0.6274815 61 61 61
0.0225280940586488 0.0309148928230392 0.0429102626549762 -0.4636391 0.6734871 0.5757204 32 32 32
0.0818592736501087 0.00294052289030472 0.0141677675245491 0.9401391 0.2491733 0.2324889 82 82 82
-0.0978294065689265 0.0171284909277429 0.00688926842449245 -0.2464626 0.8412071 0.4812762 41 41 41
0.0316648927647858 0.0327119831964622 0.0502277179796489 -0.5436137 0.4656602 0.6983156 44 44 44
0.0304214544332826 -0.0408359771035029 -0.0359838922724108 -0.05898994 -0.99251 -0.1069771 73 73 73
0.060426643690366 -0.0377691505648615 -0.0479086872392687 -0.1357831 -0.9816083 -0.1341947 51 51 51
0.0280367584541732 0.0435052883031462 0.0331961029923418 -0.2851002 0.6006967 0.7469145 100 100 100
0.0259307678271861 -0.0387139091797612 -0.0423294795024318 -0.02544128 -0.9762318 -0.2152308 44 44 44
0.085247823191049 -0.01091168545328 0.00808178253721487 0.9456415 0.1890505 0.2646169 97 97 97
0.0732453223959002 0.0447666889000579 0.00883596795105795 0.9580038 0.2021427 0.2033891 76 76 76
0.00384329119819249 -0.0434200035156156 -0.0476422317284038 -0.1508085 -0.9226078 -0.3550376 82 82 82
-0.0585126053853899 0.0136884339078696 0.0333993256652516 -0.3364335 0.7231485 0.6032155 79 79 79
0.0815234402082359 0.00827313747495734 -0.00856698133261796 0.9137151 0.4041431 0.04234605 60 60 60
-0.00590489138213757 -0.053714501073659 -0.0174020127639155 0.3576799 -0.9327419 -0.04536187 58 58 58
-0.00829202825668407 -0.0178154259720271 0.02084171437614 -0.003436699 -0.5143235 0.8575894 209 209 209
0.0438216446411377 0.0379388114739299 0.0492662747472472 -0.156111 0.8722154 0.4635403 72 72 72
0.0155690069551344 -0.0396295037609425 -0.0356602294954649 0.07816918 -0.9967357 -0.02018681 89 89 89
0.00806601903580795 0.0436739665020702 0.0214235865515102 -0.2752937 0.7484767 0.6033208 70 70 70
0.0907687568011744 -0.02274408589485 -0.0342023458239657 0.9715115 0.2309488 0.05317904 38 38 38
-0.0618857474945649 0.0305644598672196 0.0125883940441839 -0.42824 0.7249373 0.539515 120 120 120
0.0123172967224718 -0.0216461171212159 0.018510545122455 0.007088101 -0.548594 0.8360589 146 146 146
-0.0120376591758959 0.0406068356395756 0.0187282193078362 -0.2428189 0.8430076 0.4799762 67 67 67
0.0222456424421387 0.0488415085668699 0.0227777227359351 -0.4369929 0.7246743 0.5328079 94 94 94
-0.0103522014414061 0.0414372379565892 0.016986217075906 -0.299744 0.8127441 0.4996004 68 68 68
0.0481483554444242 -0.0429709566558145 -0.0241899216314416 0.1270665 -0.9855188 -0.1122803 102 102 102
-0.0262592723165975 0.0393941464793623 0.0168179686205637 -0.04830493 0.8825182 0.4677909 43 43 43
-0.0782868519050279 0.00212494493327087 0.0335900558248456 -0.1257025 0.3594949 0.9246417 104 104 104
0.0161727770172804 -0.043400355315885 -0.0154251073984139 0.04795193 -0.9832869 -0.1756343 46 46 46
-0.0301197329789511 0.0296493701177355 0.0275706058645038 -0.3345383 0.5891731 0.7354993 60 60 60
0.0441896833148663 -0.0458349562032065 -0.00373483908385402 -0.1222972 -0.9557887 -0.2674161 6 6 6
0.00977413944582683 0.0513770028596105 0.0132755179555356 -0.3059009 0.6638054 0.6824859 55 55 55
0.0754897201442439 -0.00420588016233053 0.0296096937552131 0.2493898 -0.4875184 0.836738 119 119 119
0.046788758835643 -0.0291736632526135 0.0135044781581815 0.00328376 -0.5557207 0.8313625 66 66 66
0.0318804916894413 0.0493265099530814 0.0291287245079148 -0.3348661 0.6405009 0.691103 61 61 61
-0.0750246804391137 0.00163647109866255 0.0337682237993648 -0.06613484 0.07050195 0.9953169 138 138 138
0.0816442161810977 -0.0203902706875273 0.0148981507580638 0.7982432 -0.27291 0.5369617 80 80 80
-0.0901593452192837 0.0196747348462697 0.00517242502319021 -0.2070889 0.8731617 0.4412515 92 92 92
-0.018307931244925 0.0458426449298641 0.00691862407324423 -0.2285455 0.8752847 0.4261968 80 80 80
0.0631879985422534 0.0336852583523019 0.0531420671687652 0.6605082 -0.2733025 0.6993102 92 92 92
-0.0216404013016307 -0.0530992289083255 -0.0117921700880457 -0.4817042 -0.790477 -0.3782949 81 81 81
0.0662493365849885 0.0229809760834458 0.0476482596249169 0.3537135 -0.4350224 0.8280352 129 129 129
0.0896696742629661 -0.012459808816963 -0.0298659279084135 0.9902557 0.1327317 0.04214162 56 56 56
-0.0257661151734101 0.0369516252491253 0.0205298745598967 -0.06118698 0.778902 0.6241537 64 64 64
-0.05397329175614 -0.0315655297348842 -0.0220633341826994 -0.4554583 -0.859951 -0.2303084 97 97 97
0.0469947875966166 -0.042260441036113 -0.0242510399272035 0.1220595 -0.9877784 -0.09692954 106 106 106
-0.0417245582680366 0.0245199407852749 0.0282665513641206 -0.1644571 0.6722955 0.7217843 93 93 93
0.0689256944348655 0.0332476846898904 0.0387098796981362 0.9358559 0.007892842 0.3522946 46 46 46
-0.0240673227081549 0.0215019061787065 0.0393362233614666 -0.1040804 0.8026702 0.5872716 49 49 49
-0.0766916653025982 -0.0181970085515447 0.0208916882396599 0.00315327 -0.5482206 0.8363279 143 143 143
0.0181278350694971 -0.0426564484840478 -0.0228884691308876 -0.03870878 -0.9665737 -0.2534503 60 60 60
0.0700178526414803 -0.0401201480723807 -0.0338983007086682 -0.02369263 -0.9935843 -0.1105846 71 71 71
-0.0379588830463773 0.0296877703416064 0.0230309510556446 -0.3387921 0.6624891 0.6680779 83 83 83
0.021329480865967 -0.0255865241637319 0.0156065522202258 0.00886851 -0.5502514 0.8349519 130 130 130
0.0803323400354561 0.0126047526741092 -0.00437287215137239 0.954489 0.2960783 -0.03589441 66 66 66
-0.0669178537167963 -0.0302402335911607 0.0126043407213558 -0.04134255 -0.5911078 0.8055323 147 147 147
0.0258679815839045 -0.0454925521047262 -0.00988841463243745 0.006497187 -0.9606376 -0.2777288 57 57 57
-0.0811065690509325 -0.0289041159140818 0.0134285221002175 -0.265729 -0.8981231 0.3503756 144 144 144
0.00171059714793453 -0.0430996236709155 0.0037987552459644 -0.002602051 -0.5698321 0.821757 132 132 132
0.0859295271588651 -0.00541080355312562 -0.00805987456875573 0.9082678 0.4112808 0.07679688 84 84 84
0.0118897282062547 0.00523510112269526 0.0359857810259019 0.001732121 -0.5445163 0.8387485 144 144 144
-0.104090189460968 -0.0131320543245984 -0.00664679452374961 -0.6821448 -0.6862132 -0.2525668 69 69 69
0.0438750352521036 -0.0306494757267949 0.012005186208878 -0.00447961 -0.557587 0.8301064 141 141 141
0.0256175630191022 0.0405180960364195 0.0341546852273821 -0.4631701 0.5477659 0.6967252 76 76 76
0.0155291250552665 -0.0475343741119648 0.00080252693754107 0.01799354 -0.8005661 0.5989743 103 103 103
0.0240705165964612 -0.04386927758168 -0.0154925900211654 -0.04551081 -0.9872458 -0.15256 57 57 57
0.00234468873956861 0.00109402295332128 0.0333743089721039 0.003838647 -0.5500575 0.8351179 236 236 236
0.000934957931340463 0.0462015116268636 0.0148337463857261 -0.486139 0.6991708 0.5242413 46 46 46
0.0662875424405676 -0.0116891935039198 0.0249014264638132 0.001322503 -0.5451231 0.8383549 119 119 119
0.0877074106570948 -0.0286644245737266 -0.0139159634505029 0.9719362 -0.1262409 0.1985027 48 48 48
-0.11552088644255 -0.0131261073434605 0.0220097681106269 -0.6120582 -0.4420473 0.6557278 171 171 171
0.080717441313253 0.00535455265992119 0.0183200491322792 0.9674594 0.2353693 0.09286343 42 42 42
0.0105335228054366 -0.0383417663707754 0.00744794372660879 0.02482941 -0.5611109 0.8273681 215 215 215
-0.051620467359389 -0.0360410472082043 -0.0130769989656837 -0.5404016 -0.7873615 -0.2966951 90 90 90
0.0459971009645888 0.057973896326953 0.0252291132577501 -0.2556242 0.8299025 0.4959014 83 83 83
-0.0408866632276936 -0.0431816517122975 -0.0119360742594664 -0.4318334 -0.8552093 -0.2865954 58 58 58
-0.118246490928845 -0.00649540053426556 0.0172277706555218 -0.6748936 0.3375271 0.6561967 77 77 77
0.0615142832016136 -0.0311703294299712 0.0116720401799634 0.007845546 -0.539217 0.8421303 147 147 147
-0.102412426029366 -0.00280817975117414 0.0264769455565561 -0.5145746 0.33938 0.7874225 68 68 68
0.0814629031602976 -0.000699111419940446 0.0225138281656151 0.9609942 0.06787122 0.2681112 90 90 90
0.079616101367173 0.0113012965877562 0.0155503494800227 0.9770765 0.1705356 0.1274326 68 68 68
0.0264832816382583 -0.038008876433607 -0.0481481543357649 0.0640143 -0.9975367 -0.02868344 42 42 42
0.0861952570890445 -0.0403833194363604 -0.0130456295463836 0.8991809 -0.4121406 0.1470165 63 63 63
0.0595666156024373 0.0398686718872501 0.0572926050625627 0.1726216 0.1408669 0.9748632 108 108 108
0.0437804054813966 0.0626152929364781 0.0180502466260799 -0.340446 0.7241744 0.5997232 55 55 55
0.0425001166502845 0.00305710552968042 0.0348132717837909 -0.002682946 -0.5538496 0.8326124 134 134 134
-0.0308666332743608 0.0106656067534889 0.0399073606214203 -0.02947403 -0.5095136 0.8599576 189 189 189
0.0159979460925492 -0.00580717146012039 0.0288702527795475 -0.0009601402 -0.5541096 0.8324431 178 178 178
0.0679908217990344 -0.011621205174967 0.0246268607602785 -0.01182708 -0.5524732 0.8334467 113 113 113
-0.026949269269031 -0.0138474875312796 0.0235347924058477 0.008611971 -0.5449839 0.8384023 165 165 165
0.0818651153625161 0.00680500296232817 0.0119443721699972 0.9114211 0.2683751 0.3119076 66 66 66
0.0107770780197722 -0.042251905420735 -0.0239127877020586 0.3128577 -0.934154 -0.171687 58 58 58
0.0719657576866854 -0.0418772388511844 -0.0183706949736671 -0.01730191 -0.9604101 -0.2780525 58 58 58
-0.0145811742872264 -0.0248577741714181 0.0161085123925895 0.005917695 -0.5573623 0.8302483 136 136 136
0.0441229655261468 -0.0438538572809697 -0.0130702275807237 -0.01547407 -0.991885 -0.1261929 57 57 57
0.0158672668167861 -0.0420890077831376 -0.0236257987741581 0.0189134 -0.9730859 -0.2296651 82 82 82
0.0639389664403265 0.0631981969488298 0.0204417674231933 0.8187823 0.5662997 0.09434062 93 93 93
-0.0439885607232351 0.0387689372946437 0.00645615721028159 -0.3717075 0.8621721 0.344228 87 87 87
0.0385381651219425 0.0350234107176396 0.0525900823961521 -0.2556762 0.634437 0.7294652 56 56 56
0.00496979270784381 -0.0319193696375991 0.0116265013546574 0.0004072624 -0.5541923 0.8323886 204 204 204
-0.098576469758805 -0.025487379711559 0.0136713413469463 -0.308203 -0.9267542 -0.2147966 95 95 95
-0.063750747367703 -0.0366086593572638 0.00337390062240539 -0.560257 -0.7599688 -0.3294838 101 101 101
-0.0084529263668045 0.0256633003082645 0.0376983038411031 -0.2497517 0.7009536 0.668048 31 31 31
0.0766324710984634 0.0216131808594684 0.0115782107283904 0.9698231 0.2334813 0.07021222 72 72 72
-0.071563184998374 0.0169468826676853 0.0223467511302776 -0.264388 0.7363082 0.6228558 69 69 69
0.0492245130775137 -0.0189619341109251 0.0199674760182488 -0.004117671 -0.5609863 0.8278149 237 237 237
0.0393940707240426 0.00251841340092651 0.0342749343661282 0.006788695 -0.544344 0.8388346 120 120 120
0.0677641938192561 -0.00664223043423667 0.0281683917061648 -0.004516962 -0.551291 0.8343008 128 128 128
-0.102959129057433 -0.00832007329351164 -0.0152230469230374 -0.5046351 -0.7052175 -0.4980076 78 78 78
0.0695522567857625 0.0198479193956064 0.0449235903342009 0.7444033 -0.2281062 0.6275598 47 47 47
0.059613027184146 -0.014962054124277 0.0225924566124222 -0.006655815 -0.5529338 0.8331986 185 185 185
-0.0247114683728691 -0.011963325289627 0.0248467770036461 0.004894269 -0.5501228 0.8350694 164 164 164
0.0544435347876142 -0.0365919958646375 0.00826355933611178 -0.004985584 -0.5442284 0.8389223 101 101 101
-0.00239528276786949 0.00637153003103902 0.0368201650982665 0.007187517 -0.5538725 0.8325705 153 153 153
-0.0604279719761192 0.00148972571032396 0.0337482224763254 0.0001383684 -0.5355191 0.8445231 217 217 217
0.0784649306463781 0.0099028355444144 0.0262518248603354 0.9548478 0.2155484 0.2044617 27 27 27
-0.0744999199578558 0.0297615900964299 0.00174426588862253 -0.3513814 0.808519 0.4720468 60 60 60
0.0120011689059545 -0.00424734865335019 0.0297805982856721 0.01460635 -0.5619153 0.8270658 117 117 117
-0.070493744393588 0.0323053122509649 -1.03507092146238E-05 -0.258488 0.8904659 0.3745055 42 42 42
0.0170435291271989 -0.00953832150288014 0.0261079585397643 -0.003495704 -0.5535859 0.8327847 103 103 103
0.0849716948913872 -0.0350614987938714 -0.00665366430831638 0.980244 0.05479793 0.1900499 60 60 60
0.0160354363892363 0.0316154989017632 0.0409166943656522 -0.03498435 0.8503069 0.5251231 64 64 64
0.0851126287452555 -0.00326810843819353 -0.00259174341511703 0.9681403 0.2463955 -0.04464955 81 81 81
0.0581978438829862 0.0526147215130758 0.0384820163534809 -0.5007097 0.685787 0.5281912 55 55 55
-0.0280590158891623 -0.0409987791756742 -0.0300750691042698 -0.5379387 -0.7511736 -0.3825705 107 107 107
-0.0286913482492341 -0.0393636848336998 0.00659754277192054 0.007365469 -0.5501481 0.8350346 132 132 132
0.0921147774470625 -0.0335919243302827 -0.0441089872557189 0.9309267 -0.3395634 0.1344322 31 31 31
0.0502433613241982 0.0391679657261534 0.050489476299548 -0.4975114 0.751971 0.4324605 37 37 37
0.0271025085040724 -0.0444430186000888 -0.0147590386611484 0.00446708 -0.9794584 -0.201597 69 69 69
-0.0689434664086936 -0.00770530903812733 0.0275742117972543 -0.004123291 -0.5491247 0.8357303 123 123 123
0.0913283711387176 -0.0310443967401278 -0.0367081816942232 0.9907537 -0.0532927 0.1247677 56 56 56
0.0739583963110229 -0.0408709753087151 -0.0315887137968993 0.02711768 -0.9969066 -0.07376932 59 59 59
-0.0442744292588144 0.0392792073670904 0.00493037250763906 -0.3817115 0.8673673 0.3193278 100 100 100
0.0578848467515816 0.0259028341838239 0.0496575757034338 0.0050251 -0.5490645 0.8357649 125 125 125
0.0438985033194779 0.00122782904247737 0.0333226486790936 0.0003290787 -0.5497193 0.8353494 155 155 155
0.0217940911847732 0.0522719736600115 0.0179392800607616 -0.4362829 0.6467683 0.625578 83 83 83
0.0582776681696577 -0.0412434925895374 -0.0349179716773169 -0.0526181 -0.9833244 -0.1740816 46 46 46
0.0599631242108605 -0.00941035182555078 0.0263457126753053 0.006062321 -0.5681145 0.8229272 220 220 220
0.00647243304436507 0.00178628412639042 0.033848204699903 0.004351395 -0.5442851 0.838889 135 135 135
0.0824776419959121 0.00349272231595321 0.0117304236355125 0.92513 0.2207326 0.3088877 67 67 67
0.0553232274359554 0.0281067449537309 0.0509758781997887 0.00664311 -0.5606725 0.828011 153 153 153
-0.0111222834116866 -0.0434406188564888 0.003967855370551 0.008429801 -0.5589384 0.8291664 251 251 251
0.0338304605952524 0.0582820748718439 0.0181858336403197 -0.2227069 0.7896721 0.5716813 70 70 70
0.0640203434733604 0.0477740408027082 0.05130696686152 0.5758643 0.5568581 0.5985727 47 47 47
0.0516255646405648 0.0399442969698001 0.0509791145716566 -0.5303444 0.7534907 0.3885698 34 34 34
-0.00602074453872126 0.0255823838011459 0.03887411890912 -0.2320238 0.7121608 0.6625646 56 56 56
0.0503448531594135 0.0449263372551978 0.0422559349073438 -0.2891327 0.6917573 0.6617206 53 53 53
-0.102230965095154 0.0212792434955854 -0.000776378743750472 -0.4276135 0.8527831 0.2998458 41 41 41
0.0250655407525191 -0.0409002481482295 -0.0347638921737384 -0.07366347 -0.9806626 -0.1813134 21 21 21
0.0735111569588422 -0.0432838794994435 -0.0118798557850012 -0.02169207 -0.9706206 -0.2396352 61 61 61
-0.0739849950730067 -0.030854009622561 0.00925157094364876 -0.4872628 -0.8725451 -0.03521459 54 54 54
-0.112313161867255 -0.00544458474645204 -0.00816257372080237 -0.584172 -0.7417791 -0.3294037 86 86 86
-0.0376947385744044 0.0228989516927 0.0303167109304991 -0.2524583 0.7091509 0.6583083 45 45 45
0.00679575691825063 -0.0137909202618332 0.023421075400164 0.007280656 -0.5437928 0.839188 235 235 235
-0.118265383637075 -0.000528696255649053 0.0127352712833834 -0.2535012 0.715698 0.6507791 79 79 79
-0.0404311576806002 -0.0311166698212677 0.0120507379929626 -0.002090588 -0.556977 0.8305253 151 151 151
-0.062933379483171 -0.0373078060026877 0.00412159675905099 -0.4039893 -0.9119507 -0.07168418 117 117 117
0.0572356344394722 -0.0211213979215255 0.0186769636176111 0.01054662 -0.5489216 0.8358073 238 238 238
0.0867494393182626 -0.0336007224669682 -0.0164829417130295 0.966886 -0.1052089 0.2325133 36 36 36
0.0395426406141373 0.029640375742038 0.0520301663318237 -0.04924634 -0.3807174 0.9233791 151 151 151
0.0180131312887639 -0.0268174857468013 0.0148157032546448 -0.003085689 -0.5419785 0.8403867 239 239 239
-0.0639407666285803 0.0231487881549916 0.0185424531258847 -0.3881771 0.6608562 0.6423298 83 83 83
-0.102619920642064 -0.0231125412625544 0.0147692308802754 -0.5673442 -0.7556056 -0.3273848 86 86 86
0.0413890905927761 0.0343721978514013 0.05367193006416 -0.2196855 0.4329421 0.8742422 77 77 77
-0.0438315539548157 0.0366939389212677 0.0111172176129969 -0.4571531 0.7319368 0.5052521 70 70 70
0.0517504934979396 0.0295055598243379 0.051880675400087 -0.001284834 -0.551283 0.8343173 122 122 122
0.0782781243747235 0.0175834924694259 0.0199435526323647 0.9705434 0.2184171 0.1016833 34 34 34
0.088642980179946 -0.0111228639694555 -0.00574990119377539 0.9668297 0.2422679 0.08091047 68 68 68
-0.0963257771449846 -0.00292642014865996 0.0305031384984022 -0.1926472 -0.01337188 0.981177 190 190 190
0.0240534699140134 -0.046071729679944 -0.00852977152965373 -0.09187669 -0.9616164 -0.2585587 41 41 41
0.0118861378750512 0.00364063849016166 0.0348643069675059 0.00561814 -0.533272 0.8459252 168 168 168
0.0482864589200478 0.0369955354958695 0.0524324460544949 -0.3010131 0.7433522 0.5973429 51 51 51
-0.0648166475706349 -0.0216138646694918 -0.0278905316558006 -0.5675685 -0.7487245 -0.3424582 124 124 124
0.0871186303563025 -0.0112465264296752 0.00394052248511578 0.9512439 0.1992045 0.2354837 89 89 89
-0.0543578326984078 0.0217811687479408 0.0251447566150889 -0.1701695 0.8062475 0.5665751 73 73 73
0.0524368453306876 0.0374412387747931 0.056622819815844 -0.3807925 0.3058329 0.8726186 72 72 72
0.0197780620668824 0.0338783273646046 0.0374348705042829 -0.1649464 0.8146741 0.5559666 77 77 77
-0.0500675100230097 -0.000983464814876045 0.0324142682609264 0.003463576 -0.5628116 0.826578 128 128 128
0.0900761999070701 -0.0198304801144448 -0.0132705102336784 0.9998447 -0.01580573 -0.007800993 42 42 42
-0.0401400145734505 0.0147711050407038 0.0392660728644125 -0.2390332 0.5756423 0.781984 49 49 49
0.0455396596003099 -0.0454308856436353 0.00212642070349711 -0.02944247 -0.7375512 0.6746491 170 170 170
-0.00767058062313031 0.0455136865521511 0.0108376350251895 -0.09266699 0.8036061 0.5879031 93 93 93
0.0320980724684996 -0.0448603611963267 -0.010066905309779 0.1073134 -0.9698431 -0.2188336 92 92 92
0.0869018054196586 -0.0254953697929739 -0.00950791269717383 0.9257445 -0.2874831 0.2456634 87 87 87
0.0785114529201489 -0.0398814663151361 -0.0415753750827758 0.09952408 -0.9880016 -0.1181009 61 61 61
-0.123053281734886 0.00278725813192038 -0.00772247760295547 -0.5737228 -0.706765 -0.4139147 73 73 73
-0.120833180918999 0.00176070822414937 -0.00791787874988675 -0.5515245 -0.721105 -0.4193188 69 69 69
0.0599075710643611 0.0160086401969738 0.0431209339884711 0.002085927 -0.5607646 0.8279727 135 135 135
-0.047989560570499 0.0334989187640635 0.0125876315264358 -0.2668708 0.8098234 0.5224615 66 66 66
0.0838682848339578 -0.0406311133377779 -0.028550061089728 -0.02243308 -0.9992803 -0.03058845 91 91 91
0.0123730668225026 0.0272897381654843 0.0467858416574106 -0.2668977 0.699219 0.6632182 39 39 39
0.0862243270527092 -0.0412441204654311 -0.0260426951981452 0.1200414 -0.9919181 -0.04109044 181 181 181
-0.00588464672638422 0.0425706116715693 0.0183101143724982 -0.1610615 0.8078255 0.5669895 51 51 51
0.0835704867080518 0.00457934267391757 -0.00620008997024868 0.9472296 0.3198889 -0.02066684 68 68 68
0.0808326745703831 0.0109753298522215 -0.00832504360240977 0.9479833 0.3183186 0.0009624194 40 40 40
0.0479293553454854 0.0539563501052525 0.031608364645342 -0.1423446 0.6935583 0.7061974 59 59 59
-0.00124855373563793 -0.0524633926779146 -0.0207980899182043 0.4213099 -0.8952413 -0.1450548 50 50 50
-0.000300403578428865 -0.0477178172751282 0.000933238012907622 0.004706546 -0.5460786 0.8377208 136 136 136
0.085462776317806 -0.0273592634357093 -0.00584307415452007 0.9350421 -0.1600037 0.3163782 84 84 84
0.073753222142604 -0.0352571496484896 0.00950671400045772 0.001509989 -0.548217 0.8363348 117 117 117
0.0616092743124741 0.0370528382196175 0.0567329884805281 0.501511 -0.2101435 0.8392416 84 84 84
-0.0191684297533421 0.00118412878909502 0.0336301745281641 0.007437004 -0.5568686 0.8305673 129 129 129
0.0655685036258171 0.0355572658983794 0.0475053024098825 0.9256253 0.01591005 0.3781068 75 75 75
-0.0277621346443797 -0.0510124492201805 -0.00939652463952256 -0.440299 -0.8210121 -0.3634223 73 73 73
-0.0761931941706973 0.0216876871224761 0.0113252779716548 -0.3184455 0.754743 0.5735464 62 62 62
-0.0516595890368885 -0.0348739559007177 -0.0164375697344754 -0.5789098 -0.773505 -0.2579794 66 66 66
0.00362050672290914 0.00159638388856886 0.0336162532093668 -0.0001384197 -0.5475227 0.8367908 223 223 223
-0.0820067622898109 0.0281906684624447 -0.00109179228841194 -0.4001351 0.7819754 0.4779188 139 139 139
0.0700445392267126 -0.0421227155292801 -0.0157999044894757 -0.05132792 -0.9656011 -0.2549118 45 45 45
-0.0525840378348958 -0.016742475944521 0.021566377182379 0.0001568929 -0.5528048 0.8333108 143 143 143
0.0482787997366592 0.0210448495324519 0.0463616699267364 -0.003439101 -0.5443347 0.838861 188 188 188
0.0278321210405048 -0.0296770614728447 0.0128934365437831 0.01160602 -0.5538623 0.8325273 120 120 120
0.0367587656330906 0.00983556213075804 0.0390296623834423 -0.0007499398 -0.5614083 0.8275386 125 125 125
0.00360616946066528 -0.0383324533194169 0.00763828318800042 -0.007492773 -0.5581866 0.8296816 246 246 246
0.0768381201361603 0.017115151696118 0.0273122973774523 0.9489404 0.140415 0.2824815 83 83 83
0.0848261652249636 -0.0365099810543054 -0.00423304187350437 0.992088 0.01136872 0.1250283 35 35 35
0.02000392351666 -0.0370077622623821 0.00809125867742416 0.01107918 -0.5535553 0.8327387 229 229 229
0.0166205474732226 -0.0425071973164564 -0.0214278895867167 -0.03390278 -0.9683703 -0.2472037 78 78 78
-0.119325733126929 -0.000326312573962428 -0.00783295790949728 -0.5592755 -0.7302806 -0.3923023 59 59 59
0.0770787995590076 0.0244312485025162 0.00185422505547284 0.9650277 0.2595668 -0.03669711 23 23 23
-0.0995288241335921 0.00926516290955659 0.0146165594051519 -0.4360131 0.5829715 0.6855923 89 89 89
-0.0752759108999002 -0.0256520711452767 0.0157783674836668 -0.002161707 -0.5524875 0.8335184 131 131 131
0.0646151789650604 0.0345349412395087 0.0494602314607353 0.8930682 0.0361921 0.4484634 56 56 56
-0.0503607417090637 0.0258916244950409 0.0212777294783685 -0.3998743 0.6581302 0.6379382 73 73 73
-0.102101487390605 -0.00820144813329027 0.0270833758691736 -0.23171 -0.2829009 0.9307403 208 208 208
-0.0342763620791993 0.0278328259285053 0.0269790246030366 -0.3727476 0.6397071 0.672186 31 31 31
-0.0776335890578725 0.020518134935671 0.0121517099364544 -0.2460203 0.7947933 0.5547771 68 68 68
0.0540176888757191 0.0365664931906139 0.056439825596862 -0.2027496 -0.1302664 0.9705274 150 150 150
-0.0317408443419724 -0.0379347144668932 -0.0302744345571705 -0.6042752 -0.7384396 -0.2992632 76 76 76
0.0615832010715107 0.0541321054608953 0.0391454014538681 -0.3034102 0.8301601 0.4677354 57 57 57
0.0668076169474801 0.0305541597608834 0.0450493453543759 0.9560035 0.1614732 0.2449157 81 81 81
0.0800026552052586 0.00748576741552864 0.015782356236765 0.9612236 0.2482667 0.1200535 94 94 94
-0.0939566116329233 -0.0110460021815663 0.0255380768045165 -0.003259245 -0.5449343 0.8384724 156 156 156
0.0735952190176647 0.0409399227855788 0.00928784174303965 0.9725943 0.1701512 0.1584578 78 78 78
0.0558413958891568 0.0594145486426106 0.0290659395853808 -0.3289832 0.7104046 0.6221699 96 96 96
-0.00986352397870505 -0.0301124962050093 0.0126992069895162 0.008645384 -0.5517673 0.8339533 130 130 130
-0.0456906009416631 -0.0426211396926938 0.00466319906250096 -0.1707212 -0.7470933 0.6424218 111 111 111
0.0359907546779734 -0.0044811790588164 0.0296059854838518 -0.0008132566 -0.5592788 0.8289792 240 240 240
0.067881499550577 0.0354448334582633 0.0408900205038533 0.9523212 -0.003412551 0.3050783 67 67 67
-0.0744270341765707 0.0176989277389673 0.0192575394082723 -0.3071936 0.806295 0.5054904 86 86 86
0.0160676550549299 -0.0405245964629825 -0.0477775480286097 0.2327871 -0.9704791 -0.06309122 80 80 80
-0.055981258534189 0.034811510907253 0.00283957399992979 -0.2457247 0.9067777 0.3425983 75 75 75
-0.0569036747244021 0.0351753316222413 -0.000261157144009261 -0.2467349 0.8796884 0.4065343 60 60 60
0.0435549901041146 0.0384314052376695 0.0472366258665082 -0.187936 0.8808708 0.43445 57 57 57
-0.00163187884502047 0.0122087487739153 0.0408593162866572 0.01277149 -0.547534 0.836686 107 107 107
0.0625693151019207 0.0476648524847801 0.0525919377048362 0.1204721 0.7434318 0.657872 54 54 54
-0.0942577989475861 0.0236983996547914 -0.0026885728842807 -0.2161833 0.884065 0.4143597 104 104 104
0.0180179374500442 -0.0398454673675848 -0.0372109166261494 0.02658991 -0.9994166 -0.02143223 24 24 24
0.0547333400361083 0.00322099836091783 0.0346442966871076 0.003848746 -0.5597987 0.8286197 243 243 243
0.0416424556010004 0.0299865322843066 0.052501899313809 -0.07579086 -0.3955178 0.9153259 161 161 161
-0.0356563823572762 -0.0319286423954449 0.0115305102593407 0.009820684 -0.5615164 0.8274073 172 172 172
-0.0576400419841054 0.0331555299823122 0.00869369962157551 -0.2161341 0.9477029 0.2348302 66 66 66
-0.0986796031815071 -0.0226018722944309 0.0108563719809222 -0.5322149 -0.7688653 -0.3543916 31 31 31
0.0379672908010917 0.0395135884277535 0.043425750386847 -0.2253788 0.835521 0.5011078 63 63 63
-0.0518305284982572 0.0332956389933246 0.0106195455059613 -0.2322002 0.8955117 0.3796602 82 82 82
0.0800818206944316 -0.0408229668528587 -0.0234463709097973 -0.07177778 -0.9907368 -0.115276 82 82 82
0.0246025658477327 -0.0148392587538233 0.0227419622044789 0.003159524 -0.5538773 0.8325923 138 138 138
0.0318434323034191 0.0113220246285295 0.0400657130270038 0.003767424 -0.5442384 0.8389221 136 136 136
-0.0300144179347859 0.0235427774218137 0.0348062831094696 -0.3316394 0.7193281 0.6103953 38 38 38
0.0739741579012305 0.0365368863078174 0.013012950298961 0.9644131 0.2320873 0.1266602 85 85 85
-0.0104118057521534 -0.043218552526245 0.00401192169116804 0.007143611 -0.5593641 0.8288913 184 184 184
0.0516067649634862 0.0222069810263989 0.0470241721645497 0.001305306 -0.5429671 0.839753 157 157 157
0.0625064072469466 0.0653076902573034 0.0189980063488577 0.5882581 0.8083026 0.02448091 98 98 98
0.0573928627551334 0.0460509657021008 0.0458445865371948 -0.6175412 0.6476718 0.4462781 66 66 66
-0.0799652175164476 0.0118248192834645 0.023678863699677 -0.2485557 0.6689373 0.7005305 54 54 54
0.0769063461522796 0.0210071365789583 0.00981296902089512 0.9541552 0.25875 0.1504534 50 50 50
-0.0781424459323903 0.0248837129783959 0.00609154245655108 -0.3628909 0.7499674 0.5530453 59 59 59
-0.116443751310527 0.00248190544534999 0.00814336752768041 -0.3066906 0.7068631 0.6374053 97 97 97
-0.0199166684232368 -0.0212635159762437 0.0184020330079161 0.009597807 -0.5576496 0.830021 231 231 231
0.0788088377724334 0.0157742661422949 0.0103500499879778 0.922556 0.3725479 0.1004911 75 75 75
0.0565609655172672 0.00955205318543523 0.039079977295587 -0.01281033 -0.5494511 0.8354277 236 236 236
-0.0511452735885471 -0.0248866451895258 -0.0373229068286109 -0.3292944 -0.8366004 -0.4377955 104 104 104
0.080106147186678 0.0125195777899434 -0.0159689279771135 0.9251833 0.3787202 0.02463527 39 39 39
-0.0159770289102643 -0.0418528853789201 -0.0410634620881873 -0.42127 -0.7891707 -0.4469242 163 163 163
0.0909332633939841 -0.0252706762446939 -0.0366698565811694 0.9851058 0.1640181 0.05162137 29 29 29
0.0336318611696751 0.0374750467248957 0.0452707542851832 -0.2821797 0.8508086 0.4432826 66 66 66
0.0239914477216843 0.0455049034423511 0.0292290527386564 -0.4868369 0.6870977 0.5393391 64 64 64
0.0663102966199021 0.0184056156324807 0.0447988771481813 0.2024129 -0.5629886 0.8012944 148 148 148
-0.000319524783346514 0.0495950638540773 0.00892877694390481 -0.3153102 0.7417281 0.5919619 92 92 92
0.0464378192394306 0.0565437654727053 0.0281294898908639 -0.2097597 0.8055712 0.5541263 104 104 104
0.00648135825364426 -0.0431588417445243 -0.0491997497512329 -0.00606729 -0.9705956 -0.2406395 59 59 59
-0.0300766062650686 0.0160415743649317 0.0428883375561027 -0.256428 0.2603954 0.930827 174 174 174
-0.0122779778633009 -0.00228116899224168 0.031156645356813 -0.006478036 -0.5429276 0.8397545 209 209 209
-0.0524631827135986 0.0280468718559919 0.0178141286146813 -0.3464348 0.703149 0.6209383 68 68 68
0.0343291887520951 0.0408868581259254 0.03869565283388 -0.4173935 0.7612403 0.496282 50 50 50
-0.0114408151687191 -0.0394491284733936 0.00638881277396602 0.009393901 -0.55807 0.8297407 198 198 198
0.0636058305768654 0.0560095715708346 0.036878660870033 -0.05871867 0.8468143 0.5286376 85 85 85
0.00765598266843726 0.023944915014371 0.0469454438494414 -0.3376752 0.286454 0.8966156 79 79 79
-0.0602645332384484 -0.0388416086865918 0.00278186144476356 -0.3473631 -0.9216275 -0.1730365 43 43 43
0.0102760901007477 0.0310710167667461 0.0389220067096607 -0.4008838 0.8076072 0.4325075 77 77 77
0.021321665974571 0.0376165066870751 0.0336601121962768 -0.4174846 0.6931869 0.587536 88 88 88
-0.00934331285299339 -0.0462337049216338 -0.0360631306611006 -0.1871602 -0.8621761 -0.4707691 95 95 95
0.050186819938014 -0.0423797661177527 -0.0232132337891148 0.12677 -0.9817168 -0.1419912 57 57 57
-0.0916773094945187 0.0204500044102449 0.00438540855695146 -0.2153185 0.8612399 0.4603302 103 103 103
0.0520045010346475 -0.0174041896990094 0.0207987522814874 -0.002338412 -0.5337685 0.8456274 231 231 231
0.0285466606454712 0.0428138232925455 0.0348636839042181 -0.2490836 0.6195834 0.7443613 74 74 74
-0.0327251063458032 -0.0431388902183961 -0.0198483443120758 -0.5390121 -0.6933141 -0.478311 62 62 62
-0.0121700273772469 -0.051296816800583 -0.00137224299411465 0.004455903 -0.5436978 0.8392692 130 130 130
0.0174792814294771 -0.0263231760955443 0.0151457535798934 -0.006052098 -0.5437828 0.8392041 213 213 213
-0.00801852962231853 0.0428223524838129 0.0168184150342789 -0.2423832 0.8410092 0.4836878 45 45 45
0.0476760333336341 0.0635817878626125 0.0188117816546945 -0.3835465 0.6901724 0.61364 68 68 68
-0.019843687754614 -0.0547903712487773 -0.00365996820355052 -0.1169862 -0.7733619 0.6230776 175 175 175
0.0793053078662405 0.00358956941002825 0.025824549881699 0.9503567 0.1212681 0.2865592 47 47 47
-0.0494137196866056 0.0364458852615042 0.00460013021380812 -0.5024518 0.7769653 0.3792983 56 56 56
0.0761681585786826 0.0227928580233107 0.0137996006981934 0.956661 0.2904582 0.02082506 76 76 76
0.0873183481606736 -0.00704316580655445 -0.00984787617241645 0.9300652 0.3570787 0.08645019 61 61 61
-0.0318952241106287 0.0208301715420688 0.0364337149566409 -0.2948107 0.7291272 0.6176246 70 70 70
0.0558262096228301 0.0433305698417529 0.0505440018294683 -0.5410035 0.7796028 0.3154912 59 59 59
0.0237664881314867 -0.00801694571906625 0.0272020072810784 0.009841366 -0.5523586 0.8335485 102 102 102
0.0347594621450438 0.0328906203608472 0.053214152713874 -0.435061 0.3391179 0.8340989 70 70 70
-0.0276648244210791 0.0377755764366902 0.0194354192701577 -0.09433834 0.7890328 0.6070647 54 54 54
-0.0386690236259064 0.00524084927821294 0.0362735699232372 -0.008711057 -0.5458159 0.8378599 96 96 96
0.0419793447634442 -0.0428177341567269 -0.0150283611165827 -0.01633839 -0.9935843 -0.1119071 100 100 100
0.0217814250488864 -0.00415265344063281 0.0299060740680087 0.002759128 -0.559306 0.8289567 235 235 235
0.00395562503543445 0.023223346555076 0.046801957186477 -0.2549942 0.4672704 0.8465437 73 73 73
-0.102034704374858 -0.0124738780107604 0.0246584392694327 -0.07935531 -0.502588 0.8608763 175 175 175
0.0297082745066386 -0.0345956281667945 0.00951757865590247 -0.000253371 -0.5655675 0.824702 173 173 173
0.00142345710610847 -0.0467958389104136 -0.0409489643191263 0.03194791 -0.9578698 -0.2854203 99 99 99
-0.0224244154320117 -0.0118335100605397 0.0247663031642023 0.003629125 -0.5526497 0.8334058 133 133 133
0.079377505588303 0.0164248070970699 -0.0071095268848968 0.9677373 0.2519484 -0.002551799 28 28 28
0.0578013331895633 -0.0468326860162352 0.000324978785448737 0.1046285 -0.9449162 0.310139 143 143 143
-0.0647299151794412 0.0278766290086219 0.010700400631718 -0.5850964 0.6228115 0.519392 25 25 25
-0.0258483870015058 0.04433518424104 0.0088447373443688 -0.346335 0.8421439 0.4133349 64 64 64
0.0060880489032642 0.0309145753160427 0.034806739208269 -0.2758591 0.8198084 0.5018126 51 51 51
-0.0302802576029881 0.0273908219810994 0.0294471359865555 -0.3342006 0.6804541 0.6521443 63 63 63
0.0254878728918142 -0.014207007460267 0.0234462678126482 0.004631121 -0.550972 0.8345109 130 130 130
0.0888601997611651 -0.0115716214424548 -0.0299061381043593 0.983847 0.1777904 0.02087251 41 41 41
-0.0923259929084006 0.0197755187028115 0.00461535761211784 -0.1998519 0.8770874 0.4367802 79 79 79
-0.0034831193810243 -0.0537004100711126 -0.0113445772331672 0.2852989 -0.9087029 -0.3047354 71 71 71
-0.0447958838925306 -0.0390855066519129 -0.0156168083054672 -0.4326184 -0.8153236 -0.384823 74 74 74
0.0460258223774708 0.0317312826507091 0.0535505771618234 -0.04453712 -0.328627 0.9434091 144 144 144
0.0600758165266326 0.0627982637540274 0.0266376522954159 -0.14387 0.7107117 0.6886148 66 66 66
0.014195505983887 0.0436366709329402 0.0230012873478634 -0.2252044 0.7726533 0.5935401 55 55 55
-0.103035371415825 -0.0166455760350093 -3.54291138370266E-05 -0.6864709 -0.6865508 -0.2395948 72 72 72
-0.00626478881734305 0.0230192998314295 0.0412856149111532 -0.3044457 0.7591891 0.5752779 86 86 86
-0.0273946834753076 -0.0331943565064209 0.0106115916464964 -0.001445769 -0.5504422 0.8348721 170 170 170
0.0544887312241005 0.0509350902413735 0.0369231932922018 -0.4050035 0.7149584 0.5699182 50 50 50
0.00396202036298399 -0.0441907755454528 -0.0454052230481661 0.135941 -0.9209907 -0.3650976 122 122 122
-0.11157238698663 -0.00731055941458136 -0.00542033344300025 -0.5849401 -0.7702651 -0.2540407 71 71 71
-0.0644849675217376 0.0253861441127272 0.0149547261994674 -0.4916574 0.6955091 0.5239657 70 70 70
-0.0540756412705763 -0.029537116286376 -0.0284688039714828 -0.3443692 -0.8375364 -0.4241965 59 59 59
-0.0867362955732534 -0.0035995801044284 0.0306020618233206 -0.1373637 -0.3625367 0.9217908 190 190 190
-0.101938240419899 -0.00422446592659742 0.0277157176127903 -0.4188933 0.08599089 0.9039546 66 66 66
0.00616448667747638 0.0452382871870425 0.0187319832144875 -0.273714 0.6657557 0.6941541 90 90 90
-0.0828398698790365 -0.0238992709607425 0.000129046600350846 -0.2871507 -0.9304935 -0.2274342 78 78 78
-0.0980794733514156 0.0156986612795418 0.00954592688395534 -0.24561 0.7878986 0.5647048 33 33 33
0.0240635232933997 0.0289307134809758 0.0466238764495251 -0.5024908 0.6078733 0.6148114 47 47 47
0.0653512324460821 -0.043043997161347 -0.0139857491481094 0.001054086 -0.9525529 -0.3043712 68 68 68
0.0900894743921881 -0.0337004436400839 -0.0316678915079215 0.9753926 -0.1369603 0.1727748 54 54 54
0.0350533080344551 0.0183190939015258 0.044569140952822 -0.0008524368 -0.5546729 0.8320681 169 169 169
0.047777978825398 0.0197601989091351 0.0456103771731737 0.003450251 -0.5488151 0.8359367 197 197 197
0.0840706964870011 -0.0398298263529913 -0.0435713907976985 0.1318522 -0.9847838 -0.1132071 47 47 47
-0.0296809152401107 0.0291057571648909 0.028306679071239 -0.3290389 0.6205421 0.7118011 75 75 75
-0.111609422955886 -0.0150389231273159 0.0110012143702037 -0.415309 -0.8379032 -0.3541704 71 71 71
0.0232372352705226 6.57762272735507E-05 0.0327310967360463 0.007641134 -0.550127 0.8350461 242 242 242
-0.0462585902938712 0.0265776824645648 0.0242225082470232 -0.3565341 0.7527232 0.5534359 70 70 70
0.0756209363268077 0.0281842864386025 -0.00231309978337502 0.9795858 0.2005294 -0.01412799 75 75 75
0.0660468013462505 0.0297444304415969 0.0498659198742846 0.7746582 0.06013152 0.6295148 89 89 89
0.0697826222824787 0.051655991253687 0.00995254479060831 0.8648226 0.419902 0.2752529 67 67 67
0.0225557522753583 0.00729179227083016 0.0374517776773536 -0.00501977 -0.5521224 0.8337479 149 149 149
0.077935565053364 0.012184939623447 0.0259239775230982 0.9543464 0.2198097 0.2022537 53 53 53
0.051703762557751 -0.0088506894711286 0.0266247524653803 -0.002532255 -0.54886 0.8359104 241 241 241
0.0216531150423767 -0.0262830072929155 0.0151196970505496 0.008057712 -0.5414951 0.8406653 108 108 108
0.0837570973063126 -0.00499982353902462 0.0100147560274975 0.9845501 0.07141851 0.1598767 71 71 71
0.00154588923208898 0.0301488772194463 0.0337015840466416 -0.1568065 0.7392946 0.6548704 80 80 80
0.0703967477131096 0.0500343379769663 0.0113136562369596 0.8643538 0.4236084 0.2710136 25 25 25
-0.065956557412949 0.0232278532996375 0.0167683500933928 -0.4081393 0.7257431 0.5538224 73 73 73
-0.067704492413428 0.0325979032832454 0.00177389023801444 -0.2546241 0.9305912 0.2629952 67 67 67
-0.0256553767126582 0.0249589623669107 0.0347525375068449 -0.1973259 0.7030032 0.6832634 84 84 84
