ply
format ascii 1.0
comment File exported by Rhinoceros Version 7.0
element vertex 467
property float x
property float y
property float z
property float nx
property float ny
property float nz
property uchar red
property uchar green
property uchar blue
end_header
-0.067010437836315 0.0242913025925471 0.0038297247525546 -0.6806938 -0.0493958 -0.7309008 243 210 238
-0.066919851142389 0.0211411588603803 0.00690887352643759 -0.09118149 0.433333 -0.8966094 172 175 185
-0.0671287479640896 0.0222030823455037 0.0079103394473825 -0.06361691 0.6120981 -0.7882187 194 194 202
-0.0692387625393849 0.022009746065313 0.00787045478861469 -0.30782 0.5106509 -0.8027967 180 186 190
-0.0708248729655452 0.0221251526960685 0.00805735273103019 -0.2007621 0.5986848 -0.7754167 178 183 188
-0.068131372739034 0.0238496712832412 0.00590380779867382 -0.5790431 -0.009003839 -0.8152472 230 198 228
-0.0679466259117651 0.024883249788983 0.00743207316824073 -0.5979931 0.7156374 -0.3609255 192 194 204
-0.0712550753708956 0.0242977301077499 0.00986006584678228 -0.1746087 0.6422576 -0.7463357 183 188 193
-0.0730277934949388 0.0219609941020263 0.00818849887867289 0.004442303 0.6210134 -0.7837874 177 183 187
-0.0766270340327062 0.0211121467888976 0.00767489919009716 -0.1408291 0.6497532 -0.7469859 177 183 187
-0.0765357572095535 0.0229482646074519 0.00906611922688904 -0.05625733 0.5247586 -0.8493901 171 181 185
-0.0763401988032717 0.0226464372063241 0.00838103659393163 -0.08706576 0.4932361 -0.8655275 178 184 185
-0.075037124490406 0.0234017920485265 0.00928305496549796 -0.01720507 0.6223322 -0.7825641 186 188 193
-0.0723959569603454 0.0254124371211842 0.010551738181494 -0.0946905 0.5673309 -0.8180277 176 182 188
-0.0729719594472567 0.0267394798750866 0.0113093340266419 -0.05515628 0.5920006 -0.8040479 180 186 191
-0.0753083146025615 0.0245093459177005 0.00992339847959816 -0.02068921 0.6572056 -0.7534274 185 189 193
-0.076848877559994 0.025558447052028 0.0110212827705188 -0.04979601 0.6854519 -0.7264132 182 185 191
-0.0691428474858098 0.0266331198977418 0.00747161505583104 -0.4704416 0.715934 -0.5158713 208 204 218
-0.0791556160061728 0.0238209706801954 0.00362852250471606 -0.830064 0.1567267 -0.5351921 211 215 226
-0.0784775776020812 0.0219709229258418 0.0083177850477406 -0.9558879 0.1873735 -0.2262067 186 188 191
-0.0779960744445307 0.0226716006649921 0.00883292471490343 -0.4010046 0.4544211 -0.7954224 187 192 197
-0.0793473024291358 0.023199557707854 0.0118893321532407 -0.917824 0.2254142 -0.3267835 176 179 181
-0.0774447543797772 0.0265648961584531 0.0116214426398384 0.2046806 0.5458006 -0.8125316 180 187 190
-0.0778125645580121 0.0269118519505436 0.00636845700508359 -0.6646402 0.4236653 -0.6154358 209 213 220
-0.0789204816204712 0.0282976980022116 0.00731139419207976 -0.9910822 -0.03532965 0.1284832 214 212 225
-0.0664109594437425 0.0269400668501724 0.0112673170584065 0.04023457 0.7780051 -0.6269684 180 184 191
-0.0753566682029772 0.0269500672952645 0.0117141110711653 -0.1002605 0.5941998 -0.7980441 189 191 198
-0.0664165526573375 0.0280439466578867 0.0120811410567694 -0.0382961 0.6645363 -0.7462741 172 180 183
-0.068554567483496 0.0291824207805776 0.0129078899743486 0.02192619 0.543587 -0.8390664 177 183 186
-0.0685432164340187 0.0277355623922152 0.0119999941927796 -0.02415724 0.679963 -0.7328484 155 168 173
-0.0706998927671525 0.0278054812786882 0.0119669606955959 -0.07434405 0.6169023 -0.7835206 180 184 190
-0.0667646731274361 0.0302655080178119 0.013696306894968 -0.02384738 0.5803846 -0.8139933 189 193 198
-0.0668226387577917 0.0323902148508862 0.0151767014180715 -0.03876148 0.5557129 -0.8304702 178 183 189
-0.0721211891598745 0.0291591332969341 0.0131943065226424 -0.09939359 0.5614322 -0.821532 177 182 186
-0.0764545348859675 0.0281625405819278 0.013160173351451 -0.02679518 0.608078 -0.793425 167 176 177
-0.074906160240789 0.0300753327523567 0.0142105534254196 -0.1649487 0.5096061 -0.8444487 184 188 193
-0.07089412610555 0.0310462527373457 0.0144342942634899 -0.05235361 0.6026894 -0.7962566 164 165 169
-0.0736637692813598 0.0313795736257232 0.0148874475584479 -0.09312463 0.5598595 -0.8233379 186 188 198
-0.0657614776886524 0.0334863529118603 0.0160728964098733 -0.007091154 0.591211 -0.8064858 167 176 177
-0.0724663074812217 0.0346314063280215 0.0172538648857488 0.03013 0.5932555 -0.8044502 181 187 192
-0.0751022161833546 0.0334418827391166 0.0164282554819869 -0.08076502 0.5819321 -0.809217 186 193 197
-0.0792997456454603 0.0260197679940813 0.0123223556771051 -0.9821103 0.01305063 -0.1878539 178 181 180
-0.0785167664542001 0.0237497731876903 0.0234316609914965 -0.995568 -0.08896999 0.03047396 150 157 158
-0.0773435180025763 0.0287641948827895 0.0135738993724058 0.01698814 0.6047688 -0.7962199 184 186 191
-0.0784525061562786 0.0286483507769859 0.0130665269731008 -0.06191522 0.5744724 -0.8161789 192 196 198
-0.079710638870683 0.0293448212255381 0.0163093741250911 -0.8134611 0.2266683 -0.5356329 170 177 175
-0.0802334959717319 0.0304405701048728 0.0117074159669092 0.6304964 0.5358266 -0.5615729 197 199 208
-0.0794270137245294 0.0290862492450497 0.0216529344892647 -0.9975088 -0.0411455 -0.05730022 166 173 173
-0.0778097445059558 0.0141803995414702 0.0272319863279486 -0.9988478 -0.04669522 -0.01107369 151 149 151
-0.0780345069274646 0.0164798572146618 0.0277495708795497 -0.9981973 -0.05774475 -0.01636231 142 152 149
-0.0783350015612196 0.0153811432615465 0.0324308462761741 -0.9981055 -0.06148912 0.002107888 178 182 179
-0.0780663355392099 0.0173328861868964 0.0321952200831939 -0.9979667 -0.06293748 0.01006874 176 177 176
-0.0780982219885926 0.0222219607550327 0.0255514929845373 -0.9972489 -0.07375471 -0.007402857 155 160 164
-0.0788624523999784 0.0240892125462114 0.0277632621740607 -0.9972032 -0.07437372 -0.007371314 171 176 175
-0.078364134712845 0.0198294695224026 0.0321047539202917 -0.9982981 -0.05604782 0.01611114 178 181 180
-0.0784862223602119 0.0215474074819104 0.0337860420330269 -0.9975362 -0.06932343 0.01075979 173 176 179
-0.0787386453803283 0.0263062630549269 0.0393176779341743 -0.9981974 -0.05522722 0.02349314 182 185 183
-0.0787998976970585 0.0239923538896721 0.0411812994014633 -0.9982285 -0.05579461 0.02065994 188 192 188
-0.0783662990627572 0.0271338736016661 0.0253717030054186 -0.9952323 -0.09729616 0.006786179 139 148 141
-0.0790077579301922 0.0262302542205733 0.0233965084062059 -0.9949552 -0.09243168 0.03899395 164 174 169
-0.0786698489878974 0.0284664719603337 0.0272638564972115 -0.9958506 -0.08379588 0.03549495 146 148 154
-0.0787838577766862 0.0250190414032122 0.0310400863449663 -0.9976864 -0.06726124 0.009891393 172 178 179
-0.0789504520807864 0.0273812198945902 0.0309244433472263 -0.997696 -0.06282742 0.02560094 186 188 193
-0.0796300752680015 0.0314856374601921 0.0249823253907307 -0.9982902 -0.0582456 0.004913384 158 163 164
-0.0788577068039791 0.0278395045037971 0.0361005642913261 -0.9983055 -0.05149054 0.02710824 171 179 172
-0.078370585062844 0.0285985725044967 0.0414262973172019 -0.9983405 -0.05496226 0.01718911 188 190 191
-0.0785899490518722 0.0286816470007549 0.0423934704794219 -0.9983405 -0.05496226 0.01718911 176 179 178
-0.078848575760071 0.0312314090190817 0.0427118462226247 -0.9979539 -0.06158355 0.01718981 172 173 175
-0.0793035706834924 0.0341338530115792 0.0367369361061862 -0.9972181 -0.07087743 0.02307354 176 177 180
-0.0793891100865038 0.035443742648178 0.0359788659071842 -0.9980296 -0.05861794 0.02238049 168 171 172
-0.0792384341244876 0.0340089131090155 0.0430825322051438 -0.9975049 -0.06633445 0.02416148 173 176 175
-0.0788494319965629 0.0358633339514428 0.0386574109099361 -0.9975119 -0.06975005 0.01024206 145 157 157
-0.0791814420784642 0.0373296677901845 0.0404377440758734 -0.9963553 -0.08184109 0.02404376 151 150 139
-0.0792477539014156 0.0369099338151264 0.0432377674251725 -0.9965634 -0.07345334 0.03828717 155 162 160
-0.078561401146839 0.0377661146422246 0.0417916429376887 -0.9958341 -0.08597249 0.03038578 156 158 156
-0.0714501985060974 0.0459185439221329 0.0553954561291169 -0.04873148 0.7868909 0.6151649 168 176 173
-0.0363806432774596 0.055960967101395 0.0304430269764608 -0.1283315 0.5751881 -0.8078921 191 195 199
-0.055929715240953 0.0566689625155365 0.0324081434345839 0.05989812 0.6270658 -0.77666 191 195 202
-0.0797813719307436 0.0445571834300226 0.0457313383796972 -0.978555 0.1754599 0.107907 170 174 177
-0.0226423832030855 0.0477556545032314 0.0161226631884527 -0.560815 0.2464213 -0.7904195 196 199 207
-0.0133946342049258 0.0360286611158788 0.0141209676381276 -0.0140641 0.5691739 -0.8220969 202 203 212
-0.000471055910385321 0.0410358740645957 0.00965529183730234 0.4665905 -0.006788224 -0.8844474 203 206 216
-0.0104293596675467 0.0510467650630031 0.0248286619687707 -0.05071548 0.6046095 -0.7949058 199 203 211
-0.0792223323189085 0.0380808059797682 0.0480872239360601 -0.9953634 -0.03831199 0.08822643 173 179 171
-0.0584446063524497 0.0375177834057256 0.0186115695555739 -0.08943667 0.6462026 -0.7579072 174 179 184
-0.0313008355522455 0.0509657938737661 0.0515066580574647 -0.04908209 0.7797297 0.6241895 174 177 179
-0.00371404864634206 0.0395113467105742 0.00869888429663606 -0.8582007 0.5128342 -0.02219311 203 205 214
-0.0226811451871347 0.045967844176693 0.0219895148151399 -0.1261158 0.594987 -0.7937791 198 201 207
-0.000174663672841913 0.0623603255166759 0.0290302940759242 0.1851741 0.5898185 -0.7860182 192 193 199
0.0216362530845853 0.0345103208877833 0.00474743781990121 -0.06454614 0.5919849 -0.8033602 192 196 201
0.00710275689251194 0.0348484346656093 0.00392335249439939 -0.9553688 0.1391727 0.2605789 201 206 211
0.019771049584941 0.036705396293186 0.0119216412684564 -0.03220945 0.5904278 -0.8064474 200 196 208
0.0207706481246976 0.0364425399756431 0.0123038514985894 -0.005585728 0.5707967 -0.8210724 199 204 211
0.0234668449180084 0.0386912646294783 0.01390266912436 -0.03606312 0.5819299 -0.8124389 168 176 176
0.0224907414819095 0.0390088932300665 0.0135757986951173 -0.0310972 0.5802445 -0.8138484 193 196 203
0.0191933024698097 0.0399580807596276 0.0146903876977188 -0.05860292 0.6055481 -0.793648 191 194 200
0.0172564388436536 0.0367260079212083 0.0121449022976147 -0.04749705 0.5956387 -0.801847 202 202 211
0.0169736484178227 0.0373929700382273 0.0129581062666375 -0.05116865 0.603269 -0.7958946 193 195 201
0.0131856018928467 0.0377773766535303 0.0134016521900469 -0.02553208 0.6221581 -0.7824752 187 191 198
0.0150507317633233 0.0382467405349119 0.0143809022600711 -0.06158352 0.6063197 -0.7928329 181 185 188
0.0138954510496792 0.0390053509938367 0.0140693336529438 0.0645762 0.594579 -0.8014398 194 195 204
0.0135619556284325 0.0401227639641081 0.00883616251955543 0.5352811 0.691317 -0.48534 202 207 208
0.0199414885567633 0.0412065714936241 0.015624947037085 -0.0686181 0.5921044 -0.8029345 188 194 197
0.0173960246736296 0.0422074084157457 0.0164236663903229 -0.05369264 0.5993437 -0.7986891 190 194 201
0.00810888575975621 0.0360220640045902 0.00782449357968056 -0.5053408 -0.2917409 -0.8121071 206 210 218
0.00706970848846344 0.035280097502429 0.0120572382728199 -0.06550851 0.5277592 -0.8468641 185 189 194
0.00785808868452875 0.0371768937022483 0.00594278203822978 -0.8327504 0.2619804 -0.4877429 194 198 206
0.0113415685467908 0.0387639052601981 0.00939902243645901 0.71089 -0.2297765 -0.6647091 200 206 215
0.0111585778038754 0.0364410912884623 0.0124415343632832 -0.0781391 0.5773259 -0.8127663 191 190 199
0.00718923881185729 0.0377876582119893 0.0137843535876329 -0.0302746 0.6106173 -0.7913469 195 197 203
0.0114357068691122 0.0396423255582328 0.0148710601129981 -0.0412463 0.6120039 -0.7897785 183 189 194
0.0112262698602619 0.0385116951319334 0.0145811719652014 -0.05943251 0.6416734 -0.7646719 192 194 204
0.00843964219766269 0.0386307475726518 0.0145876826376444 0.0352635 0.6541491 -0.7555431 188 192 196
0.00703823093311584 0.039514337554967 0.0151427404943991 -0.04183327 0.6846654 -0.7276559 187 192 199
0.00318391927603656 0.03974747054614 0.0154784705381242 -0.02538827 0.625652 -0.779689 197 199 206
0.00258405332630041 0.0405031309337258 0.0165695217281139 -0.01528452 0.6018682 -0.7984492 185 190 196
0.0123832262048067 0.0419512108838582 0.0102761243707995 -0.01052022 0.9816782 -0.1902555 201 204 211
0.0115204619583809 0.042226455874557 0.0169160199833911 -0.06101901 0.594961 -0.801435 192 196 202
0.0107315064861888 0.0410490736604028 0.0159512365691507 -0.05139714 0.607649 -0.7925409 193 197 206
-0.0163333993972405 0.0347060477911466 0.00732017197839051 -0.7963247 0.1317773 -0.5903403 199 202 209
-0.00906364380034752 0.0353185589115265 0.0132377703461612 -0.06093318 0.5724865 -0.8176469 190 193 200
0.00104084697785689 0.0372430369510324 0.0140331651487902 -0.04656676 0.561126 -0.8264195 188 192 198
-0.000800528393442246 0.0370802104466105 0.0138210055082578 -0.07057536 0.6069335 -0.7916127 191 195 201
-0.00869631391012371 0.0376628163845634 0.0149521183473004 -0.05467905 0.5862019 -0.8083177 192 195 201
-0.00736559634231426 0.0381089285561723 0.0152570753129637 -0.05620528 0.5845379 -0.8094174 184 189 194
-0.00726751101468848 0.0403801174039893 0.017159637404504 -0.1005926 0.5137287 -0.8520352 181 186 189
-0.00812955068199717 0.0407353597926637 0.0172082059434517 -0.1491886 0.514313 -0.8445265 188 193 200
-0.00490406916043407 0.040588709287813 0.00917087542330502 -0.7112147 0.309044 -0.6313996 204 207 215
0.000630168391736241 0.0418732388872722 0.0172411329170921 -0.0153168 0.6416532 -0.7668419 193 198 205
-0.00294320045720431 0.041428253328995 0.0174027998994825 -0.01744387 0.5785639 -0.8154505 192 196 201
-0.000457506485403769 0.0432036909784159 0.0135487481978231 0.5654719 0.7994482 -0.2027909 195 196 204
-0.00589971933688638 0.0444788388865335 0.0158436578456997 -0.8184586 0.2460641 -0.519209 196 199 206
-0.00529615520354598 0.0454750994010573 0.0140437003909794 -0.6402717 0.1337298 -0.7564182 199 205 212
-0.00647178491410028 0.0461203602449289 0.0161865864565475 -0.8251548 0.4057296 -0.3930686 194 196 205
-0.0146380674727533 0.0350287858493165 0.0132648905472398 0.05858505 0.6702502 -0.7398192 195 199 205
-0.0181179024580125 0.0367720101082127 0.00989220505734872 -0.6500496 0.4937571 -0.5776153 252 193 245
-0.0166505617470665 0.0381523821972899 0.0100204295108235 -0.9961705 0.02035912 -0.085029 198 208 212
-0.0156089536370589 0.0394732042063395 0.0113275360565638 0.4733352 0.7155857 -0.513703 205 209 216
-0.0151009128837516 0.0369781519271574 0.0148542529150921 -0.02011603 0.6357706 -0.7716159 191 194 202
-0.00988535578790373 0.0381187228607676 0.0153608761909861 -0.05062579 0.5883883 -0.8069921 184 188 192
-0.00966738350112228 0.0384521699881363 0.0154676326645245 -0.05174982 0.5886527 -0.8067279 201 206 211
-0.0146876114842689 0.0394828420869213 0.0165731607988925 -0.06718158 0.6023688 -0.7953857 190 195 203
-0.017038616822115 0.036068517826977 0.0143990722412151 -0.03327025 0.6230839 -0.7814471 195 200 213
-0.0189936016239352 0.0358537862158979 0.0147414631546034 -0.03860269 0.5946387 -0.8030658 183 188 193
-0.0202124435905664 0.0358247201002129 0.0143997801220069 -0.08248395 0.6235304 -0.7774357 194 198 209
-0.0186114115898706 0.0392104982598889 0.0167874237043963 -0.04732877 0.6029207 -0.7963961 188 193 199
-0.0210967481815043 0.0390744975001459 0.0168146955263721 0.003332359 0.5921942 -0.8057884 189 192 199
-0.0160261706562301 0.0462240194286211 0.0147101858105427 0.6340901 0.4623265 -0.6198258 203 209 215
-0.0172152429605186 0.0470252570302007 0.0151221042084114 0.7100596 0.5220256 -0.472551 202 205 215
0.0231706739192221 0.0435127397458522 0.0169918187523755 -0.04367904 0.5886153 -0.8072324 193 198 205
0.0214176889007143 0.0432584372340612 0.0171339460734675 -0.06831911 0.591493 -0.8034105 190 196 204
0.0192762812678509 0.0431735177260814 0.0175636157353342 -0.08225163 0.5812547 -0.809554 179 184 190
0.0193816270786331 0.0447805693844073 0.0181240142630887 -0.06520229 0.5907489 -0.8042166 185 189 197
0.0217221105289522 0.0458122506411323 0.0188655910523555 -0.06247209 0.5990021 -0.7983068 190 195 201
0.0212844469912965 0.046919129709709 0.0195150355778796 -0.05279881 0.6020434 -0.7967157 195 199 206
0.0153208087457921 0.042181063862844 0.0166183058140717 -0.04138191 0.5988529 -0.7997891 188 192 197
0.0171489765378139 0.0433503896193864 0.0174065626957253 -0.07090398 0.5770035 -0.8136582 190 191 200
0.0151156378066784 0.0467235631841524 0.0198235205268892 -0.0637054 0.596296 -0.8002329 189 195 201
0.00960705285644892 0.0443851247705608 0.0184570988918861 -0.04290956 0.5829486 -0.8113752 192 196 202
0.012558271460076 0.0455270436316191 0.0192133145484096 -0.05679572 0.59559 -0.8012782 201 203 209
0.00524770556749266 0.0421890692258692 0.0171446697167644 -0.0523983 0.5842772 -0.8098609 192 196 200
0.00372772506386587 0.0430114655427219 0.0180752188678538 -0.08265154 0.5943594 -0.799941 192 196 204
0.00123220530609514 0.0445886707028382 0.0192593727412464 0.01680593 0.5770082 -0.8165654 190 194 200
0.00550857709260022 0.0451752545646784 0.0196173789839237 -0.0496291 0.5899402 -0.8059203 188 192 196
0.00547690551839564 0.0467618039267369 0.0206179763308753 -0.0459118 0.5946393 -0.8026807 187 192 197
0.00344097117138009 0.0465883569963425 0.0205181011073249 -0.0544436 0.5875457 -0.8073574 186 192 197
0.00135781359088405 0.0469131416562714 0.0208445895679875 -0.05211537 0.5970332 -0.8005219 189 193 200
0.00908357876419918 0.0477339449496438 0.0212022204591186 -0.05938752 0.6023695 -0.7960051 186 190 196
0.00526859342757957 0.0476573050545623 0.0215373105723388 -0.04662297 0.5982584 -0.7999457 186 192 197
0.0193234910227131 0.0481227272492353 0.0209098626601681 -0.05648879 0.6136597 -0.7875473 176 184 187
0.0216664775234379 0.050150132623126 0.0223295217193585 -0.0441994 0.5916008 -0.8050186 178 183 187
0.019426402038158 0.0526810410562841 0.0238424994635065 -0.0530359 0.5787668 -0.8137667 184 189 195
0.0196164853823646 0.053681547114769 0.0246356238343002 -0.05307388 0.5784059 -0.8140208 192 195 202
0.0175814979307121 0.0492708931642193 0.021638796709744 -0.04877415 0.597039 -0.8007281 188 192 197
0.0152875589265253 0.050134048902993 0.0226240984067917 -0.05924707 0.5521569 -0.8316325 186 191 195
0.0174064947306998 0.0526767974245314 0.024337037840391 -0.02666463 0.5784386 -0.81529 182 187 193
0.0152994939343247 0.0524964851263203 0.024303558732191 -0.06282191 0.5795514 -0.8125107 182 185 191
0.0133253833981555 0.0536298864559156 0.0250287896979723 -0.004182016 0.607658 -0.7941878 188 193 199
-0.0258474915884466 0.0577537576332386 0.0430028398329859 -0.02170149 0.805711 0.5919112 154 164 160
0.0148931232957188 0.0547172111726886 0.022565065712471 0.07435398 0.6149777 -0.7850311 190 194 201
0.00816402498466307 0.0488827071107365 0.0163063836121743 0.05792768 0.7144505 -0.6972839 193 196 200
0.0117709679922506 0.0479714311971188 0.0213204490141699 -0.05429525 0.6027252 -0.7960994 196 198 206
0.0116177413201393 0.0487964442755168 0.021936713011937 -0.04826392 0.5400331 -0.8402588 184 189 195
0.0115596023809372 0.0500157597408774 0.0228019660886498 -0.04853736 0.5552735 -0.8302502 184 189 196
-0.0224695318981905 0.0382160369499878 0.0162242898615006 -0.02347602 0.5824425 -0.8125328 197 201 207
0.00940884560425026 0.0513669427556365 0.0236669846135415 -0.08018036 0.566039 -0.82047 192 196 203
0.00796231366018985 0.0499297606569711 0.0228689301721853 -0.0426809 0.5843683 -0.8103654 179 183 190
0.00921404000540216 0.0522743192777603 0.0245549551909521 -0.1331007 0.5377284 -0.8325457 184 188 193
0.00754626443067385 0.0524226956476692 0.0247746598138449 -0.1142771 0.5877553 -0.8009272 183 187 193
0.00530357589879005 0.0489065331537651 0.0221501808259961 -0.04539474 0.5979714 -0.800231 189 193 200
0.00563346376337126 0.0512817107746792 0.0239275750048894 -0.0528236 0.5819921 -0.8114769 186 191 197
0.00136821758756067 0.0476803771090131 0.0216990245078868 -0.05409871 0.5962114 -0.8010027 185 189 193
0.001615031724159 0.0508818181245848 0.0240408156055644 -0.06352891 0.5919157 -0.8034922 186 191 196
0.00528923118907043 0.0534735269946193 0.0254676650303146 -0.0527069 0.5722401 -0.8183907 190 194 201
0.00157151237858644 0.0533821355209649 0.0257617766463125 -0.06908493 0.5781152 -0.8130253 188 192 199
0.0111641686596258 0.054131350627117 0.021722716092987 -0.1271565 0.5215653 -0.8436829 188 194 199
0.0197844003277874 0.0548943569460097 0.025700548277881 -0.05743078 0.5903048 -0.8051348 189 194 198
0.0214872426084174 0.0570133595098854 0.0271877652772448 -0.06101976 0.5961203 -0.8005731 183 186 194
0.0197908914388312 0.0574322351708774 0.0275440206903744 -0.0640095 0.5993356 -0.7979346 187 191 196
0.0214765345028805 0.0604265752083953 0.0294278534136775 -0.05997395 0.5934997 -0.8025966 172 180 187
0.0197999223897147 0.0593744117914893 0.0290934555417374 -0.06285649 0.5899322 -0.8050026 182 187 194
0.0176424583933756 0.0546313925994225 0.025819988168875 -0.02922887 0.6146809 -0.7882341 179 184 189
0.0175031837869386 0.0558131086662106 0.026413215479703 -0.03455597 0.6339402 -0.7726097 184 188 194
0.0156415587712115 0.0558118906316312 0.0265750213094925 -0.05395059 0.6289012 -0.7756111 189 193 201
0.0174027865508695 0.0572759225067111 0.027483058922792 -0.05928615 0.5962052 -0.80064 185 190 196
-0.0326246196451501 0.0368788471949351 0.0157443764043382 -0.08771738 0.4985402 -0.8624172 190 196 201
0.0176967555163041 0.0584139817050111 0.0284358148782598 -0.06057584 0.5940199 -0.8021663 181 186 192
0.0179755154509444 0.0605192353634454 0.0298377348857313 -0.06480242 0.5988228 -0.7982556 182 187 194
0.0136810404994634 0.0591288536633238 0.0292547128823569 -0.04404281 0.6009704 -0.7980569 180 185 193
0.0135411214487537 0.0603711347995587 0.0300653981729271 -0.04202612 0.6025265 -0.7969916 195 197 204
0.0154485063176453 0.0614728118391533 0.0310624802737462 -0.05291717 0.6004413 -0.7979161 183 189 194
0.0100544197414436 0.0540933134435547 0.0261332693189623 -0.1161051 0.6235061 -0.7731492 180 185 189
0.0113004920547577 0.0570389842384195 0.0278200996208143 -0.04361089 0.5926538 -0.8042758 190 194 201
0.0118072350801497 0.0593280951730988 0.0293785912632847 -0.04769929 0.5987369 -0.7995241 187 190 197
0.00792170402956538 0.0577302455830363 0.0285134684476224 -0.05722964 0.5994291 -0.7983794 198 203 209
0.00380340470927676 0.0544897975256342 0.0263668274765119 -0.06274672 0.5844064 -0.8090315 191 194 201
0.00175306051339463 0.0544001154740054 0.0264765575408649 -0.06737883 0.5828891 -0.8097532 185 190 196
0.00332686517945557 0.0556806729036255 0.0271365588173252 -0.06406583 0.5950176 -0.8011552 193 197 205
0.00177721789029528 0.0592796183374922 0.0300595798773167 0.01705007 0.5334007 -0.8456908 188 191 198
0.0117386820426093 0.0603857977992239 0.0301530457427159 -0.04657042 0.6018311 -0.7972644 190 195 200
0.00542729697498023 0.0601348707760017 0.0305518653822481 -0.05995562 0.591097 -0.8043691 188 190 198
0.00409106880048515 0.0604409896789169 0.0307376674577985 -0.004179994 0.5880566 -0.808809 185 189 195
-0.00470574426039505 0.0407617194857832 0.0171372886747633 -0.0168833 0.5118138 -0.8589305 174 184 186
-0.000291472837298912 0.0427942013512181 0.018158107339344 -0.05482833 0.5991011 -0.7987939 190 193 199
-0.000456491755162158 0.0440942964914851 0.0191678263895477 -0.03266764 0.5716904 -0.8198188 192 196 203
-0.00249857046494695 0.0443646765201181 0.0192312800196321 0.01212414 0.608799 -0.7932318 198 201 209
-0.000651022514539967 0.0451957459246787 0.0198385804592266 -0.03231328 0.597873 -0.8009393 191 194 202
-0.00641064154971049 0.0418829596778767 0.0177887542524011 -0.06778418 0.4810813 -0.8740515 187 191 196
-0.0064325527511544 0.0429810044086788 0.0187646162560657 -0.08312616 0.5589289 -0.8250385 184 187 193
-0.00670340991980733 0.0440860351361335 0.0193626522924633 -0.09219193 0.6259344 -0.7744074 195 199 206
-0.00656704165461219 0.045088199824758 0.0201172128496647 -0.09891792 0.6808444 -0.7257176 190 194 200
-0.00620965253977301 0.0469240523536834 0.0213587543724998 -0.1436923 0.6036373 -0.7842031 187 190 198
-0.00665882492660375 0.0475597719429034 0.0220500746094295 -0.08218477 0.5434084 -0.8354358 184 190 197
-0.0190799298988837 0.0406944070521861 0.0183159742993692 -0.04018417 0.5788996 -0.8144081 184 190 195
-0.0105832133500612 0.0427730124257321 0.0190592105759193 -0.06045973 0.5810087 -0.8116486 187 191 198
-0.012451665786247 0.0439456380605776 0.0196408111280992 -0.007181417 0.6150836 -0.7884292 195 198 207
-0.0147856207389991 0.0417092615381669 0.0182931536758156 -0.04198288 0.5783296 -0.8147222 196 199 207
-0.0105565644321755 0.0452724228404419 0.0207428290694336 -0.06229218 0.5831475 -0.8099745 188 191 199
-0.0127791658165961 0.0453188086155346 0.0207702930419116 -0.06059247 0.5790861 -0.8130116 189 193 199
-0.0353513349460446 0.0513625695166704 0.050818618545136 -0.0277351 0.7855474 0.6181797 176 179 183
-0.012498962375199 0.0464900969852535 0.0215468888172798 -0.05360113 0.5744136 -0.8168084 194 197 205
-0.0144482813184519 0.0472928968143305 0.0223995565910472 -0.03053865 0.5476597 -0.8361437 193 198 204
-0.0166808357235775 0.0414874728043816 0.0185089765536655 -0.02670795 0.5709063 -0.8205807 184 190 196
-0.0184773064771759 0.0438250079692655 0.0201706514827896 0.009658833 0.6153333 -0.7882079 192 197 203
-0.0209857577650636 0.0437414943616833 0.0204039131235823 -0.09571781 0.61417 -0.7833475 190 195 201
-0.0160662927990503 0.0452012407991428 0.0208705471014873 -0.07343458 0.5756051 -0.8144238 190 194 203
-0.0165312937836637 0.0461152047057459 0.0216960422845926 -0.06979662 0.5350815 -0.8419123 194 197 205
-0.0167400970633538 0.0470832471829123 0.0222859173015668 -0.06373663 0.5365487 -0.8414589 191 196 201
-0.0040666739155375 0.0486061274022886 0.0171791264832667 0.5234481 0.7449226 -0.4136332 200 202 212
-0.00531825541128272 0.0496982725690195 0.0177395352135947 -0.9805701 -0.1960019 -0.008098611 194 206 214
-0.00719421813819165 0.052350277582094 0.0203850124066228 -0.6634551 0.2074111 -0.7188935 186 195 199
-0.000261349492908902 0.0477555548590873 0.0216134659411766 -0.06444854 0.5995677 -0.7977249 195 196 204
-0.00250411499671177 0.053053617767386 0.025766047593875 -0.01062259 0.580673 -0.8140676 191 195 201
-0.00476160395643443 0.0486633763677545 0.0226312006706339 0.06203989 0.6292147 -0.7747515 185 191 193
-0.00672548359728342 0.0509184730675002 0.0243209185167454 -0.009311717 0.623188 -0.7820166 189 194 198
-0.00846647801197475 0.0499283931613241 0.0236977365411761 -0.06297833 0.5849116 -0.8086483 192 197 204
-0.00439780370425735 0.052044453200938 0.025315953946036 -0.04035933 0.5690705 -0.8212977 186 191 196
-0.00824354556731421 0.0509148431836702 0.0244368080399707 -0.0546159 0.6226116 -0.7806228 185 189 196
-0.00856962270838535 0.0521136568378379 0.0256171154369832 -0.03799514 0.6022416 -0.7974092 195 199 205
-0.00583742552711097 0.0581593014585641 0.0222732111181244 -0.9818992 0.1857258 0.0371475 197 202 204
-0.0180112248061377 0.0523562036416807 0.0200963172083547 0.5708345 0.5703094 -0.5906735 193 197 202
-0.0104060131388617 0.0486965103673596 0.0229968516767117 -0.06069479 0.578119 -0.8136919 194 199 206
-0.0123671129483123 0.0493821126504571 0.0237399775868068 -0.0581207 0.5818084 -0.8112465 190 194 200
-0.0145557513260868 0.0485936469473832 0.023305102005338 -0.02245727 0.566066 -0.8240539 178 186 188
-0.0125306851857929 0.0507945125434098 0.0244763158533613 -0.0570172 0.5908979 -0.804729 196 200 207
-0.0102226726509151 0.0528701863080459 0.0258576186671026 -0.05276192 0.6019379 -0.7967979 200 203 210
-0.0123792074471796 0.0530391639601673 0.0263483229972389 -0.04868524 0.6043739 -0.7952119 192 196 202
-0.0142210929496995 0.0529266290114619 0.0264903714802802 -0.0570678 0.6037484 -0.7951297 196 201 208
-0.0185109074128 0.0484738353742207 0.0234706336008618 -0.03345611 0.5921834 -0.8051084 188 192 199
-0.0205284517943145 0.0483618273387737 0.0234135089651743 -0.1120886 0.5764085 -0.8094377 187 192 197
-0.0166526296088945 0.0516111444817089 0.0257381930054398 -0.035001 0.6462708 -0.762305 195 199 205
-0.0183064751853954 0.0518503721157137 0.0258079369617816 -0.1126416 0.6426766 -0.7578118 193 197 204
-0.0201247130953011 0.0519980106751439 0.0260694382839958 0.01773951 0.5426915 -0.8397447 197 202 211
-0.000363443278557529 0.0541649960674555 0.0265234901195552 -0.06534753 0.5776855 -0.8136394 191 195 202
-0.000579157503707517 0.0557760472999355 0.0276151316478884 -0.06292376 0.581288 -0.8112613 195 198 204
-0.000830504148446209 0.0579687474616565 0.0293349844867614 0.01954998 0.5022958 -0.8644748 187 190 197
-0.000710621713856607 0.0600877694906123 0.0307513529035276 -0.07999768 0.5803856 -0.8104029 192 196 205
-0.00437239860064453 0.0589484898919406 0.0303613176727547 0.01723121 0.5770615 -0.8165189 191 195 199
-0.00842892115343608 0.0566429048267212 0.0287801804376141 -0.07598235 0.553796 -0.8291783 190 195 200
0.000369671191517984 0.0598814374735792 0.031252531731471 -0.04122799 0.5642223 -0.8245929 177 183 185
-0.00351795272754174 0.060246525520752 0.0310390481642606 0.04638465 0.5980388 -0.8001238 198 198 206
-0.00442524897685459 0.0613142221263785 0.0321360415553151 0.08181827 0.5990202 -0.7965429 189 193 199
-0.0184547544677134 0.0542391151510557 0.0277509837969261 -0.009216351 0.6109775 -0.7915943 190 195 201
-0.0206140583034347 0.054024156493374 0.0277382257087553 0.000574317 0.6281539 -0.7780889 185 191 197
-0.012363484930086 0.0542531339316381 0.0274547693631902 -0.05436605 0.5994365 -0.7985739 189 192 199
-0.0145113270802439 0.0551520412375893 0.0279642560821828 -0.05093331 0.6022118 -0.79671 192 197 204
-0.0121049692364821 0.0566673267368931 0.0291895662903451 -0.06774064 0.5980703 -0.7985758 188 192 198
-0.0122863379477116 0.0577032073752829 0.0298223400429874 -0.08284173 0.5937461 -0.8003767 184 190 192
-0.010447181361855 0.0588874549603758 0.0305901827309814 -0.08747321 0.5625636 -0.8221135 192 195 201
-0.0138929616262606 0.0587610405070195 0.0307787563145521 -0.06047321 0.5991911 -0.7983189 195 199 203
-0.0135898930344713 0.0582125020440279 0.0300196900872759 -0.06050456 0.6008529 -0.7970665 192 196 198
-0.0164993012944668 0.0541217049060954 0.0274145839887925 -0.04862206 0.611564 -0.7896996 191 195 201
-0.0160372423231174 0.0565352295998318 0.0294913841705617 -0.05199302 0.6067707 -0.7931747 186 189 194
-0.0186888389937661 0.0552060783836658 0.0284832988468445 0.00362847 0.6262999 -0.7795737 186 191 195
-0.0183919368564824 0.0585031718134401 0.0309196847219581 -0.0459007 0.590472 -0.8057518 199 201 204
-0.0122634368360139 0.0601554604011755 0.0315548310205335 -0.128255 0.5760849 -0.807265 185 190 194
-0.0144981790066421 0.0599473336921166 0.0316423514501892 -0.05906989 0.596915 -0.800127 181 183 186
-0.0206615984662428 0.0589597844423033 0.0313040978492367 -0.0531572 0.5949203 -0.8020251 192 196 197
0.0194891978347522 0.0640018423116308 0.0324517210979686 -0.06014286 0.6219201 -0.7807677 185 190 195
0.0198722423386983 0.0651588607861392 0.033089498394372 -0.1317125 0.839999 -0.5263587 191 196 202
0.0137395697757627 0.0617292708242816 0.0311393245414362 -0.04470985 0.6057568 -0.7943927 195 199 205
0.0176630040312387 0.0637979736582953 0.0326169193654451 -0.06979806 0.6728438 -0.7364845 179 185 187
0.015731790753378 0.0635655959638827 0.0325523059195172 -0.0661108 0.5986566 -0.7982729 181 186 191
0.013593771657975 0.0648106223522754 0.0333020058355443 -0.03594282 0.7656696 -0.6422291 186 191 197
0.0115277162682355 0.0618727983148465 0.0315608328459238 -0.04976861 0.6101418 -0.7907276 183 188 192
0.0118967436590811 0.0625548764285974 0.031765335546287 -0.05040935 0.6134195 -0.7881469 190 195 198
0.00936570583529983 0.0615989428932462 0.0313058904511032 -0.05641459 0.6114743 -0.7892507 190 195 200
0.0100134210564393 0.062713442849926 0.0320111298002008 -0.05751055 0.6159643 -0.7856721 186 188 197
0.0117709308475225 0.0637232533291966 0.0327946624711441 -0.07240166 0.6625313 -0.7455269 176 184 188
0.00979675467012076 0.06339876457099 0.0326713802516038 -0.06969611 0.6722323 -0.7370523 187 192 198
0.00785618681683786 0.0638010808059954 0.0331316256955348 -0.03606285 0.6657636 -0.7452908 190 194 200
0.0118864348557906 0.0648034879439016 0.0333195500299733 -0.08150276 0.6644228 -0.7428995 190 192 198
0.0101847594693938 0.0647320860283224 0.0336915069715437 -0.05683337 0.6793096 -0.7316477 184 188 194
0.0097310677326008 0.0655781047009947 0.0345067035714758 -0.05880988 0.6893569 -0.7220308 183 190 192
0.00798259710244986 0.0649909893534073 0.0336700108108818 -0.04817409 0.6680406 -0.7425638 193 199 204
0.00563390268222452 0.0623734435417639 0.0319472125163207 -0.0536158 0.6019377 -0.7967411 181 187 189
0.00389050705699612 0.0614005651071067 0.0314795115047552 -0.002206152 0.5964494 -0.8026477 191 194 202
0.00572196439980077 0.063719837583705 0.0332801385836982 -0.01255257 0.6543372 -0.7560987 186 191 197
-0.000293363626348686 0.0625237792020055 0.0283639717004589 0.2748841 0.6156374 -0.7385319 194 197 202
-0.00227970014640544 0.0649285064579092 0.0289361150056026 0.4539801 0.7780067 -0.4342897 198 199 209
-0.0041270703056826 0.0607386874172817 0.0272588207143065 0.1995277 0.1305371 -0.9711584 194 197 204
-0.00497924864521737 0.0612126644737874 0.0248634262568347 -0.9196655 -0.1864175 0.3456354 201 204 211
-0.00642297998998043 0.0641427517653403 0.0280149504192183 0.1880718 0.9791281 -0.07705316 186 191 196
-0.00497060144327177 0.0634080039689051 0.0296367511458238 -0.1046301 0.07994015 -0.9912931 192 196 199
-0.00617032578544041 0.0647688604757917 0.029482234265278 -0.1670023 0.9820304 -0.0879005 189 190 202
-0.00400242819217222 0.0623388841583473 0.0327554947722669 0.006825102 0.6368443 -0.7709622 182 188 191
-0.000315592214187532 0.0634473979066916 0.0333418102359387 0.004344516 0.7103981 -0.7037867 196 199 206
-0.00208204536210888 0.0647193663433873 0.0343184439232663 0.09003568 0.7249702 -0.6828703 198 198 209
-0.00601347733176327 0.0648975826908516 0.0350256274953209 -0.1612656 0.96436 -0.2097693 186 190 194
-0.00509024161820815 0.0660664050666125 0.0296861138153202 -0.06756184 0.9679248 -0.2419856 201 203 209
-0.010270270730425 0.0630924246716578 0.0268201961966368 -0.4793838 0.2094421 -0.8522471 199 200 208
-0.00959606816730307 0.0645704863154408 0.0346163571105429 -0.1972596 0.7711016 -0.6053849 191 193 198
-0.0196276495871022 0.0621733035734782 0.0334184465175528 -0.00900645 0.5997539 -0.8001339 204 207 211
-0.0166121461571738 0.0627782451880714 0.0340439528583901 -0.04911 0.592992 -0.8037093 194 199 202
-0.0201057045828836 0.0624940183468266 0.0341834127701553 -0.02534048 0.6024105 -0.7977841 196 197 199
-0.0272837591514659 0.0350488663003392 0.00780481225482692 0.7470236 0.4100132 -0.523302 252 199 247
-0.028986555887351 0.0347600616153447 0.0139817549685898 -0.1030865 0.5664389 -0.8176308 187 190 196
-0.028526133057992 0.0364941090811967 0.00933229500184312 0.7380667 0.5535559 -0.3857894 251 198 243
-0.0293070406536993 0.0377649095191597 0.0100909387272123 0.6748574 0.4609267 -0.5762933 254 195 248
-0.0249893277937137 0.0369871286024375 0.0153362514999691 0.08419608 0.5033737 -0.8599569 197 202 208
-0.0269648218336531 0.03572077112329 0.014613283230959 -0.0344931 0.5150424 -0.8564703 191 194 202
-0.0243690397851801 0.0381244797515126 0.0161525335156681 0.02882963 0.5606937 -0.8275213 192 197 203
-0.0288153237536255 0.0357420597851996 0.0150260656237614 -0.1034384 0.4708903 -0.8761066 183 185 192
-0.0285722931814263 0.0396520071826181 0.0144626237026668 -0.3463851 0.8215281 -0.4528895 199 203 210
-0.0290762037361918 0.0386126483916911 0.0170257567379355 -0.1117227 0.5479172 -0.8290385 193 197 206
-0.0306472675802101 0.0392436265815052 0.0174658540476089 -0.1237167 0.6935131 -0.7097421 188 192 198
-0.0232416868922796 0.0442311642855535 0.0133424189244421 0.393945 -0.3269163 -0.8590303 198 204 209
-0.0396618206578081 0.035023017397419 0.00837252813157812 -0.7469773 0.5072659 -0.4297747 250 198 244
-0.0379403710099311 0.0376909147588171 0.0106874408951255 -0.6581075 0.3928467 -0.6423131 254 200 249
-0.0371565572979606 0.0353173553320932 0.0156449639763899 -0.00515647 0.6014015 -0.7989303 184 188 196
-0.0367606620010057 0.0365128212404331 0.0163386031868338 0.006134142 0.5345471 -0.8451164 179 187 193
-0.0363493594604196 0.037681210394089 0.0169627453386523 -0.03435959 0.5357567 -0.8436731 185 191 196
-0.0322325544838367 0.0387855624328919 0.0131231669585151 -0.02095666 0.9996935 -0.01318147 207 209 217
-0.0323204625383204 0.0379244930747835 0.0167789301632096 -0.06539296 0.5968624 -0.7996743 176 178 185
-0.0348939112191857 0.0377450142274922 0.0169903261159237 -0.09254844 0.4904837 -0.8665221 182 187 193
-0.0348398269136152 0.0400641788803361 0.0187488945068857 -0.06832306 0.6362285 -0.7684695 180 185 191
-0.0371031236680355 0.0398603783937433 0.0184386811215344 -0.1113684 0.6288076 -0.7695441 193 198 204
-0.0388956823683682 0.035252920728608 0.015517373816112 -0.09151009 0.6067059 -0.7896416 180 184 190
-0.040711940834961 0.03551669332526 0.01551423208872 -0.1672345 0.6020181 -0.7807733 193 200 205
-0.038401799655408 0.0366001192038239 0.0161591303759832 -0.0501003 0.5120485 -0.8574942 193 197 205
-0.0390996556470302 0.038355168018362 0.0176256046258438 -0.04870536 0.5525802 -0.8320354 187 194 194
-0.0425192958670144 0.0397924750150557 0.0187960922578355 -0.0891614 0.5821502 -0.8081778 192 196 202
-0.0395368967789258 0.0449641352409953 0.0170760381426052 -0.5448963 0.4675735 -0.6960338 202 207 215
-0.0213774940336973 0.0473288648456376 0.0160592667202049 -0.6558867 0.6892588 -0.3077903 196 200 204
-0.0475007730676151 0.0346919549237004 0.0111059831127531 0.3896935 0.2862157 -0.8753397 251 199 240
-0.0464589520794001 0.0360125860261057 0.011926555449567 0.2728641 0.314224 -0.9092901 227 201 228
-0.0507949226632451 0.0337722543650709 0.0104834004783189 -0.1518369 0.9294028 -0.3363868 251 197 243
-0.0497056289889293 0.0342439308970058 0.0132708693377063 -0.09360308 0.8411767 -0.5325976 198 197 202
-0.0508112900429469 0.0363114181811541 0.0120099941872381 -0.1195538 0.9160882 -0.3827392 233 200 233
-0.0518098785107286 0.0340373180306947 0.0128660841295681 -0.2759897 0.8722069 -0.4038377 198 200 211
-0.0460681728706205 0.0373833002457402 0.0173213130428063 -0.1483921 0.5987263 -0.7870874 193 196 204
-0.0448215149262152 0.0390270431401255 0.0180963156610862 -0.06633826 0.5530615 -0.8304951 194 198 205
-0.0485990134227059 0.0377426569419621 0.0176712737796367 -0.07596836 0.5221499 -0.8494635 186 190 195
-0.0478266762595236 0.0388341010009901 0.0182354178846484 -0.07304084 0.5507179 -0.8314896 188 193 202
-0.048373916520581 0.0398139306497597 0.0192380046228086 -0.05170479 0.5394505 -0.8404284 196 199 206
-0.0541645603672589 0.0344550011648901 0.0161616837637641 -0.1079003 0.6397958 -0.7609328 184 185 193
-0.0499093605053909 0.0387453605671467 0.018515896194118 -0.1225078 0.5555855 -0.8223847 186 190 195
-0.0526376485754536 0.0385188637479427 0.0186893190113718 -0.08577362 0.5918004 -0.8015081 185 189 195
-0.0527685973097123 0.0395074167990114 0.0196463623183364 -0.169376 0.5492621 -0.8183049 169 176 180
-0.0456787849376585 0.0403591580548147 0.0126467089137222 -0.1403761 0.4812532 -0.8652687 211 205 220
-0.0538402333314392 0.040786404796454 0.0161838968983796 -0.3382754 0.2678828 -0.9021134 229 202 228
-0.0511911564685597 0.0435789749368537 0.0178620822330712 0.4635228 0.3841462 -0.798485 206 211 217
-0.0566104542469024 0.034381880310584 0.0107040415518171 -0.09958375 0.1645163 -0.9813345 254 198 249
-0.0588825501119845 0.0343920960054281 0.0134514232447451 0.1543897 0.6942373 -0.7029924 204 207 214
-0.0616908985307769 0.0352993985245111 0.0112356195582347 -0.1932153 0.9811483 0.003980087 252 198 243
-0.0628504948456619 0.0352450562461291 0.0105864218965838 0.05106062 0.8674675 0.4948665 252 195 245
-0.0567744634537286 0.0360701420107026 0.0173246469466265 -0.01112677 0.6649386 -0.7468151 188 188 193
-0.0565489861842989 0.0374261804921402 0.0183940644078744 -0.1076301 0.6245909 -0.7734998 183 187 193
-0.0573327291929537 0.0382879544496484 0.0191317879132211 -0.1454591 0.5877063 -0.7958912 192 193 201
-0.058713661281717 0.0392045277740748 0.019846303507126 0.003904043 0.5893047 -0.8079014 178 185 191
-0.0634253464269481 0.0337579777079078 0.015836815857428 -0.1334686 0.6392176 -0.7573552 196 199 208
-0.0607919045705585 0.0389156875474561 0.0198254733020539 0.1127045 0.5988426 -0.7928967 190 194 204
-0.0626554446648697 0.0392433866840669 0.0202637591237462 0.1720247 0.5717517 -0.8021892 187 191 198
-0.0633442838340654 0.040413589658442 0.0176677812296502 0.3726918 0.4862339 -0.7903654 199 201 207
-0.0643711748619982 0.0404056116728189 0.0183905350671215 0.155896 0.708296 -0.6884862 197 199 203
-0.026647344674926 0.0403937841281499 0.0182479951988493 -0.05120701 0.6560432 -0.7529841 187 191 196
-0.0246159805038983 0.0414628356695301 0.0188341886718904 -0.0299143 0.6118978 -0.7903709 190 196 204
-0.0269966206835068 0.0411570123246623 0.0186448966487953 -0.06915228 0.7656307 -0.6395527 190 195 200
-0.025158277829902 0.0435699395056044 0.0202672663611572 -0.035786 0.6729509 -0.738821 191 197 204
-0.0286111346694198 0.0416149377513833 0.0190777252790182 -0.0986492 0.6961473 -0.7110888 188 193 198
-0.0285902168456968 0.0435196788765855 0.0204399914358473 -0.102142 0.5638291 -0.8195509 195 198 206
-0.0305943477009429 0.0427077536189747 0.0201515318590349 -0.01282999 0.624759 -0.7807122 192 195 201
-0.0301264193987936 0.0435676792242561 0.0206528388571784 -0.1304393 0.5765059 -0.8066143 189 195 201
-0.0268471073426091 0.0460048719848495 0.0222074723445929 -0.01994787 0.576612 -0.8167745 185 191 198
-0.0258908760840475 0.0471393154393873 0.0233100405628255 -0.03033593 0.5861483 -0.8096357 189 192 199
-0.0342749237611244 0.0412789623237316 0.019431855998656 -0.06864523 0.5963812 -0.7997608 187 192 197
-0.036600345400752 0.0411321787462671 0.0193571237609494 -0.104946 0.6381615 -0.7627164 192 196 201
-0.0365377832529834 0.0422864349179708 0.0203243760453423 -0.1234882 0.6283825 -0.7680404 189 194 200
-0.036527883646694 0.0434978655067672 0.021101982493756 -0.02731333 0.585849 -0.8099598 195 200 207
-0.0328029165817347 0.0436374568941957 0.0210839643274316 0.07644554 0.6374708 -0.7666727 191 196 202
-0.0349320970904352 0.0433279181586571 0.0209865779008904 -0.04514846 0.5796099 -0.8136424 195 198 206
-0.0323530192146575 0.0445877167919787 0.0219418624010103 0.03786141 0.574155 -0.8178707 177 183 187
-0.0324035507281519 0.0471368292698475 0.0235189491496504 -0.0406066 0.6111925 -0.7904397 194 200 207
-0.035899709264009 0.0462391237820999 0.0229273095006443 -0.1073302 0.6446629 -0.7568949 194 198 204
-0.0421251203093878 0.0431934787676195 0.0210029509021534 -0.06036201 0.3940443 -0.9171072 173 175 184
-0.0399765948752178 0.0454530650375714 0.0190839962714849 0.3556608 0.8672901 -0.3483005 206 208 219
-0.077938078394606 0.0493634660608049 0.028341686523822 -0.04489472 0.5933082 -0.8037225 188 191 193
-0.0417831678984228 0.046534411491253 0.0205395398715245 0.01636949 0.8687714 -0.4949427 202 206 215
-0.0385153614783409 0.0449179333108467 0.0224382385602517 0.09652867 0.6895573 -0.7177694 185 190 195
-0.0210281059843416 0.0492170533548061 0.0195917363546443 -0.6080185 0.7832417 0.1297916 206 209 221
-0.0219064485149318 0.0508891589713897 0.0189245118581152 -0.2540718 0.2110949 -0.9438678 199 202 208
-0.0268776319021446 0.0497123583457711 0.0203212801305462 -0.7427223 0.310278 -0.5933727 201 206 214
-0.0227242155813951 0.0484473513017152 0.0239764360451018 -0.1022618 0.6144232 -0.7823213 190 196 204
-0.026504363537633 0.0494852143919049 0.0248907127320218 -0.01820549 0.6355485 -0.7718463 189 194 201
-0.0227339320877862 0.0516225274472158 0.0263978856095954 -0.1075926 0.4934755 -0.8630792 194 197 205
-0.0242985857833542 0.0506464706155879 0.0252729722789785 -0.1473715 0.4721968 -0.8690868 196 200 208
-0.0240381457325771 0.0514215157992834 0.0261413352800565 -0.1178366 0.5320089 -0.8384992 192 196 206
-0.0287518687508301 0.0484836774121815 0.023824245157558 -0.0975243 0.599125 -0.7946938 197 200 207
-0.0268751010424677 0.0508275100651316 0.0256198744045927 -0.0003183865 0.5476772 -0.8366897 188 193 200
-0.0299623547230365 0.0501912435548315 0.0254940938656306 -0.09736069 0.5522671 -0.8279625 188 192 199
-0.028013287059347 0.0526571151777629 0.0273203997883419 -0.01694632 0.5495472 -0.8352908 182 189 195
-0.0234245405357543 0.0527015579944403 0.0205585348244996 -0.1864913 0.1649829 -0.9685048 199 202 208
-0.0231654377204351 0.0534948599516512 0.0217295707348576 0.1249548 0.9798636 -0.1557358 201 203 211
-0.0229185248917636 0.0549378000194515 0.0237996414934892 0.4433807 0.8417988 -0.3078772 203 208 214
-0.0239916300077745 0.054273577090646 0.021975574580504 0.6324154 0.5860864 -0.5065111 201 203 204
-0.0235587892120028 0.0573603347210633 0.0247986782166173 0.3799152 0.8733332 -0.3048829 203 209 214
-0.0359848775460425 0.0461431155014557 0.0190116319706164 0.31393 0.8220024 -0.475142 205 207 216
-0.040703667569105 0.0476411072070044 0.0200190200805321 0.1083139 0.9524282 -0.2848659 203 208 214
-0.032418360303939 0.0480215131248601 0.0239371638049476 -0.03341001 0.6317075 -0.7744865 194 198 207
-0.0326929177375193 0.0490729055925609 0.0250906771957505 -0.07492776 0.5859072 -0.8069068 192 197 204
-0.0363653837612365 0.048979964250543 0.0252597014506187 -0.06873807 0.5820625 -0.8102335 192 196 205
-0.032125794873243 0.0505713655505717 0.0258912051539229 -0.07356951 0.5984275 -0.797792 189 194 199
-0.0327258292864516 0.0528770680314664 0.0275182095014502 -0.02221181 0.4955967 -0.8682687 191 195 202
-0.0344637632105012 0.0505252899549986 0.0261524391101151 -0.07895589 0.5891799 -0.804135 192 198 204
-0.0362425336602898 0.0504631488118852 0.0262604862004909 -0.066089 0.5875014 -0.8065199 186 190 198
0.00552492212742361 0.0513558778077247 0.0537403944725798 -0.04283424 0.802064 0.5957001 194 197 196
-0.0398914364785061 0.0480269559529435 0.024713759047723 -0.009049926 0.6887695 -0.724924 199 204 212
-0.0404530664278298 0.0514923010026119 0.0272599504360153 -0.05290764 0.5937073 -0.8029399 195 199 205
-0.0385245941873036 0.0514252724650576 0.0271974650502315 -0.04254323 0.5832636 -0.8111681 194 198 205
-0.0410277170419469 0.0502721107786294 0.0262526588292928 -0.03999623 0.580445 -0.8133166 214 218 225
-0.041341514125889 0.052376306907769 0.0276501302262556 -0.05845642 0.5993279 -0.7983664 198 203 209
-0.0339131426377204 0.0573339936645192 0.0258567209240344 -0.281854 -0.004076547 -0.9594486 202 205 215
-0.0222354660269573 0.056081123974692 0.0295137652341151 -0.04587788 0.6547406 -0.75446 184 188 193
-0.0249228356384203 0.0550340535763651 0.0286875348649708 -0.05242946 0.6099035 -0.7907394 196 198 206
-0.022333315015457 0.0585460912299317 0.0311986540655683 -0.06118449 0.5918548 -0.8037191 195 197 199
-0.0237529332228217 0.0573755344104412 0.0302448592266117 -0.06339393 0.5865469 -0.8074304 198 200 202
-0.0265340147164772 0.0585855702569411 0.0314846929055874 0.01608277 0.5752977 -0.817786 194 198 202
-0.0262041481728734 0.0548307950716734 0.0291764990072434 -0.02806106 0.6604786 -0.7503204 196 200 210
-0.0282720881863194 0.0551705146886634 0.0290977788150161 0.02396195 0.6074208 -0.7940187 185 190 197
-0.0265270070306043 0.0574559552284299 0.03052329790905 0.01561309 0.6248873 -0.7805588 199 203 204
-0.0305731746348368 0.0582604751096103 0.0315763224065086 -0.06501061 0.6433887 -0.7627743 191 194 201
-0.0235693731113829 0.0598520172475973 0.0321726220371144 -0.07833974 0.5812002 -0.809981 188 191 190
-0.0268282655982133 0.0596148824599559 0.0322198862209708 0.07396942 0.6479461 -0.758086 188 189 197
-0.0285348927195677 0.0604313730944962 0.0329880135553387 0.03304295 0.6652846 -0.7458583 199 201 207
-0.0298070830308732 0.0607679280427306 0.0332459185293701 -0.04713509 0.6665215 -0.7439942 194 198 203
-0.0307811504704296 0.0595126009767984 0.0323600400403065 -0.05677317 0.6832607 -0.727964 192 196 200
-0.0354706283822916 0.0526282184799781 0.02762345748623 -0.08727191 0.5538889 -0.8280041 189 194 198
