ply
format ascii 1.0
comment File exported by Rhinoceros Version 7.0
element vertex 475
property float x
property float y
property float z
property float nx
property float ny
property float nz
property uchar red
property uchar green
property uchar blue
end_header
0.0332192569370817 0.0238043495389546 0.0123961832878899 0.6919144 0.3229302 0.6457326 20 20 20
-0.00169851247373165 0.043658549482505 -0.00321991808910821 0.01350079 0.4871741 -0.8732005 128 128 128
0.00212860132475656 0.0503540470927456 0.03035072975703 0.01491999 0.711768 0.7022561 81 81 81
-0.0545344434652004 0.0194139536427842 -0.0163324127820095 -0.7231283 -0.2621381 -0.6390377 115 115 115
0.0383008652809691 -0.0434476035059584 -0.00231720190515411 0.7526031 -0.6363718 -0.1691731 86 86 86
-0.0211780786218418 0.00795602610832047 -0.0241740333537946 0.004038385 0.4967355 -0.8678926 87 87 87
0.0427344910886114 0.0209772450771302 0.00156641149770348 0.7669936 0.3310589 0.5496551 43 43 43
0.00478401884447033 0.0210855240424356 0.0351780506144455 0.5440746 0.143052 0.8267521 19 19 19
-0.0475035193894922 0.0271406304390237 -0.0135329435274395 0.01630704 0.4957103 -0.8683348 121 121 121
-0.0336491889291652 0.0385679817337045 -0.00684180992503153 -0.02635695 0.510477 -0.8594874 126 126 126
-0.0427536452984243 -0.00100604245015368 -0.00958781110573639 -0.7668883 -0.5731611 -0.2887363 80 80 80
-0.0409826583268482 -0.0122598079797783 0.00916371670390223 -0.7731317 -0.5581684 -0.3011902 109 109 109
0.0313542003036988 -0.0454960072405032 -0.0164597203228891 0.692673 -0.6770834 -0.2485199 62 62 62
0.0330129044942815 0.038500460526351 0.00536521940717116 0.754057 0.318437 0.5744527 66 66 66
-0.05172163874066 0.0358808224032148 0.00826699065782222 -0.4040265 0.7964683 0.4498898 94 94 94
-0.0545944924765673 0.0339228301772911 0.00990954016896076 -0.4138182 0.793062 0.446998 124 124 124
-0.0126954627386575 -0.0119651527590772 -0.0353454272598606 0.006053557 0.5010819 -0.8653787 94 94 94
0.0284048916014088 -0.0195743669361002 -0.0390295710240235 0.001881688 0.4958165 -0.8684253 198 198 198
0.0553188102199282 0.00842750239168266 -0.0151511007272498 0.888827 0.3023728 0.3443216 42 42 42
-0.0226022734697739 -0.0105232634657302 -0.0346108577886384 -0.3733986 0.05203352 -0.9262106 97 97 97
0.0259936662100975 0.00901509381164456 0.0229252379903602 0.5978919 0.1369103 0.789798 38 38 38
-0.0447385682409291 0.0234053440652594 -0.0153385729209896 0.008285296 0.4874762 -0.8730969 131 131 131
0.0547625700367003 -0.0237835653717994 -0.0148789585979595 0.6537909 -0.736299 -0.1744168 61 61 61
-0.0148967713378103 -0.0397222146923386 -0.0115536440914595 -0.7346588 -0.5399678 -0.4107447 75 75 75
-0.00532644091008416 -0.0494482975667402 -0.0189602290410702 -0.7469361 -0.5819306 -0.3216259 85 85 85
-0.0175565588343063 0.0170253204899112 -0.0188777662027455 -0.000338474 0.4994033 -0.8663696 121 121 121
-0.0100540796974116 0.0445888492979801 0.0297854265873701 -0.4082845 0.8071473 0.4264001 105 105 105
0.00567785262152132 -0.0491085426202265 -0.0431105431692328 -0.7835997 -0.3169806 -0.5343171 40 40 40
0.0225588178874663 0.0366443035987684 0.0181830717207942 0.6888507 0.1797062 0.7022752 54 54 54
-0.0563922680909128 0.0139320395311413 -0.00172604080160574 -0.7597031 -0.586884 -0.2800328 69 69 69
-0.00613895549689136 0.0307002781591352 -0.0109407220498862 0.0009247708 0.5030329 -0.8642668 106 106 106
-0.0394336759666616 -0.00913279774073661 -0.00128648405569728 -0.7887638 -0.5469769 -0.2804781 91 91 91
0.0458661790849804 0.00853712544886687 -0.0230289949103067 0.01850768 0.486287 -0.8736031 83 83 83
-0.0213083441827835 -0.0100116114357389 -0.034405913849931 -0.2534045 0.1836017 -0.9497771 93 93 93
0.044050368836984 0.00355771920843317 -0.0259740077541652 0.004981675 0.5040101 -0.8636833 98 98 98
-0.00588799179089872 -0.0364852725561851 -0.0328220194930187 -0.751955 -0.420356 -0.5078036 77 77 77
0.00745697288879743 0.0396169889254706 0.0290341793214842 0.6534382 0.1465078 0.7426668 72 72 72
0.0420717616978883 -0.0344188605362182 -0.0189589685260792 0.634868 -0.7622825 -0.1259683 34 34 34
0.0177492360327767 0.0610020835203162 0.00729541341217305 0.3023582 0.7365615 -0.6050261 59 59 59
-0.0599542795791095 0.0289632553679524 0.0142036008030028 -0.3394969 0.8157938 0.4682119 92 92 92
-0.0674340551283152 0.0330443767078095 -0.00433388233711346 -0.7509733 0.6186153 -0.2309853 62 62 62
0.00929921105099663 0.0587160191468196 0.00542282301853789 -0.01304856 0.5076866 -0.861443 136 136 136
-0.0180884149803213 0.0407746584375678 0.0276714499649708 -0.364982 0.8097932 0.4593726 52 52 52
0.0158460567033023 0.0121535818404451 -0.0212611214409449 -5.331398E-05 0.5032754 -0.8641261 179 179 179
0.0080044082308639 0.000766897836519398 -0.0277712812194802 0.009544113 0.5005379 -0.865662 115 115 115
-0.0634307094053779 0.0192627563720835 0.00793428343937785 -0.7730387 -0.5801729 -0.2565356 132 132 132
-0.0156971108190578 -0.0430438270612283 -0.00532601037512728 -0.756901 -0.5533928 -0.3476455 57 57 57
0.0375952654472891 -0.0442970215533067 -0.00163675129004429 0.736617 -0.6504197 -0.1853364 88 88 88
0.0203433124211387 0.0224897820410708 0.023731017401905 0.5517291 0.2868787 0.7831319 21 21 21
0.00380706831665556 -0.0572941240466529 -0.027999704341506 -0.8384886 -0.5061873 -0.2017706 49 49 49
-0.0443719327617504 0.0369849690593049 0.0129126938057459 -0.3910407 0.7817126 0.4858113 79 79 79
0.0171655041275054 -0.0118460074138573 -0.034907879760711 0.002594292 0.4957377 -0.8684684 116 116 116
0.0562983760467382 -0.0195108016960274 -0.0227589398796788 0.5941449 -0.7428788 -0.3084199 65 65 65
0.00852464839234468 -0.0258595149744636 -0.0431884620820418 0.006321451 0.4907155 -0.8712969 164 164 164
0.00353641922301318 -0.0560919982573621 -0.0244311862450221 -0.7655743 -0.5149496 -0.3856462 42 42 42
0.0323593118868435 -0.0410674617263513 -0.0364563089236014 0.6863202 -0.6837948 -0.2477685 47 47 47
-0.0140565187420618 -0.0442970447423489 -0.00685649618720691 -0.7537972 -0.5474167 -0.3634896 72 72 72
-0.0492425636041833 0.0340813888448763 0.0132085438239862 -0.3745209 0.7988412 0.4707301 60 60 60
0.0085181421075089 -0.0465458245619887 -0.0498971625708026 -0.7480821 -0.3419565 -0.5687169 64 64 64
0.0248562391717222 0.027328410428665 0.018054891457822 0.6723034 0.2701649 0.6892163 40 40 40
0.0335969470535007 0.0211322539698272 -0.0159916540270738 0.004140794 0.5050291 -0.8630924 104 104 104
0.0535739150123282 0.00302994360627551 -0.00645722514641292 0.9171668 0.1693945 0.3607085 82 82 82
0.0388945727815173 0.0358122828589094 -0.00144225676447854 0.8439788 0.4612021 0.2738476 42 42 42
0.00438503832000148 0.054641284809775 0.0244564044997085 -0.1775193 0.8044594 0.5668615 111 111 111
0.0435836526222184 0.0246864046437997 -0.0138731357602455 0.1372418 0.5612748 -0.8161711 78 78 78
-0.0410937696057667 0.0349754501783037 0.0197206792193412 -0.432781 0.7864491 0.4406795 88 88 88
0.0356880480026107 0.0145247517608192 0.0123652692645392 0.6775154 0.2598301 0.6880852 43 43 43
0.0236521845471422 0.0266096164009247 0.019048486150586 0.6547617 0.273293 0.7046972 46 46 46
0.0180879934881086 0.00564177153779255 -0.0248500219120506 0.0073269 0.4925144 -0.8702735 216 216 216
0.0185764201456697 0.0213823033877202 -0.0160838278449848 0.009020277 0.4907858 -0.8712335 86 86 86
0.00447112026252361 0.00122377633571391 -0.027652774579706 0.007745936 0.4944167 -0.8691905 117 117 117
0.00787378781153203 0.0425728471421676 0.0269700844816397 0.6354432 0.1234842 0.7622097 57 57 57
0.0397302987071688 -0.0143894987082798 -0.036282107808789 0.006108352 0.4975142 -0.8674343 166 166 166
0.0483041753217139 0.0124772318697008 -0.020814234345957 0.06245646 0.4969757 -0.8655139 93 93 93
0.0321329021897201 -0.0361443866909907 -0.0486513982182691 0.7040097 -0.2230856 -0.6742427 101 101 101
0.037187967854313 0.0179178804470915 0.00987661504614654 0.7062986 0.3286166 0.6270194 41 41 41
0.00821416353828086 -0.033026234535028 -0.0473543789327658 0.009300103 0.5045338 -0.8633418 125 125 125
0.00606925849828244 -0.00870985025521587 -0.0334191765925244 0.01082997 0.4826852 -0.875727 175 175 175
-0.0360337654820153 0.00130331892068769 -0.0281275776332817 -0.3432078 0.1037355 -0.9335135 80 80 80
0.0227645802873537 0.0274642738448235 0.0195270347101654 0.6166481 0.2718975 0.7387942 28 28 28
-0.0114165351757953 -0.0346338797813287 -0.0239486139365671 -0.7600315 -0.497457 -0.4181969 40 40 40
-0.0158517651347228 -0.0354737168829871 -0.0182023867780336 -0.659025 -0.6212366 -0.4239707 54 54 54
-0.00422067387286429 0.0339920286597727 0.0400976288964923 0.6367296 0.1352304 0.7591364 50 50 50
0.00865398749209279 0.0330453866010695 0.0294006347419793 0.6139875 0.1289099 0.7787179 40 40 40
0.0234860135912012 0.0465571471102018 0.0126737709691722 0.7362275 0.2103914 0.6431987 28 28 28
-0.0576156668609089 0.0218729822589593 0.0293045795587797 -0.3935702 0.7816654 0.4838405 116 116 116
0.00339328206152167 -0.0493379975658544 -0.037081435233706 -0.8417332 -0.4440659 -0.307068 44 44 44
0.00728598017869997 -0.0271668306066175 -0.043743027309067 0.003992982 0.4908234 -0.8712499 141 141 141
-0.0693274941909277 0.030946547449226 0.00264742140493823 -0.8049437 0.5312046 0.2643619 47 47 47
-0.0470254635029694 -0.00468031351683029 0.0068262743976962 -0.7563103 -0.5460938 -0.3602448 85 85 85
-0.000507333504875085 0.0189327454007091 -0.017556805880573 0.004633843 0.5007898 -0.8655565 126 126 126
0.00142420734536586 0.0245404901720248 -0.014478791226704 -0.00209016 0.4923539 -0.8703926 139 139 139
0.038700368792608 -0.00888641286182534 0.0161869124637733 0.6836582 0.1890634 0.7048876 49 49 49
0.0521378362578311 -0.0138898673546651 -0.00168368388066467 0.881728 0.06837015 0.4667776 40 40 40
-0.00491998293083906 -0.039009921849307 -0.0327960512848852 -0.763164 -0.419163 -0.491816 65 65 65
0.0521103737655455 -0.0241712335609157 -0.0202523858332058 0.64866 -0.7131059 -0.2659326 57 57 57
0.0615909973459048 -0.00529661645797752 -0.0222822764834059 0.8893251 0.1936887 0.4142289 55 55 55
0.00501043543143354 0.0597048826295709 0.00599543698909599 -0.05751279 0.6367074 -0.7689577 153 153 153
0.0185413646320409 0.0440098304569615 0.0210990995067241 0.6525816 0.2578153 0.7125086 30 30 30
-0.0444760974734537 0.0194268206435879 -0.0178091691889309 0.007603071 0.5000836 -0.8659437 137 137 137
-0.0519914469462743 0.0328625567524197 0.0145320044871185 -0.4160309 0.8034878 0.4258235 79 79 79
0.0121332968137078 0.000740269088872147 -0.0276980431781852 0.007035434 0.4948744 -0.8689361 120 120 120
0.0368445862313758 0.00542882364601571 0.01504037745623 0.6535985 0.2591595 0.7110874 38 38 38
-0.0263892269047119 0.0394045853299676 0.0248058268822309 -0.3743064 0.8126666 0.4466182 90 90 90
0.00267447374762231 -0.0303092341655999 -0.0455022969755116 -0.08360914 0.423795 -0.901891 128 128 128
-0.0487767263400323 0.00182472659217259 -0.000166472648467364 -0.7494684 -0.5572006 -0.3575257 65 65 65
0.0353070573360648 0.0331458503103577 0.00534902798782586 0.7244804 0.3052331 0.6180299 48 48 48
0.00398400689917233 0.0333631939029073 -0.00916019785207492 0.01480864 0.5018566 -0.8648241 73 73 73
0.053085324572423 -0.0074283275392788 -0.0319846683600098 0.01092991 0.496883 -0.8677487 97 97 97
0.0356361933408751 -0.040179579967665 -0.020979173745308 0.7007864 -0.706574 -0.09824216 69 69 69
-0.0674323134494221 0.0250771177586699 0.00425058426200658 -0.8787273 -0.4388132 -0.1878333 68 68 68
-0.0266184689709457 -0.0199193213226675 -0.0185128011157946 -0.8105639 -0.5274633 -0.2544969 58 58 58
-0.040034275304627 0.0405687063003621 0.0092746277820219 -0.3835872 0.825256 0.4145037 32 32 32
-0.0310783996654198 0.0446666041413981 0.0110588804781838 -0.3862538 0.805066 0.4501962 55 55 55
0.0170641375677105 0.0169281431443689 -0.0185929157993449 0.01422653 0.4964256 -0.8679627 92 92 92
0.0156254388560875 0.0161772260205308 0.0282233399695748 0.5600325 0.2372709 0.793767 19 19 19
0.04921894412292 0.00700271931883689 -0.000795622782588407 0.819952 0.1957666 0.5379164 71 71 71
0.0550586964505286 -0.011655359852776 -0.03460166745742 0.1698194 0.3112524 -0.9350312 95 95 95
0.012410130085807 0.0170921197478624 -0.0185379256801327 0.005660607 0.4988129 -0.8666912 68 68 68
-0.0178150781013353 -0.0253740462264337 -0.0261634081339647 -0.6342555 -0.6933983 -0.3419338 69 69 69
0.000850165860588614 -0.0424298324915979 -0.0390835734431694 -0.8205761 -0.3961316 -0.4119885 50 50 50
-0.0630116363934348 0.0219604953492956 0.0230802806343248 -0.4544191 0.7626152 0.4603491 53 53 53
0.0148661881515539 0.00270718726661212 -0.0267627174268953 0.008803315 0.4962369 -0.8681425 193 193 193
0.0562242886309847 -0.0229874050347508 -0.0112797841540987 0.7643505 -0.6393197 0.08389646 36 36 36
0.027841785413131 0.0224837300454882 0.0165395312113203 0.6403465 0.3370481 0.6901847 38 38 38
0.0150617910114663 0.02205346531193 0.0274146163085112 0.6174507 0.2136993 0.7570252 41 41 41
-0.0500509957456292 0.0112309522679958 -0.0139327153208476 -0.7722278 -0.5822144 -0.2543436 89 89 89
0.0530753090604921 0.0061447189606878 -0.0100787810918127 0.9173375 0.2330073 0.3227994 24 24 24
0.0370086007924786 0.00875965265851608 0.0126568472313476 0.6444827 0.26301 0.7179609 32 32 32
0.0268829105582675 0.014384336778877 -0.0198752703339451 0.001874454 0.5035903 -0.8639406 107 107 107
-0.0303058558848197 0.0400323951359135 0.0197378598202455 -0.404119 0.7999852 0.4435216 49 49 49
0.0382184980505405 0.00362872859030827 0.0143669929880779 0.759426 0.1601093 0.6305848 36 36 36
-0.00870395656869194 -0.0320741963989191 -0.032596333299989 -0.7609665 -0.4910173 -0.424066 71 71 71
-0.0321663202749138 0.0313710022958732 -0.0108888850899564 0.005308757 0.5064237 -0.8622684 108 108 108
-0.0417347977876803 0.0308048981445184 -0.0111908850241784 0.009712691 0.5016115 -0.8650385 114 114 114
-0.023515932750735 0.0377193119560124 0.0307199054557751 -0.3734023 0.8043939 0.4620835 113 113 113
0.0413833210377184 -0.0394216759016092 -0.00195664431610207 0.7745553 -0.6295172 -0.06141875 34 34 34
0.0349629398226248 -0.0465001166903467 -0.00665858210499204 0.6880298 -0.6857448 -0.2374219 34 34 34
-0.0596152026945438 0.0290935076432137 0.0128502124535379 -0.3693393 0.8266422 0.42456 92 92 92
0.0418659889889827 0.000399117927496362 0.00974286757279846 0.8052664 0.1306872 0.5783311 47 47 47
-0.0613410733419095 0.02164958817466 -0.00536487821473422 -0.786737 -0.5614372 -0.2565798 92 92 92
0.0254746226825375 0.0539106787965168 0.00631994359471741 0.8220004 0.5559562 0.1234016 24 24 24
-0.00117792871722555 -0.0528074703912021 -0.020490617082242 -0.7146406 -0.5635532 -0.4143628 58 58 58
0.000253508620739584 -0.0655787624651166 -0.0123810441451721 -0.6545025 -0.6698202 -0.3506671 43 43 43
-0.0175517623320425 -0.0338013857262981 -0.0171609090798795 -0.6978554 -0.5788273 -0.4218493 46 46 46
-0.045998031603049 0.0365214596273661 0.0119588891330274 -0.4002036 0.8000683 0.4469092 38 38 38
0.0197986361960045 0.0589049722350716 0.00534277715672885 0.1858744 0.5881258 -0.7871206 93 93 93
0.0568204188218697 0.00415081856918187 -0.023964773249058 0.4989384 0.510045 -0.7006529 72 72 72
-0.0550663665604052 0.01134761267088 0.000320675118041569 -0.7573379 -0.6007148 -0.256088 75 75 75
-0.0405123147463802 -0.0057438050723283 -0.00382017749404012 -0.7944195 -0.5367462 -0.2842554 90 90 90
0.0483068108510607 0.0177876645453396 -0.0179979433344122 0.2160958 0.5525563 -0.8049746 99 99 99
-0.00129438226594702 -0.0407376398113556 -0.0365647654214694 -0.7938232 -0.3993186 -0.4586821 23 23 23
-0.0060067660504628 0.021080134936267 -0.0164310985323385 0.01755109 0.505991 -0.8623602 136 136 136
0.034416594519652 -0.00601905049228679 0.0190245771687703 0.5751218 0.1240109 0.8086138 27 27 27
0.0407412327756722 0.00515680081451408 0.01070398247461 0.7928773 0.1179899 0.5978494 59 59 59
-0.0574192341083095 0.0329040769001709 0.00919441185701245 -0.4082168 0.7895447 0.4582338 98 98 98
0.0218094022186937 0.00751757936904696 -0.0241608163292684 0.01508848 0.496285 -0.8680286 110 110 110
-0.00684692704195333 -0.0193889689682151 -0.0396206292063935 0.01701451 0.5061989 -0.8622489 103 103 103
-0.0465904075384409 -0.00602844198734209 0.00961256028490726 -0.7749747 -0.5688154 -0.2754329 75 75 75
-0.0443740746408938 -0.00541635821059983 0.00509284850915692 -0.7423397 -0.5569001 -0.3725505 107 107 107
0.0130348139544298 -0.00869047290391012 -0.0333402078426986 0.009002102 0.4791431 -0.8776906 129 129 129
0.061590081053823 -0.00494223636850255 -0.0306850224045521 0.3800556 0.6577379 -0.6503373 131 131 131
-0.0430749000469128 -0.000634305083332398 -0.00665723993558906 -0.7765305 -0.5791372 -0.2481944 93 93 93
0.0463631707996459 -0.00881173941587621 0.00736803672742731 0.7366344 0.2491818 0.6287115 60 60 60
-0.0103415398062103 -0.014960950806971 -0.0371978489888912 0.02445772 0.4995263 -0.8659534 121 121 121
0.0380265085262796 0.0112121579494051 0.0114241282375173 0.653116 0.2158277 0.7258497 45 45 45
-0.00654459465733614 -0.0532516964191206 -0.0114137936414194 -0.7990288 -0.4668235 -0.3789839 81 81 81
0.0226870123805507 0.00126418494698866 -0.0276355901260634 0.01979213 0.4955506 -0.8683535 108 108 108
-0.0241722373461388 0.00107620775447692 -0.0280575894989839 0.01255363 0.4947086 -0.8689682 104 104 104
-0.000319274642032408 0.0126488774576945 -0.0214333144686673 0.01435589 0.504468 -0.8633111 102 102 102
0.0325295866100439 -0.033125483571538 -0.0469723365821033 0.2919742 0.2411058 -0.9255372 176 176 176
0.0252603175010488 -0.0487508998836637 -0.0342937027324043 0.6233776 -0.769629 -0.1381 71 71 71
0.0498020795026939 -0.0220707420246964 -0.0315811759866915 0.6990955 -0.6945587 -0.1698636 82 82 82
0.0337745314966718 0.0371661824311285 -0.00664753771850016 0.02630768 0.4831973 -0.8751162 84 84 84
0.0531483525374399 -0.00751924631644185 -0.00395724528068619 0.8545743 0.1005431 0.5095036 29 29 29
0.038023067930788 -0.0358690199868527 -0.0310214802135819 0.7034248 -0.6822984 -0.1991543 36 36 36
0.0284327125889008 -0.0455879980944095 -0.0248634292348296 0.6841472 -0.7200631 -0.1159816 48 48 48
0.0313096618873834 -0.0062752500901776 0.0214461145373057 0.5573077 0.1120712 0.8227078 23 23 23
-0.00588567622761849 0.0489473001953271 0.0260737965229963 -0.4024855 0.7993889 0.4460748 111 111 111
-0.0138267167824933 0.00626034573157408 -0.0250948069024613 0.005700781 0.5068433 -0.8620194 89 89 89
0.0393875745559527 -0.00103550519128992 0.0135831325870761 0.8214136 0.1307926 0.5551333 35 35 35
0.00109676920064272 0.0266682100456122 -0.0132048330987556 0.003926772 0.4926321 -0.8702288 101 101 101
0.00429700781457365 -0.0565671866160856 -0.0311313539326709 -0.8582445 -0.4711217 -0.2036191 55 55 55
-0.000209403838560718 0.0573698634780946 0.00429388545957196 -0.02930282 0.5837471 -0.8114066 134 134 134
-0.0397517651875359 -0.0111515520772372 0.00326108573948419 -0.800499 -0.5318361 -0.2763183 103 103 103
-0.0544741028023044 0.0255285250405666 -0.0143301721801517 -0.02409346 0.4377763 -0.898761 129 129 129
-0.0445391988783173 -0.00245602922220478 0.000547709894325843 -0.7417496 -0.5846592 -0.3286049 103 103 103
-0.0409301322650983 0.0335433771351524 0.0228346065616256 -0.4265427 0.8003296 0.4213478 105 105 105
0.0343026734007141 -0.040519846888625 -0.026968820104651 0.6837025 -0.7214583 -0.1097668 71 71 71
0.0609781362328494 -0.0145060608930723 -0.0266094243035481 0.7454267 -0.6547842 -0.1248867 69 69 69
0.0432771574554982 0.013538059604557 0.00557146401418954 0.7557851 0.2326658 0.6120911 19 19 19
-0.0442226104180929 0.0429397100209573 0.00270071198057739 -0.3564643 0.8833502 0.3043446 110 110 110
0.0271948732927374 0.0426810012061181 0.00992319264672625 0.6811547 0.2686771 0.6810586 38 38 38
0.00459612820334554 -0.0576158031344468 -0.0252092195812505 -0.7832375 -0.5134656 -0.3505598 49 49 49
0.0189968833684748 0.0143787095305028 -0.0199937307360122 0.01455618 0.5091085 -0.8605793 138 138 138
0.0197017759366518 0.0407838121283077 -0.00466850296806331 0.007711325 0.5093849 -0.8605042 136 136 136
0.0333382571680185 -0.00877291866846253 0.0196972702826606 0.5548458 0.1190385 0.823393 25 25 25
0.053192899164392 -0.0110310486940562 -0.00358645724765499 0.8639785 0.08942138 0.4955249 72 72 72
-0.0219033424740411 0.049486413284867 0.00204190045714084 -0.02660973 0.7827598 -0.6217548 57 57 57
-0.0613110402314838 0.0222821337587189 -0.00905282278612268 -0.7936782 -0.5201398 -0.315483 65 65 65
0.00954613540623894 0.0359638146407461 0.028778324274026 0.6080471 0.1411952 0.7812443 51 51 51
0.0420239626943837 0.0261122955440446 -0.0127348744965723 0.158467 0.4938211 -0.8550023 82 82 82
-0.0492770718502795 -0.00271742330860314 0.0168934742202714 -0.8411562 -0.5190514 -0.1517958 86 86 86
0.0129794066772551 0.024253645200851 -0.0144978450984985 0.01597182 0.5059215 -0.8624316 123 123 123
0.0643725328404696 -0.00767297062600847 -0.0297479549843758 0.9110348 0.374761 -0.1719588 69 69 69
-0.0213997962456611 -0.030118121982819 -0.0119768999514514 -0.789936 -0.5291997 -0.309756 32 32 32
-0.0591499672988816 0.019552086776896 0.0315166091598392 -0.3811074 0.7914683 0.4778443 119 119 119
0.0307741927964269 -0.0060010537181111 0.0209350458576855 0.5617304 0.1123397 0.8196577 20 20 20
0.0476703198430894 0.023773295336591 -0.0114528157799761 0.8510661 0.5247367 0.0183823 60 60 60
-0.0297701571413742 -0.0227718522547822 -0.00269846215646019 -0.8219708 -0.489347 -0.291382 80 80 80
-0.0417946823458046 0.0360986710387733 -0.00842912658970169 -0.02673684 0.5756329 -0.817271 121 121 121
0.00704617042890687 -0.05328193989152 -0.0420261062334994 -0.7694535 -0.4425966 -0.4604883 52 52 52
0.00243160585015278 -0.0396992850779981 -0.0452198654065162 -0.7899732 -0.4305837 -0.436509 42 42 42
-0.053875628286832 0.0327594028141946 -0.0100555661834105 -0.05698749 0.6125466 -0.7883775 144 144 144
-0.0210527369001303 -0.0225835379041335 -0.0267144037790636 -0.6566617 -0.6686149 -0.3489264 79 79 79
-0.0662195345922432 0.0300919155855862 0.00677601511893053 -0.6328261 0.640029 0.4357682 75 75 75
-0.010684622513728 0.0158271768321946 -0.0192824197883446 0.01162728 0.4953261 -0.8686293 172 172 172
-0.00998683798905509 0.0375997269771549 0.0424801638425596 -0.07577373 0.709717 0.7004 132 132 132
-0.00829035354559515 -0.0344767651279945 -0.0309509689360654 -0.7816483 -0.4391109 -0.4429532 81 81 81
-0.00619933713050003 -0.0492931513153876 -0.016833317806493 -0.7781185 -0.5218861 -0.3495232 53 53 53
-0.00567779005067282 -0.0566449721478578 -0.0102285569379465 -0.7948484 -0.4479686 -0.4093166 74 74 74
0.0495154881154898 -0.00885650746963229 -0.032721618408481 -0.001026752 0.4959214 -0.8683668 132 132 132
0.031877016281245 -0.0427654322041416 -0.0272236759314418 0.6672525 -0.7372007 -0.1063446 81 81 81
0.0544284653480207 -0.0236880198487223 -0.0146276363631443 0.6541221 -0.7377169 -0.1670273 40 40 40
-0.0218477442371725 -0.038378798985046 0.00271003462593453 -0.7881269 -0.531185 -0.310964 86 86 86
0.0110424157776738 0.0277976874922456 -0.0122834954936033 0.01040824 0.5029289 -0.8642651 224 224 224
0.0420800641569739 -0.00122359696920116 0.00950631852401598 0.7673708 0.1994244 0.609403 38 38 38
-0.0543705694073795 0.0374945527088464 0.00236682346080244 -0.436678 0.8266966 0.3548028 78 78 78
0.0143431456887373 0.0413944845229045 0.0240195691324411 0.5797322 0.1757015 0.7956378 36 36 36
-0.0502383791076615 -0.00194906531805283 0.0159789165657084 -0.8169727 -0.5613268 -0.132166 62 62 62
0.0295479199181186 -0.0486179270564585 -0.0131802054813492 0.7162593 -0.6394819 -0.2793483 67 67 67
0.0382615242038309 -0.00490747434511773 -0.0307397430099859 0.004383848 0.5032969 -0.8641024 204 204 204
-0.0151547488061485 0.0143973084449172 -0.0203931062807118 0.004186218 0.4952648 -0.868732 153 153 153
0.0444466890931454 0.00594825047933012 0.00562166106744269 0.7751736 0.06173164 0.628725 43 43 43
0.00221284388375498 0.031171048060616 0.0345809394745425 0.5689519 0.1596975 0.8067158 34 34 34
0.0488774907665448 -0.0149650920756601 0.00448765279728747 0.8425385 0.03675941 0.5373803 70 70 70
-0.0349178297505319 0.0317062478607574 -0.0107593180475588 0.009461647 0.509782 -0.8602516 85 85 85
0.0320193536581752 0.00626536355570573 0.0184046500298493 0.6466159 0.1568007 0.7465263 40 40 40
0.0418063315982815 -0.0295051915413109 -0.0393806000243531 0.728944 -0.6277792 -0.2730089 47 47 47
-0.0267277794468468 -0.000571651258163275 -0.029280083224735 0.02685105 0.5023289 -0.8642596 104 104 104
-0.0590977173585454 0.0111340553328678 0.0135234055578241 -0.8065963 -0.5620933 -0.182903 62 62 62
0.0170865563872762 -0.0511710799173672 -0.0526329182081231 0.5269647 -0.7252094 -0.4431472 70 70 70
0.0191409374463545 0.0500372690798723 0.000576661877886603 0.001864407 0.493551 -0.8697148 152 152 152
0.0058974363657236 -0.0518711183073701 -0.0414518897364226 -0.8287793 -0.3768818 -0.413624 39 39 39
0.0365607871749045 -0.032437741652602 -0.0463393954739877 0.2526508 -0.0004488414 -0.9675574 109 109 109
-0.0465736289790319 0.0238640670844988 0.0357839307885713 -0.4083307 0.7945097 0.4494668 116 116 116
-0.00243118048176605 0.0284296821969299 0.0388502886358274 0.6505806 0.1621524 0.7419242 27 27 27
0.0371225162183428 -0.038076054955599 -0.0264698454227906 0.686258 -0.7156659 -0.1298936 70 70 70
-0.0126571920097427 0.00469146787768082 -0.025955991034203 0.01308776 0.4911903 -0.870954 100 100 100
-0.0577216897233108 0.0151949679115014 -0.00109250970390681 -0.7390671 -0.6313614 -0.2348673 70 70 70
0.0473921869338523 -0.0312085809200418 -0.0128934695586921 0.7149881 -0.6843322 -0.1431138 56 56 56
0.0343976028690944 -0.0100933770600726 -0.0337432445427394 0.01246773 0.4926803 -0.8701211 127 127 127
-0.0449772529146912 0.00100531252425673 -0.00767779338145144 -0.7723137 -0.5813208 -0.2561204 67 67 67
0.0555768796531622 -0.0105711150614001 -0.00751644766597023 0.8904896 0.08691011 0.4466261 44 44 44
-0.0192701898430068 -0.0327246379568945 -0.0148152731722384 -0.7624608 -0.559424 -0.3251128 44 44 44
0.0295787606274329 0.0157118992002349 -0.0190049358327594 0.01063678 0.5021241 -0.8647302 155 155 155
0.000534444250759325 -0.0315842151326312 -0.0466384472567339 -0.3757806 0.2342031 -0.8966258 131 131 131
0.0567128782311781 -0.0151668289576294 -0.0357799238361473 0.5505823 -0.3281339 -0.7675853 67 67 67
-0.0664348847564074 0.0202603218166598 0.0134556525420675 -0.8620492 -0.4775352 -0.1697977 85 85 85
-0.0586349254907623 0.0352685087821044 -0.006293996493478 -0.2294596 0.8365641 -0.4975027 102 102 102
0.030956953901693 0.0356686826753252 0.00948497402106532 0.7086505 0.2637412 0.654412 64 64 64
-0.020547976575664 -0.0374688183866512 -0.0027424694156476 -0.8103828 -0.5125161 -0.2839138 41 41 41
0.0510226924288832 -0.00366427275605341 -0.00147334807311997 0.8202596 0.09526211 0.5640029 45 45 45
-0.0116990101563781 0.0483817049174868 0.021750100543235 -0.3894928 0.8031327 0.4508582 107 107 107
0.0402360703902742 0.0192052788843163 -0.016977802478188 0.01025368 0.5039718 -0.8636593 94 94 94
0.0473926385799621 -0.000639329041640102 -0.0283481978354424 0.01812727 0.4963073 -0.8679576 120 120 120
-0.0180138996009975 -0.00870311854335204 -0.0337751462865173 0.001665086 0.4892155 -0.8721614 107 107 107
0.0248726028553445 -0.0525921181686557 -0.00889837512211872 0.4448294 -0.8940969 0.05212998 15 15 15
0.0508153669797275 -0.0112014080992837 0.00228499084341144 0.8969474 0.1073328 0.4289115 52 52 52
-0.0499291677871336 0.0349131803820425 -0.00865922390342588 -0.05396172 0.6270045 -0.7771444 123 123 123
-0.0229299984819233 0.0422258142111327 -0.00457096675220839 0.004625222 0.6389172 -0.7692616 133 133 133
0.0172725912345881 -0.0530663759387003 -0.0405694231790185 0.618851 -0.7705576 -0.1525271 66 66 66
0.0336533418630252 -0.0168272320434085 -0.03778454027841 0.007706705 0.4992412 -0.8664287 221 221 221
0.00366512579211786 0.024671095061943 0.0356952368103411 0.5532439 0.1752292 0.8143807 25 25 25
-0.0658119801628652 0.0269010428938625 -0.00441601766807206 -0.7898091 -0.5147863 -0.3334616 89 89 89
-0.052951392614907 0.0020407349135978 0.0152609989463103 -0.798113 -0.5864775 -0.1380575 87 87 87
-0.0342491707268144 -0.0207716000983508 0.00729357596670541 -0.8103349 -0.5150171 -0.2794901 84 84 84
0.00424143500380891 -0.059354102628311 -0.0227610597604237 -0.7084365 -0.4600026 -0.5352712 71 71 71
0.00665093586874921 -0.0342164613471102 -0.0479459094821802 -0.1233973 0.4462734 -0.8863482 107 107 107
0.0292895810098508 0.0258494712347924 0.0135429484081167 0.6214446 0.3358786 0.707808 51 51 51
0.00897702557710023 0.020077207372834 -0.0168411389820992 0.01592434 0.4895694 -0.8718189 181 181 181
0.0222163023373856 0.0447237366952987 0.0146052643071292 0.7589568 0.241868 0.604553 37 37 37
0.0430205610106458 -0.0113797048587529 0.0119924573965324 0.766373 0.1973296 0.6113374 74 74 74
-0.0307676172831921 -0.012257055313168 -0.024628373578821 -0.7811934 -0.54338 -0.307368 56 56 56
0.0509552461719149 -0.0251576599873946 -0.0197232617856923 0.668061 -0.697008 -0.260527 57 57 57
-0.00914078801561802 0.0466015753007354 0.0263518876715277 -0.3912533 0.7909602 0.4704284 119 119 119
0.0166152032365168 -0.0581778968345482 -0.0231870407529357 0.7285546 -0.6181581 -0.2951079 62 62 62
-0.0386016846619026 0.0214505178677961 -0.0164971175965402 0.004932364 0.4945531 -0.8691334 113 113 113
-0.0622523858625383 0.0231306193781815 0.0236950976650528 -0.367156 0.8138817 0.4503255 108 108 108
0.024664988353674 0.0521003364496195 0.00174138592807177 0.2686961 0.5788824 -0.7698686 83 83 83
-0.0139707577470372 0.0450339461290297 0.0248473613351926 -0.3920957 0.782071 0.484382 112 112 112
-0.0194291701351528 -0.0391509156597989 -0.00369492882761011 -0.7847339 -0.5433202 -0.2983218 50 50 50
-0.0229252677590965 0.0399916073154728 0.0266634865360804 -0.3390235 0.8224637 0.4567457 85 85 85
0.0102114134221152 0.0218554560650377 -0.0159686842873337 0.01618805 0.493459 -0.8696184 154 154 154
-0.0402668773780759 -0.000573170487529029 -0.0170301070709187 -0.7851789 -0.5900139 -0.1880895 29 29 29
-0.0261406719730202 -0.019133993411611 -0.0240502897728429 -0.7682294 -0.5494416 -0.3285384 49 49 49
-0.031825293063978 0.0396920214209316 0.0188378306692662 -0.3920143 0.7961519 0.4609413 26 26 26
0.0544724142851192 0.00957990835781131 -0.01329649695254 0.8880067 0.2677938 0.3738054 64 64 64
-0.014365411172188 -0.0463819893348045 -0.00374937387933841 -0.7514809 -0.5705835 -0.3312264 78 78 78
-0.0330942734487163 -0.00903037211746438 -0.0229027994517959 -0.7982651 -0.5463398 -0.2535461 25 25 25
0.0118267892536843 -0.0152887298287689 -0.037136185107137 0.01080909 0.5069797 -0.8618902 111 111 111
-0.0145897209351018 -0.0233369275070235 -0.0346128552034924 -0.6535478 -0.5699458 -0.4980333 74 74 74
0.0408915125498783 -0.0349848213181757 -0.0210519962810572 0.6589975 -0.7492031 -0.06646089 39 39 39
0.0341463070787862 0.0337597096646429 -0.00826284231205479 0.01217213 0.4842104 -0.8748669 95 95 95
-0.0422883612356078 -0.0125137291863512 0.01188455544512 -0.7735083 -0.5520874 -0.3112626 61 61 61
0.0496982596501749 0.00647529126627022 -0.0019340531204623 0.8194613 0.2205546 0.528998 74 74 74
0.0525551220751548 0.0169382686862447 -0.0171789600323048 0.7080748 0.5957451 -0.3791014 96 96 96
-0.0328191728630989 -0.0227098125320198 0.00273264259342657 -0.8238921 -0.493398 -0.2788551 57 57 57
-0.0432108452434892 0.00248782436971529 -0.0143199522656016 -0.7724494 -0.5892014 -0.2369888 84 84 84
0.046736634397369 -0.0249996700297793 -0.0348445800523447 0.745455 -0.6305252 -0.216182 45 45 45
-0.0566839838164879 0.00913619240233998 0.010833852278254 -0.8083182 -0.5233316 -0.2697141 50 50 50
0.0287295831259273 -0.0424627359003449 -0.0403788684351344 0.7147692 -0.6680753 -0.206834 68 68 68
0.00936810670209187 8.4076477069428E-05 -0.0282978810082392 0.009686745 0.501468 -0.865122 110 110 110
-0.0245654625446141 -0.00418139490038461 -0.03114092019872 0.01215529 0.489204 -0.8720847 115 115 115
-0.0463574310212227 0.0124491104378927 -0.0217471167087744 -0.4074697 0.01004972 -0.9131634 105 105 105
-0.00517804869902116 0.0288575754880375 -0.011870849257036 0.002692034 0.4993487 -0.8663969 139 139 139
0.00837095867384363 0.0595368470196853 0.00619582086138623 -0.06437177 0.6199471 -0.7819986 150 150 150
-0.0221032607946094 0.0510925539829133 0.00893800150373261 -0.3841496 0.819118 0.4259985 112 112 112
0.0229819892284184 -0.00154347740974214 -0.0289941535279507 0.01771211 0.4903578 -0.8713412 97 97 97
0.0226742379235456 0.012786000711445 -0.0207358870816755 0.009920524 0.5107103 -0.8596956 138 138 138
0.0253491060845121 0.0557757123538277 0.00352848413408635 0.4771107 0.6997185 -0.5317513 89 89 89
-0.00836923191332817 0.0325083774148888 -0.0098595728767083 0.01519389 0.5011158 -0.8652468 96 96 96
0.0469185899365394 -0.0240168667093644 -0.0377858982341573 0.748786 -0.4170404 -0.5151669 58 58 58
0.0203490827322805 0.0614696352401085 0.00842689387943932 0.6180045 0.7861266 -0.008687037 34 34 34
-0.0350591433009653 0.0431059498416835 0.0103363969522448 -0.3899156 0.7961645 0.4626964 59 59 59
0.0470459418847704 0.021645794814527 -0.00694528217625254 0.8490394 0.3875102 0.3591211 50 50 50
0.0584450803524761 -0.00115160548230786 -0.0171360330880965 0.9062665 0.1856651 0.3797494 35 35 35
0.0316080486249297 0.0245267896003249 -0.0138145615448546 0.01951714 0.4924996 -0.8700938 81 81 81
-0.0202978142343246 0.0424152343186025 -0.00453045405402269 -0.01689266 0.6217875 -0.7830037 140 140 140
-0.0152597291951424 0.0530211268568046 0.00965743615684231 -0.3807488 0.8149583 0.4368904 116 116 116
0.055469258715481 -0.00919172099058951 -0.00812306857480771 0.8944144 0.1119066 0.4330124 74 74 74
-0.0227248305857533 0.0354322234267429 0.0343499748872993 -0.3661933 0.7960654 0.4818529 95 95 95
-0.0193192106543827 0.00631299433359256 -0.0249749554825985 0.004637287 0.4944364 -0.8692015 81 81 81
-0.0427621481322151 0.0320474415231602 0.0234947270358026 -0.4189764 0.8107065 0.4089178 72 72 72
0.0285640198164039 -0.0501034699038555 -0.0125873990943982 0.6916471 -0.6785873 -0.2472721 71 71 71
0.00179479658041037 -0.0607154792657517 -0.0187705215030936 -0.7294889 -0.5221215 -0.4418541 81 81 81
0.0443860646885299 0.00762129152232449 0.0054965764124188 0.7734032 0.09037139 0.6274396 30 30 30
-0.054571921519738 0.00447347204233839 0.0129636938122636 -0.8014448 -0.5757149 -0.1619832 68 68 68
-0.0318941807576647 -0.00670968045882414 -0.0289531942624717 -0.6796316 -0.2548424 -0.6878635 54 54 54
-0.0124208258034693 0.016672371869793 -0.0190057989596923 0.0108544 0.4935261 -0.8696632 131 131 131
-0.0356404279222229 0.041421337951899 0.0138247077790211 -0.3488935 0.8274872 0.4399298 90 90 90
0.051016061587136 -0.000351867317883503 -0.0278806549601354 0.04820466 0.5346732 -0.8436829 110 110 110
0.00216036336259062 -0.00358741569302901 -0.0304948727864969 -0.001850924 0.4952691 -0.8687376 101 101 101
-0.00974379391955082 0.0206342673940503 -0.0166341353054924 0.01597892 0.4954382 -0.8684962 96 96 96
0.0447240739554675 0.0281947331945809 -0.0119795947365055 0.4703135 0.5918114 -0.6546484 108 108 108
-0.0560082369778026 0.011678217279991 0.00324165870863721 -0.7735388 -0.5936401 -0.2218763 76 76 76
0.00287041703548852 -0.0618971406238844 -0.0192034087716158 -0.7161242 -0.5435457 -0.4378631 79 79 79
-0.0373600120390272 0.00781124049131654 -0.0243721719075409 -0.0187267 0.4661855 -0.8844888 106 106 106
0.00366251910975146 -0.0406235397078916 -0.0461034267770468 -0.792008 -0.419818 -0.4432564 38 38 38
-0.0159042352566257 0.0411986974253339 0.0298038784661768 -0.3902516 0.8159245 0.4265806 110 110 110
0.00568177785368462 0.0597972279872115 0.0167899065628852 -0.3943739 0.7748664 0.4940154 131 131 131
-0.000491327009382481 -0.0117863930093308 -0.0352001335494494 0.005775798 0.4972874 -0.8675666 181 181 181
0.0245631793243262 -0.0468628349791308 -0.0400937602370175 0.6637278 -0.7113872 -0.2310709 49 49 49
0.0317528222496217 0.0384740724061312 0.00652320014717114 0.7220268 0.3156344 0.6156722 27 27 27
-0.0604316027958385 0.0187566977031963 -0.000773706970588539 -0.7720285 -0.5993339 -0.2115911 84 84 84
0.00542210173116109 0.0306134849839013 -0.0108851777875532 0.01667074 0.5047271 -0.8631179 107 107 107
0.0445315021008863 -0.00242620842206509 0.00653552873586316 0.7670827 0.2212708 0.6021822 28 28 28
0.0532396502430275 0.0020048788659538 -0.00522783117508041 0.9010788 0.08243027 0.4257492 55 55 55
0.010796776522751 -0.0436787461577003 -0.0532997608878671 -0.5447965 0.1078468 -0.8316044 137 137 137
-0.00849953984506779 0.019272307970989 -0.0174899186328084 0.008576791 0.4935646 -0.8696669 142 142 142
-0.0578104147980159 0.0139342692447134 0.00219730797858006 -0.7726035 -0.5944705 -0.2229095 64 64 64
0.0467635280780114 0.0260887530612439 -0.0100794383010495 0.8471018 0.5302184 0.0358748 52 52 52
0.00826203509882806 0.0408223934811163 -0.00478012707371045 0.009002956 0.5020521 -0.8647905 94 94 94
-0.0420400565308148 -0.0108325238517911 0.00876985388098686 -0.7603054 -0.5793765 -0.2936981 100 100 100
-0.0328970152986354 -0.013284385582167 -0.0135265529658845 -0.8166104 -0.5073431 -0.275228 54 54 54
-0.0225783324966295 -0.0198740305065876 -0.0285170688005778 -0.6964706 -0.5450853 -0.466702 72 72 72
0.0352053000469374 -0.0338314257250926 -0.0469932051615203 0.3319553 0.1264936 -0.9347754 92 92 92
-0.0314560274571365 -0.00765020812597994 -0.0269086044180434 -0.7280832 -0.4692073 -0.4997393 49 49 49
-0.0539140406365912 0.000993619082856001 0.0240091898146521 -0.7882476 -0.5927784 -0.1651647 76 76 76
0.0396131244490756 0.0307642528833938 0.00096468520812884 0.783923 0.3741101 0.4954861 50 50 50
0.0604386945384583 -0.00156255597930688 -0.0237603949294838 0.8759418 0.4548209 0.160823 100 100 100
0.00274930902727011 0.0324248690525422 -0.00977918984123649 0.01011454 0.50669 -0.862069 94 94 94
-0.0238291995733309 -0.0219293241308633 -0.0243598467837541 -0.6872535 -0.6153251 -0.3860799 41 41 41
0.0294910156710362 -0.0454012684614977 -0.0260126581653234 0.6744913 -0.7306567 -0.1058409 51 51 51
-0.00957728749610087 0.0156528091128492 -0.0196170287588433 0.007831492 0.4987015 -0.8667384 155 155 155
0.020368763427244 -0.0503886183926043 -0.0422020131581047 0.6488943 -0.7435339 -0.1615348 58 58 58
-0.0601060602354293 0.027845986053501 -0.0133313677942461 -0.2877153 0.4218342 -0.8598115 139 139 139
0.0564941009787949 -0.0103306713186545 -0.0338166922522439 0.1504286 0.3597668 -0.9208361 112 112 112
0.0618447138586444 -0.0101804912108784 -0.0213456261716196 0.9405044 0.08561352 0.3288189 23 23 23
0.0173770554123642 0.0251605053647052 0.0257005973169425 0.629286 0.2529662 0.7348518 31 31 31
-0.000778087259430738 0.0255333153322138 -0.0138808678394355 0.001044812 0.492669 -0.8702161 102 102 102
0.0324753114714036 0.0423029859599505 0.00416284729188585 0.7861142 0.3314818 0.5216745 38 38 38
-0.0502398336672711 0.0361706392280011 0.00955914970804769 -0.3668686 0.8090016 0.4592645 102 102 102
0.0377617879033596 0.0343583684930361 -0.00813467477263038 0.2364275 0.5996933 -0.7645064 63 63 63
0.00327883965626219 -0.00664146533107535 -0.0320900352421525 -0.01028509 0.4931075 -0.8699076 177 177 177
0.0425084041263757 0.015962975749377 0.00486734021163593 0.7444676 0.3036538 0.5946112 42 42 42
-0.0224597345720348 0.0503654983855985 0.00727287397852974 -0.4008051 0.8887094 0.2226003 34 34 34
0.018164933840878 0.0520683274215603 0.0170660735332409 0.7156446 0.2136955 0.6649715 56 56 56
-0.0477813212436646 0.0276479005850579 0.0266070127178878 -0.3790974 0.8008633 0.4635763 83 83 83
-0.0305261956427434 0.0220674956022557 -0.0161950259954313 0.01371032 0.5026708 -0.8643692 86 86 86
0.0223447950981175 -0.0534819724557271 -0.0085067736683716 0.4188923 -0.8924031 0.1677675 32 32 32
-0.0354305898780201 0.0350583428484559 0.0247128185990045 -0.374933 0.7913574 0.4828858 87 87 87
0.059952741254758 -0.0171372690840819 -0.0217533533434638 0.7399057 -0.6414641 -0.2026407 58 58 58
0.021045496019005 -0.0508090877803008 -0.0341174073809208 0.644217 -0.7523301 -0.1377823 77 77 77
-0.000961704377163475 -0.0619867538301994 -0.0124849333448707 -0.7281051 -0.5111693 -0.4566935 82 82 82
0.00418807961602141 0.0545877238480947 0.0030895603114881 0.008020968 0.5063426 -0.8622951 125 125 125
-0.0552059688978166 0.0126772503615329 -0.00177858803586362 -0.7563872 -0.5904939 -0.2814166 82 82 82
0.0474193204746771 0.0117881423148737 0.000586172466377016 0.8393108 0.2085321 0.5020676 70 70 70
-0.0285750773069009 0.0481549971730625 -0.000499916984266602 0.01120277 0.7268184 -0.6867383 104 104 104
0.0207325808077381 -0.0525530485635031 -0.0259320605696413 0.6608515 -0.7351224 -0.1512295 74 74 74
-0.00370023884969717 0.0340028330130505 -0.0087858575491559 0.006379158 0.5033295 -0.8640711 73 73 73
0.0210473808462823 0.00509323560950903 0.0271012283022067 0.5840585 0.0999044 0.8055401 59 59 59
0.0242736975299498 -0.0212217320735723 -0.0400974212458499 0.006827661 0.5061849 -0.862398 205 205 205
0.0210283204932371 0.048159935887001 -0.000541348624787802 0.01536734 0.4859069 -0.8738754 125 125 125
0.0437115330944464 -0.00914496791290653 0.0105696085486418 0.7581345 0.2177938 0.6146526 54 54 54
-0.0282979820198692 0.0473886163860868 0.00921114624350214 -0.3822148 0.793056 0.4743142 84 84 84
-0.0323484606574129 -0.00073540075957812 -0.0293699956964488 -0.241869 0.222905 -0.9443583 77 77 77
-0.0626626618395787 0.0346038716336177 0.00254161913627654 -0.4109541 0.8429269 0.3472621 125 125 125
0.0220999562243622 -0.0503163464893901 -0.0321129303174457 0.6370268 -0.7517318 -0.1705763 72 72 72
-0.00247296527566521 0.034691015959334 0.0377488629867318 0.6678807 0.1067855 0.7365679 30 30 30
-0.0115397301199529 -0.0345658927045146 -0.0254087856577781 -0.7826374 -0.4852789 -0.3898502 56 56 56
0.0298635403055387 0.00689107876789374 0.0210125532539545 0.6189012 0.1246209 0.7755198 32 32 32
-0.0380169146239995 0.0325177770191085 0.0259930252498708 -0.392953 0.7942541 0.4634095 52 52 52
-0.002380410709379 0.055782046955938 0.0161925859805405 -0.4134037 0.7886811 0.4550598 111 111 111
-0.000943810410926282 0.0321346801666592 -0.0100941134689589 0.01394909 0.5028635 -0.8642533 100 100 100
-0.0329505661272509 0.0394724137438336 0.0188773064584885 -0.3652126 0.8164932 0.4471674 94 94 94
-0.034359327805118 -0.0207523008087552 0.00600826667795676 -0.8103372 -0.5147393 -0.2799946 36 36 36
-0.00233515118847194 -0.0429382699278282 -0.0335150921536543 -0.7665094 -0.4126506 -0.4921207 65 65 65
-0.0144377792890511 -0.042720442732426 -0.00885486848021647 -0.7510678 -0.5244003 -0.4011253 62 62 62
-0.0538626198349612 0.0127917050613405 -0.00716187443813446 -0.7291636 -0.634708 -0.2558635 66 66 66
0.0119393062309849 -0.0331189422121335 -0.0471699311212124 0.005227282 0.4994157 -0.8663467 136 136 136
-0.0459154966911992 0.0392099709672311 -0.00549075181944667 -0.08197207 0.6909362 -0.7182533 100 100 100
-0.0324580559423242 0.0322005122298679 0.0321407740174112 -0.3888733 0.7896686 0.4745534 112 112 112
0.035851902911002 -0.0357560492070053 -0.0395999565484547 0.6814209 -0.6987025 -0.2179001 116 116 116
0.01386096411398 -0.0544006573731785 -0.0453683560943128 0.350705 -0.914521 -0.2016366 57 57 57
0.0472533167588183 -0.0245806390014472 0.0099441055032487 0.7914209 0.1072352 0.6017919 34 34 34
-0.0066367110013319 -0.0520135975460989 -0.0125506413515352 -0.7809197 -0.4834523 -0.3955227 61 61 61
0.0512119204392008 0.0179329035435746 -0.0176783275790231 0.5110741 0.5570705 -0.6545806 145 145 145
0.0474088809267705 0.000592355571719771 0.00221171804330642 0.7301468 0.1464116 0.6674199 55 55 55
0.0421059066338185 -0.0403340612190879 -0.0037426838141357 0.7643835 -0.6424357 -0.05472022 38 38 38
-0.0567495405699274 0.013646087324195 -0.000879670890713141 -0.7799088 -0.5807365 -0.2334253 64 64 64
-0.0409678925178492 0.0161843193176023 -0.0197151265393104 0.01220551 0.5004399 -0.8656852 92 92 92
0.0113981124144651 0.0298573812371563 -0.0110951858850791 0.0131187 0.4981823 -0.866973 181 181 181
-0.0389232810243589 0.0421169356338846 0.00812567225740066 -0.3853696 0.8097798 0.442433 105 105 105
0.0002301024941751 0.0306137428221861 -0.0109734918820274 0.01138452 0.5092385 -0.8605501 130 130 130
0.035260454396556 0.0234086348450421 0.00903092222679805 0.7482587 0.2968734 0.593275 53 53 53
-0.026358037800799 0.042564879743466 0.0192735096725198 -0.3784375 0.8073618 0.4527163 73 73 73
-0.00651096779845028 0.038420866199753 -0.00634871381636715 0.01073348 0.5053984 -0.8628194 107 107 107
0.0104571253390038 0.0228201009589769 0.0319308755236024 0.5968183 0.1722897 0.7836607 39 39 39
-0.0117914446021499 -0.00670339377617379 -0.0324303578649799 0.008437203 0.4981427 -0.867054 125 125 125
-0.0433238507921168 0.0291789239061273 0.0281239201308825 -0.3993949 0.8012263 0.4455559 68 68 68
0.0206739888821539 -0.0350610399218519 -0.0483970194214842 0.001591901 0.5089066 -0.8608203 151 151 151
0.0321385726993029 0.0367457778706883 -0.00694035036640073 0.01157456 0.4829961 -0.875546 83 83 83
0.0430636540819909 -0.00209915015215378 0.00862881675891422 0.7637139 0.2324415 0.6022558 52 52 52
0.0496246103627986 -0.0288039641701332 -0.0150723001321314 0.7086044 -0.6856148 -0.1667698 50 50 50
-0.0580468477902079 0.0239778184334993 0.023169355750091 -0.4055958 0.8250017 0.393528 87 87 87
0.0279035054417531 0.0356421986617799 -0.00772154323370877 0.01343745 0.500288 -0.8657548 72 72 72
-0.0676778238090856 0.0254886360974182 0.00630120326003469 -0.9342123 -0.3549179 -0.03578568 108 108 108
0.0274811397210022 0.0374849035878836 -0.00659288038773909 0.007037835 0.5058515 -0.8625919 84 84 84
0.0249227290445111 -0.0524833258531199 -0.00740546153366525 0.4256134 -0.9047058 0.01898822 22 22 22
0.0117282939679608 0.0364127016101615 -0.00706336855479783 0.01170705 0.5050246 -0.8630256 88 88 88
-0.00129034377539927 0.0524717315012488 0.0219762999343636 -0.4298402 0.7784332 0.4574703 134 134 134
0.0550012931394215 -0.0172440570465625 -0.00492833290636271 0.8608481 0.1167118 0.4952969 59 59 59
0.0321269495343199 0.0228838126954354 -0.0150073904488589 0.01303114 0.4971054 -0.8675923 93 93 93
0.0575842571184682 -0.0171509710133497 -0.0258103698258372 0.5824393 -0.7684548 -0.2650315 61 61 61
-0.0428207283092901 -0.00598184175419736 0.00261106224227747 -0.7769313 -0.5324216 -0.3360134 107 107 107
-0.0432206506346611 0.02754977352534 -0.0132352448619902 0.00827801 0.4987024 -0.8667337 106 106 106
-0.00910780071803297 -0.0375965408947541 -0.0261357955376445 -0.8092216 -0.4731163 -0.3483122 45 45 45
-0.0456174666562279 0.0288642604267768 0.0255571384834737 -0.3951153 0.7947606 0.4606944 45 45 45
-0.0165613122148098 0.0548973337766965 0.00638828501025873 -0.3188922 0.9287674 0.1889415 124 124 124
0.057558293883027 -0.0165148204541086 -0.032130803895672 0.6314299 -0.747085 -0.2077505 41 41 41
-0.023142899550304 -0.0273978416225549 -0.0144542734460155 -0.783361 -0.5439159 -0.3008341 24 24 24
0.0018744940073514 0.0329473721834874 -0.00943681303496022 0.01025225 0.5042816 -0.8634784 102 102 102
0.0315033652406806 -0.0496398147901023 -0.00349909691394915 0.6067729 -0.7811142 -0.1472658 30 30 30
-0.0177684811264851 0.0305998732762558 -0.0110876424898085 0.001131293 0.5035489 -0.863966 102 102 102
0.0326862650661925 -0.00115352440455008 0.0189117386981323 0.5502119 0.1450592 0.8223289 23 23 23
-0.0117310549716421 0.0337235929111105 -0.00925547613075581 0.01825155 0.5003754 -0.8656161 107 107 107
-0.020322656737553 -0.0359895457218355 -0.00520142036341689 -0.7923134 -0.5280722 -0.3055801 42 42 42
0.0492620619367381 -0.0157915641396593 -0.0368990094461015 0.2000052 0.3046574 -0.931226 118 118 118
0.0280508585588151 0.0109757145270509 0.0206822258391372 0.6159244 0.1913347 0.7642173 46 46 46
0.0122065041316612 -0.0610131336923901 -0.0174851854190821 0.4550445 -0.853588 0.2536177 23 23 23
0.0508339378685365 -0.00980838997907518 -0.033576862085712 0.003775784 0.4998137 -0.8661247 110 110 110
-0.0574264115638439 0.0236144316968457 0.0279383071291762 -0.3954155 0.7843644 0.4779322 117 117 117
-0.0111351425369706 0.0522824965246008 0.0133044260614683 -0.380681 0.803516 0.4576506 74 74 74
-0.0542901006471657 0.0163363600956936 -0.0135167615125457 -0.7425643 -0.5912894 -0.3146029 81 81 81
