ply
format ascii 1.0
comment File exported by Rhinoceros Version 7.0
element vertex 473
property float x
property float y
property float z
property float nx
property float ny
property float nz
property uchar red
property uchar green
property uchar blue
end_header
-0.00737400074890981 -0.0432987486053587 0.016803133777856 -0.3680021 -0.860123 0.3532177 235 235 235
0.0201001642138587 0.0711396231274723 0.0257948818724147 0.6816866 0.5552971 0.476391 96 96 96
0.00227515677519907 0.0543389662127613 0.0404146793406001 -0.01254522 0.4662233 0.8845781 158 158 158
0.0388609049708473 0.0213715924840092 0.0238723638575069 0.4830405 -0.1541252 0.8619265 87 87 87
-0.017548513612069 -0.0707146798301817 -0.0190176782090672 0.4458645 -0.8950998 -0.001089085 162 162 162
-0.0140825631230248 0.0280684499960064 0.00839118986534987 -0.8682286 0.4956287 0.02304898 95 95 95
0.0415864465624916 -0.0189865560312153 -0.00384781927657213 0.7610511 -0.6481558 -0.02636736 115 115 115
-0.0193746211140526 0.0185893445234417 0.0362318637888423 -0.8794193 0.4489241 -0.1583943 56 56 56
-0.011606884202279 -0.0645004718605758 -0.0164981898744115 0.5683603 -0.5173322 0.6397922 194 194 194
-0.0440558316319359 -0.0314173021395088 0.0131814363520137 -0.9168293 0.2160421 0.3357823 87 87 87
0.0281858919055091 0.00299940323044055 0.0303312721769801 0.3905634 -0.3070783 0.8678497 148 148 148
-0.0484469654171837 -0.0401736053679467 0.00734724431443129 -0.7463245 0.4000509 0.531939 87 87 87
-0.0211688997357262 0.0143598436336636 -0.00112266511511888 -0.820109 0.5271972 0.222451 107 107 107
0.0271978853137123 -0.0360691987950683 -0.0375312385041722 0.7259441 -0.6838377 0.07328838 83 83 83
-0.0123790623753441 0.0320391922216534 0.012913334659814 -0.8866467 0.4572304 -0.06926715 66 66 66
-0.0291638495533837 -0.0116745189804912 0.0383767667334071 -0.3270656 -0.1881908 0.9260736 149 149 149
-0.0474930526821984 -0.0183736749966026 -0.0113401827294835 -0.7179371 0.542852 0.4357499 85 85 85
-0.0475611807911767 -0.0504302720580579 -0.022889238305808 -0.9528471 -0.1835956 -0.2416095 66 66 66
-0.0282628657429589 -0.0728410829831243 -0.0224379715402135 -0.04828238 -0.9941241 -0.09688233 182 182 182
0.00811158398696055 0.00801450451422923 0.0389536800901881 0.3928099 -0.07058992 0.9169065 136 136 136
-0.0159450294583214 0.00352358882833712 0.0478615346472255 -0.04717454 -0.3423151 0.9384002 151 151 151
0.0315360305697547 0.0218883722047924 0.0302849295656673 0.5587218 -0.023952 0.8290092 145 145 145
0.00265674571105112 0.057130452893269 -0.00664133996558275 -0.8247943 0.5389553 -0.1710016 155 155 155
0.0506715653330909 0.0242668881039738 -0.0170450624902257 0.5636622 0.639702 -0.5225576 70 70 70
-0.00170840044907461 -0.0358986140270115 0.0268330457727901 -0.02635596 -0.5141751 0.8572802 163 163 163
0.00351982096739878 0.0654065429191708 0.0106834056894771 -0.8978598 0.4297052 -0.09592305 101 101 101
0.018351304331504 -0.0367366329808117 0.00370030432152663 0.1771278 -0.855163 0.487157 150 150 150
-0.0383170964329613 -0.0097694278735996 -0.00651715368819322 -0.8021973 0.4748243 0.3619687 112 112 112
0.00436638573714365 -0.0181159780402065 0.033532995275735 0.2263964 -0.4152096 0.8811048 156 156 156
0.0255058286578285 -0.0173701898236156 0.0249650958101741 0.4975688 -0.3411825 0.7975085 118 118 118
-0.0395889999478234 -0.0272138857324005 0.0204960885565272 -0.8762024 0.2137142 0.4319671 78 78 78
-0.0481290342419518 -0.0546529156488229 -0.0188598153073796 -0.9366318 -0.2415781 -0.2536945 93 93 93
-0.0357613088696374 -0.0321859003085972 0.0267163994829646 -0.2180603 -0.6019384 0.7681926 230 230 230
-0.0463574053852929 -0.0632561438758255 -0.0143198189218053 -0.8498498 -0.3816696 -0.3634332 158 158 158
0.0102428672701942 0.0743518366437077 0.0269036176722041 -0.548408 0.7506748 0.3684237 109 109 109
-0.00986553450516592 -0.025749846645105 0.0329485419313899 -0.008809722 -0.7462959 0.6655561 165 165 165
-0.0135601880162133 0.0221084772567868 -0.0340989050347814 -0.6978894 0.5719362 -0.4310909 73 73 73
-0.0335019352047814 -0.0125018016476513 0.0087301912825099 -0.7787504 0.5794114 0.2404794 82 82 82
0.039560484686576 0.0199626876931309 0.0231719496767512 0.4751125 -0.1447972 0.8679296 119 119 119
0.0136648891360389 0.0123945145826458 0.0361810508291713 0.383973 -0.1774267 0.9061372 236 236 236
0.0236547468096839 -0.0358507142443538 -0.0169478771169194 0.6557665 -0.7502526 0.08421001 134 134 134
0.00195263604231943 0.036094044051659 0.044485348753213 0.6178201 -0.1031863 0.7795196 141 141 141
-0.0236588241665734 -0.0280822080601335 0.0272988262693873 0.2323766 -0.6312723 0.73993 174 174 174
-0.0440952303021325 -0.0173860521097065 -0.0068715629060277 -0.6648959 0.5628293 0.4910567 97 97 97
-0.0122144343464745 -0.0652532431338311 -0.0291592297036656 0.573558 -0.8191481 0.00525879 123 123 123
0.0297416923434364 -0.00395141104649312 0.0262096705954066 0.2949983 -0.294346 0.9090305 165 165 165
-0.0420646788685692 -0.0449951144907952 0.0145652177851192 -0.1502592 -0.7861133 0.5995398 248 248 248
0.00697218159743418 0.0672154619317173 0.0308070662538997 -0.6353843 0.5170585 0.5735306 88 88 88
-0.019268644055642 0.0106054662685513 0.0500816586534968 -0.09600115 -0.1089873 0.9893966 167 167 167
0.0044011352450477 -0.0159119361121536 0.0349947693865291 0.2566664 -0.3807847 0.8883273 160 160 160
-0.0154907228558434 0.0241909219842076 0.0167229059259883 -0.9338589 0.3569677 0.02194407 77 77 77
0.0296925185114967 -0.00206560204218633 0.0270720007936946 0.3305211 -0.3278261 0.8850344 136 136 136
0.0324445245654212 -0.0022400573868633 0.0258040609877101 0.3203956 -0.2817706 0.904407 136 136 136
0.0289581296832191 0.0345218001823544 -0.0329056796510228 0.3685332 0.6857558 -0.6276323 84 84 84
-0.0496431710331811 -0.0273267415393472 -0.00452427239012804 -0.7577213 0.4301756 0.4907213 80 80 80
-0.00408895035675894 0.046198245785725 0.00237860112595473 -0.9009636 0.4233765 -0.09495761 72 72 72
0.0143027184397804 -0.0406767719466568 -0.00258619756293382 0.3559066 -0.9215496 0.1551671 176 176 176
-0.0379082681744469 -0.0165245489258648 -0.0347941932160863 -0.8064698 0.3672112 -0.4634246 59 59 59
0.0099475858599769 0.075814936957848 0.0144403758566371 -0.1947184 0.972329 -0.1290775 71 71 71
-0.0255979420750512 0.00233312015939944 0.0247757318537227 -0.8487424 0.5204282 -0.09375881 50 50 50
0.0120309470088111 0.0101671188097119 0.0368803325216762 0.4296706 -0.07384048 0.8999615 166 166 166
-0.00204802771500479 0.0298634066205143 0.0466742101232997 0.5238432 -0.1279586 0.842149 133 133 133
-0.0416583540051354 -0.039956616521287 0.0172797027151576 -0.4365723 -0.4136231 0.7989496 189 189 189
-0.0155718447773827 -0.0448034809012295 0.0116491797487727 -0.01379627 -0.7437077 0.6683626 187 187 187
0.0182376978785621 0.0336273654322743 0.0364231946985713 0.4919751 0.3111931 0.8130925 74 74 74
-0.0103803994267357 0.0355635329108357 0.0286438348810664 -0.8625811 0.5045296 -0.03746732 51 51 51
-0.0530008794873131 -0.044082111962545 0.00317873387741957 -0.9449256 0.1251053 0.3024305 80 80 80
-0.041988325318612 -0.0700980567414642 -0.0150218126256474 -0.6055995 -0.7956481 -0.01390649 174 174 174
0.0419498560816871 0.0105851261835217 0.022152471832513 0.6103853 0.05696787 0.7900534 215 215 215
-0.0127424718945397 0.029489216111195 0.00911654858994398 -0.8717923 0.4888943 -0.03099482 50 50 50
-0.0406792285054101 -0.0242753841955543 0.0138082387964717 -0.8522184 0.4852468 0.1955998 61 61 61
0.00483720282622446 0.04207175662328 0.0436156573812953 0.4365474 0.001381339 0.8996802 119 119 119
-0.0439044358342064 -0.0638004842255593 -0.0190924820382604 -0.8024414 -0.444322 -0.3983288 141 141 141
0.018896388807975 0.0685453309636234 0.00577645330834303 0.4521054 0.8487891 -0.2741491 55 55 55
-0.0469024898617638 -0.0640140541870476 -0.0120729026277074 -0.865808 -0.4845951 -0.1246757 211 211 211
-0.00215835591248403 0.0485963343601345 -0.00239894957137193 -0.8216146 0.5415381 -0.1780054 110 110 110
-0.00265802164963613 0.0530734850983738 0.0143653038065425 -0.9316913 0.3609028 -0.04123563 110 110 110
0.0193506358058082 0.0577389492612004 -0.0152110871751317 0.4239857 0.7776766 -0.4641716 40 40 40
0.0356811163813697 0.0364981635432362 0.0281573417704097 0.3857955 -0.1514552 0.9100677 233 233 233
-0.000295889577187403 -0.059046206813711 -0.0323305544335851 0.4476505 -0.8942068 -0.001800575 139 139 139
-0.0461832406132592 -0.0600004427176297 -0.0189667758424291 -0.8437526 -0.4326133 -0.3176905 145 145 145
0.0232345340640174 -0.0367485986132503 -0.0245210048635014 0.7065338 -0.7061536 0.04644431 39 39 39
-0.0126062156765832 -0.0516480221920044 -0.0118993935067662 0.4563745 -0.3417342 0.8215474 132 132 132
0.0206339238078224 0.0624735548119663 -0.00503994197440233 0.4700651 0.8227617 -0.3195342 68 68 68
-0.00782520790985952 0.0340828119735836 0.0496104839365474 -0.4060324 0.3414639 0.8476675 173 173 173
0.00388323048659434 0.061097313366425 0.00371967583107863 -0.8272873 0.4981982 -0.2596042 29 29 29
-0.03519405146531 -0.070096861854601 -0.0247100111920842 -0.4760241 -0.6954886 -0.5382348 171 171 171
-0.0158882262318505 -0.0479385380674482 -0.00863073439192857 0.4759287 -0.7734659 0.4186197 97 97 97
0.0394514677912818 0.0532183169345974 0.0146520021479121 0.5865521 0.7228515 -0.3652976 92 92 92
0.0035652993113624 -0.0370868791867376 0.026246059231042 0.03130951 -0.436552 0.8991341 163 163 163
-0.0100510241597069 0.036053952477467 0.0208768728296748 -0.8961394 0.4431049 0.0243336 76 76 76
-0.0258704545109643 0.00306203653622859 0.0308970096628657 -0.8200903 0.5648139 -0.09185454 67 67 67
0.000639843741141455 0.0144191651563763 0.0437318864386073 0.4771504 -0.1160652 0.8711236 182 182 182
0.0397466895968543 0.0401337414007305 -0.0091216084439763 0.6640634 0.6758381 -0.3197854 56 56 56
0.0167659399897682 -0.0423833358142853 -0.0206412789304265 0.6920666 -0.6868873 0.2218776 69 69 69
0.0020207641512977 0.0561108632903218 -0.00163529486250963 -0.8924707 0.4252022 -0.1506622 42 42 42
-0.031503272256173 -0.0455671225715757 0.0114256027262202 0.051624 -0.6400623 0.7665868 168 168 168
-0.0235538007824792 -0.0181881369132877 0.0377174797575465 -0.1126393 -0.469201 0.8758783 171 171 171
0.0260433433444129 0.0101199342827915 0.0315224710028163 0.4247522 -0.06662993 0.9028544 128 128 128
0.0301278708369361 -0.0353684642393471 -0.032590758510352 0.4866433 -0.8714842 0.06077521 127 127 127
-0.029175174435891 -0.0184381523210884 0.0366454306166163 -0.02009634 -0.4315404 0.9018697 177 177 177
-0.0231903912632836 0.00809790631343119 0.0335856261770717 -0.8724928 0.4582843 -0.1695047 56 56 56
0.03379027823516 -0.0213296444196583 0.0110445800344935 0.7368855 -0.6202384 0.2688941 130 130 130
2.9670992575781E-05 -0.0278154362965704 0.0303584220926753 0.1361622 -0.4314631 0.8917956 151 151 151
0.0250288722903358 -0.0346680835862041 -0.024755042501212 0.6710844 -0.7369537 0.0809008 59 59 59
0.0027294633776771 0.0205946757416844 0.0435302439253322 0.5110515 -0.05193191 0.8579798 106 106 106
-0.0449037673085106 -0.0319354024757028 -0.0292121884305486 -0.8050846 0.23368 -0.5451903 86 86 86
0.0262325880915748 -0.0223545686383129 0.0212395074884883 0.5953673 -0.4308352 0.6781731 123 123 123
-0.00576211234024893 0.0420553206424832 -0.0114608821351537 -0.8523015 0.5034353 0.1418982 75 75 75
-0.00169111510208975 0.0140310420613407 0.0446314099352351 0.4920091 -0.07532262 0.8673255 164 164 164
-0.00831807871750723 0.0406336381058811 0.0149747016947261 -0.9200636 0.3899627 -0.03757849 54 54 54
0.00265674571105112 -0.0505369820673347 -0.0188900646646031 0.3510343 -0.7716046 0.5304727 149 149 149
0.0240748999507057 -0.0358719837893129 -0.023027759500266 0.7082214 -0.7005595 0.08740062 64 64 64
-0.0241443039982689 0.00977100124169581 -0.00761408776831712 -0.8708495 0.4249288 0.2470963 46 46 46
-0.019253504475869 -0.0508122251410366 0.00653986959862624 0.4575326 -0.870494 0.1813949 97 97 97
0.0508078215510475 0.00482163643051379 0.0178665402452937 0.5157399 -0.1741929 0.8388499 136 136 136
0.0122960684687721 0.0416707142214894 0.0385628524343959 0.6012978 0.1540736 0.7840295 80 80 80
0.0286649344355689 0.0203961848240017 0.0313686016123286 0.398485 -0.1262979 0.9084374 176 176 176
0.0255966661364662 -0.0337386907119632 -0.00684289307189073 0.6404169 -0.755513 -0.138081 139 139 139
0.00287978629180063 0.034330327711594 0.0432862225096217 0.5902147 0.01162586 0.8071626 130 130 130
-0.00851793309143911 0.0389642163138508 0.0122510078470698 -0.9052431 0.4207584 -0.05913852 32 32 32
0.0171929476649391 0.0747799321036457 0.0216457727472774 0.5121865 0.8557227 -0.07350913 68 68 68
-0.00420815964630972 0.0238696454982876 0.0476702633421413 0.4952874 -0.06512341 0.8662848 145 145 145
-0.00134069939545522 0.0543174638371586 0.00662611751961623 -0.8779145 0.4213425 -0.2274569 42 42 42
-0.0241443039982689 -0.0515217395074994 -0.00315020651412096 0.4954979 -0.8468336 0.1932734 117 117 117
-0.0444495203106774 -0.0309344821650863 0.0118099930803767 -0.9209573 0.2421976 0.3052508 47 47 47
0.028349923887931 -0.00367480824183233 0.0267952862303248 0.3272882 -0.3045388 0.8945047 159 159 159
0.0484457490832435 0.00577020709921115 0.0190463545839778 0.3360501 -0.005607359 0.9418274 180 180 180
0.0377934453875648 0.0420304208021282 -0.00882555217337694 0.6645132 0.6658226 -0.3392676 44 44 44
-0.0196471931546105 -0.00795572931360013 0.0421745064775935 -0.2123682 -0.3549682 0.910438 178 178 178
0.0528292534739601 0.0033734857063412 0.0149070802252284 0.7839448 -0.4860537 0.3862412 82 82 82
-0.0357883693783654 -0.0449486815411926 0.0123442295114986 0.1076993 -0.7868767 0.6076396 133 133 133
0.0343259451777564 -0.0294444219250561 -0.0250833448846349 0.4911402 -0.7814248 0.3849112 131 131 131
-0.0329114319889916 -0.0133937590796829 0.0170130911390773 -0.8423187 0.5339122 0.07373621 34 34 34
-0.0261625172703637 -0.0557675895904519 -0.00510434479308214 0.3143282 -0.6406035 0.7005891 173 173 173
-0.0261430265515221 -0.00139624933193929 0.00539304643082533 -0.8790836 0.4766624 -0.002225317 46 46 46
-0.0198591472714318 -0.0220731415827156 0.0354117634813777 -0.03423056 -0.6323697 0.7739101 215 215 215
0.00220249871321787 -0.0404128425795913 0.0117252352755061 0.537518 -0.807847 -0.2417802 90 90 90
0.0140340803057777 -0.0255422418047071 0.0268057170431605 0.4220165 -0.4164247 0.8052903 162 162 162
0.0200871704012977 0.0439956231932759 0.033124047807931 0.3903219 0.0617655 0.9186043 91 91 91
0.0276521919161903 -0.00533970380615003 0.0264035347025386 0.3678787 -0.2413954 0.8979942 158 158 158
0.0237341998011695 -0.0352854573209167 -0.0135085102994451 0.6395813 -0.7598226 0.1166421 124 124 124
0.00828950385161509 0.0645692615728497 -0.0029713627774724 -0.5944026 0.6988596 -0.3978453 38 38 38
0.0446526286990272 0.0467096089344143 0.0129088643114558 0.5292974 0.7646645 -0.3676038 69 69 69
-0.031048965653695 0.00168646936823123 -0.0265686032254704 -0.6304662 0.4552411 -0.6287034 46 46 46
-0.0139690162747277 -0.0292728834826828 0.0262880805056087 -0.2700932 -0.6425137 0.7170954 232 232 232
-0.0508090974896325 -0.042405230276692 -0.0244490322549352 -0.9109905 -0.2998658 -0.2831549 173 173 173
-0.0105166556446923 0.0342864735942005 -0.00825158924651231 -0.7946202 0.5990023 0.09886912 57 57 57
0.0436305878550636 -0.021876423903215 -0.0360708949048528 0.6639178 -0.7477845 0.005613815 82 82 82
-0.0309581281750573 -0.00920710647891767 0.0101553681414119 -0.8293378 0.5407108 0.1408212 63 63 63
0.01851026991912 0.0619076161604046 0.0292010489027492 0.5440642 0.06693368 0.8363696 135 135 135
-0.0082907797902001 0.0390181212644696 0.0071713808100215 -0.8787544 0.4694477 -0.08607876 41 41 41
-0.00235517044953237 0.0498611896257519 0.00140880375313673 -0.8635408 0.4651413 -0.1947839 83 83 83
-0.0299285175412072 -0.0730590757955194 -0.0227412995774754 -0.06693163 -0.9770531 -0.2022063 163 163 163
0.0220004794985877 0.00218268176127665 0.0324807348768703 0.4572742 -0.1452363 0.8773863 176 176 176
0.0281475065142738 -0.0297154423822046 0.00695230393814955 0.5102943 -0.6908975 0.5121136 132 132 132
0.0498690483958351 0.0277995436411022 0.0166406515161983 0.769595 0.0872216 0.6325472 132 132 132
0.0239726779849159 -0.0362112497020841 -0.025020938821555 0.6988118 -0.7141508 0.04062926 73 73 73
-0.0314123751728905 0.00916918059397929 -0.0170838651139745 -0.7965912 0.4703654 0.3797353 119 119 119
0.0176731226832496 -0.0418524344493032 -0.020948719688178 0.7181659 -0.6702489 0.1870941 84 84 84
0.0183910606295692 -0.0396042143036009 -0.00907329887938585 0.600949 -0.7931255 0.09905653 123 123 123
0.0348634598643409 0.0240347131114125 0.0272096577208034 0.6163552 -0.006300485 0.787443 139 139 139
0.032619464197837 0.0143090381245732 0.0273419502298823 0.5537568 0.01817743 0.83248 110 110 110
-0.0215798141568078 0.00381425832916491 0.0465504112761012 -0.4137787 -0.4934417 0.7650506 147 147 147
-0.0415138723461999 -0.069398396931994 -0.0117201325376042 -0.3284211 -0.8022405 0.4985477 223 223 223
0.00892548541136851 -0.0122045160312534 0.033829558185815 0.3838781 -0.08815734 0.9191658 117 117 117
0.0106175420672523 -0.0544468559598879 -0.0371493813474187 0.3750994 -0.9126794 0.1622242 132 132 132
0.00928889493056406 -0.0422868703533293 0.0171340885679713 0.5112475 -0.8437312 -0.1635349 124 124 124
-0.0241102697461022 0.00618217577744715 0.00474076300072585 -0.9175188 0.3802346 0.1165373 103 103 103
-0.0441770078747643 -0.0217102908570648 -0.00247199506354417 -0.7687364 0.5086923 0.3876553 84 84 84
0.042510080137931 -0.0174572684843422 -0.00480501026702013 0.8126821 -0.5814459 -0.03832121 82 82 82
-0.00306684990815054 0.0361929430585026 -0.0331308361966619 -0.6094534 0.534565 -0.585497 91 91 91
-0.00339241047791372 0.00153775577951663 0.0437354329149715 0.4027407 -0.1956296 0.8941638 229 229 229
0.0181014416606056 0.0708617015700459 0.0280943694632045 0.6264712 0.3826742 0.6790392 105 105 105
0.00565485934325327 0.0301367088179707 0.0422486844580165 0.4972954 0.04243859 0.8665427 94 94 94
0.00209652165480723 -0.0556844185846255 -0.0233384189088353 0.4584596 -0.7557358 0.4676303 164 164 164
-0.0103463055699242 0.0225124030332684 0.0501002553026668 0.3376682 -0.01575156 0.9411334 151 151 151
0.0342061398417579 0.0362281619529843 0.0286294701616756 0.374658 -0.1397908 0.9165642 239 239 239
0.0380129692942726 -0.0238880322356106 0.00103430777001295 0.7971229 -0.5991256 0.07512376 126 126 126
-0.00982619543961416 0.0137747718911289 0.0497114840071193 0.2878766 -0.1607848 0.9440738 163 163 163
0.0379297016055213 0.0422189130406498 0.0281375530283443 0.4357308 -0.07761577 0.8967243 123 123 123
-0.0321997525303734 -0.0120258846361519 0.0145156565229884 -0.8352588 0.5308403 0.143357 53 53 53
-0.00890405198029409 0.0376558422069668 0.00740246801781569 -0.8969601 0.4379871 -0.06024938 59 59 59
-0.0203285934536828 0.0190209566574215 -0.0113868233640202 -0.7782723 0.4996749 0.3802858 123 123 123
-0.0119702937214745 -0.0469196963165284 -0.00362153024268236 0.4405372 -0.8962858 0.05097726 115 115 115
-0.0067917825787438 0.0114835618953823 0.0479539516489497 0.4528491 -0.1608627 0.8769554 141 141 141
0.00776712874480356 -0.0451629788656116 -0.00979341239523973 0.2842416 -0.8995882 0.3315839 149 149 149
0.0261474130541908 -0.00356817180703885 0.0275418940107814 0.430309 -0.3360704 0.8377892 130 130 130
-0.00774569531372915 0.0402524589519619 -0.0155762550313481 -0.8128432 0.5354709 0.2292528 111 111 111
0.00129400471755137 0.0606783970217823 0.0193044724981776 -0.8599885 0.5097762 0.02341015 48 48 48
-0.0289139868824853 -0.00445963750075109 -0.036598932452918 -0.7809451 0.4788528 -0.4010297 43 43 43
0.0495813367755042 0.0418805002193569 0.0202614250700465 0.8236792 -0.1420676 0.5489711 117 117 117
0.0337278125674354 0.0451735450844883 -0.0100371357877263 0.6847631 0.6690055 -0.2890174 55 55 55
0.0576784489543067 0.0260948358993649 0.00825272827553664 0.6492727 0.1711033 0.7410592 158 158 158
0.0109014985949623 0.0617712779860615 0.0357449832479945 0.6467535 -0.03504105 0.7618937 102 102 102
0.0225401399523841 0.0181432186584591 0.0334169152300349 0.3940814 -0.004953451 0.9190622 115 115 115
-0.0107437493412865 -0.0444676841650487 -0.00328389973235216 0.411543 -0.9055488 0.1030226 88 88 88
-0.00265802164963613 0.0358586206059574 0.0481071057837001 0.4993348 -0.08543304 0.8621867 121 121 121
0.0623232601077186 0.0145467563490986 0.00664224057602797 0.9220364 -0.2001685 0.3313329 95 95 95
-0.0219411375134362 0.010296043656361 0.010829764894723 -0.8926107 0.4499104 0.02875306 84 84 84
-0.00601537247589956 -0.0446389813948751 0.0151148620169154 -0.2064303 -0.9542689 0.2162347 215 215 215
-0.0116192223637475 -0.041732289180565 0.0170338931601039 -0.2142449 -0.8130124 0.5413963 174 174 174
0.0516708968073951 0.0234329595189213 -0.0167581853349217 0.5389412 0.6791556 -0.4982871 64 64 64
-0.0409972192852868 -0.00424144352267988 -0.0166110214669713 -0.6921015 0.5761693 0.4347694 122 122 122
0.0380659578234779 0.0474503009538769 0.000839311174630264 0.7543669 0.6164278 -0.2257151 42 42 42
-0.0224332930653466 0.0138868509750485 -0.00929726333212938 -0.7792743 0.540162 0.3177366 85 85 85
0.00831227282591929 -0.0405990595970631 0.0237954142611018 0.3001524 -0.6689495 0.6800111 185 185 185
-0.015720379552163 -0.0483550944406868 0.00523634581971083 0.5163358 -0.8563835 -0.002135871 108 108 108
0.0436646817118751 -0.02176240394305 -0.0331308659989842 0.6681078 -0.7373316 0.09987 106 106 106
0.0420066593081581 0.00212796469737284 0.0223795357267848 0.4632683 0.007535753 0.886186 172 172 172
0.0113784549624549 0.0263143076520085 0.0403115037004939 0.3124293 -0.01125627 0.9498743 113 113 113
-0.00633181353501211 -0.0454572050873519 0.00958969026017104 0.1841388 -0.9816712 -0.04913883 151 151 151
-0.0115484716503991 0.0224405347328305 0.0503146830122462 0.08379374 0.01260924 0.9964033 126 126 126
-0.00274885912827383 0.0494916035752415 0.0331563535253993 -0.9364339 0.3493332 0.03252494 80 80 80
0.00642203072615732 -0.00418157438229329 0.0351492944281093 0.4213339 -0.397798 0.8150058 129 129 129
0.0280496356875526 0.047773589096558 -0.0191666302163609 0.7432916 0.5377987 -0.3978569 74 74 74
-0.0156497480481042 0.0297670184593319 -0.0237673637349614 -0.8346012 0.5229918 -0.1729752 150 150 150
0.0369076011569129 0.0357658906798481 -0.0237459060628423 0.6598903 0.6694194 -0.3412073 69 69 69
0.0195247409731971 0.0616897462825894 -0.00947452754569139 0.3888467 0.8033198 -0.4510826 86 86 86
0.00622062663146128 -0.0434682055417777 0.000657129577874283 0.3556005 -0.9021387 0.2443238 191 191 191
0.028299498358451 0.0562321885447621 0.0248682382624141 0.4574051 0.2472166 0.854204 103 103 103
-0.0232358100026024 0.010135193071854 0.00135676889824782 -0.8193323 0.5244654 0.2315828 69 69 69
-0.0184207083790673 -0.0607693091076196 -0.0117902574021825 0.3982029 -0.3274168 0.8568738 153 153 153
0.0340685127169715 0.0355889393906712 -0.0269744512517461 0.638828 0.6444741 -0.4201807 57 57 57
0.016863632002555 0.018364754221928 0.0357515397589198 0.4276864 -0.07184825 0.9010673 162 162 162
0.0438198922068702 -0.00966182286332853 0.0107869091551295 0.741835 -0.6311613 0.2265308 98 98 98
-0.0226906659214867 -0.0425066950772286 0.0139632108728877 -0.08947592 -0.6244152 0.7759508 231 231 231
0.00792609433241953 0.0730286880355 0.0100144627611629 -0.5507385 0.7592812 -0.3466687 143 143 143
-0.025431347092904 -0.0594194408547462 -0.00861440271926012 0.2668066 -0.4337073 0.8606464 149 149 149
-0.0240307571499718 -0.0320034337271333 0.0237071099798671 0.2219198 -0.5829459 0.7816173 131 131 131
0.0320924995333778 -0.0329297141213299 -0.028573196836234 0.4036479 -0.8159384 0.4138997 155 155 155
-0.011879396638192 -0.0659952268977047 -0.0244301673848638 0.6584747 -0.7354261 -0.1598735 153 153 153
-0.0439887764065636 -0.0515582352452309 0.00714527397560988 0.135171 -0.7513609 0.6458991 216 216 216
0.036748635569297 0.0483266307931065 0.00260977774071608 0.6822246 0.6939441 -0.2302415 46 46 46
-0.0103349210827721 -0.0559638810152516 -0.0145090636689671 0.5149298 -0.2451194 0.8214401 105 105 105
-0.00121952315262686 0.0501292168121456 -0.000957709260702988 -0.8387612 0.5031682 -0.2080899 63 63 63
0.0105607984454261 0.0512443079571842 -0.0247486648042211 -0.2413528 0.7284375 -0.6411923 80 80 80
0.015466737547599 0.0395572303753018 0.0366036477606288 0.6368598 0.1589014 0.7544269 61 61 61
-0.0531939389317406 -0.0439464052249075 0.00158797531533156 -0.9687137 0.1507995 0.1971124 71 71 71
0.0283373473078834 -0.0316024565179229 -0.00469641060423936 0.682542 -0.7161244 -0.1459529 146 146 146
-0.0533983828633202 -0.0450134438503862 0.00236086874413405 -0.96761 0.03521413 0.2499816 148 148 148
0.0465832231433021 0.0352650179486393 -0.00466869444441881 0.5993596 0.7050954 -0.3789574 34 34 34
0.00162492970534434 -0.00369150871824033 0.0389299872438899 0.5344859 -0.3963215 0.7464945 127 127 127
0.0160004971415626 0.012210999331963 0.0352703514616481 0.3048881 -0.1750015 0.9361718 202 202 202
-0.00187064429215322 -0.045049962871182 -0.00282184452605333 -0.06357583 -0.9967228 0.05001807 149 149 149
-0.0115046622364892 -0.0462407342199565 -0.00707725853514757 0.2878479 -0.9255832 0.245844 147 147 147
-0.0338654043286217 -0.0153755911667228 0.014333981565713 -0.8096783 0.5676456 0.1489955 49 49 49
0.0349088786036598 -0.0308542021591545 -0.0310753998239049 0.7624887 -0.6439354 0.06291407 65 65 65
0.012650358477317 0.0740503414492726 0.0116095724623195 0.345768 0.8830317 -0.317332 80 80 80
-0.0340016605465783 -0.0664752612863065 -0.0295801577050694 -0.4727452 -0.6632873 -0.5801396 170 170 170
0.0255739567668067 0.0579532205085873 -0.00355912417960252 0.8373756 0.4969051 -0.227788 37 37 37
0.051000880995475 0.0384171797852635 0.0156527343313685 0.8765092 -0.0472064 0.4790648 111 111 111
0.00161199549742808 0.0616989477496266 0.00910334616112624 -0.870494 0.4658988 -0.1586773 104 104 104
0.0101973889262306 0.0688820823054432 0.000665474228142837 -0.3227151 0.7693805 -0.5512791 53 53 53
-0.0515943290799035 -0.0435914809856892 -0.0145418164212712 -0.9682397 -0.2013792 -0.1481837 83 83 83
0.0395877240092384 0.0117478339891552 0.0240553799192897 0.5907261 0.1479543 0.7931911 132 132 132
-0.0028397562115563 0.0503644465427517 0.0312724295179835 -0.9425468 0.3241379 0.08087151 91 91 91
-0.018738699158944 0.0176288678269505 0.00931014447617445 -0.940398 0.3382429 -0.03526019 106 106 106
0.00230847577162852 0.0498720227699398 0.0425868216078273 0.3309358 0.4828659 0.8107539 97 97 97
0.0138144371897804 0.0457237928133129 0.0364387217085353 0.5775052 0.1832588 0.7955526 120 120 120
-0.0111071588604821 0.0336780591826557 0.00876759319710646 -0.9048289 0.4247096 -0.03010726 73 73 73
-0.0361820580571068 -0.0117919699330211 0.00193198352265272 -0.7617152 0.5485801 0.344746 117 117 117
-0.0479245903103722 -0.0462561932433725 -0.0250840303380498 -0.9060367 -0.3020233 -0.2964447 91 91 91
-0.0491169812291039 -0.0219360918779255 -0.00868604750228014 -0.7770119 0.4626746 0.426831 94 94 94
0.0242513893038856 0.0139876200776219 0.0326391044180385 0.4437402 -0.02389712 0.8958368 110 110 110
-0.030503881177224 -0.0249692660797716 0.0324107888262263 0.1796381 -0.6219209 0.7621972 179 179 179
-0.0457668425648583 -0.054242708188887 -0.0281498846490392 -0.883507 -0.3326297 -0.3298075 65 65 65
0.000642883578025 0.0502971528988003 0.0429178658049098 0.09976529 0.5127988 0.8526924 124 124 124
0.0391107080371009 -0.0238260322291733 -0.0347370323617467 0.5962998 -0.8027458 -0.00507779 56 56 56
0.0164207098872291 0.0426268919329762 -0.0328037557084569 0.08750726 0.5243617 -0.8469872 33 33 33
-0.0392255904286278 -0.0472173865925849 0.00999476342606459 -0.003087514 -0.6919215 0.7219661 134 134 134
-0.0508090974896325 -0.0559712515603148 -0.002619188733817 -0.7722417 -0.5390275 0.3362919 246 246 246
-0.0196058871357812 -0.0120362297673107 0.0406806650679103 -0.1870974 -0.3961238 0.898933 179 179 179
-0.0224181534855736 -0.0674231986556531 -0.0117974993665227 0.3640891 -0.371929 0.8538781 124 124 124
-0.035982203683175 -0.013861733772266 0.00528343348908339 -0.7747334 0.5288814 0.346515 62 62 62
0.0245215771586524 -0.0362388559658409 -0.0289832469899663 0.6430948 -0.6847404 0.3428697 79 79 79
0.0134680149943458 0.0571312873582958 -0.0176678416211614 -0.06722449 0.8380136 -0.5414924 90 90 90
-0.0499157430737389 -0.0545516269846682 0.000674146703957657 -0.3400495 -0.8710653 0.3544172 230 230 230
0.0556986806780921 0.0316994755487561 0.00934596686768446 0.8655266 0.2223914 0.4487825 149 149 149
0.0207588551432716 0.0625875188927769 0.0277504506628505 0.477392 0.07784545 0.8752354 132 132 132
-0.0277934791653527 -0.0554158742813722 0.0051894369642726 0.2472845 -0.9050635 0.345992 147 147 147
-0.0177971245854271 0.00365628366876834 0.0477739158194057 -0.1956284 -0.3807246 0.9037579 144 144 144
-0.0055834176152123 -0.0605551039841355 -0.0198297616918096 0.7003247 -0.638147 0.3198653 153 153 153
-0.00945670624665151 -0.0639185759280206 -0.0313472268064031 0.5371379 -0.8420084 0.05004692 128 128 128
-0.0501276971905602 -0.0374373973388553 0.00305386214661513 -0.7384876 0.4422151 0.5090008 102 102 102
0.0105153797061073 0.0639994635205387 -0.00600863666129198 -0.3513044 0.8049059 -0.4782382 42 42 42
-0.0518993260472191 -0.0458644622046829 -0.00552202434134569 -0.9904237 0.01705972 -0.1370035 31 31 31
0.0165115473658668 0.0645618556957363 0.0310534718554011 0.5707858 0.0266105 0.8206677 121 121 121
0.0547258136660682 0.00587791269232028 0.0149957123320094 0.7776471 -0.4192986 0.468459 84 84 84
0.0312294242770301 -0.0286168114323498 -0.00454677314353075 0.6799442 -0.7244614 -0.1132765 86 86 86
-0.0116316201298607 -0.0119044811506153 0.0408405247251979 0.1473318 -0.5498062 0.8221961 218 218 218
-0.0220547439663781 0.0141421302180409 0.0397809627573482 -0.9036403 0.4221763 -0.07212058 53 53 53
-0.038021815022744 -0.00788659165095098 -0.00977132887435045 -0.7402017 0.5141502 0.4333024 78 78 78
-0.0200333120434655 0.016253274581921 -0.00214026541304674 -0.8580624 0.4751862 0.1947486 78 78 78
-0.0395208718388451 -0.0397482750047327 0.0188518050234309 -0.434066 -0.4649855 0.7716056 168 168 168
0.0040421960742103 -0.0571052297525436 -0.0308603164632329 0.3941489 -0.9151217 0.08484618 152 152 152
-0.00495202561310659 0.0469626381020664 0.0112084630053035 -0.9198268 0.3774282 -0.1070819 70 70 70
0.0165115473658668 0.0655718638520359 -0.00439183086943712 0.3037692 0.8516443 -0.4271139 58 58 58
0.0162692544848548 -0.027998312659967 0.0244945171396724 0.3828238 -0.3265652 0.8641766 180 180 180
0.0010442016512977 0.0580203651409268 0.00478808908867751 -0.859439 0.4421019 -0.2567305 25 25 25
-0.0409517409413231 -0.0690941375721575 -0.0185537156541356 -0.7320503 -0.5603073 -0.3875024 136 136 136
-0.0163311483471764 0.0220668508629917 0.0210597398798457 -0.9258248 0.3593393 0.1171487 79 79 79
0.0185657618434059 0.0681470974307179 0.029276061348199 0.6130959 0.2082503 0.7620664 122 122 122
-0.0316673042385949 -0.0731942274649025 -0.0210924562890538 -0.052784 -0.9953121 -0.08104139 219 219 219
0.0318199870974647 0.0502722381572842 -0.0035693463761815 0.6120843 0.7198497 -0.3273671 78 78 78
0.047082948485099 0.0217802493791699 -0.028301310249091 0.6501839 0.7322063 -0.2028174 47 47 47
0.0222465274722206 0.0561669289093136 -0.014625739761115 0.6315266 0.6692894 -0.3914408 66 66 66
-0.0183752896397484 0.0167784734587788 0.0230077090780726 -0.8819306 0.4503233 0.1393104 79 79 79
-0.0337160946934594 -0.0176966668147922 0.0368854883234492 -0.5085201 -0.08205438 0.8571315 195 195 195
-0.0211916687100304 0.0107812403659939 0.0265588346045009 -0.8992197 0.436227 -0.03331612 82 82 82
-0.0178301455586327 0.0253652377944111 -0.0175351020772466 -0.7696549 0.6205119 0.1503205 88 88 88
0.0383417485148536 0.016378764710915 0.0231720986883632 0.5588989 0.04846051 0.8278186 124 124 124
-0.0445403577893151 -0.0589346781414331 -0.00154693097663011 -0.06984691 -0.6019918 0.7954416 228 228 228
0.0163103816897499 -0.0397534177679897 0.000349599413155655 0.3269727 -0.856441 0.3994969 118 118 118
0.0175563571841346 0.0544414191465496 -0.0217178282220372 0.1582974 0.7937293 -0.5873123 60 60 60
0.00632261017867197 -0.0431628835428835 0.0167762520830623 0.3661419 -0.9063407 -0.2109186 163 163 163
-0.0148320915310753 -0.0654587292153717 -0.0147762414891728 0.4922477 -0.4025933 0.7717583 185 185 185
0.00292174796172251 -0.00406934628676183 0.0376503947298518 0.5230515 -0.4078123 0.7484025 127 127 127
0.0102996108920204 0.0557332827668309 -0.018796962209464 -0.2600395 0.7777652 -0.5722419 69 69 69
0.0172383664042579 0.0213139547925114 0.0357696595709315 0.4776586 -0.1429306 0.8668409 143 143 143
0.0290035484225379 -0.0305317037780166 -0.0128686842401036 0.6369962 -0.7634451 0.1067122 95 95 95
-0.0086996080487145 -0.0387307175476433 0.0219088378469935 -0.38728 -0.6625593 0.6411157 241 241 241
0.0242884037882911 -0.0341656629968763 -0.00706551642012682 0.6351322 -0.7554951 -0.1607304 110 110 110
0.0230527995020973 -0.0186060437042595 0.0259722354929439 0.4720969 -0.3399802 0.8133498 109 109 109
0.0202421424777137 -0.0302008272189975 0.0151414456884852 0.6032168 -0.7825766 0.1539591 100 100 100
-0.0351373078434838 -0.0176121027250171 0.027355838112115 -0.9436002 0.3281053 -0.04433527 65 65 65
0.0162571547419654 0.0697391747455715 0.0309616509001246 0.593294 0.1998249 0.7797899 108 108 108
0.0248926160723792 -0.034595276512611 -0.0164394792993077 0.6498555 -0.7587534 0.04450942 125 125 125
-0.0449189068882836 -0.0678436367813826 -0.0129813966233739 -0.759438 -0.6492586 -0.0414386 184 184 184
0.0343637941271888 -0.0253510319669128 -0.00649507016730394 0.6707077 -0.7405609 -0.0414802 73 73 73
0.0343047259242164 -0.00201026658009298 0.0254745963137141 0.3593224 -0.2177148 0.9074622 153 153 153
0.0360899446398841 0.042389851711285 -0.00997693509650316 0.6131468 0.7289378 -0.3044676 55 55 55
0.0106971142680274 0.0758407606701969 0.024857241205453 -0.5110744 0.8372249 0.1945699 75 75 75
-0.0360003830998314 -0.0199142278213382 0.024337131075143 -0.9494033 0.3090611 0.05580919 63 63 63
-0.0101381065457238 -0.0213024237234474 0.0363786998312465 0.03034987 -0.4783428 0.8776486 241 241 241
-0.0215359451382531 -0.0245297879953266 0.0308353486578456 -0.05055593 -0.9147331 0.4008833 183 183 183
-0.00204480906418691 -0.0450688025955439 0.0172762158434382 -0.03275293 -0.9963776 0.07847908 189 189 189
-0.01060749312333 0.0377448244910359 -0.0161520657022008 -0.8178332 0.5365387 0.2080265 133 133 133
0.0399814126879798 -0.00600888142775304 0.0223644557516566 0.4536601 -0.2650743 0.8508397 167 167 167
0.0443574068934547 0.0475252239923596 0.0131842079679957 0.5255236 0.7682664 -0.3655021 61 61 61
-0.0240079881756676 -0.047316114701736 0.0100914123575679 -0.05436661 -0.5002324 0.8641828 150 150 150
-0.04569871445588 -0.0423074712086797 0.012979138187646 -0.7111558 -0.0800257 0.698465 144 144 144
-0.0247802855580224 -0.0728740480769754 -0.0246404525716313 0.1200913 -0.9694107 -0.2140583 135 135 135
0.0133771775157081 0.0205284624319195 0.0382943931143275 0.4497002 -0.1982062 0.8709099 169 169 169
0.00854294280120005 -0.0179148235399605 0.032753604940652 0.3163742 -0.3279079 0.8901594 135 135 135
-0.00136793871811758 -0.0322624550242306 0.0283066812078944 0.008701912 -0.4034394 0.914965 166 166 166
-0.00805718918732534 0.0103267773013233 0.04840566544938 0.3638009 -0.2277204 0.9032122 146 146 146
-0.032548022469796 -0.0140155733604313 0.0139013114492885 -0.8211728 0.5520363 0.1446761 33 33 33
-0.00908572693756948 0.0401650412898182 -0.0190335330445775 -0.8053078 0.5928453 0.003718828 97 97 97
-0.00495202561310659 0.0461809157352566 0.00973205595421706 -0.9040824 0.4126644 -0.1110999 79 79 79
0.0120079396159278 -0.0215851732571007 0.0302294674437038 0.3411132 -0.3767671 0.8612133 172 172 172
0.0130819557101356 0.0647546320181011 -0.0057603237111577 -0.05973434 0.8568548 -0.5120856 59 59 59
0.000612604418479101 0.0368420599918484 -0.0345814940412053 -0.3329792 0.6203492 -0.710135 69 69 69
-0.0139235379307641 -0.043240114398706 0.0142353060762874 -0.08025041 -0.812164 0.5778837 180 180 180
-0.00579239149979482 0.0438932820181965 0.02922602324891 -0.8979356 0.4201742 0.1310167 75 75 75
-0.0361431362240685 -0.0354329732288004 0.0243074181597224 -0.3047035 -0.5302695 0.7911827 233 233 233
0.00832359770842661 -0.0277610954869867 0.0284528019945613 0.2742764 -0.3503412 0.8955632 192 192 192
0.00431476811476816 0.0475491105537533 -0.0248829540689 -0.3325635 0.6889676 -0.6439915 64 64 64
-0.00967628975800405 0.0260435684542774 -0.0346723613221654 -0.7052402 0.5779155 -0.4106702 62 62 62
0.0140403983981239 -0.0421190339181901 -0.00912396282744493 0.4619178 -0.8527189 0.2439311 102 102 102
-0.0433138730137719 -0.0370776330162168 -0.0333224949319371 -0.7990016 0.1227964 -0.5886574 85 85 85
0.0496721742541419 -0.006667773522842 -0.02857426971984 0.916905 -0.3904469 -0.08268299 64 64 64
0.0161844966799842 0.0343797623138546 0.0371831539194575 0.4690628 0.246908 0.8479484 91 91 91
-0.0162856700032128 0.0228833227377056 0.0401588860075465 -0.8926018 0.4432989 0.08214627 62 62 62
0.0262780664355384 -0.0339991834987283 -0.00344739527297105 0.644718 -0.7408322 -0.1884314 162 162 162
-0.0273013832180871 0.00134061714221232 -0.00294549436163988 -0.844258 0.4194537 0.3335973 80 80 80
-0.043654573163308 -0.0414699086029411 0.0152891758005611 -0.5217277 -0.4641165 0.7158184 200 200 200
-0.00561071654251943 0.0422709478955387 -0.00673569411826219 -0.8871578 0.4605411 0.02920439 110 110 110
-0.0117734195797814 -0.0132812404115082 0.0400760057489863 0.1431357 -0.5089115 0.8488352 243 243 243
-0.0375700714199914 -0.0421936188865782 0.0173028889219752 -0.04002088 -0.7340314 0.6779352 172 172 172
-0.0389757873623742 -0.0241114639718414 0.0187634709398738 -0.8545319 0.4032714 0.3273337 49 49 49
-0.0278805615513695 0.0158307819585919 -0.0190489408452519 -0.7618764 0.5416898 0.3551289 138 138 138
-0.0531712295620812 -0.0265434824902893 -0.0118124303300389 -0.973106 0.1880043 0.1331132 86 86 86
0.0258857486636268 -0.00188907916139371 0.0286831143419734 0.4695428 -0.3611843 0.8056522 170 170 170
0.0263461945445167 0.0665607272606014 0.0169971170942775 0.76134 0.5469338 -0.3481735 64 64 64
-0.0476293089001549 -0.0205160074908615 -0.0209530410249242 -0.776517 0.3529751 -0.5219482 77 77 77
-0.010077548226632 -0.0400859418366433 0.0194570007841579 -0.3166316 -0.729915 0.6057793 216 216 216
-0.0304811718075646 -0.0545663442678612 0.00581877260613356 -0.02396458 -0.6639776 0.7473684 200 200 200
0.0316155431658851 -0.0293109540868879 -0.0214873966653356 0.5538275 -0.8206831 0.1405505 59 59 59
-0.0037482502072228 0.0342404588084339 0.0488401237051478 0.4817134 -0.09382394 0.8712917 146 146 146
-0.000613880357064112 -0.00144745717238195 0.0420525851767055 0.425669 -0.2837545 0.8592376 220 220 220
-0.0511270882695092 -0.0552817276545663 -0.00190950603079881 -0.802736 -0.4934838 0.3347964 232 232 232
0.0162389753253089 0.0584680779795765 0.0310152056734553 0.4494226 0.05526073 0.8916084 128 128 128
-0.0230540754406823 -0.050614408500898 -0.000819605298758408 0.4596538 -0.8878368 -0.0215469 71 71 71
0.00497345904418101 0.0411224334459423 -0.0318639096696385 -0.2088694 0.7404305 -0.6388555 58 58 58
-0.0038390876858605 0.0469010292511105 -0.0175599274117955 -0.7576481 0.6491591 0.06754098 80 80 80
0.0440167067439186 -0.0216710188467384 -0.0350231048543462 0.6796898 -0.7325688 0.03694266 124 124 124
-0.0512633444874657 -0.0376932595897794 -0.00916005343985643 -0.9986552 -0.04214871 0.03018693 52 52 52
0.00120316723891367 0.0395267053465962 0.0458224597494594 0.5630044 -0.02213326 0.8261575 106 106 106
0.0462047336489784 0.0418475910048603 0.00495525031495009 0.5118025 0.7601849 -0.4002213 78 78 78
0.0487636802584754 0.0345708399038433 0.0175909283678523 0.8314805 -0.2054717 0.5161604 125 125 125
0.0292079923541175 -0.0304509376217008 -0.0118539151628026 0.6390521 -0.7659287 0.07046641 116 116 116
-0.0291637899487389 -0.00637938389967687 0.0089285555403224 -0.8846392 0.4564754 0.09509784 48 48 48
-0.0218113782017602 -0.0456373610575081 0.0111748757879725 -0.01267093 -0.5998005 0.8000492 178 178 178
-0.0360685112088097 -0.00922657112072713 -0.00268537969184007 -0.8016341 0.511029 0.3102129 47 47 47
0.0222004530818092 -0.0336171717424274 0.00677396684098158 0.3746105 -0.7587811 0.5328397 156 156 156
-0.0424962164967431 -0.0503657714505077 0.00834276109146986 0.1702859 -0.6808988 0.7123057 232 232 232
0.032259094515525 0.0518718331079602 0.00153754978585158 0.5990785 0.7246737 -0.3405186 73 73 73
0.022799718180381 0.0258998765568852 0.0347199025671474 0.4546819 -0.1867127 0.8708632 119 119 119
0.0401555774600135 -0.0212470472831608 -0.0131934699494847 0.741717 -0.659782 0.120597 93 93 93
0.0627547381312477 0.021341559193623 -0.00314508051467027 0.9822809 0.1032003 -0.1564414 102 102 102
-0.00860877057007681 0.0393032549839138 0.0220982614080897 -0.9189587 0.3914468 0.04779557 99 99 99
0.00600461939879526 -0.0564745446242721 -0.0372403678376683 0.2835385 -0.9583406 0.03448485 119 119 119
0.0102125285060035 -0.0492469531525255 -0.021684062190772 0.4824529 -0.7455236 0.4598192 171 171 171
0.0461419699580299 0.0321459813933491 0.0213304641764155 0.7424939 -0.1919059 0.6417748 132 132 132
0.0304344771296607 -0.0292943709571243 -0.00856153339934435 0.6728541 -0.7391198 0.03113259 95 95 95
0.026558148661338 0.00227190618921511 0.0302945259134761 0.3624382 -0.3030903 0.8813483 117 117 117
0.00184558610030283 0.0380958287935375 0.04458965688157 0.5900717 -0.08466258 0.8028995 136 136 136
-0.0435994388668908 -0.0578724428121329 -0.0288364705522069 -0.7850404 -0.5231528 -0.3316967 117 117 117
-0.0195866348355187 -0.0307215930004001 0.0235921922247401 0.03553809 -0.5795046 0.8141937 155 155 155
0.00407098511763682 0.0182089849333882 0.0426476481478206 0.5628366 -0.1419021 0.8142964 109 109 109
0.00999300459929575 0.0282298742752194 0.0403173151533595 0.3198869 0.008896411 0.947414 117 117 117
0.0475371954829322 -0.00309788370918043 0.0181891205828181 0.7177499 -0.4017623 0.5687022 171 171 171
-0.0332748415081872 3.09578101753485E-05 -0.0253293332536229 -0.6664778 0.4612278 -0.5857272 48 48 48
0.0425858376414405 0.026352707944405 -0.0289736208398351 0.6679196 0.6751307 -0.3131803 53 53 53
-0.0175705673306359 -0.0317738776136518 0.0232717278521052 -0.1375701 -0.5423126 0.8288375 198 198 198
0.0126163242251502 -0.0223425992805839 0.0296067777197352 0.3543552 -0.3921508 0.8489112 148 148 148
-0.0524330856411828 -0.0319121417630792 -0.014739584632636 -0.9971149 -0.03422867 -0.06775159 88 88 88
-0.0202831151097191 -0.0127227933187366 0.0398706975500575 -0.1757447 -0.3844569 0.9062597 214 214 214
-0.00621635933808218 0.0198452292900204 0.0482645514528743 0.4729268 -0.06173906 0.878936 168 168 168
0.018458771506034 -0.0319845241535784 0.0212125959913722 0.6778172 -0.6334764 0.3731909 111 111 111
-0.0276315929501427 -0.0399942372966886 0.0192452254812709 0.2446629 -0.8523566 0.4621993 180 180 180
-0.0272786738484276 -0.00199889699410207 0.0153992655794612 -0.9366972 0.349681 0.01792861 61 61 61
0.00653611401625742 -0.017800349094379 0.0330999973337642 0.2666374 -0.3877912 0.8823392 147 147 147
-0.0441315295308007 -0.0237027772743583 0.000664818577050308 -0.8040152 0.4693134 0.3651088 81 81 81
-0.0413833381741417 -0.0218668797094703 0.00630851416993056 -0.7906978 0.5361817 0.2954762 90 90 90
-0.00974441786698232 0.0187976851086735 0.0499380412619105 0.3653543 -0.001800358 0.9308668 144 144 144
-0.00360740443161855 -0.0378196996677995 0.0249626818220607 -0.1617318 -0.5860956 0.7939363 168 168 168
-0.0093855383007897 0.022107307515633 0.0497819963018886 0.3461949 -0.0007936388 0.9381623 149 149 149
0.00974314192839731 -0.0276307028759599 0.0282190623800746 0.3359503 -0.3528022 0.8733087 197 197 197
0.026944267550193 0.0541616870980381 -0.00523291201186266 0.7690908 0.5926855 -0.239214 51 51 51
-0.0346375825016869 -0.0149713263888241 0.00991462498116408 -0.8014126 0.5517555 0.2308758 70 70 70
0.0161557076365577 0.0662277831654667 0.0310720387022487 0.5615801 0.05333865 0.8257014 126 126 126
-0.0416720630734337 -0.0537581402384073 0.00277687936234389 -0.02416425 -0.8322704 0.553843 203 203 203
-0.0439498545735253 -0.0219411731738926 -0.000620853610754868 -0.7910516 0.494251 0.3604905 94 94 94
-0.0511270882695092 -0.0477896219160736 -0.0129594919164189 -0.9430416 -0.2066218 -0.2607298 106 106 106
0.0222578523547279 0.0478503226261257 0.03155996232438 0.2485642 0.274408 0.9289328 125 125 125
-0.0221910001843346 -0.0700822223950506 -0.0304409679849156 0.08296961 -0.8495981 -0.5208639 107 107 107
0.00252048949309458 0.0640028162818073 0.0130766215841762 -0.8981344 0.4391854 0.02169622 101 101 101
-0.0517630698292626 -0.0276779730845571 -0.00891469091963853 -0.9362388 0.2259553 0.2690748 56 56 56
-0.0142415287106408 0.0262503742199063 0.0272617223780147 -0.9429197 0.3312164 -0.03461274 107 107 107
-0.0264610173313988 -0.0626480326097787 -0.00892682046485033 0.2515337 -0.2593292 0.9324586 176 176 176
0.0356811163813697 -0.0274005376775146 -0.0380306956250676 0.7524834 -0.6440616 -0.1376709 90 90 90
-0.0245758416264428 0.00548275252391093 0.0309517565290919 -0.829981 0.5497266 -0.0945099 90 90 90
0.0206679580599891 -0.0481230614748181 -0.0347784575898656 0.6621624 -0.7201056 0.2073376 99 99 99
0.00942515114852061 0.0726894929032444 0.0275381985228053 -0.6861137 0.5909441 0.4243032 66 66 66
-0.0242351414769066 -0.0730649021495462 -0.0151157495458135 0.1627204 -0.9648977 0.2061419 222 222 222
-0.0112283351033104 0.0340290411334156 0.0412031593840114 -0.905013 0.4156354 0.09054699 85 85 85
0.0393605707079994 0.034455817840588 -0.0202268776376256 0.6229603 0.6707397 -0.402528 68 68 68
-0.0266881706326378 0.00057770376611941 0.0226588132898799 -0.8746668 0.4796717 -0.06980718 61 61 61
-0.00601954480103384 -0.0386261244345785 0.0238304319899074 -0.2780228 -0.6230568 0.7310975 166 166 166
0.0239984867961036 -0.0363814712543369 -0.000720870204687973 0.5284806 -0.8468784 0.05920437 141 141 141
0.00227062682219614 0.0606207369785427 0.0312017682116023 -0.8241071 0.5382396 0.1764814 53 53 53
-0.0457328083126916 -0.0628144888248623 -0.0064280745465764 -0.2190108 -0.7869434 0.5768487 236 236 236
0.0226894495875465 0.0504456504206776 -0.0226395246465215 0.6251083 0.6607182 -0.4155612 59 59 59
-0.0204194309323205 0.00399384339858287 0.0477547529261104 -0.3185001 -0.4670693 0.824866 168 168 168
-0.0200560214131249 -0.0370394115377546 0.0202844324629298 0.02935946 -0.7065073 0.7070965 158 158 158
-0.0201922776310814 0.0137442245106816 0.012263167194604 -0.9248409 0.3799095 -0.01838665 79 79 79
-0.0399751188366784 -0.0479549125809551 0.00891228347229872 0.03316079 -0.6430831 0.7650781 220 220 220
-0.00783653279236685 0.0379318862180828 -0.0034283813912877 -0.8493034 0.5269905 0.03106119 120 120 120
-0.0121027352421654 -0.0425732082728625 0.0155010107080928 -0.1573332 -0.8189589 0.5518628 157 157 157
-0.0416028620808495 -0.0142478303093792 -0.0255706724603185 -0.8007984 0.3368941 -0.4952013 49 49 49
0.00538228730269541 0.0609438388567089 -0.00570310325217332 -0.6750394 0.6744868 -0.2989806 19 19 19
-0.0290957214444054 -0.0546364972176359 -0.00150130362105455 0.6064993 -0.7786844 0.1606526 116 116 116
0.0276710865885841 0.0606090395670056 0.0112450602571956 0.7788357 0.5564617 -0.2894224 76 76 76
0.00775580386229624 -0.0430702923838378 0.0171825471441737 0.4327381 -0.8866503 -0.1630614 169 169 169
0.00983397940703501 0.008551773331654 0.0382552626650325 0.4079919 -0.05787138 0.9111496 143 143 143
-0.0033394219487084 0.0526740669231533 0.0189105454008571 -0.9233368 0.3836116 -0.01706811 114 114 114
-0.0250982763378991 0.0071457966189503 0.0023917439501277 -0.8861959 0.4100558 0.2156642 78 78 78
-0.0258402349560631 -0.0732127868611694 -0.023406576820136 0.08035235 -0.9893039 -0.1217424 178 178 178
-0.00197662135056387 0.0480086400132298 -0.0214085397202977 -0.621376 0.6700937 -0.4060374 92 92 92
0.00597285012312998 0.0496245815377354 -0.0238945302445897 -0.3378799 0.7023622 -0.6265178 57 57 57
-0.00760943909577261 0.0277295007329106 0.0495431604902736 0.3762018 -0.138396 0.9161434 161 161 161
