ply
format ascii 1.0
comment File exported by Rhinoceros Version 7.0
element vertex 473
property float x
property float y
property float z
property float nx
property float ny
property float nz
property uchar red
property uchar green
property uchar blue
end_header
0.0399550573392724 -0.169064507835281 0.00300774593776654 0.9717474 -0.2292931 0.05596132 93 93 93
0.0413570691333476 -0.163064077743995 -0.00218357134748204 0.9633305 -0.2563479 0.07924674 56 56 56
0.0408964737142106 -0.163760223408033 -3.69637404805112E-05 0.9687409 -0.2419069 0.05497276 48 48 48
0.0431386530949367 -0.161150099082128 -0.0117798575375175 0.9668666 -0.2470409 0.06434151 99 99 99
0.0426711857829409 -0.161727368477168 -0.00820569992419551 0.9607928 -0.2571766 0.1036214 126 126 126
0.0431001439580316 -0.160487384580449 -0.0132813729627808 0.9724479 -0.2290487 0.04337892 119 119 119
0.0437364769037085 -0.15795670773763 -0.0103209079223814 0.977642 -0.1968184 0.07401811 88 88 88
0.0683016586080289 0.0497784747641189 0.00827083415695545 0.9985185 -0.01102828 0.05328321 66 66 66
0.0439311134709266 0.200296678791632 -0.0130967659199751 -0.01000743 0.9995559 -0.02806997 81 81 81
0.0693358792234013 -0.000910870832140254 -0.00311035877082855 0.9987544 0.01414267 0.04784994 22 22 22
0.0637806114997743 -0.0714956415917231 0.00899180366022956 0.9675983 -0.2442952 0.06382271 99 99 99
0.051847406331095 0.140997065954226 0.0257218336509227 -0.04643961 0.02311569 0.9986536 150 150 150
0.0679193247559664 -0.0340536250383313 0.0152072724670443 0.9993838 -0.001914684 0.03504688 22 22 22
0.0686316315877238 0.136469274368995 -0.0151447932092691 0.9987573 0.01564261 0.04731977 73 73 73
0.0050038012754734 -0.0874170126035528 0.028543496908808 -0.02595802 0.02894314 0.999244 104 104 104
-0.0170534501477384 0.146995023997394 0.0228769728344201 -0.02941431 0.01148578 0.9995013 182 182 182
0.0107927661851699 -0.0940111454758286 0.029292241893823 -0.03866056 0.01591212 0.9991257 126 126 126
0.0685496872846247 0.0265187447381181 0.00771872972087267 0.9999909 -0.003513087 0.002423483 63 63 63
-0.0522997275408024 0.142790501346747 0.020451028557414 -0.8678669 0.06246503 0.4928541 35 35 35
0.0606415481018523 0.106531216635126 0.0267005480711054 -0.03832516 0.02113784 0.9990417 131 131 131
0.0659114596232517 -0.0451487155541479 0.0297077962478773 0.3970201 -0.1095143 0.9112528 103 103 103
0.0661585531227975 -0.0627431809271953 0.00760367025976633 0.9723644 -0.232853 0.01694009 92 92 92
0.0315726133043763 0.199256733689309 -0.0256086157811042 -0.01093855 0.9991645 -0.03937995 83 83 83
0.0211835104252152 -0.197074594650134 0.0315850510922256 -0.00511404 -0.3100344 0.9507116 124 124 124
0.022322807568004 -0.198876145003148 0.0316793837756414 -0.04617891 -0.6887549 0.7235221 188 188 188
0.0250896065674757 -0.195560711122393 0.0316264002903349 -0.08139815 -0.1751229 0.981176 158 158 158
0.0270870053185059 -0.197521485985703 0.0320942573953101 0.1291846 -0.4812897 0.86699 115 115 115
0.0366954972573588 -0.02721569708065 0.0284461655767588 -0.03031771 0.02357608 0.9992622 109 109 109
0.024659785280237 -0.191460328938402 0.031463480470821 -0.04688746 0.02476882 0.998593 151 151 151
0.0269769932553099 -0.190918914012038 0.0316345274500262 -0.04668076 0.0381071 0.9981827 174 174 174
0.028310380168115 -0.195090884176582 0.0321551898772615 -0.01524538 -0.002930661 0.9998795 158 158 158
0.029543036496062 -0.191736310815669 0.0320046362856891 -0.03472636 0.02764512 0.9990144 108 108 108
0.0337269794454267 -0.187307548963738 0.0222072444242424 0.9598927 -0.2556697 0.1150605 134 134 134
0.0690772518701621 -0.00587454029878265 0.00376561873597026 0.9990033 0.03389134 0.02904847 26 26 26
0.0284809966486343 -0.187746730874622 0.0316360705052864 -0.02966912 0.03495816 0.9989483 138 138 138
0.0304504545588706 -0.187775350876852 0.0315512460910846 0.2359246 0.001939673 0.9717694 149 149 149
0.0305032356940491 -0.189661138421953 0.0314107928949034 0.1394584 0.05324178 0.9887956 121 121 121
0.034638190318192 -0.183516392515529 0.024578431698263 0.9596004 -0.2555488 0.117736 84 84 84
0.0346234797248974 -0.183409715024942 0.026473549740681 0.9202098 -0.3075703 0.2421042 85 85 85
0.0307449021282009 -0.183265855559049 0.0315282312987509 0.2071535 -0.07952069 0.9750712 161 161 161
0.0329460239282087 -0.179512388797548 0.0315007803798673 0.4197615 -0.1183861 0.8998805 173 173 173
0.0340787983199848 -0.181302119545055 0.0305373479520452 0.6873955 -0.2512158 0.6814529 177 177 177
0.03404074463805 -0.18021888969649 0.0317774402633748 0.6032009 -0.1297539 0.7869641 158 158 158
0.0225226655095363 0.199815179100961 -0.00458150056680606 -0.007776546 0.9995144 -0.03017418 92 92 92
0.0353847222262358 -0.179276854804707 0.0295730004047914 0.9001539 -0.07963985 0.4282295 148 148 148
0.0357671100673449 -0.182722645115182 0.0166155404550994 0.9757406 -0.2000119 0.08902618 91 91 91
0.0355387186124858 -0.181453646745417 0.0197857348596867 0.9723892 -0.2139589 0.09317095 113 113 113
0.0364986818931543 -0.180857505832516 0.015797318927523 0.9841672 -0.1615119 0.07299981 123 123 123
0.0362620614919797 -0.178986882533413 0.017844924247618 0.9844607 -0.1641939 0.0622704 68 68 68
0.0362541234275109 -0.177611328316786 0.0236410277149195 0.9792437 -0.189237 0.07260228 103 103 103
0.0355465020349746 -0.18022521921763 0.0235916883923462 0.9686015 -0.2345629 0.08240905 122 122 122
0.036070481907462 -0.179140026199491 0.0232523932530981 0.9774483 -0.1989554 0.07079196 127 127 127
0.036833444357121 -0.175606879618634 0.023963028835676 0.9802204 -0.1775119 0.08750658 86 86 86
0.0376734160287153 -0.174281177038212 0.00954201206035188 0.9629364 -0.2637942 0.05626785 53 53 53
0.0379639785537225 -0.171405364881608 0.0134361331285368 0.9624128 -0.2603167 0.07743962 100 100 100
0.03818196665764 -0.171630942372577 0.00800877019139473 0.9535463 -0.2918375 0.07470076 53 53 53
0.0395039785555298 -0.169467499570845 0.00630982969743604 0.9681301 -0.2396397 0.07278083 95 95 95
0.039096883961562 -0.16862944917557 0.0111540950516849 0.9684899 -0.2359042 0.07985246 55 55 55
0.0399362883324894 -0.165372330342194 0.0099191673730078 0.9781934 -0.1886113 0.0869683 101 101 101
0.0385412952228168 -0.167899675255135 0.0179544675261257 0.9663927 -0.2359315 0.1020858 104 104 104
0.0396033010639569 -0.166178229969037 0.0158671099579256 0.9795474 -0.189183 0.06853123 70 70 70
0.0360169273570938 -0.177581906908823 0.0260887645805872 0.964126 -0.1594484 0.21222 97 97 97
0.0341579105529788 -0.175191123794627 0.0312459720359935 0.6006846 0.06024709 0.7972128 186 186 186
0.0365015213853623 -0.173343742444443 0.026044200516776 0.9501445 -0.1433893 0.2768845 115 115 115
0.0374594946991422 -0.169795530725933 0.0255219434984962 0.9276618 -0.2032228 0.3132794 105 105 105
0.0377589027457934 -0.168084003414427 0.0260946970503256 0.909545 -0.2231242 0.3506329 109 109 109
0.0340597001011007 -0.173466953301898 0.0314357013682589 0.3786895 -0.03992587 0.9246622 139 139 139
0.0377208585105366 -0.169388857001511 0.0208387203444327 0.9623614 -0.2470699 0.1132122 79 79 79
0.038842026774653 -0.167030192135051 0.0199451368880241 0.9686776 -0.2244069 0.106326 131 131 131
0.039090803603095 -0.165712175258988 0.0186563971934881 0.9715331 -0.2162243 0.09680182 104 104 104
0.0400969786613694 -0.16165207139677 0.0193975546266933 0.9603459 -0.2644464 0.08833945 141 141 141
0.0401663523430087 -0.161661864031539 0.0221805816659463 0.9639545 -0.259899 0.05695827 119 119 119
0.040234185810148 -0.165026973191093 0.00309550611368964 0.9795429 -0.1923955 0.05898891 30 30 30
0.0407950170230613 -0.163703786244347 0.00453016060019046 0.9741502 -0.2165513 0.06431892 83 83 83
0.0402393430007368 -0.16504590630957 0.00933739798837779 0.978202 -0.1880285 0.08812485 116 116 116
0.0410278644555486 -0.161360696956312 0.00830125862695091 0.965284 -0.2332142 0.1176345 80 80 80
0.0417220592689707 -0.160110818144035 0.00470397033206177 0.9611741 -0.2616517 0.08765097 66 66 66
0.040133844357737 -0.163492103841659 0.0110308667612613 0.9782879 -0.1908537 0.08079356 103 103 103
-0.0130122961333927 -0.0867770330018723 0.0279131435516634 -0.04108651 0.0154107 0.9990367 121 121 121
-0.00710090838198374 -0.0891285304617599 0.0280838570652384 -0.03454786 0.02382886 0.9991189 121 121 121
-0.00504988945829288 -0.0892233701778884 0.0282054094426405 -0.03239242 0.02615397 0.999133 115 115 115
0.00249784982305723 -0.0953330516239508 0.0285499807916682 -0.0294349 0.01116321 0.9995044 119 119 119
-0.0207971050489617 0.199478159048988 0.0119883257774405 -0.01971801 0.9988732 -0.04316829 57 57 57
0.00731548415907435 -0.0990645305451825 0.0289611636023708 -0.03745766 0.01802394 0.9991357 139 139 139
0.00731864341788224 -0.0970642776519218 0.0286632854779382 -0.03729169 0.01960146 0.9991122 127 127 127
0.0106935414186515 -0.099586855142244 0.0288689141822464 -0.03444793 0.01416085 0.9993061 147 147 147
0.014760643716937 -0.101689715742294 0.0291743096060166 -0.03824196 0.01011831 0.9992173 158 158 158
0.0208824625431356 -0.105367443356827 0.0294805287974329 -0.04805599 0.02991969 0.9983965 149 149 149
-0.0151769374818223 -0.0808568740950957 0.0276159052156066 -0.03452028 0.02862442 0.998994 118 118 118
-0.0112473742754671 -0.0792693783067782 0.0277243847884349 -0.03863795 0.02198737 0.9990113 118 118 118
-0.00894686471009853 -0.0791098987754064 0.0278254552083836 -0.02971866 0.02045487 0.999349 121 121 121
-0.00775744296508574 -0.0870114865363171 0.0281794051704251 -0.03160027 0.0193372 0.9993135 146 146 146
-0.00760939832087226 -0.0831500347682509 0.0280707256975277 -0.0285725 0.02846942 0.9991862 117 117 117
-0.00698932865336221 -0.0805850927703728 0.0278601489290079 -0.03273437 0.02121457 0.9992389 124 124 124
-0.0113292864441314 -0.0770511421867214 0.0275815560075921 -0.03802355 0.02219421 0.9990304 121 121 121
-0.00303139342364345 -0.0813366521955594 0.0280022185148035 -0.04078326 0.02688666 0.9988062 127 127 127
-0.00882276585325759 -0.0752082048318471 0.0278147061036163 -0.03340983 0.02009154 0.9992397 119 119 119
-0.00922769133015056 -0.0719566276257092 0.0276503347624303 -0.03310883 0.02185805 0.9992127 118 118 118
-0.00529092996042868 -0.0771603067294288 0.0279516310490687 -0.03623755 0.01503056 0.9992301 123 123 123
-0.00327471581353356 -0.0759424854716825 0.0280081368485319 -0.03911604 0.01530052 0.9991176 114 114 114
-0.00134275585007781 -0.0750773520639125 0.0280290770042897 -0.04005133 0.01889836 0.9990189 117 117 117
-0.003209250390944 -0.0871920170961815 0.0283580408215456 -0.05080808 0.02747822 0.9983304 121 121 121
-0.00318294748586201 -0.0854677519435615 0.0281073213458358 -0.04588097 0.0217342 0.9987105 124 124 124
0.000736762747229225 -0.0913371159510044 0.0285509664936264 -0.05918157 -0.002621183 0.9982438 128 128 128
0.00173940531012784 -0.0893690606078107 0.0290262621657475 -0.06303672 0.01060592 0.9979548 129 129 129
-0.0215977487108214 0.18260370605638 0.0219605175365523 -0.02643638 0.01322716 0.999563 161 161 161
0.00450810382012001 -0.0892816619971121 0.028530158125972 -0.02229026 0.0144799 0.9996467 124 124 124
-0.00152430062930708 -0.0812031082987322 0.0281117839952892 -0.0512885 0.02633613 0.9983366 121 121 121
0.00289124266544327 -0.0817140628311741 0.0283310023833227 -0.0591295 0.03504694 0.9976349 109 109 109
0.00473826007662748 -0.0850624302358088 0.0284721339849701 -0.03169259 0.04079331 0.9986649 115 115 115
0.00679203083511704 -0.0812306071601919 0.0285018254439164 -0.04919512 0.01702299 0.9986441 102 102 102
-0.00542784660445816 -0.0711767365729922 0.0276520822265108 -0.03701587 0.02157173 0.9990819 115 115 115
0.00281760152702759 -0.0774884432645677 0.0282424255933328 -0.05062061 0.03298461 0.9981731 102 102 102
0.00473102924338598 -0.0771283695329724 0.0282116987392164 -0.06041328 0.02870932 0.9977605 91 91 91
0.00639439198921732 -0.0772215997751963 0.0284387542659448 -0.05165869 0.04091843 0.9978262 118 118 118
0.0688725038138007 -0.0417759096811632 -0.00287701403933543 0.9985089 0.02353929 0.04925251 35 35 35
-0.0032349477106095 -0.0691739912719348 0.0278797134959881 -0.04066587 0.01786375 0.9990131 124 124 124
-0.0051320308648708 -0.0638304807067387 0.0276631565406006 -0.04131958 0.0218194 0.9989077 117 117 117
-0.00364902331919303 -0.063666870151818 0.0276928963327164 -0.04158504 0.02358135 0.9988567 114 114 114
-0.00163580994947798 -0.0613094860485189 0.0276733558161218 -0.04288041 0.02496532 0.9987683 118 118 118
0.000564425815803293 -0.0614243050369891 0.0277838192071677 -0.04065137 0.02394618 0.9988864 119 119 119
-0.00100004614963956 -0.067528109847796 0.0278767394796303 -0.04496425 0.01519373 0.9988731 123 123 123
0.00451888092877661 -0.0634622508627625 0.0280918363507694 -0.04009514 0.02153738 0.9989637 114 114 114
0.00668843689137733 -0.0730235133444304 0.0281486080052017 -0.03870342 0.03207749 0.9987357 105 105 105
0.0114979917848412 -0.0775594790982074 0.0286695829906972 -0.03001492 0.0351846 0.99893 104 104 104
0.00477554055733931 -0.0691724189064751 0.0281374918335416 -0.03870187 0.01225859 0.9991756 112 112 112
0.00695191064723399 -0.0689395254290148 0.0281343515058911 -0.03418409 0.0136003 0.999323 107 107 107
0.00656617333247667 -0.0672019831642804 0.0282112886407448 -0.0336436 0.0167658 0.9992933 106 106 106
0.0086634797527454 -0.0734476600360358 0.0283157233756992 -0.03335094 0.03952483 0.9986619 114 114 114
0.0129498369309355 -0.075469128482755 0.0284518522169566 -0.04224939 0.025711 0.9987762 107 107 107
0.0127180967781841 -0.0712467482358126 0.0284421965833278 -0.04003344 0.02267933 0.9989409 118 118 118
0.0665974597678791 -0.0549718080345472 0.0261670587104809 0.8399389 -0.3067397 0.4476756 151 151 151
0.00556299850444253 -0.0955554737981762 0.0288657193807081 -0.03521487 0.01021415 0.9993275 152 152 152
0.00738028239728106 -0.0946201232000589 0.028521874548975 -0.03702712 0.006403663 0.9992937 127 127 127
0.0086801685590272 -0.0913252214981153 0.0286882813671033 -0.03736503 0.01191837 0.9992306 104 104 104
0.0103567189097444 -0.0907756292243964 0.0287306754662699 -0.03303675 0.01670282 0.9993145 113 113 113
0.0120886816897281 -0.0974960006644183 0.0288669482942351 -0.02142166 -0.006465416 0.9997496 136 136 136
0.0123083505793975 -0.0955977054121077 0.0288252982607131 -0.01588879 0.006886578 0.99985 138 138 138
0.00933608394242391 -0.0936502829531551 0.0289585366888179 -0.04240559 0.008129911 0.9990674 98 98 98
0.0694876157487503 -0.0351513275266354 -0.0189337695024112 0.99868 0.04725513 -0.02013004 31 31 31
0.0126776406112579 -0.0956810902435333 0.0291627034679546 -0.01978947 0.002087421 0.999802 139 139 139
0.0142057697932527 -0.0951444365085291 0.028884777102483 -0.02015497 0.007550501 0.9997684 123 123 123
0.0150278005141744 -0.0936405042556068 0.0290985709915023 -0.0120438 0.01301545 0.9998428 154 154 154
0.00848450218805974 -0.085266124173227 0.02849953001019 -0.04333325 0.01868145 0.998886 127 127 127
0.010439613202172 -0.0835019810745 0.0286204351046804 -0.04268262 0.02731226 0.9987153 114 114 114
0.0127077539168972 -0.0852371438481327 0.0286144582052358 -0.03871703 0.007088477 0.9992251 114 114 114
0.0101754032954013 -0.0842834680683568 0.0290126535178709 -0.03467983 0.02155798 0.999166 115 115 115
-0.0410683516500632 0.154820105611986 0.0216341071931472 -0.03836597 0.02836299 0.9988611 169 169 169
0.0126378056377519 -0.0877184884218981 0.0291464182215633 -0.03364411 0.01257329 0.9993548 118 118 118
0.0151492811690233 -0.0869316152943226 0.02883803565174 -0.03336166 0.009171779 0.9994013 121 121 121
0.0170016645485891 -0.0894716125916705 0.0292032271424335 -0.02721284 0.006379491 0.9996093 123 123 123
0.0169109233351152 -0.0868406040325849 0.0289106201658276 -0.01990973 0.005553988 0.9997864 115 115 115
0.0168619814106772 -0.100966668392954 0.0293236410117845 -0.04086151 0.02515648 0.9988481 147 147 147
0.0148698592373293 -0.0976956929721532 0.028930060101011 -0.03238912 -0.002068019 0.9994732 135 135 135
0.0191705741348276 -0.0973476670029393 0.0292307494771237 -0.03597839 0.0248941 0.9990425 127 127 127
0.0184656709057638 -0.102976356724555 0.0293748116877195 -0.03732974 0.01978571 0.9991071 155 155 155
0.0207138254539077 -0.103513287505408 0.0294178682547828 -0.04474095 0.02314658 0.9987304 147 147 147
0.0688340977240625 0.0497590586666627 -0.0166044146751194 0.9999135 0.01260314 -0.003753338 45 45 45
0.0229677318907968 -0.099419357956418 0.0293013653009584 -0.06065614 0.02128985 0.9979317 110 110 110
0.0212744425048683 -0.0967475886014217 0.0289873451523361 -0.04180036 0.01304351 0.9990408 108 108 108
0.0162637393277616 -0.0937509167680828 0.029194420640775 -0.0202904 0.01105371 0.999733 134 134 134
0.0190107904301686 -0.0934207443617908 0.0291958123412246 -0.02742948 0.004017319 0.9996157 139 139 139
0.0183669006005682 -0.091436461571733 0.0289395922707496 -0.01958559 0.01253307 0.9997296 142 142 142
0.0210287964641562 -0.0912875611457878 0.0292196538948395 -0.03917792 0.0209252 0.9990131 138 138 138
0.0642535205038954 0.0445762848496045 0.0281391319064159 -0.04230212 0.01589278 0.9989784 142 142 142
0.0226072831383406 -0.0914563693388559 0.0292943469760938 -0.04954742 0.02293815 0.9985083 127 127 127
0.0227737004340853 -0.0953342821980371 0.0294384893666341 -0.05849565 0.02659825 0.9979333 132 132 132
0.0678811222129103 0.0163081989305868 0.0259659857386503 0.8686569 -0.0374577 0.493996 10 10 10
0.0269799580317853 -0.0949605490025887 0.0294897179909644 -0.04021712 0.0294232 0.9987577 120 120 120
0.0150579995743172 -0.0834427893350371 0.0287785047687588 -0.04533702 0.02169147 0.9987362 107 107 107
0.0167285158768888 -0.0852700689783635 0.0289082495596588 -0.02219665 0.01404149 0.999655 145 145 145
0.0184029071645249 -0.0853065120132133 0.0288935107011952 -0.01841628 -0.001818682 0.9998288 124 124 124
0.0231337777902616 -0.0853956994509882 0.0292835001415759 -0.02874779 0.005289015 0.9995727 154 154 154
0.0231035579866159 -0.0894169405387959 0.0293841896926455 -0.03077103 0.02546772 0.999202 144 144 144
0.0233703118641104 -0.0871508022773838 0.0292971839705247 -0.03944127 0.001152193 0.9992212 133 133 133
0.0246743604638548 -0.08744234373135 0.0293628392847165 -0.04181117 0.005639359 0.9991096 149 149 149
0.055008110024628 -0.116421922772119 -0.0173898296944998 0.9604259 -0.2743312 0.04821409 71 71 71
0.0267488101838169 -0.0890860521306385 0.0293716569538188 -0.04078775 0.02049531 0.9989576 145 145 145
0.0286941790089816 -0.0912265135538585 0.0294942600222213 -0.05167281 0.04091706 0.9978255 142 142 142
0.01324165469982 -0.0767615744633916 0.0286584170447795 -0.04643476 0.02276273 0.9986619 115 115 115
0.0169263495949705 -0.080940156414388 0.0291490391614456 -0.03467885 0.03867437 0.9986499 147 147 147
0.0145097606532767 -0.0767975393208228 0.0284855897549572 -0.04431165 0.02368605 0.9987369 109 109 109
0.0168278219531874 -0.0751974716577789 0.0287079869530873 -0.05737088 0.02182378 0.9981143 110 110 110
0.0164830162813114 -0.0728635238332687 0.0288319703156388 -0.04178528 0.02155026 0.9988942 114 114 114
0.0202725570785063 -0.073490254715328 0.0287197568868569 -0.04222063 0.0337045 0.9985396 114 114 114
0.0225297289228097 -0.0772996692233813 0.028965421265792 -0.03334613 0.003861022 0.9994364 107 107 107
0.022832913604196 -0.0752042989771403 0.0289234667448199 -0.03919761 0.03241748 0.9987055 114 114 114
0.024672537221734 -0.0752360270881224 0.0289247907428021 -0.01156085 0.02944662 0.9994995 107 107 107
0.0241033161095698 -0.0761910690337106 0.0297363927750094 -0.03093591 0.02029571 0.9993153 130 130 130
0.0250827857947282 -0.0848427221988809 0.0294563756039971 -0.03370536 0.006452041 0.999411 188 188 188
0.0271977805790535 -0.0850825557015852 0.0294257816984119 -0.02492665 0.01236252 0.9996129 186 186 186
0.0279686214064521 -0.0885601474342732 0.0291885850639392 -0.03970601 0.02265128 0.9989547 133 133 133
0.0265790336025251 -0.0866821721196718 0.0291157221828354 -0.037923 0.01284652 0.9991981 153 153 153
0.0307693461607514 -0.0871602290792394 0.0295450733561087 -0.03998534 0.03295059 0.9986568 123 123 123
0.0267332642918907 -0.0791400600807881 0.0290645461052073 -0.02555045 0.001434265 0.9996725 122 122 122
0.0285829858323541 -0.0801918587107033 0.0294352102930718 -0.03027005 0.008616226 0.9995046 119 119 119
0.0287129446393544 -0.0834552929522512 0.0294152742407884 -0.02823658 0.00658842 0.9995795 154 154 154
0.0292998240079649 -0.0837722242236112 0.0291804889540195 -0.03194451 0.008748135 0.9994513 130 130 130
0.0330493738485034 -0.0854447281562084 0.0295339342356712 -0.02792794 0.02035536 0.9994026 134 134 134
0.0129504643841174 -0.0455001198425802 0.0279097254510363 -0.03452352 0.02464966 0.9990999 111 111 111
0.0326637648540054 -0.0811351344977165 0.0294767217733276 -0.04522336 0.008791155 0.9989382 104 104 104
0.0347874125508443 -0.0812466829152636 0.0295275444898547 -0.03540102 0.01162036 0.9993056 99 99 99
0.0247907247650612 -0.109417137033055 0.0296101310164183 -0.05116996 0.01821668 0.9985238 128 128 128
0.0306606019490028 -0.111208960134344 0.029966821324299 -0.04104422 0.02780352 0.9987704 137 137 137
0.0349779053510675 -0.115147059918111 0.030192080364746 -0.03153029 0.0292816 0.9990738 139 139 139
0.0409833944665152 -0.116982662639633 0.030540016707156 -0.02506521 0.03300129 0.999141 129 129 129
0.0449260721806124 -0.119069674993207 0.0307633994399616 -0.005025815 0.02512754 0.9996716 116 116 116
0.0472118559247612 -0.123059896653315 0.0307233082282426 0.4246267 -0.1339916 0.8953984 131 131 131
0.0265842682284845 -0.101499846878598 0.0296458646411545 -0.04943093 0.01702746 0.9986324 177 177 177
0.0286114595077112 -0.109600275067082 0.02995804718602 -0.0399829 0.0210261 0.9989791 185 185 185
0.0307870343003982 -0.105346982244822 0.0297303758693683 -0.03596497 0.02819432 0.9989552 150 150 150
0.0300999571236282 -0.101754383141747 0.0297372646411192 -0.03276602 0.01888916 0.9992846 168 168 168
0.0309748282873406 -0.0954962915557228 0.0296827041731008 -0.02956245 0.03461313 0.9989635 124 124 124
0.0369876754019578 -0.101346741844355 0.0300278945256318 -0.0403698 0.01740035 0.9990333 116 116 116
0.0349524070919696 -0.111406242643225 0.0303690177694364 -0.03927254 0.0160098 0.9991003 162 162 162
0.036598373731338 -0.109593205282936 0.0300571189929291 -0.03218622 0.02645964 0.9991316 124 124 124
0.038568932955378 -0.106877148195259 0.0302013827342799 -0.03066046 0.0228366 0.9992689 112 112 112
0.0408187811616982 -0.113255158354481 0.0303805902572997 -0.02908469 0.02186434 0.9993378 106 106 106
0.0424525030686684 -0.111280404699944 0.0304549827878329 -0.03240775 0.02141475 0.9992453 111 111 111
0.0429956094752302 -0.103018413681317 0.0302837285310772 -0.03856317 0.01157985 0.9991891 107 107 107
0.00539245331463967 0.153876299621417 0.0235985663122481 -0.03115754 0.02190176 0.9992745 188 188 188
0.0445123229966176 -0.103161596841739 0.0303891277221087 -0.03960641 0.01733952 0.9990649 107 107 107
0.0367349094250997 -0.0969562680199837 0.0299482609077699 -0.04789934 0.03018743 0.9983959 117 117 117
0.0389326920902806 -0.0972027153340796 0.0301806413188727 -0.04858558 0.03052312 0.9983525 121 121 121
0.0367420330799466 -0.0934607670191333 0.0298774886777772 -0.04999129 0.04182963 0.9978733 111 111 111
0.0349414486302377 -0.0893343675909311 0.0297243206298562 -0.02921294 0.02030067 0.9993671 101 101 101
0.0369098592468777 -0.0894716389320387 0.029917904595288 -0.04963497 0.01851275 0.9985958 119 119 119
0.0369956577450061 -0.0830237685916188 0.029730248981521 -0.04177893 0.01354594 0.9990351 112 112 112
0.0385519378627786 -0.0851978029941821 0.029710601794814 -0.0523177 0.02069463 0.9984161 108 108 108
0.0387499253296708 -0.0889097440851483 0.0298539984175665 -0.05056442 0.02267083 0.9984635 109 109 109
0.0445692731314731 -0.09536038433367 0.0301811327051015 -0.03451811 0.02640718 0.9990551 103 103 103
0.047292681397165 -0.0990673612313916 0.0305094771951286 -0.02637372 0.02408153 0.9993621 148 148 148
0.0491652442383907 -0.101487255760784 0.030544982575259 -0.03182905 0.02815344 0.9990968 120 120 120
0.0446991464522113 -0.0937120041238501 0.030179519045683 -0.03579311 0.02384182 0.9990748 98 98 98
0.0449231659218063 -0.0893869261091811 0.0299546535122119 -0.04074724 0.0209315 0.9989502 106 106 106
0.0487708625504242 -0.093265071079627 0.0303081934959014 -0.03133043 0.01768246 0.9993526 96 96 96
0.0488986866437959 -0.0974258727931123 0.0302954110311635 -0.02723176 0.0171652 0.9994817 123 123 123
0.0511027965191508 -0.097140473097145 0.0305338453526833 -0.02712386 0.01900873 0.9994513 131 131 131
0.0509602970869909 -0.094744626540182 0.0303972350786704 -0.02944173 0.0115432 0.9994999 104 104 104
0.0523511569832009 -0.0953155782359681 0.0304944709189804 -0.02378266 0.01181728 0.9996473 121 121 121
0.0422040862087889 -0.115484459496465 0.0304586629025788 -0.03240822 0.02069145 0.9992605 118 118 118
0.0445979305228694 -0.116850272833761 0.0306617635850353 -0.01974528 0.003278341 0.9997997 116 116 116
0.0685261501441405 -0.0193890609173986 0.00926621635131958 0.999593 -0.02537068 -0.01304382 22 22 22
0.0464124605026117 -0.115009471795876 0.0306306438148933 -0.02773479 0.0001362403 0.9996153 130 130 130
0.0479499768427858 -0.118463561841919 0.0304811695478657 0.3715719 -0.1297856 0.9192877 100 100 100
0.0501635433211267 -0.109044723605555 0.0308862552523743 -0.0517901 0.0186628 0.9984836 148 148 148
0.0505747701595674 -0.107077163085169 0.0306472602882819 -0.03971659 0.02633041 0.998864 157 157 157
0.0545242740159972 -0.104586255837004 0.018783487892601 0.9547707 -0.2813575 0.09618107 65 65 65
0.0546935190803914 -0.103447696216425 0.0184986246867208 0.9633861 -0.2546016 0.08405507 49 49 49
0.0487285519628893 -0.105186474616213 0.0305271003381841 -0.04516489 0.02235449 0.9987294 133 133 133
-0.0231432610438576 0.198742358007192 -0.00818196493326362 -0.001299036 0.9996459 -0.02657659 48 48 48
0.0528083643881732 -0.0972081344874539 0.0302436626868169 -0.0204227 0.01948165 0.9996016 168 168 168
0.0530005074395308 -0.0470834964158324 0.0294372863819363 -0.01718769 0.006391504 0.9998319 103 103 103
-0.0349720947490615 0.138485470816451 0.0222706832469181 -0.03528377 0.0311414 0.998892 158 158 158
0.0532857661131954 0.199476908100755 -0.0208548089307039 -0.03371991 0.9989635 -0.03057569 92 92 92
0.0572629301955248 0.199610622339878 -0.0223550754169846 0.00950831 0.9975339 -0.06953989 86 86 86
0.05853461722119 0.0906652437409494 0.0270138576897173 -0.04391051 0.0263923 0.9986868 109 109 109
0.0168761731955009 -0.0592022132511346 0.0283289686951925 -0.03793213 0.02494896 0.9989688 117 117 117
0.0545167739101706 0.107050359874588 0.0264526459984025 -0.03808552 0.02157077 0.9990416 122 122 122
0.0694444406990584 -0.0502542060614692 0.00702261516582103 0.9930609 -0.1041792 0.05455846 149 149 149
0.0689120913697776 -0.0472629472951016 0.0190844648062591 0.9914832 -0.1084684 0.07208142 175 175 175
0.0679900761060201 0.111758343026686 0.00420203844623385 0.9988551 0.02957248 0.03760208 46 46 46
0.0489039740484669 0.200098543180567 0.0153670367334763 0.01172307 0.9997818 -0.01729169 81 81 81
0.0693478471069553 -0.00516618257835566 -0.010369900168364 0.9988722 0.02725637 0.03887821 39 39 39
0.0673694774697524 0.01943594958702 0.0261617154845207 0.8109037 0.07999253 0.5796864 24 24 24
0.000620491607576046 0.166528872376733 0.0231031714226377 -0.03085081 0.02031537 0.9993175 141 141 141
0.0644184640937095 0.140643053578747 0.0260766353270444 -0.01038512 0.03124001 0.999458 135 135 135
0.0171730664621457 0.199572280414842 -0.00411002223004298 -0.001914779 0.9999235 -0.0122192 73 73 73
-0.0175864894026057 0.134485962275824 0.0229914982294074 -0.02610327 0.01950441 0.999469 151 151 151
-0.0493724043753736 0.197854337831695 -0.0192826978273175 -0.7780519 0.6186513 -0.1091137 79 79 79
0.00508524030198343 0.199253112207541 -0.00777689784946206 -0.02051544 0.9992974 -0.03136465 101 101 101
0.0222557417514024 0.138202979199467 0.0244068717760539 -0.04445163 0.01738648 0.9988602 146 146 146
0.0694078681963135 0.0128605265158432 -0.0172475602242061 0.9988324 -0.01580085 0.04565275 55 55 55
-0.0135371151721033 0.108901046365266 0.0237824244516135 -0.03362301 0.02768278 0.9990512 142 142 142
0.0306077270506098 -0.0512343744907279 0.0287867388487533 -0.03831988 0.04187274 0.9983878 120 120 120
0.0593268055626441 -0.089392698674039 0.0147320158262275 0.9587812 -0.2769952 0.06334219 105 105 105
0.00502031668404879 0.199312931802409 -0.00129126158203652 -0.01368286 0.999689 -0.02084881 94 94 94
0.0690481176032587 0.0172256566411173 0.00468682964836065 0.9980963 -0.04172986 0.04541283 30 30 30
-0.0322146495866595 0.187123533344193 0.0211815771352847 -0.04601149 0.02226732 0.9986927 163 163 163
-0.0152931201005635 0.158438124501071 0.0226395378564745 -0.04142467 0.014154 0.9990414 176 176 176
0.0691287670548788 -0.0274711755801658 0.00498937222613011 0.9991896 -0.01672561 0.03661022 21 21 21
0.0532859234684877 0.200004862527077 -0.00472403724195219 -0.0112006 0.999935 0.002129255 96 96 96
0.0606116150733911 0.0588067595936015 0.0277154744499715 -0.03714636 0.0253223 0.9989889 119 119 119
0.0687535600352098 0.0154448656932359 0.0102541290734541 0.9974813 -0.047594 0.05259211 43 43 43
0.0494916809605366 -0.0504653075906231 0.0296494164225509 -0.03876978 0.01494935 0.9991363 118 118 118
0.0584992348167415 -0.0150950247087975 0.0291780533633802 -0.04193632 0.02159482 0.9988869 86 86 86
0.0682652278172799 -0.0187418566574964 0.0214974831112704 0.9997861 0.01680617 0.01205728 22 22 22
-0.0186908906537715 0.198700284086156 -0.0239372486211913 -0.005829568 0.9993106 -0.03666436 61 61 61
0.0385081547237394 -0.0337910590461749 0.0285670476329629 -0.05145009 0.02134456 0.9984474 99 99 99
0.0678118749764351 0.0985451073923367 0.0166399297755871 0.9991055 -0.01132262 0.04074283 95 95 95
-0.0308791298630957 0.198736715777901 -0.0197874210700792 -0.02594713 0.9995252 -0.01661767 43 43 43
0.00665774208816261 0.19279076358215 0.0227174088316084 -0.04379886 0.02112326 0.998817 148 148 148
0.0687742572599395 0.0325235520962068 0.00254233307289636 0.9999767 0.0005737602 0.006802429 62 62 62
0.0151940128175396 -0.0451839686065738 0.0281400638429213 -0.03999883 0.02276597 0.9989403 117 117 117
0.0680216991403864 0.100391548480094 0.0131993767102688 0.9994898 0.001371767 0.03191017 85 85 85
0.0459564420234115 0.200103948640293 0.0223423401608566 -0.08549049 0.8972278 0.4332132 77 77 77
0.0602457263795246 0.161953180272631 0.0255366877166175 -0.02479271 0.03719283 0.9990005 177 177 177
0.0653369116834339 -0.0665278346279524 0.00320631987632936 0.9734362 -0.2160368 0.07582935 76 76 76
0.0679197166667711 0.147768612781443 0.0137718726691734 0.9989681 5.980402E-05 0.04541628 89 89 89
-0.0259160653861259 0.146182837473866 0.0225071269584832 -0.04767122 0.01705592 0.9987174 155 155 155
0.068876474887444 -0.0309941151796997 0.0127061085092151 0.9981931 -0.04721803 0.0371601 24 24 24
-0.0524579820565274 0.170794560685356 0.0155178356336741 -0.9944157 -0.006398681 0.1053398 87 87 87
0.0527462129144687 -0.123456339940621 -0.0134292795723512 0.9577607 -0.276292 0.07973194 104 104 104
0.0671759998731898 0.191750466538062 0.0166817062447115 0.9967765 0.06602269 0.04558013 83 83 83
0.0341845284249453 -0.0716341877642903 0.0290405731953748 -0.04123214 0.01093475 0.9990898 90 90 90
0.0673681785071598 0.153343777420386 0.0149480917015613 0.9998879 0.008920094 0.01201983 93 93 93
0.0454363068712151 0.199592104074828 0.007549612369534 -0.002316958 0.9998438 -0.01752068 96 96 96
0.0696612385379001 0.0112222347292459 -0.007265249456542 0.9976994 -0.03605134 0.05741238 39 39 39
0.0615592176891195 -0.0878527834784372 -0.0154790409319966 0.9640332 -0.24397 0.1054446 62 62 62
0.0681655053420673 -0.0367862501629734 0.010476201364015 0.9986427 0.01930158 0.04837429 33 33 33
0.0693462259020525 -0.0110879299240708 -0.00898024719574575 0.9993727 -0.03169575 0.01579864 30 30 30
0.0691848097615635 0.038826167888206 -0.0168406261496615 0.9999346 0.01033064 0.00491266 88 88 88
0.0689287137650849 0.046738656721838 -0.0218549445507483 0.9994082 0.03437253 -0.001355223 54 54 54
0.0249545050702324 0.19992260991216 0.000761124319165585 -0.0175209 0.9997937 -0.01027132 106 106 106
0.0538586491402735 -0.116024033437892 -0.00879420952628113 0.957554 -0.2611884 0.1219464 61 61 61
0.0535593227115774 0.193815074269436 0.024475306686228 -0.05363239 0.01781903 0.9984018 188 188 188
0.0548986817473107 -0.106687120315024 0.00856398472528269 0.9734333 -0.2115806 0.0875287 91 91 91
0.0132469684535157 0.143662624380207 0.023981730016518 -0.03692022 0.02276669 0.9990588 151 151 151
-0.0117516197982734 0.199276202700421 -0.00134556659597679 0.001049483 0.9999139 -0.01308425 79 79 79
-0.0512412362713646 0.142476027930409 0.0214997606317541 -0.6918279 0.05887276 0.7196584 131 131 131
0.0687905487588294 -0.0461327627572264 0.00677575611327824 0.9930853 0.1099056 0.04125889 121 121 121
0.0693965657484044 -0.0237918665764626 -0.0153166409924173 0.9993988 0.001360927 -0.03464396 44 44 44
0.0647290705930263 -0.0792930188419442 -0.0198733142622194 0.9675291 -0.2427083 0.07057019 91 91 91
0.0514784066657348 0.118909931099001 0.0262498533029646 -0.04148478 0.02432914 0.9988429 141 141 141
-0.0516717956700881 0.182751051205374 -0.00623913358478734 -0.9989339 0.02263287 -0.04023594 69 69 69
0.052537137211214 -0.00281898707701711 0.0285682627430154 -0.04076776 0.02356734 0.9988907 78 78 78
0.0489326093142637 -0.0231724717462584 0.0288686320030067 -0.04136932 0.01925258 0.9989584 95 95 95
0.00480652312923979 0.196804739384707 0.0225453461109054 -0.0624302 0.3421103 0.9375836 135 135 135
0.0610636839662031 -0.0889037414758223 -0.0116305531225928 0.9707148 -0.2288837 0.07297289 70 70 70
-0.026608595930999 0.198674789475771 -0.0298833619749575 -0.01580388 0.999758 -0.01530263 51 51 51
0.0225607211106036 -0.0672901111077893 0.0288080058316471 -0.03498514 0.0239067 0.9991019 103 103 103
-0.0172429882823044 0.119482138058265 0.0233669452655708 -0.03183362 0.01903269 0.9993119 157 157 157
0.0150102793259608 0.199072224986962 -0.0225604060937291 -0.007940785 0.9996183 -0.02646228 82 82 82
-0.0488761780330913 0.196911623864589 -0.0279615710996521 -0.9687571 0.2081729 -0.1348102 84 84 84
0.0245959297562153 -0.0511340398202257 0.0284893294919457 -0.04596979 0.02149087 0.9987116 121 121 121
0.0647945615319094 -0.0734689225568704 -0.0121758543875534 0.9694103 -0.233205 0.07654471 77 77 77
0.0232443324899521 0.199403832761328 -0.00908081047412407 -0.0347507 0.9989515 -0.02980432 89 89 89
0.0679281648851187 0.111607557773121 0.00795601387120554 0.9995283 0.01548356 0.02652071 65 65 65
0.0550407978381191 -0.0529549613043034 0.0298488246338171 0.002422884 0.009908716 0.999948 100 100 100
0.064321957678505 -0.0116543516376977 0.0294146995714109 0.322112 0.03417085 0.9460847 127 127 127
0.0686372259060208 0.0489047252054303 0.0113665168715424 0.9974061 0.006173 0.07171531 50 50 50
0.0686089002687464 -0.056411185447592 -0.00171017750888031 0.9661614 -0.2296547 0.1174344 112 112 112
0.0162480040057811 -0.0577886238738543 0.0284368393520157 -0.0356233 0.0194382 0.9991762 118 118 118
0.0555922667366735 -0.10709634850746 0.000982563584528418 0.9586632 -0.2696678 0.09079675 89 89 89
0.0465636375799501 0.0983157689852673 0.0264853401444674 -0.04660235 0.02320898 0.9986439 124 124 124
-0.0268983610957574 0.198926086191104 0.0214218062672324 0.005181021 0.6245826 0.7809416 127 127 127
0.0577750192000051 -0.0946861799266364 0.00708415197660378 0.9693504 -0.2379537 0.06113807 71 71 71
0.0408120036928445 -0.00936009979171992 0.0282804055863788 -0.02993413 0.03585594 0.9989086 93 93 93
0.0114821321050087 0.174769489124385 0.0233393157085697 -0.02534818 0.02731619 0.9993054 128 128 128
0.0239930748057051 0.131169205058777 0.0249135250632133 -0.04336546 0.02564836 0.99873 149 149 149
0.0646948769959828 0.00839257544757133 0.0288012182994832 0.05978339 0.05568299 0.9966571 108 108 108
0.0684441704511309 0.0134354194282865 0.0239642734265469 0.969093 -0.08043618 0.233214 40 40 40
0.0691961064997981 0.00894858295490553 -0.0110849894196979 0.9987186 -0.02873946 0.04165501 39 39 39
0.0371816480190299 0.199057426568893 -0.0190059922588002 -0.005538809 0.9996473 -0.02597268 87 87 87
-0.0122410983509491 0.130245361094649 0.0233507263774693 -0.03479521 0.02283089 0.9991336 155 155 155
-0.0474521849828713 0.18987005775964 -0.0285390745924375 -0.9848126 -0.02613137 -0.1716432 32 32 32
0.0467278949859264 0.0170181476803505 0.0280900252665835 -0.04881572 0.005263232 0.998794 105 105 105
0.0353682968619813 0.125124610985661 0.0252267667266292 -0.04093667 0.02299646 0.9988971 159 159 159
0.0688434561046134 -0.00144634188593074 0.00539387261616425 0.9994373 0.02253971 0.02483839 14 14 14
-0.046923479873066 0.198720473580043 -0.0126292478869735 -0.2955381 0.9552276 -0.01404984 77 77 77
-0.0315353961777309 0.126154701128772 0.0228924672291872 -0.01594395 0.01040057 0.9998188 183 183 183
0.0290543524365128 0.171135622062563 0.0240201778171096 -0.03226055 0.02159488 0.9992462 148 148 148
0.0568127976753399 0.199588087064641 -0.00827788853592187 0.004412838 0.9999853 -0.003137259 98 98 98
0.0585154374906618 -0.0371035159247362 0.0296158441374445 -0.04869667 0.02061305 0.9986009 98 98 98
0.0695604694690903 -0.0167606245730277 -0.0170331427083574 0.9988325 -0.03208522 0.03611418 46 46 46
0.053699226423872 0.025060307042707 0.027779365226839 -0.04910105 0.034566 0.9981955 86 86 86
0.0490852008581508 0.199948521142248 0.00128070132668084 -0.03111208 0.9994786 -0.00862886 113 113 113
-0.0522985588300566 0.165526745447812 0.00990773195771494 -0.9992961 -0.002851699 -0.03740553 97 97 97
0.0571110137175945 -0.099008324313102 0.00673409188568391 0.9623932 -0.2604736 0.07715531 58 58 58
0.0684175145696031 0.133298239961578 -0.00226313091866931 0.9987859 0.008539825 0.04851701 55 55 55
0.0447804800704747 0.200012638146762 0.000904850457805917 -0.003078447 0.9999867 -0.004135324 97 97 97
0.0292538125256052 -0.0555542128333077 0.0297702527118369 -0.05329517 0.01900613 0.9983979 124 124 124
-0.0447604025915531 0.198490642992316 -0.0240856693380823 -0.2278872 0.9736242 0.01110625 56 56 56
0.027335315880523 0.144271932240637 0.0245554044254234 -0.04332314 0.02630715 0.9987147 154 154 154
-0.00284900381170283 0.0965479355515407 0.0244903269658088 -0.03634545 0.02623567 0.9989948 216 216 216
0.0598330438574717 -0.0992667104607399 -0.0191694349955301 0.9657022 -0.2397441 0.09970976 101 101 101
0.0451714061284973 0.171331446161919 0.024618830282662 -0.04013788 0.02263215 0.9989378 171 171 171
0.0563350951835573 -0.00148009933859883 0.0287845480080358 -0.04014475 0.02014595 0.9989908 107 107 107
0.0698538284856829 -0.00938541959574246 -0.0214257407369597 0.9998356 0.00630015 0.01700277 53 53 53
0.0523327752278648 -0.0495830779030404 0.0297515057623536 -0.02270576 0.0172646 0.9995931 125 125 125
0.0688831673130692 -0.00852981953148446 0.0149904622312926 0.9993746 -0.01604241 0.03151407 24 24 24
0.0574298395104185 0.184702297906898 0.0246216937322916 -0.0463021 0.02010679 0.9987251 152 152 152
0.0677676978310449 -0.00831022315027019 0.0197911023007024 0.9999002 0.009439894 0.0105107 26 26 26
0.036086242553965 0.126023815911523 0.0254386130353579 -0.04267521 0.02071954 0.9988741 144 144 144
0.0105104951961543 0.15452013073051 0.023713727441377 -0.04808027 0.02598017 0.9985055 170 170 170
0.0531275358739345 -0.0757521920898117 0.0301912415984518 -0.05643931 0.02141386 0.9981763 139 139 139
0.0585440102643302 0.121925796427925 0.0263497491776963 -0.0301906 0.0231216 0.9992767 150 150 150
0.000912945036430912 0.199483762032015 0.0124112857822711 0.02020253 0.9996428 -0.01749407 91 91 91
0.0677020255871899 0.00742517799976317 0.0191809434433586 0.9999777 -0.002902482 0.006015612 31 31 31
0.00535633373775202 0.199045737126328 -0.0174043985744667 0.006621556 0.9995506 -0.02923594 78 78 78
0.0644165992523571 -0.0744866703694645 -0.00748670581758554 0.9621577 -0.2642861 0.06637423 62 62 62
0.0389919980731395 0.200230576915573 0.0199372460516478 0.01722107 0.9989344 0.04282031 88 88 88
0.0682808823990468 0.0657969142111998 0.0192024613997102 0.9974833 -0.006620088 0.07059185 44 44 44
0.0227539441669564 0.199659527825487 0.0148212875425532 0.03110616 0.9993422 -0.01864407 85 85 85
0.0070899395735422 0.108979904071929 0.0245584600254471 -0.03351928 0.018302 0.9992705 128 128 128
0.059682983903699 -0.0816345345538659 0.0225288044200948 0.9712187 -0.2253494 0.07714861 101 101 101
0.0628296483941186 0.152694639058455 0.0257035224318733 -0.05273135 0.01704209 0.9984633 178 178 178
0.0546366324937355 -0.102100770973107 0.0191910384492313 0.9646562 -0.2523808 0.07577827 83 83 83
0.034495079522904 -0.0633272740268631 0.0291680677275721 -0.03170396 0.02809228 0.9991024 124 124 124
0.0690047906815776 0.0318656929646634 -0.00908752045506678 0.9985046 -0.005525443 0.05438663 52 52 52
-0.0139652268250061 0.174785481502861 0.0223302669216263 -0.04776745 0.01531547 0.9987411 165 165 165
0.0408225007445231 -0.0616974602935441 0.0294119388204996 -0.04092019 0.01515133 0.9990475 117 117 117
0.0692959543159315 -0.0258134554906643 -0.016506713145195 0.9995952 -0.006672102 -0.02765621 45 45 45
0.0620920923971471 -0.0751435202626698 0.0205800799749425 0.97045 -0.2177357 0.1040094 88 88 88
0.0669231210321901 -0.0593395606926945 0.00823262581815587 0.9735504 -0.2273425 0.02269365 94 94 94
0.0690823338336379 0.0448923269437684 0.000193228362609099 0.998873 0.0167118 0.044424 67 67 67
0.0390425915154111 -0.011504542861315 0.0283110625611632 -0.03138468 0.0213059 0.9992803 122 122 122
0.0612795491310645 0.00667512551423965 0.028878696777242 -0.04881021 0.01014116 0.9987566 114 114 114
0.0651443635504254 -0.0733282875100457 -0.013075214148759 0.9682769 -0.234063 0.08748945 77 77 77
0.068837654552842 -0.00228861738657737 -0.0156764233893184 0.9993636 0.03470068 0.008263909 25 25 25
0.0328276906365579 0.199528848817066 -0.00680419426078493 0.01136931 0.9993062 -0.03546705 91 91 91
0.0405242449972483 -0.0772091935069906 0.0296997663142827 -0.0497629 0.01468389 0.9986531 174 174 174
0.0702634695443969 -0.0255709756589453 -0.0043888576335655 0.9970556 -0.01583074 0.07502981 53 53 53
0.0688138609422291 -0.00373485845255139 0.0112858912455596 0.9990011 0.04403974 0.007571988 17 17 17
-0.0215502144974231 0.177052885045403 0.0220125901723068 -0.03498141 0.01958724 0.999196 155 155 155
0.068624690170815 0.0190446072249291 0.0161202011969205 0.9984172 -0.05280195 0.01936746 55 55 55
0.0697241174758396 0.0368631889808085 -0.00807560907184973 0.9983679 0.02730122 0.05016135 54 54 54
-0.0472352833895289 0.130511994080412 0.0217655884283764 -0.2083244 0.0028358 0.9780557 134 134 134
0.053898320063217 -0.118867891869076 -0.0182522998693879 0.9596522 -0.278505 0.03876436 110 110 110
0.054057296248109 -0.118881364407022 -0.0163406290771916 0.9580133 -0.2820564 0.05152358 120 120 120
0.0514871009282687 -0.127347326158288 -0.0169814701725751 0.974454 -0.2183993 0.0523547 85 85 85
0.0519700800397085 -0.125553941111503 -0.0132237879107011 0.9685987 -0.2425572 0.05461244 109 109 109
0.055290658757746 -0.114498967908382 -0.0190066614012627 0.971943 -0.2336753 0.02688267 95 95 95
0.00863654413356629 0.154263029622391 0.0236044424766616 -0.03647053 0.02693509 0.9989717 171 171 171
0.0520604436976075 -0.121896846763485 -0.00746160985979322 0.9705828 -0.2253014 0.08490183 60 60 60
0.0535363399216995 -0.118850460243164 -0.0113609187785048 0.9531284 -0.279338 0.1162607 89 89 89
0.053688909996803 -0.117214302026381 -0.00928638310496249 0.9547246 -0.2729667 0.1182796 86 86 86
0.0523485876689307 -0.120346647530177 -0.00435941954252511 0.9658432 -0.2526965 0.05737031 58 58 58
0.0529621274226679 -0.118434559953915 -0.0068055796889735 0.9602787 -0.2617272 0.09676546 51 51 51
0.0528564677165164 -0.117332035057722 -0.00349574572399869 0.9650367 -0.2575058 0.04893725 47 47 47
0.054940940255519 -0.113353919647582 -0.00917482589661356 0.9581599 -0.262689 0.113684 91 91 91
0.0553898584463153 -0.111330349362983 -0.0110278592757663 0.964095 -0.2492623 0.0915924 78 78 78
0.0543798978599757 -0.114404257267607 -0.00483053221019236 0.9583764 -0.2779683 0.06517862 82 82 82
0.0527277754831417 -0.121542878382349 -0.0127440780985001 0.9599887 -0.2654389 0.08924083 69 69 69
0.0549783670209507 -0.118058708011686 -0.0154344992339372 0.9587129 -0.2779713 0.06001334 101 101 101
0.0553315473886853 -0.112991383694109 -0.0183092256390545 0.9717144 -0.2321882 0.04312485 94 94 94
0.0561962306370054 -0.107720611600632 -0.0162919964633886 0.9509538 -0.2991725 0.07862978 64 64 64
0.0577456856911822 -0.105140086190996 -0.0193423606247152 0.9486458 -0.3047642 0.08479359 98 98 98
0.0560696143950654 -0.109952930953467 -0.00868625014771995 0.9594159 -0.2670866 0.09047653 88 88 88
0.057565504555106 -0.10470532236044 -0.0135457851027582 0.9468651 -0.3047747 0.1027568 97 97 97
0.0683854261962051 -0.0658686977220968 -0.0189124752548863 0.9656254 -0.2411398 0.09705257 112 112 112
0.0601633926652041 -0.0955871336167669 -0.0174316902067307 0.9738242 -0.2083281 0.09091628 125 125 125
0.0609396074817488 -0.0844763196016554 0.0128413010798346 0.9768193 -0.2084737 0.048608 83 83 83
0.0535565761850019 -0.115690878998957 -0.00345722932053638 0.9616734 -0.2678804 0.05851865 70 70 70
0.0540799437016926 -0.111768566461569 0.000336436790062011 0.9618039 -0.2586678 0.08957811 112 112 112
0.0691946295152537 0.0452489054957667 -0.0147821624417851 0.9993773 0.03429029 -0.00831791 76 76 76
0.0538018354706771 -0.113247088303069 0.00401034723924532 0.9627712 -0.2638839 0.05862543 71 71 71
0.0546668929544274 -0.10908339520236 0.00417983249519688 0.9653715 -0.2547113 0.05639169 87 87 87
0.0557030688951969 -0.107220401876299 -0.00164578003447624 0.9603286 -0.2648798 0.08722136 81 81 81
0.0564423845403521 -0.10502044112712 0.000555266478082517 0.9621977 -0.2573595 0.08911566 95 95 95
0.0567764056188169 -0.105011473527833 -0.00869332377311177 0.9638913 -0.2521538 0.08562674 78 78 78
0.0565739558035108 -0.105350092617524 -0.00657814343917285 0.9613922 -0.2580842 0.09548661 85 85 85
0.0587982941320915 -0.100051699310818 -0.0135655931218687 0.9660878 -0.2333328 0.1105903 109 109 109
0.0585609575996808 -0.100478474197834 -0.0118621251470749 0.9577079 -0.2547881 0.1337111 81 81 81
0.05809679927019 -0.101272712070055 -0.00927289485259913 0.9571852 -0.2679128 0.1096322 84 84 84
0.0574595908464861 -0.101012647628898 -0.00365805717500561 0.9608371 -0.2597829 0.09646237 75 75 75
0.0561087233627977 -0.104868336761382 -0.00349636200607556 0.9647238 -0.2495659 0.08381467 56 56 56
0.0579302188720239 -0.0989447722634099 -0.00576455158491923 0.9577515 -0.2698058 0.09958377 59 59 59
0.0588099657091097 -0.0971362332172084 -0.00358559085636073 0.9596078 -0.2676902 0.08657276 108 108 108
0.0554477983646753 -0.104898101218015 0.00845645953142321 0.9645604 -0.2543397 0.07024529 79 79 79
0.0550569592077683 -0.107396598958697 0.00651669480717332 0.9681978 -0.23734 0.07913696 107 107 107
0.0548368864872346 -0.106452044882013 0.01048977422124 0.9650295 -0.2354394 0.1152666 101 101 101
0.0558632166578521 -0.102803206407749 0.00459096236059015 0.9679145 -0.2341034 0.09130853 47 47 47
0.0561841111855448 -0.103259474601129 0.00713822378097234 0.9680342 -0.238997 0.07609358 69 69 69
0.0565236753413103 -0.101199013330938 0.00679261124190045 0.9682871 -0.2382258 0.07528936 66 66 66
0.0562380024091147 -0.101241557625823 0.0142342916257892 0.963138 -0.2338482 0.1329667 71 71 71
0.0544376070941817 -0.107442913348088 0.0129645860478222 0.9545863 -0.2630981 0.1398012 81 81 81
0.0559626443476859 -0.101867150734288 0.00847196978180753 0.9701266 -0.2380801 0.04660784 64 64 64
0.0564357955483756 -0.102067328623987 0.0118390465245663 0.9691939 -0.2267425 0.09618266 89 89 89
0.0575025743554853 -0.0991513963642062 0.000927739259835636 0.9623146 -0.2496132 0.1079068 63 63 63
0.0569861607277011 -0.0991440285994775 0.00454859003812902 0.9689516 -0.2304459 0.08959637 45 45 45
0.0571855795151528 -0.102247160581352 0.0022014415232719 0.9607046 -0.2590319 0.09974594 71 71 71
0.0585664719748289 -0.0980283902269108 -0.00191900141536999 0.9538158 -0.2834115 0.0995665 65 65 65
