ply
format ascii 1.0
comment File exported by Rhinoceros Version 7.0
element vertex 460
property float x
property float y
property float z
property float nx
property float ny
property float nz
property uchar red
property uchar green
property uchar blue
end_header
-0.0102860951989919 0.00961259989268717 -0.061148701882758 -0.07665623 -0.01645751 -0.9969218 172 172 172
-0.00611268517134733 0.0125161185344717 -0.0619824720917742 -0.2677881 -0.09271917 -0.9590061 135 135 135
-0.00819517359228883 0.0122649092580956 -0.061390276507491 -0.189561 -0.06716879 -0.9795688 143 143 143
-0.0054244689558981 0.014399612058031 -0.0627924476917233 -0.2839159 -0.1199614 -0.9513154 136 136 136
-0.0112624442907191 0.0122296361806344 -0.060791955262111 -0.03063192 -0.04499573 -0.9985175 158 158 158
-0.0205834407632628 0.00542177354822329 -0.0622077848635219 0.04593919 -0.06737406 -0.9966696 146 146 146
-0.0174827609624045 0.0108753362569059 -0.0619779542839848 0.0885761 0.04206396 -0.9951808 149 149 149
-0.018572422529231 0.0123706218448459 -0.0614793499686533 0.05158943 0.0380755 -0.9979423 142 142 142
-0.0244999367283403 0.0119158763232607 -0.0617647898540633 0.07324471 -0.02325123 -0.997043 124 124 124
-0.0270732082208129 0.0125744237620394 -0.0620193790552616 0.07237723 -0.0577941 -0.9957014 119 119 119
0.00856990748804209 0.0227667830465178 -0.0633301567168258 -0.03603741 -0.004904062 -0.9993384 130 130 130
0.0140665324399825 0.0246098294080539 -0.0644082625975861 -0.1288755 0.004028223 -0.9916526 166 166 166
0.00998785492320708 0.0227491124177952 -0.0639411615146134 -0.08165255 0.005397022 -0.9966462 130 130 130
0.00637609444380283 0.0243087094577224 -0.0634257785376642 0.05357065 -0.08586861 -0.9948652 196 196 196
0.0073901985524133 0.0417389636148143 -0.0675322264588211 0.01524782 -0.1401895 -0.9900073 141 141 141
0.0134868124332297 0.0277447975487321 -0.063439739535356 -0.1079008 -0.142946 -0.9838312 139 139 139
0.0119739029726066 0.0337598070542074 -0.0663968058927432 -0.04605751 -0.294021 -0.9546886 118 118 118
0.00931436568613886 0.0292672759878735 -0.0642027910853794 0.007168525 -0.272877 -0.9620222 109 109 109
0.008350714452937 0.0309120795498329 -0.0649772342128985 0.00894613 -0.2998207 -0.9539536 101 101 101
0.0014463349538345 0.0221410569993675 -0.0640365543548034 0.1252271 -0.07183573 -0.989524 124 124 124
0.00371066259500041 0.025149904030309 -0.0639567209008724 0.1813141 -0.1433935 -0.9729149 143 143 143
-0.000396009686964849 0.0229507191277545 -0.0650176455114825 0.05281391 -0.1584695 -0.9859504 171 171 171
0.00444704929447393 0.0305357214082546 -0.0649099306808116 0.05407263 -0.2155225 -0.9750006 101 101 101
-0.0062782383847847 0.0268778495401096 -0.0650115926952679 -0.1463301 -0.07084905 -0.9866955 135 135 135
-0.00327720787335728 0.0297101428729533 -0.0653044946428322 -0.06131605 -0.03084077 -0.9976418 88 88 88
0.0149644719524904 0.0354218044143751 -0.066528920921747 -0.01891082 -0.1800782 -0.9834705 127 127 127
0.00654241044462511 0.039643944531024 -0.0670062299353073 0.01681604 -0.1288851 -0.9915169 101 101 101
0.0113942266952987 0.041140388866211 -0.0667413704237538 0.03858354 -0.1141282 -0.9927165 163 163 163
0.00799287227527368 0.040635597894863 -0.0668910291416981 0.02126107 -0.1324131 -0.9909666 135 135 135
0.00501243615912728 0.0411925474406597 -0.0667814170724146 -0.04037194 -0.107365 -0.9933997 165 165 165
0.00575061230845986 0.0470244101389461 -0.0679456430031291 -0.1223201 -0.08631897 -0.9887299 168 168 168
-7.19441942709231E-06 0.0337052796005099 -0.065466656293178 -0.05829061 -0.1685692 -0.9839647 73 73 73
0.00171346963600838 0.0373157164491772 -0.067050368349164 -0.07052524 -0.1762364 -0.9818181 132 132 132
-0.00766375293767529 0.0346547367942237 -0.0651047554452575 -0.0104568 -0.1800221 -0.983607 72 72 72
-0.000954827020826943 0.0394319135926176 -0.066724975794718 -0.09298801 -0.08599697 -0.9919465 178 178 178
-0.00429301398378079 0.0402597682437611 -0.0665694974939504 -0.06793474 -0.07123567 -0.9951434 92 92 92
-0.00869625252370765 0.0375506183282203 -0.0659222171563446 0.03330971 -0.1760207 -0.9838228 67 67 67
-0.00514746556502654 0.0425028834521656 -0.0660579303021071 -0.04365388 -0.03886968 -0.9982903 76 76 76
-0.0104512604034387 0.0177286747340566 -0.0616858323071013 -0.09619161 -0.2162797 -0.9715813 135 135 135
-0.0130789451628737 0.0194735664143715 -0.0623431471668397 0.003480059 -0.2661511 -0.9639251 72 72 72
-0.00701901766921587 0.0240141334356893 -0.064201162884951 -0.1958846 -0.1791242 -0.9641285 194 194 194
-0.0158232749205041 0.0203574334468382 -0.0631685263909448 -0.01879095 -0.2590269 -0.9656873 105 105 105
-0.00796251661821668 0.0250827917687627 -0.0642756979883205 -0.1488352 -0.1725355 -0.9736938 170 170 170
-0.0114133245753534 0.0298189784906365 -0.0642867888742021 0.07726765 -0.1393284 -0.9872271 61 61 61
-0.0126641108904225 0.0295110846778465 -0.0644094778019696 0.1030185 -0.1786538 -0.978504 61 61 61
-0.0188907007839044 0.0164340606715456 -0.0617968848634595 0.01923432 -0.1085119 -0.9939091 129 129 129
-0.0240828866337831 0.0154517485987995 -0.0618388525368009 0.1225456 -0.07611722 -0.9895397 151 151 151
-0.0234258080894441 0.0176625844396896 -0.0619873386568239 0.1092288 -0.09237362 -0.9897152 111 111 111
-0.0277383522285802 0.0164241006968724 -0.0628709511983938 0.1549274 -0.1772571 -0.9718937 158 158 158
-0.022216896145034 0.0233072303631142 -0.0631004581889645 -0.009223011 -0.2139676 -0.9767972 108 108 108
-0.0190116140442063 0.0253137683691926 -0.0639616398134527 -0.1008435 -0.2473805 -0.9636563 70 70 70
-0.023956479703392 0.021475660244661 -0.0628969067731107 0.150526 -0.2033862 -0.9674585 121 121 121
-0.0285104772049168 0.0212813207160165 -0.0641739622869902 0.1731072 -0.179093 -0.9684832 103 103 103
-0.0118423881609946 0.0315034627573298 -0.0645453962223803 0.08742073 -0.1319625 -0.9873923 83 83 83
-0.0257834320348702 0.0281853075917675 -0.0637410146651359 0.08098355 -0.08734661 -0.9928808 112 112 112
-0.0262923160794345 0.0825600230081618 0.0129935739894125 0.1285637 0.9817179 0.1403616 66 66 66
-0.00993121428837795 0.0363033197870845 -0.0653726008376171 0.0254392 -0.1963999 -0.9801938 76 76 76
-0.0142135327707419 0.0328078788025916 -0.0652608441818048 0.06899785 -0.1311202 -0.9889625 72 72 72
-0.0156396626109488 0.0319678431685941 -0.0652471006272106 -0.003148147 -0.119626 -0.992814 54 54 54
-0.0186360110422328 0.03386754959511 -0.0651802044563568 -0.1225182 -0.1114203 -0.986192 76 76 76
-0.0111838542633385 0.0370833922564481 -0.0659320756131288 0.01071163 -0.1768733 -0.9841753 59 59 59
-0.0153754205742915 0.0407386679889259 -0.0659765584670893 -0.01295431 -0.02588784 -0.9995809 43 43 43
-0.0247256160058174 0.031008687000877 -0.0643816128761813 0.03135706 -0.139182 -0.9897702 82 82 82
-0.0269913753644682 0.0314026050768067 -0.0645632732018107 0.1202362 -0.1157494 -0.9859743 86 86 86
-0.0217137885278149 0.0351389174538749 -0.0653604585669139 -0.07150017 -0.2006182 -0.9770569 85 85 85
-0.0251568755912668 0.0377797378574014 -0.0654842279916234 0.02962268 -0.255125 -0.9664542 87 87 87
-0.0296190299827309 0.0384710472495445 -0.0662612399493726 0.09277616 -0.2406295 -0.9661729 100 100 100
-0.0254276862337491 0.0403758592354328 -0.0666259694113369 0.05495395 -0.1922834 -0.9797996 195 195 195
-0.0309785001631675 0.039631178333088 -0.0664256152996885 0.1079828 -0.2197104 -0.9695705 101 101 101
-0.0237382379970522 -0.0125355276432583 -0.0592885418057005 -0.1000696 0.08749679 -0.9911258 184 184 184
-0.0616404241241054 -0.0908760990402158 -0.0178029668585468 -0.8701555 -0.4652998 0.1622517 132 132 132
-0.0270406053107295 -0.0098158048393398 -0.0590538682494418 0.1046315 -0.08791197 -0.9906179 167 167 167
-0.0307554122311148 -0.00695876274505006 -0.0607611308072231 0.1615055 -0.2427962 -0.9565386 146 146 146
-0.0267262868998973 -0.00552075791880857 -0.0598837835585517 0.127996 -0.2454402 -0.9609246 171 171 171
-0.0297160649940201 -0.00604076782855276 -0.0613158922731713 0.1797402 -0.2382515 -0.9544263 144 144 144
-0.0297560742217763 -0.00276467340140266 -0.0622979445715131 0.1514176 -0.1832278 -0.9713394 185 185 185
-0.0278498177365095 0.000198576102601877 -0.0613830991050926 0.09269872 -0.08587445 -0.9919841 136 136 136
-0.0338160707509072 -0.00485056062476708 -0.061820604893367 0.1198466 -0.2365746 -0.9641936 128 128 128
-0.0397304339181473 -0.0140133287853716 -0.0588509382115009 0.05573188 -0.2135588 -0.9753392 235 235 235
-0.0431411279220563 -0.0149154550446261 -0.0594628566914998 0.07155532 -0.1660969 -0.9835098 131 131 131
-0.0371707271937627 -0.0114192373285588 -0.059250140811692 -0.002351786 -0.2724214 -0.9621752 195 195 195
-0.0385316765077021 -0.0112838502619209 -0.0600271661344693 0.05446243 -0.2984197 -0.9528796 176 176 176
-0.0391547001960272 -0.00824536769389692 -0.0613041081048288 0.07511812 -0.3619863 -0.9291519 182 182 182
-0.0435726230591541 -0.0121008052203201 -0.0599944993405972 0.06890988 -0.2596847 -0.9632317 153 153 153
-0.0416769435190312 -0.00618854028995616 -0.062174005226577 0.04368234 -0.315121 -0.9480457 199 199 199
-0.047123621178904 -0.0091914259262463 -0.0611019565469045 0.1053303 -0.3871063 -0.9159991 161 161 161
-0.0477497971679851 -0.0158741339321229 -0.0593532128761503 0.09166992 -0.1728746 -0.9806687 148 148 148
-0.0519239291753242 -0.0129534621749885 -0.0606641111900963 0.3207201 -0.2850367 -0.9032678 134 134 134
-0.0495049366005872 -0.0080748654389747 -0.0619535918525248 0.1846299 -0.3678619 -0.9113668 165 165 165
-0.0347538494028814 -0.00197876972309241 -0.0621661685194808 0.1209404 -0.1625513 -0.9792602 151 151 151
-0.0423037423477554 -0.00287576913391172 -0.0629522138476859 0.06386667 -0.2192107 -0.973585 140 140 140
-0.0448030897475507 -0.00281769176577931 -0.0626206855847766 0.1134144 -0.2058304 -0.9719933 202 202 202
-0.0255667715630259 0.00154021343446881 -0.061671761990925 0.013371 -0.1137394 -0.9934207 145 145 145
-0.0275365102832542 0.00617305675314445 -0.0617434901176387 0.01965676 -0.02571189 -0.9994761 133 133 133
-0.0319469463096937 0.0015873191489128 -0.0624025788005002 0.1304507 -0.0371208 -0.9907597 119 119 119
-0.0350314333058735 0.00611906672787965 -0.0632221518871057 0.1186832 0.03018331 -0.9924733 205 205 205
-0.0283441714547966 0.0102015171904801 -0.0619694468664375 0.04402696 -0.0433278 -0.9980903 117 117 117
-0.0305820254446776 0.0122457327789763 -0.0622903741245335 0.05400703 -0.1079704 -0.9926861 131 131 131
-0.0355370148577299 0.00678323346476326 -0.0628517968915683 0.1065018 0.03767484 -0.9935985 232 232 232
-0.0381880216962398 0.0107513470985726 -0.0627899468016358 0.0845089 -0.06975986 -0.9939778 235 235 235
-0.0408918655296615 0.00171461640636827 -0.0633188512677417 0.04657321 0.01096989 -0.9988546 115 115 115
-0.0448313755663805 0.00340194032387678 -0.0637339251900739 0.07412183 0.01421944 -0.9971478 123 123 123
-0.0428185977000135 0.00880371907857866 -0.063080206391953 0.0906466 -0.03767009 -0.9951704 143 143 143
-0.0464901227394489 0.00637273847724568 -0.0636725838141692 0.1812216 -0.04144625 -0.9825686 107 107 107
-0.0394944844743844 0.00975872827445715 -0.0633400375321906 0.08689787 -0.04483674 -0.9952077 242 242 242
-0.0440091527161355 0.0102328736426171 -0.0630380678691637 0.1329293 -0.09271754 -0.9867792 130 130 130
-0.0494585346948397 0.00550709323735266 -0.0639438246174309 0.1894298 -0.08938067 -0.9778177 190 190 190
-0.0505332554237523 0.0101843814824222 -0.0646252290487837 0.2104526 -0.0527909 -0.9761777 164 164 164
-0.0880799670592048 0.0361101810656533 -0.0344566499174133 -0.9963703 0.08436649 0.01133299 81 81 81
-0.0536818963489465 -0.00701346779192411 -0.0631628130295004 0.3217823 -0.2116255 -0.9228601 136 136 136
-0.0500206509535982 -0.00378906398433643 -0.0637254616482125 0.1510976 -0.1777754 -0.9724019 168 168 168
-0.0537532489521626 -0.00291027402807117 -0.0640466753078646 0.2884654 -0.09279855 -0.9529827 146 146 146
-0.0576333276942798 -0.00404902807457702 -0.0661056208468589 0.3914302 -0.0628109 -0.9180616 186 186 186
-0.0641194668479821 -0.0145246327391718 -0.0651505118868526 0.15514 -0.3443047 -0.9259513 205 205 205
-0.0619566348037434 -0.0126882899060042 -0.0656669096923401 0.187005 -0.3637446 -0.9125344 190 190 190
-0.0648362310625394 -0.0102678577725445 -0.0671196280443772 0.1015314 -0.2573742 -0.960963 204 204 204
-0.0651708309936917 -0.0118148576033131 -0.0663812565682211 0.09558928 -0.3505605 -0.9316491 190 190 190
-0.070902374482514 -0.0102584960182551 -0.0672119784974126 -0.0001697721 -0.1908524 -0.9816187 225 225 225
-0.0695552960646352 -0.0109507690958693 -0.0662525956050628 0.05932764 -0.2679082 -0.961616 206 206 206
-0.0650936435013143 -0.0058641344543994 -0.0672772022607415 0.0512598 -0.05001346 -0.9974322 166 166 166
-0.0702920399955899 -0.00589790855848876 -0.0677308494804004 0.002066675 -0.05043647 -0.9987251 198 198 198
0.0714566618282813 0.0541656789450105 0.00531184479466799 0.9853399 0.1703869 0.008577476 52 52 52
-0.0545913459967906 -0.000567798594300395 -0.0643352578416691 0.2764655 0.000253932 -0.9610238 161 161 161
-0.0585264760661273 -0.0015267757954063 -0.0663684384705527 0.3083313 0.00769952 -0.9512479 129 129 129
-0.0575732837083683 -7.39036969475693E-05 -0.0661187726276492 0.3639281 0.03793165 -0.9306543 109 109 109
-0.0579586780501076 0.00275297007471939 -0.0651917021193985 0.2967471 0.02356806 -0.9546652 144 144 144
-0.0616528450679958 0.0032823311557823 -0.0668928259476041 0.1098509 0.05772927 -0.9922702 129 129 129
-0.0509664849136764 0.0104225613306406 -0.0650259802482219 0.2009103 -0.06182667 -0.9776567 178 178 178
-0.0564047464944486 0.00625549785944773 -0.0654572074113565 0.2073473 -0.05496981 -0.9767218 124 124 124
-0.0690416270695985 -0.00220007357085844 -0.0677395905519117 0.06256681 0.0299458 -0.9975914 147 147 147
-0.0674967613899858 0.00215745147495375 -0.0672839324480333 0.07855 0.06748606 -0.9946233 143 143 143
-0.0657259105286696 0.00364246190916714 -0.0662789165287783 0.02907884 0.1135959 -0.9931014 117 117 117
-0.0627730407440829 0.00932042592276316 -0.0661482038929173 -0.067112 0.1743154 -0.9824002 101 101 101
-0.0673138847689632 0.0079395668048623 -0.0664731962763111 0.1644868 0.0875799 -0.9824835 127 127 127
-0.0739332243989396 0.00706771182855351 -0.0678475620550934 0.1002643 -0.03904298 -0.9941945 149 149 149
-0.039520524618619 0.0164775505984902 -0.0642066169049249 0.1146307 -0.2323978 -0.9658421 182 182 182
-0.0397371539806314 0.0178258979835329 -0.0645223921791211 0.1008833 -0.1992029 -0.9747517 152 152 152
-0.0342565953342585 0.0197655098459549 -0.0637048630859873 0.1066205 -0.2072101 -0.972469 102 102 102
-0.036332510881926 0.020090624506482 -0.0651477815372978 0.1048737 -0.1852639 -0.9770766 115 115 115
-0.0434632755089479 0.0122472703238827 -0.0633637187651698 0.112128 -0.1772948 -0.9777494 180 180 180
-0.044588890157661 0.0155296696879267 -0.0646869706425494 0.125478 -0.2301171 -0.9650396 239 239 239
-0.0464149279786272 0.0162887019373531 -0.0649760125411643 0.1523773 -0.2060825 -0.9665977 221 221 221
-0.0355405488545735 0.0245986765872076 -0.0653276780162837 0.1177097 -0.1794049 -0.9767079 119 119 119
0.0504423467925145 0.0647105704461866 -0.0658750758598179 0.1162829 0.761642 -0.6374792 101 101 101
-0.0471812779224021 0.0174646878670046 -0.0658659496336463 0.1344304 -0.2021428 -0.970086 245 245 245
-0.0457225832670974 0.0194634628148494 -0.0655883099063281 0.1328559 -0.2149781 -0.96754 198 198 198
-0.0481792902865014 0.0189390753297103 -0.0654841518160838 0.09893097 -0.1978264 -0.9752319 200 200 200
-0.0474033710868615 0.0225894351069284 -0.0664407638091681 0.0462755 -0.1638224 -0.9854039 185 185 185
-0.0368362776450825 0.0267868560125228 -0.0653525208301872 0.1344994 -0.193693 -0.9717988 131 131 131
-0.042263576472423 0.031674453806297 -0.0674252884417173 0.009795824 -0.1314555 -0.9912737 139 139 139
-0.0801770792141858 -0.0324343137727499 -0.00917971850520985 -0.9945492 -0.09432585 0.04443602 127 127 127
-0.0390260871023838 0.0324668858658072 -0.0676881760189889 0.1165358 -0.1796295 -0.9768074 115 115 115
-0.0369232521334373 0.0364656113404279 -0.0683841481225153 0.2238341 -0.08141857 -0.9712205 145 145 145
-0.0434943466070064 0.0258701100803252 -0.066419883990486 0.1307646 -0.1704118 -0.9766578 163 163 163
-0.0458546326062421 0.0307334786928457 -0.0670108132568207 -0.01822371 -0.08614463 -0.996116 144 144 144
-0.049665744543252 0.0297117983891033 -0.067003817313237 -0.07353696 -0.07554603 -0.994427 111 111 111
-0.0520577253087084 0.0301735968134184 -0.0668106611867027 -0.1653843 -0.0735961 -0.9834794 103 103 103
-0.0459496257239672 0.0330784959372623 -0.0667805122467205 -0.01744518 -0.0943317 -0.995388 135 135 135
-0.0470959973562838 0.0348452417054093 -0.0674998622370142 -0.04842406 -0.05320895 -0.9974086 129 129 129
-0.0452276612692256 0.0352962393966627 -0.0675404190785035 -0.03476909 -0.07001902 -0.9969395 155 155 155
-0.0488764792373078 0.0357971535148014 -0.0680647350640476 -0.06208646 -0.03888276 -0.9973131 151 151 151
-0.0518950488814724 0.0347722455198413 -0.0676696501190552 -0.1652027 -0.0183406 -0.9860891 145 145 145
-0.0547791751767476 0.0336603483800369 -0.066339331736547 -0.1894854 -0.05044201 -0.980587 107 107 107
-0.0552656122636549 0.0348281636139947 -0.0661820985485359 -0.1655724 0.003388325 -0.9861918 119 119 119
-0.0592303399178709 0.0123973288130292 -0.066002732921149 -0.05067432 0.1162405 -0.9919276 140 140 140
-0.0633041514044266 0.0142514753349445 -0.0647155112360079 0.04934078 0.05079293 -0.9974896 126 126 126
-0.0647353736697495 0.0122825092381508 -0.0653046365590334 0.06277765 0.09387623 -0.9936026 120 120 120
-0.0619319566228125 0.0146618200518366 -0.0651085996218509 -0.01987096 0.0665905 -0.9975825 122 122 122
-0.0558920854177416 0.0167189215286333 -0.0656257460310804 -0.03127933 0.038384 -0.9987734 162 162 162
-0.0567815896100202 0.0189632926232165 -0.0653802585847964 -0.1185326 0.04189561 -0.9920659 114 114 114
-0.0562771928856584 0.020798988862904 -0.0652775498270221 -0.1462628 -0.01992333 -0.9890451 125 125 125
-0.0689208111559515 0.0125517856135118 -0.0668400849889137 0.2634492 -0.009102305 -0.9646303 146 146 146
-0.0745226413372907 0.00854114678433535 -0.0682259141282743 0.09301706 -0.02993748 -0.9952143 154 154 154
-0.0705347919842525 0.0143780222596569 -0.067901554515894 0.2941775 -0.06562846 -0.9534948 187 187 187
-0.0649078109015501 0.0196130850169814 -0.0655835208797146 0.2299871 0.01613031 -0.97306 116 116 116
-0.0713122849905817 0.0180937076849422 -0.068484088669113 0.2681836 -0.04544468 -0.9622954 208 208 208
-0.0731426972656222 0.0203962014374861 -0.0687732596680658 0.1482617 -0.0469516 -0.987833 194 194 194
-0.0748569135690984 0.0193862113553677 -0.0693245208611828 0.06217647 -0.06509128 -0.9959404 215 215 215
-0.0543472645580226 0.0235057982883048 -0.0661358147341776 -0.1952855 -0.03567068 -0.9800975 103 103 103
-0.0587447788880302 0.0271348618995949 -0.0653306082083343 -0.0803012 -0.09617989 -0.9921196 90 90 90
-0.0574795231503028 0.02701265851615 -0.065619827680121 -0.1603389 -0.08009765 -0.9838068 115 115 115
-0.0646472343446235 0.0225999751502681 -0.0651608208821215 0.2480442 -0.02619896 -0.9683944 158 158 158
-0.0612837448797013 0.0260979156507219 -0.0650070708316475 0.05327158 -0.08049455 -0.9953305 156 156 156
-0.0591590225727248 0.0312290572491994 -0.065588570860255 -0.001860082 -0.1011274 -0.9948717 139 139 139
-0.0548328996299069 0.0301273009903927 -0.0664531504697587 -0.185391 -0.08338992 -0.9791202 165 165 165
-0.0566064323179494 0.0325463712631986 -0.0660156177438384 -0.1367189 -0.07934256 -0.9874273 110 110 110
-0.065111291627292 0.0319837835602781 -0.0661469985208589 0.2429818 -0.04081756 -0.9691717 157 157 157
-0.0656626864459078 0.0239470652948174 -0.0657110815564409 0.2913927 -0.05154341 -0.9552138 174 174 174
-0.0696626557182103 0.0232002680512664 -0.0678033865370507 0.369492 -0.03972848 -0.9283842 202 202 202
-0.0745355201853108 0.0252619697781135 -0.0695595798313024 0.1077048 -0.011832 -0.9941125 196 196 196
-0.0675623442529595 0.0308823297471334 -0.0672723271039637 0.2831769 -0.0282374 -0.9586519 156 156 156
-0.0783162568448819 0.0297449847564057 -0.0691378881639721 -0.1007583 0.06315871 -0.9929042 183 183 183
-0.0763523516013879 0.0308462255408554 -0.0695804012000306 0.07709397 0.08334347 -0.9935343 206 206 206
-0.0549226912154358 -0.0937936471184854 -0.030603040835123 0.0447574 -0.9935207 -0.1044666 135 135 135
-0.0579367256314823 -0.0931110628420961 -0.0314417942058271 -0.3423536 -0.9160177 -0.2090592 193 193 193
-0.0546399149393401 -0.0934499188201959 -0.0237649269378775 0.01190333 -0.9973541 -0.07171445 140 140 140
-0.0612974246683795 -0.0929059448883541 -0.0216672626287673 -0.5797284 -0.8141142 -0.03366068 163 163 163
-0.0630853916141311 -0.0869888461231763 -0.0217609890909838 -0.9712204 -0.2354511 0.03596833 159 159 159
-0.0578361276834459 -0.0932260499548959 -0.0273242376799647 -0.3027996 -0.9530337 -0.006248692 139 139 139
-0.0618311752560609 -0.090465996527732 -0.0236257330910022 -0.8887163 -0.4574842 -0.02985909 151 151 151
-0.0628407636370593 -0.0875010318433759 -0.0239849094748111 -0.9628105 -0.2696799 -0.01639416 174 174 174
-0.0628738492849281 -0.0871245890099598 -0.0259934955109823 -0.9584395 -0.2587009 -0.1202807 201 201 201
-0.05542200110234 -0.0936044551178811 -0.0316544393079278 -0.04213015 -0.9840666 -0.1727368 168 168 168
-0.0565080920882816 -0.0913934981663204 -0.035506683092661 -0.4066627 -0.7381386 -0.5383093 176 176 176
-0.0591838330148845 -0.0895614466382635 -0.0356825190852347 -0.6698807 -0.577907 -0.4661366 185 185 185
0.0439125318384459 0.0692079807625246 -0.0187977548877498 0.3706269 0.9073654 -0.1983019 86 86 86
-0.0571037466473873 -0.083963029707073 -0.0391916862774917 -0.5323296 -0.5200095 -0.6679935 174 174 174
-0.0606009115573062 -0.0836652687300917 -0.0395813184540407 -0.6117154 -0.4583635 -0.6447536 193 193 193
-0.0626927048374826 -0.0803675219614563 -0.0360008198076925 -0.9531363 -0.2595896 -0.1553848 103 103 103
-0.0585680118864875 -0.0827640384147905 -0.0399933263762197 -0.5644671 -0.4927046 -0.6622832 195 195 195
-0.0621430931576467 -0.0777916712308208 -0.0423841141712238 -0.7741749 -0.4205801 -0.4730388 205 205 205
-0.0584865666366103 -0.0779632049527733 -0.0449764826446045 -0.5775213 -0.6228197 -0.5277923 122 122 122
-0.0606309197712162 -0.0746388385160091 -0.0468759811046319 -0.6987435 -0.5324169 -0.4777967 175 175 175
-0.063816295074319 -0.0831853345395546 -0.018257102086152 -0.9768335 -0.2108192 0.03676489 103 103 103
-0.0653034034173713 -0.0768988544319635 -0.0145301494182449 -0.9547018 -0.2947529 -0.0408062 131 131 131
-0.0651155924202979 -0.074939733951676 -0.0207880897490095 -0.9662756 -0.2417544 -0.08869173 96 96 96
-0.0652238357368978 -0.0752939584632027 -0.022620429651485 -0.9731619 -0.2223428 -0.05932496 81 81 81
-0.0658201304986423 -0.0732892931140403 -0.0230533133335897 -0.9715453 -0.224874 -0.07437389 91 91 91
-0.0668670864599147 -0.0731414507487487 -0.0128920008749509 -0.9672194 -0.2510973 -0.037905 74 74 74
-0.0668676727325894 -0.0710042251477211 -0.0135019728977212 -0.9783171 -0.2025421 -0.0432711 50 50 50
-0.0675196088064408 -0.0685404855214464 -0.0111583767711557 -0.9812647 -0.1893401 -0.03563561 87 87 87
-0.0672028250737073 -0.0690622070173201 -0.0137220991748429 -0.9843619 -0.1701403 -0.0456488 60 60 60
-0.0669537683560099 -0.0721680647722164 -0.0161011360378495 -0.9720023 -0.2206652 -0.08073615 104 104 104
-0.0661749386757388 -0.0715013129706621 -0.021218151369307 -0.9739811 -0.2033323 -0.1000837 87 87 87
-0.0670120847419682 -0.0673354690096381 -0.0215940402017835 -0.9779103 -0.1756267 -0.1133434 72 72 72
-0.0553616775468054 0.0865962166618967 -0.0378520704972662 -0.000549491 0.9982672 -0.05884029 86 86 86
-0.0680738105247013 -0.0635136318939561 -0.0178691992264973 -0.9723712 -0.2083419 -0.1052998 66 66 66
-0.0640233941866023 -0.0782710966737194 -0.0278666115910095 -0.983939 -0.1550044 -0.08853061 83 83 83
-0.0645870705977138 -0.0753898431433555 -0.0254719512224575 -0.9779704 -0.2012288 -0.05550585 107 107 107
-0.071762706288601 0.0865606559283686 0.0161114508912983 0.129079 0.9891695 -0.06987427 53 53 53
0.0112467333947426 0.0759922078193278 0.0229323061131665 0.1393586 0.9854085 0.09772041 60 60 60
-0.0645204613723285 -0.0752547874008093 -0.0297566529812636 -0.9757275 -0.1877522 -0.1127161 98 98 98
-0.0658583537941081 -0.0716561259855961 -0.0282294697606746 -0.9788983 -0.1700407 -0.113332 77 77 77
-0.0833274650233387 -0.00600170636552133 -0.0278483685830794 -0.9753887 -0.2071261 0.07560223 87 87 87
-0.0644776674972836 -0.0734948447367972 -0.0352051471274743 -0.9810195 -0.1652796 -0.1014074 88 88 88
-0.0653423284527508 -0.0699811751298492 -0.0317213240720422 -0.9774334 -0.1746429 -0.1188439 91 91 91
-0.0668156265109274 -0.0676603977301095 -0.0232490447916827 -0.9807262 -0.1618436 -0.1094659 83 83 83
-0.0670625622608727 -0.0657438683462923 -0.0210294580284946 -0.9790437 -0.1650382 -0.1193145 67 67 67
-0.0678735784074213 -0.061031595817354 -0.0222686312117392 -0.9635407 -0.2020845 -0.1753601 58 58 58
-0.0665831323256204 -0.0648121247923162 -0.0288280734406795 -0.9849182 -0.1557957 -0.07525808 63 63 63
-0.0675345795835718 -0.060629285628014 -0.0261133549903852 -0.9756152 -0.1839463 -0.1197445 68 68 68
-0.0667521571979671 -0.0627185213283208 -0.0281565921677606 -0.9863277 -0.1518276 -0.06407812 65 65 65
-0.0690509416855303 -0.0627021068999496 -0.0078435162620774 -0.9396349 -0.2950926 -0.1732245 82 82 82
-0.0701688926428382 -0.0610157945905782 -0.00594877299820566 -0.9175791 -0.3306502 -0.2207238 105 105 105
-0.0700342124704424 -0.0601058206688202 -0.00932213268899894 -0.9305578 -0.3295403 -0.1595789 89 89 89
-0.0714733838188132 -0.0572771740657388 -0.00802838255109264 -0.9014419 -0.3760886 -0.2143822 99 99 99
-0.0714520516331129 -0.0567462862971452 -0.00903315412575954 -0.9183791 -0.3438061 -0.1959006 98 98 98
-0.0688364883882898 -0.0619572501415707 -0.0120350930545997 -0.9625846 -0.2573757 -0.08478598 84 84 84
-0.0681906778098992 -0.06272556182992 -0.0164357498775095 -0.9704046 -0.2181796 -0.1035011 87 87 87
-0.0699379929296307 -0.0572632891955161 -0.0143221438100623 -0.9407421 -0.3035318 -0.1512373 82 82 82
-0.0714450981295651 -0.0560415865818003 -0.0101666487787802 -0.9181767 -0.3480636 -0.1892174 83 83 83
-0.0721348694370875 -0.0537095363989942 -0.0113615319363926 -0.9239218 -0.3463393 -0.1625351 81 81 81
-0.0712117393721754 -0.0600749572227108 -0.0052901833867731 -0.9067543 -0.3520228 -0.2321133 137 137 137
-0.0737681941777261 -0.0507005106512685 -0.00631209818449315 -0.9130051 -0.3147566 -0.2595188 68 68 68
-0.076705048866892 -0.046807753346838 -0.000776547966463148 -0.9276541 -0.2916012 -0.2332952 148 148 148
-0.0727868584433687 -0.0537584472015196 -0.00840372599183613 -0.9262661 -0.3243864 -0.1918452 87 87 87
-0.073800781756365 -0.0501345638814554 -0.00680543591161917 -0.9135359 -0.3122715 -0.2606504 62 62 62
-0.0743150284613716 -0.0476094383062409 -0.0100863153021887 -0.9298033 -0.3206282 -0.1807302 92 92 92
-0.0744753092671322 -0.0456837303217054 -0.0109802633832235 -0.9180875 -0.3532489 -0.1798068 79 79 79
-0.0752201979954347 -0.0444330581452377 -0.00894191648137953 -0.90202 -0.3885209 -0.1881793 95 95 95
-0.0689971578826752 -0.0556734879133896 -0.0225409173480451 -0.9475576 -0.2521084 -0.1964074 108 108 108
-0.0699595591966303 -0.0545684385131955 -0.0183813605231553 -0.9398944 -0.2873898 -0.1844063 155 155 155
-0.0700454742690458 -0.0542888911662866 -0.0202323749082186 -0.9523779 -0.2571483 -0.1638633 157 157 157
-0.0695352897897286 -0.0540903547400521 -0.0247401349244138 -0.9558144 -0.2281516 -0.18538 107 107 107
-0.0734440450022424 -0.0493456587712224 -0.0144642785092625 -0.9414148 -0.2890553 -0.1737388 93 93 93
-0.0721478384190949 -0.0497324422664547 -0.0167519036714639 -0.9319498 -0.2892943 -0.2185826 151 151 151
-0.0735196363307846 -0.0456139264437106 -0.0164733689861675 -0.9174287 -0.3263473 -0.2276446 100 100 100
-0.0742569929937142 -0.043557130665837 -0.0161938984422451 -0.8963286 -0.3899702 -0.2109938 78 78 78
-0.0737785176881198 -0.043674931633292 -0.0174411777245782 -0.8911092 -0.3991067 -0.2159591 102 102 102
-0.0728054681563951 -0.0439087819064862 -0.0231014599588157 -0.8991054 -0.3660313 -0.2400639 75 75 75
-0.0738844917253745 -0.0430951170034825 -0.0195523323369883 -0.8922769 -0.4076457 -0.1940794 103 103 103
-0.0764171989958745 -0.0402302919854972 -0.0170625800195573 -0.830018 -0.5028507 -0.2412702 103 103 103
-0.0638129305873257 -0.0737820666737011 -0.0403423897871473 -0.9697784 -0.196923 -0.1440526 130 130 130
-0.0646644705587384 -0.0697718342824121 -0.0355406309067419 -0.9800289 -0.1702876 -0.1026918 97 97 97
-0.0647265526624859 -0.0686705722439658 -0.039244813498437 -0.9797913 -0.1880009 -0.06829876 97 97 97
-0.0629849594259524 -0.0721536819115386 -0.0454026189254433 -0.8846323 -0.3359519 -0.3233606 133 133 133
-0.064776490883108 -0.0675260794620466 -0.0435487260992633 -0.957761 -0.2578768 -0.1272528 78 78 78
-0.0650048466605279 -0.0673482639705431 -0.0448321029854836 -0.9531684 -0.267839 -0.1404717 119 119 119
-0.0659674117686933 -0.0660233135719101 -0.0332961180179011 -0.9751815 -0.1919754 -0.1103019 76 76 76
-0.0675061424458012 -0.0597735125866876 -0.0319630047127538 -0.9815389 -0.1809462 -0.06196687 73 73 73
-0.0659563147900772 -0.062730017467721 -0.0414640612802191 -0.9748607 -0.2164754 -0.05277247 82 82 82
-0.0658399792886676 -0.0627436181163476 -0.0435353750033139 -0.9743536 -0.2221293 -0.03596687 104 104 104
-0.0665669591868358 -0.0599429340885402 -0.0420219052895558 -0.9708438 -0.2364638 -0.0393339 66 66 66
-0.0671805489979851 -0.0581823286167651 -0.0380328840644519 -0.972629 -0.2274029 -0.04775769 87 87 87
-0.0676737206887753 -0.0552197216905773 -0.0358119322619024 -0.9801562 -0.1914171 -0.05151074 61 61 61
-0.0596245505858674 -0.0699998788711345 -0.0520165121739554 -0.4771569 -0.2707927 -0.8360578 217 217 217
-0.0644811928382254 -0.0669259295516531 -0.0477392091767056 -0.8806888 -0.3512831 -0.3177853 142 142 142
-0.0651190231698424 -0.0648840410528952 -0.0458699067022788 -0.9465013 -0.2978132 -0.1242682 101 101 101
-0.0656840519785463 -0.0633125230781723 -0.0466070967379044 -0.9463133 -0.2831016 -0.1560275 100 100 100
-0.0632062240246806 -0.0629947961320419 -0.0513426764181177 -0.6332707 -0.2857387 -0.7192507 218 218 218
-0.0634410339789082 -0.0612124297386146 -0.05196315496037 -0.6491676 -0.300946 -0.6985793 228 228 228
-0.0662720875710282 -0.0610470035526162 -0.0462894992249273 -0.9568849 -0.2797935 -0.07801849 118 118 118
-0.0674548900780626 -0.0571276389421561 -0.0481069076722004 -0.9526342 -0.2614298 -0.1553786 180 180 180
-0.0679801161483549 -0.0549222666912162 -0.0422712327130356 -0.96829 -0.2498006 -0.003758092 90 90 90
-0.0680432258872097 -0.0544654909647397 -0.0448031900088595 -0.9690457 -0.2468357 0.004752049 125 125 125
-0.0655773072178718 -0.0587249347358561 -0.051482754299412 -0.7308775 -0.2973285 -0.6143402 226 226 226
-0.0666602863684433 -0.0563046228464241 -0.0511972011812367 -0.8376125 -0.2249561 -0.4977952 190 190 190
-0.0669464769709744 -0.0526152169682326 -0.0518211415279649 -0.5405829 -0.2320337 -0.8086597 204 204 204
-0.0689483178627727 -0.0513830726684525 -0.050691960747518 -0.8555312 -0.2489818 -0.4539542 166 166 166
-0.0682117702510505 -0.0557207508156669 -0.0300228401711378 -0.9786785 -0.1900241 -0.07796916 62 62 62
-0.0689854824604008 -0.0502867515976426 -0.0291541339671392 -0.9726713 -0.2060007 -0.1071177 68 68 68
-0.0699053825948474 -0.0482277268827327 -0.0285209807858545 -0.961104 -0.2293453 -0.1538827 77 77 77
-0.0706222837544189 -0.0466754271328532 -0.0280307665121158 -0.9314986 -0.3009258 -0.2043377 69 69 69
-0.0687169419061588 -0.0499839023410731 -0.0387430494153804 -0.9808012 -0.194279 0.01687112 90 90 90
-0.0696321721354435 -0.0466839498982635 -0.0330658128324447 -0.9621018 -0.2653729 -0.06274907 106 106 106
-0.0693977612489564 -0.0465193991748179 -0.037035125926166 -0.9657249 -0.2565105 -0.03972013 96 96 96
-0.0728963764117398 -0.043566971773436 -0.0249855127991173 -0.8933274 -0.3622111 -0.2660248 75 75 75
-0.0724032159870933 -0.0410153064651879 -0.0279775059003322 -0.9146249 -0.3038042 -0.2667662 96 96 96
-0.074987920395255 -0.038484241806435 -0.0235089282125697 -0.8623179 -0.3833566 -0.3308256 111 111 111
-0.0751504966254241 -0.0371923818619836 -0.0247775713141789 -0.8449156 -0.4030623 -0.3516509 126 126 126
-0.0713827591903963 -0.0423106696344581 -0.0313432629093402 -0.9505299 -0.283608 -0.126726 99 99 99
-0.0720171709100443 -0.0385406297939595 -0.0337413471640697 -0.9572735 -0.2728479 -0.09581999 95 95 95
-0.0756506944636067 -0.0349055706815821 -0.0262572803783691 -0.8137318 -0.4767939 -0.3324275 132 132 132
-0.0756051583889339 -0.0396941418033617 -0.022287382335955 -0.8695504 -0.4252839 -0.2510291 111 111 111
-0.0693611296072667 -0.0504901129082889 -0.0438968135785516 -0.983753 -0.179405 0.00663113 121 121 121
-0.0699575829700144 -0.0453653156998845 -0.0428253631907138 -0.9814633 -0.1894783 -0.02877152 105 105 105
-0.0983210540292586 0.0750908145249361 0.00688512350291819 -0.9689054 -0.216026 -0.1206445 101 101 101
-0.0707598020014357 -0.0415577355427369 -0.0410383688982117 -0.9742141 -0.2182872 -0.0570746 96 96 96
-0.0693633928983143 -0.0476014426303336 -0.0445802609249914 -0.9857373 -0.1682655 -0.002968561 102 102 102
-0.00723961783736193 0.0798990168114826 -0.031365623742121 0.1862293 0.9812567 -0.04953787 112 112 112
-0.0699669872149516 -0.0448125445072139 -0.0450775392665969 -0.9842436 -0.1741367 -0.03067649 99 99 99
-0.0711421644229253 -0.0393007980368631 -0.0472110412602424 -0.9720011 -0.234872 -0.007004036 135 135 135
-0.0717773767421835 -0.0385260162070631 -0.0376540130057043 -0.9687546 -0.2405984 -0.06022285 90 90 90
-0.0721636389934373 -0.0371374882839711 -0.0391652107852717 -0.962055 -0.2670303 -0.05607955 114 114 114
-0.0731552864258378 -0.0349022420268997 -0.0352370935986368 -0.9303406 -0.3405856 -0.1358958 105 105 105
-0.075019369403165 -0.0325294350085021 -0.0319637342132219 -0.8144532 -0.4936532 -0.3049139 82 82 82
-0.0739179992904081 -0.0313350046317328 -0.0368470515663557 -0.8932649 -0.420853 -0.1579892 82 82 82
-0.0718396862254982 -0.0371749394256971 -0.0416955965518777 -0.9677387 -0.2439423 -0.06303992 94 94 94
-0.072102707938529 -0.0356294659751355 -0.0437708372809166 -0.9690736 -0.2418434 -0.04907276 99 99 99
-0.0732155980071293 -0.032751682586732 -0.0380749482138989 -0.9433668 -0.3062325 -0.1275959 89 89 89
-0.0732841638987293 -0.0334885797627119 -0.0420214966749271 -0.9548043 -0.2838331 -0.0882472 87 87 87
-0.0780538305034217 -0.0442806735228917 -0.000805255662518212 -0.9356197 -0.2890164 -0.2026951 164 164 164
-0.0795753135250623 -0.0410394221047007 0.00352491570131482 -0.9844116 -0.1646001 -0.06197308 107 107 107
-0.07876777937171 -0.0419366403550575 -0.00303398900862219 -0.9188635 -0.3427895 -0.1954101 94 94 94
-0.0793513931985995 -0.0397563843026538 0.00339927093457716 -0.9886362 -0.1410706 -0.05193808 115 115 115
-0.0799232908512177 -0.0372342126213945 -0.000146720167461381 -0.9884932 -0.1493843 -0.02378159 117 117 117
-0.0805214006456244 -0.0336774408054563 0.00110801846390247 -0.9960626 -0.08163373 -0.03457353 102 102 102
-0.0794841757991906 -0.0398889866211403 -0.00337528240556703 -0.9452385 -0.2962729 -0.1369182 97 97 97
-0.0771989470386862 -0.0414408107885175 -0.00654038942717605 -0.8871953 -0.4267058 -0.175518 101 101 101
-0.077793650926254 -0.0401957761000648 -0.00941570843709769 -0.8732314 -0.4699428 -0.1289213 92 92 92
-0.080223958756063 -0.0344743160348626 -0.00181276314768275 -0.9965708 -0.07778292 -0.02822187 84 84 84
-0.0809620592843594 -0.0298614024527905 0.00244386217284934 -0.9987715 0.01598391 -0.04690324 108 108 108
-0.0809778673928361 -0.0254624248790643 0.00707755613258754 -0.9978809 0.06026344 -0.02453493 109 109 109
-0.0808612397665689 -0.028535600150345 0.00534916396633203 -0.9981837 0.03433307 -0.04950266 87 87 87
-0.0805193877834117 -0.0322932150312832 -0.00153616106985739 -0.9976967 -0.0407385 -0.05423762 54 54 54
-0.0802624743304989 -0.0276943865162293 -0.000103726993856273 -0.9997799 0.00591938 -0.02012397 95 95 95
-0.0799945410811913 -0.0290425452104595 -0.00246930306092562 -0.9983476 -0.03346291 -0.04671458 126 126 126
-0.080314008008826 -0.028571225213492 -0.00141662348752676 -0.9992338 -0.01366032 -0.0366763 148 148 148
-0.0804093886362175 -0.0228249298143305 0.00430652587102155 -0.9999935 -0.002936566 -0.002093517 94 94 94
-0.0803383361810619 -0.0244951123543698 0.00343903502801605 -0.9996681 0.01984806 -0.01642774 80 80 80
-0.0793836227072766 -0.0378098988255426 -0.0104136839220109 -0.9135593 -0.401013 -0.06780869 127 127 127
-0.0802732522730412 -0.0315285907751605 -0.00545324593083528 -0.998671 -0.04846361 -0.01753591 72 72 72
-0.0801340464031655 -0.0359306993710344 -0.0132995423553263 -0.9480991 -0.3093252 -0.07366086 131 131 131
-0.0793777074622188 -0.0351452731407762 -0.017512756932962 -0.8715351 -0.4044434 -0.2772222 168 168 168
-0.0807519846317555 -0.0331316369870555 -0.0130206698147653 -0.9855499 -0.1659332 -0.03402166 138 138 138
-0.080490961204875 -0.0267529199884392 -0.00739166724122109 -0.9888097 -0.1338815 0.0658112 79 79 79
-0.081005333564961 -0.0261846372790476 -0.0114446809496352 -0.9850425 -0.1569643 0.07108755 102 102 102
-0.0821010317769176 -0.0233276345941092 -0.0138684696136545 -0.9886048 -0.1453825 0.03904299 108 108 108
-0.0817255394609676 -0.0220817530324475 -0.0104224130483623 -0.9880814 -0.1414859 0.06063765 115 115 115
-0.0818120045821971 -0.0188988405647963 -0.00852026201987881 -0.9858106 -0.1239617 0.1131858 127 127 127
-0.0822942649269094 -0.018735632345501 -0.0108870661017228 -0.9926552 -0.1164236 0.03288208 92 92 92
-0.0805088209745862 -0.0204506015418563 0.006946542639281 -0.9986931 -0.05044243 -0.008225977 87 87 87
-0.0811333715024681 -0.0179983750223991 0.00827423049976336 -0.9930803 -0.1146595 0.02539068 75 75 75
-0.0476435571953943 0.0669957929974279 -0.0678463184308769 0.02502601 0.1157275 -0.9929657 186 186 186
-0.0807778916195224 -0.017894572570847 0.0037315175080264 -0.9908185 -0.1324856 0.02695028 84 84 84
-0.0823204670389613 -0.0112697494135033 0.00640528584687917 -0.959288 -0.2813815 0.02430954 128 128 128
-0.0830490337131865 -0.00893904742124296 0.0104776313020762 -0.9703198 -0.2248023 0.08912573 179 179 179
-0.0838828533385446 -0.0070962094170596 0.0113750076053001 -0.9860629 -0.1134864 0.1216585 173 173 173
-0.083350767977326 -0.00295798484374732 0.0122066142923438 -0.9981118 0.03619498 0.04962659 140 140 140
-0.0836480449781938 -0.00586634801494029 0.00447894861175969 -0.9962823 -0.08071841 0.03009953 117 117 117
-0.0833170316719364 -0.00342814358941404 0.0104736791468464 -0.9968448 0.03710706 0.07016782 158 158 158
-0.0831172526771052 -0.000678414867787497 0.00798428683086173 -0.9942073 -0.002252067 0.1074556 163 163 163
-0.0815074516609823 -0.0150124620503012 -0.00367618078108621 -0.9796005 -0.165575 0.113876 86 86 86
-0.0819279821961082 -0.0139170312787068 -0.00443954347604225 -0.976557 -0.1840062 0.1117057 109 109 109
-0.0830370062714721 -0.00941296762359756 0.00212968400476747 -0.9722714 -0.2336422 0.009978863 112 112 112
-0.0825013862280286 -0.0124535593967877 -0.00661896796448447 -0.9823858 -0.1657744 0.08623789 123 123 123
-0.0833268338852475 -0.00749046797496319 0.00277416270898941 -0.9803867 -0.1969852 -0.006216018 118 118 118
-0.0834419246890615 -0.000606476623015717 0.00617954386384072 -0.9910604 -0.05398868 0.1220019 141 141 141
-0.0840699795431402 0.00182593149406118 0.00575381954286849 -0.9881096 -0.05506764 0.1435511 163 163 163
-0.0842479155725281 0.00228847501748636 0.00309777342079685 -0.9964551 -0.04834823 0.06884465 195 195 195
-0.0841498052608418 -0.00417070650747883 -0.00369325884226816 -0.9947487 -0.0894077 0.04981306 161 161 161
-0.0839770095341683 -0.000524884159129158 -0.00145114163459516 -0.9986106 -0.0351237 0.03928318 155 155 155
0.0186764450192906 0.0753510529446565 0.0348762454773671 0.05521157 0.9977638 -0.03766998 89 89 89
-0.0841907563417007 0.00436691444125312 -4.99240309867754E-05 -0.9998504 -0.008154557 0.01525309 157 157 157
-0.0842248695005788 0.00384639553721924 -0.00152383144283247 -0.9992802 -0.02828173 0.02528259 120 120 120
-0.0782169509805244 -0.034759970493682 -0.0208919058392948 -0.8556616 -0.4299598 -0.2880587 116 116 116
-0.0777121123550188 -0.0332404613401731 -0.0233793677903498 -0.8359134 -0.4668286 -0.2886518 143 143 143
-0.0805771528127488 -0.0294734856950693 -0.0207678308284512 -0.9483949 -0.292169 -0.1232252 144 144 144
-0.0791790775243956 -0.0306765536224513 -0.0253874861000553 -0.8308807 -0.4945351 -0.2550928 165 165 165
-0.0802434656010614 -0.0280700671122636 -0.0242540965084294 -0.9100499 -0.3852331 -0.1529856 156 156 156
-0.0810784305932991 -0.0248457437238659 -0.0266164572857778 -0.9382369 -0.3321959 -0.09673398 167 167 167
-0.0816465140903868 -0.0249662737039167 -0.0177927829189344 -0.9891263 -0.1461261 0.016625 132 132 132
-0.0821633462037189 -0.021157200701832 -0.0189350155572309 -0.9981186 -0.05718561 0.02211695 112 112 112
-0.0823901492078081 -0.0173021616156649 -0.0148540014209701 -0.9942685 -0.09878936 -0.04087521 103 103 103
-0.0820965594033577 -0.0210718934287697 -0.0202381634484259 -0.9979157 -0.04839065 0.04269045 135 135 135
-0.0824616653879794 -0.019562989669213 -0.023842270901501 -0.9914331 -0.06136338 0.1153032 126 126 126
-0.0822144455220057 -0.0177204675844644 -0.0226828567814298 -0.995732 -0.05046218 0.07727472 99 99 99
-0.0763556608885783 -0.0292562069457902 -0.0338895738250408 -0.7879723 -0.5469227 -0.2827989 151 151 151
-0.0750531683018789 -0.0293013451420816 -0.0364573202914561 -0.8259988 -0.5320081 -0.1862617 120 120 120
-0.0776735151922462 -0.0280581896319482 -0.0324127411200625 -0.7672821 -0.5533206 -0.3242137 162 162 162
-0.0795428767076227 -0.0241899855990422 -0.0361882688649211 -0.7942956 -0.5750661 -0.1959424 155 155 155
-0.0762828802818561 -0.0264953164617647 -0.0408283166270349 -0.7934626 -0.5665118 -0.2224444 113 113 113
-0.0787078025997222 -0.0249028093310289 -0.0353690149180263 -0.7885334 -0.5792376 -0.206637 165 165 165
-0.0825158305933419 -0.0240998736833992 -0.0276434591672697 -0.9192271 -0.3732605 -0.1252925 182 182 182
-0.0820294379798869 -0.0217213417358113 -0.0304548774495671 -0.9269705 -0.3504055 -0.1339465 191 191 191
-0.0808267897573473 -0.0232069122516129 -0.0336434992985035 -0.8736761 -0.4592782 -0.1604794 161 161 161
-0.0819263223014849 -0.0209443234880513 -0.0344001134574027 -0.9083626 -0.3996734 -0.1230393 189 189 189
-0.0828102301696726 -0.020345047917771 -0.0292416668975707 -0.9691657 -0.2382137 -0.06302425 182 182 182
-0.0826105062273547 -0.011193786270501 -0.0227678716155191 -0.996808 -0.07491442 -0.02759773 86 86 86
-0.0831961389148085 -0.0146450655500177 -0.0290205854722946 -0.9966996 0.01238017 0.08022905 132 132 132
-0.0829167301131121 -0.0183805893441326 -0.0327815567214603 -0.9709513 -0.229305 -0.0683585 178 178 178
-0.0831462742434197 -0.0164256678350896 -0.0344975923031812 -0.9838964 -0.1684201 -0.05985447 91 91 91
-0.0836241413795095 -0.0144462894435364 -0.0310602410896068 -0.9984421 -0.009229813 0.05502995 91 91 91
-0.0826531096021941 -0.0145677168770312 -0.0147017399043302 -0.9909775 -0.1297579 -0.0335634 93 93 93
-0.0830023862919332 -0.0128239389088233 -0.016959480663846 -0.9858975 -0.1408023 -0.09044745 92 92 92
-0.0837152605226037 -0.00660022666050222 -0.00944231575333036 -0.9859874 -0.1645129 -0.02764878 157 157 157
-0.0836091506195743 -0.00518514120331398 -0.0136524433412949 -0.9916597 -0.1277963 -0.01670951 99 99 99
-0.082929266612412 -0.00985537977897277 -0.0193016506355232 -0.9883353 -0.1218771 -0.0913201 102 102 102
-0.0835004472847032 -0.00675118659969878 -0.0193296499491127 -0.9886369 -0.1216322 -0.08833312 96 96 96
-0.0826805901623623 -0.00874226511778869 -0.0211674913331099 -0.9862897 -0.1433193 -0.08180531 97 97 97
-0.0840335404401893 -0.00293656341214421 -0.0160408197425444 -0.9906188 -0.1342713 -0.02540743 163 163 163
-0.0846047313776228 -0.0028794425900463 -0.0100839226318979 -0.9885377 -0.1453433 -0.04084752 192 192 192
-0.0849689473087577 0.000972481811212511 -0.00826757618779309 -0.9982842 -0.01721833 0.05596665 161 161 161
-0.0845111074890934 0.00534688982344764 -0.00389398969176781 -0.9983748 -0.01833502 0.05395945 96 96 96
-0.0846264533142258 0.000782337600231775 -0.0143394194889238 -0.9976349 -0.06586785 -0.01964448 214 214 214
-0.0850615790476258 0.00325192903542504 -0.0114443940561081 -0.9999001 0.005107326 -0.01317988 101 101 101
-0.0845863303900395 0.00519650381565392 -0.0107556708358233 -0.9997431 0.02102841 -0.008458796 78 78 78
-0.0844102607468433 0.00785806609878162 -0.0105296075743866 -0.9999911 0.004225526 0.0002180971 69 69 69
-0.0845849896976709 0.00411190259665278 -0.0150069853601005 -0.9992222 -0.03337066 0.02101151 124 124 124
-0.0844551372688817 0.00866303395281146 -0.0131355869901741 -0.9990354 0.003237553 0.04379253 93 93 93
-0.0830401432205516 -0.00680282961969414 -0.0212464456886049 -0.9866424 -0.1545909 -0.0513653 130 130 130
-0.0829604996988373 -0.00772612638788966 -0.0271224326743354 -0.9856914 -0.1580277 0.05864967 100 100 100
-0.0838547785721153 -0.00520661694869526 -0.025192298207011 -0.9755604 -0.21838 0.02433256 108 108 108
-0.083011259128176 0.00556853953521722 0.0610243107347977 -0.9536772 -0.1213661 0.2752634 95 95 95
-0.0842626871451312 -0.00138650505131865 -0.0198693237693038 -0.9912382 -0.1318588 0.007756423 153 153 153
-0.0845085502999471 -0.00156884814090899 -0.0241626253400485 -0.9842798 -0.1708534 0.04474879 147 147 147
-0.0838320254312337 -0.00551493230032807 -0.0318057495682542 -0.981266 -0.1658077 0.09810578 96 96 96
-0.0843691000450209 -0.00348532329142281 -0.0313135378678163 -0.9769676 -0.1948307 0.08703642 90 90 90
-0.0839037360298294 -0.0038440125132817 -0.0264370155116525 -0.9721736 -0.2302475 0.04318174 104 104 104
-0.0849634462895458 0.00016604599700662 -0.0242678645987142 -0.9894068 -0.1253339 0.07325001 111 111 111
-0.0847911397363273 0.00118555607319512 -0.0266772545984958 -0.9883438 -0.134525 0.0712705 85 85 85
-0.0850282351059883 0.00159855299127268 -0.0292962905226214 -0.9886943 -0.141768 0.0488402 84 84 84
-0.0852143037266951 0.00439256415578285 -0.0175827035080311 -0.9976898 -0.06518105 0.01914322 105 105 105
-0.0848947605276549 0.00459637266724722 -0.0200499335792452 -0.9955824 -0.0848439 0.0402147 114 114 114
-0.0848548090740463 0.0067311982411081 -0.0165580852797814 -0.9984344 -0.02427042 0.05039512 92 92 92
-0.0850007219139161 0.0105893865376297 -0.0169859654696908 -0.9962872 -4.022373E-05 0.0860915 101 101 101
-0.0848866920411382 0.00265754267521634 -0.0245988257151794 -0.9869299 -0.1323897 0.0918823 91 91 91
-0.0853156210185416 0.00410531738424724 -0.0264121059322815 -0.9876337 -0.1326959 0.08349526 72 72 72
-0.0854830658156447 0.00848222263317755 -0.0225025006519692 -0.9890701 -0.08455367 0.1207929 81 81 81
-0.0857585872566308 0.0130317053148986 -0.0224596777546479 -0.9883685 -0.04648104 0.1448008 77 77 77
-0.0683041039727231 -0.0505615993909044 -0.0519149363688402 -0.6634309 -0.3713532 -0.6495816 179 179 179
-0.0698266214820596 -0.044791493350452 -0.0504553963247855 -0.942211 -0.3122314 -0.1214495 143 143 143
-0.0705530069782137 -0.041585243163021 -0.0493527407154215 -0.9733888 -0.228943 0.009968841 130 130 130
-0.0716684194697924 -0.0375676311584574 -0.0479253252150022 -0.9720103 -0.2349162 0.003202699 121 121 121
-0.0711133814590047 -0.0398904707887538 -0.0532735110908874 -0.9538407 -0.2641581 -0.1428577 106 106 106
-0.065910306528436 -0.0421142656584684 -0.0563390975364028 0.01478793 -0.4090982 -0.9123705 122 122 122
-0.0697865336296364 -0.0428583939523279 -0.0555914725192479 -0.6420932 -0.4423758 -0.6261149 187 187 187
-0.0658176083731568 -0.0391935502455866 -0.0573736489059549 -0.04688163 -0.3891313 -0.9199886 180 180 180
-0.0711551989151948 -0.038455253266533 -0.0567048513685921 -0.7564375 -0.3373209 -0.5603721 149 149 149
-0.0728354649534226 -0.0318198476942057 -0.0463705139405658 -0.9646763 -0.2578768 -0.05384402 79 79 79
