ply
format ascii 1.0
comment File exported by Rhinoceros Version 7.0
element vertex 468
property float x
property float y
property float z
property float nx
property float ny
property float nz
property uchar red
property uchar green
property uchar blue
end_header
-0.0419923668556135 -0.0078760996821976 -0.0174962827304984 -0.274352 0.2377579 -0.9317737 78 78 78
-0.0416299378271681 -0.00888323161747229 -0.0174014006740434 -0.2531728 0.2251918 -0.9408465 104 104 104
-0.0424139275265556 -0.00918401595794593 -0.0179448256298157 -0.3065916 0.2166811 -0.92685 45 45 45
-0.0391746390408518 -0.00671098189510566 -0.0179323010347792 -0.1519469 0.2192824 -0.9637569 48 48 48
-0.0414896162197107 -0.0156842639556216 -0.0192894357422316 -0.3617512 -0.006263541 -0.9322537 155 155 155
-0.041302028516522 -0.012181243151655 -0.018625518782741 -0.2745797 0.1566487 -0.9487187 53 53 53
-0.0414657939782495 -0.0178085274858606 -0.0196931881030994 -0.4263867 -0.1852977 -0.8853582 161 161 161
-0.039060626626805 -0.0149257127438667 -0.0198288258959883 -0.2375424 0.07431281 -0.9685304 120 120 120
-0.0411728874684651 -0.0106497721748797 -0.0185000572201107 -0.2358505 0.1906226 -0.9529101 80 80 80
-0.0399503282347566 -0.0113376754142149 -0.0185698674896945 -0.1793799 0.222659 -0.9582514 78 78 78
-0.0382348637445844 -0.00754325500002584 -0.0182164696603122 -0.1512473 0.2275691 -0.9619442 108 108 108
-0.037173546995058 -0.0123552804362785 -0.0196147965341642 -0.1373859 0.2378327 -0.9615408 94 94 94
-0.0361002552590053 -0.00883713475240411 -0.018954996875518 -0.1460491 0.2120089 -0.9662929 114 114 114
-0.0348920852460586 -0.00769188666507636 -0.0187878766621581 -0.1427473 0.2105345 -0.9671083 118 118 118
-0.0340178288838995 -0.00957191969366988 -0.0194166334565926 -0.1316696 0.1825752 -0.9743354 146 146 146
-0.0398888908221193 -0.000199245817401605 -0.0160139519161542 -0.2882658 0.3445994 -0.8933947 36 36 36
-0.0383708252460435 0.000714366003369937 -0.0165779421910883 -0.2900268 0.3233355 -0.9007434 33 33 33
-0.037957778922076 -0.00112493158212756 -0.0169058309930854 -0.1585504 0.2330648 -0.9594491 44 44 44
-0.0374777442505241 -0.00252627150405194 -0.0168164884669917 -0.1539912 0.2456421 -0.957051 52 52 52
-0.0384105251770515 -0.0048797661523412 -0.0170977214290689 -0.1489326 0.2192497 -0.9642348 56 56 56
-0.0377440111929508 -0.00419418108961778 -0.0170799082381061 -0.1476874 0.2233966 -0.9634742 27 27 27
-0.0386020620474787 -0.00541039679928401 -0.0180362098621933 -0.1552962 0.2332357 -0.9599397 50 50 50
-0.0367851188758144 -0.000529659374777447 -0.0166310988575427 -0.1629052 0.2378238 -0.9575499 18 18 18
-0.035957764404581 0.000392532979986315 -0.016589840472896 -0.1714114 0.2467244 -0.9538057 35 35 35
-0.035855850480272 -0.00259582452874163 -0.017150151096998 -0.1663161 0.2239146 -0.9603131 46 46 46
-0.0346231469949918 0.00357072099772471 -0.0167463582557184 -0.1532599 0.3358983 -0.9293458 52 52 52
-0.0314982745769621 0.00299698921550973 -0.0165216643800766 -0.1550429 0.2618419 -0.9525757 39 39 39
-0.0354515529157626 -0.00552591257025181 -0.0180854845028976 -0.1532023 0.2202198 -0.9633443 87 87 87
-0.0341782485162672 -0.00380344123525433 -0.017903960153842 -0.1865053 0.2321651 -0.9546283 61 61 61
-0.0331976466475581 -0.00450346042404859 -0.0185751776935177 -0.2124055 0.2339997 -0.9487508 51 51 51
-0.0316580545461238 -0.00249648667779101 -0.0183887802349618 -0.2331761 0.2821339 -0.930607 59 59 59
-0.0331869745870317 -0.00872295460355943 -0.0190935574845639 -0.1236223 0.1753728 -0.9767097 159 159 159
-0.0321045058494396 -0.00782865112925113 -0.0192840348334878 -0.1757805 0.1566611 -0.971884 122 122 122
-0.0326288016720255 -0.00175254074049169 -0.0176425018095154 -0.1887058 0.2748635 -0.9427832 73 73 73
-0.0301560464441475 0.00278566864912988 -0.0167806256780532 -0.1840239 0.283403 -0.941179 35 35 35
-0.0289739677178948 0.00228047400897058 -0.0168516323578936 -0.2113517 0.2903544 -0.9332871 54 54 54
-0.0296934962517408 -0.000922518702633601 -0.0181588463137974 -0.2880873 0.3196385 -0.9026832 78 78 78
-0.0299240089325004 -0.0020230679875064 -0.0189043041545177 -0.2935799 0.2970056 -0.9086245 93 93 93
-0.0278213038397763 -0.00265543986693428 -0.0195038327617104 -0.3028304 0.2549307 -0.9183159 64 64 64
-0.0270393092032373 -0.00103673829913831 -0.0196558672133274 -0.3404061 0.2843804 -0.896243 76 76 76
-0.027230049621465 0.0235080828274281 -0.016311072098071 -0.8645803 0.4937132 -0.0935315 63 63 63
-0.0276454924781195 0.0228760517321145 -0.0169701437387526 -0.8868082 0.4279415 -0.174463 74 74 74
-0.026182758399927 0.0214469862127 -0.0181480424230012 -0.7434133 0.1243852 -0.6571643 53 53 53
-0.0246560360879124 0.0219825362642343 -0.0199057111951207 -0.6189022 0.09237376 -0.7800174 120 120 120
-0.0229065245473608 0.0258997794527358 -0.0172317092516849 -0.6644808 0.7454302 -0.05290579 74 74 74
-0.0240110550677757 0.0253378752192814 -0.0194412523322143 -0.5790921 0.5478497 -0.6037492 182 182 182
-0.0231967281974654 0.0246072554730821 -0.0201077891836641 -0.5409371 0.3167794 -0.7791263 170 170 170
-0.0225681060604326 0.0274164088310109 -0.0189210445120665 -0.561996 0.7269782 -0.3945417 90 90 90
-0.0275218395652645 0.0138399585753752 -0.015924235545564 -0.4977196 0.03133017 -0.8667719 26 26 26
-0.0246404598295054 0.0152083656481605 -0.0179892473100603 -0.4878547 -0.08315642 -0.868955 67 67 67
-0.0248727177598811 0.0133650707006048 -0.0175508727616532 -0.457005 -0.05469506 -0.8877808 54 54 54
-0.0242646949751033 0.0123118988987099 -0.0177121474460817 -0.4732817 -0.03492197 -0.8802186 92 92 92
-0.027284491939874 0.00451800037285843 -0.0169059018743872 -0.3563949 0.2123045 -0.9098953 68 68 68
-0.0249440539430683 0.00395825995291577 -0.0182314285327274 -0.4233007 0.2448924 -0.8722638 61 61 61
-0.0226635454056563 0.00368389167574845 -0.0197385279601877 -0.3854634 0.1657012 -0.907723 63 63 63
-0.0255566156745515 0.00877464653321125 -0.0171857482069711 -0.4393753 0.07612322 -0.8950724 60 60 60
-0.0244417931086087 0.0075905696648817 -0.0176483576225945 -0.456211 0.1201194 -0.8817272 75 75 75
-0.0235522758738145 0.00910056800069858 -0.0180428303549494 -0.4607566 0.08652867 -0.8832985 104 104 104
-0.0232238378913343 0.0113420416790349 -0.0178790255965822 -0.480148 0.005828829 -0.8771681 85 85 85
-0.0217578753086041 0.00978003963559049 -0.0190296391704722 -0.4435624 0.0214665 -0.8959864 108 108 108
-0.0218010771345396 0.0123469100766223 -0.0192162844716354 -0.4633187 -0.01579884 -0.8860509 74 74 74
-0.022912831604738 0.00630147270961379 -0.0193608029905532 -0.4448691 0.1575195 -0.8816344 71 71 71
-0.0223172614198917 0.0079838945273385 -0.0190464932876277 -0.4521388 0.08266725 -0.8881084 114 114 114
-0.0217249210433579 0.00585388899588146 -0.0193307954557085 -0.4166515 0.1441923 -0.8975579 119 119 119
-0.0211510897379759 0.00756965523202524 -0.0198056226997797 -0.383354 0.1185427 -0.9159625 166 166 166
-0.0208667620579766 0.010542193628174 -0.0200971389318518 -0.390026 -0.002327981 -0.9208009 135 135 135
-0.0261309448775413 0.0169410761269619 -0.0179519140662012 -0.5586169 -0.06788742 -0.8266429 55 55 55
-0.0258816979328726 0.0178923039862255 -0.0179944473454173 -0.6214229 -0.06773757 -0.7805416 93 93 93
-0.0238991821017969 0.0174526453272124 -0.0181490131909355 -0.5031578 -0.1560136 -0.8499953 90 90 90
-0.0243006067479046 0.0193032166496878 -0.0183760632140108 -0.6003234 -0.04213266 -0.7986467 97 97 97
-0.0228088991501809 0.0181613474306093 -0.0185268122027292 -0.4586461 -0.1467783 -0.876413 98 98 98
-0.0213298050174113 0.0194305102920889 -0.020353424381058 -0.3833101 -0.1152454 -0.9164016 158 158 158
-0.0220996787645622 0.0189300980129501 -0.0204596489479871 -0.3952668 -0.1231548 -0.9102731 89 89 89
-0.0201321985080389 0.0158678398482637 -0.0203522218043166 -0.4096043 -0.1054712 -0.9061458 139 139 139
-0.0231473330312977 0.0215683192200016 -0.0201592172415184 -0.5085571 0.04655543 -0.8597687 204 204 204
-0.022072186236318 0.0221688584574182 -0.0204968110485121 -0.446343 0.06496833 -0.8925004 218 218 218
-0.0186530609632773 0.0234315073628721 -0.0212020116230309 -0.2633726 0.1135545 -0.9579876 153 153 153
-0.0209178403632031 0.0210107934927204 -0.0211554383463836 -0.3842803 -0.01711502 -0.9230579 177 177 177
-0.0191457314547581 0.020200126897014 -0.0214514761374896 -0.2814355 -0.06368367 -0.9574646 158 158 158
-0.0188549592273664 0.0233094512808789 -0.0216908924775501 -0.2620527 0.08614605 -0.961201 183 183 183
-0.0168922222134744 0.0230033353357477 -0.021998860960566 -0.1720941 0.05165199 -0.9837254 223 223 223
-0.0199676046021635 0.0138543691166368 -0.0203719433289961 -0.4106869 -0.07517826 -0.9086719 143 143 143
-0.0192211342492001 0.0142574876396495 -0.0204884602179484 -0.3689275 -0.1016307 -0.9238851 160 160 160
-0.0174727774752357 0.0168876396549864 -0.0213457969484434 -0.2680781 -0.08573227 -0.959575 105 105 105
-0.0186766257506421 0.0133974859928006 -0.0210805665930224 -0.3237696 -0.07910617 -0.9428231 148 148 148
-0.017419423858527 0.0137361887274592 -0.0213239883425924 -0.2549504 -0.07151329 -0.9643061 206 206 206
-0.0144874705411999 0.0142682388010149 -0.0217633901027148 -0.2112131 -0.06451292 -0.9753087 172 172 172
-0.0167293043214118 0.0209129711540215 -0.0220014557014906 -0.2211254 -0.025092 -0.9749225 236 236 236
-0.0162278052280378 0.0205468425147184 -0.0221795146871723 -0.204704 -0.04083699 -0.9779717 234 234 234
-0.0144808425626635 0.0197023309686954 -0.0223747605298067 -0.1388427 -0.01040714 -0.9902598 173 173 173
-0.0144203246055421 0.0199460100990236 -0.0221315108489928 -0.1388427 -0.01040714 -0.9902598 129 129 129
-0.0141807175782604 0.0217734253024817 -0.0225724200468835 -0.1481318 0.04516388 -0.9879358 222 222 222
-0.0142223053202835 0.0174377763582838 -0.0220095690932442 -0.1550121 -0.07582927 -0.984998 192 192 192
-0.0151179537838939 0.0155372269393603 -0.0223499397700021 -0.1957552 -0.08317179 -0.9771194 137 137 137
-0.0122203311968836 0.0169167243000599 -0.0224879264536629 -0.1400799 -0.04140867 -0.989274 87 87 87
-0.0383886899485051 -0.0189658821215497 -0.0204485259267281 -0.3638289 -0.1938591 -0.9110692 78 78 78
-0.0360254554914425 -0.0227237124083701 -0.0200449658040409 -0.3602771 -0.3215713 -0.8756668 79 79 79
-0.0372440862841137 -0.0206564252452914 -0.0209147033334094 -0.3395906 -0.2270392 -0.9127603 50 50 50
-0.0360950548284504 -0.0212910793387271 -0.0212341826681854 -0.3060783 -0.1883904 -0.9331801 93 93 93
-0.0329968562188712 -0.0145575076446305 -0.0204639861512239 -0.09002721 0.1700293 -0.9813181 127 127 127
-0.0336342455159944 -0.0115643544108759 -0.0194655386697191 -0.1101374 0.2385405 -0.9648669 104 104 104
-0.0324378734795239 -0.0131708817474574 -0.019714266049346 -0.07558645 0.2255938 -0.9712847 174 174 174
-0.0336639310017448 -0.0162967510424374 -0.0209020398013101 -0.1181465 0.1396658 -0.983125 114 114 114
-0.0296620922308377 -0.0144951469598051 -0.0204986532706018 -0.07093847 0.1775773 -0.9815468 113 113 113
-0.0328430756623379 -0.0173562418946229 -0.0216646464797136 -0.08144107 0.09480375 -0.9921591 100 100 100
-0.0315717867497971 -0.0168378519511185 -0.0213629566107099 -0.08411275 0.1052062 -0.9908868 94 94 94
-0.0346164677098175 -0.0227127120374477 -0.0207103498143277 -0.2725591 -0.2874908 -0.9181833 92 92 92
-0.0317228623508692 -0.0225453449900366 -0.0212749484838721 -0.1064046 -0.1996404 -0.9740748 84 84 84
-0.0319305799250238 -0.0250957931283708 -0.0204645989169143 -0.1862874 -0.2728958 -0.9438352 80 80 80
-0.0295349239885658 -0.0221836613427853 -0.0209592936784858 0.05002479 -0.1033598 -0.9933853 146 146 146
-0.027810767601107 -0.0156275124892726 -0.0206755152294645 0.00867335 0.05838951 -0.9982562 171 171 171
-0.0258356589671676 -0.0202417522713914 -0.0210283483554723 0.1125082 -0.07518094 -0.9908026 110 110 110
-0.02692614163194 -0.0181188273229269 -0.0210353572739879 0.08651312 -0.05203617 -0.9948908 180 180 180
-0.0253057900597571 -0.0189696905121826 -0.0212252476029152 0.1301992 -0.06603963 -0.9892861 88 88 88
-0.0304778601941036 -0.00868918226477011 -0.0197408812667858 -0.1546545 0.1435005 -0.9774915 162 162 162
-0.0276688398531395 -0.00405342799126984 -0.0200906903674278 -0.2992464 0.153113 -0.941811 38 38 38
-0.0250367056606746 -0.00529566001080251 -0.0203247169960111 -0.1684754 -0.009869736 -0.9856564 66 66 66
-0.0248913740118599 -0.00385670230811552 -0.0207324386481088 -0.2020116 0.06672022 -0.9771078 77 77 77
-0.0241556891311909 -0.00633184356223104 -0.0205152036880115 -0.1002146 -0.03858422 -0.9942175 109 109 109
-0.0233879746470695 -0.00398288433565264 -0.0209822677384812 -0.1167249 -0.002406021 -0.9931614 48 48 48
-0.0211892152604616 -0.00368008241826323 -0.0207845230075723 -0.04464362 -0.06669626 -0.9967741 120 120 120
-0.0252024041420851 -0.00195466613534689 -0.0208711165538323 -0.2354481 0.1402071 -0.9617204 52 52 52
-0.0265158140669399 -0.0142769055016621 -0.0212149240740562 0.01311629 0.1020928 -0.9946884 167 167 167
-0.0258532338390729 -0.0147988082742596 -0.0213582380802216 0.0697794 0.01980999 -0.9973657 203 203 203
-0.0255281489469308 -0.0138408688877008 -0.0210734533331708 0.001050616 0.09026822 -0.995917 111 111 111
-0.0245687240302299 -0.0132633869446874 -0.0210110665046997 0.05170238 0.06956638 -0.9962366 187 187 187
-0.0239421016880572 -0.0128352414263901 -0.0202405069522817 0.04970767 0.08004703 -0.9955509 170 170 170
-0.025317326639708 -0.0101936684217503 -0.0206162753776246 -0.04188039 0.09637129 -0.994464 47 47 47
-0.0232561544933774 -0.00921436148407562 -0.0207049952787633 0.01931893 -0.01045048 -0.9997588 160 160 160
-0.023699607657081 -0.0123710818213763 -0.0208098647948459 0.05783807 0.04549817 -0.9972886 142 142 142
-0.0233843390788691 -0.0137874644957789 -0.0209073829214059 0.1154319 0.02150308 -0.9930826 183 183 183
-0.0205663322071645 -0.00896315436134731 -0.0204373698708656 0.09130667 -0.0479336 -0.9946685 115 115 115
-0.02135718095971 -0.00738282128059664 -0.0207709828302824 0.04876584 -0.08491098 -0.9951944 155 155 155
-0.0212041145722084 -0.0107595676142132 -0.0205314106872899 0.1052508 0.01042669 -0.994391 75 75 75
-0.019019248709168 -0.0100620517103254 -0.0196840453523102 0.05647572 -0.05530214 -0.9968712 102 102 102
-0.0294807230971097 -0.0254063913852449 -0.0204887402984548 -0.09474609 -0.1471699 -0.9845629 203 203 203
-0.0285541387002146 -0.023833476606828 -0.0202317944465884 0.02627913 -0.09998682 -0.9946417 92 92 92
-0.0263046684505108 -0.0257137035777006 -0.0200052732979317 0.06097763 -0.04542596 -0.9971049 73 73 73
-0.0251416738070411 -0.0235528832652296 -0.0204176942932026 0.07397529 -0.06030391 -0.9954351 101 101 101
-0.0241821032602885 -0.0258777877579142 -0.0205636480821392 0.06084885 -0.04232936 -0.9972491 146 146 146
-0.0227187856332216 -0.0176620559164062 -0.0204098798881102 0.1018514 -0.04454475 -0.9938018 105 105 105
-0.0237585563790885 -0.0187892216018026 -0.0209704355560766 0.1033771 -0.07059786 -0.9921336 106 106 106
-0.0224291242565802 -0.023263074804653 -0.0203746146656859 0.05861991 -0.04013281 -0.9974734 152 152 152
-0.0206069300918388 -0.0171093174310764 -0.0201763154569725 0.06739139 -0.0210579 -0.9975044 53 53 53
-0.0204648203478253 -0.0146552174478938 -0.0202311998872541 0.1141298 0.03574072 -0.9928228 106 106 106
-0.0206141350370612 -0.0146133524932981 -0.0210736993054538 0.1190713 0.03189924 -0.9923732 98 98 98
-0.0188271066094339 -0.0178715794110835 -0.020235957162464 -0.009860626 -0.005203826 -0.9999378 120 120 120
-0.0139345551822676 -0.0089946658414457 -0.0207730659665427 -0.172534 -0.1355022 -0.9756389 147 147 147
-0.0166452980233598 -0.0140253368377807 -0.0201850783444057 -0.0545972 0.06400517 -0.996455 33 33 33
-0.0127365405265858 -0.0101832058355784 -0.0206453428757237 -0.1783654 -0.1497633 -0.9725003 103 103 103
-0.0122771755880395 -0.0120223490532758 -0.0206183094707535 -0.1415724 -0.09574051 -0.9852872 85 85 85
-0.0162339152126603 -0.0181584637218013 -0.0205354002408369 -0.04416906 -0.01875864 -0.998848 180 180 180
-0.0130513104590297 -0.0157685080093142 -0.0209082422320914 -0.02204634 0.00283038 -0.9997529 159 159 159
-0.0128540051938151 -0.0173143369656203 -0.0210332964924463 0.02364467 -0.01372128 -0.9996263 190 190 190
-0.0237632137424904 0.000915762587905489 -0.0201313289446428 -0.2904763 0.2074393 -0.9341266 48 48 48
-0.0222024761304944 0.00325466243914807 -0.0201577973999469 -0.3502768 0.1635961 -0.9222486 62 62 62
-0.0208260419615827 0.0010150371853539 -0.0209094080269877 -0.203731 0.109716 -0.9728597 93 93 93
-0.0186442521383838 -0.000573184825594319 -0.0208306668281151 -0.1123748 0.03159292 -0.9931635 97 97 97
-0.018567376849792 0.00141354236370295 -0.021185218369967 -0.1491753 0.03421374 -0.9882187 183 183 183
-0.0184997878793705 0.000811227730532327 -0.0215165632666119 -0.1288253 0.009086778 -0.9916257 157 157 157
-0.0192638387296531 0.00286223560146737 -0.0213598272969759 -0.2119196 0.04558762 -0.9762233 136 136 136
-0.0165040112010812 0.00317293780368866 -0.0214581345090342 -0.1120393 0.01071747 -0.993646 188 188 188
-0.0147600367994829 0.00579516893343546 -0.0212429987731161 -0.159603 0.03285743 -0.9866343 152 152 152
-0.00235282473006193 0.0379821201557986 -0.0141518381404215 -0.6259698 0.7774997 0.06046519 106 106 106
-0.0145959138914498 0.00463758849522744 -0.0213750653717046 -0.149505 0.05901972 -0.9869979 109 109 109
-0.0151266979487543 -0.00594877875735689 -0.0213586633306528 -0.1459135 -0.1323059 -0.9804103 114 114 114
-0.0141205193898584 -0.00213760841442845 -0.021452344032892 -0.1334987 -0.04594938 -0.9899832 125 125 125
-0.0143484905863918 0.00177178588467042 -0.0213540386811384 -0.1358771 -0.03233594 -0.9901978 146 146 146
-0.0133290903733034 0.00321623670403115 -0.0216887451728658 -0.1398777 -0.01315462 -0.9900814 153 153 153
-0.0126023349413888 0.00258578567648238 -0.0217067315416031 -0.1678471 -0.03015922 -0.9853516 147 147 147
-0.0126476795106167 0.000597273170153123 -0.0217665557750775 -0.1524444 -0.02030438 -0.9881034 180 180 180
-0.0104107910143405 0.0031499274801301 -0.022423443595534 -0.2264319 -0.02141493 -0.9737915 176 176 176
-0.0103159828368418 -0.000207339510098326 -0.0219568940682727 -0.2127239 -0.01971858 -0.9769134 189 189 189
-0.00899591996664229 0.00225864468863679 -0.0223950966536561 -0.2188027 -0.03170896 -0.9752538 227 227 227
-0.00942848465622825 0.00265514219993634 -0.0227944691051512 -0.2188047 -0.02024079 -0.9755587 238 238 238
-0.016831383077095 0.010261715994363 -0.0209867688251996 -0.26049 -0.007120305 -0.9654503 150 150 150
-0.0162005920534776 0.00910836189580944 -0.0206786863864726 -0.2194065 -0.003361954 -0.9756277 183 183 183
-0.0147326505988719 0.00888747859802752 -0.0213710093682489 -0.1952826 -0.005500272 -0.9807316 175 175 175
-0.0128549941468161 0.00787755878712249 -0.021366577591997 -0.1980349 -0.007067809 -0.9801695 152 152 152
-0.0130629841158885 0.0132061969800343 -0.0220898833899117 -0.1943914 -0.07821549 -0.9778008 135 135 135
-0.0123219816611799 0.0113539000867975 -0.0222728407094543 -0.206051 -0.05165333 -0.977177 180 180 180
-0.0110298499902293 0.00925407051969973 -0.0222682399894268 -0.2177806 -0.02397558 -0.9757032 104 104 104
-0.0124153762287578 0.0156540153181541 -0.022289567632028 -0.1424199 -0.03401956 -0.9892215 145 145 145
-0.0110893101491325 0.0140769134443228 -0.0219514255951325 -0.1689788 -0.02159152 -0.9853832 160 160 160
-0.0107092067272598 0.0187281793319614 -0.0220989158087384 -0.0905291 -0.03362893 -0.9953259 89 89 89
-0.00918153429834967 0.0130460882993131 -0.0229944982217591 -0.1273084 -0.001984745 -0.9918612 179 179 179
-0.00885790350766924 0.0153946894560355 -0.0226753201383865 -0.1216526 -0.001233091 -0.9925719 132 132 132
-0.00761905043363642 0.0158730661061524 -0.0226620194173771 -0.102115 -0.001729535 -0.9947711 78 78 78
-0.0121061710791652 0.00559905845682418 -0.0216871329520479 -0.2050541 0.002588524 -0.9787472 171 171 171
-0.00997013705227734 0.00864672242388309 -0.0221546496733314 -0.2055598 -0.01279328 -0.9785609 174 174 174
-0.00525600072882204 0.00659236396115914 -0.0226887643316152 -0.1157033 0.03643074 -0.9926155 137 137 137
-0.0101915145198164 0.00666401121975491 -0.0222933339876286 -0.1938624 -0.007315595 -0.9810014 178 178 178
-0.00984492984108187 0.00816096239954089 -0.0230215020818204 -0.1816288 -0.02715103 -0.9829923 214 214 214
-0.0089211450996185 0.00752820954023203 -0.0229713502488633 -0.1581381 -0.01421305 -0.9873147 189 189 189
-0.00778735400746045 0.00436517999872987 -0.0229476192805903 -0.184943 0.01313927 -0.9826614 234 234 234
-0.00772357882724384 0.0101562051509463 -0.0227502290511211 -0.124156 0.0008440992 -0.9922624 94 94 94
-0.00596122624393747 0.0102339017512618 -0.0230418431855313 -0.1005486 -0.003823095 -0.9949248 149 149 149
-0.0038308889536951 0.00882660781102151 -0.0232681482433523 -0.08562612 0.01432476 -0.9962243 190 190 190
-0.0041842316280003 0.0117224010302523 -0.0231548172101302 -0.0972477 0.00293333 -0.9952559 143 143 143
-0.00377232630846724 0.0106094567367989 -0.0234384462076523 -0.08480684 0.004768497 -0.996386 175 175 175
-0.0121744277238061 -0.00638922311407786 -0.021935680244277 -0.2171232 -0.1191178 -0.9688491 144 144 144
-0.0114015026748646 -0.00888258085861104 -0.0216692398708505 -0.1855122 -0.1769493 -0.9665786 164 164 164
-0.00995841400497044 -0.00709633716431912 -0.021738838234184 -0.1671932 -0.1462679 -0.9750139 112 112 112
-0.00884762117539184 -0.00548925778088405 -0.0223147694881272 -0.1749313 -0.09103078 -0.9803634 139 139 139
-0.00969022718948875 -0.00266853623529251 -0.0224120068556078 -0.1839163 -0.04647451 -0.9818426 160 160 160
-0.006287628356624 -0.00440896149028647 -0.0229245352886434 -0.1675023 -0.07812542 -0.9827713 145 145 145
-0.0103899481431622 -0.0117540053731762 -0.0208133678337711 -0.1303964 -0.1772572 -0.9754879 84 84 84
-0.00775603481470277 -0.0086476335091088 -0.0220773316032504 -0.1042431 -0.2052331 -0.9731458 79 79 79
-0.00692706333434079 -0.00767130556584972 -0.0223204624668702 -0.09369974 -0.2214108 -0.9706686 137 137 137
-0.00756925812705456 -0.0104181968079942 -0.0217157968710086 -0.05259629 -0.2412805 -0.9690291 67 67 67
-0.00767475904024817 -0.00787630933940875 -0.0226672509461331 -0.1180898 -0.1994824 -0.9727598 140 140 140
-0.00339941638097407 -0.0104919882458883 -0.0220266617424321 0.05760679 -0.3585351 -0.9317371 107 107 107
-0.00505105091321245 -0.00541329509411836 -0.0231947710988759 -0.1044617 -0.133065 -0.9855869 227 227 227
-0.00309343083074398 -0.00315396796994261 -0.0237913219590842 -0.06726415 -0.1033204 -0.9923711 227 227 227
-0.00250225426531925 -0.00830164583627546 -0.0223101274548089 0.0002092172 -0.3136353 -0.9495435 157 157 157
-0.00279789396867836 -0.00705957524786305 -0.0232360357056657 -0.0307927 -0.2199503 -0.9750249 181 181 181
-0.000293078690172699 -0.00676200736108856 -0.0228573748276982 0.03759278 -0.2700297 -0.9621179 167 167 167
-0.00171638231310456 0.00120548744120663 -0.0235616511530115 -0.02296549 -0.04218125 -0.998846 111 111 111
-0.00640165601489873 0.00476098639745404 -0.0233726957988794 -0.1340891 0.02138743 -0.9907385 226 226 226
-0.00506261350562376 0.0041059897092226 -0.0235909607260224 -0.1234267 0.02483355 -0.9920429 151 151 151
-0.00121808131952905 0.00364541694849274 -0.0239979365166288 -0.02118073 0.01405708 -0.9996768 153 153 153
-0.00132925334259393 0.00958008671135269 -0.0232029637164111 -0.09842816 -0.002034426 -0.9951421 163 163 163
-0.00342715970106999 0.00798998045235955 -0.02308278020462 -0.08405991 0.0293948 -0.9960271 202 202 202
-0.0022270602817378 0.00788892100621297 -0.0234076014014202 -0.07978404 0.02902461 -0.9963895 205 205 205
-0.000648269566872139 0.00972673266026147 -0.0236524143985525 -0.09618492 -0.01133393 -0.9952989 178 178 178
0.00337948144507583 -0.00238056161339739 -0.0226388542753816 0.07650884 -0.1000524 -0.9920362 143 143 143
0.0024927909025807 -0.000640115814947828 -0.0232892773129487 0.02208112 -0.07903755 -0.996627 111 111 111
0.00244378266056833 0.00169419442944463 -0.0232237760245287 0.01762745 -0.06668781 -0.9976181 127 127 127
0.00433352200039883 0.0042472428084166 -0.0238794652770092 0.01925238 -0.07274134 -0.997165 200 200 200
0.00574890471824485 0.00538593211705463 -0.023090058468232 0.03749262 -0.0798211 -0.9961039 93 93 93
0.00458808841650793 0.00594345719602818 -0.024246465749673 0.005968153 -0.06346796 -0.9979661 184 184 184
0.00315683449467996 0.00228293486621833 -0.0232056250710742 0.01055807 -0.06543668 -0.9978009 169 169 169
0.00401834403963508 0.00135805831208047 -0.023656089729067 0.008277315 -0.08176461 -0.9966173 151 151 151
0.00412179108762967 0.000668303308307028 -0.0239284286316215 0.04421519 -0.09202398 -0.9947746 214 214 214
0.00688322231683181 0.00521677690915534 -0.0240386123365622 0.05311286 -0.07958805 -0.9954119 93 93 93
-0.0108492172926573 0.0216459073303694 0.00535936585274499 -0.5798617 0.6561965 0.4828733 104 104 104
-0.00916266783645403 0.0235158031363922 0.00544769557092883 -0.5745447 0.6450459 0.5037998 146 146 146
-0.0121820731469824 0.0210618795903252 0.00373454919310096 -0.5711622 0.6691166 0.4754543 141 141 141
-0.0120604318869235 0.0220596485596152 0.00236475600026065 -0.5678556 0.6759328 0.4697392 109 109 109
-0.0111840211178285 0.0240746666148506 0.00148935426565167 -0.5533659 0.7379583 0.3862689 95 95 95
-0.008468500850775 0.0251485047697628 0.00332499066225816 -0.5844736 0.6804853 0.441962 136 136 136
-0.0109909001458617 0.0203117025691071 0.00559162884525161 -0.5758063 0.6620221 0.4797643 96 96 96
-0.00642459879320456 0.0258596082559635 0.0026671808085475 -0.6055663 0.664891 0.437275 109 109 109
-0.00818344978844276 0.0255374779331066 0.00209173284628 -0.6100127 0.7047108 0.3623081 90 90 90
-0.00753422185013553 0.0264164218538236 0.00203371384967038 -0.6215663 0.7062438 0.3389321 131 131 131
-0.00522763783414337 0.0278136067905128 0.00288129844986607 -0.6382231 0.6509793 0.410971 114 114 114
-0.00433386233738275 0.0296949216342699 0.00318796709543301 -0.6370763 0.6362023 0.4351788 154 154 154
-0.0138848645806933 0.0225065705635339 -0.000322494984941357 -0.4546425 0.7601271 0.4642273 96 96 96
-0.0112810469025655 0.0236731918750801 9.15759084473278E-05 -0.5225472 0.7592055 0.3880097 93 93 93
-0.0136076311522448 0.0231513360307869 -0.0028081114467845 -0.3987671 0.7631022 0.508586 101 101 101
-0.0101177422574243 0.0262281112463685 -0.00307986117223807 -0.5183305 0.734341 0.4382656 95 95 95
-0.00777008019680947 0.0269386752218173 -0.00110144225125286 -0.6041555 0.713503 0.3548374 99 99 99
-0.00948233913941832 0.0278183441164761 -0.00451526578386136 -0.5162038 0.7245209 0.4567309 111 111 111
-0.00610907940065153 0.0308680008287308 -0.0046604946515395 -0.6581418 0.6753204 0.332854 100 100 100
-0.00642671169750053 0.0288634603467099 -0.00346182880666135 -0.6531538 0.6694901 0.3537981 99 99 99
-0.00199898256857267 0.0288215752212115 0.00610003250471908 -0.588946 0.6095265 0.5306787 126 126 126
-0.00339028543056141 0.0291577034544634 0.00440127730849371 -0.6342301 0.5970559 0.4911991 125 125 125
-8.59806617277137E-05 0.0316773998088129 0.00652998710348746 -0.4581711 0.7373093 0.4964416 163 163 163
0.00145518760136798 0.0323726471080501 0.00488166964953507 -0.4289313 0.7748845 0.4642972 89 89 89
-0.00301247124094028 0.0309722014327709 0.0025173587211556 -0.5949101 0.6820557 0.4253022 146 146 146
-0.00122767019347614 0.0321018581859405 0.00233859740683373 -0.4958285 0.7654471 0.4101765 100 100 100
-0.00421412017550349 0.0301425683057115 0.00078657804442045 -0.6542246 0.6624168 0.3649577 101 101 101
0.000490548862208007 0.0335574307356163 0.00177984662882535 -0.4470117 0.8050131 0.3900442 85 85 85
0.00646841064636172 0.0367488222797854 0.00332618523438638 -0.3937139 0.7759553 0.4928314 137 137 137
0.00325622800378222 0.0334638418266773 0.00299252436490899 -0.3982719 0.7928364 0.4612917 93 93 93
0.0015460067233326 0.0333816118059458 0.00105882037538957 -0.4467321 0.8019458 0.3966274 80 80 80
0.00235652864269098 0.0340352157988784 0.00110129472770254 -0.474378 0.7741879 0.4190448 77 77 77
-0.00469781073203102 0.0321147875420402 -0.00248646153230536 -0.6586472 0.6803477 0.32142 138 138 138
-0.00359940165503247 0.0337590098595546 -0.00424779087948107 -0.6396759 0.6846769 0.3493313 113 113 113
-0.00299216158453453 0.0348761285043386 -0.00522553111592999 -0.6243495 0.6990452 0.3486023 101 101 101
-0.0012314165145797 0.0350962840372566 -0.00395771593409022 -0.5301496 0.7422625 0.4098632 114 114 114
0.000233985242370283 0.0345021400543057 -0.000577546394635475 -0.4690646 0.7688664 0.4345376 149 149 149
0.00198662754008994 0.0349395554465115 -0.000592967144768808 -0.4787943 0.7569484 0.4447305 64 64 64
0.00544327183907467 0.0372456165728126 -0.000386030001548687 -0.4497783 0.7764951 0.4413103 118 118 118
0.00159212895052963 0.0376274762183848 -0.004406062653728 -0.4615342 0.7690765 0.4421623 90 90 90
0.000886212788698382 0.0380954432331093 -0.00582837680159087 -0.4891452 0.7492221 0.4465458 89 89 89
0.00357573954441426 0.0387754067999408 -0.00523115696327059 -0.4262564 0.7919358 0.4371992 88 88 88
-0.0192975858658297 0.0264902273053846 -0.00992839618522845 -0.4348894 0.8340846 0.339373 92 92 92
-0.018348012191665 0.0273533278271771 -0.0112357898021967 -0.4314103 0.8522546 0.2958839 65 65 65
-0.0197083749772438 0.0266946061972533 -0.013755498542636 -0.4651821 0.8444178 0.2656393 46 46 46
-0.0150474605327855 0.0265118835649352 -0.00638521737288955 -0.3607219 0.7501068 0.5542739 62 62 62
-0.013502581183904 0.0258145292527834 -0.00464579684761779 -0.3932609 0.7503689 0.531312 98 98 98
-0.0161225336965305 0.0272541243672322 -0.00866930235503521 -0.3901539 0.8232613 0.4123356 45 45 45
-0.0126183259544119 0.0288088090963514 -0.00900568832061399 -0.3813175 0.815794 0.43483 29 29 29
-0.0104296924658758 0.0291101223153838 -0.00648470320371991 -0.4600607 0.7663907 0.4483185 86 86 86
-0.0111847375646563 0.0292027065347027 -0.00740502710355112 -0.4598989 0.7757735 0.4320515 65 65 65
-0.00797429124921334 0.0295438687086806 -0.00628708958347174 -0.5759349 0.710893 0.4036461 91 91 91
-0.0122741447266512 0.0297747589601141 -0.00970308332418379 -0.444282 0.8283983 0.34113 29 29 29
-0.00839338009917712 0.0307848809391948 -0.00934075842563736 -0.5399405 0.7492324 0.3835557 39 39 39
-0.0141643984221926 0.0291280033180872 -0.0105554739162135 -0.3720289 0.8798752 0.2956588 42 42 42
-0.0169421646763859 0.0292086854669342 -0.0147564617736462 -0.3853063 0.9013037 0.1979664 66 66 66
-0.0146421603381721 0.0297974218783761 -0.0155345300096769 -0.3977819 0.9144699 0.07425891 24 24 24
-0.012745924592984 0.0301852443900315 -0.0108266934864691 -0.4252396 0.8450761 0.3240642 26 26 26
-0.0127486856507635 0.0296554166364276 -0.0118883660013641 -0.4283759 0.8555763 0.29066 24 24 24
-0.0115632186960994 0.0309656737566451 -0.0133078128338274 -0.4629796 0.8543025 0.2362565 8 8 8
-0.012915433424709 0.0303543843007794 -0.0156313948558596 -0.426819 0.8942723 0.1345455 22 22 22
-0.0104503156953051 0.0320586248540042 -0.0171557076750645 -0.5292318 0.8421398 -0.1035096 37 37 37
-0.00642842768150631 0.0320494138341307 -0.00665730075468618 -0.6674998 0.6632506 0.3384414 82 82 82
-0.00516624662263121 0.0347124164518451 -0.00957552101718206 -0.6680378 0.6788123 0.3048594 82 82 82
-0.00350712275340026 0.035745816263502 -0.0107750189767782 -0.6715674 0.7009936 0.2400106 97 97 97
-0.00205306358267032 0.037619879957079 -0.00879725624572847 -0.6376615 0.6820143 0.3581121 111 111 111
-0.00216783456057268 0.0379068952014137 -0.0101840836963539 -0.6451207 0.7151562 0.2690184 80 80 80
-0.000233198435318549 0.0402759172548262 -0.0107188266268396 -0.6494215 0.727204 0.2223197 114 114 114
-0.000834716502171817 0.0395617222902183 -0.0111824062689758 -0.6486987 0.7321388 0.2077563 107 107 107
0.000174946207158744 0.0371652863815424 -0.00629662756103072 -0.5354668 0.7311405 0.4227397 100 100 100
0.00158025219844893 0.0396565920048266 -0.00802207803003568 -0.4481621 0.7718215 0.4510457 92 92 92
-0.00825264269499648 0.0337743888203321 -0.0116349322274557 -0.6080213 0.7428946 0.2800316 35 35 35
-0.00889381841454195 0.0332188968411982 -0.0134277198647713 -0.6267383 0.7482053 0.2176879 34 34 34
-0.00522641365176124 0.0358205826800899 -0.011053709414756 -0.6503808 0.7082655 0.2745263 107 107 107
-0.00572144386564144 0.0346864569973893 -0.0117646840834487 -0.646784 0.7065631 0.2871219 26 26 26
-0.00425008465809551 0.0370931540318868 -0.0130655557541751 -0.6371093 0.7532557 0.163394 69 69 69
-0.00572223921133341 0.0358074726152346 -0.0132983005780451 -0.6349857 0.7452736 0.2033725 93 93 93
-0.00805705939034462 0.0345959538890634 -0.0145743415851763 -0.650735 0.7330692 0.1978725 56 56 56
-0.00782821409125911 0.0347454785987658 -0.0164728932465945 -0.5898487 0.7991951 -0.1156098 58 58 58
-0.00647957003648147 0.0357728522966119 -0.0146882234965621 -0.6178259 0.775026 0.1327625 64 64 64
-0.00481254917611595 0.0367301824524602 -0.0164262543464911 -0.5441858 0.8334094 -0.09638718 125 125 125
-0.00106738224477909 0.0392525336978427 -0.0162400089386522 -0.6057292 0.7591081 -0.2384261 133 133 133
-0.000581942435088134 0.0390614812844268 -0.0146237382537776 -0.6682537 0.7427105 -0.04263772 117 117 117
0.00101508495811831 0.0409440176361291 -0.0149472715129971 -0.6322678 0.7691674 -0.09283885 142 142 142
0.00726342299699256 0.0370095347790902 0.00208066409278113 -0.3935456 0.7617291 0.5146753 113 113 113
0.00928199823748233 0.0389499811657199 -0.000193515721437942 -0.3534088 0.812006 0.4644873 52 52 52
0.00620733081152069 0.0383348586415053 -0.000537000773806751 -0.4143473 0.8024405 0.4294247 78 78 78
0.0054639617256611 0.0390142316601316 -0.00191009425833805 -0.4075255 0.8145257 0.4128813 110 110 110
0.00872492860151564 0.0395490514861652 -0.00126314569324248 -0.3784036 0.8307234 0.4083005 67 67 67
0.00528103005076597 0.0396718508846157 -0.00529313767165496 -0.3767325 0.8390585 0.3924966 80 80 80
0.00725125200184307 0.0398781336989429 -0.00360165802756895 -0.3838074 0.8436583 0.37541 85 85 85
0.00964784132691521 0.040954582974372 -0.00381735902833047 -0.3677631 0.8551144 0.3654171 99 99 99
0.00708391885323967 0.0408419798115842 -0.00604229052170996 -0.3544456 0.8533005 0.3824221 69 69 69
0.00910878116404934 0.0417935973115069 -0.00589145377163391 -0.3782054 0.8438042 0.3807296 78 78 78
0.00623703937861397 0.0405535660163383 -0.00696927041667317 -0.3446248 0.8444546 0.4100368 78 78 78
0.00116464336487421 0.0408526197146388 -0.0100439819201272 -0.4844721 0.7980457 0.3583431 71 71 71
0.00341117700501048 0.0428128110825654 -0.0113363909782169 -0.4349225 0.827611 0.3548274 74 74 74
0.0068514789425338 0.0425059627980919 -0.00934786748370786 -0.3307979 0.8227453 0.462237 61 61 61
0.0108019145747817 0.0428080639687285 -0.00665162064929997 -0.3633355 0.8432528 0.3961212 94 94 94
0.010162338191708 0.0430125211188581 -0.00808406409963192 -0.3558424 0.8298917 0.4297161 96 96 96
0.00864949076699051 0.0427764729322666 -0.00996387974767676 -0.344552 0.8072461 0.4792052 58 58 58
0.0111474984904905 0.0453192119271688 -0.0104178462137248 -0.3598755 0.8012713 0.4779685 76 76 76
0.00848698746652632 0.0445303637255501 -0.0113346894044709 -0.3592648 0.8354875 0.4157997 100 100 100
0.00826830505603326 0.0454009644306785 -0.0116396476400008 -0.3753056 0.8567917 0.3536294 72 72 72
0.00214705563690853 0.0435804506720432 -0.0137358179413025 -0.5411248 0.8408332 0.01354787 119 119 119
0.00142620595127263 0.0414082915677272 -0.011427010860637 -0.5638394 0.7938669 0.2277289 95 95 95
0.00343954107101463 0.0437302642928932 -0.0128450890886024 -0.4296488 0.8926434 0.136344 68 68 68
0.00135311867102716 0.0420146741695118 -0.0145412677572072 -0.6121746 0.7896538 -0.04109973 169 169 169
0.00184401466264239 0.042504333228679 -0.0163246221134777 -0.5299346 0.7889985 -0.310887 167 167 167
0.002251889650704 0.0432185483937129 -0.0159058259219717 -0.5653967 0.819518 -0.09336379 161 161 161
0.00202802412587477 0.0420097067648693 -0.0173614144833488 -0.5168415 0.7397262 -0.430906 112 112 112
0.00351868055935034 0.0440565252300082 -0.0148021469816349 -0.4637257 0.8859786 0.0006520641 85 85 85
0.00559668857571749 0.0437171817216504 -0.0170096796049584 -0.3615997 0.7988404 -0.4807283 124 124 124
0.00805722106525386 0.0456633810643325 -0.0141399040121016 -0.4155069 0.9078177 0.05675367 122 122 122
0.00949700723225866 0.0461745018015467 -0.0124648724727815 -0.447933 0.8489581 0.2804037 116 116 116
0.0111919842358807 0.0464656714543255 -0.0130642426659474 -0.4754865 0.8582318 0.1932631 57 57 57
0.0125230615371339 0.0469872770778978 -0.0133492248705312 -0.4576707 0.8839438 0.09581724 81 81 81
0.00956285763520626 0.0470010718287484 -0.014035566080809 -0.5066041 0.8621554 -0.006350616 115 115 115
0.0117593300846648 0.0474603984360966 -0.0153413300675583 -0.437769 0.8685472 -0.2323447 83 83 83
0.00693642094042768 0.0443086137705471 -0.0163733965536282 -0.21736 0.8668362 -0.44872 138 138 138
0.00935183673597817 0.0469654361068159 -0.0151658731207135 -0.5092077 0.8173888 -0.2694124 121 121 121
0.0149829993562927 0.0498229447458323 -0.0137220759652592 -0.2802159 0.9506832 0.1329682 59 59 59
0.00817021737541301 0.0324076482962004 0.00402613792094042 -0.405341 0.7825732 0.4725229 70 70 70
0.0174661095901965 0.0270950240636949 -0.021030613999326 0.1575885 0.2798597 -0.9470187 186 186 186
0.0188347853357631 0.023432014063371 -0.020653452293647 0.1929113 0.3100785 -0.9309332 158 158 158
0.019784064475002 0.0250586426360331 -0.021479293841448 0.209112 0.2924999 -0.9331216 150 150 150
0.0201964654129312 0.0221385816778754 -0.0223425046743939 0.1984205 0.2810999 -0.938942 203 203 203
0.008871647792833 0.0362323146388053 0.00553898592526564 -0.3707724 0.8179044 0.4399548 116 116 116
0.0115549587702353 0.036656540644002 0.00505251108402122 -0.4331349 0.7943223 0.4259651 80 80 80
0.0141418326931135 0.0383945801565608 0.00458262853472086 -0.4597292 0.7922066 0.40132 101 101 101
0.0137794284145185 0.0385557697673575 0.00274517622254089 -0.4238299 0.7918543 0.4396988 41 41 41
0.017013915377843 0.0393158223451093 0.00471854561396479 -0.5888701 0.7086654 0.3886199 56 56 56
0.0172235752499752 0.0397496258183969 0.00439204218743411 -0.6041551 0.6977113 0.3849619 62 62 62
0.0175077912177157 0.0410970583367765 0.00325694236987134 -0.5839919 0.6929412 0.4228309 87 87 87
0.019224369775352 0.041985135531176 0.00436559821357879 -0.6248751 0.6942333 0.3571711 96 96 96
0.016098032180615 0.0412812481421443 0.00353906179371977 -0.564508 0.7027549 0.4329737 83 83 83
0.0139373686260782 0.0409523394058331 0.00183903146831871 -0.490281 0.7174325 0.4948891 98 98 98
0.0127287541486183 0.0404826190338492 0.000231447281965724 -0.4433647 0.7589937 0.4768189 79 79 79
0.0170832912160932 0.0432792583113428 -0.000318137905098048 -0.5464832 0.78047 0.3036819 103 103 103
0.0116228122422162 0.0403437575493137 -0.000877667994997444 -0.4015578 0.8111207 0.4252465 95 95 95
0.0113042209661725 0.0413748838311936 -0.0022299055749585 -0.3984487 0.8381733 0.3724301 95 95 95
0.0164392533371069 0.0438758547398606 -0.00197020991975877 -0.5147195 0.8080448 0.2865788 73 73 73
0.0161342864860223 0.0440282608178462 -0.00346317768070581 -0.4936498 0.8287913 0.2634668 85 85 85
0.0161948612435767 0.0437237326814495 -0.00434398885570025 -0.4738179 0.8363845 0.2756041 98 98 98
0.015113076818783 0.0437989725216859 -0.00536409668119714 -0.4272896 0.8461893 0.3184136 79 79 79
0.015267946723448 0.0445290061421442 -0.00673962728478539 -0.4105369 0.8286914 0.3804341 71 71 71
0.0192187289127017 0.0429437774871733 0.00368512396591458 -0.57546 0.7448781 0.3376425 95 95 95
0.0173645884903577 0.0437553191431721 0.00151835655439764 -0.5631011 0.7417563 0.3643003 95 95 95
0.0202399382276823 0.0465301059304872 -0.00096802470582863 -0.4811583 0.8335229 0.2715259 96 96 96
0.021898507981704 0.0478283979910514 -0.00086510163227782 -0.3482586 0.9130154 0.2124122 118 118 118
0.0241242453346437 0.0469276988679075 0.00249382061437103 -0.209457 0.9502374 0.2306005 66 66 66
0.0236977236047666 0.0431156454946802 0.000219990410615878 -0.2986943 0.9531679 0.04746364 61 61 61
0.0260200610171513 0.0470248233317796 0.00324557717588853 -0.09317838 0.9832852 0.1564224 82 82 82
0.0254274131100143 0.0471304942119406 0.00229534182868835 -0.1188448 0.9795198 0.1625326 100 100 100
0.0284637153613989 0.048098796873874 0.00155263268111488 0.2350438 0.9715053 0.03052434 150 150 150
0.0296314956399262 0.047260169520313 0.00248882766798114 0.3373204 0.9409678 0.02818722 79 79 79
0.0310059351236813 0.0466021712413971 0.00230381948328917 0.4632606 0.8861736 0.009272372 77 77 77
0.0295117251646744 0.0467177971005022 0.00064716456013636 0.4047921 0.8964901 -0.1801357 114 114 114
0.0180535994176059 0.0446347134210003 -0.00360691414289416 -0.5439371 0.8063086 0.2323766 93 93 93
0.017012523166327 0.0445177603073654 -0.00515700356621529 -0.4791639 0.8292827 0.2875624 87 87 87
0.0204858802665511 0.0474508919364665 -0.00460432801406968 -0.4483355 0.872205 0.1955857 116 116 116
0.0203156187714446 0.0479983662182029 -0.00681848817311981 -0.1877243 0.9773837 0.09736893 114 114 114
0.0218276399685826 0.0479746197575663 -0.00257668770278108 -0.1757243 0.9691431 0.172866 97 97 97
0.0267235971997126 0.0430927256982885 -0.00698559102206031 0.413846 0.7216821 -0.5548933 64 64 64
0.025229004024639 0.0443642922290779 -0.00817205965293216 0.6853974 0.6268601 -0.3705088 35 35 35
0.0267713660970423 0.0477214312624519 -0.00262884640434324 0.2334993 0.932242 -0.2764109 135 135 135
0.0267854364223359 0.0459256334147475 -0.00453495225307626 0.3350398 0.8451489 -0.4164993 85 85 85
0.0298494015559887 0.0465665612441404 -0.00319927495398048 0.4681039 0.7829206 -0.4097733 98 98 98
0.026793763847097 0.0448047922817996 -0.00608757043972408 0.4679389 0.6532609 -0.595217 100 100 100
0.0331879206964847 0.045078368467818 0.00262159501373854 0.7528136 0.6578948 -0.02112094 76 76 76
0.0320658439397081 0.0458610333127585 0.000540816827608703 0.7225729 0.6761928 -0.1437067 52 52 52
0.032870929549125 0.0442759978026024 0.00124157641256323 0.7301471 0.6705122 -0.1315237 46 46 46
0.0319511701109356 0.0437576656133525 -0.000556327883519336 0.703715 0.6720183 -0.2306004 54 54 54
0.0316218438787153 0.0456861250128353 -0.00172632580978332 0.5906435 0.7583187 -0.2758497 74 74 74
0.0319299854450363 0.0443407161070746 -0.00268391386578209 0.5014968 0.7999426 -0.3295344 59 59 59
0.0335179375104773 0.0423514073807902 -0.00209233170010509 0.6254017 0.7580395 -0.1850643 49 49 49
0.0402506778653198 0.0385265887375541 -0.000155403827497291 0.2680833 0.9540989 0.1335165 6 6 6
0.0362735546987309 0.0378924380815413 -0.00403600567843521 0.4538267 0.8813739 -0.1312301 67 67 67
0.0382869103615167 0.0403888791207245 -0.00240071330541208 0.3586028 0.9299307 -0.08144188 31 31 31
0.0391716383226326 0.0398197140216185 -0.00219434435665994 0.3503589 0.9350604 -0.05395129 34 34 34
0.0397888205408228 0.0394980271641492 -0.00327650087840647 0.3231355 0.9205659 -0.2194125 70 70 70
0.0285138533558522 0.038532248839463 -0.00451109972326308 0.4640407 0.6806936 -0.566853 73 73 73
0.0295984029888534 0.041050966513491 -0.00867094955011488 0.2480863 0.9136447 -0.3220351 96 96 96
0.0294311681417776 0.0411801556606741 -0.00877964724686692 0.2912835 0.8920053 -0.3456596 79 79 79
0.0301334306952599 0.0443420653088706 -0.00371376029899778 0.4880179 0.7509447 -0.4448825 78 78 78
0.0300071176268 0.0448272589436582 -0.004646454666072 0.4464556 0.7526808 -0.4838895 48 48 48
0.0306423403250413 0.043188968092416 -0.00538880138741993 0.366497 0.7765853 -0.5124404 69 69 69
0.0279598269947443 0.0437618679305516 -0.00654424577925622 0.3682903 0.7198389 -0.5883828 49 49 49
0.0319944109610075 0.0409130410970435 -0.00928988352544208 0.2330885 0.8909955 -0.3896111 69 69 69
0.0318109279479897 0.0382167645067981 -0.00939651982771172 0.2511168 0.9024184 -0.3501162 62 62 62
0.0349324055172529 0.0413013216121076 -0.00733335449040101 0.3758359 0.864646 -0.3333686 73 73 73
0.0368562254468683 0.0388652876501829 -0.0068716759607495 0.4517521 0.8394525 -0.3020588 41 41 41
0.0385391990850852 0.0384174812536575 -0.00710491639882588 0.4906533 0.8342761 -0.251481 51 51 51
0.0371487582001668 0.0396840712609008 -0.00736667218610348 0.4004496 0.8820437 -0.248272 54 54 54
0.0386356318219896 0.0388554206344593 -0.0105242577175544 0.4687544 0.8412532 -0.2693741 81 81 81
0.0125759612484964 0.0441638971925862 -0.00757203162524323 -0.359857 0.816645 0.4512137 101 101 101
0.0136967339046217 0.0449506349874538 -0.00816375456830304 -0.3918948 0.8053856 0.4447162 94 94 94
0.01284934489054 0.0454717010322057 -0.00944045274467609 -0.3660995 0.7783957 0.5099718 127 127 127
0.0222102725913784 0.0385670309743835 -0.00881742656318379 0.7459043 0.6036536 -0.2814768 32 32 32
0.00917839083621175 0.0367093122559121 -0.018900471043068 -0.003454715 0.1446055 -0.9894834 112 112 112
0.0128582832769826 0.0445169295535706 -0.0186906190739385 -0.1184331 0.4716248 -0.8738099 100 100 100
0.0125902566819303 0.04527034085991 -0.0187022606372463 -0.2145618 0.5954332 -0.7742238 106 106 106
0.0150568005079452 0.0397728198739797 -0.0196176766412296 0.03232019 0.1272656 -0.9913419 76 76 76
0.0158123596625066 0.0416066191786688 -0.0193038145467097 0.03607511 0.191227 -0.9808827 86 86 86
0.0166856832478059 0.0359714744900286 -0.02014374875157 0.09619082 0.05570462 -0.993803 96 96 96
0.0185859162701985 0.0372758482438009 -0.0197395861656153 0.07251697 0.03868135 -0.9966168 89 89 89
0.0180787981054702 0.0390235066264903 -0.019370703952055 0.05631391 0.05295369 -0.9970078 153 153 153
0.0207035845703261 0.0400170195798888 -0.0195268179370204 0.09417561 0.1718145 -0.9806175 115 115 115
0.0162391171727749 0.0460302754168831 -0.00856861954657917 -0.4244404 0.7969449 0.4298015 74 74 74
0.0148321406717327 0.0457857735590737 -0.0096448011388684 -0.3945225 0.7873793 0.4736939 105 105 105
0.0203644634569105 0.048543139854383 -0.00914438636855686 0.0762218 0.9739196 0.2137076 113 113 113
0.0183988260440289 0.047522955621929 -0.00941052649055196 -0.1822217 0.9357587 0.3019122 76 76 76
0.0151877710862223 0.0476266280561783 -0.0110168697828105 -0.3674932 0.8324265 0.4147468 107 107 107
0.0177444672847618 0.0479592652231189 -0.0103369881362416 -0.1358006 0.9087144 0.3947105 59 59 59
0.0165472371057966 0.0489237651046071 -0.0122936207348757 -0.2221501 0.9346583 0.2776024 87 87 87
0.0229222584047775 0.0467480877260089 -0.00978934603879184 0.5557933 0.8248291 0.1036859 39 39 39
0.0221858336516714 0.0425018813050577 -0.00936028174620102 0.6571839 0.7501448 -0.07343021 64 64 64
0.0253272397134745 0.0435977516788828 -0.00960780884441303 0.7242465 0.6103534 -0.3208359 27 27 27
0.0230547055899655 0.0464223539965787 -0.0121044572732728 0.7144704 0.6947932 0.08242804 70 70 70
0.0235335798312379 0.0461730135543141 -0.0135216814619164 0.801947 0.5902249 -0.09227984 52 52 52
0.0231763719720501 0.0473274650347688 -0.0101567252101065 0.5766848 0.8108516 0.09977131 59 59 59
0.0141091629211518 0.0485557234346377 -0.0148496357121951 -0.3068825 0.9283085 -0.20992 72 72 72
0.0165311630718801 0.0491613871634724 -0.0132331212477765 -0.1809399 0.9598032 0.2145663 66 66 66
0.0170329457430771 0.0486438661846202 -0.0134254042058425 -0.1801059 0.9613692 0.2081613 61 61 61
0.0146236580258947 0.0495166322719602 -0.0162546625333182 -0.2735632 0.8754142 -0.3985138 134 134 134
0.015826937400272 0.0464168433387524 -0.018693423000377 -0.08012261 0.5801646 -0.8105488 104 104 104
0.0171762908237685 0.0459029775464315 -0.018668494275111 0.002651487 0.4596699 -0.8880858 127 127 127
0.0189546505591316 0.0485236031710903 -0.017012229660302 0.01308162 0.7402263 -0.6722305 156 156 156
0.0212495254156431 0.048451979450864 -0.0149350829707116 0.4798125 0.8722595 -0.09456911 59 59 59
0.0208465351338825 0.0495592563568683 -0.0162922455924652 0.3971972 0.8192391 -0.4136201 118 118 118
0.0243294633255169 0.0430809441402578 -0.0182277277114832 0.5567086 0.4751239 -0.6814197 74 74 74
0.0195428614362918 0.0435603274125045 -0.0189118287909623 0.105588 0.2966035 -0.9491457 67 67 67
0.0225432921686577 0.0455408135984985 -0.0180679643957652 0.4978882 0.5041315 -0.705662 86 86 86
