ply
format ascii 1.0
comment File exported by Rhinoceros Version 7.0
element vertex 470
property float x
property float y
property float z
property float nx
property float ny
property float nz
property uchar red
property uchar green
property uchar blue
end_header
0.0205889510866375 -0.0530099796409671 0.0207568530474835 0.2322738 -0.5739451 0.7852617 167 167 167
0.0641002143309333 -0.0610595548593929 0.00229318203318135 0.2345271 -0.643451 0.7286754 214 214 214
-0.0324840787024181 -0.0893082397874962 -0.0152166758845073 0.07131851 -0.3265358 -0.9424903 92 92 92
0.00121104704888664 -0.0573420496803485 0.0201407254672888 0.1523122 -0.7522151 0.641072 115 115 115
0.064827897548708 -0.0658165269829711 -0.00264250121394088 0.2299195 -0.7280425 0.6458259 178 178 178
-0.101625169762832 0.0546825021952297 0.0165246111952936 -0.9949483 -0.05117963 -0.08636303 47 47 47
0.132898730862141 0.031636741360662 -0.00577787799306523 0.9964054 0.07001095 -0.0476946 134 134 134
0.0289578416870633 0.0690234137838999 0.0156116645770319 0.2192598 0.9534807 -0.2068811 77 77 77
-0.0649613438955501 -0.0322311176047712 -0.0375371582714933 0.3440641 -0.2187391 -0.9131117 176 176 176
0.0832415423843891 -0.0514818045106886 0.00270732713190425 0.285791 -0.595375 0.7509008 163 163 163
-0.0970061608308068 -0.0237753771482192 0.0263595768276544 -0.9780515 0.1102785 0.1767875 63 63 63
-0.0773894430685176 0.0139007694158089 -0.0406385346975562 -0.06855355 -0.1803093 -0.9812181 103 103 103
0.0101397747372238 0.031544152892617 -0.027206000137222 0.08630825 0.083767 -0.9927406 116 116 116
-0.0194151594966745 -0.0846720729604529 0.00461168901558623 0.2576047 -0.6292624 0.7332589 174 174 174
0.0208505541709911 -0.027243381460391 -0.0238717984211518 -0.07037346 0.04175377 -0.9966465 57 57 57
-0.0278917132255985 0.0123804181374243 -0.0313649149361245 0.1753641 -0.2319558 -0.9567884 167 167 167
-0.00057850596174136 -0.0660028350287574 0.0147681883891698 0.2516861 -0.448929 0.8573895 115 115 115
-0.0679008401012866 0.072978123400359 -0.0168510883712715 0.2597005 0.6261503 -0.7351813 127 127 127
-0.0546695341787582 -0.055121970297733 -0.027469523834064 0.1712214 -0.2612934 -0.9499521 169 169 169
0.130607787520507 -0.0252340739935475 -0.00119415241263243 0.9788837 0.05956347 -0.1955477 132 132 132
0.0795470674027619 -0.0308190057372046 0.0230334067393902 0.3288004 -0.7078379 0.6251847 92 92 92
-0.101925951434324 -0.00303543551585594 -0.0216862003604531 -0.9386693 -0.05560332 -0.340306 112 112 112
-0.0469899569337611 -0.0708422341485875 -0.0213361432596195 0.2030929 -0.2937376 -0.9340618 151 151 151
-0.0961569339065522 -0.047621500171074 -0.0068312678190508 -0.8798255 -0.3666066 -0.3025009 84 84 84
0.0138067877843278 -0.00970068821893033 -0.0246061256708306 0.03596643 -0.01091965 -0.9992933 220 220 220
-0.00755673948380542 0.0665326348044553 -0.0219347622341992 0.2199174 0.8608237 -0.4589324 41 41 41
-0.0294571642434684 0.0695649197198187 -0.024238281212909 0.07946074 0.7600843 -0.644948 72 72 72
0.0761200020964252 -0.027974645243894 0.0275551994495377 0.255152 -0.7731193 0.5806755 97 97 97
-0.0146802744585237 -0.0761231521296546 0.00994125881937163 0.1455446 -0.5901579 0.7940595 150 150 150
-0.102421473479866 0.0419913419265383 0.0257388700592333 -0.9872841 -0.1524524 -0.04503856 55 55 55
-0.0707055712848876 -0.0650383052482593 -0.0301256035895922 0.4033364 -0.3216033 -0.8566744 166 166 166
0.103531188760444 -0.0515458106606488 -0.00730683005864191 0.3807873 -0.6272459 0.6793848 175 175 175
-0.0812171433890216 0.00732311514758788 -0.0395063710845603 0.002210821 -0.04018487 -0.9991898 142 142 142
-0.0554817235863445 -0.00714298357992926 -0.0364577793065268 0.175191 -0.06465935 -0.9824089 173 173 173
-0.0181570470565817 0.0108611375431256 -0.0284872089117834 0.1040483 -0.2000351 -0.9742484 186 186 186
-0.1015482171433 0.0206595661089952 -0.00524227982071374 -0.9750091 -0.07791947 -0.2080524 90 90 90
-0.0705918984013474 0.0799021752132616 -0.00210339381076824 0.03109239 0.9249848 -0.3787301 114 114 114
0.11106546353709 -0.0369282646754432 0.00398698672793135 0.3248133 -0.6336586 0.7021204 146 146 146
-0.033570661000994 0.0820049332701507 0.00780022265306546 0.4610953 0.7916569 -0.4008373 95 95 95
0.0992221470231014 0.000513543402406169 -0.041474496886354 -0.3742573 -0.1657635 -0.9123892 190 190 190
-0.101285862109862 0.0454362438011331 -0.0293924436964196 -0.9066479 0.09845719 -0.4102388 102 102 102
-0.0294983233434003 -0.0997675379369984 -0.0129729454862725 0.01563157 -0.08007659 -0.9966661 93 93 93
-0.0836035990762927 -0.085606828553938 0.014289526791819 -0.6818221 -0.345696 0.6446805 16 16 16
0.0754671999104071 0.00903352412837766 -0.033323134663473 -0.3045372 -0.1031403 -0.9468998 62 62 62
0.0519862804298374 -0.0540797427172592 0.010677302241402 0.2348093 -0.5769351 0.782311 222 222 222
-0.0676286434107363 -0.0292144623505757 -0.0390968906068577 0.3836079 -0.2768733 -0.8810143 159 159 159
0.0331674523816599 -0.00257741941756073 -0.0249456557781176 0.005832016 -0.1740645 -0.984717 250 250 250
0.0541047060935305 -0.0275003265978913 0.030533092137835 0.2140793 -0.5654604 0.7965077 142 142 142
0.118176737893719 -0.0153313680105842 0.017013988937689 0.2925723 -0.4993983 0.815477 106 106 106
-0.0859535133746627 -0.0640992297785481 -0.032489509053554 -0.8672109 -0.1836656 -0.4628306 122 122 122
-0.0563995929949002 -0.108208844960084 -0.0114193851649274 0.1266887 -0.844856 -0.5197771 90 90 90
-0.0380502543859866 0.070592470958313 -0.0256098582142031 0.103543 0.9051898 -0.4122017 37 37 37
0.0656755545117429 -0.0420290931476435 0.0160248936330533 0.2622631 -0.6631737 0.7010126 160 160 160
-0.0406690383504364 0.0359545809066859 -0.0367284365206638 0.04700668 0.3291996 -0.9430896 75 75 75
0.0343869226837863 -0.0647200113042694 0.00714992203120046 0.1464827 -0.746993 0.6484939 216 216 216
0.0893675308872286 0.0707409519913205 -0.00660261408448665 -0.1111526 0.9355542 -0.3352364 47 47 47
-0.100330864480735 0.015528694928709 -0.0323709487343741 -0.9974908 -0.07074325 -0.002761059 14 14 14
-0.0206512694107666 -0.00396312461237924 -0.0295775798780736 0.2470539 0.1185923 -0.9617174 108 108 108
0.00137633322320641 0.0216896477496928 -0.0270880983177995 -0.03844243 0.06706531 -0.9970077 51 51 51
-0.0300713016059104 0.0263101553933021 -0.035595844578396 0.1930725 -0.2957765 -0.9355422 123 123 123
-0.0968616608718285 -0.0436855769074909 -0.00899378118502803 -0.8837476 -0.2794544 -0.3753603 95 95 95
-0.0906910388277855 -0.0707009846053581 0.00863812120468421 -0.9701486 -0.2406767 -0.02977477 118 118 118
0.0569835661891802 0.0676088645518782 0.00661127229580577 -0.01758021 0.9452426 -0.3258948 77 77 77
0.0828467090771317 0.0766237548505149 0.0124357981728387 -0.2667556 0.9100453 -0.3172679 114 114 114
0.0164754279505432 -0.0238469806839476 -0.0240676265618637 0.01202472 0.04233719 -0.999031 218 218 218
-0.0192278854258241 -0.00552666291411863 -0.0291160955146395 0.2399587 0.1052146 -0.9650646 85 85 85
0.00870362346420706 0.0246355946414452 -0.0264766675220713 -0.01370021 0.022759 -0.9996471 97 97 97
-0.0293428362876162 -0.0339594231462175 -0.0277024707207395 0.2121804 -0.1053657 -0.9715336 64 64 64
-0.0855242525164268 -0.0873518103855595 0.0110323202145504 -0.8673239 -0.3933672 0.3049779 15 15 15
0.129348026440739 -0.0302525775832929 -0.0211274109712948 0.9542629 0.1035539 -0.2804622 161 161 161
-0.0153825676325896 -0.0518740246745961 -0.022981598695534 0.04705432 -0.2501777 -0.9670559 79 79 79
-0.0134607401381488 -0.0825142443405709 -0.0165997831746516 0.1937637 -0.2727981 -0.9423571 96 96 96
-0.099749659929977 0.0478307275639696 -0.029438238456339 -0.9134836 0.1908195 -0.3593546 98 98 98
0.097331974634324 0.0755891726103548 0.00308908484097342 -0.1158333 0.902264 -0.415334 91 91 91
-0.101552664228881 -0.00774818501436147 -0.00423539146308249 -0.95289 0.1196877 0.2787033 112 112 112
-0.00380437785237442 0.0220825731378771 -0.0271347536760229 0.1208364 0.1593282 -0.9798025 74 74 74
0.106612617408568 0.068004244644599 -0.01676326292741 0.09473159 0.9869481 -0.1302284 44 44 44
0.0263487427629894 0.0672821168797306 -0.012950606862445 0.1418135 0.9264349 -0.3487224 115 115 115
0.122354555455987 -0.00149674903383334 0.0243105875947287 0.2993633 -0.5574491 0.7743592 84 84 84
-0.0936801308075217 -0.0423475944029155 0.0315720420319869 -0.8953718 -0.2437468 0.3726886 43 43 43
-0.0782402159831075 0.0428285494307528 -0.0450719142386029 0.1288297 0.1164554 -0.984805 89 89 89
-0.0995136600494044 0.0455629433896703 -0.00205304869991596 -0.9930956 -0.07077957 -0.09354936 35 35 35
-0.093908410426466 -0.0208591064598667 0.035304407314639 -0.9612952 0.1059626 0.2543292 41 41 41
-0.0992132795747223 0.0269227626568898 0.0342530753210122 -0.967912 -0.2305288 0.1000143 69 69 69
0.0152787434851249 -0.0660709408214386 0.00984293591157415 0.1924255 -0.6078647 0.7703719 132 132 132
-0.0513052294956915 -0.0538370404801651 0.030909644555491 0.1185059 -0.5243647 0.843207 130 130 130
0.0975106193643294 -0.063611781206387 -0.0280861772189193 -0.3674665 -0.4410931 -0.8187827 134 134 134
0.0755810516896029 0.0669042903847097 -0.0161675434281315 -0.08197709 0.9562727 -0.280753 82 82 82
0.0913249447120958 -0.0619948624426039 -0.0263410300616615 -0.3046356 -0.4787394 -0.8234111 159 159 159
-0.065431643291288 -0.00847870198257694 -0.0397023248828794 0.2981886 0.09515479 -0.9497522 133 133 133
0.027948044658312 -0.0544928424036621 -0.0238692800365844 -0.0526621 -0.1630492 -0.9852115 178 178 178
-0.0756497202771005 0.016495689704874 -0.0413279095498525 -0.0005512211 -0.2350479 -0.9719836 118 118 118
-0.000229218691401467 -0.0372411766010852 0.0355161460146048 0.04942112 -0.471734 0.8803548 138 138 138
0.121853465561073 0.00781735056646604 -0.0334984213651254 0.9880992 0.1536813 0.00647773 168 168 168
-0.102308386836606 0.0821034769685323 0.0169934870953508 -0.9976406 -0.03855387 0.0568058 21 21 21
0.122172620222741 0.013826743052652 -0.0376680531267983 0.9958695 0.02973516 -0.08578894 195 195 195
-0.0525494648198732 0.0609212679395761 -0.0311569481231738 0.1531819 -0.0001888933 -0.988198 86 86 86
0.0522320680039536 -0.0386582129296535 0.02181488900048 0.09454493 -0.6563746 0.7484876 137 137 137
0.0294516696408649 -0.0286474110224519 0.0352892245727683 0.05200823 -0.6754483 0.735571 153 153 153
0.0369555482355155 0.0657994549776797 -0.000100474199749068 0.1785755 0.9723554 -0.1504522 74 74 74
0.047759448078514 0.000903962995805419 -0.0296678813966371 -0.2329312 -0.1878029 -0.9541872 116 116 116
-0.0775337426936784 -0.0654499011551313 -0.0333622204723314 0.4277357 -0.3228142 -0.8442944 133 133 133
0.0164584517509581 -0.059571896905172 0.0159544960128128 -0.001724271 -0.6631103 0.7485198 198 198 198
-0.0987422913939167 -0.0269874479976278 -0.0193294427561939 -0.855701 -0.3812004 -0.3499457 224 224 224
0.125256824589075 0.0323400515650607 -0.0252981951453263 0.8254132 -0.1629032 -0.5405141 180 180 180
-0.0360467116269989 -0.088005318814468 0.00643076369069545 0.1195806 -0.5911587 0.7976414 174 174 174
-0.0691887929578461 0.078924355215757 -0.0041635931795852 0.03553063 0.9384913 -0.3434699 73 73 73
-0.0999587580587336 0.0506637716662777 0.00676920737713083 -0.9964657 -0.06986444 0.04663843 89 89 89
-0.0209233192778959 -0.0535997735707578 -0.0224043817528872 0.07345633 -0.3110836 -0.9475396 165 165 165
0.112380731518309 -0.00697296259940572 -0.0438728749700573 0.1260439 0.07221586 -0.9893926 144 144 144
-0.029328148512437 -0.0670544826988924 -0.0191924055461552 0.05801746 -0.1172789 -0.9914029 155 155 155
-0.0640039175901328 -0.102847459198106 0.00381786548174706 0.2982456 -0.7080259 0.6401162 196 196 196
-0.0507186441639673 0.0280382853156953 -0.0399602136441101 0.2221056 0.0351716 -0.9743881 106 106 106
-0.0729825577070837 -0.0827449944918213 0.0217439474848675 0.1182369 -0.5868361 0.8010265 96 96 96
0.131756121361791 -0.0338819441880656 -0.00407744414384353 0.9938136 -0.1019494 0.04405532 193 193 193
-0.0331174444039761 0.0847693478534963 0.0102986237413117 0.3815275 0.8354671 -0.3955142 78 78 78
-0.0875460077658272 0.0611917382701701 -0.0402591723187421 -0.2506166 0.3420467 -0.9056464 86 86 86
0.0172483299887038 -0.0613209906247756 0.0148387223341293 0.01048613 -0.670506 0.74183 201 201 201
-0.0378858572740182 -0.0542268312630405 -0.024795605499782 0.1776803 -0.2054017 -0.9624135 130 130 130
0.125909214775735 -0.0206648162403757 -0.0250116853529973 0.98185 0.1096425 -0.1547552 158 158 158
0.0207462975083583 -0.0232269623558978 0.0412730658249253 0.003842974 -0.7927138 0.6095819 107 107 107
0.048291647774342 0.0630633356901724 -0.00417609047393852 0.04742959 0.9531484 -0.2987617 94 94 94
-0.0323125417537153 0.0766159781664746 -0.0102591701198005 0.1496266 0.9817072 -0.1177412 87 87 87
0.0207077258879176 -0.0596767017007465 0.0159713931982601 0.1952118 -0.6122687 0.7661719 172 172 172
0.0846495704692121 0.0020140073411683 -0.035285221488365 -0.3373729 -0.1994265 -0.9200047 167 167 167
-0.0751023343480837 -0.0954931700281938 -0.0218371675339626 0.3295299 -0.492739 -0.8053684 86 86 86
-0.0744059527826804 -0.0972858320073042 -0.0205799460556584 0.3444896 -0.500708 -0.7941148 67 67 67
0.123637389364804 0.068239667311373 -0.00955480088876959 0.796682 0.3763757 -0.472905 153 153 153
-0.0778274341414371 -0.0505517855462314 -0.0395219401925238 0.5530617 -0.2589399 -0.7918793 145 145 145
0.115687268591238 -0.0191125611270901 0.0153737030526128 0.2498154 -0.5845473 0.7719434 73 73 73
0.0559976303568135 -0.0254258099893951 0.031617684398773 0.00403944 -0.7235287 0.6902825 124 124 124
0.020932670884267 -0.0483224592873934 -0.0244122543968077 -0.1112071 -0.1692718 -0.9792753 132 132 132
0.124736528581188 -0.0548043514886538 -0.0364167913602574 0.6894853 -0.2094998 -0.6933396 188 188 188
0.0748506563200877 0.0184053630167782 -0.0353754510515224 -0.3725792 -0.2499772 -0.893698 125 125 125
0.0822786355228633 0.0337163969632399 -0.0329513999605598 -0.4095649 0.4890553 -0.7701178 45 45 45
0.122933450022386 0.0110434749505992 -0.0250761148980961 0.8620031 0.06338663 -0.5029241 177 177 177
0.0904340875370386 -0.0691987238851819 -0.0205783773992904 -0.1538231 -0.9801744 -0.124886 161 161 161
0.027515918634788 0.00143285193903075 -0.0261662401667753 0.04996095 -0.1697736 -0.9842159 173 173 173
-0.0183962286224242 0.0226564636805482 -0.0319106752828945 0.2334075 -0.2316603 -0.9443805 95 95 95
0.0560524659441253 0.0582215044787548 -0.0245720781893714 -0.008378214 0.3116601 -0.9501567 143 143 143
0.0466520198288016 0.0333590721505996 -0.0237673289524515 -0.04249823 0.2018728 -0.9784893 115 115 115
-0.0262301950384298 -0.00557875061387403 -0.0312255559574656 0.2173668 0.05266111 -0.9746684 119 119 119
0.0146505983770422 -0.0276293724332122 0.0365430274904993 0.1472823 -0.6338402 0.7593119 148 148 148
0.111397414813939 -0.0194811987464329 -0.0432408024179671 -0.2340315 -0.1169233 -0.9651726 187 187 187
0.0522121203015979 0.0381589231808355 -0.0229316607656471 0.0005111605 0.1247161 -0.9921923 125 125 125
-0.10163312936153 0.0380701429205754 -0.0288721534141503 -0.9253567 -0.03029237 -0.3778854 84 84 84
-0.00301970442285615 -0.0441211408014532 -0.0239335001699312 -0.09261397 -0.260861 -0.9609236 173 173 173
0.0763670792993261 0.0756785407882112 0.0188693795409349 -0.3354269 0.9154835 -0.2222132 38 38 38
-0.100192211327981 0.0499598411415314 0.013418891239028 -0.9660396 -0.07671519 -0.2467433 96 96 96
-0.0554025780390925 -0.0953140907590282 0.00648968501163555 0.2935847 -0.6039245 0.7410015 188 188 188
0.00485120647050019 0.0716173363227945 0.00151696624110831 0.2735123 0.9487787 -0.1581452 56 56 56
0.106557428865404 -0.0548293355934464 -0.0353760863404692 -0.1961399 -0.2089054 -0.9580646 142 142 142
-0.0855067295217919 0.0320812238343353 -0.0445770853274493 -0.1476755 0.02790679 -0.9886421 117 117 117
0.131055817957696 0.0189240567826741 -0.0158326783283831 0.843008 -0.09104421 -0.5301399 176 176 176
0.0710305673008866 -0.0594913731618196 0.00131811527396908 0.3154188 -0.6407728 0.6999437 174 174 174
-0.0307381566724216 -0.0239804197568867 -0.0292750052349521 0.2037922 -0.1614382 -0.9656119 91 91 91
-0.0535974894789848 -0.069147356458144 -0.0235209571917161 0.151846 -0.2857697 -0.9461915 95 95 95
0.0354565714479178 -0.0484965144039071 0.0200303342083125 0.2515248 -0.5042188 0.8261348 156 156 156
-0.0510918475669784 0.0177446962307986 -0.0372346675927193 0.2728235 -0.1314339 -0.9530438 149 149 149
0.0773771016091516 0.0333828819330964 -0.0289649383071534 -0.5204712 0.4873147 -0.7011663 152 152 152
0.0731984562136012 0.0673911481458089 -0.0173394307426478 -0.1207557 0.9560486 -0.2671873 196 196 196
-0.101697412864847 0.0210297833863569 0.00749671394589757 -0.9680632 -0.2236801 0.1132296 108 108 108
-0.00623562978590675 0.0766926048204279 0.0128630719662838 -0.008717186 0.9304572 -0.3662969 68 68 68
0.0955624895085827 -0.0660870820801027 -0.0265927284343793 -0.3215693 -0.5835452 -0.7456998 166 166 166
-0.00683939886716578 -0.0711705469451103 -0.0177314113413786 0.02481266 -0.1893628 -0.9815936 121 121 121
-0.0893760697321357 -0.0563526419614715 -0.0218032811602651 -0.9671917 -0.2386377 -0.08713347 51 51 51
-0.0304740037737865 0.0574591075938793 -0.029976573510587 0.05758015 0.1137135 -0.9918436 117 117 117
-0.00727336585363103 -0.0463039166443893 0.030062622472917 0.1513943 -0.5272219 0.836132 136 136 136
0.0456174495241175 -0.0575130847686207 -0.0224128951546738 -0.04139435 -0.3113644 -0.9493886 74 74 74
-0.0906177339617327 -0.054309802253095 -0.0211528363697686 -0.9548557 -0.2834301 -0.08898277 64 64 64
-0.0349884530352496 0.0159553259234748 -0.0330014915333047 0.1759846 -0.353065 -0.9188985 159 159 159
-0.075171586377925 -0.0108265868527955 -0.0406359705362013 0.02128195 0.3549744 -0.9346337 151 151 151
0.108546733292486 -0.0336135028527536 -0.0396266213676362 -0.292665 -0.1626746 -0.9422761 156 156 156
0.00613605864477673 -0.0519785635687728 -0.0224372875004079 -0.08098705 -0.3202374 -0.9438692 216 216 216
0.0242945072349667 0.0683526266478693 -0.00677682490755643 0.1870783 0.9820336 -0.02473431 82 82 82
0.0671357940506168 -0.0738427782628035 -0.0166167447750325 0.2181175 -0.4771816 -0.8513064 117 117 117
0.0381086023175987 -0.0680297919482793 0.00244657087096739 0.1784447 -0.6629243 0.7271099 183 183 183
0.134252432141636 0.0502510022930167 0.00336336665097386 0.9645609 -0.07418161 -0.2532181 158 158 158
0.0985464023771336 -0.0123637458679575 0.0275321971376387 0.4487686 -0.5636584 0.6934666 170 170 170
0.125281715264895 -0.0413245539642138 -0.0365724422217887 0.8998953 -0.07122117 -0.4302511 181 181 181
0.122891012198457 -0.018261895139565 0.013309793601078 0.375742 -0.5128831 0.7718607 155 155 155
0.130939866680271 -0.0427515313132116 -0.0162731856612636 0.9955823 0.04563139 0.08205826 141 141 141
0.0188134168115677 -0.0471625325231599 -0.0236247038268838 -0.07571286 -0.2187345 -0.9728426 132 132 132
-0.0774658973928415 0.0418712326327138 -0.0449164327908148 0.1332096 0.1465863 -0.9801876 83 83 83
-0.065472015312023 0.0575414453777439 -0.0366662122229123 0.5046208 0.3263674 -0.7992761 59 59 59
0.120743756398231 0.0170967278692098 -0.0301030990634816 0.9812553 -0.03996344 -0.1885233 134 134 134
-0.033906267875409 0.0610671621351946 -0.0300416273349669 0.1327606 0.0448782 -0.9901316 96 96 96
0.0127989564939202 -0.00709367036463981 -0.0246471449765235 0.07447173 -0.1097171 -0.991169 230 230 230
-0.0216864393663396 -0.0242408233748546 -0.027518551855483 0.04898396 -0.1543024 -0.9868087 122 122 122
-0.0649337167330226 0.087452660373708 0.0109084966773999 -0.05767185 0.8195784 -0.5700572 95 95 95
-0.0966736480921466 -0.0280173332975031 0.0125080916052849 -0.9988859 0.01104287 0.04588118 58 58 58
0.00341797135899524 0.0650163413284697 -0.0233264728930235 -0.1481819 0.7888044 -0.5965146 94 94 94
0.129228838870792 -0.010200534006289 -0.00990267496084529 0.9550853 -0.1760866 -0.2383392 185 185 185
0.0996576862946981 -0.0199097620083861 0.0219721613250016 0.3396019 -0.7082918 0.6188645 98 98 98
0.0827575276979706 -0.0451750158219826 -0.0333962112933159 -0.1050394 -0.2886011 -0.9516702 224 224 224
-0.0632463576679339 0.0845502397285807 0.0066779578627929 -0.05948151 0.8267774 -0.5593756 110 110 110
-0.0564984670534123 -0.105296962578343 -0.0125295401780616 -0.06836794 -0.5993536 -0.7975595 67 67 67
-0.0589771129941283 0.00644281445259387 -0.0397336285335832 0.2986325 -0.1352809 -0.9447315 191 191 191
0.0529304427692625 0.0270408223327157 -0.0264483003823048 -0.06537382 0.4351538 -0.8979796 87 87 87
-0.0284621084652943 -0.0623972177254193 0.0215100003575787 -0.04663348 -0.602005 0.7971294 140 140 140
0.0881187738792324 -0.0657561632351156 -0.0224850634353169 -0.3008408 -0.5814304 -0.7559322 77 77 77
-0.0779218275718874 -0.052509580270049 0.0412338637816483 0.1887107 -0.4965993 0.8472174 169 169 169
-0.0980019513113053 0.0308022770864014 0.0200100768729624 -0.9824864 -0.1728449 0.06960625 72 72 72
-0.0682536672959673 -0.052658416535958 -0.0322808558847999 0.4291694 -0.1951108 -0.8818988 161 161 161
0.124661073028697 -0.0559018071849882 -0.0267300485307959 0.5305382 -0.7801142 0.3315885 226 226 226
0.0538872715666519 0.0655447110781553 0.000910100192899832 -0.03786462 0.9403332 -0.3381416 66 66 66
-0.0689981791895828 -0.0757128738791959 -0.0263722698735425 0.2668613 -0.1638253 -0.9497086 143 143 143
0.0818254588211418 -0.0192242463882519 0.0344901147087256 0.3743349 -0.6482573 0.6630504 159 159 159
-0.0141394787095428 -0.0424026814379206 0.034615764950618 0.1929217 -0.4841738 0.8534383 117 117 117
0.0457925332041271 -0.019130769088588 0.0376012478463684 0.1999021 -0.6428583 0.7394406 149 149 149
-0.017821536933996 0.00192504626516454 -0.0281323736385347 0.1675986 -0.02177492 -0.9856148 140 140 140
0.0536781780355282 0.0513432571317276 -0.0233592403304007 -0.02506032 -0.1092167 -0.993702 139 139 139
-0.0304185969841808 -0.0637986057879438 -0.0210531829903744 0.2240216 -0.2752815 -0.9348981 135 135 135
0.12304932747995 -0.0136728688713206 -0.0319167165431518 0.9839941 0.03126406 -0.1754371 169 169 169
0.0518796472909537 -0.0527514969379279 0.0117591026826807 0.2254462 -0.6109819 0.7588643 216 216 216
0.0244255251198218 -0.0125226807695253 0.0480062555627267 0.1981525 -0.4676891 0.8613957 116 116 116
-0.00951353049292036 0.0434034355245265 -0.0293100166608782 0.1212799 0.1206243 -0.9852619 143 143 143
0.0197772287983629 -0.0404237947588313 0.0290700809996386 0.2149961 -0.4015602 0.8902393 163 163 163
0.0191113148358801 0.0542759646023476 -0.0243144344285022 0.2469464 0.02692154 -0.9686551 182 182 182
0.00270321030056087 -0.0440975344921937 0.0311509431947236 0.09510299 -0.5663906 0.8186312 185 185 185
-0.0071768563053447 0.0747127413309892 0.00850171201112149 -0.04145003 0.929898 -0.3654744 77 77 77
0.0507332561710232 -0.0108140381691513 -0.0253083565454098 -0.1495505 -0.2090429 -0.9664035 232 232 232
-0.0669568570305712 0.0606513051552617 -0.0351649927765212 0.2682358 0.5711458 -0.7757847 107 107 107
-0.00785039251141084 -0.0632457360466554 0.0178806658294599 0.2356943 -0.4556228 0.8584032 146 146 146
0.00146581674005342 0.0589078593146752 -0.0249348078469243 -0.1109694 0.004487354 -0.9938137 62 62 62
-0.00345185557441319 0.071997141694194 -0.00621948821834339 0.112418 0.8811375 -0.4593025 154 154 154
0.0828932466127812 -0.0459209014185145 0.00615599833535763 0.2075592 -0.5836985 0.7849938 186 186 186
0.00359260861289012 0.0669139765623079 -0.0148888775133555 -0.1016189 0.9308931 -0.3508728 62 62 62
-0.0659037358490275 -0.0851119404286722 -0.0223472020012151 0.3160312 -0.1704669 -0.9333088 88 88 88
0.0829041312837555 -0.00688305382531196 -0.0338314889995542 -0.3208644 -0.002704856 -0.9471213 236 236 236
-0.0939463103552991 -0.0605445155428337 0.0126570651861094 -0.9018249 -0.4284978 -0.05569147 113 113 113
-0.0715280984597002 -0.0712572787772225 -0.0284722024042905 0.3904869 -0.2932479 -0.8726544 122 122 122
-0.00292569735267545 0.0779986122269591 0.0153378014322982 0.09581651 0.9621066 -0.2552843 103 103 103
0.130555020553327 -0.0287530687461308 -0.00382590551829398 0.9841548 0.0952929 -0.1495276 194 194 194
0.0403108466584388 -0.0666875751592779 -0.0203575743023077 0.08240005 -0.2807227 -0.9562452 101 101 101
-0.0241656000934038 0.0829868573407349 0.0159674248581005 0.4830231 0.7747583 -0.4079684 62 62 62
0.12423165613341 -0.0423975212628311 -0.00618829744744964 0.3308523 -0.6822574 0.6519675 66 66 66
-0.0182801424998931 0.0195319519751807 -0.0303452454360267 0.2201529 -0.2123942 -0.9520617 169 169 169
0.00668369283910497 -0.031401164577421 0.0363631003984526 0.2575006 -0.3931624 0.8826759 116 116 116
0.0862890358579267 0.0610832463268409 -0.0267473984968721 0.08429471 0.6573644 -0.7488434 227 227 227
0.0212203995134184 0.0250439893818231 -0.0274832707110403 0.02233394 0.1793671 -0.9835287 94 94 94
-0.0787735056920424 -0.0744812179809766 -0.0294916189844457 0.3535367 -0.2808556 -0.8922623 130 130 130
-0.0134549314329364 0.0516742970234072 -0.0268092053162222 0.1889011 0.2784548 -0.9416896 108 108 108
-0.0190140426664334 -0.086710651594321 -0.0159463305949482 0.04552249 -0.3160134 -0.947662 82 82 82
0.131615218471555 -0.0179397880641421 -0.000298946530300936 0.9675102 -0.03017104 -0.2510255 137 137 137
0.131963825986965 0.0357524345048839 -0.010870633835486 0.99207 0.07311832 -0.1022288 133 133 133
-0.0613073488084876 -0.029905402047256 -0.0361187726298964 0.4285135 -0.05776308 -0.9016871 161 161 161
-0.0173484575062375 -0.053062535525795 0.027876477124312 0.1771482 -0.6781588 0.7132455 181 181 181
-0.030653883980011 0.0716029791681885 -0.0212130652448005 0.08229757 0.7854763 -0.6133955 92 92 92
0.000842985125897755 0.0729887724032638 -0.00552350699084714 0.1076271 0.9346243 -0.3389599 70 70 70
-0.0272193087950181 -0.102311079978105 -0.00769236036345311 0.1769059 -0.9313487 0.3182671 201 201 201
0.124551792985361 -0.0205050736926735 -0.0352924752535986 0.9974728 0.02089141 -0.06790825 178 178 178
0.0887781858339349 0.0488607657046254 -0.030148998936105 -0.3050864 0.2260586 -0.9251053 136 136 136
0.0100302833453516 -0.0714592016013362 0.00837524736809203 0.2671898 -0.5893219 0.7624364 161 161 161
-0.0659242371797788 -0.0666202851159245 -0.027734512503563 0.3292021 -0.2963254 -0.8965586 174 174 174
0.13325619979376 0.0371436199599751 0.0108715460453597 0.9950258 -0.08092832 -0.05808846 84 84 84
-0.0455737754499781 -0.077380966572804 0.0165244484183916 0.2055423 -0.6521876 0.72966 169 169 169
-0.0670759627220092 -0.0889555858478404 -0.0231195549309776 0.3985735 -0.1085597 -0.9106887 191 191 191
-0.100244679456288 0.0146201970804276 -0.0139387760747223 -0.990241 0.1329894 -0.04167209 86 86 86
0.13513651371465 0.00992801457310066 0.0128323397110132 0.9346175 -0.1313755 -0.3305007 191 191 191
0.120334552830183 0.00998361823540961 -0.0405767814032481 0.6968441 0.2825212 -0.6592345 100 100 100
-0.0563156176689898 -0.0879445192351711 -0.0194224962439208 0.1884456 -0.3645154 -0.9119303 139 139 139
0.0828980088914895 0.0773677850079042 0.0162091603682316 -0.2895153 0.9183557 -0.2698217 106 106 106
-0.0626069626223078 0.0288492857690907 -0.0413316130762488 0.1955512 -0.07140912 -0.9780902 113 113 113
-0.0379220754704757 0.0310467695853518 -0.0379215673428433 0.1478253 0.04960613 -0.9877687 143 143 143
0.0659353624508752 0.0665516804426256 -0.00112610425765863 -0.3015158 0.9511171 -0.06681673 61 61 61
-0.0949124740880616 -0.00660652840775122 0.0351843054696284 -0.9925359 -0.05568838 0.1084949 51 51 51
-0.0409513452324162 -0.0833924716705869 -0.0182722797205499 0.1251235 -0.3556345 -0.9262118 123 123 123
-0.0807660423549938 -0.0419834783768724 0.0477404576272857 0.09662707 -0.5622337 0.8213139 173 173 173
-0.0247138382565573 -0.00298254066696502 -0.030433366051646 0.270663 0.147882 -0.9512479 122 122 122
-0.0376764460193764 -0.040909941819568 -0.0275171009722124 0.1067961 -0.1306307 -0.9856623 131 131 131
0.131163040243869 0.0275083631043269 -0.0174300036792053 0.7855572 -0.2026724 -0.5846571 215 215 215
-0.0217114028871315 -0.0478328097749348 -0.0239350714614472 0.09880669 -0.213043 -0.9720339 152 152 152
0.105972038119583 0.0318869906028176 -0.0359136029536387 0.03300079 0.1799509 -0.9831219 133 133 133
-0.0348362832002018 -0.063545409673603 -0.022021636003089 0.1499752 -0.3464641 -0.9259968 184 184 184
-0.0350295793241027 0.0441287973986377 -0.0317428029307563 0.03858725 0.4094518 -0.9115154 139 139 139
0.0797579727644271 0.0680322995952447 -0.0112211419140975 -0.0904959 0.9442842 -0.3164456 57 57 57
-0.101773546119705 0.0453992327164423 0.0165283483037281 -0.9785213 0.03375026 -0.2033638 41 41 41
-0.0903463618534244 0.00209505851953429 -0.0418466729688104 0.2767504 -0.01298987 -0.960854 94 94 94
-0.00354539623266259 0.0110450369575243 -0.0289390584789854 0.02884336 -0.1700613 -0.9850113 203 203 203
-0.0706577452541319 -0.0462676859465809 -0.0361839661931593 0.4817161 -0.3685986 -0.7950376 158 158 158
0.0714876466369274 -0.0563960687843557 0.00329762078536888 0.3080123 -0.6563608 0.6887081 218 218 218
-0.0729687624988564 0.0860731301435891 0.00910645723984443 0.1823147 0.7836707 -0.5938194 92 92 92
-0.0775221078838428 0.000565684777845465 -0.0399219383670985 -0.01203856 -0.03763549 -0.999219 82 82 82
0.107578177780575 0.0367273689498422 -0.0337919130986806 0.01992511 0.3660669 -0.9303752 116 116 116
0.00548162100840166 0.0663363772166545 -0.0175351821018863 -0.1535032 0.957761 -0.243168 33 33 33
0.0752945163318022 -0.0667879008105523 -0.0187159384323572 0.03023898 -0.6284578 -0.7772557 117 117 117
-0.0734171479957588 -0.0789987834677981 0.0240770445713109 0.2281762 -0.5086776 0.8301703 142 142 142
0.127004465801272 0.0385865209687823 -0.024948195715699 0.8417054 -0.2854177 -0.4583325 109 109 109
0.0785116769434739 0.0299179329620565 -0.0331251375811024 -0.4329619 0.5455419 -0.7175848 105 105 105
0.0619733487015757 0.0659504746945336 -0.00310834950444533 -0.2539802 0.9560397 -0.1465682 61 61 61
0.0382011064255519 0.0665809240970794 0.00507233501300058 0.1053932 0.960421 -0.2578446 105 105 105
-0.0805880112265203 -0.076002039677475 0.0269986290030118 -0.2546382 -0.5394065 0.8026207 186 186 186
-0.025698678199221 -0.0975926591696392 -0.0131056429273969 0.1361971 0.01887898 -0.9905019 121 121 121
-0.00586932591358957 0.0790727474749322 0.0190064017595091 0.06726617 0.9759505 -0.2073545 150 150 150
0.0891807014350152 -0.054214807066655 -0.00106121431439382 0.3262746 -0.6621526 0.6746101 148 148 148
-0.0756562350957672 0.0282137724836768 -0.045085142760789 0.09368405 -0.2140945 -0.9723101 42 42 42
-0.0662598574151376 -0.0417134020497594 -0.0348854834520017 0.353182 -0.1565926 -0.9223564 129 129 129
0.000200775299782574 -0.0616956267815107 0.016429246345161 0.221711 -0.5025396 0.8356424 130 130 130
0.00145626464618376 0.0173713317230153 -0.02826622010257 0.04560905 0.1959917 -0.9795443 68 68 68
0.122336262441637 -0.00120911142148494 -0.0336611231398655 0.9842467 0.01849976 -0.1758302 209 209 209
-0.0515449079236738 0.0746158893867443 -0.0142823952511296 0.08677986 0.9408732 -0.3274552 67 67 67
-0.047931794655879 -0.106538096789033 -0.0112392972611815 0.09949712 -0.7691733 -0.631247 165 165 165
0.0495266248464032 -0.0787418444493277 -0.011783198055578 0.2431153 -0.9179245 0.3135434 127 127 127
0.0974589541887858 -0.00277874760110564 0.037829338424803 0.3987636 -0.7077364 0.5831782 225 225 225
-0.0608140764553173 0.0583209626944379 -0.0336559930563761 0.3225244 0.1344915 -0.9369579 116 116 116
-0.0744095927266133 0.012353378716591 -0.0404068246550255 -0.001366522 -0.1395781 -0.9902101 107 107 107
-0.0782572647233382 -0.0677854526334842 -0.0327949281173178 0.3812204 -0.3798052 -0.8428636 218 218 218
-0.097799674351684 0.00894813714945064 -0.0399027545130989 -0.876423 -0.108554 -0.4691468 167 167 167
-0.0983118691221452 -0.0208520811262272 0.00556120922391684 -0.970988 -0.03029802 0.2372011 96 96 96
0.024195723614147 -0.0304545263278899 0.0341506004845826 -0.01127739 -0.6198206 0.7846625 136 136 136
0.0288914905403841 0.0319805368924373 -0.0253712364443636 0.1242613 0.2478393 -0.960799 103 103 103
-0.0401450038329445 -0.103616295827778 -0.012859939677632 0.01909074 -0.5203741 -0.853725 107 107 107
-0.10126757985801 -0.012236987994847 -0.0212610511414298 -0.9007004 -0.09451157 -0.4240357 152 152 152
-0.0194249326578215 0.0170899270336928 -0.0300845780943307 0.1977324 -0.197266 -0.9602021 157 157 157
0.0970336645431042 -0.0277575631682097 0.0154381938260114 0.3578489 -0.5366814 0.7641447 134 134 134
-0.0550688260510488 0.0744832885755695 -0.0145998644744055 0.04660865 0.9417506 -0.3330666 51 51 51
0.0729366733488237 0.0432048979275925 -0.0240975697152396 -0.256207 0.1776316 -0.9501605 112 112 112
0.0179699288389088 -0.0705427931244327 -0.0206308141040429 -0.1496201 -0.1109866 -0.9824947 73 73 73
0.104196695436723 -0.0159040709350771 -0.0417410553436495 -0.3538784 -0.09355555 -0.9306006 134 134 134
0.0060950461261231 0.0676741455560983 -0.0102953753731425 -0.1033973 0.9452175 -0.3096332 32 32 32
0.00993075169142887 0.077356801542956 0.0191045525561472 0.06817424 0.9652939 -0.2521109 31 31 31
-0.050082119698847 -0.0499085492286591 0.0335434477682441 0.08268271 -0.6354828 0.7676752 101 101 101
-0.0513609402569952 0.0452453747102466 -0.0346388022129233 0.3098366 0.5733185 -0.7584901 58 58 58
-0.0542303448422539 -0.049380903296407 -0.0289362815022342 0.2052358 -0.2451528 -0.9475117 117 117 117
0.109951508611281 -0.0407017861258725 0.000619244474920622 0.3193384 -0.6617615 0.6783028 116 116 116
-0.071678108059086 0.0710349447085636 -0.0226911848186829 0.2161944 0.8468717 -0.4858687 48 48 48
0.00633592721409748 0.00616955881046799 -0.0277318196642831 0.00746665 -0.2926946 -0.9561768 119 119 119
-0.0947284733303793 -0.0485525062085896 -0.00917253472935903 -0.8843334 -0.3178689 -0.3419265 93 93 93
-0.0738717059057521 -0.103828369847743 -0.0162777732071464 0.1973631 -0.4296078 -0.8811838 149 149 149
-0.0705441239295928 -0.0409875879890809 -0.037489631858165 0.4558573 -0.09132432 -0.8853553 128 128 128
-0.00182612508106583 0.0487345812391917 -0.025672621007064 0.06940196 0.2815825 -0.9570239 72 72 72
-0.0555425412588662 -0.0499595862199689 0.0353518036919289 0.2765841 -0.605032 0.7466174 93 93 93
0.0112302653626486 0.0709056999764874 -0.00762896862455514 0.03380803 0.9871575 -0.1561318 57 57 57
-0.0161568802636776 -0.0311544603744802 -0.026789873969504 0.04398507 -0.1806723 -0.9825593 100 100 100
0.0164048233034411 0.0705298960870433 0.000167425572168145 0.2011914 0.9771109 -0.069111 97 97 97
0.0935573062522383 0.061303968041958 -0.0259669540345465 0.001013538 0.5768164 -0.8168732 71 71 71
0.114846026331152 -0.0128020059801188 -0.0434471144473533 0.1791517 0.1092849 -0.9777328 100 100 100
0.120154364367653 -0.017188694479201 0.0155717887800851 0.3083217 -0.5044007 0.8065467 95 95 95
-0.0951714472181524 -0.0184699097274272 0.0295334661195978 -0.9726355 0.1503706 0.1771125 54 54 54
0.0712023333292864 -0.0209690264434859 0.0367572243682977 0.2363878 -0.6614019 0.7118064 187 187 187
0.009130144441861 0.0733705572836985 0.00997465247592544 0.187894 0.8946602 -0.4053134 93 93 93
0.0382685506017584 0.0244722912687263 -0.0273742431456956 0.01179545 0.4100195 -0.9120005 53 53 53
-0.0486439987182359 0.0321568415141842 -0.0385235372100352 0.1986345 0.1762635 -0.9640931 54 54 54
-0.0676114457440948 -0.0310170702025412 -0.038471448758427 0.3193774 -0.2748911 -0.9068809 160 160 160
-0.0954048294997105 -0.0421312679963115 -0.0131474723987323 -0.8837919 -0.3195735 -0.3417379 66 66 66
-0.0997391800466065 0.0558785856383406 -0.00229760308607052 -0.9989859 0.006009295 -0.0446197 77 77 77
-0.0376576531751507 0.0786066019933302 -0.00477023472127514 0.1620606 0.9091538 -0.3836348 64 64 64
-0.0509656487433419 0.0866527402168047 0.00668095113786182 -0.1186955 0.7590448 -0.6401268 100 100 100
0.0307660755495376 0.068588397831876 0.00683081641140121 0.1259067 0.972078 -0.19802 50 50 50
-0.0843511914948283 0.0858753004596666 0.00295978225100657 0.2995717 0.8139821 -0.4976845 91 91 91
0.0869644770677551 0.0688550516420097 -0.0114846965321136 -0.08354211 0.9151592 -0.3943404 63 63 63
-0.0296189480698663 -0.0592579020475563 -0.0218639178941319 0.2578698 -0.2729848 -0.9268131 125 125 125
0.126293109634831 -0.0218922136241193 -0.0242690093137894 0.9778436 0.134706 -0.1602376 150 150 150
0.0731047706023298 -0.0635667226458758 -0.00356051981199168 0.3638465 -0.6102241 0.7037345 163 163 163
-0.0924575008027775 -0.00843443606138039 -0.0432185283597259 -0.7202187 -0.1070623 -0.6854361 159 159 159
-0.0989747781922952 -0.0297890191010055 -0.0151265229004497 -0.9223548 -0.2949996 -0.2494734 140 140 140
0.067051965553147 0.0683365978252062 0.00245063408890039 -0.3011715 0.9332355 -0.1958753 71 71 71
-0.0487201723768127 -0.0992060037288316 0.0012581501462417 0.1389582 -0.6677542 0.7312968 149 149 149
0.122268635310765 -0.0550890979500585 -0.0239263468152215 0.3580527 -0.823116 0.4407702 199 199 199
0.122823106050382 -0.0486436624936355 -0.0138115625920936 0.2667424 -0.7847116 0.5595321 158 158 158
-0.0768457393861506 -0.00193384825284104 -0.039607703852284 0.009954693 0.01148682 -0.9998845 114 114 114
-0.063380985675582 -0.027989451273807 -0.0372117969613197 0.4755304 -0.1194712 -0.8715489 182 182 182
0.064014102122306 -0.029027678412711 -0.0291157576214581 -0.1748497 0.009936135 -0.984545 106 106 106
-0.0834401142039778 0.0716010469262522 -0.0243449738939558 0.06045653 0.8823518 -0.4666909 47 47 47
0.123817232745339 -0.0266978600640053 -0.0346242537205984 0.9826106 -0.01768949 -0.1848335 219 219 219
0.0519451380817033 0.0692310202810338 0.0141565612689817 -0.001866827 0.9845189 -0.1752682 57 57 57
0.125354228222756 0.0296814525304752 -0.0259606890075207 0.8487886 -0.07434317 -0.5234798 155 155 155
0.0580254455938052 -0.026728428471875 0.0309305101714978 0.009640554 -0.7619342 0.6475827 124 124 124
0.0916477332600909 0.0705258573576233 -0.00970832341128536 -0.1747588 0.9183546 -0.3550834 56 56 56
-0.0119107153066507 0.0382622969205675 -0.0290404834978657 0.09861968 -0.08787223 -0.9912379 148 148 148
0.0683780007004962 0.0326468864270952 -0.0255236163222406 -0.2855739 0.4110307 -0.8657374 108 108 108
-0.0524784056368079 -0.0470753996250164 0.0361029020181355 0.1419857 -0.6345899 0.7596945 80 80 80
-0.0826573981240526 -0.0993861969196705 0.00801353190517962 -0.8171197 -0.5707501 0.08099188 15 15 15
-0.0126049833809518 -0.0360605415637312 -0.025304424571375 0.05591147 -0.2251035 -0.9727293 176 176 176
-0.091003389015309 -0.0284790838471667 -0.0388455327211588 -0.8920825 -0.08367511 -0.4440578 89 89 89
-0.102927970111599 0.0893065349055238 0.00750739213713286 -0.9197453 0.1772768 -0.350202 94 94 94
-0.083816510747813 -0.0648994349583425 -0.0362957574621247 -0.07965886 -0.3629288 -0.9284057 165 165 165
-0.0154871007046422 -0.0842428842098082 -0.0164034384846465 0.1446102 -0.3026632 -0.9420631 95 95 95
-0.101803493583204 0.0257989237612788 0.0080228498270345 -0.9925374 -0.06345371 0.1041303 98 98 98
-0.0209858169634947 -0.0328697492377341 -0.0267020850116639 0.0846165 -0.1533887 -0.9845364 88 88 88
-0.099489262553965 0.0383557213262637 -0.00168827449711306 -0.9967868 0.06069171 -0.05227417 87 87 87
0.130055383118127 -0.0268334561647225 -0.0158886328964661 0.9726281 0.2238877 -0.0622008 171 171 171
0.0826903697864854 -0.0363684940320788 0.0146183668076807 0.2524863 -0.6095461 0.7514681 165 165 165
0.0798770347625157 0.0633277837273869 -0.0245109835748364 0.005101192 0.7395089 -0.6731275 102 102 102
-0.0531123051730864 0.00189504773743887 -0.0377097463798906 0.08627403 -0.07337768 -0.9935656 177 177 177
0.0817974362806515 0.0746036228970763 0.00816233795685134 -0.2571194 0.8961019 -0.3617886 78 78 78
-0.0191280325916479 0.0162956706213535 -0.0300430072135727 0.1812621 -0.1930723 -0.9642962 181 181 181
-0.0334977075850134 -0.05904175641235 -0.0231639399904185 0.2364989 -0.2398444 -0.9415641 187 187 187
0.0175230290926054 -0.0386492083580166 0.0308840714342332 0.2199055 -0.40236 0.8886777 160 160 160
0.0608496310471192 -0.00669247237028903 -0.0292099541443644 -0.1754919 -0.2651174 -0.9481115 164 164 164
-0.0420341820414007 -0.0305761708417727 -0.0299449104084527 0.1765104 -0.216994 -0.9600821 85 85 85
0.0288349874284104 0.0678055028231854 -0.0110260331474905 0.2603197 0.9440873 -0.2023188 125 125 125
-0.0944713068840661 -0.00546282827954769 -0.0388295918452383 -0.9025117 -0.2651677 -0.3393504 145 145 145
0.122489600829112 -0.0151292404095504 0.0154601612849487 0.3818087 -0.4934989 0.7814608 158 158 158
-0.044628328878801 -0.05355134986416 -0.0267781811384504 0.1654407 -0.2709063 -0.9482822 168 168 168
0.0561131457635229 0.0529783736190093 -0.0238596452206997 -0.02308608 -0.1205205 -0.9924424 124 124 124
-0.0668118574379233 0.0751167585457606 -0.0168262099490561 0.2603478 0.6259896 -0.7350892 177 177 177
0.00420406369235415 0.0211284893754411 -0.0272664468177438 -0.0215741 0.08665869 -0.9960044 49 49 49
-0.00732531795033564 -0.0538917899613671 0.0244102773027203 0.1084822 -0.6491733 0.752865 166 166 166
-0.0811700308239942 0.0129140948475972 -0.0400519501713977 -0.01950219 -0.1515227 -0.9882614 123 123 123
-0.0781565602733774 0.0107902362170416 -0.040094468803294 -0.05875564 -0.09575163 -0.9936697 96 96 96
0.0166617188960894 -0.0281429068487342 -0.0244356306497273 0.03636828 0.0620807 -0.9974083 245 245 245
-0.039498902147614 -0.0752269470505353 -0.0200609600863031 0.1375492 -0.1075579 -0.9846377 96 96 96
-0.059009672568799 0.0192931726835517 -0.0397812364062601 0.2518941 -0.1447299 -0.9568713 131 131 131
0.121375217788997 0.00841923827512736 -0.0349773147164874 0.9945844 0.09733129 -0.03644884 157 157 157
0.103721344440988 -0.00425898022021198 0.0310496986825839 0.4273088 -0.6138085 0.663812 141 141 141
0.0265843551320213 -0.0212496631347237 -0.0246539206993771 -0.03428021 0.07367047 -0.9966933 157 157 157
0.0107337779435466 -0.0568101804092229 0.0190486166190817 0.09176791 -0.7364228 0.6702687 135 135 135
0.023219664011445 -0.052102360383296 0.0204205000724917 0.2171762 -0.5863203 0.7804249 146 146 146
0.133339988503478 0.0184333239396217 0.00192838741507007 0.9798629 -0.0448902 -0.1945598 170 170 170
-0.0938216663085134 -0.0351023899021852 -0.0260975521991973 -0.9167889 -0.2482367 -0.3128526 61 61 61
-0.0210839313212468 0.00788246004225068 -0.0294486908127051 0.1646021 -0.08863384 -0.9823697 149 149 149
-0.078502151259201 0.0600779990634261 -0.0398786625954833 0.2820513 0.6167264 -0.734912 134 134 134
-0.0790249511301502 0.00526972791403812 -0.0397146071180895 -0.09149829 -0.00726977 -0.9957787 78 78 78
-0.0693596213498386 0.0717871228555294 -0.0186297243020175 0.261924 0.7083189 -0.6554999 22 22 22
0.0863415880093248 -0.0546047666271103 -0.0290589270657577 -0.2130032 -0.4597741 -0.8621122 118 118 118
-0.00935798070181315 0.0650561497691851 -0.0241402174740512 0.1033431 0.3688974 -0.9237072 32 32 32
0.0109962180726484 0.0455498220228927 -0.0262764138939818 0.1554712 0.05349367 -0.9863909 138 138 138
0.0533157729724185 -0.0614287862002381 0.00427055618947736 0.2344281 -0.629604 0.7407039 215 215 215
0.0242306672472465 -0.0471382245825194 0.0236345731950973 0.1916649 -0.5637534 0.8033969 159 159 159
-0.0239467608379589 -0.0533893739651865 0.0283988168742202 0.1211024 -0.6286588 0.7681942 147 147 147
0.0874511907195519 0.0758608530873592 0.00905185197904751 -0.2090854 0.9048817 -0.3707729 52 52 52
-0.0741233085069233 -0.00146160481629942 -0.039948734342456 -0.1295317 -0.0006457908 -0.9915751 87 87 87
0.0320135154140844 -0.0543108627151836 0.0161655791466402 0.2795312 -0.6065404 0.7442923 186 186 186
0.0853953016232141 0.00704825332059067 -0.0368941715208438 -0.3647084 -0.2756091 -0.8893972 136 136 136
-0.0153037373590235 -0.0756863645724732 -0.0182294466848997 0.1888577 -0.06585804 -0.9797936 52 52 52
0.0610234673238428 -0.0627279710583912 -0.0215116993018585 -0.0437843 -0.3937757 -0.9181632 159 159 159
-0.0989045061006211 0.0957358636218211 0.00816341234380963 0.02263055 0.986495 -0.1622209 118 118 118
0.0471796750755087 -0.0144526949987367 0.0433354024508799 0.08339469 -0.8527313 0.5156497 123 123 123
-0.0934791928520604 0.0723608651161614 -0.0293742671537131 -0.214835 0.8031024 -0.5557629 106 106 106
0.0629876534096327 -0.0528175071621213 -0.0259002083554802 -0.1602979 -0.3045811 -0.9389009 69 69 69
0.129236039069096 -0.0102977956408801 -0.0197399893604999 0.9592615 0.03770841 -0.279992 179 179 179
0.00535185306139274 0.0668561103097582 -0.0163720510611426 -0.1640187 0.9427291 -0.2904475 67 67 67
-0.0614177614883187 0.0440265771507249 -0.0422647656347835 0.4258715 0.2887217 -0.8574808 94 94 94
0.128519792381709 -0.0431503425109947 -0.00995919602259632 0.7097228 -0.4975874 0.4986987 211 211 211
0.000227275777183955 -0.0198750452309613 0.0435953836523366 0.1128008 -0.4626611 0.8793297 81 81 81
-0.0716571498422445 0.0359869035678992 -0.044900801667289 0.2447552 -0.06781631 -0.9672104 142 142 142
-0.0917745403420764 0.0198749490342558 -0.0433747431149053 0.04941465 -0.1623053 -0.9855025 114 114 114
0.117675541878071 -0.00302372578411592 0.0256378681697775 0.3543454 -0.5055442 0.7866793 81 81 81
-0.0979304518171218 0.0400039344933132 -0.0387184101809937 -0.9303668 0.09900135 -0.3530104 59 59 59
-0.0424919695132493 0.025371855010107 -0.0371173652594061 0.2066494 -0.3145826 -0.9264631 117 117 117
-0.0963127233551928 -0.0211072822867566 -0.0297692276253265 -0.8646091 -0.2061195 -0.4582204 70 70 70
-0.0371668597458426 -0.0309567221451206 0.0420835257335421 0.3387772 -0.3566191 0.8706623 87 87 87
-0.062176717937882 -0.0800975286651686 0.0202048537797906 0.3294626 -0.620061 0.7120244 171 171 171
0.115894034329784 0.00143620077476991 0.0290532987385546 0.3477903 -0.5340947 0.7705743 113 113 113
0.0437962925650801 -0.0643251224358952 -0.0208752853065218 0.02338644 -0.2353364 -0.9716326 99 99 99
0.063880840036787 -0.0289503841214076 0.0266844108951004 0.08082714 -0.7538465 0.6520602 74 74 74
0.0132576939927658 0.0676097033305034 -0.0180928461132143 -0.03877327 0.9435454 -0.3289662 101 101 101
0.129521136366067 -0.0376882258344877 -0.0216208216837733 0.9817305 0.06201349 -0.1798877 199 199 199
-0.00893125400789296 0.0608060181615842 -0.0242238855952194 0.02395836 0.06541073 -0.9975708 174 174 174
0.0444594737481272 -0.0197278233384344 0.0374543353647507 0.2700267 -0.5104983 0.8163804 152 152 152
0.0902237024012629 0.00292290883593194 -0.0370728500367977 -0.4544452 -0.2270322 -0.861357 138 138 138
-0.0836456404323846 -0.0400339879043732 -0.043530507078547 -0.1736898 -0.1854527 -0.967181 185 185 185
0.0173805886048846 -0.0195075676773058 0.0458051335705682 0.004442152 -0.771675 0.6360016 140 140 140
0.121204128832924 0.0152095667280636 -0.033486826851012 0.9938993 0.0959173 0.05444231 169 169 169
0.0206159446184082 0.0702340672629123 0.00495253183755601 0.1475347 0.9744977 -0.1690787 98 98 98
-0.0230863410718105 0.0766340491927562 0.00600115700464543 0.4087672 0.8961881 -0.1724999 31 31 31
-0.0244303452375187 -0.0301978111384826 -0.0277994058755221 0.1062787 -0.1234089 -0.9866484 87 87 87
0.0754395179056724 0.0698484988910317 -0.00176474530177212 -0.2304244 0.9622298 -0.144977 52 52 52
0.0523292518860261 0.00572234999816446 -0.0311697727647408 -0.1424066 -0.1683619 -0.9753844 206 206 206
0.046097678739383 -0.0146913183169077 0.0438950823553833 0.08655708 -0.866486 0.49164 136 136 136
-0.00129392652979066 -0.061441483018408 0.0167999171872163 0.230874 -0.5179501 0.8236655 119 119 119
-0.0567766388788979 0.0665446228772233 -0.0328661564986159 0.02650649 0.1763511 -0.9839703 179 179 179
0.0246796521207022 0.0363443999650619 -0.0249957789312643 0.1431804 0.1990201 -0.9694794 106 106 106
0.0482369830928828 -0.0383955575500627 0.0233730993935371 0.1923426 -0.6530607 0.7324725 148 148 148
0.110297237087551 0.0701692684969071 -0.00862190154919668 0.1156672 0.9316885 -0.3443511 51 51 51
-0.0763882076317914 -0.0433771768477969 -0.0404291163611509 0.4756246 -0.1217723 -0.871179 90 90 90
-0.0301626433826931 -0.0993406558469998 -0.00351769827655224 0.2330988 -0.6455242 0.7272987 185 185 185
0.0572736752851757 0.0191203807744924 -0.0330621922496905 -0.1566639 0.221776 -0.9624302 46 46 46
