ply
format ascii 1.0
comment File exported by Rhinoceros Version 7.0
element vertex 474
property float x
property float y
property float z
property float nx
property float ny
property float nz
property uchar red
property uchar green
property uchar blue
end_header
0.0799762396431043 -0.0497308119326197 0.00318604427103938 0.2341675 -0.8921527 0.3863018 130 130 130
-0.1084090085411 -0.063221369603213 -0.00965561253304539 -0.9933477 -0.07582564 -0.08666497 64 64 64
-0.0108583779716418 0.00856759705251819 0.0457178475213522 0.08814047 -0.04685767 0.9950053 93 93 93
-0.0728457780265734 0.049789990565244 0.0209750356030935 -0.06140946 0.9963562 0.05918842 166 166 166
0.0894161848640516 0.0232967988461888 0.0383206875873083 0.2005908 -0.1195766 0.9723501 86 86 86
0.0263239531135633 -0.0533233030825221 0.0219428660226339 0.08850609 -0.9881715 0.1252348 88 88 88
0.0826625017738416 -0.0543507679491603 -0.00955796522374211 0.1929337 -0.9410871 0.2777257 114 114 114
-0.0225327821159289 0.0520717755765355 0.0331576885533804 -0.2046057 0.9759806 -0.07482278 129 129 129
0.0106157450294568 -0.0369094952135646 0.0387358339381689 -0.0325885 -0.1381671 0.9898726 98 98 98
-0.0648454041862414 -0.0767097219019496 0.0028256000829214 0.2376525 -0.8924568 0.3834608 151 151 151
0.0726451067543104 -0.0533831461458766 -0.00214088243718205 0.2174761 -0.9302437 0.2955516 126 126 126
0.00932709260941289 0.0570318953008092 -0.0350539116310602 0.09879294 0.9949568 -0.01734713 54 54 54
0.0834910063362195 -0.0509794100313746 -0.00195037109131871 0.1905924 -0.9063399 0.3771239 146 146 146
-0.0955587239646838 0.050929750582639 0.00971534567599239 -0.1451664 0.8853931 0.4415947 108 108 108
0.128230491123207 0.0432935015172399 -0.00142728072876988 0.9593202 0.1312059 0.2499793 25 25 25
-0.00879963354109981 0.0523727790326513 0.00937904136900844 -0.1005373 0.9891098 0.10749 151 151 151
0.0036529688453748 -0.0483987077265345 0.0373464496684545 -0.01507336 -0.07704714 0.9969135 75 75 75
-0.0349479527854846 0.0594708577603734 -0.0287049887823587 -0.09130853 0.9888774 0.1174064 35 35 35
0.00643984361649297 -0.0168080075769984 0.0410007359338278 -0.0297402 0.01814501 0.9993929 83 83 83
-0.0450280518913195 0.0580820695371068 -0.0291418014215952 -0.02190911 0.9985042 0.05009441 50 50 50
0.127502360782631 0.0401956693143285 0.0151377292228216 0.9898033 0.03986859 0.1367476 51 51 51
-0.102396091976158 -0.072195385315951 0.0328996004415029 -0.9661777 -0.225002 0.1259948 89 89 89
-0.0088749738120959 -0.0163644894152247 0.0398196251941198 -0.004335771 -0.1241177 0.992258 96 96 96
0.0244285254097059 0.0557763830632604 -0.0276373950886255 0.06135723 0.9975226 0.0344082 141 141 141
-0.115903219737999 0.0220064178914464 0.00349199491267146 -0.9967734 -0.02367362 0.07669612 48 48 48
0.00199595972061894 -0.0720204456835353 -0.0182307688641077 0.2212753 -0.9129712 0.3428131 97 97 97
-0.0784948678398059 0.0484748736829198 0.0486808689189428 -0.05811142 0.9977839 0.03240885 93 93 93
-0.0513799996757434 0.00912960924810535 0.0464253248525137 -0.005800874 -0.264867 0.9642675 196 196 196
-0.0473881574058459 0.0582435385198034 -0.0235959319519526 -0.05840762 0.9938954 0.09359823 65 65 65
-0.111798367061608 0.0293226496190465 0.0410818727565283 -0.9923537 -0.009709163 0.1230445 65 65 65
0.0136202959632947 -0.0732329233675563 -0.0275217173742777 0.1715167 -0.9560041 0.2379877 130 130 130
-0.0622509332084582 -0.0732394202738368 0.0154478968930715 0.2190777 -0.9659024 0.1379766 106 106 106
-0.0366676659965441 -0.0691758736162745 0.012913283879804 0.1893891 -0.9703653 0.1500767 65 65 65
-0.10211976484298 -0.0882065638094508 -0.0242496607946878 -0.9462414 -0.2590963 -0.1936399 44 44 44
0.0927049307441785 -0.0202826603441798 0.0340785207105154 0.1497832 -0.2602414 0.953855 103 103 103
0.00114242120743535 -0.0219908102541529 0.0395996840548986 -0.06168685 -0.1940024 0.9790596 97 97 97
0.00380364938736699 -0.0270103558092677 0.0394666762900824 -0.0602661 -0.05276781 0.9967866 118 118 118
-0.0703602643394396 0.0481929437131322 0.0554077895236486 -0.03462771 0.9418144 0.3343451 157 157 157
-0.0344332070732043 0.0516974584073461 -0.0166255561756617 0.3120448 0.8670664 0.3883605 155 155 155
-0.115564188518517 0.0153945938558019 -0.00437510294194279 -0.9991967 -0.02916899 -0.02748026 43 43 43
-0.111551365413658 -0.042724703171786 -0.0131806759285456 -0.9660318 -0.2155077 -0.142615 55 55 55
-0.0786832185172961 0.0557164803952611 -0.0272553293156153 0.004952379 0.9975379 0.06995386 90 90 90
-0.0584097714805529 0.0486821786374486 0.0450869025540823 -0.04231331 0.996644 0.07007448 119 119 119
-0.0174613805198596 0.0513128892392553 0.0504524679732794 0.1840096 0.7362054 0.6512619 126 126 126
0.085022607288368 -0.0484606965571009 0.00347186344389858 0.2398128 -0.871631 0.4274917 107 107 107
-0.113091311016075 0.0209660784215367 0.0276260049891943 -0.9786795 -0.1105969 0.1730746 71 71 71
0.102797904453285 0.0543465868443883 -0.00744256657834111 0.02015171 0.9997908 0.003480514 104 104 104
0.0908722071266248 -0.0369453772097194 0.0281742038083548 0.2666507 -0.8400393 0.4724738 161 161 161
-0.104178509273522 0.0489192859143651 0.0150283845019812 -0.1201094 0.9828928 0.1396261 127 127 127
-0.0251689763450549 0.0395496741742528 0.0547308148694509 0.1953877 -0.1478505 0.9695174 74 74 74
0.052472272357948 0.0540459410161412 0.00708795803313197 0.02287539 0.9972656 -0.07027147 133 133 133
0.0849534659004285 -0.0149140699892604 0.0373340668035025 0.1223435 -0.2099992 0.9700167 215 215 215
0.00489989801407598 0.0134336606473363 0.0450656833005423 -0.01913856 -0.05793089 0.9981371 112 112 112
0.127586045703895 -0.0183487280397975 -0.0170743642496592 0.8975089 -0.2175122 0.3836224 150 150 150
0.0210265307045057 0.054390992304746 0.0251184971881384 -0.07682541 0.9970423 0.002134567 135 135 135
-0.0746534676933215 0.0392564193219579 0.0585300894332403 -0.001828084 -0.2573275 0.9663225 125 125 125
-0.065640291728966 0.0483867780179418 0.0560131342959875 0.08772448 0.9370334 0.3380428 126 126 126
-0.0392535539054797 -0.0813675864725673 -0.0216889111446863 0.2252674 -0.9182011 0.3258242 149 149 149
-0.00474508718489863 -0.0564994557886683 0.0327370734763616 0.08723705 -0.9410474 0.3268326 33 33 33
-0.0868676515006945 -0.0150378092318141 0.043692526395368 0.1724666 -0.1860478 0.9672856 144 144 144
0.0237630991554334 0.0504203692883886 0.0469648362946981 -0.04865802 0.3365518 0.940407 173 173 173
0.00910107179642461 0.0367303148717321 0.0486587853980535 0.0230632 0.03049314 0.9992689 173 173 173
-0.00721796468734004 -0.0767096622973048 -0.0290404288219935 0.2281683 -0.9353063 0.2704465 107 107 107
0.0724190859413221 0.00566586413091785 0.0423746378970617 0.2010109 -0.03055321 0.9791124 106 106 106
0.0576063780403211 0.0190855518788732 0.0428152950358862 -0.002257066 -0.1410663 0.9899976 40 40 40
-0.0748544545555041 0.0496062294454015 0.0166082205129141 -0.07049283 0.9914721 0.1096076 154 154 154
-0.089052042522423 -0.0771543129473292 0.0395451905084127 0.2055971 -0.8612419 0.4647496 99 99 99
0.022733846149452 0.0543924824208654 0.00443647521262111 0.03626925 0.9972625 0.06443667 171 171 171
-0.0241397233390734 0.0522529140920079 -0.0131924031424051 -0.1544634 0.9876081 0.02777106 111 111 111
-0.00218423322676875 0.0331511155576146 0.050343361671018 0.2113829 -0.04488562 0.9763721 130 130 130
0.0527207045173719 -0.0246851190119349 0.0410812916112417 0.1061754 0.01014606 0.9942957 114 114 114
0.12941042467118 0.0115577832669652 -0.00253205281968175 0.8620932 -0.2574 0.4365096 74 74 74
-0.115652164974205 0.0107689157933629 0.00152505653624477 -0.9791597 -0.1759837 0.1013714 34 34 34
-0.0781432004356311 0.0540864125699437 -0.000839206402254683 -0.008014667 0.9757152 0.2188963 148 148 148
-0.106387934246056 -0.0857106789141261 -0.011922108952952 -0.9869162 -0.1560115 0.04070485 118 118 118
-0.0992241711997912 0.028889979502622 0.0565374167514318 0.1809117 -0.2731211 0.9448152 144 144 144
-0.100764116802208 -0.0930493219881617 -0.0273140696930414 -0.8793671 -0.4589202 -0.1269084 41 41 41
0.128732600650795 -0.0336883410006129 -0.0369527069973475 0.9267662 -0.2126588 0.309646 77 77 77
0.126686492404945 0.0432334200353063 0.0245883138728613 0.9983207 -0.02483073 0.05233768 103 103 103
-0.112683376827233 -0.00325695119195812 0.0290927560878271 -0.9757216 -0.09455038 0.1975541 71 71 71
-0.111685356655113 -0.00861701808267468 0.00953410285239162 -0.9646975 -0.1973013 -0.1744448 27 27 27
-0.0632427544975207 -0.0670022114306056 0.0411187680316442 0.1586152 -0.4391426 0.8843048 96 96 96
-0.112626871623986 -0.00291303239160412 0.00723860877280177 -0.9779518 -0.1669488 -0.1254524 34 34 34
-0.0774906487846301 -0.0547691925554835 0.0423005940270895 0.2033193 -0.01024681 0.9790589 93 93 93
0.0392538694953992 0.0544911877126134 -0.0100481091188913 0.02061924 0.9994203 0.02709171 175 175 175
0.096755423984535 0.0511634603948034 0.0388321699452871 0.1846044 0.01770418 0.9826534 127 127 127
0.0943245081520154 0.0538264171094335 -0.0169501481699472 -0.005591523 0.9999732 0.004724967 120 120 120
-0.018415531673424 0.0542506233662999 -0.0273717818903452 -0.1138584 0.9473462 0.2992849 57 57 57
-0.0704732747459338 0.00191810288137562 0.0451996745419973 0.1379214 -0.1921674 0.971622 71 71 71
-0.0329519124412463 0.0507446185559667 0.0163557203364843 -0.01393423 0.9988585 0.04569041 171 171 171
0.13308850809098 0.0421748415440953 -0.0378904519724375 0.9949676 0.02131327 0.09790376 54 54 54
0.026097932300575 -0.0395395501642787 0.0397290559363836 0.001552527 -0.1567508 0.987637 80 80 80
0.0817085890388562 -0.0531612380533778 -0.00503883046383916 0.1340831 -0.9390398 0.3165849 128 128 128
-0.0211771340751574 -0.0326067551165187 0.0392503412318701 0.0385014 -0.1316154 0.9905529 95 95 95
0.0652805952644422 0.0552112714261449 0.019028943951177 -0.02734374 0.9995386 -0.01322514 109 109 109
-0.0293868394279406 -0.0637937530069911 0.0230486811948294 0.2129316 -0.9507436 0.2252702 158 158 158
-0.0894661755943225 -0.038094256737765 0.0437529953074926 0.110915 -0.004617874 0.9938192 48 48 48
-0.0762351365470813 -0.0431343062906825 0.0416887970519537 0.1097522 0.03387237 0.9933817 101 101 101
0.0882989554023816 0.0543443814725316 -0.0312318829941279 -0.04759388 0.9988571 -0.004389921 71 71 71
0.125493922672279 -0.0257624133616053 -0.0161741105961329 0.9177416 -0.1817714 0.3531424 120 120 120
-0.103199324169152 -0.0839807137041652 -0.0257408945011622 -0.9346625 -0.2785574 -0.220934 52 52 52
0.126983561954506 0.0490651980847753 0.00256457644228877 0.9985692 0.03996765 0.03552625 34 34 34
0.10473100229264 0.0237645760983861 0.0352138997865194 0.02820466 -0.02992638 0.9991541 174 174 174
0.0831898836708143 -0.0546691163569056 -0.0138848153995997 0.2107757 -0.9277765 0.3079032 149 149 149
-0.0514803738975451 -0.0727131112604701 0.0128180058551306 0.2431535 -0.954299 0.1737518 132 132 132
-0.11306627706527 0.00139459528631336 0.00407400446658077 -0.9826412 -0.1782128 -0.05154167 37 37 37
-0.0172856660270617 0.0537496463269628 -0.0171574978279596 -0.173759 0.983434 0.05162836 66 66 66
0.0879599241828992 -0.0365046604662501 0.0311025949073309 0.1629294 -0.6750205 0.7195841 131 131 131
-0.102546534099571 -0.0905410989313685 -0.00539782923932133 -0.3579899 -0.844236 0.3988846 113 113 113
0.0125657705879285 0.0550933138341344 -0.00858015102620183 0.0478892 0.9949684 0.0880025 62 62 62
0.00546065851212285 -0.0624885304956996 0.00961370485548915 0.1258615 -0.9209389 0.368823 85 85 85
0.00548569246292852 0.0535148636311925 0.0437106611085409 -0.03232502 0.9403164 0.3387627 108 108 108
-0.0540662618064807 -0.0685001357584559 0.0366572411609167 0.3258616 -0.7517662 0.5732903 210 210 210
-0.0077453465843127 0.0140929476231969 0.0459607066464895 0.006118989 -0.03443657 0.9993882 99 99 99
-0.112137159862511 -0.0120900019198024 0.025135305697965 -0.9754981 -0.1531882 0.1579143 59 59 59
-0.0671468587303088 0.0498501912564672 0.019481402809667 -0.03549888 0.9959388 0.08273908 143 143 143
0.116154351673134 0.0560896650761998 0.00478760617499294 -0.10993 0.9761946 -0.1869745 86 86 86
0.0699085383033826 -0.0293985351114833 0.0355259152007574 0.2828011 -0.3302499 0.9005324 122 122 122
-0.0331528993034289 -0.0537729009180629 0.0381807209802145 -0.01357051 -0.05118905 0.9985968 51 51 51
-0.113894781627648 0.042983259341184 -0.0262284455942637 -0.9694282 -0.06115776 -0.2376313 28 28 28
-0.0150261731529162 -0.0263728841333949 0.0389471026015753 0.09745508 -0.08287737 0.9917831 64 64 64
0.034081855258949 -0.0525357469111049 0.0269467802596563 0.07178213 -0.9721687 0.2230141 196 196 196
-0.0668454976463244 -0.0609340413599574 0.0409885169816488 0.1412184 0.1193108 0.9827626 105 105 105
-0.105835518398278 -0.0689674957781398 0.00720844882254543 -0.9332949 -0.3431608 0.1058362 63 63 63
0.0203990130043104 0.0387281433553136 0.0461565377068991 0.2290157 -0.01778551 0.9732602 121 121 121
-0.109551271953575 0.00451442160314686 0.0492460848641867 -0.7330969 -0.2875813 0.6163327 104 104 104
0.101056971988685 -0.0524472936182582 -0.0129879294085032 0.1326186 -0.9126301 0.3866762 150 150 150
0.087231793842323 0.0538887039632238 -0.0302556632208353 -0.03865542 0.9989409 0.02495693 67 67 67
0.0910731939888074 0.0338496223897374 0.0380172999454016 0.2712145 -0.05723199 0.9608159 121 121 121
0.0215539126014783 -0.0384157045870387 0.0399482073140615 -0.09889343 -0.2313978 0.9678198 44 44 44
-0.106400570430748 -0.083475743153628 -0.0152900247025019 -0.9857532 -0.1400402 -0.09316257 56 56 56
0.118388810596473 -0.00297031245523327 0.00932165699725093 0.8806812 -0.3450887 0.3245218 81 81 81
0.0311066298103406 0.00366141953176624 0.0434734048200125 0.133452 -0.1557524 0.9787399 58 58 58
0.0403834967231824 -0.0315795286684596 0.0419476004195684 -0.04457061 -0.07127486 0.9964604 106 106 106
0.106446423969276 0.043445791384641 0.0372225465131277 -0.1292156 -0.01319846 0.9915287 171 171 171
-0.110053381481163 -0.0347041829615199 0.0225943298888678 -0.9964821 -0.03791176 0.07473952 89 89 89
0.0875581888771131 0.0542733327359594 -0.0249915598082071 0.03220623 0.9993228 -0.01779859 78 78 78
-0.00538524106978633 0.0131013051480687 0.0452244849753851 0.02053738 -0.0154822 0.9996692 220 220 220
-0.0514303059959338 -0.000567828038271601 0.0442628981423849 -0.02384623 -0.1721523 0.9847817 100 100 100
0.0812753824806287 -0.00476769051843517 0.0394662888598913 0.1214355 -0.1098654 0.9865004 79 79 79
0.0888888029670789 0.0562506572217382 0.0382462860894674 0.003969852 0.9655154 0.2603156 131 131 131
0.0425552515602186 -0.0605545981913173 -0.00496954006428776 0.1703407 -0.9401059 0.2952709 130 130 130
-0.043057283916466 0.00251474537557728 0.0443491013598913 0.05651628 -0.2817073 0.9578345 59 59 59
-0.00747736410140254 0.00674208559698231 0.0451315464330191 0.071623 -0.102841 0.9921159 120 120 120
-1.24783897326175E-05 0.0528246418446935 0.0122924418998236 -0.09959108 0.9950081 -0.006361291 177 177 177
0.0211145071601941 -0.0445185645609462 0.0375355156016821 -0.142087 -0.1746779 0.9743197 63 63 63
-0.0557359071159289 0.00113567270940906 0.044765559012937 -0.05536009 -0.1902738 0.9801689 128 128 128
0.0802523283577039 0.036808873793546 0.0416408749175543 0.2132924 -0.1120776 0.9705385 178 178 178
-0.0571041913413928 -0.0692361935167872 0.0353695573163504 0.2984513 -0.8996657 0.3186355 173 173 173
-0.0903449864768908 -0.0603410943537318 0.0440509142232412 0.07358339 -0.1277334 0.9890751 139 139 139
-0.0127163739585803 -0.0746211751490199 -0.0197003511833674 0.1163757 -0.9185976 0.3776706 106 106 106
-0.0343077989005969 0.0172013298482335 0.0479331286502356 0.06272473 -0.2619925 0.9630293 64 64 64
0.115150132617958 0.0561244145841039 0.00502320843462886 -0.115295 0.977654 -0.1757828 71 71 71
0.123259463748939 0.0531198040456212 0.0362852187705511 0.6091852 0.5446738 0.5763887 118 118 118
-0.0709546418571398 -0.0744467719584071 0.0243125976872915 0.1651303 -0.984347 0.06158612 140 140 140
0.0599664835548475 0.0547097579450048 0.0353681268048757 -0.05304418 0.9977608 0.04073865 180 180 180
-0.0892780633354113 0.0488109842748082 0.0170106412721151 -0.02069775 0.9843854 0.1748059 130 130 130
-0.0774780125999377 -0.0659949525385463 0.0427756728482717 0.01330642 -0.04100654 0.9990703 92 92 92
-0.0221310468101428 0.0205227390736974 0.0474904598546499 0.08555983 -0.2408378 0.9667867 101 101 101
0.0763608603096082 0.0527904883832372 0.0436692209792608 0.1968244 0.5436891 0.8158814 103 103 103
-0.0650881142997668 -0.00474569640451306 0.0440415860963339 0.104004 0.01819277 0.9944105 99 99 99
0.0582341341590955 0.0448674813718236 0.0480020763230795 0.126444 -0.1312526 0.9832521 105 105 105
-0.0528648705863879 0.0212161795110143 0.0516013922048086 0.1004635 -0.3948281 0.9132458 236 236 236
-0.110973915615074 0.053863968035642 -0.0151800690340525 -0.2952524 0.9521781 -0.07863142 133 133 133
0.118539491138466 0.0541275993794835 0.0380544187379354 0.08350261 0.4176474 0.9047641 151 151 151
0.132942119083412 0.00475206532186634 -0.0191878853487497 0.9885744 -0.02424554 0.148771 85 85 85
-0.028822025814049 0.0506131307095922 0.00653186159853877 -0.06705639 0.9977017 0.009735384 92 92 92
-0.112438520946495 0.0022325173825658 -0.0177909908937937 -0.9813519 -0.06419903 -0.1811821 34 34 34
-0.0368183465385363 0.0501399294347203 0.0446868957829946 -0.07620474 0.9969901 -0.01426538 186 186 186
0.122204938373573 0.00824936785406238 0.0122543098283285 0.8753369 -0.3157603 0.3661703 211 211 211
0.0394295839881971 0.0542680279225743 0.0438922764611715 -0.05540328 0.9866037 0.1534393 156 156 156
-0.108044943370812 -0.0432402237444484 0.0266887368512625 -0.9642481 -0.1781094 0.196221 68 68 68
-0.105559429683678 -0.0543462379961573 -0.0226161657022959 -0.97521 -0.1220763 -0.1845614 50 50 50
-0.112563929119103 0.00702991642660267 -0.0171515820669657 -0.9784578 0.01838331 -0.2056269 32 32 32
0.134406724414833 0.0369563356847203 -0.0420309184240824 0.9909322 0.1031525 0.08609822 32 32 32
0.034370580158241 0.0542104498357213 0.029599321062612 0.01235833 0.9999015 -0.006659114 180 180 180
-0.0389524312400744 0.0558048144788182 -0.0147365359711176 0.4474611 0.7598938 0.4715295 65 65 65
0.0395800261116102 -0.0521657212763392 0.0210053743672842 0.09795935 -0.977166 0.1885485 100 100 100
0.080942788562782 -0.0390386923342311 0.0271512837958807 0.2281793 -0.8786587 0.4193962 156 156 156
-0.0113857598686145 0.0292925492734349 0.0499745430303091 0.07686842 -0.281206 0.9565639 141 141 141
0.106852450809486 0.0545432821721471 -0.0365520892786509 -0.0197869 0.9974657 -0.06834261 120 120 120
-0.103852114238732 0.0399740592450536 0.0600732834887976 -0.01793387 0.03018765 0.9993833 148 148 148
0.0680255083656385 -0.0116253837137782 0.0400101514411444 0.2544149 -0.1588304 0.9539633 121 121 121
0.0824114470100477 -0.00433585486703747 0.0393743784976477 0.114469 -0.09798586 0.9885826 85 85 85
0.0942615656471326 -0.0349794968157374 0.0307247312617773 0.1830102 -0.6590426 0.7294999 109 109 109
-0.10650094465255 -0.0546318038492762 0.0230270745110983 -0.9711744 -0.1684147 0.1686912 117 117 117
-0.066795191326134 -0.0707160576372706 0.0381724955392355 0.2391557 -0.8383693 0.4898382 87 87 87
-0.105668148555748 -0.0707502110987269 0.00307388323073329 -0.9327773 -0.3013088 0.1978372 57 57 57
-0.0926547856712268 0.042294885298673 0.0593771906447882 0.1014114 0.08673596 0.9910563 143 143 143
0.136139073810585 -0.0107424005060756 -0.0401508389162546 0.9133344 -0.2950927 0.2806074 40 40 40
-0.101818642177574 -0.0816397412806117 0.0251855673146719 -0.6728411 -0.7177315 0.1792942 131 131 131
-0.0987180085563586 0.0482713834256566 0.0297064902139181 -0.04146754 0.9987397 0.02827415 149 149 149
-0.0730467648887561 0.0557737604588903 -0.0134077398228174 -0.08982321 0.9940707 0.06128008 58 58 58
0.112112203083046 -0.0373227938204371 0.0127487303567404 0.826303 -0.3852686 0.4108424 152 152 152
0.11268965288163 -0.000961159089144403 0.0348669560504431 0.7996618 -0.2639547 0.5393226 96 96 96
-0.00465711072921016 0.0421849743337072 0.0482058795047277 0.24234 0.2706909 0.931664 141 141 141
0.0587696222877576 0.0548457161397374 0.0309473397088522 -0.03310962 0.9983149 0.04765551 189 189 189
0.0610963492012098 -0.0597903474360072 -0.0176383881020075 0.168846 -0.9486598 0.2674614 134 134 134
-0.0955293984794543 -0.0884404524355494 -0.0016914783167368 0.2182664 -0.9141631 0.3415636 134 134 134
0.00605479761124394 -0.0585825189142787 0.0163504602265829 0.2127257 -0.8945661 0.393064 140 140 140
0.0635315565681531 -0.0511973842173182 0.0087397219491476 0.2583072 -0.9066448 0.3335757 98 98 98
0.0166579870796277 -0.0536792620211207 0.0343066276860708 0.07889159 -0.8134857 0.5762092 58 58 58
0.00749436899185918 0.0576672808141149 -0.0266808448481089 0.1106671 0.9937384 0.01539198 68 68 68
0.0997096685981824 0.0245875970334447 0.0358948232484335 0.1503385 -0.0498995 0.9873745 153 153 153
-0.0673852773094104 0.0566694394559301 -0.0345468847202784 -0.09607767 0.9953606 0.005130238 67 67 67
0.120372214756019 -0.0144036754160487 -0.000678005640459639 0.8242966 -0.234024 0.5155268 128 128 128
0.0428189425087049 0.0549062744588292 -0.00778202993149815 0.005533436 0.9987743 0.04918697 175 175 175
0.132460751972206 0.00918718733495838 -0.0191717920946604 0.9987681 -0.03467272 0.03549783 69 69 69
0.0949646620369031 0.0546498552770055 -0.030753376905871 -0.02091172 0.9997772 -0.002870236 78 78 78
-0.0392788262748645 -0.00450513205819958 0.0427005560946936 0.007497036 -0.06062665 0.9981323 227 227 227
-0.0621505589866564 0.0575838939160741 -0.0253443447994715 -0.08877102 0.9946876 0.05211789 54 54 54
-0.0707119317436145 -0.0813073261766993 -0.00216371101613103 0.2880538 -0.8554089 0.4304656 121 121 121
0.0889474539375379 0.0253250256986058 0.0382604123902792 0.2009035 -0.07222996 0.9769445 138 138 138
0.0285333780860975 -0.020964597085055 0.0416831495118612 -0.1665955 -0.003425428 0.9860194 127 127 127
0.115099826297767 0.05408873715109 -0.00967565459485112 -0.04164045 0.9991166 0.005665591 131 131 131
-0.0551584573173449 -0.0789773210077845 -0.00271666330571232 0.2098709 -0.8875282 0.4101803 147 147 147
-0.027232727565758 0.0412606851071752 0.0549201639247412 0.1796033 -0.1497137 0.97228 105 105 105
-0.0601170869254992 0.0322162763089574 0.055585768992948 0.06042345 -0.2754131 0.9594252 108 108 108
-0.0168212266349719 -0.0771499022036158 -0.0248642740892893 0.2294929 -0.9150885 0.3315812 87 87 87
-0.0045567365074084 -0.0574171288996302 0.0286994101357931 0.1284288 -0.9716106 0.1986929 61 61 61
-0.00907596067427852 -0.0638435228853785 0.0127192111564154 0.1000138 -0.9617637 0.2549664 143 143 143
-0.0976007790946887 -0.0837961777239405 0.0102664353204245 -0.1870805 -0.9372474 0.2942248 140 140 140
-0.0932322354698107 -0.0803616984873378 0.023225766594457 0.2227899 -0.9729167 0.06162589 159 159 159
-0.0276544900321887 -0.0750688656359279 -0.0124112246679789 0.174905 -0.8759934 0.4494927 131 131 131
0.0155030874824598 0.0536613718480504 0.0135010005784506 0.01943677 0.9993519 0.03030044 187 187 187
-0.0382493348503039 -0.0332771285563075 0.039148789818334 0.08339266 -0.1717279 0.9816085 117 117 117
-0.0831144662284777 -0.0255712612658107 0.0421993704390997 0.1891844 0.07853369 0.9787961 127 127 127
-0.0607572408103869 -0.0737332447558009 0.0154727073264593 0.1837332 -0.9726295 0.1422463 137 137 137
0.112388291797645 -0.0184710963755214 0.021273639972257 0.9764825 -0.1840626 0.112263 116 116 116
0.0701595930671766 -0.0554744347124659 -0.00858134311909733 0.1566322 -0.9460009 0.2838109 147 147 147
0.0380989698982312 -0.0370303138285243 0.0408510239673132 -0.1547768 -0.1403466 0.9779299 84 84 84
-0.114371618785851 0.0336936370343602 0.00676487105612697 -0.9791703 0.1377956 0.1491239 50 50 50
0.0776664404487684 0.0402686850041784 0.0419722916436666 0.241569 -0.08212267 0.9669024 195 195 195
0.0590206770515516 -0.0574549182444178 -0.00909389836068211 0.1725085 -0.9584013 0.2273936 116 116 116
-0.0471621365928576 0.026047851225797 0.0523480595899099 0.1021092 -0.3939936 0.9134237 80 80 80
0.096948066196449 0.00476035036749012 0.038527828629064 0.09280016 0.155128 0.9835261 128 128 128
-0.102596840419762 -0.0244917615442836 0.0471962513280386 -0.06521305 -0.2054928 0.9764835 42 42 42
0.0711387781715467 -0.0491022809534633 0.0109153808904165 0.1293344 -0.9325269 0.3371442 135 135 135
0.0550908236122205 -0.000936899998720819 0.0426826150966162 -0.05985365 -0.01062138 0.9981506 114 114 114
-0.101868710079186 -0.0898942097216212 -0.0249713687347895 -0.9546285 -0.2763541 -0.1109636 20 20 20
-0.0337553830528186 0.0567372099370397 -0.0216237930702692 0.3856621 0.7415364 0.5489886 34 34 34
-0.0132938237571643 0.0527758256406224 0.00135279911284389 -0.09770518 0.99087 0.09289955 128 128 128
-0.103902420558922 0.052992488524381 0.00283761041884364 -0.08406554 0.9642236 0.2514076 41 41 41
-0.114848694362633 0.00752797283834583 0.00701990442995967 -0.9845742 -0.1749561 0.002013291 33 33 33
0.0993079332923963 0.0543499247044957 -0.0277315555262095 -0.01211846 0.9994782 0.0299409 95 95 95
0.0964082865333631 0.0168121115178502 0.035876107389974 0.04744052 0.05484321 0.9973673 115 115 115
0.112806716403969 -0.0149528130083644 0.0166419865441793 0.9824788 -0.133851 0.1296895 129 129 129
-0.0684104771995471 -0.0907419069796168 -0.0331337927031046 0.1941296 -0.9463804 0.2582203 62 62 62
-0.0846834988975451 -0.0920826538591945 -0.0177580742287165 0.1048272 -0.9328634 0.3446406 67 67 67
-0.000757298030845899 0.0526641265363134 0.0146997095895285 -0.107751 0.9941096 -0.01165043 137 137 137
-0.0936086984062121 -0.025224064209994 0.0443591000390524 0.3083504 -0.01198171 0.9511974 117 117 117
-0.0144487233543322 -0.0283502086191737 0.0387096376967901 0.08651557 -0.07204183 0.9936423 67 67 67
0.0161558775520398 -0.0535562380343043 0.0248745055747503 0.1172156 -0.9791427 0.1659518 86 86 86
-0.111283621349327 -0.00954631409936779 0.0054178954911703 -0.9865496 -0.1634617 0.0004881478 34 34 34
-0.111195644893639 -0.0275190218477809 0.0154411913705343 -0.9932665 -0.07640245 0.08708803 95 95 95
0.0725320963478162 -0.0604178651362025 -0.0255511431145197 0.1244732 -0.9490513 0.2894961 66 66 66
0.0276295332527234 0.0252776996106542 0.0439869137359137 0.147815 -0.1804532 0.9724132 174 174 174
-0.0971487374687121 -0.0306517823725306 0.045726981933164 0.2437059 -0.09921211 0.9647613 104 104 104
0.113631167850502 -0.0116405232935511 0.0147079201293463 0.9604222 -0.1861661 0.2071992 85 85 85
-0.0332783074760363 -0.0564204796343409 0.0374805154157156 -0.01610018 -0.08200847 0.9965016 87 87 87
-0.0127917142295764 0.0543902770490087 -0.0100252060341364 -0.1146713 0.988858 0.09492324 84 84 84
0.114591517887123 0.0569074408025182 0.0230712862563604 -0.06969389 0.9962446 0.05137573 91 91 91
-0.0907090516471789 -0.044222985127505 0.0441249431920523 0.1092058 0.04673644 0.9929198 113 113 113
0.0443126349067762 -0.0405714257746302 0.0411375434947485 0.08938871 -0.2201794 0.9713551 139 139 139
-0.0915752263450549 -0.0824978097467982 0.0109788002324575 0.2643497 -0.899995 0.3465953 132 132 132
0.0386323122596814 0.0545541302174962 -0.0185564486431604 0.04205854 0.9989554 -0.01786848 48 48 48
-0.111509642162316 0.0354381457776464 -0.0308517394709116 -0.9381099 0.009411195 -0.3462098 16 16 16
0.0369064001655652 0.0544935122937596 -0.0107386736320978 0.01556379 0.9998763 0.002259403 111 111 111
0.0506018786048963 -0.047400270321902 0.034843427116918 0.1913934 -0.8590517 0.4747618 105 105 105
-0.103350004711144 -0.0668698891192042 0.0347818108153814 -0.9678252 -0.2042047 0.1470198 105 105 105
-0.0834282250785754 -0.0902666195421779 -0.0148643730329996 0.1356412 -0.9320549 0.3359689 63 63 63
0.0309185175514295 -0.0590709193735682 0.00585835891489925 0.1313375 -0.9677303 0.2150549 114 114 114
0.0351614145851209 -0.0633318766146266 -0.00695474726433812 0.1614976 -0.9494834 0.2690721 169 169 169
-0.115601858654015 0.0144270912618077 0.00341619270567836 -0.9947138 -0.0418989 0.09374887 27 27 27
0.097525515995033 0.0561322823972142 0.02066382485156 -0.04718956 0.9985741 -0.02495568 169 169 169
-0.0449527116203234 -0.0686104043512904 0.0230943681550497 0.2172444 -0.9270275 0.3056549 174 174 174
0.0533885149574354 -0.0493860586672389 0.0188249768567556 0.3161556 -0.9133927 0.256436 125 125 125
0.120648303470619 -0.0484633191614711 -0.032064783399058 0.7622286 -0.6465861 -0.03056042 64 64 64
-0.0229659886741564 -0.0227909430056178 0.0395754845691198 0.05432909 -0.05716477 0.9968854 53 53 53
0.0920774130439832 0.0538708821744359 -0.0222836611914164 0.00164582 0.9999498 0.009889087 107 107 107
0.0610210089302137 0.0532438413113988 0.0472805919003958 0.1951568 0.4129376 0.8896046 172 172 172
0.0585772184944227 0.0552881614179052 0.0326743544888967 -0.03658644 0.9976342 0.05820105 179 179 179
-0.106318792858116 -0.0485840185671412 0.0309193106246466 -0.9648051 -0.160256 0.2084926 81 81 81
-0.0318973870658801 0.0499946729154027 0.0355031015229696 -0.09010497 0.9954559 0.03080158 176 176 176
0.116531053028114 -0.0527455552607142 -0.02829398495431 0.6158991 -0.7835447 0.08201257 66 66 66
-0.0725947232627795 -0.079056535580691 0.00497545021300258 0.3237916 -0.8795132 0.3487342 149 149 149
-0.0172186704063342 -0.0409794195681178 0.0384036274505133 0.02140343 -0.0407828 0.9989387 73 73 73
0.0176874785041883 0.0563437000722325 -0.0310758827375895 0.07737038 0.9963093 0.03716974 51 51 51
-0.0732224793815539 0.0497395054311193 0.0174833806109899 -0.06211591 0.9914019 0.1151694 138 138 138
-0.0730341287040637 0.0525608316869176 0.00412529426340999 0.07346344 0.9061006 0.416635 51 51 51
0.106576362094887 0.023092950961057 0.035638195450353 -0.008578522 -0.03901456 0.9992018 91 91 91
-0.118765434780113 0.0308652774304784 -0.00699827355618535 -0.9799088 -0.006516512 0.1993396 70 70 70
-0.0835662694358752 -0.0781931026964747 0.0243418635678762 0.2714346 -0.9623394 0.01503793 157 157 157
0.112187543354042 0.0301904336423314 0.0359015287709707 -0.03206786 -0.1313801 0.9908133 105 105 105
-0.0715151639366076 0.0122217790097631 0.049102363164472 0.06266069 -0.3792451 0.9231722 48 48 48
-0.0562756867790148 -0.0759522660761439 0.00235788243536891 0.1588981 -0.8587182 0.4871904 182 182 182
-0.106513342418663 0.0469848767728246 0.055189040477323 -0.1679968 0.9560477 0.2403123 51 51 51
0.0716659216499402 -0.0054809196978175 0.0405869008851522 0.1305982 -0.2783292 0.9515655 74 74 74
-0.0997346253776477 -0.0947144969492518 -0.0187054155516153 -0.04792337 -0.9746919 0.2183554 138 138 138
-0.0312195630454943 -0.0632828815966212 0.0312033863616461 0.2376031 -0.950472 0.2003689 121 121 121
0.0517315058326795 0.0537974492520726 -0.0352179883169657 0.04823499 0.9988265 0.004363948 46 46 46
0.0733482031440809 -0.0620861395388209 -0.0304048387455469 0.1363379 -0.9700066 0.2012442 100 100 100
-0.0730467648887561 0.0303046361417211 0.0549774141860479 -0.007064017 -0.3974766 0.9175851 76 76 76
0.0904707102394178 0.0544813529462255 -0.0132648972916132 0.02760057 0.9996087 -0.004551156 141 141 141
-0.0629666657829211 0.0370287553281224 0.0570053728175634 0.09671149 -0.2105626 0.9727848 133 133 133
-0.102759918727867 -0.0747939690142237 0.027222332532453 -0.9693946 -0.1779391 0.1691504 49 49 49
0.124652781925209 0.0545057312459386 -0.0210292069363123 0.1260674 0.9916452 0.02732996 55 55 55
0.102396169147499 -0.00886026463800305 0.0359659762931341 0.04885098 -0.2415297 0.9691631 102 102 102
0.0463713793373182 0.00704791702932483 0.0425757141662115 0.09374847 -0.01405942 0.9954966 47 47 47
0.0134696154213025 -0.0646464570551478 -0.00482635480637608 0.1765659 -0.9625988 0.2054945 145 145 145
-0.107191404857628 0.0447983995885289 0.058152553613233 -0.3360547 0.4687323 0.8169194 122 122 122
0.122625508747108 0.0572515980214513 0.00884936469321193 0.2810958 0.9577628 -0.06062562 130 130 130
-0.0783065171623156 -0.0844769819765651 -0.00169931632752476 0.2608355 -0.8668526 0.42489 163 163 163
0.0705060152626111 0.0152814046353734 0.0423485757661337 0.1176929 0.03604922 0.9923955 213 213 213
0.133427539310463 0.0388158217877782 -0.0394406048702723 0.9876483 0.06441751 0.142833 71 71 71
-0.00686653570174434 0.0538742200345433 -0.00292660576577244 -0.005032855 0.9944748 0.1048545 89 89 89
-0.036843380489342 -0.0784896358042323 -0.0162796406197077 0.2254304 -0.9074621 0.3545332 91 91 91
-0.0652135224723742 -0.070776735165652 0.0348829449964041 0.2438329 -0.935408 0.2560418 119 119 119
0.040584483585365 -0.0488056882410609 0.039099973614263 0.03822384 -0.5600484 0.8275777 144 144 144
0.0452541498756482 -0.0201439007311427 0.0407472820830816 0.09785929 -0.01173436 0.9951311 99 99 99
-0.0816205354118273 0.0157500163525975 0.0508200945210928 0.08248605 -0.3685248 0.9259512 130 130 130
0.097525515995033 0.0545477525205053 -0.0286195157217508 -0.008895468 0.9990274 0.04318628 58 58 58
-0.0309184403800891 -0.0722745998888575 -0.00572154206509648 0.213268 -0.9129307 0.3479572 99 99 99
-0.10631259397506 -0.0690050467043483 0.0134177328896994 -0.9485751 -0.3140587 -0.03965399 103 103 103
0.124828496418007 0.0487492338628209 0.0380185516429419 0.770099 0.1752314 0.6133852 162 162 162
-0.111421665706627 0.0490937487096227 0.0046135457110876 -0.7890528 0.3160398 0.5267964 142 142 142
-0.0706532807731555 0.0311125771016515 0.055647191579389 -0.01649938 -0.3974095 0.917493 115 115 115
0.0163568644142225 -0.0147279246836268 0.0416082711768621 -0.07852964 0.0299449 0.9964619 81 81 81
-0.0678330274009631 0.0514035479039586 0.00473905819182338 0.02547702 0.9231091 0.3836932 152 152 152
-0.104768595256798 -0.00668040356927746 0.0485589476180548 -0.1024731 -0.1483385 0.9836132 82 82 82
-0.0911358209037707 -0.0369658216028773 0.0437587471557135 0.09619222 -0.004494546 0.9953526 142 142 142
0.124841132602699 0.0273466364354528 0.0236093820882315 0.9048786 -0.3194248 0.2813585 70 70 70
0.0409108786201551 0.0549035922498143 -0.0200205771374231 0.02424771 0.9992893 0.02885901 70 70 70
0.120070853672035 0.054025317809049 0.0377966435504431 0.2086392 0.4420124 0.8724074 204 204 204
0.0607029585456922 0.00664814867681629 0.04272173064475 -0.07843252 0.07677395 0.9939588 176 176 176
-0.0688875527763293 -0.0210264071016871 0.0416909577203268 0.03464779 -0.197761 0.9796377 79 79 79
-0.0777917714500354 -0.0358984216242396 0.0427543492866033 0.06268959 -0.03194009 0.9975219 22 22 22
-0.0547567220115588 0.0569827214688695 -0.0172741292166239 -0.003977602 0.9921896 0.124675 55 55 55
-0.0391531796836779 -0.0706773146181666 0.004218769247579 0.2291058 -0.9509322 0.2079387 111 111 111
-0.00317581609725215 -0.0599991425066554 0.0206220419955725 0.207905 -0.8802928 0.4264506 155 155 155
-0.0335796685600207 -0.0683796747713649 0.015042749221372 0.2495856 -0.9306927 0.2674286 107 107 107
-0.0593074174308703 0.057752694270078 -0.0310994861769205 -0.08876541 0.9954623 0.03428637 63 63 63
-0.0494969697379992 0.0384755984754003 0.0566671760631079 -0.006431225 -0.2257189 0.9741712 156 156 156
-0.0387514443778918 -0.0249070867090785 0.0402312697720999 0.1238246 -0.1738852 0.97695 43 43 43
0.0854577211952283 -0.0431756719141566 0.0191057594371313 0.1865131 -0.8592071 0.47642 158 158 158
-0.00762589887618281 0.0487005368680394 0.0483204843354696 0.1903163 0.2456733 0.9504864 145 145 145
0.0561000494575574 0.0540687099904454 0.00713273602251949 0.007307683 0.9988053 -0.0483169 113 113 113
0.0924204973793104 -0.00821981272989147 0.037620914156484 0.1598911 -0.1926734 0.9681486 246 246 246
-0.0731974454307482 0.0486455217809117 0.0392176182818884 -0.03232486 0.9991274 0.02644707 132 132 132
0.0700089125251844 0.0549518720120824 0.0296743186069006 -0.05336776 0.9985644 -0.004586661 91 91 91
0.0714902071571424 0.0542275563687719 -0.00651003700966893 0.02912601 0.9995711 -0.003061901 78 78 78
-0.112312874355309 0.012735809466306 0.0322690876079077 -0.9890729 0.0001319666 0.1474273 43 43 43
0.108883538684852 0.0566193715543187 0.0369398267817968 0.004258469 0.8014488 0.5980482 101 101 101
-0.0392535539054797 -0.0456012233286464 0.0377035410953039 -0.01096667 -0.08609891 0.9962263 82 82 82
-0.0191770406150744 0.0458560840100682 0.0527729662013525 0.3549123 0.2325699 0.9055101 177 177 177
0.128029742679603 0.00527104296392567 -0.00466881973023472 0.8493728 -0.3010512 0.4335136 179 179 179
-0.0685778470420764 0.050997699877683 0.00595737713103237 -0.02936642 0.9485294 0.3153248 177 177 177
0.0911232618904187 -0.0152640088587367 0.0363504858565802 0.2236659 -0.2714496 0.9361029 132 132 132
-0.0373874516868518 -0.0450451715975367 0.0381537200761312 -0.03552101 -0.09005056 0.9953036 90 90 90
0.128406205616005 0.0351670042485631 0.0084532024217123 0.9987912 0.02621048 0.04158268 59 59 59
-0.116078934230797 0.0252486721486486 0.00995497124915065 -0.9927005 0.02521025 0.1179415 42 42 42
0.117987075290687 0.0271583453626073 0.0358038665605062 0.2324631 -0.2543575 0.9387562 128 128 128
-0.0631862492942736 0.0551834956616796 -0.00559394342179356 -0.01341871 0.9926106 0.1205986 120 120 120
0.0809928564643934 0.0349501625508702 0.0403867037845129 0.2060937 -0.1275591 0.9701825 116 116 116
-0.0573802800559924 -0.0730618580370509 0.0150203974795813 0.1510214 -0.9748532 0.1638715 129 129 129
0.0671719698524549 -0.0385749681978785 0.0348514737439627 0.2836368 -0.2898641 0.9140728 122 122 122
0.012038627109535 0.0532921806783117 0.0231139780831808 -0.03401742 0.9973339 0.06455957 199 199 199
0.0610961107826307 0.0544884458989537 0.00725798028235378 -0.04477478 0.9986757 -0.02533841 156 156 156
-0.019394478359215 0.00147279658025867 0.0459877969575399 -0.01611025 -0.164466 0.9862512 88 88 88
0.0199972776985242 0.0560211793393529 -0.025763484661532 0.07220536 0.9963428 0.04568703 84 84 84
0.0672346739387586 0.0409520522565282 0.0451577873778814 0.2597518 -0.2148443 0.9414728 241 241 241
-0.0966065736198352 -0.0489902838259303 0.0455412538600439 0.1279026 0.096254 0.9871049 152 152 152
-0.0633054585838244 -0.00485930285745495 0.0437614144635672 0.0842491 0.02409751 0.9961533 114 114 114
0.00249806924820684 0.0522225157231725 0.0457996548963064 -0.04365215 0.7480729 0.6621794 192 192 192
-0.0195451589012072 0.00539114632314808 0.0459464760375494 0.007938289 -0.07339969 0.997271 142 142 142
-0.0509532304191516 -0.0688819631128871 0.0296471835923666 0.2721314 -0.9456506 0.1780151 150 150 150
0.0668789534187391 -0.0295901044397914 0.0369265796494955 0.328661 -0.2665234 0.9060614 89 89 89
0.00905076547623418 -0.0386702760248744 0.0383887858939642 -0.01327309 -0.1446259 0.9893974 134 134 134
-0.0150762410545275 -0.0335442765741908 0.0384538890672201 0.04853145 -0.08964239 0.9947909 203 203 203
0.130063214740761 0.0229091898412145 -0.000228825037432295 0.9808381 -0.009643468 0.1945861 38 38 38
0.123677888355262 0.0129208818883336 0.0131730856252188 0.8801185 -0.2953435 0.3717037 234 234 234
-0.113718828716271 0.0191533819646276 0.0172600420070166 -0.9869164 -0.07813819 0.1410333 83 83 83
-0.0657659383201525 -0.0735049589663112 0.0232638688636297 0.2612022 -0.9591588 0.1085711 148 148 148
0.00852362199784062 0.00674035706228382 0.0447760047269339 0.02873695 -0.1339738 0.9905681 125 125 125
-0.0207250924491809 -0.0709838017016017 -0.0104547320055491 0.1857995 -0.9141291 0.3603422 109 109 109
-0.110731205501549 0.0179203406781591 0.0456840814900869 -0.9916642 -0.06679868 0.1101824 56 56 56
0.118589559040077 -0.0274780138521754 -0.00111753029103337 0.8957728 -0.08741014 0.4358332 80 80 80
-0.0147498460197375 0.02742698349661 0.0496242763352865 0.0682373 -0.3502889 0.9341527 238 238 238
-0.00525124982833125 0.0528976575345433 0.0453360797715658 0.01918647 0.9022416 0.4308039 179 179 179
0.0570038942909314 0.0539956943005956 -0.0103601394342905 0.02599096 0.9995814 -0.01271063 86 86 86
-0.0852483125114367 -0.0892317636995875 -0.0109844682859903 0.1045732 -0.9572299 0.2697692 90 90 90
0.0852483896827771 0.0344183699101842 0.0395303191495413 0.2249563 -0.1035982 0.9688457 241 241 241
-0.112513861217491 -0.0140039070635402 0.0194070162129873 -0.9858695 -0.1051833 0.1303757 73 73 73
0.0371951250648572 0.0289181724996007 0.0437298389029974 -0.005055397 -0.1823725 0.9832165 91 91 91
0.111390271625526 -0.00898895106607311 0.0331540079665655 0.805058 -0.1654354 0.5696602 105 105 105
0.127477326831825 -0.0152320607691371 -0.0141588477539545 0.9018744 -0.2266403 0.3677728 157 157 157
-0.00264867261885859 -0.0769948109179103 -0.0346221504854685 0.233633 -0.9513292 0.2009683 38 38 38
-0.00174482778548457 0.047122503897611 0.0476207109046453 0.1119079 0.1121043 0.9873749 109 109 109
-0.00648983434676387 0.0459267751187719 0.0480194212747091 0.1858497 0.1730063 0.9672273 179 179 179
0.086579003772743 0.0350395695180333 0.0395160885406012 0.2552998 -0.1001286 0.9616633 196 196 196
0.126598515949257 -0.0260660394220912 -0.0186091391491419 0.9301659 -0.2511469 0.2677997 120 120 120
-0.063870272197716 -0.013394389966067 0.0433814646554464 0.09236452 -0.1492655 0.9844738 48 48 48
0.1358377127266 0.00269957937902576 -0.0350506333755976 0.9723258 0.1455778 0.1827282 44 44 44
-0.0354123921775744 -0.0740300162821376 -0.00652152580494939 0.2432684 -0.8921424 0.3806604 122 122 122
-0.115903219737999 0.0229429260701574 0.00211767571692409 -0.9960955 -0.0342405 0.08137148 47 47 47
-0.0736075253868029 0.0485491410703099 0.0368723692250723 -0.03074341 0.9985475 0.04424639 134 134 134
0.136465230426796 0.0234976068944371 -0.0447731791185862 0.9762148 0.04190149 0.2127181 95 95 95
-0.00332649663924434 -0.0735621198206508 -0.0212773708748346 0.1813374 -0.9383366 0.2943487 98 98 98
-0.101199230709069 -0.081335280755099 0.009124335820722 -0.8470569 -0.3873951 0.3638952 120 120 120
0.00686661287308477 0.0344957963437474 0.0486358823132986 0.01374858 -0.01694738 0.9997619 118 118 118
-0.109927973308556 -0.0272641523867213 0.0263984920335287 -0.9903181 -0.0935623 0.1025487 110 110 110
-0.0743020387077258 -0.0646313174753749 0.0426624538255209 0.05314834 0.06666346 0.996359 105 105 105
0.106300034961708 0.0539662496060765 -0.0234855590509897 -0.02966002 0.9984221 0.0476822 80 80 80
-0.113467773952477 0.0145624534100927 0.0151936979842657 -0.9913416 0.01266212 0.1306963 62 62 62
0.0905710844612195 0.0539378777951635 -0.0177029846357828 0.03632012 0.9992182 -0.01561931 155 155 155
-0.0883615823173449 0.0476759330243505 0.0506327571225637 -0.01480345 0.9993601 0.03255943 153 153 153
0.110948958835609 0.0291039005727208 0.0356634976220602 -0.03645526 -0.1035949 0.9939513 112 112 112
0.0155283598518445 0.0531853095502294 0.0289081456017965 -0.08040344 0.9965605 0.02006117 204 204 204
-0.0301149697685168 0.00479462303823597 0.0456574233127111 -0.05376022 -0.2669217 0.9622176 112 112 112
0.134933867893226 0.0227043286771215 -0.0404465226578241 0.9804788 0.04284469 0.1919003 37 37 37
-0.102195105113976 -0.0719308002977931 0.035382521326589 -0.9663024 -0.229792 0.1159969 118 118 118
-0.0490032048606799 0.0224867121190465 0.0511862607551092 0.1126556 -0.4043196 0.9076532 218 218 218
0.0466097979164197 -0.0455477579622828 0.0394772859168524 0.2462712 -0.4501075 0.8583436 84 84 84
0.130699315509804 0.0189351097554601 -0.00709994417901097 0.9854918 -0.02161224 0.1683416 100 100 100
-0.10761817411422 -0.07387677274042 -0.0120015321421152 -0.9935174 -0.1099743 -0.02878863 98 98 98
-0.0636821599388049 -0.0802687152414882 -0.00333641750092564 0.1648066 -0.873794 0.4575182 113 113 113
0.100877204380043 -0.0101424201517665 0.0355174364400381 0.08786592 -0.2553202 0.9628558 77 77 77
0.0804530768013074 0.0553352490872777 0.0393285723281378 -0.0007554376 0.9562209 0.2926448 137 137 137
-0.110128721752159 -0.0306142314463221 0.0185550274205679 -0.9918179 -0.07245099 0.1051102 76 76 76
0.0963203100776746 -0.0512463792353236 -0.00609219354863225 0.1456225 -0.9052113 0.3992326 124 124 124
0.121050038776405 0.0416430489034093 0.0390351982665533 0.2033882 -0.2033331 0.957752 141 141 141
-0.0898428769493029 0.0486665026158727 0.0301537038636679 -0.01122155 0.9991226 0.04034862 175 175 175
0.0800515799141004 -0.0613722547083461 -0.031385096733523 0.09743283 -0.9804193 0.1711281 125 125 125
0.0147751955604627 0.0530842200726903 0.0312103154016012 -0.04931669 0.9986326 -0.01734689 205 205 205
-0.112438520946495 -0.00458297572427624 -0.00612592977757512 -0.9793956 -0.2019457 0.001494086 35 35 35
-0.0192314000511096 0.0519647852391637 0.00859130638365688 -0.02862352 0.9994856 0.01446234 151 151 151
-0.110806545772545 -0.04418847403818 -0.0047114966558939 -0.9808546 -0.1821871 0.06879016 28 28 28
-0.0192314000511096 0.0568521872968114 -0.0327400891232019 0.2047699 0.8773901 0.4338847 62 62 62
0.0233112959480359 -0.0702078684359156 -0.0265482394146448 0.1575931 -0.924426 0.3472767 55 55 55
0.106212296924598 -0.0569246157198512 -0.0276002017902857 0.1935525 -0.9313424 0.3084457 125 125 125
0.0648245005226209 -0.0495645745783412 0.0132455350709433 0.1797365 -0.8981624 0.4012469 111 111 111
-0.110066017665856 -0.050436352112826 -0.00109966379876195 -0.9886399 -0.1299672 0.07549664 80 80 80
-0.079474052944176 -0.00027856669717663 0.0460298927379126 0.08085918 -0.09393426 0.9922894 49 49 49
-0.112877926387779 -0.00880018315606945 0.0227952571464056 -0.9832289 -0.1250203 0.1327814 80 80 80
-0.00387891248702266 -0.0721553905993068 -0.0159396259235865 0.1495982 -0.8758197 0.4588684 84 84 84
0.0581587938880994 -0.00160286269479626 0.0426622601104254 -0.008297536 -0.02408791 0.9996754 237 237 237
-0.0167582841300891 -0.0585061057596766 0.0322189750028128 0.2640623 -0.9381918 0.2237569 82 82 82
-0.0648620934867785 0.0482914105863012 0.0525441737723822 -0.01722009 0.9995258 0.02552637 141 141 141
-0.116430363216393 0.0307488695592321 0.000306096847104448 -0.9706522 0.09104738 0.2225866 46 46 46
0.00593773408890508 0.0430122271985448 0.0474496008706564 -0.07449011 0.1573907 0.984723 177 177 177
0.0355881838417127 -0.0684364779978358 -0.0294423578428751 0.1694489 -0.9477989 0.270119 80 80 80
-0.107341846981041 -0.0673657401590907 -0.0145928589748865 -0.9953021 -0.02591754 -0.09328397 66 66 66
-0.102621874370568 -0.0746013268023097 -0.0318940458940989 -0.9445433 -0.08700554 -0.3166513 34 34 34
0.0767625956153943 -0.0366589768915736 0.0328548969579214 0.2026303 -0.3052784 0.9304548 110 110 110
-0.0219052644157336 0.0519587055653966 0.0446669431281561 -0.04393984 0.9989013 -0.01629183 161 161 161
0.0424672751045301 0.054098810336057 0.048395541484403 -0.1478112 0.8376666 0.5258008 123 123 123
-0.0624643178367541 0.0575568930119909 -0.0262873498844629 -0.09455185 0.9945714 0.0434468 48 48 48
0.0448774485206678 -0.0501722439318263 0.030449745233106 0.2587147 -0.9373587 0.2332925 122 122 122
-0.0990484567069934 0.0476492897481359 0.0513121755671972 -0.03698426 0.9986687 0.03595829 155 155 155
0.0532001642799451 -0.0589667304545008 -0.010978522722674 0.2505218 -0.9487606 0.1925933 135 135 135
0.111568131885536 0.0568374053449071 0.0147357703996176 -0.03636305 0.9953833 -0.08882418 109 109 109
0.0475765852546766 0.0487371937245763 0.0483371289325231 -0.1399835 -0.003036736 0.9901492 86 86 86
-0.118865809001915 0.0317738906354345 -0.0106798438477045 -0.9922485 -0.08220474 0.09319533 38 38 38
0.103450456104286 -0.0389602526217067 0.0154625745368475 0.1921845 -0.8828512 0.4285311 144 144 144
0.0761601118660047 -0.00577506861978405 0.040116739447164 0.1395042 -0.2259939 0.9640878 45 45 45
-0.0385757298850939 -0.0739830478220546 -0.00375968498463689 0.2659618 -0.8912625 0.3673083 148 148 148
-0.117760977306359 0.0265621797055638 -0.0134168742346293 -0.9438827 -0.3135954 -0.1036505 35 35 35
0.0157794146156385 -0.0283086045771205 0.0403487207246298 -0.1340886 -0.08454838 0.9873559 236 236 236
0.0986050753212049 -0.0297097309618556 0.0315190227580542 0.2021209 -0.2087351 0.9568578 80 80 80
-0.00725563482283809 0.0527072802991307 0.0345524968457693 -0.01711722 0.9995265 -0.02556958 158 158 158
-0.109848341503136 -0.0507709725885951 0.000926745111989397 -0.9815615 -0.1440629 0.1256297 91 91 91
-0.0781935067558215 -0.0815912230997645 0.00300255137209834 0.2768953 -0.8920485 0.3571813 102 102 102
-0.044789633312218 0.0497216240376867 0.0172532768798346 -0.06374189 0.9976698 0.02432939 56 56 56
0.0765365748024061 -0.0218617065935695 0.0372692616534704 0.1852576 -0.2804683 0.9418159 156 156 156
