ply
format ascii 1.0
comment File exported by Rhinoceros Version 7.0
element vertex 473
property float x
property float y
property float z
property float nx
property float ny
property float nz
property uchar red
property uchar green
property uchar blue
end_header
-0.0841414145765158 -0.0329665107476225 0.0630833875232572 -0.008314746 0.5830709 0.8123788 172 172 172
0.0423803516092447 0.0471592979681978 0.0468218397193784 0.6267962 0.4482184 0.6373593 197 197 197
0.0229608007135538 0.0473748283637057 0.0496551167064542 0.008004435 0.4342058 0.9007781 144 144 144
-0.0812442712125632 -0.0646844072091093 -0.041642032951749 -0.9532049 -0.2665243 -0.1427067 61 61 61
-0.0833989791211935 -0.0587343139397611 0.00317502728041352 0.1349405 -0.9638909 0.2295767 140 140 140
-0.0741373709974142 -0.0514897269951811 0.0389181148105496 0.2138107 -0.9730587 0.086266 49 49 49
-0.0934664420423361 -0.0451051158654203 0.0567176710658902 -0.9555628 -0.283101 0.08217956 57 57 57
0.0186830349626688 -0.0497667951333036 0.0414970885806912 0.1226276 -0.9228798 0.3650416 146 146 146
-0.0147920660314413 0.00133739283208945 0.0560010742240781 -0.1422156 0.1786558 0.9735794 105 105 105
0.0216706581773904 0.0819831924689303 0.00536233892973603 -0.007009252 0.9174798 -0.3977206 135 135 135
-0.098083656245217 0.0406398611319552 0.0198328267627591 -0.3524516 0.1973098 0.9147933 143 143 143
0.0372199006738809 -0.0435325069176664 0.0579375695281857 -0.08086975 -0.8721317 0.4825416 174 174 174
-0.0571734122571799 0.0717151003134737 -0.0039156604713565 0.005709409 0.9810755 -0.1935416 213 213 213
-0.00903407853220428 -0.0465457601296415 0.0596164237552518 0.201112 -0.8566 0.475174 183 183 183
-0.105869691782937 0.0453493433249483 -0.00871907958451568 -0.9824232 -0.1168374 -0.1455805 33 33 33
0.00309600312139069 -0.0662442607628813 -1.58775753146267E-05 -0.06487819 -0.9416918 0.3301627 104 104 104
0.0389582105341104 -0.0719028873192777 -0.0122064579433566 -0.009000745 -0.9881394 0.1532956 68 68 68
-0.0310817770299765 -0.058832542394351 0.0193894874149197 0.05029473 -0.9695923 0.2395019 163 163 163
-0.0577053241071555 -0.0556476278054228 0.00701505652006806 -0.1568647 -0.9642217 0.2137056 79 79 79
-0.0536765269574973 0.0255685882819185 0.0455825995498532 -0.2944354 0.3532178 0.8880005 221 221 221
-0.0707875899610373 -0.0715893668877592 -0.0404543806022769 0.1776752 -0.9800447 0.08912912 93 93 93
0.114988941735282 -0.0158784551369657 -0.0194501210159427 0.6068051 -0.2968685 -0.7373307 80 80 80
0.0193394013109354 -0.04880179593439 0.0433357428604001 0.1541842 -0.9373394 0.3124452 144 144 144
-0.0133887938794943 -0.00187219807977579 0.0565077137046689 -0.08547654 0.183046 0.9793814 116 116 116
-0.0459359101590964 -0.0176736278283109 0.0574592720561856 -0.06407659 0.2526088 0.9654444 81 81 81
0.0765118189516214 -0.0584868354546537 0.0176790725284451 0.8167602 -0.4225608 0.3928678 101 101 101
-0.0914897136030051 -0.0516538781868925 0.0498642098003262 -0.3768842 -0.9197295 0.1098 117 117 117
-0.00057814639185394 -0.0636170072304716 0.00760332456167878 0.0376504 -0.9205859 0.388721 128 128 128
-0.0127700976667258 -0.0618192119347563 0.0111706029468411 -0.1040861 -0.9255878 0.3639414 93 93 93
0.0708081312837747 -0.0657733840691557 0.0211233567291135 0.4540444 -0.77113 0.4463207 65 65 65
0.0232776590051798 -0.0104750556694975 0.0619788836532468 -0.1604631 0.01509407 0.9869264 90 90 90
-0.04331044476603 -0.0170580310570707 0.0574702989154691 -0.0422027 0.2496938 0.9674048 83 83 83
-0.061869900637612 -0.0106543464409818 0.0524890195423001 -0.2317873 0.2401245 0.9426637 87 87 87
-0.0842545441922995 -0.0504380626427641 0.0552573572688931 -0.1411065 -0.9784772 0.1505696 45 45 45
-0.0424955300626608 0.01795206835394 0.04969999900397 -0.06341945 0.157756 0.9854395 145 145 145
0.0476464815797952 -0.0531183643090238 0.0433004867130155 -0.1719676 -0.8942626 0.4131846 96 96 96
0.016487557477012 0.0360833244574557 0.0550747286373013 0.1292444 0.4009171 0.9069517 122 122 122
-0.0110348872480246 0.0746198730719576 -0.00937583336297332 -0.09121595 0.9358909 -0.3402763 78 78 78
-0.0894829444227072 0.0695546703589449 -0.0187601972526675 -0.1047147 0.8108591 -0.5757971 124 124 124
-0.00897071879480804 -0.0633348388421049 0.00980044117506684 -0.04444668 -0.9030136 0.4273067 139 139 139
0.02092375237371 -0.0566979808556547 0.0278102528148526 -0.08925656 -0.8807876 0.465023 82 82 82
-0.0987173728284689 -0.00408245751733682 0.00323644986685456 -0.9953721 -0.08937758 -0.03529921 63 63 63
0.0709364600839761 0.0767950849783907 -0.0343388248390323 -0.1511703 0.9840341 -0.09393851 70 70 70
0.0626600571336893 0.0829276876700411 -0.00193040856782256 0.2647962 0.9633362 0.04320141 187 187 187
0.0548514910402444 -0.0631066722619047 0.0240638028674954 -0.2023881 -0.9547358 0.2179875 122 122 122
-0.0889850072202536 0.074019773508359 -0.010138206571973 0.1703793 0.9342669 -0.3132352 79 79 79
0.0491704531374124 0.0634738044989596 0.0280302237563962 0.6364867 0.4097363 0.653453 147 147 147
0.0240924544992593 -0.0735836190926542 -0.0343055356449252 -0.03594884 -0.9927301 0.1148675 63 63 63
0.0187961645784525 -0.0713293714272489 -0.0104087222522861 -0.05137525 -0.9893255 0.1363657 156 156 156
-0.0533596686658713 0.074731214548398 0.00940860024031343 -0.08792323 0.9724712 -0.2157993 107 107 107
-0.0190773419675681 -0.0613584680306425 0.00806657186087312 -0.1855185 -0.9039382 0.3853291 59 59 59
0.112046558445945 0.0285035209906588 -0.0232277739948398 0.5975371 0.3468137 0.7229589 104 104 104
0.0432856865587381 0.0810770826590548 0.0231276821189755 0.6379215 0.4137201 0.6495321 236 236 236
0.073411066121116 -0.0583820504891386 0.0244580577903623 0.8224669 -0.353606 0.4455457 63 63 63
0.0436026044550089 0.0652934150946627 0.0325493287139768 0.7094635 0.3432319 0.6155107 189 189 189
-0.00103084366892303 0.0719615059149752 -0.0179864097541934 -0.01191189 0.9665033 -0.2563778 80 80 80
-0.0676867179212424 0.0135156946433077 -0.0383190144008762 -0.6298898 0.7305954 -0.2635701 95 95 95
0.0726641007127908 0.0799627142203341 -0.0164509941047793 0.5012787 0.8581251 -0.1110903 109 109 109
-0.0228949002561423 0.0486501293433199 0.0466622184806699 -0.2696948 0.1247237 0.9548344 110 110 110
0.0599892922105936 0.0771665411246309 0.00972966065939607 0.7099302 0.3924074 0.5848209 228 228 228
-0.0569811276731345 0.0193004446280489 0.047521717458331 -0.4046444 0.3400952 0.8488805 123 123 123
0.0117797442140726 -0.00750090310449503 0.061333186536395 -0.07861695 -0.1526875 0.9851426 185 185 185
-0.0669297389325949 -0.0686264199959745 -0.0264542032188541 0.2007778 -0.9142332 0.351946 77 77 77
-0.100120704585061 -0.0126229686486234 0.0295526157909268 -0.9902971 -0.133531 -0.03848396 36 36 36
0.043723303860679 0.0868003206503878 0.0138335894637936 0.02905282 0.9835711 -0.178168 108 108 108
0.0176645107927469 0.0563744144690523 0.04451400747832 -0.007605423 0.4698343 0.8827218 129 129 129
-0.0390779189405295 0.025428874994565 0.0475730966621274 -0.09374357 0.3758798 0.9219146 228 228 228
-0.044034641200051 -0.00885523984308145 0.0564790140682095 -0.03356199 0.1767138 0.9836899 217 217 217
-0.100754421168313 0.0767932968390475 -0.00769250878754912 0.02746026 0.901861 -0.4311529 78 78 78
0.0371293612184671 0.0653669672263155 0.0412567328506345 0.2930775 0.5312583 0.7949026 145 145 145
0.0172420330705789 0.0730438070548067 -0.0180718828148013 -0.03004386 0.9128535 -0.4071803 74 74 74
0.0150389857950357 -0.0362260503518095 0.0649789046340817 -0.03118931 0.09517875 0.9949715 141 141 141
0.0374915190401224 -0.0596947831856718 0.0249904166751737 -0.0371191 -0.952046 0.3036949 53 53 53
-0.0489838532743307 0.0762728290808687 0.0096370648437375 -0.1504034 0.9602128 -0.2353085 236 236 236
0.0258578844728616 0.0629750328314791 0.0409974526458615 -0.0417119 0.532705 0.8452724 156 156 156
-0.0891207866010519 -0.0341557426201811 -0.0345038104957706 -0.968705 -0.2372205 -0.07305543 53 53 53
0.0432404466333536 0.0218621330512057 0.0586775313907498 0.1865121 0.3133557 0.9311399 192 192 192
-0.0625037364301535 0.0080135898840914 0.0500277053409451 -0.428381 0.4395216 0.7895001 224 224 224
-0.03682212155436 -0.0623735351311674 -0.0106930066055423 -0.2758874 -0.9357496 0.2196789 143 143 143
-0.089528124743447 0.000610454584408782 0.0420593093925351 -0.2951712 0.7082257 0.6413192 123 123 123
-0.0865405015287253 -0.0343564910637846 -0.0517980981773501 -0.9673153 -0.1867466 -0.1715423 96 96 96
0.0110404082002786 0.0815640526068697 0.0052505206161374 -0.08217309 0.9249866 -0.3710085 181 181 181
-0.0902977399167868 -0.0304320020424833 -0.0314745236343509 -0.9833369 -0.1658086 -0.0745388 33 33 33
0.0257220454874185 0.0846861439002047 0.0288344990306729 -0.1284678 0.5668067 0.8137728 204 204 204
0.0854294486704019 -0.0351481599556913 0.028636104970538 0.7356503 -0.268934 0.6216857 139 139 139
-0.0665777139005514 0.0131587820303927 -0.0443136323398715 -0.6534487 0.71724 -0.2420155 150 150 150
-0.063952248507485 0.0145490007651339 -0.0474975038475162 -0.5868385 0.6580592 -0.4717824 139 139 139
0.0695406981172708 -0.00295259187097452 0.0477040480666989 0.917538 0.2153371 0.3342963 86 86 86
-0.0832586697873923 0.0680644350302706 0.0114887427383298 -0.4937296 0.306832 0.8136861 148 148 148
-0.0891774110135886 0.0273886757147799 0.0259062718444699 -0.3855022 0.2214656 0.8957349 143 143 143
-0.104851167613015 0.0782494383109102 -0.0030478466457492 -0.02848511 0.9931313 -0.1134852 226 226 226
0.0134999342622903 0.0329416828406344 0.0571778189235562 0.03022604 0.3937133 0.9187362 166 166 166
0.117025990075126 -0.0205429954277982 -0.0150234926647311 0.9210663 -0.3799077 -0.08548028 130 130 130
-0.00759456675623382 0.0700117187750826 -0.0250853229469424 0.01705493 0.9346743 -0.3550957 176 176 176
-0.0355394892034384 -0.0638487500893583 -0.0140625167793399 -0.2264974 -0.9490337 0.2191665 176 176 176
0.0190677829446939 0.0806624727499972 0.00225297322806062 -0.01169843 0.9162564 -0.4004216 148 148 148
-0.0756764821348044 -0.0676446122872343 -0.0211673904365665 0.1200589 -0.8770846 0.4650897 52 52 52
-0.0570112876233908 -0.0445927543389311 0.0699715684944028 0.02452326 0.02780548 0.9993125 151 151 151
0.0723924823465494 -0.0424577159630766 0.0533167194419736 0.8348123 -0.3711595 0.4066067 97 97 97
-0.0806558541593405 -0.0137362642037382 0.0506129633479947 -0.1856326 0.3956007 0.8994669 149 149 149
0.0674584098520425 -0.0461115998970976 -0.0339792896217471 0.377301 -0.4066013 -0.8320573 58 58 58
-0.0984911135969015 -0.0267038507210722 0.0305150817924374 -0.9001921 -0.232495 0.3682395 113 113 113
0.0232776590051798 0.0661566095602999 0.0389907430702084 -0.0166581 0.5672044 0.8234086 151 151 151
-0.0480634383497092 -0.0555833739983549 0.0158670615249509 -0.2642549 -0.9457378 0.1890752 47 47 47
0.0843883343401102 0.0686466532004366 -0.0289555121368533 0.7524775 0.6275156 0.2000046 105 105 105
-0.103606265002236 0.0261444883597384 -0.00063201078835784 -0.9841672 -0.1701469 -0.04964864 60 60 60
0.0344812460603861 -0.0719262523400297 -0.0227836299842959 -0.01067708 -0.9996165 -0.0255502 61 61 61
0.102449912613883 -0.00893713662500284 -0.0261893201774722 0.4387973 -0.3420684 -0.8309309 91 91 91
-0.0410600117978903 -0.059123651479434 0.013404137998187 -0.2990763 -0.9317869 0.2057342 115 115 115
0.115147370881095 -0.00462378690118692 -0.0226335156864291 0.8324897 -0.306256 -0.4617014 58 58 58
0.00478597361470734 0.0513858633292208 -0.0539219606823093 -0.01416358 0.943612 -0.3307504 121 121 121
-0.0147920660314413 -0.0270478887307157 0.0626968812042111 0.103828 0.4107316 0.9058252 187 187 187
-0.0427672080335471 0.0281312303793917 0.0461644004875058 -0.09768248 0.3776453 0.9207835 105 105 105
0.0945281573000101 0.0604686575186739 -0.0345577825016147 0.4902629 0.8680261 0.07856786 95 95 95
-0.105462234431252 0.0510227518332491 0.0142204832130307 -0.2712398 0.5225382 0.8083209 199 199 199
-0.0412960461912009 -0.0264010591256132 0.0607795785957211 -0.1074276 0.3933836 0.9130765 139 139 139
-0.0250496081647726 0.029698951746274 0.049697614818179 -0.3140297 0.3208264 0.8935635 120 120 120
-0.0275121740636679 0.0440256433737765 0.0465293597274655 -0.1933686 0.1169038 0.9741366 109 109 109
0.0696764774980692 -0.0628687305199613 -0.0248430300659305 0.4146847 -0.4672833 -0.780822 88 88 88
-0.0363392047223898 -0.0191160602318754 0.0591875683360928 -0.1103722 0.3605972 0.9261683 121 121 121
-0.055396717005715 -0.0357698364006986 0.0646042298370236 0.03558264 0.51341 0.8574054 200 200 200
0.06804688650991 0.0807134943259249 -0.00430353769723235 0.7188016 0.5057799 0.4769812 214 214 214
-0.0535747222242209 -0.0529312057244291 0.0336829494529599 -0.1541391 -0.9879302 -0.01533204 59 59 59
-0.0489958934125754 0.0733724670660982 0.023725844531619 -0.06220057 0.7589104 0.6482177 171 171 171
-0.0831002406415793 -0.0577216310250273 -0.0260156322425967 -0.9592257 -0.278032 -0.05083536 51 51 51
-0.0373350791272971 -0.00150896737451456 0.0553691755824918 -0.103324 0.1784143 0.9785154 168 168 168
0.0293207951250223 0.060281022096921 0.0423587929302091 -0.1057928 0.5268761 0.8433324 151 151 151
-0.0209257416066977 -0.056267992948245 0.0261553000503415 0.04588917 -0.987769 0.1490187 40 40 40
0.10389848429586 0.0588072376502047 -0.0352732766574985 0.3233708 0.8960635 0.3041407 99 99 99
0.0549193807306436 -0.0711625976311674 -0.0110780824131137 0.04719282 -0.9979161 0.0440033 75 75 75
0.0991454311075357 0.0595137911093722 -0.030186646074689 0.5869907 0.7918854 0.1684024 113 113 113
0.0731318779649881 -0.0146554870354643 0.0457488667064542 0.8454158 0.5337583 -0.01934757 152 152 152
-0.0136151127157065 -0.012492792104434 0.0588603388362759 0.1045495 0.1471711 0.9835701 97 97 97
-0.0608740262327048 -0.0533251924263944 0.0146726738506192 -0.0803027 -0.9763147 0.2009005 144 144 144
-0.0549440793332907 -0.0131348533379545 0.0554969381385678 -0.1959144 0.2454246 0.9494126 134 134 134
0.0070719905557779 -0.0421669645058622 0.0638337503963345 0.236719 -0.5751444 0.7830537 177 177 177
-0.067550938540444 0.0132187443030367 -0.0400452543205386 -0.6511046 0.7299144 -0.2080571 110 110 110
-0.030810158663735 -0.0605912370430937 0.00532153955038728 -0.1430152 -0.918567 0.3684852 56 56 56
-0.0273763350782248 0.0496113138449679 -0.0411851037449008 -0.4806517 0.871788 -0.09465474 170 170 170
-0.0394022874173972 -0.0267933768975248 0.0615608464771146 -0.1494431 0.3957631 0.9061117 142 142 142
-0.0906145982084128 0.0769673424017916 -0.00026204475823699 0.1791663 0.9833987 -0.02874935 118 118 118
-0.0151617340383383 -0.0660934610115995 -0.00431212076608001 -0.0599415 -0.9568467 0.2843439 78 78 78
-0.0113970450696799 0.0822989778769503 0.0101146172576779 -0.05484122 0.9477801 -0.3141741 120 120 120
0.0982853360834268 -0.0231570167290678 0.0148241888576383 0.7686476 -0.1852491 0.6122612 64 64 64
0.0610757060709146 -0.0545962018715849 -0.0315749872631198 0.3913102 -0.3800559 -0.8381132 133 133 133
-0.0469166449842306 0.0651609735739718 -0.0263306725925571 0.08885098 0.9569072 -0.2764673 189 189 189
-0.0665777139005514 -0.0699826640831938 -0.0329771269268161 0.2113236 -0.9554642 0.2059868 62 62 62
-0.0778040103254172 0.0617852049124727 0.0186209153228635 -0.7118493 0.3905151 0.5837539 122 122 122
-0.00630448382471527 -0.0444158477532377 0.0665412615829343 0.1112183 -0.7915961 0.6008378 125 125 125
0.045549053734794 0.0689052181494723 -0.0357679356044894 -0.3204857 0.8442544 -0.4295619 27 27 27
0.105392295903221 0.0581836538565645 -0.0386497307724124 0.4162297 0.8905661 0.1834257 66 66 66
0.0810272284212259 0.0536178188574801 -0.00423022398415862 0.6856256 0.4352561 0.5834978 109 109 109
0.039709586686149 0.0724747019064913 0.0319141816192502 0.5950836 0.4890667 0.6377219 229 229 229
-0.0529296807584616 0.0721992092383394 0.0242599915557736 -0.05801265 0.7661935 0.639986 128 128 128
-0.0254298261937949 0.0152071552527437 0.0530404221111173 -0.1759636 0.1501161 0.9728833 102 102 102
-0.0973819903669211 0.0135854320776949 0.0296723019176358 -0.0925601 0.5981436 0.7960256 131 131 131
-0.0750992707547995 0.076077445055295 0.00535295119818391 0.1197279 0.9666981 -0.2261857 120 120 120
0.0153559036913065 0.0172490911734591 0.0612444352203244 0.02704321 0.2253091 0.9739119 133 133 133
-0.0816064290342184 -0.0521329803215971 0.0541784535938138 -0.1274555 -0.9904746 0.05210629 29 29 29
0.0694728084268716 0.0783988075507174 -0.0226043094104892 -0.2016743 0.9565088 -0.210757 110 110 110
-0.0511868409452292 -0.0684894485222807 -0.0322980810112125 -0.1329371 -0.9610326 0.2423716 112 112 112
0.0675941892328409 -0.0352620048272123 0.0626461278491849 0.4136114 -0.2597319 0.8726196 183 183 183
0.0794994421663431 -0.0644663734185209 0.00633764973219575 0.745468 -0.3991873 0.5337856 88 88 88
-0.0552156380948874 -0.0548169774758329 0.0118581723266477 -0.1958404 -0.9599353 0.2004263 110 110 110
0.0208030529680399 -0.00426103303308389 0.0615144442611569 -0.05831826 -0.002574234 0.9982947 106 106 106
-0.0865858010587546 0.0473303632987032 0.0235477458530301 -0.3522064 0.2654138 0.8974999 162 162 162
-0.0685694627103659 -0.0508814019906034 0.0578334998184079 0.06649611 -0.9968216 0.04387538 149 149 149
0.0191960521402506 -0.0519821805703153 0.0357814799838895 -0.02577542 -0.909736 0.4143862 90 90 90
0.0733544417085794 -0.0140441817986479 0.0500548850589627 0.8484579 0.5096997 0.1425675 172 172 172
0.0946186967554239 -0.0189955396401396 0.0188732217841977 0.597835 0.2614782 0.7577747 135 135 135
-0.0035205296811911 0.0742375688803683 -0.0118158985084659 -0.009198538 0.9316058 -0.363354 86 86 86
-0.0370635203657004 0.00964008143072226 0.0522321533256406 -0.1217507 0.2872643 0.9500821 164 164 164
0.0288228579225687 0.0302334862006197 0.055993385224902 0.001895899 0.3042734 0.9525828 157 157 157
-0.000698845797524106 0.0549554662955294 -0.0439047742790347 0.001955426 0.9711717 -0.2383728 102 102 102
-0.0430086068448874 -0.0610894126641264 -0.0127525855011111 -0.182656 -0.9373063 0.2968059 80 80 80
0.102042514866844 -0.00725735852594278 -0.0274208117431766 0.4358266 -0.3142141 -0.8434007 56 56 56
0.00272633511449372 -0.0432460469948759 0.0649761330180997 0.2659745 -0.7226949 0.6379417 214 214 214
-0.0326273254690024 0.0517574386847506 0.0441548894935483 -0.2284935 0.3482955 0.90911 75 75 75
0.031410653180137 0.0679936247122774 -0.0300456810897952 -0.1880049 0.9402135 -0.2839943 81 81 81
0.0608040877046732 0.0107687549841891 0.0491484772258634 0.6326649 0.3885708 0.6698864 211 211 211
-0.022849600726113 0.0690185861838351 0.032897419839465 -0.2981525 0.6262332 0.7203729 190 190 190
-0.0751784257230612 -0.0705316228615751 -0.0279737938350803 0.06884941 -0.9550089 0.288475 47 47 47
0.0405696817102579 -0.0324658317315092 0.0635617147975797 -0.01750375 0.1202631 0.9925877 106 106 106
0.0307316370668558 -0.071788446401309 -0.014194898695386 -0.06681318 -0.991625 0.110526 37 37 37
-0.0169196538266989 0.0805626945746432 0.00447807422217072 -0.1097274 0.9038423 -0.4135565 133 133 133
-0.0173949412641379 0.0722151832831393 0.0326484512382382 -0.3551397 0.5966781 0.7196187 151 151 151
0.113155622071281 0.00244019796972372 -0.0135711062854892 0.6485892 0.4407493 0.6205418 98 98 98
0.045073766297355 -0.0305967492806425 0.0631924342208737 0.01863712 0.03175554 0.9993219 121 121 121
-0.076491277628884 -0.0059782428490629 0.0510383616977567 -0.3448766 0.311656 0.8853986 157 157 157
-0.0254524759588095 0.0250242786658297 0.0511582564407224 -0.2806957 0.2604383 0.9237867 87 87 87
-0.0409565381345602 -0.0558399123894682 0.0377827357345456 -0.004051578 -0.9985893 0.05294336 92 92 92
-0.0705385617551657 -0.0713687104928007 -0.0401391912407046 0.1820395 -0.9812655 0.06308487 47 47 47
-0.0852277688321921 -0.00874866673822305 0.0490547191196317 -0.1015395 0.3704993 0.9232659 149 149 149
-0.0425521544751974 0.0780443983328829 0.0157186757617825 -0.3167462 0.9481524 -0.02605608 201 201 201
0.0549828000726846 0.0792474584830294 0.0135223936134213 0.6211721 0.4133123 0.6658214 232 232 232
-0.0675434283552023 -0.0553231401192655 0.00308529248770417 -0.06617592 -0.9527029 0.2966105 133 133 133
-0.0783697776136252 0.0250013904822359 0.0328553091579312 -0.490255 0.2986687 0.8188083 117 117 117
-0.0958656482038351 -0.0228095216500273 0.00695485582884492 -0.9623075 -0.2582674 -0.08521859 12 12 12
-0.0117591432866904 -0.0578669471489897 0.0214448939853543 0.0211136 -0.9054735 0.4238774 142 142 142
-0.0670756511030051 -0.0695668620812406 -0.0299894441074496 0.211452 -0.9537743 0.2135476 52 52 52
0.031045515126243 -0.0701204700219145 -0.00587268957558928 -0.007177839 -0.9359249 0.3521264 104 104 104
-0.0779850892362448 0.0341293649924288 0.0305807661109799 -0.5323554 0.1698241 0.8293115 131 131 131
-0.0249545387563559 -0.066020624135684 -0.00629954823914824 -0.2419463 -0.9367671 0.2528427 152 152 152
-0.0934664420423361 -0.0301563901650419 0.0036442350440854 -0.9289549 -0.3694328 0.0237124 53 53 53
-0.0807463340101096 -0.0144108695733061 -0.0535790551609164 -0.627557 0.4244282 -0.652712 136 136 136
0.0247261710825113 0.0874359445822726 0.0156357955032224 -0.01350518 0.9066532 -0.4216605 182 182 182
0.0600345917406229 -0.0474950237023344 -0.0357183445400363 0.3806492 -0.3824587 -0.8419213 127 127 127
0.0355752297105936 -0.0632612867104521 0.0140040587478513 0.009876402 -0.9373695 0.3481965 97 97 97
0.00117595869924103 -0.0717170400368681 -0.0184401501125461 0.05143092 -0.9867111 0.1541301 135 135 135
0.0368577428522257 0.01273225119238 0.060870505481326 0.05288303 0.2610605 0.9638728 166 166 166
0.0355450101556924 0.0886339979422579 0.0175046693378323 0.05609124 0.9475449 -0.3146626 108 108 108
0.00311108309651886 -0.0707136554467191 -0.0141462613052493 -0.06612449 -0.9766117 0.2045902 149 149 149
-0.0792525224027487 -0.0531870288598051 0.0341659854942197 0.2138524 -0.9714086 0.1031138 126 126 126
-0.0138640813169333 -0.0517885846840849 0.0494612227969998 0.1712553 -0.9476612 0.2694624 78 78 78
0.0795447416963724 -0.0434547824608793 0.0305841337734097 0.7108293 -0.4362103 0.5517629 35 35 35
-0.0796825103101584 -0.0400213165032377 0.0662272643142575 0.003169624 0.3914654 0.9201874 142 142 142
0.0924458690347818 -0.0537295503365507 -0.000268541664517508 0.7343692 -0.5051777 0.4533181 101 101 101
0.0105937905969766 -0.0321557683693876 0.0636098753505582 0.08401784 0.2658142 0.9603561 217 217 217
0.0918573923769144 -0.00427033135766886 0.0120439302020902 0.645185 0.3006246 0.7023967 106 106 106
0.0927718468370584 0.0175885992300997 0.00118113270338716 0.681748 0.3066801 0.664204 102 102 102
0.0587217994394449 -0.0106861753212919 0.063176698594653 0.2106131 0.2590073 0.9426332 167 167 167
-0.0923046283063742 -0.0388747615563383 0.0223668586307401 -0.9142572 -0.4051336 -0.0006644824 50 50 50
-0.0887737683591696 -0.036483065580081 0.0652693878703946 -0.1448702 0.4955116 0.856435 152 152 152
-0.0464790276822897 -0.0579747123467436 0.00740108600195588 -0.3131838 -0.9402519 0.1335751 67 67 67
-0.0278742722806784 0.0484348373663912 0.0454866658740872 -0.2027002 0.1506436 0.9675842 144 144 144
0.0656024404230264 -0.0631799859749784 0.0301938425594205 0.224054 -0.8291369 0.5121834 178 178 178
0.0650441833200601 -0.0411364001976957 0.0614911686473721 0.4539426 -0.343958 0.8219666 217 217 217
0.071328718251243 -0.0460698766457548 0.0521434616142148 0.8812249 -0.3670794 0.2978178 143 143 143
0.0797710605325845 -0.0250486297356596 0.0391925941997403 0.9571592 0.1697241 0.2346063 41 41 41
-0.0376217774686667 0.0781383352530489 0.0114069949680203 -0.2541748 0.9000077 -0.3540922 88 88 88
-0.00605551522348846 -0.0538600845086088 0.0346648763709897 0.06036206 -0.9663222 0.2501557 58 58 58
-0.0773383788404318 -0.0287032289254179 0.0601298283630246 -0.1459937 0.5731253 0.806358 159 159 159
0.064380247181907 0.0765255527747164 -0.0391696322864657 -0.1237899 0.957094 0.2620062 186 186 186
0.0837545581522134 0.0564967232001314 -0.00945114383164702 0.6293643 0.4247115 0.6507847 131 131 131
0.0698575564088968 0.0079302625906954 0.0381496619277829 0.8418997 0.368196 0.394508 221 221 221
-0.034211676531777 0.0725251274359713 -0.00486975202027617 -0.1854826 0.9442524 -0.2719992 90 90 90
0.108379919117942 -0.0284294051873197 -0.00485941061440764 0.8390204 -0.4163836 0.350242 83 83 83
0.00508024174596344 -0.0286165637719145 0.0627453397804135 0.02053826 0.3371205 0.9412374 247 247 247
0.0342322774591592 0.0209311084998141 0.0580583881431455 0.007936921 0.2808049 0.9597321 191 191 191
-0.0184247307119223 -0.0640013379799833 0.00402260532911958 -0.144941 -0.9323899 0.3311212 112 112 112
0.0832717605295328 -0.064875022863101 0.00146607270773591 0.7485546 -0.4759639 0.4616539 78 78 78
0.0713212080660013 0.0617583828223238 0.00390342584189118 0.8252388 0.3892302 0.4092442 126 126 126
0.105075437611595 -0.00174297520990274 -0.000446372122204886 0.6915659 0.3840092 0.611779 118 118 118
0.0968820639314798 0.0103838281882296 0.000456757455431833 0.6874911 0.3208221 0.6514823 164 164 164
0.0688918419542459 -0.0640919370400419 0.0236300002628201 0.4789675 -0.75971 0.4398078 74 74 74
-0.10430042069529 0.0579207973731051 -0.0185716379589206 -0.9646079 -0.02192146 -0.2627756 55 55 55
0.0272611566248087 0.0797654228461275 0.0316721569591397 -0.1286373 0.4194137 0.8986349 177 177 177
0.00667591769124543 0.0412221985114107 0.053949392943942 0.1744619 0.4210222 0.8901142 121 121 121
0.106953997200981 0.047663195635129 -0.0298602212375766 0.7006009 0.3578596 0.6173288 86 86 86
0.00700410086537873 0.0553890304816256 0.0452177595191831 0.04039043 0.5288017 0.8477837 152 152 152
-0.0586558989820334 -0.0579757852303495 -0.000887297481930838 0.004855258 -0.9647337 0.2631831 58 58 58
-0.0310882143316122 -0.0492714805352201 0.0538768838935727 -0.0295039 -0.8442861 0.5350799 80 80 80
-0.0818328074750754 -0.0549768371331205 -0.0487709570831424 -0.9650554 -0.2339156 -0.1181165 45 45 45
0.117614407128349 -0.0101920528161039 -0.00994806775513946 0.7266277 0.3194398 0.6082519 92 92 92
-0.0855899266538473 0.0296971636069308 0.0267765890651578 -0.3983334 0.2180805 0.8909385 125 125 125
-0.0626620463666769 -0.0303651256310453 0.0623394619518155 0.03286329 0.4328049 0.9008884 91 91 91
0.110846955365196 -0.0267759723412504 -0.00833814629975616 0.7799231 -0.5016237 0.3742908 90 90 90
-0.0909450463590475 0.0576083498251925 0.0137371491485471 -0.3086852 0.6213831 0.7201364 138 138 138
0.0606834479036478 0.0824539499533663 -0.00452750214997588 -0.1422658 0.949945 -0.2781456 95 95 95
0.0865611620607523 -0.030487553571414 -0.031159364075101 0.4708899 -0.266899 -0.8408493 77 77 77
-0.0867442302045676 -0.0496999187218656 0.0562325488620633 -0.2243454 -0.9296843 0.2921578 74 74 74
0.0804047771158365 -0.0296361608254423 0.0379286479049558 0.9350184 0.01098593 0.354429 78 78 78
0.0565942712488321 0.0293582515967379 0.0427079867416257 0.6049006 0.3667794 0.7068014 140 140 140
0.0951392837228922 -0.0562586946236601 -0.00638618359032928 0.7263001 -0.5206312 0.4488109 105 105 105
-0.0314277819928976 0.048683269525815 0.0450916658931607 -0.2280369 0.1550635 0.9612255 151 151 151
0.105007488316551 -0.0305259389626493 -0.000434957832730398 0.8207324 -0.3880236 0.419328 81 81 81
-0.0520016364393088 -0.0538113279091825 0.0389963459068173 -0.2509126 -0.9560944 0.1514148 33 33 33
-0.0910491160688254 0.0255510645163546 0.0257009338432187 -0.3501613 0.2800047 0.8938593 118 118 118
0.0961125083627847 -0.00306166837091348 0.00942931285437287 0.5545207 0.5020627 0.6636564 94 94 94
-0.0884870700178 -0.045874254201602 -0.00712283739510833 -0.9475985 -0.2734927 -0.1651023 66 66 66
0.0812648721399454 -0.0625622434365263 0.00558454504545869 0.696326 -0.4307942 0.5740615 107 107 107
0.0373104401292947 0.0710116462958346 -0.0221842456764346 -0.0738253 0.9552062 -0.286585 107 107 107
0.0737505145731119 -0.0139346284615507 0.0380970608287686 0.8419514 0.4943761 0.2161251 101 101 101
-0.102067153864846 0.0234843330634127 -0.00932418593827544 -0.9761622 -0.1663991 -0.1393509 136 136 136
0.0106933303537515 -0.0653752250420561 0.00448725333746613 -0.09200888 -0.894177 0.4381573 82 82 82
-0.0443514994916769 -0.0512622756707182 0.0483189593845242 -0.1775491 -0.8829365 0.4346257 157 157 157
0.0387137122812418 -0.0538405341851225 0.0410062741332883 -0.1450602 -0.9292741 0.3397161 137 137 137
0.00702675063039337 0.0855754452002535 0.0136298011833066 0.005907974 0.9092857 -0.4161306 169 169 169
-0.0603309087095114 -0.0501780671822538 0.0578383873992795 0.1256277 -0.9903843 0.05793711 47 47 47
0.0999602266016153 0.00541435053472616 -0.000484489292538748 0.6117584 0.3557155 0.7065538 142 142 142
-0.060828845911965 0.0668893890631685 0.0290279459052915 -0.08416181 0.5434794 0.8351928 169 169 169
0.0873759575548319 0.0665279464972506 -0.0364795852607852 0.4427501 0.8580683 0.2601753 135 135 135
-0.0288249067602011 0.0732467012656222 -0.00638069996300994 -0.2316996 0.9308723 -0.282475 121 121 121
-0.0311335138616415 -0.0113250179039945 0.0572136711173886 -0.09931606 0.2249336 0.9692993 238 238 238
0.0908162780466226 -0.0548993510949125 0.00157285442885102 0.7050523 -0.5585805 0.4369086 119 119 119
-0.015848319941506 -0.0304519099938383 0.065043575673663 0.09017174 0.4191341 0.9034355 123 123 123
0.106342870778098 -0.0362327260720243 -0.0105582107013827 0.900305 -0.340506 0.2711211 77 77 77
0.0679110475244669 -0.00454296300287149 0.0517464946800107 0.6767634 0.3904966 0.6241024 210 210 210
-0.0225629023847433 -0.0482210082756986 0.0595810782009 -0.1690741 -0.8891297 0.4252791 90 90 90
-0.0747862271604391 0.059367878938962 0.0234817933135861 -0.6232458 0.3606577 0.6938953 156 156 156
-0.0712402276334616 0.0177465515387545 0.0385154258304471 -0.4537624 0.2837054 0.844755 39 39 39
-0.00298861783121551 -0.0722284478890409 -0.0221299756473666 -0.01827055 -0.995286 0.09524641 148 148 148
-0.0711678675947043 0.0759141283286104 0.00724670997198762 0.0931857 0.9631911 -0.2521493 151 151 151
0.0464996882143167 0.0466857986701021 0.0420417856269711 0.6870165 0.4256677 0.5889103 184 184 184
0.0454585142793802 -0.0171648425805082 0.0632369588905209 -0.01384207 0.02414628 0.9996126 128 128 128
0.0742484517755655 0.0120483474982271 0.02382708302077 0.7948884 0.205103 0.5710387 104 104 104
-0.0344832948980185 -0.012361423467349 0.0569171082073087 -0.07203186 0.2325576 0.9699115 249 249 249
0.0100143738451151 -0.0208143157708158 0.0604320239120358 -0.0275775 0.1347921 0.9904901 226 226 226
0.0268989988031534 -0.0682798785912504 -0.00198908934060393 -0.01705119 -0.9384904 0.344884 55 55 55
-0.0821496657667014 0.00211606791143515 -0.0370787907547122 -0.7850339 0.520938 -0.3351794 89 89 89
0.0952071734132913 0.0614448623908053 -0.0281127024597293 0.4841298 0.8360445 0.2581627 96 96 96
-0.0905241183576437 -0.0236995382058134 -0.0462462235397464 -0.9743466 -0.01979068 -0.2241808 66 66 66
-0.0942812375364157 0.0509416895163546 0.0189191173606748 -0.3996747 0.5989829 0.6938873 173 173 173
-0.0910672358808371 -0.0421046180474272 0.019332624583804 -0.8525821 -0.5218394 0.02806078 131 131 131
0.0187961645784525 -0.0458603067147245 0.0530742775493497 0.2149376 -0.8747439 0.4343098 179 179 179
0.0288756676378397 0.0642666654837618 0.0403693388992185 -0.1061718 0.5150589 0.8505538 169 169 169
0.0268537588777689 0.0553321676505099 -0.0502196479744083 -0.2613969 0.8675228 -0.4231736 66 66 66
0.109058935231223 -0.0263935489403715 -0.00534548649255095 0.8050434 -0.4458824 0.3912723 92 92 92
-0.0308393053350302 -0.0647242231118192 -0.0141356516784793 -0.3050227 -0.9413716 0.1441552 159 159 159
-0.0853183678922507 0.000187976862240813 0.0444550286823148 -0.1793689 0.6446899 0.7431028 171 171 171
0.0430593677225259 0.0258483724844942 0.0567152868800992 0.3458252 0.4031952 0.8472536 193 193 193
-0.102203052454934 0.0631629066718111 0.00583038440283479 -0.2901885 0.3384403 0.895125 159 159 159
0.0691936202707437 0.0351021127951632 0.0214999388748044 0.849242 0.4519551 0.2729918 112 112 112
-0.00106100361917938 0.0694323616278658 0.0389074753814572 0.07722837 0.4733967 0.8774573 107 107 107
-0.0131624154386374 -0.048145548795413 0.0595834921890134 0.2050325 -0.8715351 0.4454079 176 176 176
-0.0348454527196738 -0.0556023282753935 0.0392005514198178 0.0297718 -0.9971954 0.06866574 65 65 65
-0.0789752415952536 0.077321513201047 0.00772155037459077 -0.1772329 0.9841224 0.009570623 203 203 203
0.0829578824701456 0.0618593530905733 -0.0129519332355624 0.5457595 0.6452653 0.5345832 133 133 133
-0.0207673124608847 0.0516354875815401 0.0473348866992825 -0.2724716 0.2674459 0.9242467 197 197 197
0.0483103581133035 0.0695468025458346 -0.0351672697967654 -0.3094756 0.9198154 -0.2411733 36 36 36
-0.0271047167119833 -0.00705291459436319 0.0567643415027493 -0.07180915 0.1761414 0.9817421 124 124 124
-0.10093550007914 0.0714955168021212 0.00474823227461518 -0.1583463 0.2807038 0.9466424 140 140 140
-0.0806558541593405 0.0760912733328829 0.00206450334128083 0.08555786 0.9577758 -0.2744912 81 81 81
-0.0883964709577414 -0.0435354871499052 -0.0163312185711032 -0.9705042 -0.233445 -0.06020742 36 36 36
-0.00309048216913665 0.0706090765250216 -0.0233115483230716 -0.0006824281 0.942887 -0.333112 150 150 150
-0.0862689427671286 -0.0526369971978178 -0.00612681397858916 -0.9494033 -0.3113608 -0.04108323 50 50 50
0.0692690797510294 0.0539706783545504 0.0124326418929929 0.8372803 0.2408264 0.4908812 158 158 158
-0.0192282609281393 0.0513238744986544 -0.0440033901638156 -0.1199381 0.9787791 -0.1661516 130 130 130
0.102314133233085 0.0430891351950655 -0.0210622776455051 0.7006441 0.2929772 0.6505861 125 125 125
-0.10641280930613 0.0400940017951021 0.0146336626106137 -0.9409951 -0.1296479 0.3126014 58 58 58
-0.0505984238920065 -0.0344755811440458 0.0646374296241635 -0.1129734 0.5082368 0.8537753 156 156 156
-0.00125716250513519 -0.00186421105737589 0.0607019435459012 -0.2600441 -0.01053597 0.9655393 75 75 75
-0.0705612115201804 -0.0037197036492338 0.0515015791946286 -0.1466679 0.2366286 0.9604663 101 101 101
0.0997565575304178 0.0551446514380465 -0.025469564289487 0.692926 0.4466971 0.565964 145 145 145
0.100775022095695 -0.0208261174904814 -0.02383276113931 0.4913475 -0.2382092 -0.8377553 73 73 73
-0.0347699932393881 0.0709310608160982 -0.0101454187339908 -0.122157 0.9538119 -0.2744457 208 208 208
-0.0411376170453879 -0.0472949905144682 0.0565103661113614 0.001739233 -0.958619 0.2846868 98 98 98
-0.104692738467202 0.00479946901922323 0.0308370064788693 -0.9644378 0.04638863 0.260207 64 64 64
0.0872175284090189 -0.05926801392908 0.000266231208407297 0.7322513 -0.528963 0.4289595 94 94 94
-0.0840961150464865 -0.0564195079552641 -0.0228933025306827 -0.9515183 -0.2941428 -0.08996057 47 47 47
-0.0330347232160422 -0.0181760949837675 0.0585570704036588 -0.1106369 0.3599009 0.9264075 96 96 96
-0.0568905286130759 0.0458378629935274 0.0379107367092008 -0.5448431 0.1185947 0.8301092 84 84 84
-0.0475202016172263 0.0273581581366549 -0.0458564985698825 -0.6610176 0.6107798 -0.4358943 129 129 129
-0.00518409531687225 0.0756801204932223 0.035071469455325 -0.02036682 0.5692274 0.8219278 179 179 179
0.0818533487978128 0.0676537590277682 -0.0212974477714664 0.6568993 0.6716141 0.3426629 65 65 65
0.0432630963983682 -0.00860394666070841 0.0627963017516965 -0.04362705 0.03380995 0.9984756 46 46 46
-0.0173451117811056 0.0861960487616549 0.0222621928745145 -0.4275455 0.9029732 0.04294401 46 46 46
0.107700903004661 0.0434033708823214 -0.0279136229461795 0.6649383 0.3884385 0.637944 134 134 134
-0.0590331963834616 0.017405136133481 0.045735783486926 -0.5835019 0.3480324 0.7337568 85 85 85
0.0518412180605081 -0.000914589856814363 0.0626895498329038 0.2614926 0.151879 0.9531812 33 33 33
0.0491252132120279 0.0600184040320406 -0.0547995794719821 -0.0796442 0.9040911 -0.4198526 134 134 134
0.0731167979898599 0.0149502592337618 0.0235911976390714 0.8757337 0.1746374 0.4501025 108 108 108
-0.0917462519941183 -0.0295070571648588 0.0589479874664182 -0.5929648 0.5556369 0.5828039 165 165 165
-0.0218310765561911 0.00928984453802206 0.0539417933517331 -0.1255145 0.1090797 0.986077 219 219 219
-0.104813378268227 0.0721235113394747 -0.0140196610397464 -0.2966298 0.6693805 -0.6811318 146 146 146
-0.0868800095853659 -0.0489723844277372 0.00814337244566621 -0.8477664 -0.5027434 0.1689414 54 54 54
-0.0713669471082541 -0.0601486129509916 -0.00672107228699981 0.127159 -0.8711519 0.4742626 112 112 112
-0.00587443631266082 -0.0537136955010404 0.0336506139331693 0.04817644 -0.9529751 0.2991948 79 79 79
-0.0231393389043661 -0.0542214078652372 0.0440138947063321 -0.02372751 -0.9823449 0.1855683 118 118 118
0.0397548862161783 0.0700601177466402 -0.0248059559768802 -0.02160566 0.9745989 -0.2229128 131 131 131
0.105007547921195 -0.0409499568688383 -0.0109023977226382 0.9110582 -0.3090082 0.2729226 84 84 84
0.0203352757158426 0.0729055242789278 -0.0173487294620639 0.03570876 0.9209453 -0.3880523 72 72 72
-0.0630468539533469 0.0787732439291964 0.016838557630145 0.1796436 0.9699185 0.1642752 231 231 231
0.0492609925928262 0.0440434055579195 0.0407145391994351 0.6823297 0.3969429 0.6138912 164 164 164
0.0570469089212564 -0.0636481208550443 0.0240008007579678 -0.2176393 -0.9565907 0.193823 61 61 61
-0.0448720864591452 0.00767730047826864 0.0515204142623776 -0.07839336 0.2856562 0.9551204 119 119 119
-0.0364298037824484 0.0059076385748873 0.0534916888767117 -0.09089601 0.2974948 0.9503866 242 242 242
-0.0859973840055319 -0.0460405511605253 -0.0297739137119418 -0.9776957 -0.1963166 -0.07463872 51 51 51
0.0229155011835245 0.00143526365881064 0.0618362795406217 0.009093722 -0.06139037 0.9980724 97 97 97
0.0693143792810587 0.0341024236929903 0.0233604680591458 0.7993853 0.4689117 0.3756394 133 133 133
0.0469523854913858 0.0640220480216036 -0.0428206849998599 -0.2257028 0.8697047 -0.438944 109 109 109
-0.0940548590955588 -0.029681341146182 0.00684831252630891 -0.9412122 -0.3336878 -0.05265052 74 74 74
-0.0141583494481894 0.0506018238318453 -0.0519637990898257 -0.2042061 0.9038618 -0.3759439 156 156 156
-0.00639502328012909 -0.0532295865761747 0.0353286038928861 0.0856559 -0.972034 0.2186615 83 83 83
-0.0330045632657858 0.0769471960318575 0.00599656215246858 -0.1742103 0.889582 -0.4222496 99 99 99
-0.0207522324857565 -0.0407545728432646 0.0695866118961209 0.03151613 -0.05956704 0.9977267 159 159 159
0.00322427231694733 0.0237368183386812 0.0596581768089169 -0.1127921 0.1485862 0.982446 155 155 155
0.00476338345433747 -0.0652222795235624 0.00403479447897614 -0.04696535 -0.931881 0.3597113 103 103 103
0.00672795254613434 -0.0663138789879789 0.00122100821074189 -0.1017721 -0.9245532 0.367211 112 112 112
-0.00234357636545623 0.0843390064490328 0.0125545333915585 -0.1083733 0.9034367 -0.4147979 129 129 129
-0.0389345101651999 0.0508153276694308 0.0432303916507596 -0.2487353 0.4285239 0.8686184 124 124 124
-0.0400511435804221 -0.0554850263344755 0.0295029949241513 -0.2076495 -0.9599581 0.188048 47 47 47
0.0519769974413065 0.0713349418890963 -0.0305616486972934 -0.244982 0.9680947 -0.05269198 122 122 122
0.00697012621785675 -0.0505794448601713 0.0516814958148831 0.08979904 -0.8998201 0.4269191 144 144 144
0.0553268380823282 -0.0497687024819364 0.0551478337341184 -0.317283 -0.8868818 0.3358157 111 111 111
-0.0224875025091025 -0.0241190356957426 0.0630914341503018 -0.002210827 0.4104008 0.9119025 143 143 143
-0.0232796482381674 0.0521201925528536 -0.0404827226108676 -0.2568309 0.9594226 -0.1163882 160 160 160
0.0224628039064554 -0.0375350875603666 0.0648455690437192 0.1131705 -0.1696903 0.9789779 172 172 172
-0.0409888438520285 0.0733162002814303 -0.000639610380566702 -0.06079824 0.9219603 -0.3824823 106 106 106
0.0873608775797037 0.0618690090430269 -0.0179837573475009 0.5349978 0.7569289 0.3752815 124 124 124
0.0248620100679544 -0.058421747182559 0.0256049107604855 -0.101646 -0.8874293 0.4495968 111 111 111
0.0140431113901285 0.0553028421652804 0.045430071263873 0.01316774 0.4715975 0.8817156 127 127 127
0.0168497152986673 -0.0535969896065702 0.0329886149459714 0.009778894 -0.8741592 0.485541 130 130 130
-0.053155939990029 -0.0696772498833647 -0.0370131958431369 0.02251594 -0.9254225 0.3782673 87 87 87
0.0723924823465494 -0.0693335695015898 -0.00605895409051238 0.02983793 -0.9990723 -0.03105355 40 40 40
-0.0605571679410788 -0.0108044309365263 0.0536164115959042 -0.2589847 0.266135 0.9284929 117 117 117
-0.040277522021279 0.0665449934256563 -0.0214604962772494 0.01413102 0.9427527 -0.3331933 167 167 167
0.0446663685503152 -0.0698092145668974 4.88828712338352E-05 -0.1343921 -0.9643224 0.2280812 97 97 97
-0.0848732404050681 -0.0517827434288969 0.0436822544628018 -0.02561128 -0.9534096 0.3005897 65 65 65
-0.0741373709974142 -0.0513453645455351 0.0375460158878201 0.2311256 -0.9701247 0.07375021 47 47 47
-0.0249469689664694 -0.0450285835015287 0.0644559632831448 -0.1459336 -0.925626 0.3491704 161 161 161
-0.0810631923017355 0.0748396950018893 -0.00195895919266997 0.1392579 0.9607874 -0.2397809 106 106 106
-0.0199525169668051 0.00652347376470663 0.0546078454547757 -0.1285846 0.1382565 0.9820138 240 240 240
-0.0551401786146017 0.0628673868430147 0.0313468944126004 -0.08371955 0.5311782 0.8431137 152 152 152
-0.00521806996439422 0.0149011450064669 0.0571414004855985 -0.2212327 0.03353273 0.9746444 136 136 136
0.0330100842180399 0.0795765953314791 0.0332964133315915 0.2172577 0.4642857 0.8586256 200 200 200
0.111593861168876 -0.0109399718987455 -0.00174307116929351 0.7400966 0.3313485 0.5852053 128 128 128
-0.0682073048887106 0.0253784494650851 0.0372608672672147 -0.3137858 0.3740094 0.8727287 89 89 89
-0.0389918498334738 0.0772821741354952 0.00984758844908418 -0.2082092 0.9234226 -0.3223968 116 116 116
0.0817401595773843 -0.0569712085473051 0.0100969742828244 0.6609661 -0.6096499 0.437551 79 79 79
0.0355677195253519 0.0791879730475435 -0.000444673389828787 -0.04797288 0.9371713 -0.3455555 123 123 123
0.0693897791566995 -0.0549851817833891 0.0420287620120877 0.8086454 -0.5779827 0.1096752 35 35 35
0.0740221329393533 -0.0409826202141752 0.0475313436084622 0.9075128 -0.3842937 0.1695253 81 81 81
-0.0713533572492453 -0.0645381374108305 -0.016296767086423 0.03495712 -0.914424 0.4032453 123 123 123
-0.0998038462934348 0.0154849128973971 -0.010962181181348 -0.9870061 -0.131971 -0.09166518 144 144 144
-0.0295038632688376 0.0689079599631319 -0.0155996013588077 -0.2346761 0.8796097 -0.41378 177 177 177
-0.0230940393743368 0.0514328317893038 -0.0444002080864078 -0.2223963 0.9592996 -0.1740235 135 135 135
0.0620715804758218 0.032876236940671 0.0328950058513516 0.6744916 0.4257814 0.6031346 107 107 107
0.104622740334525 0.01758585741644 -0.0108030367797977 0.6421146 0.3597436 0.676959 142 142 142
0.00265844542409455 0.0711005764258394 -0.0220669437355167 -0.01604091 0.954681 -0.2971982 173 173 173
-0.0430387667951437 -0.0512062473046293 0.0510428320461148 -0.1354742 -0.8596755 0.4925493 74 74 74
-0.0531785897550436 -0.0535538358437528 0.0238955687576169 -0.283656 -0.9585224 0.02782207 56 56 56
0.0513432808580545 -0.069510237668704 0.00379065385397614 -0.1038095 -0.9443812 0.312038 120 120 120
0.100956101006523 0.0445817547095309 -0.0208640325969821 0.695775 0.3088752 0.6484545 128 128 128
-0.0544234923658224 0.0607284145606051 0.0330932210975522 -0.1017906 0.5156081 0.8507567 182 182 182
0.0773719139757303 -0.0244273109185209 0.0531806718402738 0.964861 0.1301034 0.2282899 185 185 185
-0.0926516465482565 -0.0402374429451933 0.0191580127769345 -0.8799748 -0.4725316 0.04856029 87 87 87
-0.000261288100227963 -0.0171988172280302 0.0590056847625607 -0.06330477 0.1756107 0.9824222 240 240 240
-0.0605231932935568 0.013269885088254 0.0475905310207242 -0.4544291 0.4102775 0.7906748 245 245 245
-0.0915651730832907 -0.0462248487221708 0.031363315492236 -0.9802436 -0.1977396 -0.00463766 49 49 49
-0.0207931808767172 -0.070492641423892 -0.0246597755855685 -0.07271011 -0.9285593 0.3639929 135 135 135
-0.00715092938517059 0.0720572309744845 0.0376000176959866 -0.08654577 0.5287003 0.8443849 119 119 119
0.0344133563699869 0.0667394237769137 -0.0362960625595218 -0.04833249 0.904397 -0.4239459 95 95 95
-0.0866764001188132 -0.0520035190331449 0.0241363417201871 -0.6600106 -0.6811118 -0.3169744 120 120 120
0.00256033617879425 0.0478112535727511 0.0506204735332364 0.05906397 0.5445802 0.8366265 142 142 142
-0.0875363759336325 0.0296544866812716 0.0262814532810086 -0.3751267 0.2213249 0.900164 168 168 168
0.0927853770914224 -0.00915779301996134 0.0138636004024381 0.4900197 0.4876442 0.7225537 118 118 118
-0.0150749496755453 -0.0489208860146513 0.0576212476783627 0.09569032 -0.9074549 0.4091074 148 148 148
0.0203352757158426 0.0136297779334078 0.0616788636737698 0.1085102 0.1921262 0.9753528 123 123 123
-0.0795015506086203 0.0417443351996432 0.0283157300048703 -0.47465 0.2031776 0.8564031 189 189 189
-0.0469769648847433 -0.055232779477786 0.0171965133243436 -0.314612 -0.939116 0.1381317 91 91 91
0.00710215050603424 0.0681515770209322 0.0381832789474362 -0.005911923 0.4379445 0.8989826 134 134 134
0.0907030888261942 0.0550793247473726 -0.0156978298133975 0.7113464 0.338952 0.6157093 123 123 123
-0.0572526864347311 0.0725701885474215 -0.00180663952294646 0.02996495 0.9794171 -0.1996103 167 167 167
0.0773719139757303 -0.0649553699242582 0.0100325416618222 0.8058619 -0.4372762 0.3992194 111 111 111
0.116075355595603 0.00868986418371298 -0.0203510452217227 0.877017 0.3103013 0.3668164 103 103 103
-0.0841867141065451 -0.0483116073357572 -0.0412252772754794 -0.9604305 -0.2580462 -0.1048112 51 51 51
-0.0348906926450583 -0.045401350949954 0.0598723959022397 0.1128684 -0.9513028 0.2868514 52 52 52
0.0581786223116068 -0.031991140340518 0.0640029679828519 -0.1623199 -0.05122425 0.9854077 160 160 160
0.0885076709451822 0.0119696693671236 0.00903538575705232 0.6993442 0.3979444 0.5937659 146 146 146
0.0668020435037759 0.0755802231085787 -0.0371261466449863 -0.1972389 0.9665904 0.1637065 143 143 143
-0.0570942572889181 0.0739877062094698 0.00444001665648164 0.04309349 0.9555642 -0.2916163 186 186 186
0.0480840392770914 0.0746060447943697 0.0240668129020566 0.6522946 0.4249788 0.6276184 177 177 177
-0.0813348702726218 -0.00661851594324014 -0.0467120934433108 -0.7815111 0.3744643 -0.499016 90 90 90
0.0964595862093118 -0.0364734096276274 0.00967008581694306 0.8754386 -0.3048482 0.3750665 27 27 27
-0.0994869880018088 0.00941263010625937 0.00412086358603181 -0.9780787 -0.1976051 -0.06568301 13 13 13
-0.00481818240259613 -0.0457981986748686 0.0597266029411191 0.06492004 -0.9177114 0.3919071 180 180 180
0.00295265395070587 0.0776443319571505 0.0322731803947324 0.1204624 0.5502076 0.8262932 187 187 187
0.0196562596025613 0.088634236360837 0.0186097692542905 -0.0827259 0.9330101 -0.3502122 184 184 184
0.0894355960550455 -0.0421224994408598 0.0175905596309537 0.7760574 -0.3757536 0.5065019 93 93 93
0.0450964160623697 -0.0712800187813749 -0.0291214216655856 0.03574457 -0.9969419 -0.06949154 47 47 47
0.0654666610422281 0.00353620817785361 0.0497365962558621 0.5602134 0.4491681 0.6959949 189 189 189
-0.100030224734292 0.012077315355588 -0.00785779246751128 -0.9947162 -0.09350992 -0.04237448 42 42 42
-0.027305167132363 -0.0144345922219267 0.0581279467635983 -0.09147707 0.2661202 0.9595895 243 243 243
-0.0285080484685751 -0.00229133794183634 0.0557513009601468 -0.008097123 0.1941031 0.9809477 108 108 108
0.0254051871957925 -0.0490193528878202 0.0431565414958829 -0.08287962 -0.8815303 0.4647959 164 164 164
-0.0450305156049582 -0.058492080663394 0.00674099436339082 -0.3126758 -0.9486336 0.04825208 62 62 62
0.0240019150438455 0.0685505705130587 -0.0254621435112125 0.05060633 0.9221514 -0.3835045 131 131 131
0.0353639312448648 -0.0181811017739286 0.0627327632003659 -0.09947731 0.02399406 0.9947505 50 50 50
-0.0292209796247336 0.0594842272055636 0.0400569211536282 -0.2993098 0.6489989 0.6994384 144 144 144
0.00523867089177643 -0.057003871892642 0.027886308341586 -0.04926051 -0.9576908 0.2835519 113 113 113
0.0373330898943094 -0.0636180801140775 0.0129552256160611 -0.02962642 -0.9401932 0.339351 59 59 59
0.00141360241796051 0.0334766941321383 0.0569551955753201 -0.07371799 0.2370488 0.9686968 133 133 133
