ply
format ascii 1.0
comment File exported by Rhinoceros Version 7.0
element vertex 474
property float x
property float y
property float z
property float nx
property float ny
property float nz
property uchar red
property uchar green
property uchar blue
end_header
0.0391747523819252 -0.0128535965514476 0.0220747624718147 -0.01085525 -0.5182614 0.8551533 101 101 101
-0.0615516136611656 0.0296254416870778 0.0471623574577766 0.009352635 -0.5115524 0.8592012 156 156 156
-0.0225444267715171 -0.0570310095382029 -0.0210492129243416 0.2636179 -0.8228155 -0.5034682 28 28 28
0.0551476050888344 -0.0291486719680125 0.0122074221455055 0.02022285 -0.5126814 0.8583408 127 127 127
0.0748393107925698 -0.0164544323516185 0.01998952377667 0.006444037 -0.511961 0.8589845 69 69 69
0.0201351214920327 -0.00308654103997297 0.0277644430481392 -0.001113688 -0.5138643 0.8578708 139 139 139
-0.041892332884188 -0.0655870178771312 -0.0158898199714226 0.3149872 -0.8853846 -0.3418733 36 36 36
-0.0665140579665855 0.0152293702530568 0.00384489048351819 -0.9868717 0.159858 -0.02301582 33 33 33
0.022696929124479 0.0311410685944264 0.0483017300449806 0.006791758 -0.5129066 0.8584176 126 126 126
0.0824751426254555 0.00358333791968279 0.0257637535416084 0.8249368 0.327086 0.4609708 33 33 33
0.012396054414396 -0.00244161878350324 0.0281227563702064 -0.07677279 -0.4655624 0.8816789 89 89 89
0.0518369246994301 -0.00539395604851789 0.0264172886692482 -0.001178006 -0.5125504 0.8586563 221 221 221
0.0104541350876137 0.0515314599442189 0.0438947712265449 0.09106362 0.8855568 0.4555179 82 82 82
-0.0377216766799644 -0.0402629116607005 0.00487678099503094 0.1393141 -0.5815826 0.8014694 130 130 130
-0.0253820846999839 -0.0642541388106639 -0.0115903134263558 0.2350182 -0.9310579 -0.2791014 32 32 32
0.0347463656936928 0.0157810708450978 0.0391222869240242 0.004236688 -0.5182225 0.8552354 122 122 122
-0.0467505882705406 0.0298857947754567 0.0471408699833351 0.06112533 -0.4797844 0.8752546 115 115 115
0.0123416949783608 -0.0405982473922069 0.00535831201901013 -0.009731432 -0.5246636 0.851254 116 116 116
0.0379495193039223 0.0484787484574025 0.0349732970081764 0.3880237 0.7257642 0.5680703 101 101 101
-0.0235119293655113 0.0656337996887868 0.0368220840774971 0.4756627 0.7766151 0.4130545 46 46 46
0.0125610400711342 0.0189197322296804 0.0409066115700203 -0.009369909 -0.5216082 0.8531337 157 157 157
-0.0833394955123619 -0.0364041069579417 -0.0200065935767693 -0.9549532 0.2967532 0.001377945 35 35 35
-0.00921611294400249 -0.0337061623168284 0.00924077976574475 -0.001067823 -0.5180853 0.8553283 129 129 129
0.0621342231308266 0.00679507459875994 0.0338124071442085 -0.0008909214 -0.5123997 0.8587466 109 109 109
-0.060853047224398 -0.0664683321547801 -0.0293687547362847 0.4292471 -0.7761 -0.4619694 55 55 55
-0.0684631298507408 0.0516604443955129 0.0547509824120002 -0.9932077 0.1138493 0.02401721 61 61 61
-0.0394845436538414 -0.0547307470870311 -0.0321347678817314 0.364917 -0.7521102 -0.5487858 34 34 34
0.087436633256559 0.0109011193680471 0.0103371476017433 0.8635991 0.3577172 0.3552957 57 57 57
0.0578991939102456 0.0405533572601979 0.0330098604046302 0.7048429 0.4736974 0.5280221 51 51 51
0.0309497882400795 -0.0605995396209056 -0.0069726521886391 0.08027735 -0.920607 0.3821495 179 179 179
-0.00730995640408549 -0.0471851566863353 -0.0420021231092018 0.09993163 -0.7753519 -0.6235728 84 84 84
0.0288130809341713 -0.032760236604243 0.00995019424786145 -0.009994905 -0.5100093 0.8601108 166 166 166
-0.0692799519027427 0.0487152596878713 0.0270836984001594 -0.8929433 0.4312319 0.1291951 28 28 28
-0.0721178482497886 0.0418145915436452 0.0249984299026924 -0.9340558 0.3563719 0.02321411 26 26 26
-0.0538161228622154 0.0498832723068898 0.0591364835583168 -0.001291082 -0.4899929 0.8717254 119 119 119
0.0599200297867104 0.0273682137894338 0.0428413783394294 0.6990788 0.385619 0.6021518 38 38 38
-0.00574211582791362 -0.038207743508845 0.00663097549309308 -0.0172266 -0.5125953 0.8584575 124 124 124
0.0962507297073647 -0.00234136377099103 0.00110754717220837 0.8996674 0.3450577 0.267458 57 57 57
0.0496010352646157 -0.0395749548507029 -0.0114183391250176 0.582473 -0.687283 -0.4340131 63 63 63
0.0806865264450356 -0.0421117285323436 0.00448982764114911 -0.005830646 -0.5138416 0.8578652 157 157 157
0.0427076388870522 0.013280179159612 0.0376103257023292 0.008877817 -0.5262404 0.8502895 95 95 95
0.0665950347458169 0.0192636510300344 0.0390578245006996 0.6960005 0.139851 0.7042905 39 39 39
0.0373475123916909 -0.0284392574858958 0.0127448772274452 -0.02203798 -0.4382527 0.8985816 232 232 232
0.0388738681350991 -0.046260688645869 -0.0238223935283226 0.3361681 -0.7794302 -0.5286584 77 77 77
-0.0759442280257896 -0.0183784702849681 -0.0170076901830239 -0.9135055 0.3350776 -0.2307179 42 42 42
-0.0110755394424156 0.0494462510513967 0.0570404862247902 0.343689 0.5652075 0.7499456 115 115 115
0.0625426341568276 -0.0433155039382274 -0.00453912865291065 0.01401037 -0.698791 -0.7151887 69 69 69
-0.0297675560439781 0.0140613576340383 0.0378646885239082 0.01719662 -0.5311597 0.8470972 219 219 219
-0.0273814629043296 0.0232407113480275 0.0434325372063118 -0.0065199 -0.5090049 0.8607389 237 237 237
-0.0297460983718589 0.0641290208267873 0.0483017300449806 0.05412463 0.8606306 0.5063452 169 169 169
0.0240191985641762 -0.0554401615691478 -0.0167927111304802 0.125403 -0.8463212 -0.5177011 62 62 62
0.0644058753525063 -0.0231508949828441 -0.0262372757113976 0.04346475 -0.7444109 -0.6663057 53 53 53
-0.00321821674954448 0.0626887341904347 0.0248909627281624 0.2926774 0.8057477 0.5148888 136 136 136
0.0628759433304116 0.0168452521729177 0.0400466953598457 0.1114305 -0.3959755 0.911475 97 97 97
0.064642148164396 -0.0184572676253612 0.0188573037468391 -0.01322166 -0.5113139 0.8592923 100 100 100
-0.0517209003890708 -0.0606167057586009 -0.0326922650254769 0.4719558 -0.7512363 -0.4614129 46 46 46
0.0168067981277749 0.00933184828040057 0.0351990197979408 0.08258836 -0.5534057 0.8288072 196 196 196
0.0883912612472817 -0.00886795316460676 0.0232356523357826 0.6232263 0.03382676 0.7813097 69 69 69
-0.0497689674819664 -0.0502463320327098 -0.000592198482851441 0.010486 -0.5178011 0.8554368 95 95 95
0.00448508754122701 -0.048102352960139 -0.0341340268767876 0.2057965 -0.9431323 -0.261054 68 68 68
-0.0586388538802818 0.0740822812485402 0.0331674848877388 -0.6295844 0.7629074 0.146955 63 63 63
-0.00543241009366069 -0.0119721630645091 0.0225477253281074 -0.02867729 -0.5090298 0.860271 223 223 223
0.0886978675400063 -0.0366799572539622 0.0078291033588844 -0.0217231 -0.5133289 0.857917 112 112 112
-0.0619709919418052 0.0676975509094899 0.0361341272674995 -0.8793424 0.4719343 -0.06352019 76 76 76
0.0347463656936928 -0.0425415972304637 -0.0329230095065636 0.3052348 -0.9284848 -0.2115365 62 62 62
-0.0682051609481529 0.0564328690933888 0.0586635505043464 -0.9975943 0.003457143 0.06923646 60 60 60
0.0711524058853432 0.038923170225591 0.0121321712814766 0.7926881 0.442224 0.419623 41 41 41
-0.0550702045882896 0.0158885976242726 0.0388428305469947 -0.005594251 -0.5190142 0.8547473 110 110 110
0.103817896989469 -0.0139499643874461 -0.0225540364898247 0.9434037 0.2685672 0.1945796 61 61 61
-0.0536299179519371 -0.037124250276118 0.00685455251564557 -0.06523953 -0.5533668 0.8303788 130 130 130
0.0264160205398842 -0.0407358149123485 0.00526371944775159 0.000987635 -0.517074 0.8559401 240 240 240
0.0244276095901772 -0.0556550959182078 -0.0165777469790978 0.125403 -0.8463212 -0.5177011 22 22 22
-0.0161381195510581 -0.01898035798791 0.0179472600304084 -0.006285125 -0.5011079 0.865362 167 167 167
-0.0169980953658775 -0.0019544104171092 0.0284810398899513 -0.008615801 -0.5224181 0.8526459 149 149 149
0.021267371324186 -0.0154977778029735 0.0204409693561989 0.003336994 -0.5186806 0.8549616 184 184 184
-0.0654104183639244 0.0328716298508351 0.00762845922340924 -0.9941137 -0.006693485 -0.1081349 42 42 42
0.0993463565384194 -0.00690958295586652 -0.0044961388028664 0.9717388 0.1808389 0.1517269 61 61 61
0.0644344855819985 0.0213661452698415 0.0418524776779609 0.4880508 -0.1254737 0.8637492 100 100 100
-0.045174164625521 0.0256340762543386 0.0446471606575447 -0.01035928 -0.4518591 0.8920292 99 99 99
-0.0836060474837974 -0.03843996320489 -0.00829688858161395 -0.9496731 0.1986884 0.242165 77 77 77
-0.0461056660140708 0.00905242170569354 0.0284380351387458 -0.1504315 0.5813867 0.7995998 108 108 108
-0.0375068615401939 0.0308221837448781 0.0476854776226478 -0.03199532 -0.4939842 0.868882 84 84 84
-0.0786099861587242 -0.0222694614959056 -0.00888162504802173 -0.9483599 0.2312472 0.2171134 53 53 53
-0.0654104183639244 0.0265513917374318 -0.00131450246940082 -0.9977858 0.06555086 -0.01124989 29 29 29
0.00535936847079244 0.0483068486618703 0.0500215326630073 0.1082693 0.8814471 0.459705 84 84 84
0.0324675609146401 0.0412556191849416 0.0487316881500679 0.34882 0.7011742 0.6218354 56 56 56
0.0527684260879799 0.0273826381134694 0.0463526283585029 0.0791261 -0.4523286 0.8883343 97 97 97
-0.0550487469161705 -0.0572889784407908 -0.0051195586837334 -0.009348766 -0.510639 0.8597444 88 88 88
-0.0453749130691246 -0.0291129091811473 0.0117273067318397 0.003928877 -0.5164316 0.8563194 123 123 123
0.0947136451278969 -0.0471958855223948 0.00169514466156537 -0.042767 -0.74124 0.6698763 107 107 107
0.0533847381149575 -0.0175615290236766 0.0193660889946418 -0.01442197 -0.5100445 0.8600271 151 151 151
0.0633379985367104 -0.0480664709639842 0.00107172478069836 0.01814827 -0.8518905 0.5234054 108 108 108
-0.069684309812899 0.0436719914841359 0.0497463678204017 -0.9875375 0.1206941 0.1010078 54 54 54
-0.0765891502822593 -0.0246127585006053 -0.0283798689759774 -0.883815 0.3588312 -0.3001854 58 58 58
0.0793106128250405 -0.0104530790877635 0.0236512755238014 -0.003979819 -0.5194822 0.854472 113 113 113
0.0637464095627114 -0.0337276199889476 -0.0155028666175408 0.001344003 -0.7388155 -0.6739064 61 61 61
-0.0266719292129234 -0.0480450132918651 0.00079225350250775 0.002355685 -0.5050951 0.8630605 135 135 135
-0.067667765470858 0.055637504713506 0.0389933024727302 -0.9667929 0.2413738 -0.08396541 64 64 64
-0.035615010115023 0.0742758771347707 0.0302223597847419 0.08045796 0.890981 0.4468549 75 75 75
-0.0749016235793785 0.0257559081482595 0.0273631845795112 -0.9878028 -0.08568149 -0.1300167 53 53 53
-0.0614979694808677 -0.0676507690978343 -0.01107437562118 0.002348315 -0.5085596 0.8610235 140 140 140
-0.0126555393661216 0.058152701513738 0.0375529860340553 0.4525095 0.808547 0.3761475 89 89 89
-0.0171699951614097 0.0458131095337575 0.0568362509094673 0.07693067 -0.4879944 0.8694499 109 109 109
0.0531696845566079 -0.0282673576903636 -0.0239728803552193 0.4824978 -0.6237518 -0.6149224 35 35 35
-0.0372057388747886 0.0147706529068654 0.0385418568932014 -0.02264486 -0.5159665 0.8563094 146 146 146
-0.0599930714095787 0.0681275388168996 0.0235366259895759 -0.9090506 0.4018835 -0.1100752 56 56 56
0.0181717444931313 0.00862243379828387 0.0293409262978035 0.2704106 -0.1382066 0.9527733 180 180 180
-0.0615840385879234 -0.00909147058251447 0.0194090937458473 0.3137064 0.02904771 0.9490756 139 139 139
-0.0539308021987632 0.0285721084046071 0.0464529429756599 -0.001315618 -0.5099555 0.8601997 146 146 146
-0.079405350538607 -0.0273321608138377 -0.0203827882922692 -0.9239298 0.3825514 -0.002865091 57 57 57
0.0239760448013588 0.0524343511032765 0.0378969346367317 0.1027086 0.8751174 0.4728854 176 176 176
0.0590514709030434 0.0357092877793019 0.0354462300621467 0.7090178 0.4904712 0.5066872 55 55 55
-0.0485349129165367 0.023713733808965 0.0431853269421058 -0.04204175 -0.5313624 0.8461008 107 107 107
-0.0609391163314537 -0.0517855623793895 -0.0475771392501396 0.223074 -0.6562272 -0.7208355 46 46 46
0.030608134416227 -0.0460779408049876 -0.0265848303950829 0.2036716 -0.8735426 -0.4420873 72 72 72
-0.0633898209060386 -0.06625339780572 -0.0324930514014763 0.4153025 -0.7369439 -0.5333269 62 62 62
0.0923237372909829 -0.0285539368224437 0.0130458210789161 -0.02286072 -0.5185919 0.8547162 131 131 131
-0.0172560642684654 -0.0534623602462108 -0.0251767451680703 0.03844804 -0.9092129 -0.4145522 35 35 35
-0.0790830086196617 -0.0557840803695018 -0.045728352180819 0.03564658 -0.726988 -0.6857243 41 41 41
-0.0690651367629722 0.0479198953079885 0.0437442694984871 -0.9899011 0.1414595 0.009227041 61 61 61
-0.0731280277694419 -0.0732401350570018 -0.0265525842822594 0.03094528 -0.9280695 -0.3711192 45 45 45
0.0643484164749428 0.0488871594834035 0.0141207014404731 0.8080672 0.3478392 0.4754317 29 29 29
-0.0694089363540367 0.00208714212653094 0.00775744367470318 -0.9857153 0.1143442 0.123656 13 13 13
-0.0420856903518394 0.0609903594422048 0.0581260954224067 0.2541691 0.862983 0.4366444 109 109 109
0.0308553744827553 0.0522623320984548 0.0356612240158516 0.3419865 0.7824943 0.5203344 126 126 126
0.0974115897690102 -0.029557202203303 -0.0279714132464928 -0.3592103 -0.7742057 -0.5211272 49 49 49
0.0757851172958657 0.0246166249680226 0.0160984729610878 0.8174203 0.406629 0.4080158 24 24 24
-0.0590687225784019 -0.0307610968184764 0.0107455884300666 -0.0502391 -0.4993484 0.8649435 159 159 159
-0.0190961788619712 -0.0512008408141429 -0.0301297570384545 0.003450534 -0.9209126 -0.3897538 35 35 35
0.100163178590421 -0.0438314417434031 0.00195311356415326 0.706755 -0.4032519 0.581279 59 59 59
-0.0513725708450035 0.0148136874603932 0.0381119285904365 0.001260094 -0.5251905 0.8509837 96 96 96
-0.0290689896072105 -0.0429070929122264 0.00369441855778271 -0.002851113 -0.491671 0.8707764 124 124 124
-0.0271521042312339 -0.055060360772639 -0.0264952446139855 0.1859365 -0.810986 -0.5547336 35 35 35
-0.0587032268966392 -0.0477440098357493 -0.00651690017352527 -0.2399505 -0.1980957 0.9503588 150 150 150
-0.0139453838790611 0.0605603715347951 0.0351165865742164 0.4813222 0.7657759 0.4265165 71 71 71
-0.00348333820950542 -0.0499797800612742 -0.0360974634803337 0.2394601 -0.9508613 -0.1962694 82 82 82
-0.0652385185683921 0.0394069215225881 0.053009692319532 -0.1176687 -0.5046195 0.8552855 121 121 121
-0.0270245502914146 0.0154843589234059 0.0389718149982887 0.006369212 -0.5156934 0.8567495 188 188 188
-0.0512650440658287 -0.0252146462035472 0.0140347217403846 -0.04001938 -0.4758335 0.8786244 155 155 155
-0.0688500832046226 0.00759055818793231 0.00117920685638959 -0.965516 0.2469844 0.0823264 78 78 78
-0.0686924885238365 0.00988366808173113 -0.00476842772136157 -0.9512819 0.2651585 0.157333 49 49 49
-0.0461488197768882 0.0422445794510549 0.0549659763657051 0.006800314 -0.5073949 0.8616868 75 75 75
-0.0434544514144615 0.0460137387680715 0.0567860936008888 0.0007775877 -0.523549 0.8519952 104 104 104
-0.0658405254806236 -0.0194103458953196 0.0175173019253212 -0.007992781 -0.525994 0.8504507 98 98 98
0.0379709769760415 0.0558524390625661 0.0268687044464546 0.3596534 0.6849498 0.6336349 70 70 70
0.0796975661789223 0.0256054660248464 0.00831637132992322 0.8205104 0.4129135 0.3953037 55 55 55
-0.0377648304427818 0.00752606596228533 0.0339413915955024 -0.111742 -0.5376216 0.8357492 153 153 153
0.016487794068937 0.0540825387406056 0.035876188167234 0.06705457 0.9217072 0.3820465 101 101 101
0.047043042329435 0.0216068288254445 0.0427553688370186 0.00594267 -0.5223734 0.8526961 94 94 94
-0.0283487270797447 -0.0494208077025706 -2.46579564613658E-05 -0.002382974 -0.5262643 0.8503177 100 100 100
-0.0844142864669517 -0.0438314417434031 -0.0262086207784218 -0.9929265 0.08639187 0.08144511 23 23 23
-0.0337660740340904 -0.0504097679686839 -0.000712570062975343 -0.01194577 -0.5177624 0.8554411 90 90 90
0.0349182654892251 0.0221228858399098 0.0426908766113716 -0.009003217 -0.5228804 0.8523585 80 80 80
0.0974115897690102 -0.0338566044402415 -0.0224250520385308 -0.2814371 -0.7469323 -0.6023996 80 80 80
0.093971924928312 0.00307610239264422 -0.000669580212931092 0.8605597 0.4450181 0.247782 43 43 43
0.000687079576139116 -0.0452073553633983 0.00231141198505933 0.01002914 -0.527036 0.8497838 80 80 80
-0.0279188583816246 0.0134593507218068 0.0376174782597023 -0.01150433 -0.5103062 0.8599158 172 172 172
-0.0415053795303062 0.00363507475134783 0.0310177539669471 0.05012451 -0.434053 0.8994918 93 93 93
0.00435610308993306 0.0393208524155324 0.0530025397621589 -0.005657331 -0.5049386 0.8631367 127 127 127
0.0630585719620034 0.0417715569901174 0.0217738186203437 0.7880868 0.4260474 0.4443003 27 27 27
0.00204868808138814 -0.0518070200515086 -0.0260581339515251 0.06604164 -0.9083782 -0.4129013 53 53 53
-0.0598640869582847 -0.0544943550658519 -0.0442235286153359 0.2936701 -0.6905568 -0.660976 82 82 82
-0.0756004284347251 0.0207326671051686 0.0373523269974189 -0.9648759 -0.2378507 0.1115414 85 85 85
-0.0699537228072837 0.013552453176946 0.0373953317486244 -0.1524707 -0.4834555 0.8619881 88 88 88
-0.0176287125076011 0.0598007699417775 0.0435866152130562 0.5363374 0.8377398 0.1026363 66 66 66
-0.051308197828646 -0.0474860409331614 0.000921237953801696 0.01955869 -0.5192567 0.8543945 92 92 92
-0.0649805496658042 0.0591272374558156 0.0179902647816139 -0.8660305 0.4981045 -0.04339405 61 61 61
-0.07422451481473 0.0216928979325002 0.028008106835981 -0.9909372 -0.0759939 -0.1107625 94 94 94
-0.0495024155105308 0.0381599923538869 0.0522286032520729 -0.01345643 -0.5122702 0.8587189 103 103 103
0.0030805636917397 -0.0594386795592601 -0.00617293666968768 0.007384362 -0.7037616 0.7103979 88 88 88
0.0806722213302895 0.0119617244171804 0.0215875243030983 0.7190504 0.5681992 0.4001452 56 56 56
-0.024436278196688 0.00475290025946551 0.0323935781799751 0.005529964 -0.5021907 0.8647392 133 133 133
0.0425660182510659 -0.0465616921019847 -0.0143419916547341 0.6939917 -0.6389784 -0.3317861 46 46 46
-0.0357118080581382 0.00504305567023211 0.0321571265541511 -0.09266192 -0.5001272 0.86098 89 89 89
-0.0587246845687583 0.0622802039551442 0.0601038669430214 0.1504661 0.9146306 0.3752477 204 204 204
0.0111062099014565 0.0220225116181081 0.042798373588224 0.0008685989 -0.5083764 0.8611345 173 173 173
0.0886835624252602 0.00320496763464861 0.0137122308098274 0.8675856 0.3484182 0.3548239 54 54 54
0.0506867934738442 -0.0246342161727244 0.0148623620354133 -0.01063624 -0.5277867 0.8493104 94 94 94
0.0286912490402504 0.00958266462561541 0.0354318951450782 -0.02893321 -0.4913886 0.8704597 154 154 154
0.00862689509737935 -0.0206249693465526 0.0172055994354683 -0.02032933 -0.5144079 0.8573046 86 86 86
-0.0752349327529624 0.0234127303528493 0.0314261947952705 -0.9875399 -0.09884734 -0.1224506 80 80 80
-0.0840702484573081 -0.0393169859481151 -0.0296912158645195 -0.8975253 0.4159387 -0.1464358 82 82 82
0.0244061519180581 -0.0318358877730662 0.0105521117531257 0.01065895 -0.5102821 0.859941 107 107 107
0.0842980910812661 -0.0280953386855418 -0.0237149114526314 -0.1389708 -0.7536807 -0.6423804 49 49 49
-0.0551562736953453 0.00617161001440936 0.0331459974132972 0.003609014 -0.5051332 0.8630339 116 116 116
-0.0396349857772544 -0.0186148623061473 0.0182482038818794 -0.008880803 -0.5191557 0.8546335 99 99 99
0.0244204570328042 -0.0546232203078563 -0.00306297492156452 -9.795988E-05 -0.5263438 0.8502718 146 146 146
0.0145387221847817 -0.0281382540297801 0.0125728880249458 0.00570851 -0.5167767 0.8561012 158 158 158
0.0992748309646889 -0.00490674768212385 -0.0141986722863716 0.9573007 0.2747846 0.08982646 58 58 58
0.037038045076017 0.0454949399399465 0.0396511291347938 0.4260602 0.722647 0.5442923 72 72 72
-0.0680761764968589 -0.00612482820275373 0.0190221403919655 -0.04443129 0.6727699 0.7385164 154 154 154
-0.0515661667312339 0.0703633090424245 0.0399607156597572 0.09037143 0.8794986 0.4672421 198 198 198
0.0488702823196694 0.00214448179480486 0.0310463939987617 -0.0319011 -0.4784162 0.8775535 189 189 189
0.0963797141586586 -0.0315779188704783 -0.0244888181603951 -0.3323582 -0.7439404 -0.5797333 63 63 63
-0.00150565609585795 0.013423468725652 0.0376389657341438 -0.003417028 -0.5261909 0.8503596 189 189 189
0.0209557582413002 -0.0283425787520701 0.0128631030403572 -0.04065242 -0.476915 0.8780088 226 226 226
-0.0669582317794517 -0.00515029226067609 0.0260016654812294 0.007109059 -0.5118432 0.8590495 166 166 166
-0.0692370365585044 -0.0582492092681224 -0.00585764299998706 -0.04620532 -0.4959872 0.8670996 85 85 85
-0.0801577995742515 -0.034458611352473 -0.0300351793683571 -0.8897867 0.4046147 -0.211108 66 66 66
0.0961074401413247 -0.00621804986718244 0.00568652499546582 0.8908903 0.3188558 0.3234895 53 53 53
-0.0104413460220054 -0.0107682684493358 0.0229346786819893 -0.003253295 -0.5185382 0.8550482 185 185 185
-0.0156007240737632 -0.051312539918452 -0.0312605316556496 -0.1312571 -0.9213923 -0.3657974 18 18 18
-0.0748265217269615 0.0191991588043874 0.0340703760467964 -0.9907829 -0.1263187 -0.04891572 102 102 102
-0.0732462833846763 -0.0261713007521922 0.0132392977558571 -0.2715526 -0.4675672 0.8412135 86 86 86
-0.0301115940536216 0.0181672831940358 0.0407346223675209 -0.01448725 -0.5417442 0.8404185 243 243 243
-0.0594771336044029 -0.0162071922850902 0.0193876062714058 -0.005092918 -0.5110345 0.8595451 91 91 91
-0.0405164192641929 -0.0169166067672069 0.0107671057068306 -0.08605333 -0.7674233 0.6353394 149 149 149
0.0548035670791909 0.0277982016968434 0.0464744602524238 0.2925692 -0.3448275 0.8919065 109 109 109
-0.0028098057235435 0.0614632626938527 0.0273631547771888 0.2922436 0.805523 0.5154865 104 104 104
-0.0335870216811851 -0.0222767332625682 0.0158906613670784 0.05734999 -0.5622123 0.825002 131 131 131
0.043775277284269 -0.0479589441848094 -0.010687407366137 0.6230153 -0.6842241 -0.3790636 68 68 68
0.0895435382400795 -0.0356194714141185 0.0086603348337608 -0.02353757 -0.518767 0.8545916 103 103 103
-0.0155706833327964 0.059132959501714 0.0414913331352668 0.5323513 0.8264685 0.1831717 61 61 61
-0.0492358635390953 0.0714037677216237 0.0376389657341438 0.05190943 0.8795795 0.4729116 93 93 93
-0.00727061733853374 -0.0511299112868602 -0.0306371117747826 0.2563381 -0.9282125 -0.2696524 54 54 54
0.0185586978470131 0.0581956168579763 0.0283090506874519 -0.05696429 0.836657 0.5447569 114 114 114
0.0397982169662758 -0.0334267357421214 0.00986418474545056 0.007752479 -0.5134646 0.8580757 150 150 150
-0.0125265549148277 0.0643009206223195 0.0282230709873634 0.4149822 0.7042811 0.5760016 70 70 70
0.0857169200454995 0.0188552400040334 -0.00105653356681293 0.8518597 0.4717135 0.2276431 37 37 37
-0.0760302971328453 0.000281359808415704 0.0262883042179542 -0.8992766 -0.1739476 0.4013027 80 80 80
0.0528902579819008 0.0307864209580129 0.0482157503448921 0.195506 -0.1695614 0.9659329 172 172 172
0.023718075898771 0.0464580317902272 0.0486886833988624 0.2465254 0.6842963 0.686268 41 41 41
0.0476662684952065 -0.0452073553633983 -0.00853766154418414 0.6127293 -0.6186592 -0.4917557 90 90 90
-0.0665283630813316 0.0409546157288259 0.0117989813171821 -0.9863945 -0.04959542 -0.1567363 78 78 78
-0.0682480762923912 0.0519184132981008 0.0576316748939949 -0.8433882 -0.1173647 0.5243299 112 112 112
-0.0629167984451011 0.0239572783875173 0.0437442694984871 -0.01071682 -0.5110841 0.8594639 141 141 141
-0.0753996799911216 -0.0743722656798655 -0.014994081369738 -0.03524991 -0.724202 0.6886863 128 128 128
0.0707332660232827 0.021520998136968 0.0274061595283943 0.8017541 0.4414217 0.4029109 35 35 35
-0.00358371243130717 -0.0510546902251536 -0.0287023301042122 0.1757547 -0.9156153 -0.361606 57 57 57
-0.0585742424453453 -0.0733691195082957 -0.0158898199714226 0.4820848 -0.8743811 -0.05524497 71 71 71
0.058501200822477 -0.0264399984908397 0.0136907731377083 0.0001565673 -0.5323718 0.8465106 67 67 67
-0.04270915493619 -0.0112843254638011 0.0224617456280189 -0.008991461 -0.5292814 0.8483987 114 114 114
0.000328974870328569 -0.00836059842827863 0.0242245231949287 -0.05034793 -0.5440036 0.837571 233 233 233
-0.0727913807357505 -0.00249895845177717 -0.0145569707072777 -0.9896412 0.1393107 -0.03468107 82 82 82
-0.068635029646273 0.0534088870453542 0.0573307012402015 -0.991383 0.06756535 0.1122261 58 58 58
-0.0530925224746421 -0.0609864929747874 -0.00750578593383258 0.03319027 -0.5137002 0.8573276 82 82 82
-0.00562600597989116 -0.0227209070754344 0.0160554682098823 -0.02646564 -0.5038005 0.8634145 119 119 119
-0.0679042767013267 0.0538101455139821 0.0542565618835884 -0.9793512 0.1983024 -0.03933783 72 72 72
-0.0276179741347984 0.0555730124878591 0.062253597863813 -0.03381478 0.29719 0.9542194 220 220 220
-0.0651812981094078 0.0633263846802419 0.0454067324482399 -0.9357499 0.3307537 -0.1223685 72 72 72
-0.00109009251248393 0.0182962676453298 0.0406056379162269 -0.01587644 -0.5110766 0.8593885 237 237 237
-0.0712256859267906 0.00962200369116717 0.0350377892338234 -0.3357043 -0.4541377 0.8252646 174 174 174
0.039012150910978 -0.0446423033309276 -0.0263437445081276 0.3167665 -0.8291386 -0.4606389 63 63 63
0.0228583385025307 -0.0132620075774486 0.0214728449665504 0.004362571 -0.5074908 0.8616462 123 123 123
0.0589739848648354 -0.0228212812972362 0.0160554682098823 -0.0009078346 -0.5316544 0.8469609 123 123 123
0.0423349906479165 0.049224044935674 0.0313617025696235 0.3229631 0.7332548 0.5983579 48 48 48
-0.0431929062331871 -0.0251501539779002 0.0140884553276497 -0.009572123 -0.4140825 0.910189 124 124 124
-0.0671990345443443 -0.0760949591231639 -0.0207138622916741 0.2100749 -0.8792927 -0.4274492 57 57 57
0.0206913520370766 0.0259064694809621 0.0452404950939613 -0.009833539 -0.5164717 0.8562478 120 120 120
0.07909579768527 -0.0361354092192943 -0.0135680849469704 -0.1176412 -0.7727238 -0.6237456 38 38 38
-0.0335405300582603 0.0707931777405446 0.0374132429443794 0.1581345 0.8851969 0.4375157 170 170 170
-0.0650020073379234 0.0659133454727834 0.0523217951141792 -0.4093786 0.8751445 0.2579367 193 193 193
-0.0538018177474693 0.0229827424454396 0.0430993472420173 0.01176098 -0.5190517 0.8546619 108 108 108
-0.0520389507735923 -0.0207001904082591 0.0101651583992439 0.3526008 -0.2992761 0.8866265 148 148 148
-0.0709395836318687 0.0376612206864064 0.0415429209553199 -0.9530503 0.2705165 0.1360735 55 55 55
-0.067818207594271 0.0159315129685109 0.0386708711468177 -0.0098752 -0.5242755 0.8514915 108 108 108
0.0749251414810463 0.015673544065923 0.0265032683693367 0.7838355 0.5155296 0.3461664 52 52 52
-0.0436549614394859 0.0658487340378469 0.0458080207191902 0.07796082 0.8829618 0.4629262 173 173 173
-0.0488143394912437 -0.00216934476616926 0.0277931128822761 0.0004563235 -0.50707 0.8619047 152 152 152
0.0411634017502114 0.0437493583130544 0.0400574539982277 0.1944898 0.7809556 0.5935336 90 90 90
-0.0550144146407798 0.0712662002014821 0.0392985974632698 0.1055677 0.9051455 0.4117853 123 123 123
0.010830359605436 0.00204422678229266 0.0308135186516243 0.006180779 -0.5262337 0.8503175 234 234 234
0.021293120530729 0.048633601324529 0.0456274484478431 0.1488954 0.853888 0.4987037 125 125 125
-0.0394845436538414 -0.0510546902251536 -0.00131451737056201 0.02315599 -0.5362674 0.8437304 142 142 142
0.0607583095108315 -0.0287188032698924 -0.0213071967280907 0.1223292 -0.7602237 -0.6380404 70 70 70
0.0497588683639809 -0.0361497143340404 -0.0219807739175362 0.6109139 -0.6991578 -0.3714332 40 40 40
-0.0474172066177085 0.0748777648377126 0.0313079689823585 0.009653525 0.9006521 0.4344336 111 111 111
0.013356404451017 -0.0580628851485545 -0.00514106105933612 0.03674452 -0.6509137 0.758262 98 98 98
0.00499387278902974 0.0307648440766042 0.0478073095165687 -0.001492021 -0.511986 0.8589925 150 150 150
0.0400561858688637 -0.0442830065322215 -0.0267030562079949 0.4069323 -0.8053548 -0.4310566 53 53 53
0.0445134212051674 0.00324800218817645 0.031505021937986 0.05446751 -0.5065661 0.8604789 216 216 216
-0.0272739361251548 0.0649888774323171 0.0467539166294532 0.1292885 0.8671062 0.4810523 165 165 165
0.0445620585953042 0.056020166532964 0.0236139928184944 0.2564758 0.6940601 0.6726817 102 102 102
-0.0848012398208335 -0.0488619545531566 -0.0107734019673867 -0.9983816 -0.004695775 0.05667646 91 91 91
0.0351261664902016 0.0552362462448781 0.0295774077259498 0.3614393 0.7038267 0.6115468 95 95 95
0.0342411567245766 0.0490161439346974 0.0375314985596138 0.5226376 0.7055076 0.4786533 58 58 58
-0.0535438488448814 0.0397364159989064 0.053016844876905 -0.01022588 -0.5129749 0.8583427 140 140 140
0.0630800296341225 0.049639608519048 0.0159372423969703 0.7998728 0.3497668 0.4877159 37 37 37
0.0100242663894936 0.0626455804276174 0.0206989382587867 -0.04379956 0.7996925 0.5988101 63 63 63
-0.060036225172396 -0.0454653242659862 -0.00337826859126514 0.2255795 -0.6134529 0.7568286 152 152 152
-0.069581074568148 0.0457271596359914 0.0463669632755714 -0.9848602 0.173291 0.004544311 83 83 83
0.0226862002884194 0.0245878955292409 0.0442458723865944 -0.01012021 -0.5246195 0.8512767 157 157 157
-0.0176001022781089 -0.0586647728514964 -0.0165132398522896 0.1645265 -0.8341298 -0.5264585 56 56 56
-0.00312785610806499 -0.0243633726668651 0.0150322054707008 -0.01299602 -0.5239961 0.8516215 124 124 124
-0.0274458359206871 -0.0104387739730174 0.0230636631332832 -0.004752774 -0.5073926 0.8617019 100 100 100
0.00851507678378072 0.00983491148230486 0.0353688334309059 -0.01818478 -0.5132647 0.8580377 107 107 107
0.0702173282181069 -0.0382207373214061 -0.0101929719365639 0.005392024 -0.7233918 -0.6904167 29 29 29
-0.0751989315475181 -0.0541072825026805 -0.0476201291001839 0.06169489 -0.7468059 -0.6621742 24 24 24
0.0586731006180092 0.0211984177994435 0.0425618921600776 0.10265 -0.4408012 0.8917159 145 145 145
-0.0184169243301109 0.0620652696060842 0.0375099812828499 0.4649554 0.8034747 0.371813 66 66 66
-0.0111220310653404 -0.0514416435790355 -0.0347502942002816 -0.1176426 -0.9637084 -0.2396381 45 45 45
0.0265557338272377 -0.00118038450005598 0.0290829573952156 -0.0008016544 -0.5113988 0.8593431 122 122 122
-0.0656900833572105 0.0192207356857961 0.0408206020676094 0.02606765 -0.5618997 0.8267946 136 136 136
0.00630517497408833 0.0467804929184621 0.053246143945356 0.12319 0.7903036 0.6002036 111 111 111
0.0910913516556069 -0.0369523504805858 -0.0150299186624092 -0.1757455 -0.8305107 -0.5285503 42 42 42
-0.0235505531753257 0.0590555926727956 0.0556968783222633 0.1982286 0.8666648 0.4578183 170 170 170
0.060951905397062 -0.0415957907271678 -0.00604395221839374 0.01224852 -0.7348409 -0.678129 48 48 48
0.0932983924423501 0.00850775446173602 -0.00651690017352527 0.8951046 0.3652043 0.2557606 55 55 55
-0.0147910545791343 0.019958760397405 0.041422549375196 0.01601392 -0.5258036 0.8504552 133 133 133
0.0224713851486489 -0.016794774873286 0.0197028850399452 -0.007715741 -0.5137342 0.8579147 138 138 138
-0.0152209232772544 -0.0470990875792796 -0.0428476895011467 0.001207231 -0.8823191 -0.4706501 78 78 78
0.0341085959945961 0.047518517630071 0.0411072408043342 0.4987386 0.6684923 0.5517045 96 96 96
0.0924887229477211 -0.005479905946284 0.012185934671064 0.8328096 0.4190159 0.3617373 57 57 57
-0.0695379208053306 0.0370993873047536 0.0509960984074073 -0.7031052 -0.146184 0.6958975 184 184 184
-0.00315384373318706 -0.0583852270674998 -0.0138798023379845 0.01130993 -0.8509244 -0.5251663 21 21 21
-0.0329778622115806 0.0601017733978932 0.0557398830734687 0.05899748 0.874166 0.4820303 154 154 154
-0.0235226582015708 -0.040467117173701 0.00517773974766308 -0.01226396 -0.5146506 0.8573123 109 109 109
0.0685102511917397 0.00368657316443377 0.0319808160149055 -0.003118502 -0.5129525 0.8584113 149 149 149
0.0979489852463051 -0.0286541918349559 0.0128953491531807 0.6330625 -0.4566276 0.6250784 110 110 110
0.0362298060928627 -0.0577618816924388 -0.0103434587634606 0.5287643 -0.7492009 -0.3988812 58 58 58
-0.0109072159255699 0.0516604443955129 0.0519419943176704 0.4525253 0.8054466 0.3827227 53 53 53
-0.0409605930770591 0.0415852328705495 0.0540774201237159 0.01760416 -0.5132859 0.8580371 67 67 67
-0.0866787861312583 -0.0663035849166209 -0.0348506237185997 -0.6780922 -0.4663668 -0.5680607 73 73 73
0.0998909045730874 -0.0205281714034373 0.00153749037613446 0.9953242 0.06436659 0.07201859 52 52 52
0.0285551120315835 0.0557341834473317 0.0319098864876228 0.1159436 0.8016061 0.5865021 62 62 62
0.0106584598099038 0.0234450360703176 0.0434540544830757 0.000301543 -0.5100334 0.8601546 135 135 135
-0.043676419111605 -0.0610080698561961 -0.0267675484336418 0.3616428 -0.756377 -0.5450764 23 23 23
0.0812453795944497 -0.0270634630751903 -0.0233709479487938 -0.123475 -0.7484736 -0.6515682 54 54 54
-0.0476391743148521 -0.0487903097701365 -0.0448397959388298 0.1845492 -0.6970952 -0.6928202 51 51 51
0.0207728911911294 -0.0443904141021068 -0.0388276542342705 0.1378436 -0.8717809 -0.4701035 75 75 75
0.026985840943937 0.0351933499741262 0.0505804752193885 0.04784758 -0.3900947 0.9195307 140 140 140
-0.0416343639816001 -0.0621330479216868 -0.022855010143618 0.4529814 -0.7647333 -0.4582477 24 24 24
0.0607261230026528 -0.0442614296508128 0.00326446045269543 0.004405351 -0.5948983 0.8037889 135 135 135
-0.0408604572738365 -0.0566010216307933 -0.0304651225722832 0.3674736 -0.7315391 -0.5742941 54 54 54
-0.0274029205764488 0.0512447616028493 0.0600537096344429 -0.005734469 -0.4220487 0.9065551 126 126 126
0.0152480174576088 0.00899508203741961 0.034801307805677 0.09366381 -0.539001 0.8370813 181 181 181
-0.0619063805068687 -0.0190233925414378 0.0177322660767036 -0.02264695 -0.5246443 0.8510203 145 145 145
0.0674655009781167 -0.0201626757216746 0.017667803653379 -0.005924358 -0.5113918 0.8593273 63 63 63
-0.0620568226302818 -0.0105533341002757 0.0231066678844886 0.01240026 -0.5097315 0.8602442 116 116 116
-0.0699251125777915 0.00127032007452899 0.0012508665405708 -0.9697301 0.1956273 0.1461285 50 50 50
-0.0662489365066246 0.059055473463506 0.0514833663784462 -0.982581 0.1744945 -0.06392334 68 68 68
0.0485434104477211 -0.0162545183730418 0.0200970207535225 -0.01359582 -0.5276622 0.8493455 212 212 212
0.0161294509445473 0.0356340667175954 0.0508276854835945 -0.008130833 -0.515247 0.8570032 98 98 98
-0.0738804768050865 -0.0647700766158397 -0.00978451620707935 0.005597756 -0.5082803 0.8611735 110 110 110
-0.0116668175185874 0.0412125846314138 0.054084572681089 0.01338491 -0.5350841 0.8446928 47 47 47
0.0703031589065835 0.0208975335526174 0.0298138891540962 0.7933095 0.5000527 0.3472857 15 15 15
-0.0695379208053306 -0.0364507177901561 0.00727016080250317 -0.004371628 -0.5097546 0.8603088 140 140 140
-0.0740352104629234 -0.0107511023116404 -0.0168873037017388 -0.9735823 0.1996572 -0.1107903 54 54 54
0.0860180427109047 -0.0269343594146068 -0.0251337404168648 -0.1920539 -0.7603405 -0.6204817 47 47 47
0.0642623473678872 -0.0341576078963572 0.00891830373634869 0.01446747 -0.510141 0.8599691 31 31 31
-0.0567255447829917 -0.0107683876586253 0.0225907300793129 -0.0497612 -0.5228916 0.8509455 79 79 79
-0.0627234409774498 0.0629681607651418 0.021257880815168 -0.868662 0.4927875 0.05086 58 58 58
-0.000230116697664595 0.0472319384979909 0.055223945268293 0.1710087 0.5776374 0.7981799 101 101 101
-0.00478748783719096 -0.0185503700805003 0.0181622241817909 -0.04825084 -0.4683941 0.8822011 132 132 132
0.00876207843172994 0.0592767259049123 0.0252932642780739 -0.01929405 0.8302624 0.5570387 120 120 120
-0.0695379208053306 0.0196721812653249 0.0412505601726967 -0.05666462 -0.5311341 0.8453909 153 153 153
-0.0722897480453208 0.00344875063177996 -0.014499645940165 -0.9851831 0.1638713 0.05060049 76 76 76
-0.0138309429610923 -0.0160996655059154 0.0197960470997291 0.003338552 -0.5082064 0.8612288 204 204 204
0.0785727073227211 -0.0368232468200023 0.00790076304306561 -0.003691571 -0.5078439 0.8614413 122 122 122
0.103559928086881 -0.0174755791259105 -0.0158898199714226 0.9575512 0.1735451 0.2301688 39 39 39
-0.0110362003768638 -0.0465402344298655 0.00146584559311444 0.008066792 -0.5112901 0.8593704 96 96 96
-0.00556139454495463 -0.0622189978194529 -0.00776375483642047 0.06534932 -0.9477493 0.3122509 115 115 115
-0.0788679550613121 -0.0504814127517039 -0.00109952341685718 -0.01778678 -0.5097176 0.8601579 94 94 94
-0.0823505352462486 -0.0337276199889476 -0.0189854617036385 -0.9334166 0.3553396 -0.04967088 31 31 31
-0.0842423866714195 -0.041896674973994 -0.0159757996715111 -0.9991282 0.04172357 0.001378376 49 49 49
-0.00210027203213725 -0.016529653413325 0.0195380781971412 -0.08223659 -0.5155138 0.8529259 138 138 138
-0.0492301414931968 -0.0682526568007762 -0.0129804874576134 0.1303753 -0.9777412 0.1643913 51 51 51
-0.00987176403653178 0.0509403010773366 0.0528699492298561 0.4243235 0.8323763 0.3565098 86 86 86
0.0482897330795571 0.0590340157913869 0.0193660889946418 0.2192479 0.7008845 0.6787424 110 110 110
0.0408086349045083 0.00017395223853045 0.0295988952003914 0.006027871 -0.5131389 0.8582844 145 145 145
-0.0733859966720298 0.0373215934204763 0.0311037336670356 -0.9012531 0.3951531 0.1777551 34 34 34
-0.043396992536898 0.03128078188178 0.0479792987190681 -0.04052332 -0.5438468 0.8382055 116 116 116
0.00030012622225728 0.0354082843231862 0.050824109204908 -0.02614902 -0.5256367 0.8503072 115 115 115
-0.0370231102431968 0.0256699582504933 0.044883642085691 -0.007611335 -0.4923883 0.8703424 141 141 141
0.0380067397629067 0.0534231921601003 0.0297279094540077 0.3863125 0.6805954 0.6225372 26 26 26
-0.0676892231429771 0.0527782699036305 0.0412505601726967 -0.9927711 0.09754167 -0.06993733 53 53 53
-0.0434706638778404 0.045076038496465 0.0561943982922035 0.002711171 -0.5227174 0.8525017 149 149 149
0.0498590041672036 -0.0423266628814036 0.00453281749119336 0.003703526 -0.5051024 0.8630515 85 85 85
0.00280828967440572 0.00192954744574481 0.0308600996815162 -0.01190134 -0.5329824 0.8460426 75 75 75
-0.00749616131436381 -0.0186363199782664 0.0181407367073494 -0.005688261 -0.5187629 0.8548992 144 144 144
-0.0877392719711021 -0.063996169908076 -0.0244314933932823 -0.983906 0.1716401 -0.04968487 39 39 39
-0.088133377882357 -0.070402477128535 -0.0262731130040688 -0.8603269 -0.4918053 -0.1340343 114 114 114
0.0183221866165444 -0.048854682786494 -0.0287739897883934 0.1806062 -0.8615945 -0.4743799 47 47 47
0.0697657634292885 -0.0462392309737498 -0.0019164348758263 0.09378215 -0.8940354 -0.4380703 54 54 54
-0.0408173035110191 -0.0612874964309031 -0.0229410047448677 0.4588095 -0.7574719 -0.4644676 23 23 23
0.03234286799777 0.0196721812653249 0.0414397453152137 0.007566902 -0.5038581 0.8637533 148 148 148
-0.0513654182876304 -0.0520004967284495 -0.0423747415460152 0.2258048 -0.6721544 -0.7051388 60 60 60
-0.0517883728469566 -0.0685463884902293 -0.0143778289474053 0.3221295 -0.9466194 -0.01201338 72 72 72
-0.0806737373794273 -0.0307180622649486 -0.020834233871798 -0.92146 0.3876031 -0.02598716 28 28 28
0.0541157294784829 0.0427819749283498 0.0374454890572029 0.4785163 0.7799271 0.4034055 60 60 60
-0.00356225475918803 0.0129971763062184 0.0374777351700264 0.002389065 -0.5176049 0.8556165 118 118 118
0.0423492957626626 0.0234413405823415 0.0437442694984871 -0.01288646 -0.5075004 0.8615552 93 93 93
0.0988304187332436 -0.0350604990554149 -0.0207912440217537 -0.2562103 -0.772796 -0.5806398 47 47 47
-0.0137305687392906 0.00105526651617938 0.0299858485542732 0.001880068 -0.5075461 0.8616225 63 63 63
0.0126132537399575 -0.0471544006896312 -0.0327807183183235 0.0892127 -0.9103842 -0.4040318 51 51 51
0.105580763963346 -0.0252146462035472 -0.0198023582614464 0.978388 0.08128843 0.1901291 73 73 73
-0.0661414097274498 0.0279271861481374 0.0120139454685646 -0.9969529 0.02547565 -0.07372884 53 53 53
-0.0615623424972251 0.00776257719275408 0.0339413915955024 0.0014589 -0.5066032 0.8621781 142 142 142
-0.0282197426284507 0.0669236442017263 0.0434432958446937 0.2750881 0.8800457 0.3870996 127 127 127
0.0851580668960854 -0.0293851831984813 -0.0222960675872368 -0.1700188 -0.7204843 -0.6723064 47 47 47
0.0148038436447426 -0.0380558708739573 0.00684021759857709 -0.002286209 -0.513216 0.8582564 122 122 122
0.0100457240616127 -0.0577618816924388 -0.00505506645808643 0.02430013 -0.5892769 0.8075657 166 166 166
0.0648929645096108 -0.0146665314269359 0.0211575363956886 0.001075525 -0.5151681 0.8570885 107 107 107
0.0127543975387856 0.0371066590714162 0.051934811957975 0.01058633 -0.5059593 0.8624924 112 112 112
-0.0366898010696128 -0.00216934476616926 0.0277931128822761 0.02193373 -0.5031918 0.8638963 222 222 222
-0.00141243443142924 -0.00997290406945295 0.0235366259895759 -0.02440472 -0.5174634 0.8553572 225 225 225
0.000672774461393022 -0.032760236604243 0.00997168172230298 -0.001248163 -0.5093841 0.8605384 215 215 215
0.0712706615005776 -0.038758132798701 -0.00944056760440296 -0.01303048 -0.7393566 -0.673188 55 55 55
-0.034668965193148 -0.0523445347380931 -0.0019164348758263 0.0191855 -0.527109 0.8495811 123 123 123
-0.0559945534194664 0.0732009669708913 0.0344573592030006 -0.09777664 0.9044526 0.4152171 51 51 51
-0.0689075420821861 0.0472749730515187 0.0536904369675117 -0.9932072 0.07055539 0.09252746 70 70 70
-0.0675945709670738 0.05317380632636 0.0500817333542305 -0.985108 0.1719366 0.0002955913 63 63 63
-0.076954645964022 -0.0251286963057811 0.00573668230404431 -0.9409905 0.3381986 0.01259361 90 90 90
0.0409483481918618 0.0398260613846486 0.0455500518166023 0.3054021 0.7551168 0.5801104 79 79 79
0.000737385896329545 0.0134593507218068 0.0376174782597023 0.001591249 -0.5294152 0.8483614 237 237 237
0.0148181487594887 -0.0127460697722728 0.0220891271912056 -0.02517357 -0.5228189 0.852072 150 150 150
-0.0351634453262046 0.0294319650101369 0.0468614136063057 0.005718673 -0.5132328 0.8582304 47 47 47
-0.0491261909927085 -0.0630502441954905 -0.0266815687335533 0.3029461 -0.7763914 -0.5526663 50 50 50
0.0511920024429604 0.049080755369634 0.0286530290924507 0.1259568 0.6675907 0.7337967 81 81 81
0.0570392180954262 -0.0119937399459178 0.0226767097794014 -0.01165146 -0.5096241 0.8603182 128 128 128
0.0469140578781411 -0.0395749548507029 -0.0199528450883431 0.6462352 -0.662323 -0.3790888 28 28 28
0.0342518855606362 0.0279916783737844 0.0467109118782478 -0.001304567 -0.5101419 0.8600892 60 60 60
0.0971536208664223 -0.0137350300383861 0.0103801523529487 0.8757805 0.3461309 0.3364548 15 15 15
-0.0412989090408042 -0.0366599300933177 0.007207113989492 0.009839645 -0.5117984 0.8590493 132 132 132
-0.0805876682723716 -0.0286972263884837 -0.0256066883719963 -0.8987901 0.3762521 -0.2249685 59 59 59
0.060822920945768 0.0373646279740041 0.0316626762234169 0.7296562 0.4722278 0.4945732 45 45 45
0.0200061370407387 0.0070172807144826 0.0338124071442085 -0.04835285 -0.4652838 0.8838399 227 227 227
0.049902157930021 0.0504995843338674 0.0265462731205421 0.1131299 0.6912183 0.7137359 61 61 61
-0.0154502819503501 -0.0480128267836863 -0.0419662858165306 -0.0210526 -0.9009908 -0.433327 88 88 88
-0.077219767423983 -0.0222910383773143 -0.00501207660804218 -0.9462788 0.2223462 0.2347737 93 93 93
0.0302247573410317 0.00597109998938494 0.0332391594730812 0.0003244304 -0.5170543 0.8559526 184 184 184
-0.0193198154891685 0.0132228394913381 0.0374153887115913 0.0007698797 -0.5327554 0.8462689 95 95 95
0.0778059531723305 0.0171032210755055 0.0193660889946418 0.7223862 0.4998709 0.4777941 38 38 38
-0.0686567257369712 0.0518969556259816 0.023515108712812 -0.9219834 0.3582807 0.146907 40 40 40
-0.0515768955672935 -0.0611476639342601 -0.0304758812106652 0.4143943 -0.7557195 -0.5071148 83 83 83
-0.0704408119643882 0.0454404612946218 0.02680424202313 -0.9082052 0.3975046 0.1309713 34 34 34
-0.0305414627517417 -0.0553971270156199 -0.0267245585835976 0.1799534 -0.796509 -0.5772263 64 64 64
-0.0693874786819175 0.047597314970464 0.025664869435926 -0.9056442 0.4046377 0.1267948 34 34 34
-0.0739665459121421 0.0234986802506154 0.0252134238563972 -0.9878325 -0.09162828 -0.1256633 88 88 88
0.0745095778976723 -0.0253723600936229 -0.0247037823117775 -0.1004537 -0.7585638 -0.643809 42 42 42
-0.0232754181350425 -0.0325238445830638 0.0105951165043312 0.00466058 -0.5139547 0.8578047 149 149 149
-0.0172560642684654 -0.0492487886977488 -0.0403754676497979 -0.1043615 -0.9433467 -0.3149695 64 64 64
-0.075041336866732 0.0317967196869557 0.0346293186031776 -0.9292537 0.2870245 0.2326038 19 19 19
-0.0806737373794273 -0.0286972263884837 -0.0146429653085274 -0.9299337 0.3564641 -0.09031428 101 101 101
0.102033572343473 -0.0404778460097606 -0.00413068782458728 0.9592776 -0.266467 0.09371098 43 43 43
-0.0739665459121421 -0.00861856733086652 0.0139057372890907 -0.8086042 0.218999 -0.5460758 65 65 65
0.0722596217666909 0.0248029490875905 0.0227483545624214 0.7775091 0.4076806 0.4788278 36 36 36
-0.0377216766799644 -0.0179054478240306 0.0186781619869667 -0.002831073 -0.5142518 0.8576346 102 102 102
-0.0708709190810874 -0.0721436480117137 -0.0297772104657692 0.140948 -0.8552219 -0.4987275 53 53 53
0.0328759719406411 0.0417393704819387 0.0476138030373054 0.3637891 0.7144545 0.5976723 61 61 61
-0.0449233482803062 -0.0579339006972606 -0.00531303536067432 -0.005891409 -0.5382042 0.8427939 88 88 88
-0.0112367104018882 -0.0235808828902537 0.0150665973507362 0.008384297 -0.4957471 0.8684264 98 98 98
0.0441193152939126 0.0465870162415212 0.0350592767082649 0.3169878 0.8265874 0.4650505 76 76 76
-0.0384955833877281 -0.0237098673415477 0.0153675710045295 -0.05577263 -0.4992518 0.8646601 158 158 158
0.00458546176302876 -0.0536774138045604 -0.00264735173354572 0.0004571595 -0.4651757 0.8852183 161 161 161
0.03026767268527 0.0533658524918263 0.0346293186031776 0.3183861 0.8028849 0.5039902 167 167 167
-0.00728134617459331 0.0144697686600392 0.038197908290525 -0.01164118 -0.503576 0.8638725 82 82 82
-0.0871875713790611 -0.0627708176207835 -0.0219951088346047 -0.97045 0.2226234 0.09308904 60 60 60
-0.0420928429092124 0.0334592124390309 0.0494339500748115 0.002334603 -0.5529932 0.8331825 133 133 133
-0.0761592815841392 -0.000148508889704413 0.0231496428333717 -0.979403 -0.01824662 0.2010893 63 63 63
0.105559067872648 -0.0284177998137767 -0.0204042906678719 0.9872873 -0.07594187 0.1396299 73 73 73
0.0833737422500893 -0.026074502809077 -0.0262516106284661 -0.150331 -0.7662975 -0.6246509 50 50 50
0.0230731536423012 0.0398797055649465 0.0532569025837379 0.1311165 0.1097857 0.9852693 156 156 156
-0.0836117695296958 -0.0403202513289744 -0.00671754430900043 -0.9625248 0.1790963 0.2036429 52 52 52
-0.0862200687850669 -0.0732830504012401 -0.0157608355201287 -0.7096768 -0.5256725 0.4690707 95 95 95
0.0303136874710366 0.0620738526749318 0.0239837502323585 0.1583429 0.7682058 0.6203124 90 90 90
-0.0304124783004478 -0.0621903875899608 -0.0178675914920372 0.1874919 -0.8315322 -0.5228776 41 41 41
-0.00302485928189311 -0.0492489079070384 -0.038777496925692 0.1969425 -0.8972281 -0.3952157 74 74 74
-0.036023421141024 -0.0141864756179149 0.0209139024101692 -0.01005106 -0.5224257 0.8526256 222 222 222
-0.0620139072860435 -0.00429758821251935 0.0266967450462776 -0.01198189 -0.5072348 0.8617246 130 130 130
-0.0664422939742759 0.0291596909928029 0.0154392157875496 -0.9978159 -0.00796213 -0.06557474 42 42 42
0.0271148253952309 -0.0611499289107615 -0.0070930386699242 -0.0763928 -0.9714788 0.2244842 181 181 181
-0.0279617737258628 -0.00560889039757795 0.0258153413616615 -0.002415615 -0.5116196 0.8592087 95 95 95
0.0143022109543129 0.0547560712265676 0.0354462300621467 0.04627447 0.9388088 0.3413161 121 121 121
-0.0542748402084068 -0.0619324186873729 -0.00776375483642047 0.05917351 -0.4914281 0.8689056 128 128 128
0.0550400783096596 -0.0232584217620189 0.0158190165840583 0.005633349 -0.5308682 0.8474357 74 74 74
-0.0615983437026695 0.0336526891159719 0.0493766104065376 0.01612853 -0.5117345 0.8589922 130 130 130
-0.0690219830001548 0.0360102912354177 0.050666454919477 -0.6282064 -0.3154618 0.7112247 169 169 169
-0.019715351911898 0.0110129376816457 0.0359965597473579 -0.001807302 -0.523195 0.8522111 96 96 96
-0.0710642765487388 0.00769796575781756 -0.0127941633380455 -0.941061 0.2863254 0.1800612 57 57 57
-0.00126199230801616 -0.0461531618666942 0.00175963688721234 0.003405789 -0.525372 0.8508658 101 101 101
-0.0660984943832115 0.0551860591339772 0.0191941295944648 -0.9154068 0.3974217 -0.06392589 36 36 36
-0.0748048256362632 -0.0131760576796824 -0.016169276348452 -0.9491144 0.2611842 -0.1759675 60 60 60
-0.0525548885787681 -0.00861856733086652 0.0175173019253212 0.1435898 0.6346912 0.7593082 138 138 138
