ply
format ascii 1.0
comment File exported by Rhinoceros Version 7.0
element vertex 450
property float x
property float y
property float z
property float nx
property float ny
property float nz
property uchar red
property uchar green
property uchar blue
end_header
-0.0521464009892609 -0.0600838773227026 -0.00788891045163503 -0.02632349 -0.9995942 0.01089271 166 171 170
-0.0500291310536456 -0.0600649526851533 -0.00994098623150616 -0.04058395 -0.9989514 -0.02118817 167 171 169
-0.0528532172157208 -0.0594833349022653 -0.0104256433487176 -0.01237758 -0.9998459 -0.01245214 163 169 169
-0.0544233454459913 -0.0597807920535149 -0.0104094331461482 -0.0298253 -0.9992896 -0.02303955 166 171 170
-0.0564254341574375 -0.0596906890648409 -0.00182315380736386 -0.04117734 -0.9990703 -0.0127652 176 179 181
-0.0563320955348989 -0.0597565967635653 -0.00387693568358266 -0.0472068 -0.9987419 -0.0169137 174 177 178
-0.0597192390286612 -0.0588440418124075 -0.00201331525857032 -0.09349345 -0.9956117 0.004034473 168 173 170
-0.0569957096574214 -0.0614761696541839 -0.00467183745180438 -0.04852263 -0.9983731 -0.02994606 176 179 181
-0.0600417562175917 -0.0599934779508009 -0.0043070728580076 -0.04684298 -0.9986329 -0.02319623 168 170 174
-0.0610955219357776 -0.0593672075242384 -0.00580714537784885 0.004132704 -0.9999635 0.007478015 153 161 161
-0.0635187019822832 -0.0604335574681715 -0.00304760998235165 -0.04203112 -0.9989322 0.01918153 182 186 186
-0.0627250724225359 -0.0602655068593495 -0.00567034496236912 -0.03030349 -0.9995402 0.001108632 168 173 173
-0.0669114185011619 -0.0593637258878017 -0.00410069105969638 -0.1307251 -0.9904791 -0.0431525 160 165 164
-0.067447334116463 -0.0588021033612683 -0.00483336761221051 -0.1134796 -0.9931912 -0.02633788 170 174 175
-0.0563910193930037 -0.0596367471773349 -0.0100629225257427 -0.04791629 -0.9987997 -0.01015903 168 172 173
-0.0591529802117536 -0.0591635063149722 -0.00668958156006261 -0.06676144 -0.9969699 0.03992315 167 173 173
-0.0581632492541178 -0.0597217903718659 -0.00961217524625596 -0.03065038 -0.9994299 0.01415771 155 161 158
-0.0572844903795011 -0.0613783360644671 -0.00988705897218664 -0.02547068 -0.9996173 -0.01079463 167 173 173
-0.054187666373295 -0.0604384150769615 -0.0124092291391759 -0.04086406 -0.9971064 -0.06410173 178 182 185
-0.0603708672226806 -0.0598142629286889 -0.0104402178334131 -0.04644961 -0.998643 -0.02354932 148 152 155
-0.0598025302690774 -0.0599274335769179 -0.0117202638223142 -0.04128085 -0.9980515 -0.04678732 138 148 139
-0.0646549582250189 -0.0593865122444314 -0.00824143655793774 -0.07826363 -0.9966487 -0.02379681 150 157 154
-0.0628566733776408 -0.0593059567295083 -0.0122661807061819 -0.06252208 -0.9960429 -0.0631625 154 159 158
-0.0657277243257521 -0.0588168481945609 -0.0120066447249841 -0.04925586 -0.9983858 -0.02827598 125 135 128
-0.0688130807834164 -0.0596192034458205 0.00995469052030076 -0.05143556 -0.9975584 -0.04724061 158 164 161
-0.0709565431723176 -0.0591599492603537 0.00994437004535118 -0.02503683 -0.9992241 -0.03040275 163 168 166
-0.070892352529726 -0.0590408389337124 0.0077874163453345 -0.07006104 -0.9968817 -0.03630865 170 174 175
-0.0710245908102358 -0.059112438430387 0.00568601382067863 -0.04155471 -0.9979226 0.04923046 161 167 164
-0.0758233249007096 -0.0585908106085488 0.00936766530431751 -0.03654157 -0.9978705 -0.05402976 163 167 166
-0.0772234490517456 -0.0588825670753551 0.00564461268570862 -0.007024611 -0.9999534 -0.00661433 151 159 157
-0.0793819328183178 -0.0588033359179572 0.00745629529468822 -0.03275665 -0.9994447 -0.00610348 153 161 158
-0.0684762692386633 -0.0595602287491173 0.00393505852852907 -0.09148276 -0.9957342 0.01201323 168 172 174
-0.0680784146556963 -0.0598927864234017 -0.000304964455125595 -0.05744977 -0.998096 -0.02244661 167 172 173
-0.0732500452784079 -0.0592165539499815 0.00400592610948072 -0.03161886 -0.999365 0.01642622 169 173 174
-0.0691245956382089 -0.0593153455678005 0.00165175584853022 -0.0621143 -0.9962601 -0.06006343 155 158 155
-0.0712149369748358 -0.0590125143302502 -0.000127323640583543 -0.05250483 -0.9957836 -0.07522104 163 168 166
-0.0755597944258564 -0.0586870508195547 0.00375046417872082 -0.009455896 -0.9999164 -0.008812143 168 174 172
-0.0774029500507458 -0.0588842968723798 0.001648679936122 -0.03313866 -0.9993867 -0.01131507 170 175 175
-0.0746372954502763 -0.0590580095319058 0.00141862248607028 -0.04403057 -0.9986832 -0.02632836 162 167 166
-0.079625273556744 -0.0587571888104788 0.00181651247771764 -0.05837498 -0.9982908 -0.002810587 162 167 164
-0.0831244699554374 -0.058935422886133 0.00794843920454644 -0.1074435 -0.993697 -0.03196958 176 179 178
-0.0838357980702966 -0.0584069742298315 0.00549350335786844 -0.07896699 -0.9967139 0.01804772 167 171 171
-0.0878614727578229 -0.0581901030280161 0.00959064167527379 -0.07342741 -0.9971336 -0.0182504 171 175 173
-0.0892783895817009 -0.0585270125168317 0.00950172385023093 -0.07999332 -0.9966544 -0.01676726 178 178 182
-0.0811623476634038 -0.0589030412539199 0.00382861273881349 -0.0646384 -0.9978527 -0.01058019 169 174 174
-0.0832462217588117 -0.0582851977932624 0.00389253072343582 -0.08185663 -0.9966202 0.006906284 164 170 168
-0.0811889347675132 -0.0588962687273118 0.00160730898769684 -0.07653184 -0.9970457 -0.006536648 166 170 171
-0.0857400869939808 -0.0585015283734982 0.00136469442927614 -0.05848344 -0.9979636 -0.02546334 162 167 163
-0.087440693838472 -0.058363820300533 0.000937354486243103 -0.07557242 -0.9971365 -0.00274022 154 161 152
-0.0927681925563428 -0.0569177020232799 0.0098103432522807 -0.3784423 -0.9236682 -0.06015304 170 175 173
-0.086643561900539 -0.0571366454487351 0.0068434462431898 -0.0610351 -0.9977215 0.02875011 174 179 179
-0.0901796718257559 -0.0577678832954983 0.00350677001002869 -0.3135318 -0.9464407 -0.07712181 158 164 156
-0.0894281123248937 -0.0584863034640496 0.00365638893585468 -0.1614462 -0.9868639 0.005903844 178 179 180
-0.0879944060402265 -0.0581036898238637 -0.000419185024198354 -0.06400367 -0.9975329 -0.02883714 138 145 135
-0.0914459028168637 -0.0577900972643305 0.0011004044375432 -0.4653774 -0.8849252 -0.01819659 170 176 164
-0.0933283648255983 -0.0546631803569105 0.00150279567408032 -0.9027791 -0.4010226 -0.1554693 167 168 153
-0.0938603468872126 -0.0520699019487855 -0.000995349465382933 -0.9732745 -0.1609976 -0.1637572 148 149 144
-0.0689229969601977 -0.0590870921696275 -0.00213907086116924 -0.06511816 -0.9969787 -0.04234528 156 164 160
-0.0734096550189922 -0.0585181569389559 -0.00214786664777875 -0.03596811 -0.9993382 0.005433839 167 171 174
-0.068973817512044 -0.0588143429748523 -0.00619429825739584 -0.05807214 -0.9983065 -0.003428543 163 168 168
-0.0731317616285652 -0.0591345970583812 -0.00420895215889819 -0.02657289 -0.9995454 -0.01424509 166 173 174
-0.0730341469808895 -0.0584260413598884 -0.00442172285415302 -0.02209718 -0.9996968 -0.01086496 165 168 168
-0.077410176884261 -0.0587081083769934 -0.00454191882282123 -0.0001518168 -0.9988489 -0.04796762 154 161 158
-0.0746894343283371 -0.0593022620780689 -0.00603621812905264 0.01789861 -0.9998394 0.0008443622 144 150 143
-0.0756709746344231 -0.0586400439683786 -0.00674024400302611 -0.03096355 -0.9992071 -0.02502934 161 166 168
-0.0686067415913456 -0.0589751674733323 -0.0101114623136731 -0.07562476 -0.997136 -0.0008703799 152 157 155
-0.0734998365548458 -0.0585328748219216 -0.00833342349992677 -0.008668934 -0.9998385 0.0157407 160 165 166
-0.0710128512383825 -0.0591736403364398 -0.0122817852293735 -0.03180761 -0.9994932 0.001286047 150 157 153
-0.0741282084347015 -0.0593617533065677 -0.00860836817857566 -0.02390273 -0.9997062 -0.004019039 164 171 178
-0.0793538506532219 -0.0587155620962856 -0.00830447922732711 -0.03877684 -0.999137 -0.01488478 158 163 161
-0.0755047840407288 -0.0587855237989742 -0.0107445789012948 -0.05888778 -0.9982439 0.006436349 145 152 149
-0.0773973810979998 -0.0589011722364493 -0.0126514559317604 -0.05589753 -0.9984142 -0.006669126 161 167 169
-0.0794432774777296 -0.057858442285182 -0.0105955578023691 -0.04974601 -0.9985842 -0.01883942 170 176 178
-0.0795082847302822 -0.058417503261573 -0.0124025432875123 -0.02284122 -0.9993116 -0.02923509 155 160 160
-0.0818832750956746 -0.0584930093067594 -0.00355339965047144 -0.04961493 -0.9987364 -0.008003054 155 160 154
-0.0856345968411358 -0.0586219271148041 -0.00481914314556237 -0.07405633 -0.9970554 0.01990582 159 164 163
-0.0831259760710474 -0.0585669676877377 -0.00460318025730588 -0.05356626 -0.9985028 -0.01108286 160 166 166
-0.0817092658096459 -0.0585189711761617 -0.00647551712629793 -0.02560816 -0.9977024 -0.06272329 161 167 168
-0.0871092682845886 -0.0584930830766662 -0.00242403583169354 -0.0569135 -0.9982595 0.01545327 147 154 149
-0.0801792596568611 -0.0584519348316813 -0.0073498069188204 0.006147903 -0.9992447 -0.03837069 161 163 159
-0.0833323967328985 -0.0585164114485183 -0.012455588339201 -0.0292545 -0.9995244 -0.009761835 155 162 160
-0.0420764645958696 0.00526083796287802 -0.0291501508337613 0.04750535 -0.00946367 -0.9988261 174 177 178
-0.0855695659770794 -0.0577010107276478 -0.00424824839302793 -0.0877406 -0.9957609 0.02760268 168 177 174
-0.0900891814757236 -0.0581542800354087 -0.00271662464896708 -0.2669684 -0.9636872 0.005906584 154 161 153
-0.0932796762629566 -0.0546701908904975 -0.00288396998522197 -0.9578054 -0.2657488 -0.1094823 151 151 142
-0.0880360425688207 -0.0581445460871201 -0.00627255794278864 -0.04640933 -0.9989139 -0.004152344 166 173 171
-0.0898929350167856 -0.0582841581938984 -0.00654545375632801 -0.2391748 -0.9708933 -0.01271571 150 156 149
-0.0941435585411972 -0.0484941947528313 -0.00204049236910772 -0.9744173 -0.06022303 -0.2165273 144 145 134
-0.0860123706034037 -0.0579805634626236 -0.0124460723768498 -0.01532502 -0.9998198 -0.01120345 160 163 165
-0.0864225378409769 -0.0579770145123736 -0.0105625541932599 -0.05883947 -0.9977355 -0.03258563 136 144 135
-0.0880539069333253 -0.0581486038578175 -0.0104138669619464 -0.1126341 -0.9925061 -0.0473836 159 164 162
-0.0876735314035884 -0.0581655705043319 -0.0131236034572074 -0.1364034 -0.9902786 -0.02724706 154 159 158
-0.0912872750551199 -0.0577714719927601 -0.0125614018229946 -0.525408 -0.8300367 -0.187044 153 157 153
-0.0929599416956961 -0.0524980869711935 -0.00871444701113941 -0.9570981 -0.009423922 -0.2896108 155 150 146
-0.0922945754395226 -0.0485463013256791 -0.0105328115938535 -0.9416454 0.008105525 -0.3365089 149 149 146
-0.0923503584623999 -0.0534286995695211 -0.0101346724615468 -0.9371339 -0.08513263 -0.3384266 152 151 150
-0.0456877756096201 -0.0605190211448163 -0.0139518667293935 -0.07512452 -0.9963221 -0.04121364 156 164 163
-0.0439531141908165 -0.0603424896661502 -0.0178939463812369 -0.008462982 -0.9998732 -0.01348694 167 170 170
-0.0437631334208239 -0.060572516761862 -0.0239052742074725 0.01297788 -0.999722 0.01968528 164 171 174
-0.0433239444254299 -0.0603562052874926 -0.0277981585314242 -0.09072477 -0.8857407 -0.4552279 170 175 176
-0.0481326672861289 -0.0599888581951301 -0.0142804880948409 -0.04310191 -0.99736 -0.05844033 162 168 166
-0.0461520830739759 -0.0598226821771901 -0.0178766545409738 -0.03943189 -0.998974 -0.02227356 153 160 159
-0.0499745109996272 -0.0599654024128147 -0.0140726676112459 -0.05755753 -0.9961497 -0.06612828 167 172 172
-0.052713480386501 -0.0594860436109017 -0.0138963329075925 -0.03158389 -0.9991271 -0.02733766 162 170 169
-0.0541048869203218 -0.0597229175643738 -0.0161231771340177 -0.05918526 -0.9982403 0.00366004 159 163 163
-0.0524447625763469 -0.0596043493316648 -0.0178489217655961 -0.02018632 -0.9996398 -0.01768348 153 159 156
-0.0453900464774875 -0.0603670239551761 -0.0191519145988027 -0.04118729 -0.9990822 -0.01176436 181 183 189
-0.0457196330286171 -0.0599118636392341 -0.0236623402943447 -0.04945626 -0.9982179 -0.03339325 141 149 145
-0.0508372863825093 -0.0595653730312822 -0.0200568751720377 0.05521322 -0.9983945 -0.01264242 158 163 161
-0.0501788502097145 -0.0599753991916961 -0.0220624005452968 0.02355073 -0.9997225 -0.0005018713 142 145 145
-0.0487996126884425 -0.0590650804753986 -0.0237841159871976 -0.05057907 -0.9987164 -0.002698916 160 167 170
-0.0507633431055781 -0.0595673458645978 -0.0241110680604546 0.002664726 -0.9998415 -0.01760568 157 165 158
-0.0523055026522448 -0.0602217488115132 -0.0234898136785659 0.03102922 -0.9987839 -0.03831169 166 171 174
-0.0544558015196746 -0.0596707906494772 -0.0236415278383361 -0.03735452 -0.9979793 -0.05139986 152 158 157
-0.0583944147704072 -0.059925321155135 -0.0141114998503704 -0.05393247 -0.9965894 -0.06245606 150 155 157
-0.0604736091958111 -0.0592107812223552 -0.0141489900377524 -0.03436311 -0.999292 -0.01532363 148 156 155
-0.0563919655350293 -0.0595100157280694 -0.0161786965076249 -0.0773119 -0.9969447 0.01113781 155 158 155
-0.0582323018174491 -0.059104469227379 -0.0162995424392937 -0.03203166 -0.9994817 0.003206386 153 160 158
-0.0623375009903433 -0.0592887996109867 -0.0160877349101498 -0.02995172 -0.999482 -0.01177662 151 158 156
-0.0647343046876321 -0.059309614653322 -0.0183723267562954 -0.02161466 -0.999715 0.01013724 147 155 153
-0.0643594488423305 -0.0586324324547627 -0.014184630489166 -0.02997955 -0.9994368 -0.01507621 169 176 175
-0.0642500092680351 -0.0587377766966076 -0.0160807274141293 -0.02310179 -0.9996798 -0.01032327 154 158 158
-0.0559777521566369 -0.0597304083173379 -0.019968587605491 -0.05872495 -0.9982739 -0.0007651005 155 162 160
-0.0574280421498519 -0.0600289080816393 -0.0210492267698944 -0.04574549 -0.9986423 -0.02491752 161 169 168
-0.0587428237843803 -0.0591343917071158 -0.0219127610334474 -0.04271183 -0.9990801 0.003829932 153 163 162
-0.0598746994235135 -0.060483082386722 -0.0216769161312139 -0.0280718 -0.999477 0.01605508 149 151 150
-0.0645366114926467 -0.0594258629044564 -0.0201392488253761 -0.01632197 -0.999859 0.003941006 143 150 143
-0.0668524583379293 -0.0590411764560155 -0.0201503916932818 -0.07668623 -0.996497 -0.03336245 156 159 158
-0.0443182923911971 -0.059876387435595 -0.0260272362878436 -0.02809381 -0.9769049 -0.2118197 170 175 175
-0.0478721309686665 -0.0599282795472202 -0.025867537086559 -0.03758813 -0.9745504 -0.2209945 158 165 161
-0.0430807033275178 -0.057852637211683 -0.0287213207524329 -0.004160631 -0.3967537 -0.9179157 192 193 196
-0.0483390702175259 -0.0585337351744273 -0.0287302451446427 -0.03395958 -0.4603572 -0.8870839 179 182 185
-0.044664357237552 -0.054891683829807 -0.0287092818596962 0.0003273985 0.0272213 -0.9996294 190 190 194
-0.0466535881273531 -0.0551248476169274 -0.0288761734339086 0.02320735 0.0272395 -0.9993595 183 185 186
-0.0490974890962392 -0.056368033875121 -0.0294540692100755 0.0574806 -0.09635541 -0.9936859 174 178 179
-0.0491982198061236 -0.059156241068706 -0.0264612674430352 0.005982357 -0.9094183 -0.4158395 176 179 180
-0.0512654921810549 -0.060125380491112 -0.0280547968191139 -0.03776298 -0.8568258 -0.5142213 142 148 132
-0.0523792947601005 -0.0569974787717513 -0.0288628559920823 0.02009645 -0.2599974 -0.9654002 173 177 177
-0.0548561452055796 -0.0575357433410026 -0.029352952494413 0.01865886 -0.2727931 -0.9618918 187 188 190
-0.0458233212340553 -0.0528335164687294 -0.0285250840282649 0.03908125 -0.0061676 -0.999217 183 185 190
-0.0458203172959104 -0.0516696413523923 -0.029376449082643 0.04002507 -0.04094015 -0.9983596 174 178 181
-0.0498248951355835 -0.0525432577191881 -0.0288066635527507 0.04961349 0.0003894905 -0.9987684 176 181 182
-0.0464882849471486 -0.0492610618167442 -0.0294706764784121 0.01826877 -0.00322414 -0.9998279 168 173 175
-0.050546323333363 -0.0504074423012446 -0.028832694338767 0.01817004 -0.02718548 -0.9994652 175 179 181
-0.0504411672221989 -0.0521214744191272 -0.0292919235752046 0.02926288 0.004188949 -0.999563 170 175 177
-0.0513122473271337 -0.0548730592960885 -0.028863781127524 0.01045486 -0.007366979 -0.9999182 172 175 177
-0.0520728288930163 -0.0530961981740229 -0.0290066790588805 0.0192572 -0.03611524 -0.9991621 182 185 187
-0.0541720770544001 -0.0537258994701252 -0.029578009543698 0.02734279 -0.01009236 -0.9995751 172 177 178
-0.0543653554915116 -0.0512679175096113 -0.0288066372468822 0.0173192 -0.004224757 -0.9998411 176 179 183
-0.0580022171741015 -0.0601153131474935 -0.0274593427864533 0.08133736 -0.9045947 -0.4184407 176 178 179
-0.0603749480406592 -0.0595063150876485 -0.0261165630002352 -0.05324762 -0.9747495 -0.2168596 153 159 157
-0.0586093036092672 -0.0585623773281124 -0.02931838528668 0.04983014 -0.4989438 -0.8652006 157 168 160
-0.0612569796954103 -0.0592861649152054 -0.0291900359115643 -0.01533695 -0.6109651 -0.791509 163 167 166
-0.056766558563019 -0.056225077401551 -0.0288385938144742 0.03493053 -0.1682286 -0.9851289 181 185 188
-0.0575399815209492 -0.0544947713407224 -0.0288684971701445 0.04553784 -0.007282165 -0.9989361 177 178 182
-0.0610543522922118 -0.0576301464372583 -0.0288739034969586 -0.007684403 -0.3390149 -0.9407496 184 187 188
-0.0604240125511084 -0.0532677408107819 -0.0287117521120409 0.01599721 0.02552171 -0.9995463 176 179 183
-0.0667239911191895 -0.0592144312525886 -0.0263681823330766 -0.1656122 -0.908002 -0.3848441 175 179 178
-0.0632227547527808 -0.0561662524574595 -0.0287181217566087 -0.1089212 -0.2417096 -0.9642161 179 180 180
-0.0657301859484609 -0.0546542619820142 -0.0286055277656642 -0.07168431 -0.08355923 -0.9939212 176 179 180
-0.0472467354955679 -0.0473754822963136 -0.028974064438071 0.03721493 -0.003640847 -0.9993007 174 177 177
-0.0491878217281254 -0.0484292888096238 -0.0289289661484217 0.0233319 0.007611136 -0.9996988 181 185 185
-0.0479963913460768 -0.043535896291705 -0.0287828805446696 0.01327935 0.00975867 -0.9998642 176 178 174
-0.0528043686248352 -0.0488051544153852 -0.0288306370724008 0.0386475 0.01518953 -0.9991375 171 176 177
-0.0533940515015572 -0.0469458860080942 -0.028847725641451 0.02312404 0.003973435 -0.9997247 176 178 182
-0.0519065367197107 -0.0481728781432097 -0.0293928608095498 0.02046374 -0.007013262 -0.999766 186 187 190
-0.056463655487589 -0.0504764542944475 -0.0295088814884477 -0.02663942 -0.005872233 -0.9996279 177 180 183
-0.0562831280719078 -0.0458360552033307 -0.0295152378987067 0.007518675 0.03441247 -0.9993795 166 171 174
-0.0484321554379559 -0.0414025714508075 -0.0289848666675644 -0.001288379 -0.006454322 -0.9999784 182 184 182
-0.048425679903036 -0.041641067688423 -0.0295608634465695 -0.01100754 0.0112777 -0.9998758 182 185 184
-0.0508916843500109 -0.0402367940198709 -0.0289831948326969 0.0006236472 0.002190033 -0.9999974 181 182 182
-0.0527616052729134 -0.0406091067228224 -0.0289378836262254 0.02505493 0.02979515 -0.9992419 179 181 184
-0.0515578151844966 -0.0383736405965018 -0.0290515384539833 0.0006107005 0.04085081 -0.9991651 177 181 181
-0.0488911023801988 -0.0370906458130035 -0.0297213539311446 -0.01949802 0.07806136 -0.9967579 176 179 181
-0.0548631008168723 -0.0410456244158557 -0.0288189705924871 0.02274579 0.008926676 -0.9997014 180 182 184
-0.0542126346637994 -0.044274283968856 -0.0298627270554359 0.01410067 -0.004206933 -0.9998918 173 173 175
-0.0581231648940443 -0.0442661379706811 -0.0288327996528388 -0.006043684 0.01720556 -0.9998337 172 176 177
-0.0571631523210332 -0.0401070913411902 -0.0288851943233385 -0.02926273 0.01034671 -0.9995182 172 176 179
-0.0612992307538338 -0.0488083103372517 -0.0286186124322619 -0.03710669 -0.007449703 -0.9992836 175 179 181
-0.0600085052890829 -0.0467249945137013 -0.0288258407319344 -0.006300484 0.03762199 -0.9992722 171 174 178
-0.0603111425311553 -0.0459839557385419 -0.0298431692034012 -0.005505395 0.03716459 -0.999294 172 176 178
-0.0620682194357274 -0.0473488028550186 -0.0296382132142917 -0.03054149 0.01235649 -0.9994571 178 181 186
-0.0652990041903645 -0.0501850788768781 -0.0285646778528432 -0.01882579 0.02098174 -0.9996026 173 177 180
-0.065543429998653 -0.048262381946313 -0.0286173313444925 -0.03041053 0.02641207 -0.9991885 175 178 181
-0.0690724460838021 -0.0489829892172506 -0.0283261099808972 -0.007530712 0.04409164 -0.9989991 166 172 171
-0.0624214475923179 -0.0433403071684821 -0.0288495306156076 -0.03918756 0.02962816 -0.9987925 171 175 178
-0.0614702327338006 -0.0407779255991034 -0.0286328881088578 -0.02474668 0.009641996 -0.9996473 173 176 176
-0.0677939270974566 -0.0469699910637704 -0.0286594096702207 -0.03323095 0.03088934 -0.9989703 169 175 174
-0.0700197464457122 -0.0581107443055513 -0.0130507650212038 -0.04396922 -0.9988352 -0.01987454 156 169 169
-0.0718145153134473 -0.0586287343136883 -0.0148415725726254 -0.006892107 -0.999964 -0.004951949 156 165 162
-0.0687886648527076 -0.0589963944287986 -0.0163415027212476 -0.05458888 -0.9981523 -0.0266829 152 159 156
-0.075232786688983 -0.0588922510099098 -0.0141090654350232 -0.05029226 -0.9984591 -0.0234548 143 151 147
-0.075544377129805 -0.058638834157086 -0.0161968812842619 -0.05550839 -0.9983782 0.01264 157 164 162
-0.0769878258802632 -0.058814785282217 -0.0178776958770821 -0.06721091 -0.9977053 -0.00817671 146 153 150
-0.0788460658272228 -0.0587896207678386 -0.0161641756209918 -0.07894456 -0.9964765 -0.02832404 157 162 162
-0.0694729941685694 -0.0581201522854329 -0.0199886544895935 -0.05310675 -0.9980099 -0.03399833 157 167 168
-0.0730318149260798 -0.0587379359182776 -0.0201630703905595 0.04023014 -0.9991491 -0.009082871 146 152 154
-0.0712260553972754 -0.0585992651156915 -0.0224135665554188 -0.00164971 -0.9987133 -0.05068529 157 167 160
-0.07122349120396 -0.0584399000637162 -0.0242623132112996 -0.006792854 -0.9620197 -0.2728956 167 174 173
-0.0731560850052868 -0.058846354304715 -0.0244928519180074 -0.01300612 -0.9600943 -0.2793737 168 175 171
-0.0793313920907539 -0.0591869842781865 -0.0224594188261013 -0.04215846 -0.9922011 -0.1173008 166 169 172
-0.0790549500060806 -0.0585371020810241 -0.0220304336408118 -0.03848041 -0.9980807 -0.0485191 153 162 155
-0.0790081896634307 -0.0591384208756486 -0.0241617251530554 0.02196782 -0.9572715 -0.2883552 165 169 170
-0.0854498840356861 -0.0586264289741559 -0.0142387619022201 -0.04642362 -0.9986527 -0.0231871 156 160 157
-0.0814438968829965 -0.0585035608695375 -0.0224509299095911 -0.04859348 -0.9986686 -0.01731347 155 161 161
-0.0836145282267973 -0.0585728293809057 -0.0245526778351131 -0.04951588 -0.9906232 -0.1273334 160 164 162
-0.0860213949138475 -0.0579429204668367 -0.017245431567045 0.003988219 -0.9998195 -0.01857355 168 176 172
-0.0879613903314831 -0.0583756969050263 -0.0167270902369155 -0.2178898 -0.975912 0.01094848 154 159 157
-0.0890043505746534 -0.0583621374689919 -0.018913270583357 -0.4657876 -0.8668793 -0.1776576 165 167 165
-0.0906656150371519 -0.0558873828849814 -0.0171988318644265 -0.82778 -0.4919277 -0.2697915 161 166 157
-0.0910362691092876 -0.0504258796756701 -0.0153900361539764 -0.9652272 0.03405319 -0.2591848 154 154 135
-0.0907261466004186 -0.0472468283824461 -0.0131549565644018 -0.9596279 -0.005925774 -0.2812101 143 145 144
-0.08602690858419 -0.058030399012559 -0.0223872561596125 -0.1458232 -0.9825978 -0.1150531 158 167 165
-0.087834426542079 -0.0581191592207044 -0.0223350819016122 -0.2830569 -0.949757 -0.1335677 168 173 173
-0.08790837647155 -0.0581475618183362 -0.0249591234318778 -0.5371779 -0.7767239 -0.3288463 186 187 190
-0.0891723201923864 -0.0534804555997237 -0.0228336429254714 -0.9630756 -0.1549197 -0.2201937 149 153 150
-0.089733191117396 -0.05184597150776 -0.0205024157537846 -0.9781324 0.01476299 -0.2074584 154 153 153
-0.0895801664814222 -0.0518911511298484 -0.0228845841276928 -0.9740011 0.001559918 -0.2265379 144 144 143
-0.0893656827601474 -0.0498557798246962 -0.0249583709079351 -0.9129217 -0.04403428 -0.4057524 145 146 135
-0.0688267871557313 -0.0590232975418488 -0.0264772312638817 -0.2437042 -0.8329728 -0.496754 174 179 177
-0.0695097552243293 -0.0576840358169025 -0.0267433992879913 -0.1783424 -0.6950268 -0.696514 184 186 188
-0.0701873729949112 -0.0562314903882729 -0.0271379078480638 -0.05232817 -0.5305448 -0.8460402 176 176 176
-0.0709386044244837 -0.0574498121354932 -0.0273937930123632 -0.05753417 -0.5873571 -0.8072802 180 180 180
-0.0738611915529295 -0.0575710772703626 -0.0274270343946532 -0.05870198 -0.5829823 -0.8103614 164 164 165
-0.0797860953457494 -0.0579264460233978 -0.0261444898131194 0.276071 -0.7258173 -0.6300588 175 178 179
-0.0856301400215806 -0.0589076400915375 -0.0262928917164188 -0.1690595 -0.8969803 -0.408467 190 192 200
-0.072055733401966 -0.0539382357867828 -0.0282982607049202 -0.01006358 -0.2029507 -0.9791372 174 179 178
-0.0743038362750759 -0.0547005922159107 -0.0281765683752498 -0.001696443 -0.2710761 -0.9625564 178 181 181
-0.0762575483398562 -0.0551496300321089 -0.0281924461523385 -0.03582378 -0.2877665 -0.9570304 177 180 180
-0.0795215476234019 -0.0559628555506794 -0.0268547276460644 0.0712788 -0.4633049 -0.8833278 171 173 176
-0.078240205263389 -0.0542850004630756 -0.0273890776957937 0.07171354 -0.279267 -0.9575318 157 164 155
-0.0799972063203045 -0.0541379470372763 -0.0278794750237648 0.06215113 -0.1601021 -0.9851419 172 176 179
-0.0758905888226749 -0.0502376151906075 -0.0272415856309874 0.002977729 -0.06111023 -0.9981266 168 171 173
-0.0782982351416126 -0.0536307805878703 -0.0282234768815696 0.04472167 -0.1245406 -0.9912061 168 172 170
-0.0717004304968265 -0.0476577591084342 -0.0284129999680945 0.02174526 0.02713302 -0.9993953 170 174 178
-0.0730435007655701 -0.0447224087965935 -0.0275994137261204 0.05165016 0.009250599 -0.9986224 170 176 173
-0.072147482236713 -0.0454869331595931 -0.0283980077993329 0.03567925 0.03100205 -0.9988823 172 178 179
-0.0726184322168466 -0.0439918992428601 -0.0284275541627704 0.05463713 0.01892453 -0.9983269 167 172 174
-0.0797606217358449 -0.0478501092830551 -0.0283269179154164 0.0198015 0.01091721 -0.9997443 165 170 173
-0.0786524253311227 -0.0452567880941769 -0.0282219025038941 -0.03603179 0.03815783 -0.9986219 173 176 179
-0.0816015337982514 -0.0501596660364263 -0.0282072389423847 0.01989657 -0.005529914 -0.9997867 173 176 179
-0.0836629483761535 -0.0578782298851301 -0.027056473967076 0.09697559 -0.7482654 -0.6562733 180 186 184
-0.0822100491730469 -0.0547062413771606 -0.0280737764691134 0.133278 -0.1353463 -0.9817935 160 164 166
-0.0838821753035632 -0.0546155833305287 -0.0280527127930069 0.0902498 -0.08934595 -0.9919034 177 181 184
-0.0830142425694738 -0.0526883082661428 -0.0283606744178108 0.05874005 -0.05867647 -0.9965474 173 176 179
-0.0865063313295038 -0.0552656949188105 -0.0283328664371749 -0.2970599 -0.2502003 -0.9214962 171 173 172
-0.0875689237195076 -0.0576560103503241 -0.0265645071884139 -0.4932747 -0.7078028 -0.5056632 188 190 193
-0.08709363433054 -0.0556372723006807 -0.0274144818535951 -0.5252719 -0.2951635 -0.7981027 172 173 171
-0.0834831238484348 -0.0507647374885255 -0.0282423112635882 0.02977204 -0.01020317 -0.9995046 171 175 178
-0.0876969682276787 -0.0500793402032109 -0.0275353511132328 -0.3032715 -0.1292935 -0.9440919 173 171 176
-0.0858082803010105 -0.0494994535343674 -0.0282583076461458 -0.1234005 -0.01659847 -0.9922181 175 178 181
-0.0871747610713323 -0.0498632443133861 -0.0282121019990622 -0.2477251 -0.06106814 -0.9669038 164 165 162
-0.0887989165157599 -0.0497421372888849 -0.0278404855963307 -0.6506798 -0.04977037 -0.7577193 159 159 159
-0.00537798259650168 -0.0244080296023504 -0.03010570999881 -0.005141242 0.01990776 -0.9997886 166 170 170
-0.00617020576632399 -0.0222395930076207 -0.0293308959017019 0.007338534 -0.005394473 -0.9999585 174 175 176
-0.0091715457326571 -0.0258813311004984 -0.0299608256594531 0.001521811 0.06108424 -0.9981315 172 176 177
-0.0110782264178875 -0.026027163002496 -0.0299122183563521 0.01450655 0.05083739 -0.9986016 168 172 171
-0.0108811610734318 -0.0255803924018231 -0.0293407403545742 0.01856629 0.05086023 -0.9985332 180 181 182
-0.00910310151797455 -0.0213749991875943 -0.0295100161324611 0.02246696 -0.01817007 -0.9995825 163 168 171
-0.0124416882700622 -0.0238439867033928 -0.0291757808583306 0.01506432 0.01838676 -0.9997175 164 167 172
-0.00471185616417991 -0.0180766838916696 -0.0302601699027152 0.003657323 -0.01382082 -0.9998978 170 169 171
-0.00534004715661718 -0.0162944248318844 -0.0293510745885157 0.003890057 0.001566749 -0.9999912 174 166 171
-0.00701965191729181 -0.0191180456446142 -0.0294315576878935 0.03326065 0.007475538 -0.9994187 177 177 179
-0.0060494451531361 -0.0140965556011229 -0.0301702665313955 -0.009184193 -0.01403075 -0.9998594 210 160 199
-0.00946332454327115 -0.0152135896138711 -0.0301301405768376 -0.006643544 -0.0264778 -0.9996274 185 168 180
-0.0110427910909716 -0.0176377539269134 -0.0300879257323481 0.05069971 -0.007986236 -0.998682 174 175 175
-0.0129934342149594 -0.018342678578953 -0.0302172668798011 0.05419101 0.006435475 -0.9985098 169 172 174
-0.0130376783152064 -0.0204186113957321 -0.0293836912347617 0.04354591 -0.04290915 -0.9981295 169 170 173
-0.0116485608515919 -0.0158729888333122 -0.0300160526418017 0.01868765 0.008325139 -0.9997907 173 174 176
-0.0151256666282404 -0.0271756231460847 -0.030013595483423 0.01777544 0.07134008 -0.9972937 178 181 181
-0.0156926115882352 -0.0252092289469171 -0.0299409043705226 0.03384867 0.004064991 -0.9994187 171 174 174
-0.0173164089314826 -0.027534250295787 -0.0293301241578961 -0.0003085331 0.03959628 -0.9992157 173 176 175
-0.0192774327109317 -0.025993348607766 -0.0297921823784549 0.02931327 -0.0009504647 -0.9995698 171 175 174
-0.0179222053623298 -0.0234436184551559 -0.0300271325466106 0.03565066 0.004449758 -0.9993544 167 170 172
-0.021180888170186 -0.026706123612469 -0.0293595470829988 0.03162777 -0.006550356 -0.9994783 174 180 179
-0.0227945189076939 -0.0290177291951891 -0.0298653465630997 0.04612011 -0.03283729 -0.998396 177 179 181
-0.0245063239382013 -0.0292857740024881 -0.0292081043240355 0.03179166 -0.03056138 -0.9990272 174 178 179
-0.0250796836174172 -0.0271620818207647 -0.0293985421153558 0.04312282 0.001934783 -0.9990679 173 177 177
-0.0244559318154769 -0.0274541893970063 -0.0300048313076956 0.03349489 0.003274606 -0.9994335 176 182 183
-0.0218559566341838 -0.0248297201798003 -0.0299025656452062 0.01295502 0.006725748 -0.9998935 179 180 181
-0.0259952144195514 -0.0256984890797539 -0.0299121095236345 0.0210969 -0.01177148 -0.9997081 187 188 190
-0.0184333716366174 -0.0218047568492212 -0.029935562180603 0.02075496 0.01836921 -0.9996158 176 179 180
-0.0204209518123246 -0.0203576592812954 -0.0292827459734923 0.006764844 -0.002616569 -0.9999737 170 173 172
-0.0173545890238982 -0.0175525743432768 -0.0293459053686848 0.02696134 -0.04058117 -0.9988124 160 164 159
-0.0214095606031428 -0.0183836204909597 -0.0294584354851415 0.05841814 -0.03036669 -0.9978302 175 179 176
-0.0219136957504347 -0.0188071449808775 -0.0301720790104759 0.02807355 -0.04584765 -0.9985539 179 180 181
-0.0232529350839186 -0.0208565182221142 -0.0294447299622406 0.0432881 -0.00915271 -0.9990207 177 178 179
-0.0231213182297467 -0.0205193931684139 -0.0300158888662071 0.03185078 -0.009796734 -0.9994446 177 177 178
-0.0244926370150194 -0.0232249960376548 -0.0300177185539449 0.02988389 -0.003672424 -0.9995466 177 179 181
-0.0232455497123309 -0.0188565180605719 -0.0300419197987529 0.05309355 -0.02674572 -0.9982313 183 184 188
-0.026116746951161 -0.0199756234954058 -0.0302569150594992 -0.01582388 -0.01604799 -0.999746 179 179 184
-0.00669760199543923 -0.0124552653138028 -0.0301101859424552 0.04980157 -0.0271273 -0.9983907 216 168 206
-0.00706353698064088 -0.0107075067920888 -0.029674558202971 0.02857776 -0.03009203 -0.9991385 208 172 200
-0.0104175178096719 -0.0133800252618681 -0.0295223774717445 0.01593672 -0.0229617 -0.9996093 199 168 191
-0.00741832085736727 -0.008281156920392 -0.0297302068158999 0.0558676 -0.006434362 -0.9984174 190 174 189
-0.00978541899898033 -0.00895689650788156 -0.0295950045368862 0.01937683 -0.02170165 -0.9995767 214 171 206
-0.0122097969147954 -0.0139041882122878 -0.029491899094598 0.03916611 -0.001140034 -0.9992321 183 173 183
-0.0126417360813655 -0.0120686611812169 -0.0302028468541195 0.02125422 -0.04413825 -0.9987993 207 173 199
-0.0134577822251662 -0.00982849616185522 -0.0296528947843187 0.039922 -0.01739194 -0.9990515 209 163 199
-0.017034333388521 -0.0110616768057704 -0.0294612173426193 0.009770941 -0.04498545 -0.9989399 159 163 163
-0.00827095622122842 -0.00669650103442321 -0.0296927409436138 0.03611608 0.001762151 -0.9993461 175 173 177
-0.00944810465669077 -0.00719200256208041 -0.0302845262553837 0.02406256 0.008720856 -0.9996724 196 177 194
-0.0125102862567457 -0.00571469783564471 -0.0296419142300581 0.04087002 -0.006011604 -0.9991464 215 171 206
-0.0112114133872501 -0.00338061562315328 -0.0302664025108828 0.04187703 -0.03667128 -0.9984496 191 180 189
-0.0161768843233925 -0.00642017649128102 -0.0295909475793461 0.0320261 -0.007223264 -0.9994609 210 171 201
-0.0156020870388036 -0.00827280658795249 -0.0301524200141275 0.03740603 0.01697515 -0.9991559 204 168 195
-0.0177716786557389 -0.0093777529596839 -0.0295706412606141 0.0156172 -0.04655463 -0.9987937 171 170 174
-0.0147543579278095 -0.00415230268656008 -0.0296028403189913 0.03272913 0.009684876 -0.9994173 222 166 210
-0.0185090510693646 -0.00551566329723763 -0.0296360205477512 0.04093526 0.03283675 -0.9986221 187 173 186
-0.0179200559553245 -0.0155627373207645 -0.0302498433304027 0.02100885 -0.00979392 -0.9997313 170 171 175
-0.0191057441189209 -0.0140000620052615 -0.0299421799294434 0.02900339 0.005665347 -0.9995633 171 173 175
-0.0202438895335986 -0.015916297015808 -0.0299794576987109 0.03348891 0.04065213 -0.998612 180 182 184
-0.0221740026236374 -0.0144594294150139 -0.0302881884390317 0.05319784 0.02592173 -0.9982475 179 186 183
-0.0228990385193009 -0.0125973470258863 -0.029365526347878 0.009690131 0.01551501 -0.9998327 177 180 178
-0.0257620404643348 -0.0175600222668413 -0.0294409367875589 0.006381765 0.01107238 -0.9999183 181 184 186
-0.0241369030142198 -0.0152320969880101 -0.0306190533534974 0.006675072 0.01112821 -0.9999158 185 184 193
-0.0283531696704484 -0.0157258073265647 -0.0293960515988018 -0.02926711 0.04927582 -0.9983563 177 180 182
-0.0248066002218987 -0.0131750721240154 -0.0292633623026554 -0.02356268 0.02691791 -0.9993599 178 178 178
-0.0236212183136812 -0.0103330210458931 -0.0296213142294948 -0.03448049 -0.01582871 -0.99928 181 183 183
-0.0211495394303296 -0.0100847306184593 -0.0304795997500143 0.04272874 -0.05195723 -0.9977348 171 173 177
-0.0223411643706575 -0.00616462119864836 -0.0294847320362036 -0.01747276 0.01171324 -0.9997787 183 185 187
-0.0221405943615767 -0.00584240939043135 -0.0307551460216469 -0.01613208 0.02395475 -0.9995829 187 186 192
-0.0273374638919348 -0.0119872802083996 -0.0293352895803096 -0.01168017 0.02926799 -0.9995034 170 174 174
-0.0250911054073826 -0.0106756996584456 -0.0302071110254005 -0.06204307 0.001640913 -0.9980721 171 172 176
-0.0285060115630205 -0.00769361392418666 -0.0293166448530338 -0.01522526 0.03463158 -0.9992841 178 182 182
-0.0302478136406337 -0.00800431139691304 -0.0292644327135839 -0.0266445 0.0006881103 -0.9996448 175 178 177
-0.0267668201278037 -0.0278019653405411 -0.0294059849931423 0.02262647 -0.009606464 -0.9996978 183 184 188
-0.0283711392854906 -0.0306701274716358 -0.0296672846711109 0.01996548 0.004584561 -0.9997901 178 181 184
-0.0304744023652095 -0.0312097406295552 -0.0297141268455701 0.03939484 -0.01301268 -0.999139 178 180 183
-0.0311107063605243 -0.0291348259401404 -0.0293611600666759 0.03404738 -0.01216328 -0.9993462 179 183 183
-0.0288348268624872 -0.0273075200945282 -0.0301735904740146 0.01232591 -0.002766358 -0.9999202 178 181 184
-0.0342409571793088 -0.0320570448729114 -0.029268502348182 0.05242225 -0.01222171 -0.9985502 176 180 181
-0.0344430230216464 -0.0320176286767427 -0.0298209018473908 0.04217154 -0.01911007 -0.9989276 181 183 185
-0.0363991152146559 -0.0329167092802408 -0.0293092535018879 0.01876337 0.004273937 -0.9998148 182 185 189
-0.0335279730321245 -0.0290300786533546 -0.0297136668907621 0.02989557 0.04816676 -0.9983918 180 181 183
-0.0299150841396383 -0.0245141151062397 -0.0292916329515693 0.01111948 0.04652106 -0.9988554 182 183 183
-0.0281763627447376 -0.0224293097484112 -0.0298601419134958 0.02128404 -0.01873883 -0.9995978 180 180 180
-0.032368242666212 -0.0233597916782385 -0.0298625452206964 -0.01118847 0.01344311 -0.9998471 171 173 170
-0.0313932453679877 -0.0209109941797915 -0.0292852404419273 0.001610659 0.02780229 -0.9996122 178 181 182
-0.0327207923950028 -0.0215142041181744 -0.02992017916242 -0.02098507 0.03188469 -0.9992712 171 176 173
-0.0362825157507696 -0.0262141414651301 -0.0290082745398539 0.01699189 0.02475357 -0.9995492 178 180 181
-0.0384817855953195 -0.0245776929185965 -0.0291182771649481 0.04431455 0.01462963 -0.9989105 177 179 179
-0.0385931720754069 -0.0234304071729231 -0.03059571647014 0.02465471 0.0169268 -0.9995527 181 185 182
-0.041145920063975 -0.0316052669005372 -0.0291422186559226 -0.06249433 0.02332317 -0.9977728 185 186 189
-0.0413705377378135 -0.0337543757621521 -0.0296760619809244 -0.01314111 0.01883838 -0.9997362 181 184 188
-0.0390398204499727 -0.0292448684431658 -0.0300739758020082 0.04467943 0.06675562 -0.9967685 182 184 186
-0.0442570607499606 -0.034376417318622 -0.0292117357562258 -0.02815335 0.08075274 -0.9963365 179 180 185
-0.0483628403845318 -0.0336081022161746 -0.0290851528766334 0.02272162 0.09643717 -0.9950797 171 175 177
-0.0468622155983276 -0.031260866276318 -0.0289983750832955 -0.01865626 0.01739116 -0.9996747 179 181 185
-0.0397918290755048 -0.0273142836733185 -0.0292161836466714 0.05390051 -0.0004093608 -0.9985462 177 180 180
-0.0417201368003162 -0.0285222576816917 -0.0299016797218636 -0.03421807 -0.03263249 -0.9988815 176 180 181
-0.043643074537755 -0.0281810264572071 -0.0290822043419641 -0.07390771 -0.0237065 -0.9969833 181 183 185
-0.0439359548324778 -0.0290405845828065 -0.0298441928940888 -0.07219748 0.002378015 -0.9973875 179 183 183
-0.0410815435898488 -0.0231115672279294 -0.0294429378010843 -0.01267533 0.02921885 -0.9994926 182 183 184
-0.0410579573564607 -0.0249678885707474 -0.0301131174595917 0.02989586 0.03652577 -0.9988855 179 179 179
-0.0476634956859905 -0.0292538082559469 -0.0288597615181961 -0.03288817 0.04044293 -0.9986404 174 178 179
-0.0499383624562304 -0.0277482905918589 -0.0289178313917909 -0.02100923 0.09086156 -0.9956419 177 180 180
-0.048409034517352 -0.0251045528608134 -0.0287721516190083 -0.07481802 0.05982928 -0.9954008 175 178 178
-0.030302210519221 -0.0165376630190636 -0.0292269820052841 -0.03628073 0.04907914 -0.9981357 180 183 182
-0.033568861748666 -0.0191759957993614 -0.0291314904918394 0.01321427 0.03666041 -0.9992404 180 182 183
-0.0325594718604232 -0.014789978533127 -0.0291399532055889 -0.01824533 0.06303865 -0.9978443 180 184 181
-0.0407244508039364 -0.0169817620526982 -0.0290141890020573 -0.002460474 0.10244 -0.9947361 173 176 174
-0.03402861738999 -0.0101496038760522 -0.0276363570044563 -0.0204359 0.01118462 -0.9997286 179 183 181
-0.0342730777867213 -0.00893271270923635 -0.029088165390777 -0.03383962 0.02263849 -0.9991708 182 184 185
-0.041261752028761 -0.0132323886409096 -0.0287490069466791 -0.052202 0.03872235 -0.9978855 182 185 185
-0.040884632023289 -0.0152305628297893 -0.028989070152324 0.01514278 0.0971203 -0.9951574 177 179 180
-0.0416139867601433 -0.0109837584138842 -0.0289042775632485 0.02472142 0.04369979 -0.9987388 181 183 183
-0.0443621514522703 -0.0215757241454438 -0.0278122981741205 -0.07155674 0.08779792 -0.9935648 191 193 198
-0.0456489236968118 -0.0207637150360112 -0.0289167371015736 -0.06826533 0.07162151 -0.995093 176 178 179
-0.0428272277445108 -0.0193856388350845 -0.0307186044241815 -0.03676866 0.06550843 -0.9971744 179 179 177
-0.0506993691119315 -0.0235842456435291 -0.0276463597157426 -0.07949547 0.02154192 -0.9966024 184 185 185
-0.0488191441587653 -0.018932923259821 -0.0275690797256089 -0.03806205 0.05803909 -0.9975885 173 179 171
-0.0520987216977091 -0.0199389751719191 -0.0287160804399861 0.05422648 0.01052154 -0.9984732 172 175 172
-0.0498862137420759 -0.0213274625201783 -0.028740258898001 -0.05235065 0.040657 -0.9978008 172 174 176
-0.0515415289216614 -0.0221691949060885 -0.0287125009459272 0.0169227 0.01488597 -0.999746 161 164 163
-0.0428780088275289 -0.013207759036461 -0.0280113980166527 0.01398035 0.04804885 -0.9987472 183 185 186
-0.0458821129156068 -0.0122033524777012 -0.0288524028844416 0.001107888 0.02631997 -0.999653 180 182 180
-0.0427415946021243 -0.0153500665876148 -0.0288885959007294 -0.01048362 0.08217569 -0.9965627 179 181 180
-0.047492544035586 -0.0147999510715682 -0.0287892369748954 -0.02648799 -0.01639988 -0.9995146 179 180 180
-0.0483548466573573 -0.0165802891456984 -0.0281707212772745 0.002925328 -0.004645582 -0.9999849 180 181 182
-0.0511625094399499 -0.0154593208205537 -0.0285613954639122 0.01034943 -0.02254493 -0.9996923 178 180 180
-0.0510510076338679 -0.0147575826677159 -0.0280616445069958 -0.001446 0.007162916 -0.9999733 179 182 181
-0.0495075487131014 -0.0128336792851542 -0.0287624743787719 -0.01861752 0.002865613 -0.9998226 173 176 176
-0.00983444052349203 0.00128345181661493 -0.0299553412685599 -0.01364832 0.02510598 -0.9995916 159 164 163
-0.0133391777133562 -0.00169032222749421 -0.0298379362956161 0.03901725 -0.009408368 -0.9991943 208 173 200
-0.0115621360351637 -0.00117042629988307 -0.0305222221528882 0.008438782 0.02926937 -0.9995359 181 177 182
-0.0102862443598633 0.00322819383519501 -0.0297883246921708 -0.009781792 0.06456995 -0.9978653 163 169 170
-0.0172116565628295 -0.00273930626190677 -0.0296009618019476 0.01231814 -0.02570216 -0.9995937 217 170 206
-0.0177157411954449 -0.000691518119828038 -0.0295554098919734 0.05256042 -0.0120394 -0.9985452 221 174 209
-0.0172839367409208 -0.000619745393709903 -0.0306334858644653 0.05941678 -0.01847641 -0.9980623 230 176 217
-0.0182889266952406 0.00105833844793668 -0.0296533106441803 0.0154153 0.0127528 -0.9997998 219 171 207
-0.0187142231866781 0.00032661174837556 -0.0304675806907627 0.003091252 -0.008134669 -0.9999622 211 172 203
-0.0126407763143845 0.00475930040720618 -0.0297581457327908 0.02564046 0.09111781 -0.99551 173 168 172
-0.0106706267331513 0.00417689842923796 -0.0306651620687169 -0.002414832 0.04248859 -0.999094 166 169 170
-0.0122290288573295 0.00871297468834165 -0.0294631890504479 -0.02118634 0.05724401 -0.9981354 163 163 163
-0.0158057526804778 0.0078755783089911 -0.0295546756178778 0.09218527 0.0888717 -0.9917679 222 171 209
-0.0199016364396045 0.00689430145883974 -0.02927344187647 -0.07964291 0.05464994 -0.9953243 200 170 191
-0.0173388060830773 0.0053570686632155 -0.0296348663917295 0.05276303 0.1046674 -0.9931067 225 168 212
-0.0205479737939767 0.00306249751009779 -0.0294315299092377 -0.05235197 0.05977325 -0.9968382 185 172 182
-0.0193282725883379 0.00224873151083649 -0.0305776101034935 -0.04501998 0.02509428 -0.9986709 204 164 194
-0.018692779115812 0.00807478298525421 -0.030737568308847 0.01576887 0.1019209 -0.9946675 221 167 207
-0.0211470579171098 -0.00381186984363879 -0.0295185508738611 -0.01209645 -0.007277729 -0.9999003 182 183 186
-0.0222439678405775 1.97364611114192E-05 -0.0295717976055699 0.00719566 0.06150651 -0.9980807 179 182 185
-0.0211085052654645 -0.000245769681336605 -0.0306688753816717 -0.01494637 0.03400619 -0.9993098 176 176 178
-0.0254260029350282 -0.00134992616620622 -0.0305505211147686 -0.0281318 -0.01320263 -0.999517 183 183 185
-0.0276136606323369 -0.0034018817601954 -0.0293356683691985 -0.04933177 -0.03087396 -0.9983051 176 179 181
-0.0306858403893826 -0.0061866909644408 -0.0293072176557912 -0.01848168 -0.006798368 -0.9998061 182 184 186
-0.0264263913895877 -0.00215726946018846 -0.0311029478453451 -0.003764906 -0.01167171 -0.9999248 183 181 189
-0.0268385967566687 0.00373198223649795 -0.0284623325880132 -0.02289444 0.1151165 -0.9930881 160 165 152
-0.0251455258226003 0.00351481808680709 -0.0293599242465237 -0.02827709 0.1167402 -0.9927599 169 173 172
-0.0246741890778726 0.000438885225558683 -0.0306395685215314 0.01490322 0.1099937 -0.9938205 176 181 181
-0.0254528617215688 0.00539892345304815 -0.0293205686033408 -0.0267772 0.02017882 -0.9994377 166 169 167
-0.0303682432921732 -0.000274048397199689 -0.0293838888231009 -0.02349919 0.1003412 -0.9946755 185 186 189
-0.029570775894491 0.00419060505433766 -0.0285568288891915 0.004832196 0.04704034 -0.9988813 169 173 163
-0.033120540303778 0.00236087187286393 -0.0285017722177993 -0.00404305 0.0768428 -0.997035 174 176 172
-0.0318600864788725 -0.000150012719200454 -0.0295679446290815 -0.06418533 0.09889761 -0.9930254 180 182 183
-0.0147244212742117 0.0106026659201832 -0.029364522058622 0.04212923 0.05340727 -0.9976837 209 167 200
-0.0154111461460538 0.0142961378016794 -0.0293100555842555 -0.03761568 0.006521054 -0.999271 221 169 206
-0.0220631553327002 0.00965308036225765 -0.0285729913293551 -0.06584474 0.07144152 -0.9952691 170 173 170
-0.0225628662317212 0.0104526231088478 -0.0292773493025865 -0.05598013 0.05457671 -0.9969391 167 170 168
-0.0201557979727474 0.00866931760054568 -0.0293312038701888 -0.00577465 0.09771194 -0.995198 199 171 190
-0.0197419289860958 0.0100847056305714 -0.0306679294825616 -0.01396259 0.09960774 -0.9949288 205 176 194
-0.0144396694128446 0.0188171070277389 -0.0294139463892907 -0.04006865 0.02874471 -0.9987834 216 164 204
-0.0171806360893432 0.0156274895484906 -0.0286369088382065 0.004638392 0.03479755 -0.9993836 225 167 213
-0.0178977319178721 0.0168198162363175 -0.0287741578174715 -0.007915634 0.02442677 -0.9996703 220 169 207
-0.0161963940134826 0.0162813623270806 -0.029300374930716 -0.016093 0.03109334 -0.9993869 221 167 208
-0.0166515686044844 0.019852060174794 -0.0293562222664807 0.01920333 -0.007551295 -0.9997871 221 167 207
-0.023508082394502 0.0142628314789724 -0.0291421034248795 0.004365264 0.0196697 -0.999797 166 168 170
-0.0226182905561201 0.0161505905995996 -0.0284857093429913 0.01800382 -0.001251744 -0.9998372 181 179 178
-0.0195116439180079 0.0202782008134821 -0.0288706728922004 0.04813929 0.02100106 -0.9986199 189 176 178
-0.0244361339753252 0.0177680952218787 -0.0288367496585667 0.04199234 0.003763321 -0.9991108 162 165 161
-0.0246234712614832 0.0181697944500315 -0.0292052388100132 0.06169335 -0.009334687 -0.9980515 168 171 170
-0.0255949414727805 0.00869787435069358 -0.0285898505313896 0.006992701 0.01490012 -0.9998645 167 170 170
-0.0269967779524563 0.0116976846091817 -0.0292414175637581 0.01337334 0.01183074 -0.9998406 170 171 172
-0.0293822952147789 0.00628075617083512 -0.0283331495764949 -0.005002241 0.01932643 -0.9998007 170 173 178
-0.0313872332130538 0.00871691212113856 -0.0284755103617204 0.05265853 0.01671575 -0.9984727 168 171 171
-0.0311603081942895 0.0109487295111165 -0.028677760365387 0.01358185 -0.01643934 -0.9997726 183 185 183
-0.0346361225217704 0.010010035231966 -0.0286240237274351 0.03793039 0.008933851 -0.9992405 178 180 181
-0.0253111345329531 0.0134413835066852 -0.0287230232289072 -0.001636311 0.03088908 -0.9995215 168 171 174
-0.0261537437028121 0.0176627904247788 -0.0285737718582722 0.03205622 -0.01721819 -0.9993377 162 168 166
-0.0304929096576343 0.0168665757639405 -0.0292529298952281 0.03076582 -0.00150432 -0.9995255 178 180 179
-0.031590593449268 0.0123233138704089 -0.0293289448623318 0.04183721 -0.01117123 -0.999062 172 175 176
-0.0351404945171381 0.0113208974644278 -0.029169406191288 -0.002401609 0.03757057 -0.9992911 178 180 180
-0.0356884078980908 0.0125320611854618 -0.029179213757215 0.01713626 -0.01762621 -0.9996978 186 187 187
-0.0344069478948477 0.0154280927317342 -0.0287397885492499 0.02229467 -0.02027005 -0.9995459 175 177 177
-0.0360727260136295 0.0149112749373713 -0.0287911810055692 0.01834542 -0.008051925 -0.9997993 179 181 181
-0.0321582243682572 0.0145964403598313 -0.0293116489049393 0.03294152 -0.01091048 -0.9993978 181 182 184
-0.0376062081842399 -0.00385548988150353 -0.0291741207497688 -0.03224995 -0.004038644 -0.9994717 184 186 189
-0.0373732175545807 -0.00606395764768253 -0.0290684090214336 -0.05945989 0.02208871 -0.9979863 180 183 185
-0.0395257943955141 -0.00740466861286759 -0.0279723126655558 -0.04603062 -0.0006845627 -0.9989398 168 170 174
