ply
format ascii 1.0
comment File exported by Rhinoceros Version 7.0
element vertex 464
property float x
property float y
property float z
property float nx
property float ny
property float nz
property uchar red
property uchar green
property uchar blue
end_header
-0.0793578844717051 -0.00887563839048022 0.0107423483774711 -0.1196027 -0.7535014 0.6464758 171 179 182
0.000407077724644989 0.0209087131968153 0.035476487819915 -0.1500851 -0.1367508 0.9791699 157 161 162
-0.0424174290349986 -0.0138561131009447 0.00311939114785686 -0.005816419 -0.7365121 0.6763994 177 182 187
-0.0455459576299693 0.0291864274492872 0.0371278345034172 0.08708568 0.0204422 0.9959911 157 161 163
0.0730250853845571 0.013300895546974 0.0209679126188804 0.9366456 -0.24729 0.248078 170 174 175
0.0264578837701772 -0.0148378910073625 0.00255392188287273 0.01203931 -0.7259952 0.6875943 192 193 193
-0.0567717772176768 0.028623640393318 0.0368822335646202 -0.5807217 0.2987506 0.7573047 176 179 177
0.0752521533319448 0.0130254028788221 0.00932214850640789 0.9740318 -0.17064 0.1488085 173 177 176
0.0684903640100454 0.00656601772219068 0.0244006037161399 0.3098036 -0.611557 0.7280246 197 202 208
0.018283464367101 -0.0117899776944506 0.00583798879838482 0.01097981 -0.7349472 0.6780354 228 197 185
0.0696323890039419 0.0440826712599409 0.0361340760633995 0.1809283 -0.09864554 0.9785367 172 175 180
-0.0274645310094859 -0.015030563021599 0.00318966502404705 0.02370515 -0.7929853 0.6087795 179 183 184
0.0504280108758901 0.0305331645956648 0.0351118564055015 0.08436445 -0.1733223 0.9812452 150 156 160
-0.0151881199529673 -0.00411266102880115 -0.00027342444204792 0.3688893 0.9110433 0.1841757 204 195 198
-0.0391913872411753 0.00124841914087659 0.0210440277502586 -0.002629205 -0.7479695 0.6637279 232 192 181
0.00274882500858054 0.000802576397956667 0.019529861156707 0.002080459 -0.7356555 0.6773527 237 198 187
0.0167826194116567 -0.00111132874578113 0.00555525416589275 0.7929841 -0.2775061 -0.5423713 236 202 194
-0.0573915463140513 0.00953471646219617 0.0307403623507072 0.03799081 -0.7382025 0.6735086 173 180 184
0.0145643729516958 0.0446220336905134 0.0393615781710197 0.06737538 -0.2840907 0.9564272 158 161 162
0.0530017394372915 0.0435027180662764 0.038816434089904 0.2028762 -0.2060941 0.9572703 158 162 164
-0.0541619282415415 0.033121257876457 0.03835244173265 -0.4199154 0.1046131 0.9015138 180 182 182
0.0718506354639028 0.00580477700144177 -0.00610210304998859 0.799224 -0.3001369 -0.5207291 171 176 173
0.0726769942590688 -0.00150281205266589 0.00651220673776165 0.9806691 -0.1385757 0.1381477 173 176 174
0.00355944817752585 0.00971961007028943 0.0223018347666313 -0.9488018 -0.1727967 -0.2644174 236 198 189
0.054364540035436 0.022899329518379 0.0340026735708763 0.1124275 -0.1979761 0.9737379 166 170 172
0.0384443778345083 0.00544229135424024 0.024331730549102 0.006635507 -0.7404452 0.672084 245 202 190
-0.0331524830511118 -0.0153157116422045 0.00289706582284466 -0.02211467 -0.7649791 0.6436753 181 185 186
-0.0435918789556529 0.0265966652384413 0.037134510223632 0.1238706 -0.008388769 0.9922629 158 164 166
0.0366734046289419 0.045499473666252 0.0395144640848686 -0.02050952 0.01634493 0.999656 155 160 162
0.0427723903009389 0.0447569190016401 0.040353310053115 -0.07539267 -0.07147071 0.9945893 157 164 166
-0.0794992666891123 0.0173697172155989 0.00696892732835308 -0.7776067 0.4158809 0.4715621 165 170 169
0.0544715899774526 -0.000826895380912962 0.017015200798278 0.01319028 -0.7381513 0.6745063 188 193 201
0.0677836913415883 -0.00276422515004748 -0.00629782980226978 0.7003623 -0.4958476 -0.5134471 165 171 171
0.0383270758935903 -0.0191367270001757 -0.00253965264105305 0.01718628 -0.7390792 0.6733993 246 203 189
0.0382791537591909 0.0386106668463362 0.0388744294092704 -0.06868068 -0.2002375 0.9773371 156 162 166
0.0144446868249868 0.00539156780153638 0.0244006037161399 0.0101527 -0.7422093 0.6700913 204 188 177
0.0695017356225942 0.0151350198736799 0.0296529054091026 0.5806794 -0.4937129 0.6473476 183 189 193
0.0370124358484243 0.0122725664129866 0.0314262926027824 0.02586546 -0.6823625 0.7305562 184 189 194
0.0184169787713979 0.000662773703635988 0.0191730975554039 -0.001483582 -0.7348167 0.6782641 182 187 193
-0.0176238041570689 0.0227688549509657 0.0362645506308128 0.0007129783 -0.2673025 0.9636124 170 175 176
-0.0398782711675669 -0.0208592416295397 -0.00293220883154377 0.01452517 -0.7395142 0.6729842 177 183 189
-0.0746927481344248 -0.00250321641057605 -0.00675456529402241 -0.3512076 0.8146116 0.4615856 160 165 160
0.0343702811548208 -0.0143273474225389 0.00264817172742382 0.0270179 -0.729218 0.6837478 241 202 190
-0.00927247816829935 -0.0219031573781359 -0.00462317770266041 0.01073081 -0.7310135 0.6822786 186 191 197
-0.017455003803065 0.0070866940966261 0.026948404257064 0.01236093 -0.7272993 0.6862091 180 185 190
-0.0382417660406138 0.00576132521540051 0.0264775871679832 0.004354432 -0.7429342 0.6693503 232 192 175
-0.00159516150264993 -0.0176404119977343 -0.000425654704804268 0.02335645 -0.7340434 0.6787007 184 189 196
-0.0716914158514048 0.0167413352480543 0.0215437232897331 -0.7884505 0.4244051 0.4452258 161 168 165
-0.0121866684606577 0.0345132051458967 0.0382654487536003 0.08324165 -0.1520421 0.9848624 168 171 172
0.00477729027957663 -0.0101153255948412 0.00820861453271404 0.07816686 -0.7505253 0.6562025 187 192 195
0.058061935360143 0.00189000353723889 0.00607724184251324 0.9856244 0.1684387 -0.0131556 197 201 210
-0.0607300024679209 0.030119925593437 0.0286959826395561 -0.7977455 0.3925648 0.4577062 171 175 175
-0.0237897854497935 -0.0025684834966051 0.0169516324446251 0.04304335 -0.69949 0.7133449 186 188 189
0.0427943248102163 0.0182015894404066 0.0292614519045402 0.7608446 0.2254551 0.6085108 204 193 196
-0.0377198677709605 -0.0179013611325609 -5.592709326252E-05 0.0238734 -0.7361441 0.6764037 179 185 190
-0.0872374993017222 -0.00136360540479297 0.00910465115762249 -0.9443593 -0.1629757 0.2856999 162 166 161
0.030631162578771 -0.00100800409406299 0.0172017335341026 0.01670017 -0.7505127 0.660645 245 200 188
0.0125053901025747 0.0387324391356123 0.0379174768374015 0.09969766 -0.1493136 0.9837509 165 169 170
0.0123218077966665 0.0309899149885786 0.0374100028917839 -0.01084164 -0.0883214 0.996033 159 166 165
-0.0334569435766245 0.0125722883692396 0.0331871032164146 -0.002425747 -0.6804017 0.7328353 174 183 184
-0.079390547817042 -0.00385165228932971 -0.0055801302745293 -0.5509558 -0.543967 -0.6328883 166 170 169
-0.0367194634130503 0.0128079055300367 0.000509542171721611 -0.347267 0.9244573 -0.1574308 196 198 204
-0.00948991591243997 -0.00846242919057483 0.0105139731810142 -0.00616001 -0.732351 0.6808994 183 189 194
0.075069524700353 0.0165791510096205 0.0193744420454551 0.9231023 -0.3165026 0.218422 166 170 171
-0.0517608147314097 0.0370447336187971 0.0374650775835563 -0.5100811 0.2717845 0.8160579 169 174 173
0.0311513919183706 0.0489253698340071 0.0396138846323539 -0.04491935 -0.01373699 0.9988962 153 161 162
-0.0595674734762217 -0.00497072949498767 0.0147648870394279 0.01155783 -0.7183233 0.6956134 174 182 185
0.0244091529199575 0.0210869608870161 0.0363370596811821 0.01065424 -0.3003979 0.9537545 159 166 170
-0.0172323208501841 0.0077621935358656 0.0283044993326713 0.02089292 -0.726051 0.6873234 180 186 192
-0.0115319710424449 0.00898012504488355 0.0291080593512107 -0.009010073 -0.7329716 0.6801996 180 185 191
0.0760699290582632 0.0125904081812513 0.00572924012399212 0.9949266 -0.09750368 0.0247806 165 170 165
0.0503629226037954 0.00107806906610852 0.0191845118448783 0.02891888 -0.7586589 0.6508459 187 193 201
0.0683809298822378 -0.00520342602819079 -0.002742740566964 0.6759608 -0.4457695 -0.5868275 179 182 179
-0.00952138716488138 0.0126484333029402 0.0329514860556175 0.01656101 -0.5156372 0.856647 165 173 172
0.00661502068729147 0.0306636391630781 0.0368517755911399 -0.0459713 -0.09182473 0.9947135 164 168 170
-0.0574459057500865 -0.000980824376045408 0.0192743956491996 0.008053786 -0.7517112 0.6594433 170 178 182
0.0362804908105825 0.0233452020636213 0.0362754284784843 0.2019333 -0.3356853 0.9200752 153 158 161
0.0558000583002065 -0.0143345595845568 0.00233643943524853 0.02187801 -0.7382967 0.6741211 191 195 204
-0.0262364369085337 0.0266836284151686 0.0360035716936637 -0.0862712 0.02589713 0.995935 156 160 159
-0.0357407551458384 0.000867813681663332 0.0207032679960777 0.02192822 -0.7482927 0.6630061 183 182 176
0.00458154862613425 0.0103394387713087 0.0298432230398704 0.01186001 -0.7403524 0.6721144 182 187 193
-0.0379458885839488 0.0371578632345808 0.0372302054808189 0.1517416 -0.246303 0.9572405 158 163 166
0.0567570704767202 0.0185278354635847 0.0326107859060814 0.06707364 -0.2373649 0.9691021 168 173 174
-0.0295857411077525 0.0232162772169722 0.0359290062830497 -0.08535365 0.01573092 0.9962265 157 161 164
0.00725660508365378 0.0412553249350203 0.0388744294092704 0.01728132 -0.2354713 0.9717277 155 157 163
0.0628248233148549 -0.0112593175420153 0.00534645909524456 0.04513836 -0.7623516 0.645587 193 199 206
-0.0413736324956919 -0.0130731464871752 0.00616423482156292 -0.01123031 -0.7598152 0.6500421 234 194 181
-0.00945153052120462 0.00551566467195874 0.0251675664827873 0.01474488 -0.7312211 0.6819811 183 188 194
-0.00366129690914407 -0.00493365540593738 0.0134446143553306 0.01097716 -0.6941105 0.7197847 194 186 181
0.0205284137079214 -0.00745230927556628 0.0106638192579795 0.008045753 -0.7306421 0.6827133 220 194 187
0.00869212334842429 0.0449236331930769 0.0398168682501365 0.06614158 -0.239546 0.9686295 154 158 162
-0.0648768168142344 0.0308159290304792 0.0208519219801475 -0.7977455 0.3954154 0.4552458 169 175 173
-0.0489131432226206 -0.00854939236730212 0.0108184635088493 0.009110496 -0.7242215 0.6895073 228 192 178
-0.075693152492335 -0.0125077070245134 0.00716466898179546 -0.01304497 -0.7880697 0.6154478 178 183 188
0.0367542285272573 -0.0175720454701769 -0.000671106631989327 0.01315297 -0.7253926 0.6882097 246 204 190
0.0126286525079702 0.0402766166678084 0.0380697071001579 0.1354726 -0.2152564 0.9671152 149 151 154
-0.0731317024877574 -0.000980824376045408 0.0191361724779655 -0.004441335 -0.7206463 0.6932887 177 185 188
-0.0600449066808726 0.023149460410179 0.0355250954077293 -0.6770371 0.3237073 0.6609345 169 174 173
0.038009502346227 0.0146782992830885 0.0335241972849418 0.1232294 -0.4969126 0.8590066 162 170 174
-0.0879160385778452 0.00476810321718579 -0.00533363526606068 -0.7948654 -0.4179633 -0.4398814 165 169 162
-0.0796841602972056 0.00670737013727551 0.0165927528784324 -0.8000427 0.4108743 0.4371657 163 169 166
0.0545385855981801 0.00784921631723767 0.0264341055796196 -0.007434312 -0.7763329 0.6302792 185 190 196
0.064383603985021 -0.0128774048337328 -0.00242655282759174 0.7343293 -0.4839485 -0.4759771 175 180 180
-0.0119475346258189 0.0436259208670271 0.0396573662207176 0.04101226 -0.1413683 0.9891072 160 164 166
0.0704413432428335 0.00483044967562085 0.0213622867510368 0.5319723 -0.5856651 0.6115569 172 178 181
-0.0391696911504771 0.0146348176947249 0.0351626097605278 0.02283974 -0.4740523 0.8802004 173 179 179
-0.0435918789556529 0.0135038791647566 0.034394156877761 0.01095384 -0.609792 0.7924858 165 172 174
-0.07174577528744 -0.00977823152631396 0.00936130875802532 0.01127413 -0.7262995 0.6872859 174 181 184
0.0343171138116811 0.0325751601210249 0.0378643094942619 -0.08347445 -0.00813112 0.9964768 150 156 157
0.0770269412347768 0.0303374229422224 0.0323932587549736 0.9050021 -0.2918914 0.3094682 168 175 178
-0.0231045704534556 0.00162905440241223 0.0146027624056388 0.1278508 -0.2491787 0.9599813 216 195 196
-0.0656452398946787 0.0289563833227766 0.0210186361715843 -0.7957704 0.4069509 0.4484868 167 172 170
0.0110627192804311 0.0228776334276808 0.0377869724676658 -0.011119 -0.02457487 0.9996362 165 171 171
-0.037437103336146 0.0385802684775007 0.0374063670084526 0.1436497 -0.2524139 0.9568971 158 162 165
0.0492318648645376 0.0432997046461714 0.0399618565485527 0.1306933 -0.2356949 0.962999 151 158 154
0.0128389376947378 0.01883956775576 0.0373230099127342 0.04804942 -0.2919662 0.9552209 153 161 161
-0.0593788843801524 0.0026756821623457 0.0230113982603599 -0.02311619 -0.7512368 0.6596279 174 181 186
-0.0278603058507945 -0.00167679801076526 0.0174083530352165 -0.1002767 -0.7067809 0.7002895 236 193 177
-0.0413426380804087 0.00501874074846631 0.0252596556589653 0.002917236 -0.7438163 0.6683778 225 190 182
-0.0162755470922495 0.0308593808165205 0.0382654487536003 -0.02494606 -0.1562218 0.9874069 163 168 168
-0.033528469150355 0.0210600195875776 0.0357394933149864 -0.0304664 0.05985083 0.9977423 151 158 155
-0.0471044998815562 0.0144390760412825 0.0351445197508384 -0.01712944 -0.5078157 0.8612955 173 180 182
0.0266421813318227 0.0286410449495924 0.0378739654467155 -0.05170779 -0.09213506 0.9944031 170 171 174
0.0345600623437856 0.0112332998266829 0.0305054902479698 -0.003982516 -0.7380469 0.6747376 188 193 200
-0.0648187618902232 0.0122424362650526 0.0324367701456596 -0.4218852 -0.4522651 0.7857921 154 162 162
0.00626168435306296 -0.0147260726937639 0.00295628303742901 0.004647354 -0.7406169 0.6719115 181 185 190
0.0753303546258901 0.0108505486002577 0.00842611188149944 0.9635835 -0.2007911 0.1766065 175 177 176
-0.031530759876063 -0.0108547808179247 0.0075872361109306 0.02576952 -0.7229854 0.6903825 236 194 177
-0.0434614639928843 0.00593531117349988 0.0260426222727348 -0.005615063 -0.7413934 0.6710472 183 186 186
0.0337468165704702 0.0361661015501631 0.0381784557745506 -0.04296614 -0.1065152 0.9933823 159 166 164
0.002254583294103 0.0137213467112196 0.034176689331298 -0.07533611 -0.5920536 0.8023696 185 191 194
-0.0434876900365855 -0.0170923472890245 0.00130989844060436 0.01685394 -0.7207188 0.6930227 181 187 190
-0.0152751427343394 -0.00446063294499988 0.0144505023405601 0.02525138 -0.7365863 0.675872 113 121 123
-0.0555973272970225 -0.00298172249883288 0.00768662685609356 -0.04777664 0.9089383 0.4141842 189 191 191
-0.0599905472448374 0.0129383800974501 0.0343506752893974 -0.02494582 -0.5820628 0.8127611 167 176 172
-0.0473937016180064 -0.0229166449555742 -0.00502334838652119 -0.004156354 -0.7606003 0.6492071 182 187 191
0.0622340220758413 -0.013508141184746 0.00325350159860149 0.1103271 -0.804475 0.5836505 191 196 203
-0.00941386038570657 -0.0225230158814775 -0.00543876295828327 0.01200752 -0.7358192 0.6770716 183 189 194
0.0105112571069692 -0.00130832209676379 0.0172253965780784 -0.006223385 -0.7223711 0.6914776 244 199 183
-0.085882566516688 -0.00471073403447742 0.0104487358973075 -0.8835122 -0.4212619 0.2048037 179 183 176
-0.0295566540411021 0.00299558029085523 0.0229071795389701 0.03246066 -0.7476553 0.6632932 233 191 178
0.00677833741397604 -0.0155017675408708 0.00150997633195415 0.00135922 -0.7340933 0.6790472 187 192 196
0.0603238124200796 0.0235518215647352 0.0344376682684471 -0.01920828 -0.1783906 0.9837722 160 168 168
-0.0396336537054087 0.034556656931938 0.035873067323928 0.1389497 -0.1465771 0.9793917 156 159 159
0.0669027346918081 0.0107417701235426 0.0279347717211296 0.3149695 -0.6159397 0.722089 177 184 190
-0.0301076393774058 0.0142868159762037 0.034089666549926 0.04772927 -0.5827309 0.8112624 173 179 182
0.0584925193140005 0.00503054246813184 0.0233240246222068 0.03317257 -0.741783 0.6698191 188 193 201
0.00247202103824362 -0.00887805237859363 0.0094362019941856 0.02307138 -0.7398711 0.6723529 207 190 178
-0.0472458820989634 -0.00767076029866809 0.0114535211966087 0.01592949 -0.7272308 0.6862081 231 192 175
-0.0576603632619883 -0.0117309392938005 0.00737593764520184 0.01793324 -0.7328697 0.6801326 178 184 189
0.0280049819299673 -0.000980794573723021 -0.00575411623262867 -0.1486585 -0.9132785 -0.3792401 226 189 181
-0.0273393612554576 0.00321358427912122 0.0229356407568504 0.004764095 -0.7488868 0.6626808 177 182 184
0.00423369591922507 -0.0118552149781572 0.00594670767045513 0.07585271 -0.7137916 0.6962384 185 190 195
0.0756348151514028 0.0134603677740706 0.00897706741548077 0.9791744 -0.1543343 0.1319035 167 172 171
-0.0351315956762339 0.0308593808165205 0.0354924916670372 0.0643394 0.04772415 0.9967862 156 161 160
0.0755914229700063 0.0155482588759077 0.0108619450972129 0.9650903 -0.2314757 0.1225544 175 177 177
0.066726543361852 -0.00744456067174548 0.00980932707047955 0.01007057 -0.7326437 0.6805378 192 197 205
0.066787578518102 0.0147653220644606 0.0311579524920036 0.3407236 -0.4819357 0.8072456 188 192 197
-0.0297683697393443 0.00428238496691113 0.0238068520472099 0.01560973 -0.7343388 0.6786036 218 187 174
0.0385073203393911 0.000701069687904177 0.0189621865198661 0.06212065 -0.7487623 0.6599212 202 195 195
0.0484272021600698 -2.39016064988995E-05 0.0178650736258079 0.04293539 -0.7362786 0.675315 185 190 198
0.0322061557123159 0.00100195393473035 0.0193874954626609 0.02781362 -0.7427603 0.6689795 247 201 187
-2.92282751108708E-05 -0.0121161939153063 0.00629473919129864 -0.001494539 -0.7408112 0.6717116 229 194 189
-0.0372451763799693 0.00309607372194654 0.0229226767466117 0.002857035 -0.7383974 0.6743598 221 187 170
-0.0041686516454722 -0.02246862664312 -0.00534813409590229 0.006945665 -0.7320329 0.6812339 184 189 194
-0.0560758333852793 0.0127643941393507 0.0342201709196617 0.0003513097 -0.5749635 0.818179 165 173 174
-0.0669067125967051 0.000628590439857302 -0.00249179011129841 -0.2805213 -0.5867772 0.7596053 178 183 188
0.0605977553674673 -0.00101998462766284 0.0169255256102134 0.001771624 -0.731944 0.6813625 187 192 200
-0.0889599543264414 0.00615280852228528 0.000901010577445183 -0.9633968 0.09523406 0.2505936 149 158 154
-0.0278457623174693 -0.0194962920197832 -0.00228880649351582 -0.004178283 -0.7267269 0.6869138 178 184 188
-0.0394000034978892 0.00493213519960767 0.0249415754721214 0.01249259 -0.7352099 0.6777244 229 191 175
-0.065340779369166 0.0156787632456434 0.0340026735708763 -0.662304 -0.05470323 0.7472355 174 178 177
-0.0759107094457652 0.0129057763567579 0.0170930146620323 -0.7932755 0.4086689 0.4513356 162 167 165
0.0663651007959341 -0.00900852694600696 -0.0029122710778664 0.7077784 -0.410523 -0.5749093 176 180 178
0.0583230037042592 0.02694463715464 0.0344666659281303 0.0206635 -0.1619523 0.9865822 162 167 170
0.0288811702081655 -0.0172427000054705 -0.000677320416207161 0.0157444 -0.7331338 0.6799022 233 199 192
-0.0713542919805552 0.00465211257845288 0.0249443172857811 -0.0712295 -0.6366395 0.7678649 185 189 194
-0.0641663294485117 0.00569605812937146 0.0267168402121116 -0.002201031 -0.7294036 0.6840801 182 187 192
0.000438548977086395 0.0425602494230879 0.0395812510893394 -0.05219258 -0.2964631 0.9536171 164 170 171
0.0723725337335561 0.0408203898420942 0.0360180854246666 0.1697717 -0.1081424 0.9795319 154 160 164
0.0708850402185415 0.0205069778910292 0.0326020538256218 0.6218355 -0.3831569 0.6830164 179 183 184
-0.0737358551672007 0.0134168861857069 0.0199964463160087 -0.7903363 0.4213586 0.4447759 166 171 169
-0.0374154072454478 0.00767517075449353 0.0286089896605064 0.01208481 -0.7249539 0.6886913 237 194 176
-0.0764326077154185 0.0111550091257704 0.018126052562957 -0.7921402 0.4255387 0.4375279 160 167 164
-0.0832182388952281 0.00702273831278211 -0.00201332872652515 0.2348561 0.7896587 -0.5668172 144 151 147
0.0112672824213003 -0.0184755624780046 -0.00103897159838184 -0.002271455 -0.7326078 0.6806472 243 202 188
-0.0177327614477183 0.0295109747400892 0.0378957211420585 -0.09747829 -0.1503122 0.9838212 168 171 174
0.0161477107355092 0.02694463715464 0.0372650145933677 0.02232394 -0.03445658 0.9991568 162 169 167
0.0221763629266714 0.00758820757776624 0.027018201296096 0.01902353 -0.7375067 0.6750718 185 190 196
0.000906087810704559 0.0145478247156752 0.0237807452127983 -0.8470944 0.5314385 0.002072447 212 196 194
0.0705359954187368 -0.0090568663129198 0.00276657635427013 0.7182509 -0.6307259 -0.2937695 175 179 181
0.0532337207147573 0.0203765033236158 0.0337852060244133 0.1244079 -0.1966585 0.9725472 155 161 161
-0.00176181608944193 -0.021796852494179 -0.00469567185186848 0.01076719 -0.7265096 0.6870719 183 188 193
0.0348993319818471 -0.00975283994763965 0.00765038723207012 0.0008118403 -0.748517 0.6631151 207 193 192
-0.0392531376531626 -0.0170749427327501 0.00105869466519848 0.005736257 -0.7255936 0.6880996 178 184 188
0.0649996775934194 -0.00749459877103442 -0.00527563994669422 0.7213767 -0.4344508 -0.539322 178 181 180
-0.0331524830511118 0.00898015484720593 -0.00249179011129841 0.113243 -0.769172 0.6289281 191 197 201
-0.0349577885320689 0.00221624956041699 0.0217363655016471 0.02594756 -0.7463898 0.665003 229 192 185
-0.0720828991582896 0.00249898419290906 0.0216928541109611 0.000626861 -0.7159747 0.6981259 170 179 183
-0.0259102802923228 -0.0227785409936296 -0.00547682052397236 -0.003566694 -0.7304072 0.6830026 181 187 192
0.0606935996362661 0.0264661608687056 0.0345898985312034 -0.01060584 -0.1678748 0.9857513 164 171 171
-0.0436138134649302 -0.0131674112328874 0.00554077023721233 -0.00501598 -0.7448133 0.6672541 229 192 182
-0.0236121636083628 0.049331396674217 0.0396138846323539 -0.1021706 -0.2128174 0.9717355 141 144 151
-0.066732667033961 -0.0200327636250841 -0.00192632084631428 -0.2632507 -0.9073716 0.3276825 171 179 182
0.0105055350610708 0.02694463715464 0.037198078577285 -0.04221153 0.009168794 0.9990667 153 159 160
0.0274830836603139 -0.00733149066060657 -0.000316920931572762 0.3539598 -0.578914 -0.734555 237 204 205
-0.0201903801610972 -0.00244885697454089 0.0166036307261039 0.005943255 -0.7277911 0.6857731 123 140 139
0.0161388892480825 0.038645475958885 0.0374650775835563 -0.0008656327 -0.1074017 0.9942153 168 172 173
0.0687623996088003 0.00950211272150403 0.0262166082308342 0.3662913 -0.5697817 0.735649 169 178 184
-0.0567717772176768 0.0251177547922743 0.0379174768374015 -0.2382664 0.05339745 0.9697308 186 190 190
0.000194169933507293 0.00343218431383496 0.0225469886705925 0.009121214 -0.7420301 0.6703045 183 189 192
-0.0614042502096201 0.00564169869333631 0.0263362347528984 -0.02430705 -0.737982 0.6743824 172 179 184
0.0417939204523061 0.035006195162834 0.0383669256613304 0.09461252 -0.2366924 0.966967 167 173 174
0.0769399184534048 0.0263791678896559 0.0149942159102012 0.9861609 -0.1633511 -0.02833799 171 176 174
0.0732570666620229 -0.00525811328977221 0.00248142773366467 0.904786 -0.3627801 -0.2230536 184 188 188
0.0204146880456899 -0.000426232958732786 0.0182783126280357 -0.009401423 -0.7327682 0.6804134 181 186 192
-0.0854627113988902 -0.00330358758061999 0.00104455346322552 -0.7993049 -0.5479633 -0.2466736 154 160 153
0.0272656459161733 -0.000110864783226194 -0.00244829362177357 -0.08339109 -0.888328 -0.4515743 240 202 193
0.0295275229761098 0.0204634665003431 0.0359600901053001 0.02465395 -0.2684999 0.9629642 170 176 176
-0.0114473324468638 0.00554382786661511 0.0118188976690818 -0.7975918 0.3699905 0.4763972 189 191 198
-0.000659845416834504 0.0379929839125288 0.0375694751188804 -0.004518947 -0.1873124 0.98229 162 168 168
-0.0419825535467173 0.011642187689842 0.0326368629381706 0.01322879 -0.7424769 0.669741 172 178 182
-0.0294031124761607 0.0126034914007795 0.0333197831556846 -4.422284E-05 -0.6830201 0.7303995 176 182 185
-0.0151010971715952 0.010981023167671 -0.00170883839869007 0.1450043 -0.7744992 0.6157311 194 197 194
0.0283530730554555 -0.000132620478569212 0.0185827731535484 0.009524676 -0.7522447 0.658815 241 200 193
0.0757509249994253 0.0176071523180616 0.0129643499300529 0.980131 -0.1974364 0.01902595 158 165 163
-0.031633995120814 0.0349086223593367 0.0357465564653923 -0.03290621 -0.07845004 0.9963748 151 156 155
-0.051653526370814 0.0056162773123396 0.0262601196215202 0.05131532 -0.723957 0.6879338 175 183 186
-0.00466170126705423 -0.00867992653936023 -0.000186431462998238 -0.7873651 0.3611336 0.4996386 192 196 203
0.0703321475336049 -0.0106293858537065 0.00539312953210369 0.6189981 -0.7690505 0.1593824 200 205 210
-0.0275501232793833 0.00607448801905042 0.025790345613723 -0.01181583 -0.7471116 0.6645936 172 179 183
-0.0818872671773936 -0.00903660073369617 0.000979316179518852 -0.7252331 -0.5449433 -0.4208014 162 166 160
0.0203712958642934 0.0227688549509657 0.0371997475073387 0.03046191 -0.06349435 0.9975172 186 189 195
0.0248776454278921 -0.0027903319844591 0.0155118524477531 0.01153394 -0.7419621 0.6703427 236 199 191
0.0519722480127309 0.0193760393610609 0.0337996899530937 0.1134871 -0.2055246 0.9720495 170 175 176
-0.0235008221319224 -0.0149967075833666 0.00299372965550915 -0.02700755 -0.7636235 0.6450967 231 195 181
-0.0621872168233897 0.021159440135063 0.0339591621801902 -0.7599607 0.3100821 0.5712345 167 172 172
0.0724552649805044 0.0146261154165876 0.025612008516555 0.858669 -0.3018486 0.4142162 167 170 173
-0.0151881199529673 -0.00719371452420825 0.0114129304335167 0.02400038 -0.7103997 0.7033891 183 190 193
0.0710590857812856 0.0200893877497328 0.0315407335207512 0.6856795 -0.3708533 0.6263477 173 178 180
0.072938062603185 -0.00228577866643542 0.00742564791894451 0.962144 -0.1741398 0.2096527 170 175 174
0.00264606660098776 -0.00250321641057605 0.0162121772215416 0.002866326 -0.7245084 0.68926 238 197 183
0.0043762702295278 0.0111018417826307 0.031003785078292 0.004015121 -0.7504852 0.660875 182 188 193
-0.0333744507482554 -0.000819862032829466 0.0188698887274314 0.03860362 -0.7762607 0.6292289 214 188 180
-0.0147966366460826 0.00971961007028943 0.0301748930857231 0.008981604 -0.7520123 0.6590878 174 180 185
0.0201319236108755 -0.00963681950658435 -0.00266579097055897 0.001051495 -0.6023529 -0.7982293 224 201 196
0.0102797526666616 -0.0135298670777666 0.00392409855580822 0.004188997 -0.7406277 0.6719026 243 200 187
-0.0657757740667368 0.000599592780174074 0.0199529647276451 0.01886486 -0.7419828 0.6701535 169 176 179
-0.0765631418874766 -0.0128556491383898 -0.00192632084631428 -0.6464613 -0.5193301 -0.5589132 163 168 162
-0.0457450371435191 0.0230298636904371 0.0371997475073387 0.09589516 -0.08288827 0.9919343 163 168 166
-0.0468605976751353 -0.0129674972543108 0.00528804654336468 0.008127668 -0.7458296 0.6660872 236 191 177
-0.0600992661169077 0.0214204488745344 0.035873067323928 -0.5104912 0.08191103 0.8559728 158 165 161
0.0122216719934438 -0.0146390797147142 0.00306346708989635 0.0127984 -0.7329047 0.6802109 243 201 188
-0.0436138134649302 0.000193595742286501 0.0195614814207603 -0.007259149 -0.7291048 0.6843636 226 188 171
0.0304988402673696 0.0368403492918623 0.0384031950876762 0.003840066 -0.148712 0.9888731 161 167 168
-0.00507488066463724 -0.00398215665906543 0.0138415514872123 0.0417136 -0.7166113 0.6962243 183 189 193
-0.0311299782445933 0.0426798759451521 0.0374933599875023 -0.0079401 -0.315494 0.9488944 155 160 163
-0.0135475617101695 0.0042948125353468 0.0237931727812339 0.05189869 -0.7492895 0.6602058 182 188 193
0.0304595012018178 -0.0135516227731096 0.00360408121800915 0.01466615 -0.7279178 0.6855075 217 196 193
-0.00768461043148294 0.00522628412157422 0.0248682021544029 0.01578975 -0.733094 0.679944 182 188 193
0.0042844790765737 0.0208839474669111 0.0358440994665672 -0.1842178 -0.1043158 0.9773341 149 157 159
-0.0848059874227549 -0.00571119799703235 0.00694717163301006 -0.8207102 -0.5676231 -0.06510516 161 165 162
-0.00144281203060403 0.0509335695257795 0.0407013117716362 -0.07615459 -0.2272075 0.9708642 172 176 178
0.0269466418573354 0.0469390450468672 0.0393819033548881 -0.03308462 -0.0475503 0.9983208 169 172 173
-0.0534876804998423 -0.0132797659882891 0.00530515307641521 -0.01539353 -0.7335097 0.6795046 189 186 186
-0.0227567177465464 0.00449985251337415 0.0165601491377403 0.9167404 0.06806076 0.3936429 200 190 189
-0.0234307270696665 -0.00835368051618213 0.0106009959623863 0.04196387 -0.7341411 0.677699 237 195 182
0.0420547503778432 0.000976562356056032 0.00981802934861675 0.9167596 -0.2808756 0.2840083 202 196 199
-0.0214661579778697 -0.0104632975110399 0.0083680867598106 0.02529581 -0.7342542 0.6784032 238 196 184
-0.0348345261266734 0.0362096129408491 0.0358875810549308 0.1177372 -0.1941039 0.9738899 162 168 167
-0.0688206177404429 -0.0183363558301317 -0.0041881979062508 -0.5607979 -0.7276677 -0.3949751 164 167 166
-0.0842042189291026 0.0027454493990553 0.0120363950178672 -0.791833 0.3920791 0.4682674 158 163 161
0.0405431765863393 -0.0145629645833361 0.00251042539334789 0.005637285 -0.7283936 0.6851358 247 204 190
-0.00164570624141946 -0.0229616166600572 -0.00560912793421253 0.008130235 -0.7266113 0.6870007 184 190 195
-0.0149561386755015 0.0188105700960768 0.0348871170923759 -0.005884779 -0.2712321 0.962496 152 159 160
0.066512920314977 -0.0115507246503221 -0.000981810744042244 0.7248746 -0.5007032 -0.4731313 173 178 178
0.00725660508365378 -0.00280773654073352 0.00542477959847942 0.2165941 -0.7020811 -0.6783577 203 197 196
0.0418046492883657 0.00546768293291455 0.0245854675219108 0.007426912 -0.7457871 0.6661429 247 202 190
-0.0183633785894419 -0.0104197861203539 0.00172747368073956 -0.5388249 -0.03566524 0.8416625 235 202 196
-0.00396575743465677 0.00256964549929029 0.0216004371092369 0.02802717 -0.7295914 0.6833088 184 190 195
-0.027657411639979 -0.0228166283616411 -0.00522490149282917 0.01167931 -0.7238128 0.6898975 176 183 188
-0.0432149391820933 -0.0123337210664141 0.00639621609902874 -0.02789969 -0.7635061 0.6451977 234 193 178
-0.0539008598974253 0.00349944815546399 0.0244332074568321 0.04587151 -0.7413573 0.6695411 174 180 187
-0.0156055908849742 0.0207157729616774 0.0352293073580314 -0.02223108 -0.2640145 0.9642625 152 161 162
-0.0826528292348887 0.00397789463907605 0.0145157694265892 -0.7875814 0.4119864 0.4582388 157 164 165
-0.0276719551733042 0.0366010962477339 0.0360905646727134 -0.1624784 -0.1240123 0.978888 167 171 173
-0.0479573231390025 0.0288771687498701 0.0372587859079887 0.0241083 0.002035235 0.9997073 155 160 161
0.0265260714838003 0.0357746182432783 0.0382654487536003 0.007363834 -0.1753738 0.9844744 171 174 174
-0.0185808163335826 -0.00354719176381701 -0.00370973652147755 -0.8255301 0.5010671 0.2596764 195 193 195
-0.0802256088903452 0.015417754506172 0.00734735721803204 -0.7703331 0.4064606 0.4913011 169 173 173
-0.00772085005550638 0.0405013857832563 0.0388454317495872 0.08868657 -0.1913665 0.9775037 161 167 169
-0.0593912821462657 -0.0133582951077806 0.00530393118119732 0.04160324 -0.7026792 0.7102895 179 186 190
0.0225461501428579 -0.0118334890851366 0.00555525416589275 0.01229508 -0.7342926 0.6787218 247 203 186
-0.003574274127772 0.0295979677191389 0.0370910286352684 0.111342 -0.1159921 0.9869897 173 175 179
-0.0235177498510386 0.0365575848570479 0.0374825119421531 -0.2521779 -0.1335841 0.9584162 172 177 178
0.0765996951410268 0.0246036647310865 0.025148940031295 0.9111366 -0.3605369 0.1996075 160 167 167
0.0167392272302602 0.0170271991243971 0.0362210690424491 0.101137 -0.4175021 0.90303 173 181 185
0.0441752452203725 0.0124055443754805 0.0315124511168052 0.05467357 -0.5853699 0.8089209 176 183 187
-0.0809563618352915 -0.00446063294499988 -0.00452168589376911 -0.6209426 -0.5239739 -0.5829937 165 169 164
0.0547016639062856 0.0209636984816206 0.0335024713919212 0.1088075 -0.2032169 0.9730693 161 166 169
-0.0616497021368052 0.0252544282427443 0.0312561213419487 -0.7975574 0.3985905 0.4528001 170 174 173
-0.0794687491109873 -0.012490302468239 0.00647739762521282 -0.3212385 -0.8276963 0.4601355 196 199 203
-0.0796950083425547 0.00297743067652112 0.0217363655016471 -0.7507784 -0.2096585 0.6263985 170 174 170
-0.029542348926356 0.00963258728891736 -0.000925886686081734 -0.234776 -0.3493041 0.9071201 168 173 182
0.072271205837438 0.0227253733626021 0.0326977490828086 0.5302957 -0.3871019 0.7542801 174 180 184
0.0069087523767446 -0.0134211184033739 0.00381534988141552 -0.004927246 -0.7263469 0.6873107 185 191 195
-0.078946850841334 -0.006505012656151 -0.00454488700174793 -0.5947167 -0.6010293 -0.5339249 165 168 165
0.0759538192102407 0.0189483164301527 0.0187857865736534 0.9585225 -0.2497112 0.1374004 169 173 171
-0.0532756071737315 -0.0114909411916124 0.00725708598351971 -0.04212315 -0.7136139 0.6992717 177 181 179
-0.0540749054601695 -0.000241339350639524 0.00142298335290447 -0.06727035 0.5961876 0.8000219 211 195 194
-0.0298031788518931 0.0236388443461073 0.0362645506308128 -0.0748806 0.0008975327 0.9971921 160 167 169
-0.0175079327276255 0.0404289065352095 0.0393239080355217 -0.05084446 -0.1128703 0.992308 167 170 172
0.0671964663812612 -0.00585258021443957 -0.00375323301100239 0.7211072 -0.4193849 -0.5514714 177 180 179
-0.0877047997167613 0.00663125500589734 0.00304482573724285 -0.8492818 0.347675 0.3972941 155 163 156
-0.0435353737524058 0.00889748320490247 0.0293223380491783 0.03950189 -0.7382695 0.6733481 175 182 185
-0.0453790646245982 0.00489497170359021 0.0253140448973228 0.01514713 -0.737969 0.6746646 175 181 187
0.0544227141687368 -0.0164514781483995 0.000277545993094597 0.02385265 -0.746402 0.6650677 194 199 206
0.0633686560937856 0.0234648285856855 0.034176689331298 -0.007947601 -0.1592242 0.9872105 161 165 171
0.0603238124200796 0.0220729111185682 0.0339156805918266 -0.05933377 -0.2213503 0.9733877 172 176 177
0.0644255656549428 0.0447177587500227 0.0377217351839592 0.1067699 -0.08168361 0.9909228 148 155 157
0.0501597899744008 -0.00672733798116321 0.0107846378729393 0.01100612 -0.7314982 0.6817545 188 193 201
-0.00922026449947611 -0.000276148463188353 0.0185958265707542 -0.01295232 -0.7432125 0.6689301 180 185 189
-0.0219084244421031 -0.00828841343015307 0.0102964758322288 0.04014827 -0.7131143 0.6998972 220 189 183
-0.0636444311788584 -0.0116377474316942 0.00725166196084515 0.04138967 -0.7203912 0.6923319 182 186 192
0.0384119529077505 -0.00500980033963794 0.0129226564810325 0.01677897 -0.7382237 0.6743472 188 193 200
0.0587578791925405 0.00236850962549573 0.0197354673788597 0.03436723 -0.7456772 0.6654205 185 191 198
0.00832972710818991 0.0122714339247358 0.0318858146116783 0.01894926 -0.7502791 0.6608496 178 186 190
0.0475789088556264 0.0294674633494032 0.0353511094496299 0.1172826 -0.1835443 0.9759899 157 164 166
-0.0494381409338023 -0.0230776072987902 -0.00511035626673206 0.02115786 -0.7556115 0.6546782 185 183 178
-0.0676287632635142 4.57166185987568E-05 0.0198311626360466 0.009094731 -0.7359113 0.6770169 175 182 185
-0.0275413017919566 0.0110897718420637 0.0315269350454856 0.01684802 -0.7461115 0.6656079 180 185 190
-0.0840447168996836 -0.0062875153073656 0.00492454761720196 -0.8654186 -0.4887275 -0.1104358 160 164 162
-0.0595084648778941 0.00108531103044873 0.0212760090277244 0.001260749 -0.7541109 0.6567459 174 180 185
0.0738514441797231 0.00149852023035413 -0.00279628043913349 0.8034002 -0.3169458 -0.504077 181 185 185
-0.0551333647420909 -0.0124641956338274 0.00642521375871197 -0.04060939 -0.699397 0.7135788 179 185 190
-0.0655582171133067 0.00464618191629773 0.025050085727935 -0.01831246 -0.7318486 0.6812212 173 180 182
0.0345297831842397 -0.02246862664312 -0.00579761272215351 0.005098793 -0.7401925 0.6723757 190 194 201
-0.0217343788793589 0.0432344375601423 0.0391136526510765 -0.1629355 -0.1410367 0.9765043 158 165 166
-0.0436500530889536 -0.0217581690797197 -0.00423169439577564 0.005681203 -0.7502953 0.6610785 174 181 186
-0.048855207507899 -0.0202502609738695 -0.00179583137773975 0.01897641 -0.7561567 0.6541154 244 196 187
0.0463174361536001 -0.0112607480534899 0.00551901454186932 0.01695903 -0.7268169 0.6866219 189 194 201
0.0560611266443227 0.00584828839212781 0.0242157399103691 -0.07798856 -0.7189041 0.6907204 184 190 197
-0.0279544811895396 0.0286628006449354 0.0362863063261558 -0.05854796 0.03037311 0.9978225 161 164 165
-0.0592845898321177 -0.000994205618797483 0.0190595805094291 0.004502902 -0.7416264 0.6707981 175 181 187
-0.0863392573049571 -0.00151366009801501 0.00281490082002178 -0.8437929 -0.5115908 -0.1621373 154 158 153
0.0142453688928579 -0.00791144385427112 0.00990502232766644 0.01670057 -0.7232189 0.6904169 238 198 188
-0.0313929539373423 -0.0153547824868547 0.00294145638204113 0.09084661 -0.7714554 0.6297646 175 181 181
0.00493393128604636 0.0268228350630415 0.0366299271032859 -0.09985601 -0.04140905 0.9941399 161 166 169
-0.0416056137731577 0.00216549620539075 0.0218813538000633 0.001453777 -0.7383858 0.674377 226 190 174
0.043925144130895 0.00476086125284558 0.0155162035868217 0.7885832 0.3520325 0.5041922 190 194 203
-0.0712347250631358 -0.00374290361493701 0.0157337009356071 0.02235927 -0.7397685 0.6724899 174 180 185
-0.0779289227178599 0.0133298634043348 0.0133152424738456 -0.8095299 0.3846776 0.4434913 164 170 169
0.012717344219396 -0.00130873932927722 0.0171825110361625 0.0230472 -0.7292224 0.6838885 243 199 183
0.0480900782892202 0.0115247367373121 0.0305337428495933 0.02121014 -0.6392529 0.7687041 182 187 191
0.068585731441686 0.0109119413843763 0.0273296355650474 0.4087814 -0.5316499 0.7417858 183 188 192
0.0651520270654653 0.0100240705958021 0.0279130160257866 0.1958785 -0.6678929 0.7180187 187 192 200
-0.0809563618352915 -0.00700524463742846 0.0129933475897361 -0.2133655 -0.7496688 0.6264758 176 183 186
0.0342057723352407 0.00662642702967053 0.0253949880049278 0.005159319 -0.7254134 0.6882941 185 188 191
0.00479898637027487 0.0150480566969526 0.0231065272734214 -0.9802758 0.1902696 0.05345061 241 201 190
0.014616586620519 -0.0165877641686785 0.000996705834632072 0.003849855 -0.7172945 0.6967595 233 199 189
0.0398798960992788 0.0423862634649885 0.0403750657484581 -0.03118252 -0.1025695 0.9942369 173 179 180
0.00433764641971335 -0.0167511106976854 0.000707697813277397 0.006655758 -0.7290879 0.6843877 185 189 196
-0.0229958515813853 0.0349372921934736 0.0375368713781883 -0.2354169 -0.1405072 0.9616842 166 172 173
-0.0274850350072886 -0.00725471987813586 0.0114248811647941 0.007910828 -0.7471191 0.6646431 231 193 176
-0.0290130596807505 -0.0192207993516313 -0.0013101131274651 0.02274719 -0.7516524 0.6591671 178 185 190
-0.0394073944738413 -0.00841021552175159 0.0107836543963005 0.01439989 -0.719254 0.694598 180 183 183
0.0645974654504751 0.00780567512422925 0.0264993428633262 0.1045483 -0.6687329 0.7361154 193 198 206
-0.0737683993032481 0.0214639006605757 0.0130912184164573 -0.7951035 0.4290627 0.4286205 170 173 172
0.0776358622858022 0.0333387552252424 0.0318713008806755 0.8717111 -0.1984994 0.4480153 176 180 179
-0.0679071169546153 -0.00259023919194812 0.0095570504114677 -0.02798273 0.9994001 0.02040484 187 191 198
-0.0688641291311289 0.025900661801399 0.0187785148069908 -0.7987131 0.4166662 0.4341045 168 173 175
0.0601063746759389 -0.00528711094945544 0.00116200441575542 0.4652942 0.79916 0.3805846 193 197 204
0.034518815929601 -0.00703787818044299 0.0106771110937645 0.005541684 -0.7393782 0.6732676 184 190 197
-0.00135578924923196 0.00119405970484143 0.00538126820779339 -0.4522987 -0.3108125 -0.8359554 203 198 200
-0.00142540747432962 0.000724285697044191 0.0193352817938377 0.02730888 -0.7260919 0.6870551 180 185 186
-0.0621220093420054 0.0192020534029615 0.0370475172445823 -0.4338079 0.04694147 0.8997818 178 180 179
-0.0400251370122935 0.00750118479639417 0.028435003702407 0.01124717 -0.7252592 0.688384 222 192 191
-0.0634268742254283 -0.0225230158814775 -0.00510165398859486 -0.3905834 -0.9082258 0.150235 188 191 195
0.0505658168146108 0.00966158494860059 0.0285509645388176 0.02287029 -0.742337 0.6696363 182 188 194
-0.0149632912328745 -0.0015027822503435 0.0173648714468528 0.0008509194 -0.7753899 0.6314822 114 120 118
-0.0668632012060191 0.0242477653971327 0.0242592214987327 -0.7896047 0.4173792 0.4497989 167 173 173
-0.0790969353368784 0.0146239398470533 0.010416102354293 -0.7938504 0.41251 0.4468076 167 171 170
0.042446233684728 0.00473120794206983 0.0232271372721244 0.01125161 -0.7499772 0.661368 242 199 185
0.0763944167444204 0.0229830144396437 0.0216192423746635 0.9545816 -0.2686424 0.1288617 162 168 165
-0.0609910708120371 -0.00158977522939319 -0.00214381819509968 -0.3071276 -0.9509743 0.03633827 197 191 191
-0.0416292172124888 -0.00932148113340014 0.00972558254457012 -0.01225693 -0.6804959 0.7326494 213 189 173
0.0204452056238149 0.0268837212076796 0.0369257151529838 0.0002093208 -0.05043216 0.9987274 169 174 175
-0.0811304073980357 -0.0108547808179247 0.00162307614541546 -0.6834795 -0.6249861 -0.3771579 161 167 160
-0.0333749275854136 -0.00662583127111072 0.0125825523779441 0.001745537 -0.7296788 0.6837878 177 184 187
0.00832472031802878 0.00648140892893201 0.0256994783327629 0.004974464 -0.7353583 0.6776602 242 198 183
-0.0296293717077281 -0.00941938176244372 0.00907312030053631 0.02195862 -0.7274036 0.6858584 237 194 183
0.0445197600671743 -0.0127976538190233 0.00439531797624126 0.005251073 -0.730937 0.6824247 189 194 200
0.00467286294193014 -0.0225208403119432 -0.00562362676405415 0.01371807 -0.7318146 0.6813657 184 189 195
0.0264283198663686 0.00569605812937146 0.0248138129160453 0.01663613 -0.7340507 0.6788909 181 188 193
0.0404308814355825 -0.0183073581704485 -0.00172333722853169 0.08311693 -0.7527735 0.6530113 246 203 188
0.0126286525079702 0.026883751010002 0.0370170592711021 -0.03322008 0.02973973 0.9990055 152 156 157
0.0471874255487417 0.029641479109825 0.0355250954077293 0.1441806 -0.21713 0.9654359 161 166 171
-0.0795934420278575 -0.0059830547818529 0.0138633071825554 -0.05139845 -0.745505 0.6645151 178 183 186
0.032833196575353 0.00149852023035413 0.0206489085600425 0.02947625 -0.7489273 0.6619962 248 204 189
-0.00121440703182474 -0.0150794686326372 0.00283121759152904 0.000280276 -0.7492951 0.6622362 185 188 190
0.0125466365167592 0.00904703125864392 0.0287194072649528 -0.001049452 -0.7252275 0.6885086 221 193 186
-0.0360232811620738 0.0147218106737745 0.0349596261427452 0.03297516 -0.4876854 0.8723965 164 172 172
-0.0614042502096201 0.0165052114477766 0.0350901305124809 -0.300386 -0.177911 0.9370784 162 169 169
0.0405510443994497 -0.00281393542379016 0.0152241408274223 0.06764998 -0.7398558 0.6693556 189 193 201
-0.00551428610592142 -0.0109026135453569 0.00724295968270794 0.04428921 -0.7697712 0.6367816 242 198 183
-0.0136531811407115 -0.00946906223386401 0.00871194595551983 0.008069279 -0.7376125 0.675176 180 186 192
-0.0570979338338877 -0.0197717846879351 -0.00196983223700031 0.0002313389 -0.7189829 0.6950276 179 185 188
0.02033505624027 -0.00986883058637256 0.00777361983514324 -0.003048159 -0.7352198 0.6778219 246 201 189
0.0428703803369497 0.0037060378542555 0.022432339136367 -0.004319321 -0.7438989 0.6682783 241 199 186
0.068057634288976 0.0289194284430159 0.034733456318145 0.1023412 -0.1763586 0.9789913 165 169 170
-0.0377089005163218 -0.0126925708302843 0.006468725149398 0.04324791 -0.731034 0.6809691 237 194 180
-0.0330654602697398 0.0382104812613142 0.0359600901053001 0.08498605 -0.2230961 0.9710847 167 171 173
-0.0462562065771128 0.0470623074522627 0.0379827141211082 -0.2279608 0.01753622 0.9735124 172 175 175
0.0308178443262075 -0.0126961769112932 0.00490279192185894 0.009771968 -0.7301542 0.6832125 247 203 192
-0.0773823481252696 -0.000814080382286253 0.0190902470991661 -0.1302701 -0.6696276 0.731183 164 171 171
0.0634556788751577 0.0378189979544294 0.0365255593702842 -0.01876104 -0.24224 0.970035 149 160 162
0.0478399771997426 0.0145913063040388 0.0325237631247093 0.02969616 -0.4356933 0.8996052 161 168 173
-0.066097639148524 0.0252395270815504 0.0233631550715019 -0.7942554 0.4022126 0.4553937 168 174 173
-0.0694078427007701 -0.0166182221421587 -0.00501466100954517 -0.6168478 -0.5923938 -0.518236 163 166 164
-0.0215059738805796 0.0295218525877607 0.0366669117853691 -0.1840418 -0.08558856 0.979185 157 162 162
-0.00786604697017923 -0.0043663681992876 0.0143780230925132 -0.09932795 -0.7576064 0.6451097 185 190 195
-0.0700384598424937 0.00937157854944592 0.0276955186770012 -0.521898 -0.3178658 0.7915705 168 173 174
-0.0476807575872447 -0.0159004928120958 0.00207544559693829 0.03959819 -0.7069455 0.7061586 236 192 180
-0.0350810509374644 -0.00750064864247912 0.0113791047976066 0.008157575 -0.728255 0.6852577 176 181 186
0.0451866168329214 -0.00050234809011096 0.0182130455420066 0.01269234 -0.7236495 0.6900509 195 200 210
-0.0441051941564585 0.0469013153067244 0.0388831018850853 -0.09680081 -0.03908989 0.9945359 159 164 165
-0.0212053280523326 0.0212319789877546 0.0358730971262504 0.05935326 -0.2177552 0.974197 153 158 157
-0.0268827896764781 0.031418651198448 0.0362956344530632 -0.09976672 0.01164911 0.9949427 164 168 167
-0.0781725865057017 0.013895332669319 0.0117319046900322 -0.7959487 0.4022396 0.4524036 173 177 177
0.0789407271692251 0.0403853355398787 0.0287539779589225 0.9670803 -0.06843321 0.245097 167 170 164
-0.0172869187047984 -0.00713935508817309 0.0113150596067955 -0.02284979 -0.7331973 0.679632 182 188 192
0.0117803592035268 -0.00820142045110339 0.0103834986136009 -0.03464351 -0.7549773 0.6548352 245 202 187
-0.0379590016057993 0.00239023551851636 0.0219103514597465 0.001490511 -0.7439315 0.6682542 223 189 179
0.0447429198572133 -0.00447803750127429 0.0134109079287101 0.01166617 -0.746919 0.6648127 187 193 199
0.00271115487308249 0.0308593808165205 0.0367865085051109 -0.04116799 -0.1065886 0.9934506 162 166 164
-0.0625568848302867 0.000585079049171267 0.000683528129820976 -0.5473352 -0.8032688 0.2349114 191 192 195
0.0110410231897329 0.0183756350031508 0.0366125523493339 0.02488588 -0.3340969 0.9422101 161 167 169
0.0663565177270864 0.00317820892244702 0.0211106657431175 0.07778328 -0.7388656 0.6693485 189 195 204
0.0644451159784292 0.00695747122675305 0.0251074253962089 0.05354485 -0.7121973 0.6999342 189 194 202
-0.0639749985387827 0.0228471754542006 0.0292005359575798 -0.802191 0.4036461 0.4399539 174 176 176
0.0647543448755239 0.00878128394991284 0.0270741402552177 0.1447329 -0.6776013 0.721047 194 199 206
0.0706108588525747 -0.00953245177358264 0.00701243871903912 0.5160243 -0.7758672 0.3629726 192 197 205
0.0732487220117544 0.022613525246681 0.031243693773513 0.7400595 -0.501824 0.4477551 172 176 178
-0.0703574639013316 -0.0169009269723284 0.00224944645619884 -0.04869274 -0.7781031 0.6262465 176 183 189
0.0741559047052358 0.0252830384722365 0.0327064513609459 0.6687304 -0.4568649 0.5865782 170 175 178
0.0225025195428823 -0.0203589798459398 -0.0034378648354958 -0.0002441684 -0.7404742 0.6720847 247 204 189
-0.0775345783880259 -0.0136676134118425 0.00114750558591381 -0.6019285 -0.7598786 -0.2454924 168 172 170
-0.0371109467199351 -0.0192497970113146 -0.00188282435678944 0.02586449 -0.734418 0.6782044 174 180 184
0.0126577395746206 0.00558730945497876 0.0249044417784263 0.006408899 -0.742248 0.6700947 241 198 183
-0.0459190827062632 0.0115899442186964 0.0326868712351371 0.01191593 -0.710645 0.7034498 175 181 187
-0.0487827282598521 -0.0152045489796984 0.00288740987039104 0.03510734 -0.7023203 0.7109949 241 196 181
0.0597148913690542 -0.0164224506863939 -0.00605860656046375 0.7668335 -0.5365682 -0.3522229 196 199 199
-0.030781887119105 0.0380800066939009 0.0356773256704856 -0.03687702 -0.1651152 0.9855846 153 157 160
-0.0529874783208872 0.0049928425303114 0.0251944183752586 0.03449417 -0.7567162 0.6528329 176 183 188
-0.0373338680913951 0.0329690276137007 0.0357045351908256 0.1127657 -0.04605439 0.9925537 152 157 156
0.0205777663537954 0.010448157643379 0.0296855687544395 0.0101651 -0.7286968 0.684761 180 185 193
0.0503700751611684 -0.0113984943875658 0.00548277491784588 0.001923653 -0.7184433 0.6955829 188 194 201
0.0684579390832876 -0.00301072015851611 0.0146607577250053 0.05091678 -0.7201649 0.6919321 189 194 204
-0.0675809603384043 -0.0189308227547991 -0.00491316920065388 -0.4858913 -0.7969011 -0.3589684 165 170 168
-0.0689510327032115 -0.0202285052785265 -0.00247003441595539 -0.3675215 -0.929668 0.02540407 172 176 176
-0.0674504261663462 -0.0201632679948198 -0.00275278394960865 -0.415729 -0.9079164 -0.05345301 173 180 180
-0.0692556124380137 -0.0202937723645555 -0.00179583137773975 -0.3446628 -0.9383573 0.0263264 177 183 184
-0.0694078427007701 -0.0188293160447466 -0.000490906889672127 -0.1707988 -0.8948526 0.4123914 181 186 191
-0.0677089911153819 -0.019240141058861 -0.000882390196556893 -0.1821182 -0.8948067 0.4076198 179 187 190
