ply
format ascii 1.0
comment File exported by Rhinoceros Version 7.0
element vertex 472
property float x
property float y
property float z
property float nx
property float ny
property float nz
property uchar red
property uchar green
property uchar blue
end_header
-0.0574973767277811 0.0210857669570068 0.0111419479287667 -0.2531976 0.4833325 0.8380219 102 102 102
0.0209055986330542 -0.00154315870048194 -0.0310948827104925 -0.02380218 0.5422001 -0.8399122 112 112 112
-0.00633630740554869 0.0495297116855189 0.0029286889090549 -0.03329157 0.5553702 -0.8309366 103 103 103
-0.0508486484914088 0.0123450813937145 -0.0200522651517202 -0.01451224 0.5438103 -0.8390827 88 88 88
0.0518492168676881 0.0474498571076449 5.13997059382598E-05 -0.03390558 0.5351547 -0.8440734 112 112 112
0.0658925488794218 0.0560957490825802 0.00505882436361893 0.1477063 0.5863627 -0.7964682 172 172 172
0.0232141149108327 0.0637234977707568 0.0199000075335556 -0.2765035 0.2240141 0.9345392 86 86 86
-0.0175016588610926 -0.0551653338266417 -0.0612563951568655 0.629391 -0.4364559 -0.642941 77 77 77
0.00154170478381799 -0.0541897288823882 -0.0222225249326902 0.7330066 -0.5793636 -0.3564254 58 58 58
0.00637228249533495 0.0153701131543074 -0.0194185634407291 -0.02668412 0.5447836 -0.838152 189 189 189
0.0109983848010629 -0.0302319916026911 -0.0454776503339508 0.7175813 -0.4404829 -0.5394922 44 44 44
-0.00260486210787159 0.0392377825806376 -0.00385857869850792 -0.02231517 0.5399527 -0.8413995 123 123 123
0.000497943419206948 -0.0602950970502129 -0.0154146509312283 0.7178042 -0.5950387 -0.3615054 80 80 80
-0.0649805392458598 -0.00362750129396328 -0.0299007967804194 -0.08451714 0.4410258 -0.8935061 72 72 72
-0.0121643063542658 -0.0278361222773837 -0.0472078814283129 -0.02272801 0.5488138 -0.8356356 126 126 126
0.0488376030107194 0.0182114436215486 -0.0190675121218616 -0.03728236 0.5403696 -0.8406014 99 99 99
0.0610516325894017 0.0435853193096265 -0.00264712244459042 -0.02997134 0.5386853 -0.8419738 117 117 117
-0.0111255684197391 -0.066804189129396 -0.0276156630213395 0.7653788 -0.5367205 -0.3551427 57 57 57
0.0106249209331208 0.0668893365853092 0.0145128585092745 -0.04520291 0.7951924 -0.60467 122 122 122
-0.0698970152164748 0.00171428499354698 -0.0263152775699876 -0.007770355 0.5311128 -0.8472655 108 108 108
0.06611763934671 0.07617937805101 0.0282671233414111 0.8625726 0.4090992 0.2976682 37 37 37
0.0374088156857368 -0.0201443051344714 -0.00362845270465134 0.728609 -0.577929 -0.3675963 61 61 61
-0.0368304249538345 0.027000583139537 -0.0106219525803452 -0.04928896 0.5518571 -0.8324808 133 133 133
-0.0158601928114215 -0.0276365567064145 -0.0471051673408426 -0.01962928 0.544207 -0.8387213 75 75 75
0.0559073178856302 0.0397943419390236 0.046212846336416 -0.3053482 0.2363793 0.9224355 26 26 26
0.0598524608959536 0.0248118720151445 -0.0151174928331282 -0.02954695 0.5374105 -0.842803 82 82 82
-0.0636126863906932 0.0217349607907531 0.00881300775886112 -0.1794452 0.4201682 0.8895269 68 68 68
0.061298930530028 0.0648158939194987 0.0309950450945125 -0.2981186 0.3031264 0.9051186 40 40 40
0.0742164287632248 0.0440660518937137 0.0450676536280784 0.1864394 0.4094404 0.8930839 14 14 14
0.0431834367589929 -0.0134639581250731 -0.00189284196504719 0.7120357 -0.6206531 -0.3283214 37 37 37
0.0237432587574746 0.0410329010651467 0.0323182958511036 -0.2990438 0.3923026 0.8698687 17 17 17
-0.0514394357136467 -0.0168875124318058 -0.0388371414311204 -0.03032263 0.5446795 -0.838096 117 117 117
-0.0160345068994867 -0.0369734149770681 -0.0530901423298429 -0.03086997 0.5367503 -0.8431762 122 122 122
0.0646433688166552 0.060927367511264 0.00789462431381621 0.1006991 0.5691597 -0.8160373 142 142 142
0.055578516452798 -0.000436690246074622 -0.0071480525146001 0.713173 -0.6461987 -0.2716828 51 51 51
0.011680645243231 -0.031574844496044 -0.0415078439088718 0.6967415 -0.6349013 -0.3338436 44 44 44
0.0258075920217347 -0.0129454756745657 -0.0386764743164485 -0.03217163 0.558401 -0.8289471 86 86 86
-0.0468079802233765 -0.00987223211858246 -0.0344116828172055 -0.01933181 0.5274575 -0.8493615 116 116 116
-0.0466567341136273 -0.0610720680639847 -0.0193456158286013 -0.8660327 -0.4571966 -0.2023827 38 38 38
-0.0576188284615196 0.0099890338070705 -0.0209210925262494 -0.01797627 0.5379538 -0.8427826 136 136 136
-0.0412306043712896 0.000626334549473473 -0.0280714008523163 -0.03279737 0.5433673 -0.8388542 125 125 125
0.0606670052743135 0.0470570023218286 -0.000657116773609745 -0.02673247 0.5469574 -0.8367335 159 159 159
0.0524006106179704 0.0648930678993931 0.0114531255949052 -0.03559669 0.5442948 -0.8381385 124 124 124
-0.00555368190010386 -0.020775926244712 -0.0426718526440438 -0.03706086 0.5330451 -0.8452748 96 96 96
0.0298546335810026 0.030571495678769 -0.010296385188075 -0.02708746 0.5482437 -0.8358799 98 98 98
-0.0702113280846337 -0.00882805758898297 -0.0201973938078849 -0.8750651 -0.3300688 -0.3539994 76 76 76
-0.0869503791723809 0.0283236438368411 7.27856603594534E-05 -0.2989905 0.4203149 0.856703 61 61 61
-0.0674484788999541 0.00903338214794647 -0.0215462849905579 -0.03278172 0.5444819 -0.8381317 109 109 109
0.0591413604663922 0.00415965177736299 -0.00649494639257042 0.7273971 -0.6142896 -0.3058458 55 55 55
-0.0213413995394092 -0.0140492598201922 -0.0379315572870235 -0.02148615 0.5510917 -0.834168 111 111 111
-0.0703342642974154 0.0112648525898544 0.0151481772098833 -0.2364542 0.4736716 0.8483658 29 29 29
-0.00757182661532374 -0.0236992999417656 -0.044462513738582 -0.02607927 0.550184 -0.8346361 73 73 73
0.0838596462258758 0.0399309869387114 0.0333817891539521 0.9581289 0.2089709 -0.1957553 35 35 35
0.00399577027409137 -0.0127830635164656 -0.0379342971293299 -0.02340643 0.5397403 -0.8415062 111 111 111
0.0244759103538805 -0.0355377231711076 -0.00383338094067842 0.7056498 -0.6382517 -0.3077225 46 46 46
-0.052651676146076 -0.0193728880113053 -0.0404792841247638 -0.4235253 0.2308057 -0.8759881 122 122 122
0.0547741740978882 0.0191181615221931 -0.0186813397909731 -0.02772863 0.5587837 -0.8288497 105 105 105
0.00113998444131846 0.0471503274626546 0.00112225010737388 -0.01541033 0.5458389 -0.8377484 167 167 167
0.00224532151788059 0.0604622224629296 0.0102016159368706 -0.09528173 0.7306735 -0.6760455 127 127 127
0.0353084534215289 0.0598764707466268 0.00857676572466043 -0.03552432 0.5498009 -0.83454 102 102 102
0.0694594271545692 0.0435374816524448 -0.00314762967187865 0.3648349 0.5575677 -0.7456633 100 100 100
0.0805557732048006 0.0397832509544729 0.0220958332542779 0.900704 0.3617176 -0.2406089 67 67 67
0.0450058250537673 0.0667070767585198 0.0255880693141547 -0.278899 0.2842271 0.9172951 63 63 63
0.00441982979390021 0.00632735762443493 -0.0252725761523042 -0.03188106 0.5309812 -0.8467836 89 89 89
0.06501837960178 0.044179366960799 -0.00237704060741806 -0.0311524 0.5421153 -0.8397264 103 103 103
-0.034111070866258 -0.0344980857771566 -0.0507425309466376 -0.02255319 0.556087 -0.830818 156 156 156
-0.0510137500742927 0.0459660884336865 0.00203174491264346 -0.06488256 0.6309924 -0.7730711 88 88 88
-0.0645870634867309 0.0247673208113408 0.00762899287490942 -0.1745803 0.3161966 0.9324921 59 59 59
0.0193863238808007 0.0384999820261567 0.0318397860411865 -0.2727922 0.3909653 0.8790509 10 10 10
-0.00278923400075826 -0.0241056503697952 -0.0450437657015655 -0.02842112 0.5519536 -0.8333903 117 117 117
-0.0489547055016883 0.0235964621295655 -0.0125452433690738 -0.01989309 0.557974 -0.8296199 120 120 120
0.00398430727813892 0.0599515377115016 0.0153593797863014 -0.1818696 0.6049591 0.7752083 89 89 89
0.0487504350801951 -0.00184317513478316 -0.0182767304683563 0.7150329 -0.5747555 -0.3979748 73 73 73
-0.0418947766253415 0.037003716174697 -0.00410702323933493 -0.01821844 0.5491509 -0.8355246 93 93 93
0.0396474424317441 0.0743775547764167 0.0180435342347645 -0.03504187 0.5537319 -0.8319574 97 97 97
0.0708136063181288 0.0483879071609805 0.00809716497553842 0.8872249 0.3367749 -0.315301 24 24 24
0.0860870470621515 0.0301614099024605 0.0350823196311735 0.8719009 0.4891984 0.02176877 70 70 70
-0.0741419039984521 0.0317559864670744 -0.00654071641506793 -0.03455908 0.5524164 -0.8328516 78 78 78
0.0545107953342088 0.0651791194553613 0.0114613898133014 -0.02129625 0.5501012 -0.8348264 138 138 138
0.00276641881873863 -0.00112051671957403 -0.0301391766708355 -0.02804112 0.5395801 -0.8414672 94 94 94
0.0410951569513451 0.0311978060950928 -0.0105791176948979 -0.02258574 0.5472125 -0.8366889 87 87 87
-0.0066518956626016 0.0182076472367023 -0.0172992998446545 -0.01890855 0.5488547 -0.8357039 113 113 113
0.0537458915581448 -0.00153893498791891 -0.0089736872785825 0.7052201 -0.6517354 -0.2791158 35 35 35
-0.047238709691197 0.0273536304095325 -0.0101947398898298 -0.02891892 0.5454935 -0.837616 116 116 116
-0.00937015210625658 -0.0106175636865737 -0.0361213744230309 -0.01803176 0.535691 -0.8442215 152 152 152
-0.045429168085938 -0.0319002620730384 -0.0488029668562344 -0.05043856 0.5474421 -0.8353221 115 115 115
-0.0698927633633173 0.0114542022492838 -0.0197305123664894 -0.02409855 0.546591 -0.8370529 118 118 118
-0.0443398941316158 -0.0217300882006863 -0.0422976628874841 -0.01901861 0.5365044 -0.8436832 84 84 84
-0.0753653095524016 0.00431383532735996 0.0163203745306288 -0.1623679 0.365418 0.9165732 36 36 36
0.0794341018637184 0.0436649006924388 0.021545152202085 0.9069884 0.2868547 -0.3083608 61 61 61
-0.0393597985384959 -0.0562181322020505 -0.0395086498370233 -0.6252707 -0.6276451 -0.4637868 63 63 63
-0.0058013834899846 0.0203839066099631 0.0330651290722317 -0.4245388 0.4195368 0.8023439 24 24 24
-0.032463554236668 0.0268501708735804 -0.0108140062199951 -0.02033935 0.5443151 -0.8386343 135 135 135
0.00282507929762232 -0.0122746954298507 -0.0374689475768864 -0.03613503 0.5447047 -0.8378491 119 119 119
0.0873513274645954 0.0279222522960643 0.0149526520912395 0.8420063 0.4568763 -0.2868613 69 69 69
-0.0528804708309476 -0.0299500844573423 -0.0350001648610719 -0.9166738 -0.2989545 -0.265208 24 24 24
-0.0896052658674349 0.0231495567233546 0.00144485134785471 -0.5758883 0.2773313 0.7690513 45 45 45
0.0825256147103706 0.0423813336727477 0.0368675474704645 0.9460873 0.316341 0.06962191 45 45 45
-0.0554295461319811 -0.0176458817650231 -0.0391425909529841 -0.5832453 0.1466528 -0.798948 108 108 108
-0.0094339687706948 0.0580260671799007 0.00902687414186482 -0.1445941 0.8368403 -0.5280064 122 122 122
-0.0783172714420015 8.2173112380568E-05 -0.00950018533848651 -0.8741555 -0.4267526 -0.2318067 33 33 33
0.0253158362820529 0.00635748709736661 -0.0260478677411702 -0.03448743 0.5377588 -0.8423931 126 126 126
0.0826530993863952 0.0331957811560259 0.0145015045552815 0.7772679 0.5647382 -0.2773543 53 53 53
0.0408014312867659 0.0272854280553669 -0.0128640836000319 -0.02310875 0.5376827 -0.8428305 103 103 103
-0.0539376729327334 -0.0378175933484588 -0.0252633246786313 -0.9348751 -0.1785706 -0.3067914 43 43 43
-0.0377804519554799 0.0123291317616905 -0.0204970404084361 -0.02416284 0.550632 -0.8343983 133 133 133
0.063694670423891 0.0667805960910992 0.0120844601483655 0.304621 0.5706518 -0.7626025 137 137 137
-0.0538258499601652 0.0233277409248616 -0.0132058804570588 -0.02630441 0.5632475 -0.8258694 105 105 105
0.0404113503004715 -0.0139404754458077 -0.0071757696325257 0.6877387 -0.7196835 -0.09524314 25 25 25
0.0480997372364591 -0.0155837291198284 0.0109298586360433 0.7228592 -0.5870788 -0.3644352 67 67 67
0.0607290138685528 0.0592333114160513 0.0329802875278601 -0.2879931 0.4176361 0.8617656 67 67 67
-0.00182655840064605 -0.0534834721567762 -0.0278258435432799 0.7198452 -0.5763011 -0.3869108 60 60 60
-0.0421535996969582 -0.00437479437991284 -0.031002046681805 -0.02142748 0.5482912 -0.8360129 110 110 110
-0.0384339155564688 -0.0180525188958907 -0.0400400856256924 -0.02796295 0.5443281 -0.8384063 85 85 85
-0.0139862706967611 -0.0693516449621647 -0.0306409612732629 0.7929431 -0.5300851 -0.300418 52 52 52
-0.0898384665569707 0.0150346817474261 0.00570841536058719 -0.736187 0.2339794 0.6350451 80 80 80
-0.0422803424545459 -0.0395993021097961 -0.0538769756868704 -0.14409 0.4101046 -0.9005844 173 173 173
0.0172505652651753 -0.0133310323741849 -0.0386258028280603 -0.02492237 0.5478982 -0.8361737 107 107 107
-0.079587529150432 0.0265501451528689 -0.00974100810047024 -0.02527328 0.5482792 -0.8359134 76 76 76
-0.00561457424467759 0.0410372185177124 -0.00234511805420518 -0.03094238 0.5558143 -0.8307304 109 109 109
0.0793986971387786 0.0377046197721875 0.0128207961328547 0.7757211 0.5344409 -0.3356034 55 55 55
-0.0249180442767032 0.0414667851780699 0.0125063265488226 -0.3013749 0.4334664 0.849282 82 82 82
0.0389169789684498 0.0525854731263107 0.00390318115563171 -0.01987768 0.5406635 -0.841004 78 78 78
0.0339386393839902 -0.0206418338538912 -0.0093253180936842 0.7649307 -0.5940277 -0.2490225 37 37 37
0.0289291677121786 -0.0013361944361634 -0.0311431653408637 -0.02449054 0.5397484 -0.8414701 101 101 101
0.0191076799961327 0.044724554086053 0.0284486459278511 -0.3589623 0.5953271 0.7188405 44 44 44
-0.0416108558092256 0.0254426443245424 0.0157071625241642 -0.2813109 0.3803097 0.8810384 40 40 40
0.0310249670953602 0.065029521363414 0.0220905184734945 -0.3046508 0.2411395 0.9214334 57 57 57
-0.0820664668938123 -0.00488214551266197 0.00770580259899351 -0.8036084 -0.3620186 -0.472394 21 21 21
-0.0270365702647699 -0.0732483797999268 -0.0371016446408324 -0.5352153 -0.7026452 -0.4688649 63 63 63
-0.0811120363878466 0.00158236254847277 0.0164171814749621 -0.1510837 0.4617862 0.8740293 39 39 39
0.0714274819424401 0.0573119955442405 0.0378416889711646 -0.05649848 0.676362 0.7343993 47 47 47
0.0582437388192205 0.0474586449785976 -1.93227550850938E-05 -0.01647419 0.5483445 -0.8360903 130 130 130
0.0234200320818307 0.0570375662353346 0.00742036401796842 -0.04225323 0.5482386 -0.835254 90 90 90
0.0716592917153309 0.00354389403274991 0.0224042114395517 0.7385188 -0.6053535 -0.2968791 55 55 55
0.00653319183832179 -0.0436779645772711 -0.02975193460487 0.6128754 -0.7135313 -0.339495 63 63 63
-0.0232992812170782 0.00994701701996603 -0.0222897955455944 -0.03030065 0.5471082 -0.8365133 145 145 145
0.0189770568292125 0.0351025399602607 -0.00706768691858467 -0.0247985 0.5518852 -0.8335513 172 172 172
-0.0476668915706462 -0.0565349625437017 -0.0211958881011471 -0.847233 -0.4732365 -0.2413368 14 14 14
-0.0595034304087716 -0.00741628472344091 -0.0324675046170588 -0.0259179 0.550924 -0.8341529 95 95 95
0.0580600040181749 0.0624080874991861 0.0309869207312203 -0.2810625 0.3365909 0.8987271 54 54 54
0.0199763976255816 0.0444614672958816 0.0288464974049505 -0.3520086 0.5461856 0.7601126 39 39 39
-0.0103855580522016 0.00694637992583114 -0.0246739131316286 -0.01112975 0.5510195 -0.8344182 108 108 108
0.00972007064625258 0.0301152564498424 -0.0108942392207739 -0.03586362 0.5449109 -0.8377267 107 107 107
-0.0255625881826007 -0.0775473567077505 -0.0332273940502147 -0.204975 -0.838811 -0.5043623 24 24 24
0.0231121978955735 0.0350476610067436 0.0345188923228054 -0.3325869 0.5536326 0.7634637 35 35 35
-0.0269736923098529 -0.051746070097493 -0.0624889609228323 -0.1442525 0.445255 -0.8837076 100 100 100
0.0580655731523412 0.0765963222084913 0.0188513630443301 -0.01251931 0.5538463 -0.8325248 111 111 111
0.077241596027334 0.0116572205661041 0.0206468247538407 0.6811515 -0.6958639 -0.2276095 52 52 52
0.0640425067747166 0.043014770059107 0.0466880086592914 -0.01930454 0.5061151 0.8622499 23 23 23
-0.08271656400116 0.0058421017069612 -0.00601552728749943 -0.8230954 -0.4932792 -0.2814065 49 49 49
-0.00205796512885925 0.0442317275543211 -0.000399634270143945 -0.0321688 0.5397607 -0.8412036 150 150 150
-0.0625655134764482 -0.0384053867666233 -0.000812623008453361 -0.7462997 -0.2652869 -0.6104584 42 42 42
0.00890322109373143 0.0354436702519945 0.0305807948685553 -0.215868 0.6026065 0.768288 33 33 33
0.0658101338438528 0.00550144386900819 0.00463318162409815 0.6722423 -0.6569026 -0.3414223 61 61 61
-0.0123879314028361 -0.046406749269061 -0.0596334446506823 0.2877863 0.2579446 -0.9223034 80 80 80
-0.0507360061155748 -0.0336857015730569 -0.0470336766848511 -0.8687328 0.187059 -0.4585983 44 44 44
0.0667194021398272 0.0627737058304174 0.0103151432786498 0.5966484 0.5151653 -0.6153173 99 99 99
-0.0515018631989093 -0.0348162677245462 -0.0339447916841173 -0.9571639 -0.1564609 -0.2436334 65 65 65
-0.0477203301301055 0.0423700446400159 0.00611737028199416 -0.3061985 0.6064047 0.7338364 81 81 81
0.0349495984082528 0.0418824730184815 -0.00317424824036922 -0.02189212 0.5487419 -0.8357052 156 156 156
-0.00785437772913822 0.0503843843620222 0.00394832079381718 -0.03171222 0.5537364 -0.8320879 115 115 115
-0.0327156096351007 -0.0377092568051792 -0.0531077139441298 -0.03117088 0.5426174 -0.8394014 114 114 114
0.0639283090840741 0.00932735199490775 -0.00607869341308864 0.7144836 -0.6095215 -0.3435065 58 58 58
-0.0604307546852545 0.0294724360832412 -0.0082716681596009 -0.03992667 0.5496659 -0.8344299 59 59 59
-0.064828806759115 0.0247437519777107 -0.0112408470032996 -0.03108037 0.5519215 -0.8333167 110 110 110
-0.038896692718394 -0.0709264474462267 -0.0217608319585368 -0.6499396 -0.5759901 -0.4957962 58 58 58
0.0171202370509413 -0.00722371217709727 -0.0340618438615272 -0.0215905 0.5513317 -0.8340067 142 142 142
-0.00321604288989752 -0.0576475938695046 -0.0261776184665435 0.7322109 -0.5134989 -0.4474216 37 37 37
0.0287073213191062 0.0616517694041907 0.0222912471559998 -0.3044981 0.2698594 0.9134861 91 91 91
-0.0699437000392229 -0.0304855353709406 0.00100150491813078 -0.7676262 -0.2993121 -0.5667118 33 33 33
0.0517466141444656 0.0245340873302893 -0.0147339096935621 -0.02249287 0.5281473 -0.8488548 96 96 96
-0.0843759450359682 0.00979485488602605 -0.00728956342712811 -0.7874638 -0.5869827 -0.1880213 44 44 44
0.0673802526796061 0.0427357159993866 0.0469508711094658 0.06663125 0.5004411 0.8632028 49 49 49
0.0410192410747814 -0.0143227156716554 -0.0121360623996792 0.687105 -0.7131605 -0.1388843 33 33 33
0.0572420851604725 0.0633119144112633 0.0100430332032043 -0.01728165 0.5509377 -0.8343675 136 136 136
0.00119619653150815 -0.0315769328680446 -0.0501362798864763 -0.01089608 0.534093 -0.8453555 137 137 137
-0.0115715504745002 0.0246544662142423 0.0261694041039582 -0.3941925 0.3998097 0.827505 52 52 52
0.0485230821024549 0.0376174571352637 0.0435850753223882 -0.3015301 0.2856061 0.9096751 19 19 19
0.0682778486156757 0.00737790681598183 0.00564745559440016 0.6739537 -0.6410105 -0.3672765 57 57 57
0.0567029752064521 0.00831766048880844 -0.0188510594280015 0.7349032 -0.5604826 -0.381807 64 64 64
0.0582676489418992 0.0726366326921366 0.0283482255791664 -0.2841681 0.1672238 0.9440787 59 59 59
-0.0619624066158986 0.0394700884511388 -0.00183647119878089 -0.01332906 0.5682902 -0.8227202 90 90 90
0.0462763615845252 0.0536204546317052 0.0040984839605287 -0.02995904 0.5549824 -0.8313224 108 108 108
-0.0786580759935758 0.0320683205876475 0.00209798274890838 -0.2615033 0.3803006 0.8871232 51 51 51
0.0507830597134062 0.0536089444028349 0.00393027025722309 -0.01778604 0.5474247 -0.8366659 130 130 130
-0.0393605054931037 0.0106665981366856 -0.0212531251388814 -0.02736834 0.556039 -0.8307055 127 127 127
0.0331468358400682 0.0139611905825361 -0.0214071046651275 -0.02685907 0.5504842 -0.8344134 109 109 109
-0.0780136084019158 -0.00405847908967405 0.0201102753748404 -0.02195806 0.571043 0.8206264 26 26 26
0.0817115251286427 0.0395833325557848 0.0444161897679569 0.7176571 0.4326701 0.5456784 23 23 23
-0.0591428949763975 3.81048724522604E-05 -0.0278073237337358 -0.03620644 0.5405548 -0.8405294 71 71 71
0.00687594239383937 0.0391594685753351 0.0268559354451913 -0.380082 0.7002491 0.6043086 45 45 45
-0.0120571061267047 -0.044372281099384 -0.0575890591727867 0.08457261 0.4302979 -0.8987164 152 152 152
-0.000366442416376955 -0.0250652725462097 -0.0455024920061216 -0.02051793 0.5439513 -0.8388659 112 112 112
-0.0168555816157427 0.0136844942540679 0.030957426004197 -0.3685594 0.577609 0.7283762 60 60 60
-0.018061332391234 -0.0622846975617962 -0.0512678580475337 0.6597366 -0.5732702 -0.4859103 15 15 15
0.0437379747074504 0.00612494246813933 -0.0266703986650897 -0.02134237 0.5309888 -0.84711 102 102 102
0.0625246286043293 0.00858850193636651 -0.00779370595556728 0.698226 -0.5971355 -0.3948538 60 60 60
-0.0306940989681221 -0.0436096360069014 -0.0569816737327655 -0.03784428 0.553089 -0.8322622 122 122 122
0.0119166465698117 -0.0239348134078596 -0.0454186298800554 0.05212178 0.4391436 -0.8969037 105 105 105
-0.0111660023977125 -0.0124946729804343 -0.037250085113566 -0.0286841 0.5429159 -0.8392971 134 134 134
-0.0941434225970252 0.0246528999095872 -0.00101270316593438 -0.9077097 -0.06831101 0.4140009 146 146 146
0.0587783340605923 0.0372099609380097 -0.0068762144976332 -0.02289403 0.5425509 -0.8397109 93 93 93
-0.0617155467139221 -0.0275607528272042 -0.00722876993427657 -0.8012642 -0.5027836 -0.3243213 24 24 24
0.0435908679548858 -0.00195219147464587 -0.0274169027622974 0.6982687 -0.4333026 -0.569798 76 76 76
-0.0596774809225447 0.0363134346676688 -0.00416635232531054 -0.02629738 0.540692 -0.8408095 115 115 115
0.0541861252271083 -0.00915541119206598 0.0115596112002265 0.703502 -0.6322202 -0.3246267 44 44 44
0.0031993107396544 -0.0502803761012338 -0.0253033540452345 0.7335096 -0.5681884 -0.3729954 51 51 51
-0.0534200673465173 -0.0441928864263142 -0.0168493341697903 -0.9174901 -0.2129097 -0.3359783 55 55 55
0.00756146374923405 -0.0222470953395593 -0.0442052089623651 -0.02487875 0.5393533 -0.841712 118 118 118
0.0280670496956295 0.0371513655637317 -0.00610972730719878 -0.03316142 0.546774 -0.8366233 93 93 93
0.0347958734986928 0.0539296278847277 0.00484570942396551 -0.02184883 0.5443358 -0.8385828 120 120 120
0.0555352144300287 0.00358359259238172 -0.0137753631294981 0.7186602 -0.5575014 -0.4155957 42 42 42
0.0756797095127348 0.0330738633048204 0.000703220048670405 0.759297 0.517631 -0.3943681 50 50 50
0.00995181332977424 -0.0308834167690288 -0.0468217841857099 0.6295689 -0.401253 -0.6653112 40 40 40
-0.00910926930341516 -0.0570439287708939 -0.0378106875529376 0.8459491 -0.4760069 -0.2403904 20 20 20
-0.0219094384825547 0.00425751377240213 -0.0263948132548345 -0.03171695 0.5469732 -0.836549 105 105 105
-0.0296826963060641 0.0335489160932831 0.0152451675518368 -0.3435915 0.4142527 0.8428165 68 68 68
-0.0406307223849143 -0.00051844352264907 -0.0285563817023755 -0.03264136 0.5395706 -0.8413074 134 134 134
0.0508614233422602 0.063220950252965 0.0102467067702646 -0.04043794 0.5384766 -0.8416696 136 136 136
-0.0542049498519468 0.00396203521211547 -0.0252554829762212 -0.004629296 0.5596691 -0.8287032 113 113 113
0.00788677104364055 0.0360131415489231 -0.00615364378523936 -0.02376598 0.5399671 -0.8413505 137 137 137
0.0761846260021177 0.0261526847602216 -0.00747752939093593 0.860826 0.2672271 -0.4330916 65 65 65
0.0230931287353435 0.0145194497255143 -0.0207813413059939 -0.03112026 0.5467082 -0.8367447 120 120 120
-0.0530544768181747 -0.0527581130018328 -0.0129384020522804 -0.8661454 -0.4392051 -0.2385184 76 76 76
-0.00360673955156265 0.0492763970877543 0.00271797344656793 -0.02918061 0.5538347 -0.8321151 110 110 110
0.0170942905183775 0.0584368939313875 0.008325024980256 -0.008388217 0.5548459 -0.8319109 94 94 94
0.0231330834853423 0.00713565050958964 -0.0253104691632734 -0.03586239 0.5442317 -0.8381681 95 95 95
-0.0135134571245854 -0.0295586142567658 -0.0484945525003605 -0.02194887 0.5575981 -0.8298209 118 118 118
-0.0723194510972642 0.0267364469909344 0.00504296297553752 -0.2689255 0.3047826 0.9136666 55 55 55
0.0202390043891558 0.0615009076577206 0.0101389544812117 -0.03259423 0.5537449 -0.8320482 129 129 129
0.012685574585753 0.0552008499410446 0.0188182349043519 -0.2873097 0.2930459 0.9119086 72 72 72
0.0655388959994414 0.0644290856572241 0.0328016000757627 -0.1074264 0.5020295 0.8581526 55 55 55
-0.0253369612996575 0.0304424387879245 -0.0087083055676091 -0.03244198 0.5466692 -0.83672 163 163 163
-0.077261212829395 0.00477577553648056 0.0158867892624288 -0.2005648 0.4287131 0.8808966 46 46 46
-0.0499457654078928 0.0377969657872126 0.0062392289705247 -0.2932918 0.199176 0.9350448 71 71 71
0.0594976243653718 0.0780683530207755 0.0197517381963947 0.04235767 0.5703977 -0.8202757 111 111 111
-0.0106506525285432 0.0434774946598542 0.0155067853513057 -0.1920184 0.4290411 0.8826396 49 49 49
0.0116360351667506 0.0016777964331316 -0.0287397007250454 -0.01437331 0.5403556 -0.841314 150 150 150
0.0826967995846921 0.0421778984244106 0.0315990167499401 0.9411564 0.2601024 -0.215804 28 28 28
-0.0373849682960463 -0.00621364413384407 -0.0322402781220786 -0.02705394 0.5477208 -0.8362237 145 145 145
0.0728253213466954 0.0470458456662959 0.0104072214301195 0.8497605 0.3222774 -0.4171863 63 63 63
-0.0265771662396954 0.0161773651486186 0.0251751201444563 -0.3838284 0.4942774 0.779978 78 78 78
-0.0368193058319894 0.0174287267973774 -0.0168675243653912 -0.03266552 0.544265 -0.8382771 121 121 121
0.0123927169392006 0.0424702231306762 -0.00213504837403117 -0.02183125 0.5485893 -0.8358069 192 192 192
0.0231752856585219 -0.0355093711102414 -0.00794884992288702 0.7365173 -0.6597905 -0.1490599 41 41 41
-0.0341165759921562 -0.0101789078813164 -0.0350483498909797 -0.0288199 0.5384826 -0.8421436 86 86 86
0.0156658908309728 0.0253450165834004 0.0388130400127342 -0.2344126 0.3380532 0.9114663 12 12 12
0.0826582808734169 0.0356242799947788 0.0443377725126121 0.8018101 0.3087695 0.5116268 29 29 29
-0.0877010469112487 0.0322585132624766 -0.00531980902324591 -0.1611523 0.8223299 -0.5457137 90 90 90
-0.0334702915438529 -0.00532519472928339 -0.0319413175953899 -0.02003947 0.5616437 -0.8271365 116 116 116
-0.00997974803308654 -0.0274547739557247 -0.0469886281882624 -0.02667181 0.5515618 -0.8337075 125 125 125
0.00369210199720449 0.000236412797284924 -0.0293919804800998 -0.0440177 0.5511209 -0.8332636 92 92 92
-0.0141992732128124 0.00299582920738994 -0.0268224855720903 -0.02942646 0.5386726 -0.8420011 146 146 146
-0.0155600001387968 0.0325488855829315 -0.0077442712332455 -0.03028065 0.547996 -0.8359327 117 117 117
-0.00661399648055649 -0.0514359576210579 -0.0479465065268903 0.7354962 -0.5515167 -0.3935413 87 87 87
-0.067075870534679 0.0188961426501659 0.00973992205460894 -0.2031192 0.4595994 0.8645872 40 40 40
0.0209542397189511 0.0534808997923892 0.0229708028136928 -0.35783 0.4361345 0.8256781 72 72 72
0.0551267580125678 0.00490061550520404 -0.0161293095363756 0.7186086 -0.5513837 -0.4237662 89 89 89
0.00424043753212588 -0.038358199537663 -0.0462663410333383 0.7146362 -0.556304 -0.424053 92 92 92
0.0440140140133738 0.0122762680611397 -0.022898424350343 -0.01388448 0.5570899 -0.8303362 112 112 112
0.0467001636495126 0.0466097637853784 -0.000535234340073742 -0.02457398 0.5457465 -0.8375899 104 104 104
-0.0477000786658213 -0.0428052681075075 -0.0468124654997441 -0.7952308 -0.4816028 -0.3683296 88 88 88
0.0856979271962719 0.0191320068797007 0.0198227143693025 0.6048206 -0.7583106 -0.2432221 88 88 88
0.0403935014287611 -0.0169700316495247 -0.00199223860309572 0.7506034 -0.5555869 -0.3576557 67 67 67
-0.0572205085439852 -0.0434741359380432 -0.00893874228757385 -0.9185262 -0.2263285 -0.3241681 42 42 42
0.0413637826370237 0.03215817131896 -0.00969080629481162 -0.01492919 0.5606698 -0.8279049 86 86 86
-0.0513608933974217 -0.0499742419278673 -0.0303085768398828 -0.8478829 -0.4885691 -0.2059003 63 63 63
-0.0393423166706186 -0.0422641809967643 -0.0559725139409055 -0.1963578 0.3918225 -0.898843 105 105 105
0.0355879363329259 -0.0208152965007682 -0.00561359981609305 0.7447789 -0.5695977 -0.3476532 56 56 56
-0.0694433038068638 -0.00564735085678625 -0.0251027514320492 -0.8250543 -0.3927779 -0.4062153 29 29 29
0.0131279101849024 0.0214257338349908 -0.0158392795223214 -0.02264344 0.5621192 -0.8267462 178 178 178
-0.0337198120369 -0.0309010835979332 -0.0485599734586271 -0.03229206 0.5514897 -0.8335564 90 90 90
-0.0163165977299844 0.035428855458622 -0.00560890824800458 -0.02187903 0.5422024 -0.8399631 101 101 101
-0.0376138131164971 -0.00475863679623711 -0.0312823668365108 -0.03429754 0.5443945 -0.8381279 182 182 182
-0.0634337755785817 0.0230372887653318 0.00845971655655936 -0.181998 0.4130478 0.8923386 68 68 68
0.0222660367736705 -0.0346481668404222 -0.0170163998806336 0.7007523 -0.6578928 -0.2759046 37 37 37
-0.0860227332245613 0.00370659904839998 0.0034880908255619 -0.826228 -0.404917 -0.3916497 56 56 56
-0.00060739862868342 0.00196460808255439 -0.0280788578736854 -0.0255366 0.5418764 -0.8400702 87 87 87
0.0148510435103484 -0.0286189508080761 -0.0417063785118129 0.6898853 -0.6460137 -0.3266874 52 52 52
-0.0532886286675538 -0.0351748734699181 -0.0284463778861598 -0.8851845 -0.2589559 -0.3865103 72 72 72
-0.0297042219952823 -0.0130928136442976 -0.0372355867551888 -0.02765672 0.5498993 -0.8347729 98 98 98
0.0339955133170284 -0.0219666822184694 -0.00584275661616535 0.7381405 -0.5738972 -0.3546697 67 67 67
0.0122325308105289 -0.000514504410202843 -0.0301394657496537 -0.01628421 0.5424771 -0.8399128 166 166 166
0.0816173847267776 0.0421583735507809 0.02810318017352 0.9471582 0.2477966 -0.2036867 39 39 39
0.0456492703666003 0.0378862162457114 -0.00673124296365424 -0.03083976 0.5419481 -0.839846 139 139 139
0.0922864945214292 0.020592715426814 0.0285556662614153 0.8580316 -0.4537919 -0.2405302 60 60 60
-0.0147476031362697 -0.0343985282620456 -0.0513643700038512 -0.02749878 0.5433956 -0.8390262 154 154 154
-0.026288500913024 0.010785924923689 0.0298980348020841 -0.3627462 0.5884886 0.7225624 47 47 47
0.00839948696596693 0.0630988068424845 0.0114042034638537 -0.04193773 0.5789154 -0.8143084 97 97 97
0.0374919286584152 -0.0242309720090546 0.00357268192668503 0.719976 -0.5778334 -0.3843737 34 34 34
0.0628947863155735 0.0715735847352941 0.0152240038484511 0.3400075 0.5952418 -0.7280673 127 127 127
0.0750879642744207 0.058317383666652 0.0341507719411959 0.8235117 0.5593165 0.09483469 41 41 41
-0.00713714062634629 0.047164367687395 0.0015689770263973 -0.03239914 0.5431706 -0.838997 148 148 148
-0.00601241764121418 0.0554313487572362 0.0137699797356534 -0.3713202 0.5539517 0.7451569 80 80 80
0.0246321383219597 0.0186527594143859 -0.0180135619936788 -0.01842001 0.556967 -0.8303304 140 140 140
-0.0794070756693608 -0.0135566173298418 0.00964831857284598 -0.7907978 -0.2618468 -0.5532405 46 46 46
-0.0423004362247275 0.0282980924200471 -0.00967696571169852 -0.01050451 0.5362932 -0.8439664 125 125 125
0.00967128111371718 -0.00872307741481393 -0.0354371195880321 -0.02245585 0.5453746 -0.8378916 130 130 130
-0.0128790350656161 0.0303327377551235 -0.00919393650338823 -0.04045044 0.5529914 -0.8322044 150 150 150
0.0842428055670079 0.0384299047653378 0.0360820422412615 0.9671852 0.2484039 -0.05336933 24 24 24
-0.0282439967265518 -0.00288366171310717 -0.0305322621268498 -0.04095881 0.5450754 -0.8373859 132 132 132
0.0547885878953536 0.0527797606402671 0.0346537143763521 -0.2109669 0.7267305 0.6537244 37 37 37
0.00813516841789097 0.0374125680646173 0.0285658903670074 -0.2766474 0.6459811 0.7114595 20 20 20
0.0212644429860531 0.0322092433972931 0.0383975063330039 -0.3444394 0.5367569 0.7702295 11 11 11
-0.0126466766493492 0.0106257822351146 -0.0219869520657868 -0.03745002 0.5553902 -0.8307462 100 100 100
-0.0579659207435697 0.0017379707916918 -0.0265697684965042 -0.04330854 0.5334762 -0.8447056 79 79 79
0.0787102738602456 0.00951744730414994 0.0263117906213423 0.6821259 -0.6866484 -0.2514323 18 18 18
-0.0181227975621781 -0.0683560899691098 -0.0396660724704322 0.7310621 -0.5629808 -0.385488 32 32 32
-0.0458107298451869 -0.0416845275515525 -0.052924335239746 -0.5873504 -0.2383732 -0.7734325 92 92 92
-7.20398979718873E-05 -0.0477160117982082 -0.0355129536046315 0.6782127 -0.6183844 -0.3970243 23 23 23
0.0711047921390207 0.0112682147435292 0.00418708342783769 0.6743708 -0.6761147 -0.2968044 85 85 85
0.0819756622258478 0.0405425191191229 0.030104410999672 0.9500285 0.2076791 -0.2330564 39 39 39
-0.0165486446734096 0.0383247246825906 -0.00381054330167457 -0.01427352 0.5473549 -0.8367789 132 132 132
-0.0125558952606681 -0.0664742195964342 -0.0323927819747852 0.7937424 -0.5173364 -0.3199002 61 61 61
-0.0805021713053629 -0.0156321182233952 0.0102988413434476 -0.7561316 -0.130893 -0.6411958 99 99 99
0.0436721255991812 -0.00523619773678674 -0.0220066231146649 0.7301562 -0.5630422 -0.3871116 41 41 41
0.0660208133304927 0.0417084551903142 -0.00406249916355683 -0.003694075 0.5332615 -0.8459424 116 116 116
-0.0603206506947709 -0.0219043883232968 -0.0233003845659179 -0.7594072 -0.4684111 -0.4515437 76 76 76
-0.0376695492914623 -0.0410955873025959 -0.0551594982198867 -0.05858895 0.5127906 -0.8565122 141 141 141
0.0617530988617272 0.0249501720277887 -0.0150704789053818 -0.01792319 0.5424265 -0.8399121 81 81 81
-0.0286298123753967 -0.0263430994029816 -0.045795724538333 -0.0246498 0.5537506 -0.8323177 113 113 113
0.0278077232428013 0.0299981223085024 -0.0106103203786697 -0.003926696 0.5509008 -0.8345615 117 117 117
-0.0249064395096816 0.0111267844286962 -0.021373803923057 -0.0297647 0.5488182 -0.8354116 156 156 156
-0.0147142262464 0.0431657024576821 -0.00102995082102464 -0.02417929 0.5396773 -0.8415247 112 112 112
-0.0196081889522999 0.00701293176287199 -0.0243699000829026 -0.01288501 0.5458826 -0.8377626 146 146 146
-0.0714732059344763 0.00784219881273351 0.0158670550503628 -0.1811715 0.3009023 0.9362877 36 36 36
-0.064794745098673 0.0138994259217577 -0.0184589805570085 -0.02992314 0.564582 -0.8248343 116 116 116
-0.0554593063754831 0.016689978583543 -0.016611182440777 -0.03292089 0.5410116 -0.8403705 143 143 143
0.00706649663491765 0.00548518562485412 -0.026014700178945 -0.03777616 0.5558236 -0.8304415 122 122 122
0.0320719814480155 0.0327125540949209 0.0407876490937812 -0.3006507 0.4095977 0.8613007 15 15 15
0.0612914311257438 0.0140336603140783 -0.0179149491977905 0.6230559 -0.4649402 -0.6289929 52 52 52
-0.0542987167361733 0.00135668825570523 0.0215688446815206 -0.2986672 0.4393412 0.8472173 42 42 42
-0.0207615295040586 0.0426336256165261 0.0131212601531684 -0.2688024 0.4678159 0.8419582 68 68 68
0.0225600267608903 0.0191950390040934 -0.0176833357000275 -0.01706651 0.5498673 -0.8350777 144 144 144
-0.042367368395583 0.0320581069748522 -0.00713015581906473 -0.006581291 0.5366766 -0.8437623 107 107 107
0.0441286535670202 -0.0175348818108743 0.00512966341062826 0.7202157 -0.5510318 -0.4214894 67 67 67
0.0625014214588564 0.0819219509186746 0.0230151050394119 0.5977154 0.5750753 -0.5585916 47 47 47
0.0287781858776563 0.00715231785213044 -0.0256187195962155 -0.02089141 0.532736 -0.8460236 122 122 122
-0.00517603959109536 -0.031701393621939 -0.0497681111203782 -0.02568047 0.5510055 -0.8341064 118 118 118
-0.054261451754817 -0.039789489670026 -0.0227333286194395 -0.9523135 -0.2462858 -0.1801176 24 24 24
0.0763935781816443 0.00825884239995212 0.0242751967272946 0.674922 -0.6905072 -0.2601538 37 37 37
0.0606393690036833 0.0483081830259788 0.0430644937560176 -0.003392756 0.6946099 0.7193786 28 28 28
0.059253246704297 0.0519652225947735 0.037701539328795 -0.2050899 0.7668952 0.6081199 53 53 53
0.0332886207126992 -0.000634304999030944 -0.0309053527171413 -0.0210459 0.5428213 -0.8395845 155 155 155
-0.00212164260001302 0.0291028272648655 0.0300526672098852 -0.495926 0.5242306 0.6922714 22 22 22
-0.0449704466296867 0.0333886259077032 0.00876713618801622 -0.2777162 0.456218 0.8454223 81 81 81
-0.0463392563131459 0.0388092750433418 0.00714561588005147 -0.2528019 0.1952301 0.9476162 74 74 74
-0.00116088883496612 -0.0589595749259632 -0.0215912751627841 0.756095 -0.5609654 -0.3371026 46 46 46
-0.0736722037324942 -0.0239751112808955 0.00573250014414306 -0.8663915 -0.1627084 -0.4721141 37 37 37
-0.0680075981242845 -0.0163577169083287 -0.0161425755642941 -0.8171679 -0.4698525 -0.333879 54 54 54
0.0364070014438607 -0.0254513289255331 0.00394076349111128 0.7133234 -0.5932997 -0.3730485 37 37 37
-0.0762596479495956 -0.0201112250300073 0.00807420204238424 -0.7425839 -0.2814999 -0.6077227 35 35 35
-0.0796764201208049 -0.00664507073073817 0.0024020214215506 -0.7873021 -0.4185658 -0.452723 30 30 30
0.0348816335114814 0.0518172905614958 0.00338202713595193 -0.0141106 0.5397835 -0.8416856 95 95 95
0.0160280156543937 -0.0171659438057945 -0.0411491119945218 -0.04414415 0.5481536 -0.8352119 128 128 128
-0.0071421897550219 -0.0486679251082631 -0.0510248557180127 0.738364 -0.5071532 -0.4445384 59 59 59
0.0118799075237224 -0.0488794771971224 -0.0124112805472654 0.7733281 -0.5707306 -0.2760982 50 50 50
0.0421871266475549 0.0454605750088224 -0.000859252683428569 -0.02098902 0.5483686 -0.8359733 111 111 111
-0.0434073234877537 0.0174186150354674 -0.0168567687083471 -0.01654142 0.5548667 -0.8317748 127 127 127
0.0176999959234765 -0.0293967929445064 -0.0345202971684592 0.7453704 -0.578818 -0.3307457 57 57 57
-0.0568675066491742 -0.00221803481459193 -0.0290289035489266 -0.04229458 0.5447029 -0.8375619 138 138 138
0.0148937973338645 -0.0109918752848666 -0.0369669687480065 -0.02110371 0.5427411 -0.8396349 107 107 107
0.0125100179475539 0.0324109610666394 0.0358331959841817 -0.1294914 0.5897232 0.7971565 27 27 27
-0.0596484940468684 -0.0307863881072505 -0.00492788688698664 -0.7527561 -0.2823792 -0.5946599 49 49 49
-0.0262093665117331 0.00706546189126289 -0.0241462060988319 -0.02695142 0.5450819 -0.8379495 120 120 120
-0.0290819869181376 -0.0346884379766081 -0.0512426262645577 -0.03487295 0.5564924 -0.8301205 128 128 128
-0.00322677169158636 -0.0226340044593412 -0.0438067594495161 -0.02927611 0.5390639 -0.8417559 126 126 126
0.0229718817633491 0.00588759720838805 -0.0262554030688294 -0.02452428 0.5541086 -0.8320831 115 115 115
-0.0140639951977062 -0.0624437596736463 -0.0445831623073688 0.6573866 -0.6650419 -0.3543474 49 49 49
-0.00605552467066106 0.0309426699709225 0.0258374456785912 -0.4013679 0.4438243 0.8012015 48 48 48
-0.073675839176055 0.0213476612619199 0.00690687407371904 -0.269643 0.4304431 0.8614008 68 68 68
0.0449206595017424 -0.00955868468912779 -0.0107742520009255 0.7197306 -0.6461867 -0.253832 34 34 34
-0.0639215434555092 0.00317098548472128 -0.0254319825969852 -0.03909081 0.5422486 -0.8393083 90 90 90
0.0305497759470947 0.000251205628892359 -0.0302623906827151 -0.02174634 0.5529557 -0.8329268 125 125 125
0.0217792231917735 0.0348603498871147 0.033928810403567 -0.3176863 0.5404332 0.7791067 57 57 57
-0.0105958327980993 -0.0520248939252094 -0.0524207301263776 0.6712474 -0.5485257 -0.4985444 48 48 48
0.0403997344856744 0.0333167391390081 0.0428368272115288 -0.27463 0.296091 0.914827 16 16 16
-0.0153389399971116 0.0039419251094166 -0.0263578143854891 -0.02780491 0.5504497 -0.8344052 152 152 152
0.0310667894935723 0.0748379606572693 0.0191324877881909 -0.3987529 0.4764147 0.7835976 35 35 35
-0.0349224253968297 -0.0270799445629522 -0.0459208306594164 -0.03440507 0.5427052 -0.8392183 102 102 102
-0.0237124353533655 0.0410644911587354 -0.00183103299716364 -0.0172906 0.549644 -0.83522 124 124 124
0.0164970902376553 0.0476787594552781 0.0236136392504634 -0.3901008 0.5391919 0.7463869 24 24 24
-0.00970057024622717 0.0418179315044471 -0.00180538417125115 -0.01416234 0.5492613 -0.8355306 139 139 139
-0.0257885602853349 0.0326348702869332 -0.00733122154906407 -0.03819966 0.5513386 -0.8334066 123 123 123
-0.0763210191623447 -0.0178224066362525 0.00613808539078248 -0.7665564 -0.2929948 -0.5714415 51 51 51
-0.0350762558558344 -0.0661129074640473 -0.0327228029541067 -0.6533581 -0.6710357 -0.3504772 26 26 26
0.0090661256818847 -0.0329883460922499 -0.0447718759043766 0.7539884 -0.5583257 -0.3460836 67 67 67
-0.00204228295333797 0.0341803607909679 -0.00711682607983571 -0.03471262 0.5513878 -0.8335266 110 110 110
-0.05992437336154 -0.04492715946375 -0.00533366180937744 -0.8668039 -0.2290667 -0.4429214 60 60 60
-0.00757774326187777 -0.0396405724460821 -0.0551059362235402 0.1583859 0.4448591 -0.8814842 108 108 108
0.0252295111722725 0.0354959074030923 -0.00699556380656419 -0.01412268 0.5502748 -0.8348642 101 101 101
-0.0618966538571502 0.00561318296580948 0.0178101618428191 -0.2084978 0.2774694 0.9378376 37 37 37
-0.0192200572552261 0.0523321429672472 0.0104829694873069 -0.1586494 0.6337651 0.7570813 73 73 73
0.000588578841919762 0.0251759892628662 -0.0127730299588181 -0.02830216 0.5330563 -0.8456063 192 192 192
0.0877488514889979 0.0231712384196789 0.0134520983769894 0.8631302 -0.2089368 -0.4597301 67 67 67
-0.0475206611975443 -0.0405640133664162 -0.0510244344416687 -0.7345582 -0.3269759 -0.594568 153 153 153
-0.0287990415295982 0.0283898118538535 -0.00988461171979499 -0.01524624 0.5457168 -0.837831 135 135 135
0.0730097788218487 0.0612503163356164 0.0314099320158019 0.8643098 0.5023985 -0.023754 35 35 35
-0.0404605257091779 -0.0395401645583288 -0.0540930768646611 -0.04264804 0.5043023 -0.8624734 110 110 110
0.0333027545317699 0.0223444922891387 -0.0159256730047435 -0.04010262 0.5509512 -0.8335733 116 116 116
-0.00286778881851069 -0.00476886561539858 -0.0324674937401288 -0.0132021 0.5493186 -0.8355087 92 92 92
0.0657828302311994 0.0587487036774721 0.00676213304416801 0.2772183 0.5532302 -0.7855484 123 123 123
-0.0526510569968095 -0.0449570172210376 -0.0302100013672699 -0.9750869 -0.1459311 -0.1670618 81 81 81
0.0557338470868305 0.0782637191261284 0.0265805684239595 -0.3593853 0.4634704 0.8099614 80 80 80
-0.00536036351508162 -0.0134979665617703 -0.03800792289892 -0.02937429 0.5446981 -0.8381176 115 115 115
-0.0156532583588036 0.0151685755667412 0.0298833807991009 -0.3841149 0.5571749 0.7362145 37 37 37
-0.0115820909262929 -0.0207432720074525 -0.042823775147152 -0.02795568 0.5369146 -0.8431733 122 122 122
0.000202563089423791 0.0514340975885423 0.00414197570858155 -0.01912734 0.5580629 -0.8295782 129 129 129
0.0493255075184877 0.071528831727689 0.0160164741272288 -0.0213406 0.5418427 -0.8402089 77 77 77
0.062237641005491 0.0469569816322335 0.0439870221161364 0.03047846 0.6317224 0.7745953 20 20 20
0.0437575410798861 0.0304725368239511 -0.0109775461670421 -0.01838615 0.5499642 -0.8349858 81 81 81
-0.0614056467635464 -0.00170538331103787 0.0221669247145672 -0.189458 0.5472798 0.8152242 63 63 63
0.0543241625862643 -0.000103447775237075 -0.00989787355329264 0.7115474 -0.6347203 -0.3013809 38 38 38
0.0709578738012784 0.0133202772366394 -0.00138245338968507 0.6400983 -0.7070207 -0.300659 31 31 31
0.00610379902296243 -0.0376363395717535 -0.044229513854711 0.7549744 -0.5588718 -0.3430393 55 55 55
0.0729923263710277 0.0576317174009211 0.0224909520304634 0.8301131 0.4914446 -0.2634285 58 58 58
0.0479362227992475 0.0748618525367304 0.0180254887077512 -0.0211475 0.5362928 -0.843767 88 88 88
0.0326151908008643 0.000553229964971091 -0.0300593367009593 -0.02519135 0.5513279 -0.8339082 154 154 154
0.0440459518709573 0.0754464275055056 0.0185789522097439 -0.05745616 0.5661082 -0.8223262 110 110 110
-0.0152864781304136 0.0124771463577631 -0.0208064558810403 -0.02629871 0.5478951 -0.8361336 133 133 133
0.0246785935497997 0.0199656943690114 -0.0172139080422875 -0.01586294 0.5569198 -0.8304148 159 159 159
0.0169842083937644 0.0486963018222979 0.0231902131898499 -0.39654 0.5094918 0.7636584 29 29 29
-0.0118585714850425 0.0229911953110058 -0.0140289908545262 -0.03985979 0.5443274 -0.8379253 188 188 188
-0.0313560110695947 -0.0251509059858972 -0.0452728409449919 -0.03014935 0.5467592 -0.8367469 102 102 102
0.0246954744251862 -0.0349424263160729 -0.00546473164624139 0.7098666 -0.6536783 -0.2622865 62 62 62
0.0542420182779506 -0.00151886021395375 -0.00764606352897235 0.7127935 -0.6478814 -0.2686545 49 49 49
0.0389374816363617 0.0442712644422296 -0.00165342780200367 -0.01598562 0.5487334 -0.8358445 93 93 93
0.00739985562830148 -0.0351887760929358 -0.046017569713347 0.7384043 -0.5699356 -0.3604614 96 96 96
-0.0610430741921202 0.0338147328070459 -0.00552132182097542 -0.03967138 0.5371622 -0.8425455 131 131 131
0.00689634050020915 0.0277127929064318 0.0354792346558601 -0.310388 0.3146878 0.8970122 20 20 20
-0.0269071906945557 -0.0246910466212713 -0.0449390041168054 -0.02652281 0.5579998 -0.8294171 73 73 73
0.00725090044330967 0.0115771636669568 -0.0221506626392146 -0.02966226 0.5632041 -0.8257853 139 139 139
0.0135417852558901 -0.0252584648983836 -0.0462470120029833 0.2257252 0.3065404 -0.924706 107 107 107
-0.0662869040144423 0.0293272544799212 -0.00838918685942514 -0.01603131 0.5484259 -0.8360455 127 127 127
-0.0102415653183408 0.0258104037135507 0.0268515582668997 -0.3933201 0.4158428 0.8199841 72 72 72
-0.077421086851595 -0.0202697117310473 0.00881072286126267 -0.7029205 -0.30029 -0.6447702 30 30 30
-0.018060293617705 -0.068909332838582 -0.0392149309972395 0.7208079 -0.5596203 -0.4089757 22 22 22
0.0748532652483771 0.0366327595892078 0.00372106294472502 0.8128262 0.4670336 -0.3481283 47 47 47
0.0804704469635324 0.0135265501327648 0.0217414908225934 0.707624 -0.6730399 -0.2151411 45 45 45
0.0711605905914103 0.0550339145889709 0.015832999172639 0.8147018 0.4573782 -0.3564633 41 41 41
0.0292967188479545 0.0314234277076593 -0.00972999916462836 -0.0303132 0.5525379 -0.8329363 100 100 100
0.0236724699120563 0.0294735724846324 -0.0110217364555729 -0.007148741 0.5421692 -0.8402389 108 108 108
-0.0139898593194103 -0.0103052979741469 -0.0358072209921519 -0.0280261 0.538248 -0.8423204 111 111 111
0.0390322751066798 0.078834523121474 0.0203517750396822 -0.007011182 0.5107359 -0.8597091 36 36 36
0.0662235482130713 0.0096111772488352 -0.001590456285188 0.6809483 -0.6514698 -0.3345093 78 78 78
0.0756051582893762 0.0149888025068299 0.00628601069755841 0.6690725 -0.6681407 -0.3254688 64 64 64
-0.0250326745670639 0.0419636742929512 0.0115480161120798 -0.2766771 0.3821409 0.8817132 46 46 46
-0.0616664501076456 -0.00782648296452848 -0.032663573112699 -0.1990136 0.4187143 -0.8860428 99 99 99
0.0810767800813585 0.0163298987356095 0.0152854681678671 0.7036761 -0.651893 -0.2826227 26 26 26
0.0237993334027009 -0.0154480244850306 -0.0403022463433388 0.003594804 0.4310164 -0.902337 117 117 117
0.0450239855959484 -0.01692796181893 0.0056619329905338 0.7023565 -0.5482996 -0.4539415 65 65 65
-0.0220484756142092 -0.0371315582256571 -0.0530098179430638 -0.0193063 0.5372896 -0.8431768 108 108 108
-0.0710769475013908 -0.00391128155064346 -0.0240795018529668 -0.8206671 -0.4020915 -0.40599 58 58 58
0.0592777230337811 0.0177145151559457 -0.0198245838839672 0.0569061 0.484109 -0.8731553 95 95 95
0.0104711940834163 -0.0461216543319689 -0.0190776658511057 0.6975565 -0.6059411 -0.3824269 41 41 41
-0.0052448944786101 -0.0644155893236906 -0.0209846945577148 0.7537766 -0.5481158 -0.3624776 56 56 56
0.0541632048279417 -0.00447011198369385 0.00158839702736358 0.7045252 -0.650207 -0.2843856 60 60 60
0.0512825560096233 0.0498471209332245 0.0391536888455733 -0.2268024 0.8171343 0.5299549 47 47 47
0.053346650590762 0.0688871117536602 0.0139825540260449 -0.03582669 0.5513565 -0.8335001 113 113 113
0.0758652031551161 0.0561461349718499 0.0331780817037718 0.8764337 0.4529369 -0.1634384 43 43 43
0.063105403947413 -0.000772525482528819 0.0125979611895999 0.6567582 -0.6551909 -0.3733543 65 65 65
-0.0760681676735167 -0.0100684367527211 -0.000787367064360722 -0.8068825 -0.4502821 -0.3823436 8 8 8
-0.0372765338629559 0.000205545140075092 -0.0281331883225192 -0.02117356 0.5477241 -0.836391 131 131 131
-0.0344610872665858 -0.0514302100386387 -0.0542733239149021 -0.7983066 -0.45911 -0.3897749 74 74 74
-0.0135371559892636 -0.0160031670592427 -0.0397691346930955 -0.02003283 0.5512817 -0.8340786 99 99 99
-0.0626984344661872 0.0181497151265351 0.0114392946367458 -0.2118177 0.5199312 0.8275294 64 64 64
-0.0208743335786665 0.00177781853435954 -0.0275619888223044 -0.01514184 0.5464212 -0.8373736 196 196 196
0.0426261811023689 0.0449758753783789 -0.0013257588211481 -0.02450026 0.5518373 -0.8335918 108 108 108
0.0620247206306681 0.0394924094062512 0.0478018992500955 -0.1487853 0.3305282 0.9319947 15 15 15
0.0398717944892595 0.00415213524207902 -0.027892425050378 -0.02300397 0.5533955 -0.8326009 102 102 102
0.0785542666967767 0.0461880237523875 0.0219460710394775 0.8919405 0.3380237 -0.3003033 49 49 49
