ply
format ascii 1.0
comment File exported by Rhinoceros Version 7.0
element vertex 465
property float x
property float y
property float z
property float nx
property float ny
property float nz
property uchar red
property uchar green
property uchar blue
end_header
0.00823661001329645 0.0912750490497735 0.0107273814172046 0.5945355 0.7772345 -0.2059954 112 118 105
0.0079182497806447 0.0908275572453628 0.00953065838517353 0.5745773 0.801033 -0.1679496 108 114 92
0.00833296670638362 0.0887441611916679 0.00755490969413086 0.5895355 0.7968856 -0.1319895 109 111 101
0.00989521985772912 0.0903588187498839 -0.000553908735087316 0.5487533 0.7887579 0.2770033 107 109 81
0.00591184587433746 0.0932737014751399 -0.00207527863186296 0.5338956 0.8185487 0.2119754 90 102 75
0.00940668115556242 0.0918274562546691 -0.0057415585611007 0.5518572 0.8275414 0.1030962 112 116 98
0.00950113828592558 0.0914665103858809 -0.00732151733038833 0.5458561 0.8375587 0.02316009 127 126 111
0.00830283615987737 0.0932690321275903 -0.00679755710515884 0.5123921 0.8573061 0.04980622 114 118 98
0.00907563600600403 0.0920637441537205 -0.00816902187747093 0.5349036 0.844817 -0.01273969 131 131 117
0.00541609595677439 0.0946435096803347 -0.00702409229016943 0.5366606 0.8437489 0.009119487 125 126 107
-0.0180300248282252 0.111606459105505 -0.0259555543110024 0.1458629 0.974715 -0.1692771 135 131 122
0.0056478708676706 0.0928659287852914 0.0113301950837238 0.6333615 0.7461216 -0.2053188 108 111 94
0.0046759148187121 0.0922666252486639 0.0114582643985295 0.6460943 0.7378896 -0.1951438 111 122 92
0.00391883121866554 0.0930020199854376 0.0110821080209693 0.6807363 0.7105642 -0.1780353 111 113 96
0.00681536591918164 0.0901806547839593 0.00483357315465527 0.574647 0.8023365 0.1613597 108 105 96
0.00526934843512672 0.0907042838815367 0.00591261048490677 0.6280596 0.7770711 0.0412508 104 109 82
0.00402829044514608 0.0933202654591073 0.00806334612342341 0.7009404 0.704739 -0.109661 111 116 87
0.0014395924206192 0.0960573178024094 0.00782836121171804 0.7867473 0.6107417 -0.08957257 107 108 87
-0.000891867214868114 0.100439272215571 0.0123330359178666 0.8076264 0.5759789 -0.1264431 97 111 68
-0.00121535635313563 0.100609477494741 0.0106907900924916 0.8130026 0.5764017 -0.08238892 108 109 89
-0.00134760812726054 0.100895198162776 0.00984928211745362 0.8211923 0.5642231 -0.08541356 109 117 98
-0.000524865446263512 0.0980031695136845 0.00729657769532854 0.7938843 0.6031829 -0.07692957 107 110 92
-0.00017564889690691 0.096340382210398 0.00705376658927714 0.7763345 0.6268684 -0.06588408 103 108 90
0.000159356148002665 0.0971493906798454 0.00562479862317988 0.7960916 0.6026278 -0.05547934 103 107 81
-0.00440050486431387 0.104663887781491 0.00423499889467405 0.8108653 0.5816907 0.06429214 129 130 111
0.00161128345288741 0.0954572580628653 -0.00046353392071341 0.6513823 0.7189817 0.2424181 120 126 108
-0.00211597859307755 0.0989597083381961 0.00141332135481753 0.7996302 0.5867195 0.1278741 114 115 102
-0.00580264369681638 0.104690036965272 0.00287118325961777 0.8032995 0.5847131 0.1132276 105 98 94
-0.0036549230810845 0.102478861103296 -0.00131164069549161 0.7800002 0.6030571 0.1670985 120 122 107
0.00271141358524929 0.0971447483861467 -0.00466013294002998 0.6719012 0.7322529 0.1111511 96 101 81
0.00113416085379603 0.097272656949692 -0.00676910104068307 0.7031632 0.7091676 0.05140824 112 112 96
0.000610523953139541 0.0973068793735555 -0.00813919577950373 0.6927991 0.7209938 0.01404709 104 112 92
-0.00179862431512801 0.100761754662385 -0.00675561309213435 0.7535424 0.654725 0.05923776 121 123 94
-0.00265159314806906 0.101912629137806 -0.00654285409572775 0.7515756 0.6570981 0.05793335 120 119 110
-0.00462298113679038 0.104457788134363 -0.00705959827059677 0.7454574 0.6653683 0.03972878 113 116 94
0.0293857667674802 0.0706037524989047 -0.00898177904303754 0.7219015 0.66565 0.1891249 114 120 105
0.0254029282691244 0.0750788512211881 -0.0086950555772618 0.713873 0.6715199 0.1986112 112 113 96
0.0320353329527192 0.0688744154959336 -0.0161438513618086 0.777932 0.6160901 0.1235099 110 113 97
0.0298875852183396 0.072355268918011 -0.0167702191433245 0.7925346 0.5931025 0.1418393 117 118 99
0.0277453154330889 0.0750159487580006 -0.0177202618574577 0.771207 0.6288609 0.09886257 119 123 98
0.0280104278869153 0.0747458604254482 -0.0187709360920987 0.7742966 0.62715 0.08454415 115 121 88
0.0206360617018904 0.0818762441674239 -0.0163114139842261 0.6813249 0.7289587 0.0664505 112 115 98
0.0209213725958062 0.0798721667385621 -0.0105781701798066 0.7481533 0.6304981 0.2067336 123 125 113
0.0174117812186441 0.0852086246889429 -0.00978612600850381 0.7255644 0.6686291 0.162762 115 111 112
0.0165744396128091 0.0862164494806711 -0.0114652317072451 0.6953503 0.7111547 0.1036676 117 111 90
0.0183275373652085 0.0840609138767905 -0.0128250049542957 0.719933 0.6789957 0.1437405 113 115 84
0.00991868631391402 0.0789392540617128 -0.0165391897369992 0.09754251 0.198889 -0.9751557 230 186 182
0.0153832074700158 0.0873606855608738 -0.0156374825342556 0.6429023 0.7658578 -0.01176403 115 120 98
0.015412097873106 0.0867950256158374 -0.0173238894224955 0.64124 0.7669834 -0.02340447 114 118 101
0.0184080373107882 0.0842918324129903 -0.0177602535866561 0.6855451 0.7279912 0.007522172 119 129 108
0.0178491399103686 0.0852221888995127 -0.0190865147106347 0.652795 0.7568942 -0.0311428 108 110 95
0.0301965684326393 0.0718816451878808 -0.0213837562758086 0.7836553 0.6207793 0.02274346 108 109 95
0.0317628240201207 0.0686389533166838 -0.0237317269100744 0.7819348 0.6217485 0.04479635 106 113 98
0.0288450879792621 0.0736856075489781 -0.0211693749320221 0.7894022 0.6138393 -0.006739231 108 112 98
0.0278954492033674 0.0738543531996956 -0.0227486593187722 0.7690869 0.6369811 -0.05254022 112 113 93
0.031194658644242 0.0686675596014242 -0.02630585612444 0.7645945 0.6069161 -0.2169057 113 114 97
0.0314776934759164 0.0700121219377305 -0.027733547463506 0.7191684 0.6287042 -0.295851 108 113 94
0.0273630659813007 0.0666038113334181 -0.0308739014177349 0.06586609 -0.09084117 -0.9936848 163 170 174
0.0262944425146632 0.0678808027739191 -0.0309543479968236 0.06782441 -0.05481271 -0.9961904 164 171 172
0.0271541378708684 0.0699682729183734 -0.0316368484623605 0.0956871 -0.03895288 -0.994649 179 181 187
0.025563246669805 0.0704245042545949 -0.0317256418550489 0.08986701 -0.04879802 -0.9947576 177 181 183
0.024340283297847 0.0713921857906124 -0.0314758552554506 0.1028932 0.0031979 -0.9946873 177 182 184
0.0228335644042863 0.0715184456560721 -0.0315831545176105 0.08811246 -0.02522307 -0.9957911 177 182 187
0.025308195545628 0.0757306882478231 -0.0304898076898353 0.38989 0.4119422 -0.8235832 129 139 124
0.0212156792327911 0.0739986289604363 -0.0312607924465875 0.1108827 -0.02450276 -0.9935314 144 156 163
0.0215779277316188 0.0748996619940346 -0.0316451426259281 0.125686 -0.002741764 -0.9920663 158 170 170
0.0170445869129754 0.0699564965147809 -0.0229175085883329 -0.1465455 0.8036771 -0.5767387 183 173 179
0.0239807406879238 0.0649184166992797 -0.0304644540567 0.03810202 -0.09775519 -0.9944808 171 176 184
0.0228330202968903 0.0655937239435412 -0.0310807368751314 0.05107347 -0.09708367 -0.9939649 178 187 189
0.018613905136637 0.0657315977048019 -0.0308902196181375 0.06045549 -0.06678733 -0.995934 172 178 184
0.021963504397847 0.0685549386523296 -0.0312027601855072 0.0400546 -0.09685361 -0.9944924 175 179 182
0.0168057204380205 0.0652393104282155 -0.0306370140530717 0.0641575 -0.07801601 -0.9948856 158 169 170
0.0128078796732187 0.0635200441045286 -0.0302236956648566 0.03575275 -0.07111739 -0.996827 164 166 156
0.0159477870520592 0.0670962542234033 -0.0308268105256456 0.05849993 -0.06995334 -0.9958335 177 181 185
0.0197055873654333 0.0707396649441648 -0.0308967607993982 0.03956845 -0.08042873 -0.9959747 166 169 176
0.020012399244882 0.0745964651166081 -0.0314988498304369 0.09746107 -0.03416789 -0.9946526 167 176 177
0.0206484580636959 0.0821762856223766 -0.0216835281319574 0.6625528 0.7381593 -0.1270618 126 130 115
0.0197126678720689 0.0807892562208351 -0.0256840289706077 0.5879886 0.7652232 -0.2621123 135 139 131
0.0209014284635098 0.0790804878693502 -0.0269267506545602 0.583657 0.7475874 -0.3169504 127 132 126
0.0197998744595216 0.0791644482247437 -0.0289149723004439 0.6029807 0.6227704 -0.4985691 105 123 111
0.0183681198970107 0.0831191459297657 -0.0212747739507697 0.6501404 0.7479189 -0.1339208 130 137 126
0.0156828533615698 0.0845097082751231 -0.0212886935204774 0.6193702 0.7735191 -0.1343455 113 118 108
0.0174417397238509 0.0758162535148752 -0.0315174590709977 0.1034208 0.01487542 -0.9945264 175 179 184
0.0182413616709041 0.0801314325247694 -0.0298017226890763 0.5849835 0.570618 -0.5763587 125 129 114
0.0174022030636625 0.0794460622813244 -0.0316483864027263 0.2786099 0.2695282 -0.9218086 157 167 164
0.0160401879938261 0.0803092697293458 -0.0314397401326201 0.285049 0.2031622 -0.9367349 165 169 173
0.0150919255341577 0.0767778705938255 -0.0315982515722322 0.10455 0.02414848 -0.9942264 162 169 173
0.013443387680911 0.0743512287268008 -0.0313755877536058 0.0526209 -0.08571604 -0.994929 171 177 184
0.0143282237942843 0.0822808070158662 -0.0316260254919535 0.2623608 0.09470243 -0.9603115 174 176 175
0.0129741567978874 0.0842957817927398 -0.0314764511173437 0.2666174 0.08359098 -0.9601707 131 145 142
0.0091750445943215 0.0836427232821656 -0.0319179194389315 0.1032799 -0.04699392 -0.9935415 170 177 182
0.00838723645840922 0.0820944246495169 -0.0310664830757238 0.0628965 -0.05937612 -0.9962522 170 176 177
-0.00738243746689449 0.0555240909364837 -0.0158109660468211 0.8874325 0.4286526 0.1694711 175 175 181
0.000268055738409156 0.0748697338817981 -0.0155756293251934 -0.1694639 0.9100181 -0.3783503 181 181 188
0.00705123765489191 0.0810733997551719 -0.0157809941012136 -0.08846785 0.402264 -0.9112393 234 183 173
-0.00805372158642781 0.0592775911573357 -0.0189441198143436 0.7812291 0.5824378 0.2246046 170 173 174
-4.89469707689594E-05 0.0752654207325694 -0.0196699477245948 0.02585223 0.9251273 -0.3787759 179 179 183
-0.00252188872553827 0.0791026009507766 -0.0190959648417683 0.5814493 0.782553 -0.222548 179 179 183
0.00467844716702182 0.0759876715896712 -0.030139959219971 0.04158778 -0.08284053 -0.9956947 163 169 177
-0.00319343881838119 0.0691739551733731 -0.0295306537924055 0.03105931 -0.0809532 -0.9962339 162 172 163
0.0127700124755923 0.0887959759164492 -0.0152098480091354 0.5820032 0.81277 -0.02602134 115 119 102
0.00972364171991646 0.0917105063382772 -0.0108650820929661 0.5201099 0.8520858 -0.05861244 119 121 105
0.0114687851677773 0.0904422077171018 -0.0111853637989706 0.5635489 0.8257886 -0.0220408 122 118 115
0.0106200143346484 0.0901774856836709 -0.0138950985720908 0.5680336 0.8229246 0.01152731 112 115 101
0.00832691598556323 0.0912906466590599 -0.012170532862555 0.5422506 0.8401474 0.01079935 114 114 80
0.00622053593361782 0.0928067203816557 -0.012927854984785 0.5505931 0.830166 0.08758765 107 115 96
0.00551167327757796 0.0938965082604996 -0.0129039485768014 0.5423753 0.8361349 0.08189961 110 107 96
0.0132679421338957 0.0881146010639534 -0.0169825303490672 0.5926983 0.804791 -0.0319391 116 120 102
0.0116136030895837 0.0892427714003549 -0.0173720273842554 0.6115482 0.787803 0.07331631 108 113 92
0.010494189323055 0.0904931347404075 -0.0168728098885638 0.5962347 0.7999945 0.06717887 104 105 83
0.0077950422012032 0.0934142108548397 -0.0166803431503529 0.5792336 0.8019651 0.1460837 94 98 86
0.00675414632558224 0.0935856300523846 -0.0169073656621386 0.5518273 0.8187597 0.1584906 114 118 101
0.00885420174353069 0.0924450287228519 -0.0191805374627205 0.6223655 0.7727954 0.1242921 117 119 109
0.0072637846381709 0.0932726768553213 -0.0187372442441474 0.5593148 0.8203162 0.1193663 116 117 99
0.00316731997337394 0.0959814075244939 -0.0180754212492105 0.604541 0.7919983 0.08525783 114 123 96
0.00921935905570015 0.0926623890575736 -0.0228211651048335 0.6274027 0.7786685 0.006414939 121 126 119
0.00741640950475508 0.0930220343456789 -0.0251480887072588 0.5714288 0.8014594 -0.1764424 122 123 105
0.0102381434065038 0.0896607722490227 -0.0282686700906885 0.5638307 0.6233329 -0.5418036 127 132 126
0.0111020654374969 0.0857381216796912 -0.0316026661038556 0.2763219 0.1550971 -0.9484677 158 171 164
0.00884738475331215 0.0897830890790945 -0.0296879474766808 0.47171 0.5123013 -0.7176608 130 144 137
0.00972390856236283 0.0881603739981597 -0.0313505691290695 0.3591413 0.3119314 -0.8796114 140 155 150
0.0067948151948789 0.0910476260488412 -0.0316191817926205 0.4775758 0.4012347 -0.7816215 135 152 147
0.00325951839922967 0.0960610168100852 -0.022447409633953 0.5795774 0.8141601 0.03511837 80 97 62
0.00313714984878199 0.0963883116798797 -0.0248989268171274 0.5647879 0.822479 -0.06740153 101 107 102
0.00285928150004722 0.0945287484065079 -0.0324386395001559 0.3927422 0.3773067 -0.8386854 171 176 176
0.00470387039808262 0.0931700719588692 -0.00931357299836266 0.5401037 0.8406749 -0.03941836 103 103 90
0.00248501450346739 0.0955252480187386 -0.0106314739112302 0.587329 0.8091204 0.01920495 110 113 92
0.00140985065469268 0.0962383809805697 -0.00975440207504485 0.6376866 0.7702208 -0.01076125 112 115 92
0.000256387653073453 0.0984700578190573 -0.0102360112340676 0.7353044 0.6754682 0.05540876 87 89 81
0.00153539981687922 0.0963052981536436 -0.0115589660699094 0.658921 0.7487364 0.07222793 115 115 103
-0.00193896041744424 0.10050383482305 -0.0107123817614824 0.7595431 0.6499171 0.02649532 123 121 107
-0.00431874391239617 0.104361873291062 -0.0110189028784607 0.7214762 0.6924371 -0.001712527 96 100 87
-0.00365365088631453 0.101925751045277 -0.012912854450215 0.716191 0.6975619 0.02186148 115 120 94
-0.00285143881065286 0.102218589749959 -0.013688367578182 0.7268884 0.6864038 0.02198241 107 122 90
-0.00542641473498984 0.103957710011264 -0.0108982132225591 0.7213563 0.6925372 -0.006110305 117 117 108
0.000210680218273307 0.0971976347993119 -0.0154841728192894 0.6583247 0.7428979 0.1212901 101 106 83
-0.00114902262840433 0.100216811380328 -0.0157462588501541 0.700677 0.7103814 0.06640726 114 107 89
-0.000622272651108258 0.0991652518429887 -0.0164707979813801 0.6767989 0.7308789 0.08808706 118 113 108
0.0025386565143819 0.0966519428740572 -0.0197168785441096 0.625364 0.7774016 0.06757645 96 100 90
-0.000772049001836805 0.0996779000833334 -0.0181572248049886 0.6729411 0.7368789 0.06449542 116 114 100
-0.000442604528906543 0.0995897401475844 -0.0189540455016399 0.6674753 0.7416317 0.06677721 107 108 101
-0.00415305099486174 0.102229282148968 -0.0150584126673328 0.7056219 0.7079729 0.02953105 105 106 83
-0.00799636753436372 0.0926854124453266 -0.0131222013858787 0.6015348 -0.4067701 -0.6875274 177 180 182
0.0026041344064156 0.0880035425511375 -0.0313922990764351 0.04398005 -0.08432119 -0.9954676 153 160 167
0.00110678450749013 0.085736784715698 -0.0306145472252242 0.0513351 -0.04940026 -0.9974589 145 154 164
-0.00496879411900775 0.0807738074357107 -0.0308597015559243 0.03220505 -0.08052445 -0.9962322 231 185 170
-0.0177356421869197 0.0866975276716876 -0.0284916659261855 -0.05696097 -0.1161513 -0.9915969 221 183 179
0.00199436220050542 0.0954389054043323 -0.0226619796086487 0.5954443 0.8020809 0.04596007 118 126 108
0.00156291870057812 0.0974195461123681 -0.0225334658664521 0.618574 0.7837938 0.05507746 116 124 106
-0.000211969908030518 0.0990755717108572 -0.020622197446825 0.6613615 0.747229 0.06518979 83 87 70
0.000718184160523272 0.0982983323994358 -0.0228471189208871 0.6397754 0.7680758 0.02733215 107 113 90
-0.000850824610531653 0.0999292955719667 -0.0227152504378884 0.6719089 0.7359351 0.08329423 97 97 86
-0.00463743166964381 0.103096912142822 -0.0323477697992423 0.03071501 -0.08372933 -0.9960151 170 177 167
-0.0113211476158206 0.0998715933650474 -0.0319152474246711 0.05674794 -0.1021635 -0.9931477 173 177 178
-0.0470613956587522 0.0466637893063266 -0.0260331544392889 -0.1825705 0.02346541 -0.9829127 198 198 206
0.0359049167125995 0.0214020666849689 -0.0285047576192489 0.04738956 -0.08559392 -0.9952024 206 184 159
-0.0558370883911352 0.0170255044048121 -0.0222689252434609 -0.5944436 0.04879025 -0.8026558 123 122 116
-0.00225693333581312 0.00868185806820121 -0.0253502883964351 0.05367955 -0.07238123 -0.9959314 189 193 196
-0.0399991798563546 0.0997234393839649 -0.00183555289420834 -0.6429727 0.5650727 0.5169902 94 97 62
-0.0435815655588971 0.0295076730704109 -0.0248575722825239 0.05249442 -0.07923821 -0.9954726 191 195 200
-0.0080270802001623 0.106312582122723 -0.00738212432370733 0.6930851 0.7201647 0.03155766 111 108 93
-0.0359668863624969 0.00256346831081633 0.0191153759076854 -0.5164108 -0.5432426 -0.6619723 120 124 113
-0.00301012887867724 0.0205455830787387 -0.0172396707274223 -0.4707931 -0.8796362 0.06777886 167 173 174
-0.0136450600676916 0.0243543233242232 -0.0186812413287721 0.4987904 -0.2930224 -0.8156874 209 174 162
-0.0258496742164964 0.00308380042312295 -0.00933696689400632 -0.01237249 -0.9336419 0.3579941 173 176 179
-0.018633778162283 0.0139975005162408 -0.00656159823545255 -0.1698046 -0.07742851 -0.9824313 175 176 177
-0.035607300437432 0.00400551635803115 0.000861302358372562 -0.8584258 0.1229896 -0.4979745 109 112 94
-0.0322863940862304 0.00580118372382776 -0.00597541371974541 -0.6326987 0.1360009 -0.7623622 170 172 177
-0.0339973701075191 0.0149138585359251 -0.00350608804055286 0.03416553 -0.4095158 -0.9116631 166 172 173
-0.0320357970408947 0.00185294816602444 -0.0161411793787436 -0.385258 -0.9206737 0.06273869 161 169 168
-0.0103658435969574 0.035890718191481 -0.00866813424797708 -0.985603 -0.1480977 0.08157021 209 179 157
-0.0113211532164925 0.0503601428353312 -0.0205945475469794 0.6073834 0.6762795 -0.4168109 166 170 174
-0.0125435379564482 0.0530208870353507 -0.0185869095946463 0.1804329 0.9427293 -0.280545 163 169 170
-0.00985328414584696 0.0483904924845603 -0.0213531899375906 0.112581 0.8813657 -0.4588247 169 173 177
-0.0254281205696318 0.0313714138811144 -0.0116108305488387 0.8487545 0.01919279 0.5284387 179 173 139
-0.0315088822861593 0.0300109662481202 -0.01506268867994 0.9792821 0.189816 -0.0705438 195 179 169
-0.0302722552425641 0.0364686639814288 -0.0150994554377594 0.6530352 0.7312084 0.1971785 214 179 179
-0.0444029518699844 0.0372468770648776 -0.0144644156860582 0.06729555 0.9936669 -0.08998527 160 167 159
-0.052667937955273 0.0406501186965386 -0.021140790197394 -0.8420063 0.07831039 -0.5337535 99 116 86
-0.0519980770755897 0.0384802548801951 -0.022784007916532 -0.7316187 0.04721478 -0.6800771 119 129 111
-0.0545421453133041 -0.00356735497690241 0.02128710001343 -0.9483671 0.3167661 0.01609652 109 114 96
-0.0520367511765212 0.00492186411305784 0.0180342679081511 0.2013954 -0.7939424 -0.5736684 108 109 100
-0.0551622733629893 0.00209229560981083 0.0187571943207789 -0.7381641 0.6545596 0.1632954 112 118 103
-0.056967586752628 -0.00188381835688345 0.0129701193218028 -0.9307476 0.3654882 -0.01127932 122 122 108
-0.0548083852051606 -0.00166123237569427 0.00994207557765914 -0.9370162 0.3483685 0.02529927 109 107 92
-0.0529061113590812 0.00356860462959974 0.00836057234572685 -0.9818192 0.124092 0.143639 131 132 117
-0.0536233398186479 0.00666649893128746 0.0101067825731317 -0.9835398 0.1343483 0.1208304 115 112 106
-0.072429170273808 -0.00985443957651699 0.0231225985019461 0.5018289 -0.2174698 -0.8371825 102 108 81
-0.0736965158737068 -0.0114862993698729 0.0225409516875594 0.5833905 -0.1340874 -0.8010469 105 111 94
-0.0817813730105481 -0.0123284135078238 0.0192503283344378 -0.7463484 0.1063772 -0.6569992 146 150 129
-0.0809087183821982 -0.0108367168909268 0.0189011143288511 -0.7632298 0.08524197 -0.6404796 170 172 158
-0.0830666086933611 -0.0083598078943784 0.0208404816295986 -0.7084661 -0.009524242 -0.7056806 155 158 138
-0.0814369276928213 -0.00573110976151747 0.0184480416992444 -0.7106684 -0.03733249 -0.7025359 164 166 140
-0.0832258111255069 -0.00544576115119744 0.0199188156971095 -0.7464126 0.01074572 -0.6653967 179 185 154
-0.0815510185587334 0.00284629661613034 0.0244073011824877 -0.9233541 0.3630603 -0.124918 101 105 72
-0.0747887971051657 0.00317383045372543 0.0204240596342864 0.5767648 0.4461534 -0.6843169 113 128 114
-0.0838664761168659 -0.00477843708058745 0.0213164786195351 -0.7961463 0.04588787 -0.6033617 165 166 144
-0.0779418581055551 0.0107915936058417 0.0183218347965169 -0.9011611 0.4252867 0.08390398 105 108 80
-0.0831032403299119 -0.000197769871720488 0.0204508197459154 -0.9175839 0.09672781 -0.3855951 173 171 154
-0.0841816293276558 -0.00308344989297815 0.0214134012685681 -0.8250129 -0.004980957 -0.565092 165 167 144
-0.082486285124252 -0.00234524963350491 0.0192423002376023 -0.7789385 -0.05164548 -0.62497 166 166 136
-0.0822983095115783 0.000111339949533718 0.0184160369102732 -0.8276629 -0.08822194 -0.5542481 167 165 114
-0.0824134453833603 0.001544131998647 0.0181611768436533 -0.876277 -0.02200584 -0.4813049 178 175 146
-0.0830794336023057 0.00175959380249824 0.0202640473409035 -0.9356646 0.1694568 -0.3095419 185 182 165
-0.0830132027552186 -0.00075062641437873 0.019385545781379 -0.8244841 -0.03956516 -0.5645003 173 170 130
-0.0835084261644123 0.000654085660023007 0.0187453925929568 -0.8300971 -0.08543357 -0.5510353 171 172 158
-0.0817297957392817 0.00418449304051938 0.0178777162966179 -0.9009677 0.2473377 -0.3564845 114 118 77
-0.0611477926934234 -0.00960501333067321 0.013619997333194 -0.9659565 0.2486565 -0.07139993 111 113 107
-0.0806820922850595 -0.0103016460156434 0.0174707705989718 -0.7894775 0.07051358 -0.6097156 160 162 144
-0.080748375198934 -0.0122089362101443 0.0168344127311814 -0.8104793 0.1736137 -0.5594476 146 149 112
-0.0411564898500698 0.00885389442225792 -0.0233767463251822 0.03811495 -0.07787693 -0.9962341 198 200 208
-0.0796661399215064 -0.0144120383374079 0.0134558322627896 -0.8471453 0.2187761 -0.4842333 151 154 139
-0.0798751488240903 -0.0123150051509943 0.0141401576571656 -0.8299767 0.2080786 -0.5175344 152 155 129
-0.0773792102299482 -0.0068105380252439 0.0127945129646836 -0.8614177 0.04773538 -0.5056489 165 171 129
-0.0776105940452294 -0.00329445110844451 0.0124170419051758 -0.8158617 -0.0342823 -0.5772299 168 167 135
-0.0794105767840021 -0.00762966668700538 0.0165855465032345 -0.7732341 6.014941E-05 -0.6341206 161 167 144
-0.078592794391934 -0.00726316301746466 0.0158786722221459 -0.8014277 -0.01443532 -0.5979175 96 101 66
-0.0808730698582791 -0.00823599089852523 0.0177453765999893 -0.7395735 -0.005554325 -0.673053 165 168 150
-0.0790311674590964 -0.00293967346881496 0.0146159090349627 -0.7825057 -0.09342557 -0.6155944 148 148 107
-0.0806579768403046 -0.00339993398743565 0.0166372173104313 -0.7586244 -0.1380512 -0.6367345 148 150 115
-0.0810928059648814 -0.00517165821042553 0.0181724805092646 -0.7155147 -0.04542854 -0.697119 168 171 139
-0.0812173447030906 -0.00604174283174297 0.017618556228471 -0.7150311 -0.03774337 -0.698073 174 172 155
-0.0780754919296607 -0.00679844866481394 0.014329407334797 -0.8243244 -0.02424473 -0.5655983 141 140 111
-0.076765709065644 -0.00936622642957452 0.0112224901609347 -0.8792537 0.1164908 -0.4618904 167 169 143
-0.0762879089801083 -0.00915183084119031 0.00881724626057956 -0.8813119 0.1087709 -0.4598458 161 162 143
-0.07548466358605 -0.00947014896073239 0.00665931959904209 -0.8362433 0.1401037 -0.5301585 163 168 152
-0.079007314135779 -0.0148600227956995 0.0120113197974383 -0.8308849 0.2613468 -0.4912516 147 160 144
-0.0766847918935536 -0.00775868309830952 0.010243631294659 -0.8916746 0.04685599 -0.4502455 163 161 147
-0.0758297847219622 -0.00237492263336014 0.0113728793611031 -0.8004486 0.0295557 -0.5986723 122 122 93
-0.076257857174463 -0.00759219462605987 0.00905700235711338 -0.8770168 0.07626345 -0.4743685 153 158 141
-0.0755305693711503 -0.00289007114744522 0.00806545933930602 -0.7829514 0.1551977 -0.6024125 159 160 136
-0.0746899801993801 -0.00237607047794675 0.00711220512661792 -0.7591618 0.160815 -0.6307232 183 184 176
-0.0752933309548669 0.00359520553541171 0.00970183705080374 -0.7028468 -0.04589492 -0.7098591 149 148 105
-0.0745411105533824 -0.000386410050732588 0.00780748538058251 -0.7556395 0.05707041 -0.6524967 154 154 119
-0.0740438013715052 -0.00029587187416491 0.00647333791210469 -0.7052971 0.1194647 -0.6987734 147 147 112
-0.0731063885509036 0.00180194194528793 0.00574192790239691 -0.6993461 0.05734719 -0.7124791 158 157 124
-0.0729355864921413 0.00369566644960617 0.00555738705910602 -0.7273498 0.05200878 -0.6842934 162 161 120
-0.0712283237993692 0.00855732263860454 0.00496646989960048 -0.6886453 0.1111238 -0.7165327 147 141 106
-0.0706368806017599 0.0101011392005038 0.00562825088430996 -0.6463964 0.09203153 -0.7574311 100 98 50
-0.0742091022070355 0.00628804939032934 0.00915766441644772 -0.6737836 -0.001742531 -0.7389267 125 129 97
-0.0734587697161899 0.0105378744778266 0.00738158391104671 -0.5913131 0.02718425 -0.8059838 155 157 123
-0.0781498799311122 0.00103271509600755 0.0124787633229946 -0.6866961 -0.1114779 -0.7183461 158 160 122
-0.0786727623007786 0.00274505559168325 0.0122623836245693 -0.6738498 -0.09457101 -0.7327911 154 157 122
-0.0809826879557689 -0.00239496399919126 0.017105193165706 -0.7616829 -0.1528021 -0.6296751 174 169 143
-0.0819045026296918 0.00164244650862122 0.0167451357111974 -0.7876655 -0.04937332 -0.6141215 168 164 130
-0.0803884390560117 0.00625388925817372 0.0161549386234048 -0.8867586 0.2819676 -0.3662697 143 149 123
-0.080718957961039 0.00816328074086015 0.0163395963279152 -0.908312 0.3753068 -0.1847003 164 173 144
-0.0801361170076316 0.0063013515814061 0.0138952498306152 -0.8260625 0.09297168 -0.555857 165 166 136
-0.0790602717120161 0.00701977635017925 0.013060468826008 -0.7838629 0.002699275 -0.620928 179 175 161
-0.0814119910736784 0.0057859591525643 0.0160418453390382 -0.8865867 0.1552631 -0.4357263 169 170 141
-0.076546845091745 -0.000599606917551232 0.0115111242956673 -0.752398 0.0007141903 -0.6587084 143 143 94
-0.0758791948992337 -0.000902979561123396 0.00996347072625725 -0.773778 0.08313774 -0.6279775 156 156 122
-0.0764542779412398 0.00289268127027353 0.010576057765027 -0.6973915 -0.03653817 -0.7157584 186 186 170
-0.0765841914277696 0.00852843355053745 0.01035052157863 -0.6170724 -0.1048178 -0.7798942 133 136 105
-0.0619749052100542 0.0348705521427263 0.0197448081565046 -0.82607 0.4682618 0.3135909 84 87 45
-0.0674826324525939 0.031329955757489 0.0146121282639518 -0.8362478 0.48639 0.2532081 108 106 89
-0.0639362575594791 0.0336584603199155 0.0184209573809806 -0.8272025 0.4707597 0.306792 92 91 37
-0.0639207733998748 0.0347215520373682 0.0177041813732324 -0.8279471 0.4684163 0.3083661 109 121 87
-0.0626107947498284 0.0368325150186128 0.0169547663174614 -0.8305706 0.4523372 0.3248748 94 103 78
-0.068850236857418 0.0296837136735165 0.0139476542374896 -0.8544071 0.499187 0.1442251 78 81 23
-0.0699909531211618 0.00117347020307801 -0.000156190008298918 -0.9238118 0.1224363 -0.3627411 146 149 118
-0.0665707731317746 0.0363627933464274 0.00986677577627093 -0.8823109 0.4679677 0.05033544 101 106 53
-0.068473578482402 0.031004686955328 0.0124232543452464 -0.9086759 0.413902 0.05470995 111 111 50
-0.0699567059687807 0.0307687950901597 0.0104012335176464 -0.9228761 0.3835702 -0.03425917 109 111 93
-0.0681102266621041 0.0352105364877831 0.00953757780373188 -0.8658786 0.5002461 -0.002849774 87 98 60
-0.0683650438867316 0.0252414198920529 0.00679046615150503 -0.7131881 0.2020958 -0.6712079 107 109 93
-0.0689421260725367 0.0267139040779227 0.00649441754432833 -0.6793953 0.06717045 -0.7306916 140 150 128
-0.0704573778344679 0.0280249286667178 0.00711907553303326 -0.6691158 0.08575319 -0.738194 164 168 159
-0.0691841369211046 0.0292724578996302 0.00691552976010923 -0.7409027 0.03347987 -0.6707773 154 159 151
-0.06753614092354 0.0275451207096787 0.00479867130081446 -0.8332445 0.08370465 -0.5465319 153 152 154
-0.0674796727918627 0.028893139730969 0.00470436130220642 -0.8151554 0.05626102 -0.5765035 111 124 104
-0.0672401158081368 0.0274515892015231 0.00247734681743761 -0.9072987 0.1555136 -0.3906719 141 145 135
-0.0669196605173918 0.0285206951590017 0.00266808181674949 -0.8756203 0.1457403 -0.4604876 119 126 110
-0.0667474232028833 0.0313325547046958 0.00248280311149907 -0.8170949 0.1153737 -0.5648406 134 145 130
-0.066115648327679 0.0326513155568414 0.00374656388957906 -0.7691791 0.1706199 -0.6158347 100 112 101
-0.0662173430971178 0.0333806516605138 0.00189923037094575 -0.7823992 0.178875 -0.596536 135 137 129
-0.0657912550145947 0.0363243023479172 0.00354971134229054 -0.8230232 0.3133388 -0.4737633 118 126 103
-0.0672100691929378 0.0347618247885058 0.00368426593760907 -0.7945955 0.288914 -0.5339913 118 133 107
-0.0690505472086134 0.0345922994336637 0.00555947576127735 -0.8401759 0.3942178 -0.3724202 177 177 180
-0.0697208155759022 0.031891394876573 0.00509821236139862 -0.7884346 0.1205251 -0.6031954 162 167 155
-0.074174381502079 0.0136018704043768 0.0225060042521694 -0.8735591 0.4390576 0.2100549 98 101 64
-0.0697884742093695 0.0218877925080624 0.0221104521852107 -0.8307883 0.4869223 0.2696246 80 90 47
-0.0727311624456104 0.0224625412105076 0.0185202719505675 -0.8541482 0.4865229 0.1836472 108 112 68
-0.0769673077643458 0.0106164979750482 0.0224838844522505 -0.8819323 0.4300411 0.1930289 102 106 58
-0.0775409512019678 0.0115329384759616 0.0202884298108896 -0.8772191 0.4701142 0.09736145 140 146 114
-0.078019956621441 0.0104204859342988 0.0196457737374475 -0.8651152 0.4920321 0.09736533 84 92 53
-0.0778023117273583 0.0138926050566406 0.0147275579042178 -0.9550304 0.2574586 -0.1470784 149 154 122
-0.0775834292452382 0.0149691928024797 0.0157601959369825 -0.9609502 0.2733865 -0.04283173 179 175 178
-0.0777635737610596 0.0133963147287876 0.0131947007432973 -0.9381883 0.2579955 -0.2307402 134 142 114
-0.076999928112151 0.0137181692992123 0.0106152388532996 -0.8191599 0.1754519 -0.5460711 156 151 135
-0.0766434006831678 0.0170296735673682 0.0143859497044349 -0.9299954 0.3142609 -0.1906535 128 127 105
-0.0761743916990452 0.016995120332178 0.0124880760636804 -0.8960698 0.2829378 -0.3420602 71 89 16
-0.0769428068466933 0.0155937619497077 0.0107238411135073 -0.8700932 0.232038 -0.434852 162 164 142
-0.0731120192541752 0.0164647496789733 0.00773951291361408 -0.5625962 0.07430362 -0.823386 121 124 84
-0.0703617473145748 0.0111732221760622 0.00427170163080537 -0.7195863 0.04685378 -0.6928205 150 150 120
-0.0698255671493109 0.0177354099729218 0.00374130625465674 -0.7999403 0.04221877 -0.5985926 148 153 136
-0.0723673403445995 0.0144305573717317 0.00668995331388178 -0.5853403 0.0146177 -0.810656 149 142 109
-0.0735216693755918 0.0165711068427256 0.00714171725551949 -0.5668901 0.06239138 -0.8214274 175 171 140
-0.0708214158903493 0.0152056813486202 0.004170601810916 -0.762786 -0.01009692 -0.6465722 153 151 141
-0.0775399265139942 0.010957736456007 0.0109369076997146 -0.7784238 0.08836512 -0.6214885 152 153 138
-0.0774273850086744 0.0120809348069306 0.00977157751801494 -0.7207075 -0.0003197959 -0.6932392 170 166 148
-0.0747555310239636 0.0143608462357138 0.00843644812587574 -0.5648223 0.03969292 -0.8242574 176 174 145
-0.0761844784115877 0.0143574073573816 0.0091957672129469 -0.6934081 0.07080521 -0.7170578 176 175 154
-0.0765299522733485 0.0156733895114186 0.00862566123245356 -0.6926478 0.127979 -0.7098312 166 165 142
-0.0776721220797842 0.0129990386600725 0.00888128125750753 -0.6785508 0.0569222 -0.7323446 164 164 144
-0.0725637035791515 0.0123857091326731 0.00653078958436659 -0.5840831 0.01270402 -0.8115944 157 152 114
-0.0726259866490895 0.0178673029270098 0.00727740093457974 -0.5726221 0.1820245 -0.7993566 124 123 86
-0.0737672874696642 0.0183024555003591 0.00781771897868166 -0.5836461 0.1511348 -0.7978192 124 122 76
-0.0725557192708797 0.0202960991089759 0.00806117981243926 -0.5635463 0.2305716 -0.7932543 108 115 81
-0.0742327628036459 0.0205355855249738 0.00839610238203758 -0.5780258 0.2498708 -0.776821 176 173 140
-0.0690961555831353 0.0206986121119231 0.00331261544355743 -0.8299783 0.1611995 -0.5339952 111 117 97
-0.0700873736811478 0.0200568703012045 0.00450104501822279 -0.7665092 0.1311305 -0.6287037 155 158 148
-0.0720740195053167 0.0186383485495596 0.00650051166820242 -0.6228746 0.1551764 -0.7667773 142 145 113
-0.0700398528827022 0.0220037909431201 0.00611001341208595 -0.6704431 0.2716192 -0.6904557 112 123 94
-0.0720811335890041 0.0212752593595188 0.00596396258936849 -0.6307988 0.2578288 -0.7318587 165 167 162
-0.0758699177158286 0.0190715705311381 0.00892822470151222 -0.7314671 0.1971649 -0.6527495 168 171 150
-0.079337229823107 0.0095329450984617 0.0149179806514605 -0.9063977 0.2983049 -0.2990944 108 109 100
-0.0792602227103743 0.0111052976374185 0.0135999554679002 -0.9318645 0.2629363 -0.2499861 161 165 147
-0.0730437682732785 0.0248173128114432 0.0113123857663014 -0.7705674 0.3766351 -0.5141711 97 100 46
-0.0720889141368488 0.0241171171796202 0.0087957371603864 -0.589506 0.2345762 -0.7729532 126 127 90
-0.039890523916676 0.0871050072563134 -0.0229709575033114 -0.8520554 0.1231776 -0.5087523 124 128 118
-0.0703332984564939 0.0255546053264445 0.00824172220420216 -0.6385131 0.1739468 -0.7496956 123 129 97
-0.0728086597880999 0.0260118876118562 0.00881631812406614 -0.5903958 0.2403395 -0.7704996 148 146 118
-0.0723964089437903 0.0272875658628412 0.00764497506758577 -0.6453425 0.09900495 -0.7574504 171 176 156
-0.0588956322216276 -0.00878351804827004 0.00461324994082846 -0.9379408 0.3464245 0.01603675 105 111 103
-0.056872039375321 -0.00207877457176109 0.00366871145796355 -0.9793108 0.151791 0.1338278 121 124 116
-0.0606676413802232 -0.00534381402091066 -0.00583900651419023 0.3667016 0.8305725 -0.4191409 135 137 135
-0.0486415949829997 0.0121556879764114 -0.00806206075731808 0.09529223 -0.9268991 -0.3630116 166 172 174
-0.0516574290567258 0.0146388191615739 -0.00856272486518317 0.3179528 -0.02909086 -0.9476601 162 167 172
-0.0571828056934915 0.0071251436679387 0.00051898466716549 -0.7081986 -0.6194487 0.3387301 128 132 116
-0.0653275362799639 0.010318545877939 -0.00611311386250313 -0.8702203 0.05815715 -0.4892181 150 150 133
-0.0662393957234535 0.0118702778472765 -0.00553847591437928 -0.8616033 -0.005221495 -0.5075554 149 151 141
-0.0651124193292412 0.0121860770407328 -0.006683640227096 -0.8425069 0.004368288 -0.5386678 146 152 137
-0.0511228148717726 0.00747873698144075 -0.0123581793852447 0.0735596 0.9151596 -0.396323 159 162 169
-0.0500925790682971 0.0468291344858099 -0.0237079945304897 -0.6134003 0.1423781 -0.7768323 133 135 132
-0.0523208315373762 0.00422718935590738 -0.0138075079575508 0.05032366 0.7906784 -0.61016 161 164 173
-0.0651786379963797 0.00416765381991591 -0.0116335695216472 -0.7805386 0.3355075 -0.5274412 136 140 117
-0.0653083228724269 0.00488093282555868 -0.0127434050203374 -0.7869856 0.3130583 -0.5316467 167 165 160
-0.0646537495816282 0.00914923819873981 -0.00808811128398279 -0.86021 0.1708546 -0.4804659 83 86 64
-0.0644687931734653 0.00639355656923069 -0.00927448893913352 -0.8197928 0.3487463 -0.4542199 102 109 73
-0.0636391823291578 0.0111199876720215 -0.0105913431242384 -0.8624876 0.08994794 -0.4980206 138 146 129
-0.0635608205469196 0.0125875061866706 -0.0102715530572124 -0.8464886 0.02107543 -0.5319896 137 139 126
-0.0641866375169249 0.0106306427258035 -0.00932811259502464 -0.8466703 0.1126417 -0.5200589 132 132 117
-0.0653620626642777 0.00565132757204856 -0.00952167674711069 -0.8039336 0.3613007 -0.4723903 120 120 90
-0.0638440295035356 0.00745594998706456 -0.0123195079123416 -0.8313898 0.2753636 -0.4826655 152 154 140
-0.0622025811767273 0.0130825855039703 -0.0124050638996851 -0.8605777 0.0564778 -0.5061781 144 146 129
-0.0630860697550943 0.0120820631708531 -0.0118787476394817 -0.8660497 0.06811774 -0.4952958 152 154 148
-0.0640588189179789 0.00133182386646968 -0.0150013397362209 -0.7508588 0.2084515 -0.6267048 148 145 127
-0.0633524949008013 0.00373370981386201 -0.0152321740382777 -0.7421265 0.2274202 -0.6304985 151 153 135
-0.0620514219325483 0.00477127764801455 -0.0162283224759943 -0.7432296 0.2265496 -0.6295118 159 165 146
-0.0620110971310179 0.00592340776253664 -0.0159321082070469 -0.7495835 0.1958724 -0.6322647 141 151 133
-0.0632565900260369 0.00568196502325935 -0.0141070050352887 -0.7932538 0.2493401 -0.5554978 133 139 119
-0.0613083315756566 0.00416165361575926 -0.0174837466847997 -0.7646784 0.217871 -0.6064645 159 163 152
-0.0601518567485901 0.00377033663916304 -0.0192496851372002 -0.684985 0.2108281 -0.6973858 158 158 140
-0.059595289892536 0.0081244353292047 -0.0175534185139328 -0.7746643 0.1314288 -0.6185641 118 132 101
-0.0605884827498069 0.00866093409418911 -0.0175816823425368 -0.781485 0.1322446 -0.609748 167 168 166
-0.0603811989107119 0.0100654993277416 -0.017715489837636 -0.8108544 0.133904 -0.5697235 179 181 171
-0.0597062306424871 0.0131289268235785 -0.0181589423601468 -0.7657325 0.1181537 -0.6322131 167 168 162
-0.0617411973227684 0.0100427055560482 -0.0143648261032735 -0.8356418 0.1574837 -0.5262145 125 129 103
-0.0619779701150653 0.00841179231592204 -0.0153955788941527 -0.8139845 0.1643549 -0.5571505 146 149 128
-0.072436541828067 -0.00889412585415716 0.00241710246952143 -0.8426673 0.157264 -0.5149562 148 152 125
-0.0710794765753762 -0.00795706553343989 0.00172461776238175 -0.889118 0.1724306 -0.423954 150 153 111
-0.0726182910395021 -0.00371585658356144 0.00487453801735638 -0.7225953 0.2038513 -0.6605306 96 102 53
-0.0713794845624154 -0.00568666758199576 0.00202333995137738 -0.8489512 0.2079207 -0.4858506 128 130 101
-0.0710931257928862 -0.00599144895411496 6.18696157363985E-05 -0.914054 0.2373808 -0.3288701 161 160 128
-0.0708501319057433 -0.00188028418688779 0.0015389004654851 -0.902721 0.1417778 -0.4061943 118 119 95
-0.0608436163282464 -0.0092362441212861 -0.00570234895764388 0.1363005 0.9752046 0.1743506 97 105 92
-0.0717688113457062 -0.009033741685187 -0.00134411938773216 -0.9464254 0.2177016 -0.2385056 144 138 106
-0.072040305886631 -0.0108862064187929 -0.00321551448239954 -0.9582759 0.2470108 -0.1438506 125 130 89
-0.0710418223715177 -0.010002846797413 -0.00569372911234023 -0.9181427 0.3396127 -0.2041501 119 127 86
-0.0707268531183041 -0.00856299780747627 -0.00597650141597483 -0.8906857 0.36614 -0.2694817 131 128 99
-0.0700767822383934 -0.00162456222020857 -0.00160867267871567 -0.9355557 0.1412103 -0.3237209 161 164 144
-0.0693700623462505 -0.00161600297516318 -0.00263783472212786 -0.9387916 0.146957 -0.3115668 134 138 108
-0.0697472431493216 -0.00453875669907777 -0.00556684517559036 -0.9230787 0.2324292 -0.306435 154 148 122
-0.0689492033895838 -0.00117813620856355 -0.00447780491085559 -0.9549634 0.1437284 -0.2595901 136 138 112
-0.0759263024434809 -0.0140943751105321 0.00568751497087672 -0.7607328 0.2175405 -0.6115241 154 156 147
-0.0748059039014097 -0.0114215377042449 0.00498515856454262 -0.7828563 0.1306523 -0.6083305 146 151 137
-0.0731210130352755 -0.0107309953810816 0.00280749508667388 -0.8259479 0.1358954 -0.547122 149 151 132
-0.0728300271465163 -0.0117698135514922 0.00107909379467708 -0.8978705 0.1681992 -0.406863 141 138 122
-0.0723532239052807 -0.0101638935925801 0.00229648886235356 -0.8638921 0.146979 -0.4817547 158 155 128
-0.0734364234733733 -0.00910337233879033 0.00301653513686639 -0.8199408 0.145764 -0.5535792 165 163 152
-0.0731374774991251 -0.00882946635163251 0.00349654031549762 -0.8097178 0.1573111 -0.5653409 124 127 108
-0.0739552250273525 -0.00678186395939695 0.00482261932005179 -0.7486131 0.16182 -0.6429563 146 148 137
-0.0739843507164326 -0.00468371706107529 0.00538701628648242 -0.7237184 0.1845253 -0.6649677 162 166 146
-0.0723613271970449 -0.0120400887886564 -1.75955685047802E-05 -0.9472894 0.1537221 -0.2810912 134 135 98
-0.0725526908379965 -0.0139944389946441 -0.00126328885760751 -0.9752814 0.1768576 -0.1324674 146 144 111
-0.0722862446278709 -0.0123404924478459 -0.0019930164850438 -0.9740652 0.1828103 -0.1333322 141 142 106
-0.0709079485248632 -0.00102207807842269 0.00514286904003336 -0.7681789 0.1083224 -0.6310051 93 100 48
-0.0714109817487487 0.00102341618244883 0.00478931376071934 -0.7738197 0.08646557 -0.6274765 151 152 118
-0.049303717488264 -0.00471087061485675 -0.0216211103179116 0.03393536 -0.08838817 -0.9955079 197 198 198
-0.0710501462985658 0.0040841876123654 0.0038653301214745 -0.7666104 0.1418187 -0.6262555 164 153 138
-0.0710219312205767 0.00509489388186735 0.00448260691921554 -0.7257848 0.09132059 -0.6818336 160 160 119
-0.070493352381888 0.00476507272290483 0.00312493265365987 -0.7742665 0.1369339 -0.6178677 146 146 118
-0.069859171891399 0.00124305726738372 0.00146357539616437 -0.9095354 0.09804996 -0.4038954 103 108 77
-0.070146716688396 0.00254227028102816 0.00110393139254361 -0.8874832 0.155347 -0.4338674 148 150 119
-0.069827947852835 0.00807456305991061 0.00437433975372392 -0.7303493 0.1388804 -0.6688066 98 98 55
-0.0685332292151495 0.00716468164271533 0.000864653023759154 -0.8621751 0.1819235 -0.4728191 137 141 109
-0.0675898183497812 0.00981532151257336 -0.00172154692519899 -0.8916811 0.06097848 -0.448538 148 153 137
-0.067900168722649 0.011681206043033 -0.000104843015276579 -0.8964082 -0.008075259 -0.4431559 129 141 127
-0.0689291566934753 0.00941683976924501 0.000560679013368981 -0.8724201 0.08352356 -0.4815673 140 142 130
-0.0683837266542611 0.00315771202829451 -0.00334783555169271 -0.9108999 0.2633132 -0.317691 108 112 83
-0.0567608676914024 0.0492863871218899 -0.00778249268755948 -0.8903148 0.2623053 -0.3722036 90 107 70
-0.0681115425959118 0.00472241247745553 -0.00344144824751957 -0.883231 0.2962581 -0.3635026 143 141 119
-0.0689791018014723 0.000716705863184841 -0.00450625815930117 -0.952102 0.1325978 -0.275535 141 141 124
-0.0686951373425884 0.00127809933486245 -0.00504988805075635 -0.9377195 0.2037506 -0.281368 142 145 112
-0.0684285183798976 0.000831474599314097 -0.00684485921790023 -0.9278475 0.2005427 -0.3144545 140 142 113
-0.0670637284420383 0.00534306817578123 -0.00667349704611597 -0.8453375 0.3704966 -0.3848855 145 141 120
-0.0690783288988972 0.00195595933546788 -0.00402719705023546 -0.9293739 0.2090005 -0.3042743 115 115 81
-0.0681651696176586 0.00412720673088429 -0.00516480012511533 -0.8831042 0.3318242 -0.3316922 129 129 105
-0.0692216517221436 -0.000379222447503547 -0.00155704323469175 -0.9400221 0.1309868 -0.3149618 92 101 75
-0.067120264539593 0.0062303295586762 -0.00360895276584472 -0.8688036 0.2732198 -0.4129543 124 129 99
-0.071903454801288 -0.0131581276253011 -0.00885005522836946 -0.9086527 0.1874708 -0.3731018 153 153 128
-0.0589419105856406 -0.000769164153455182 -0.0216366271246166 -0.3303714 0.1201049 -0.9361781 181 177 174
-0.0681342174210537 -0.00738001930886367 -0.00898686211005661 -0.8203898 0.3418339 -0.4583777 97 108 70
-0.0680167740415802 -0.00760465655768583 -0.0115327351512798 -0.787246 0.3242698 -0.5244929 159 160 152
-0.0697311946187336 -0.00838672593314083 -0.0101047150857858 -0.7728812 0.4058664 -0.4877777 151 151 126
-0.071079123896757 -0.0106969707535023 -0.00964016356766628 -0.8271706 0.3582861 -0.4329203 155 163 132
-0.0680642059150016 -0.00149434545574867 -0.00677318019113415 -0.9481944 0.1356182 -0.287289 89 96 64
-0.0673547112452009 -0.00336162720196698 -0.0107747683000192 -0.8409908 0.1141494 -0.5288709 128 133 108
-0.0690861811741077 -0.00345238830397276 -0.00830718063425273 -0.9093031 0.1555653 -0.3859628 145 148 126
-0.0686763310306109 -0.0071398531802459 -0.0106647081094544 -0.8050615 0.3200621 -0.499436 163 157 133
-0.0680986372648245 -0.00581952926165108 -0.0102777407871202 -0.8526658 0.1822076 -0.4896544 168 165 164
-0.0683239734019856 -0.0110376398219082 -0.0139850570352965 -0.7476488 0.3538059 -0.5619987 124 126 110
-0.0701997233970593 -0.0136880341920348 -0.0129488829031559 -0.8016074 0.2876505 -0.5241019 163 163 142
-0.0675164336417811 -0.00934915165276429 -0.0128002455088856 -0.7642834 0.385039 -0.5173159 111 102 89
-0.0670868940555129 -0.0124689660419858 -0.0156350362857076 -0.736517 0.2893558 -0.611405 121 122 87
-0.0671774443640398 -0.0108614872403751 -0.0155788325603242 -0.743144 0.3548069 -0.5673174 166 168 130
-0.0690952547208066 -0.0137649449663596 -0.0143445518307371 -0.7735004 0.2902866 -0.5634099 176 178 165
-0.0647032732025226 -0.00459498424885518 -0.0147212691376288 -0.7691398 0.1604642 -0.6186074 145 150 126
-0.0650080465363345 -0.00302281066823795 -0.0144091603863026 -0.7633972 0.1411947 -0.6303085 142 145 126
-0.0657645269877585 -0.00073168789796052 -0.0134020602615214 -0.7422957 0.1500703 -0.6530513 160 160 141
-0.0664905770539512 -0.00274463295394922 -0.0139352255628163 -0.7662968 0.1212169 -0.6309482 164 168 138
-0.0725490071743149 -0.0126076983298115 -0.00613687591567835 -0.9589913 0.2058677 -0.1948184 144 151 108
-0.0723827782019777 -0.0132267368154407 -0.00725166263657839 -0.9474598 0.161938 -0.2758551 141 145 122
-0.0673416516908225 0.00375897389786994 -0.00745688765040375 -0.8462491 0.3832075 -0.3701547 117 120 89
-0.0677445142046182 0.00212592438191284 -0.00957956023369655 -0.8413405 0.31121 -0.4419214 161 158 155
-0.0674106880136645 2.43974055780249E-06 -0.0108459496375151 -0.8340013 0.201084 -0.5138162 154 154 134
-0.0685836697778566 -0.00107698584876237 -0.00952382278930675 -0.8934945 0.1340745 -0.4285925 151 152 136
-0.0673137730397948 0.0141554211826912 -0.00234318205606154 -0.9013135 -0.02430106 -0.4324851 135 142 125
-0.0682204737870111 0.016021412245104 -8.38509733497306E-05 -0.8911007 0.009899455 -0.4536976 143 150 140
-0.0676354177162199 0.0157891395435156 -0.00194053807367123 -0.9013785 0.006858815 -0.4329778 129 134 119
-0.0685716295735919 0.020222312902351 0.00162790931986723 -0.8643688 0.1407503 -0.4827587 147 153 140
-0.0680239510848701 0.0224952128220265 0.00277031164691977 -0.8893351 0.2059683 -0.4082403 94 103 74
-0.0674032639679174 0.0219611561188878 -0.00188433559127854 -0.8881963 0.1558545 -0.432223 133 146 127
-0.0664422257362061 0.0144868582138649 -0.00418523893229694 -0.8685769 -0.01448279 -0.4953426 125 127 113
-0.0671540265731281 0.0152425414848852 -0.00338167490632624 -0.8880115 0.0009938582 -0.4598202 142 151 134
-0.0645443181152445 0.0154801487353312 -0.00733974371317869 -0.8196206 -0.01884314 -0.5725967 139 154 138
-0.0653978016571788 0.0141916641096841 -0.00659248042653393 -0.8578004 -0.01274898 -0.5138248 161 167 159
-0.0631869283493085 0.0243441212803955 -0.0057229800931613 -0.8030385 0.207671 -0.5585713 116 124 103
-0.0642677325993803 0.0229826240209174 -0.00696253235752398 -0.7945342 0.2484344 -0.554072 129 136 122
-0.0656030848335432 0.0202889056052525 -0.00615512101568372 -0.8252198 0.1691292 -0.5388948 154 155 148
-0.063802249477761 0.0197425135824794 -0.0089198592180495 -0.7859985 0.1786152 -0.591864 141 144 134
-0.0607228845455374 0.0351867240609967 -0.0065865416822668 -0.8332561 0.1685667 -0.5265639 102 112 94
-0.0614875932203338 0.0377419875420107 -0.00481814371811973 -0.8337592 0.2485499 -0.4930198 145 150 126
-0.0626082300742064 0.0365206117039488 -0.0048823726153987 -0.8398761 0.2121579 -0.4995971 132 136 133
-0.0603692368295969 0.0338298019705728 -0.00707149106716543 -0.8169859 0.1999134 -0.5408961 106 121 101
-0.0598696700812495 0.0332423491092765 -0.0106157908458658 -0.8003951 0.1785481 -0.5722658 130 137 116
-0.0597453406097772 0.0342113308859909 -0.0106763180569525 -0.8127916 0.1019626 -0.573562 137 143 127
-0.0656487358893396 0.0291410682582569 -0.00178270627347232 -0.8774987 0.1802204 -0.4444285 134 140 126
-0.0675147093330946 0.0256989438597899 0.00072123336860308 -0.9077809 0.1977159 -0.3699219 141 138 130
-0.0662231572916179 0.0287010887289417 0.000465869675940422 -0.8961167 0.1934403 -0.3994442 109 112 91
-0.065713954411966 0.0275208351928554 -0.00127774335736031 -0.8824027 0.1867567 -0.431842 120 126 105
-0.0663502648647265 0.0258850117602117 -0.00227388545964358 -0.864835 0.1732202 -0.4712274 135 138 128
-0.0660314970811333 0.0313594691914721 4.07603834660097E-05 -0.8749406 0.2243456 -0.4291247 103 111 85
-0.063930281102218 0.0362495491707524 0.00077764978774475 -0.8589805 0.2596918 -0.4412626 124 128 109
